9.191166,9.21139,9.232044,9.2544155,9.270941,9.291639,9.306328,9.321869,9.335396,9.344774,9.354379,9.359333,9.363758,9.364815,9.364227,9.360378,9.355563,9.348223,9.339746,9.331085,9.319857,9.311512,9.300242,9.29085,9.281585,9.272301,9.2661,9.259403,9.255878,9.253607,9.253231,9.253576,9.254242,9.254655,9.254467,9.252807,9.250359,9.246103,9.242359,9.23718,9.232323,9.228298,9.223924,9.221058,9.21755,9.214594,9.211298,9.206749,9.202872,9.1970825,9.1919155,9.186174,9.179247,9.173349,9.164687,9.15736,9.147903,9.137281,9.128105,9.114851,9.104051,9.089377,9.074169,9.059716,9.040867,9.026656,9.007782,8.991385,8.975482,8.956787,8.942724,8.923152,8.906384,8.887123,8.863961,8.844818,8.817566,8.79534,8.768282,8.739871,8.716478,8.685453,8.6617565,8.628372,8.590523,8.553669,8.497759,8.450321,8.386523,8.329797,8.276381,8.217257,8.176279,8.120602,8.074647,8.026923,7.9664307,7.911804,7.8323956,7.7715254,7.7020683,7.679958,7.3974915,8.214096,10.227989,19.079624,28.029472,30.289268,30.26522,29.211578,28.708029,28.626932,28.397594,28.487072,28.896782,29.156729,29.195404,29.273407,29.354568,29.426468,29.484085,29.484669,29.423717,29.30735,29.207321,29.078117,28.988522,28.901905,28.840088,28.791752,28.731443,28.685404,28.616562,28.544292,28.46728,28.383572,28.336735,28.224157,28.084503,27.909203,27.715546,27.592789,27.430193,27.31227,27.224953,27.125038,27.177242,26.278498,24.818695,22.66034,20.448177,18.821617,17.45824,16.977314,16.561405,16.452692,16.364971,16.347733,16.375515,16.410389,16.436129,16.446228,16.440218,16.426363,16.415306,16.416473,16.430412,16.466505,16.507298,16.563908,16.604729,16.638035,16.655933,16.661667,16.683617,16.716574,16.810516,16.999363,17.19944,17.71521,18.270763,19.701733,21.296371,22.626753,23.711554,24.222908,24.644642,24.768044,24.914528,25.020172,25.099882,25.172226,25.203953,25.246078,25.301754,25.36853,25.455648,25.516119,25.583382,25.639198,25.692001,25.752499,25.792967,25.84444,25.884655,25.92292,25.95654,25.974232,25.990463,25.996426,26.00106,25.999851,25.99568,25.987862,25.980549,25.97283,25.965616,25.960325,25.952284,25.945107,25.933815,25.918285,25.902012,25.872276,25.844002,25.803162,25.765528,25.732231,25.694302,25.666058,25.62876,25.599697,25.570204,25.540503,25.5192,25.48826,25.46249,25.432312,25.40041,25.373476,25.33815,25.311974,25.27855,25.248617,25.22473,25.198097,25.180534,25.166727,25.160229,25.151882,25.138733,25.126568,25.108028,25.08936,25.066353,25.034683,25.007301,24.967434,24.933952,24.893427,24.851768,24.820267,24.778864,24.7474,24.706188,24.660412,24.615318,24.552954,24.504715,24.442116,24.386135,24.33434,24.270142,24.220844,24.153667,24.094307,24.026905,23.944128,23.878082,23.786333,23.711163,23.620188,23.52295,23.448887,23.341908,23.251682,23.113873,22.973003,22.865463,22.751955,22.685257,22.61102,22.567795,22.546158,22.532906,22.526108,22.505686,22.4723,22.423508,22.33939,22.259098,22.1498,22.060375,21.955055,21.83108,21.731983,21.551825,21.373787,21.121132
9.165927,9.1864395,9.207583,9.230821,9.248115,9.270046,9.285884,9.302804,9.317921,9.3286,9.340036,9.346457,9.352753,9.35577,9.356898,9.355362,9.352319,9.347225,9.340711,9.333792,9.324469,9.317381,9.307592,9.299217,9.290894,9.282413,9.276667,9.270456,9.267172,9.265022,9.264635,9.264939,9.265623,9.266131,9.266174,9.264965,9.263014,9.259577,9.256543,9.252329,9.248404,9.245215,9.241813,9.239617,9.236952,9.23465,9.231977,9.228088,9.224684,9.219499,9.214783,9.209519,9.203049,9.197475,9.189203,9.182146,9.17302,9.1627445,9.153859,9.141118,9.130808,9.1168375,9.102407,9.088709,9.070847,9.057377,9.039427,9.023712,9.008384,8.990066,8.976098,8.956495,8.939564,8.920081,8.896772,8.877619,8.850632,8.828839,8.802426,8.774771,8.751948,8.721692,8.698612,8.666484,8.629749,8.593107,8.538077,8.491977,8.429155,8.37248,8.318622,8.258257,8.215952,8.159414,8.113414,8.065506,8.005439,7.9522557,7.8705845,7.8051853,7.7351265,7.70922,7.4569035,8.0661955,9.770578,18.637718,27.861757,30.418772,30.572624,29.463604,28.950787,28.872553,28.639803,28.691586,29.040562,29.317017,29.419197,29.506088,29.57992,29.651302,29.706001,29.704142,29.648792,29.536856,29.432854,29.298897,29.207182,29.120132,29.060204,29.014345,28.957203,28.91317,28.84692,28.775347,28.697521,28.60643,28.54891,28.430862,28.2948,28.129414,27.947123,27.829641,27.668093,27.546516,27.456459,27.34967,27.385166,26.513489,25.101543,22.916504,20.618984,18.899364,17.470238,16.98951,16.565762,16.453608,16.363827,16.349174,16.382328,16.420265,16.446163,16.457302,16.451435,16.43671,16.42442,16.424541,16.437153,16.472237,16.512714,16.569283,16.610308,16.643951,16.66195,16.667494,16.6884,16.720001,16.811256,16.997618,17.196018,17.708862,18.258976,19.75189,21.431606,22.814253,23.911762,24.398727,24.80252,24.924543,25.082415,25.199669,25.278261,25.346203,25.373386,25.412666,25.46719,25.533424,25.619934,25.679878,25.746357,25.800995,25.852161,25.91045,25.949345,25.99895,26.03785,26.07494,26.107845,26.125402,26.142141,26.149126,26.154991,26.155735,26.153496,26.148285,26.142982,26.137793,26.133263,26.13026,26.12506,26.119818,26.11055,26.096085,26.080166,26.050163,26.021349,25.979134,25.939672,25.90451,25.864166,25.834051,25.7942,25.76309,25.731571,25.69978,25.67681,25.644062,25.61726,25.586006,25.55338,25.526028,25.490479,25.464317,25.430569,25.399977,25.37538,25.347485,25.328762,25.312876,25.304047,25.293467,25.277428,25.262985,25.241337,25.220121,25.19453,25.160217,25.130928,25.088573,25.05326,25.010777,24.96735,24.934364,24.891972,24.86053,24.81961,24.774471,24.729963,24.66832,24.620562,24.558369,24.502562,24.450956,24.386753,24.337326,24.269178,24.208427,24.139637,24.055218,23.987947,23.894272,23.817425,23.724678,23.626049,23.553333,23.435509,23.32882,23.183304,23.04265,22.935158,22.826859,22.767647,22.705736,22.677177,22.670692,22.678009,22.688698,22.664799,22.612238,22.552275,22.459072,22.374691,22.252947,22.146458,22.015179,21.854486,21.718098,21.51162,21.334068,21.093616
9.142546,9.162867,9.18391,9.207381,9.225046,9.247688,9.264269,9.282106,9.298368,9.310016,9.322926,9.330613,9.338593,9.343494,9.346327,9.3471985,9.346064,9.343443,9.339174,9.334303,9.327314,9.32183,9.313997,9.307039,9.30004,9.292717,9.287649,9.282097,9.279093,9.277124,9.276747,9.277008,9.277611,9.278065,9.278139,9.277142,9.27548,9.272594,9.270082,9.266603,9.263422,9.260909,9.258306,9.256666,9.2547,9.25296,9.250845,9.247585,9.244647,9.240089,9.23587,9.231148,9.225217,9.220039,9.212249,9.205526,9.196781,9.1868725,9.178279,9.16601,9.156124,9.1427555,9.128971,9.115894,9.098815,9.085911,9.06863,9.053351,9.038351,9.020118,9.006029,8.986128,8.968857,8.948996,8.925442,8.906244,8.879511,8.858162,8.832371,8.805523,8.783463,8.754032,8.731454,8.700531,8.665005,8.628809,8.574958,8.530374,8.468664,8.412148,8.358012,8.296852,8.253746,8.197025,8.1514225,8.103281,8.044167,7.9938498,7.9106407,7.840398,7.7691555,7.7391763,7.5058365,7.9639835,9.446827,18.347328,27.779871,30.517769,30.783367,29.652885,29.153513,29.094276,28.874704,28.902538,29.196156,29.487144,29.646189,29.741594,29.809048,29.879524,29.930534,29.9253,29.873041,29.764713,29.659132,29.523762,29.43202,29.345484,29.28727,29.243904,29.189758,29.14748,29.082787,29.012272,28.938564,28.842155,28.77045,28.644972,28.5122,28.356186,28.182713,28.066381,27.903288,27.778044,27.68407,27.569855,27.590034,26.742458,25.372835,23.15768,20.775639,18.967426,17.477201,16.998215,16.564732,16.446384,16.35538,16.345827,16.386549,16.429558,16.456348,16.468317,16.462486,16.447666,16.433796,16.431732,16.442429,16.475964,16.515402,16.571732,16.613417,16.64788,16.666481,16.672234,16.692383,16.722664,16.811302,16.994957,17.19149,17.699417,18.241192,19.792282,21.556732,23.000565,24.114569,24.56884,24.954254,25.080044,25.245766,25.372543,25.455273,25.522156,25.544292,25.581097,25.63499,25.701258,25.787601,25.847122,25.913551,25.967949,26.018085,26.075006,26.113052,26.16175,26.200222,26.237135,26.270462,26.288689,26.306793,26.315239,26.322609,26.32522,26.324677,26.321491,26.31756,26.314022,26.311193,26.309675,26.306328,26.302364,26.294437,26.280638,26.264828,26.234503,26.205265,26.161953,26.12106,26.084476,26.042202,26.010498,25.968403,25.935371,25.901783,25.867596,25.842606,25.807549,25.77932,25.746544,25.7128,25.684795,25.648708,25.622307,25.587925,25.556362,25.530758,25.501228,25.481085,25.46281,25.451447,25.438473,25.419407,25.402626,25.377735,25.35382,25.325474,25.28825,25.256824,25.211668,25.174221,25.129,25.083141,25.04854,25.005415,24.974445,24.934093,24.889858,24.846348,24.785969,24.73907,24.677567,24.621948,24.570427,24.505959,24.456158,24.386772,24.324484,24.254223,24.168356,24.100197,24.005138,23.927084,23.833113,23.733437,23.662025,23.533329,23.410555,23.260796,23.124945,23.020317,22.920088,22.870016,22.822357,22.808893,22.818985,22.836792,22.847118,22.80587,22.72868,22.650698,22.544498,22.458206,22.308163,22.16144,21.98917,21.788227,21.619196,21.397173,21.23038,21.011719
9.125074,9.144999,9.165648,9.188867,9.2064495,9.229145,9.245926,9.264078,9.28088,9.29305,9.306874,9.315439,9.324638,9.331011,9.335205,9.338068,9.3385515,9.338047,9.335739,9.332672,9.327769,9.323731,9.317682,9.312044,9.306282,9.300079,9.295701,9.290863,9.288214,9.286493,9.286179,9.28643,9.2869625,9.287348,9.2874,9.286524,9.285059,9.282572,9.280445,9.277522,9.274912,9.272916,9.27092,9.269701,9.268256,9.266937,9.265245,9.262476,9.259909,9.255863,9.252064,9.247809,9.242369,9.237563,9.230242,9.22385,9.215473,9.205909,9.197586,9.185711,9.176155,9.163242,9.149931,9.137307,9.120771,9.108244,9.091385,9.0763445,9.061484,9.043178,9.028888,9.008623,8.990995,8.970757,8.946959,8.927702,8.901149,8.88014,8.854839,8.828562,8.80694,8.778019,8.75581,8.725796,8.691534,8.656759,8.604065,8.559734,8.49824,8.441613,8.386946,8.325663,8.283098,8.22707,8.182015,8.134137,8.076125,8.028145,7.9441333,7.8704286,7.797778,7.7631397,7.540225,7.8896675,9.217481,18.164175,27.754128,30.581356,30.914005,29.799938,29.317831,29.26376,29.04892,29.071075,29.350502,29.651989,29.83389,29.934113,29.999317,30.06847,30.116241,30.108204,30.05629,29.950264,29.84652,29.712063,29.619982,29.534706,29.478703,29.437399,29.385471,29.344402,29.28076,29.210567,29.13813,29.03815,28.958977,28.828913,28.696943,28.54504,28.375582,28.259737,28.09486,27.966309,27.868656,27.748606,27.757832,26.928978,25.590836,23.346836,20.894567,19.01839,17.482334,17.005322,16.563625,16.439304,16.347067,16.341648,16.388557,16.43715,16.466309,16.478565,16.473404,16.461193,16.446339,16.44051,16.448402,16.479198,16.515984,16.571516,16.61461,16.650356,16.66986,16.675762,16.696112,16.72658,16.813393,16.993822,17.186855,17.68913,18.22398,19.821114,21.654083,23.150887,24.281548,24.709637,25.080841,25.209438,25.376251,25.5087,25.600704,25.670471,25.687908,25.723083,25.776987,25.843767,25.930506,25.989965,26.056618,26.11106,26.160728,26.217016,26.254705,26.30314,26.341732,26.379032,26.413294,26.432467,26.452063,26.461864,26.47061,26.47474,26.475494,26.473705,26.470577,26.46798,26.466057,26.465328,26.462952,26.45964,26.452347,26.43877,26.422878,26.3922,26.362621,26.31852,26.276638,26.239101,26.195438,26.162518,26.118696,26.084126,26.04881,26.012527,25.98575,25.948631,25.91911,25.8849,25.850061,25.821407,25.784729,25.758003,25.722921,25.690355,25.663725,25.632574,25.611042,25.590557,25.576937,25.561852,25.540192,25.521431,25.493809,25.467606,25.436916,25.39716,25.363804,25.3162,25.276852,25.22865,25.180286,25.1447,25.101128,25.070368,25.030453,24.987087,24.944603,24.88555,24.839535,24.778708,24.72321,24.671665,24.606773,24.556463,24.48582,24.422115,24.350523,24.263466,24.194689,24.098661,24.01978,23.924803,23.824835,23.755764,23.619312,23.483662,23.329948,23.198214,23.097986,23.00682,22.96547,22.929451,22.927826,22.95686,22.971481,22.954306,22.896172,22.81482,22.724947,22.613346,22.539074,22.344057,22.12415,21.895348,21.663742,21.490047,21.274694,21.121752,20.928661
9.108814,9.12781,9.147461,9.16966,9.186528,9.208401,9.224678,9.242361,9.258942,9.271058,9.285152,9.294204,9.304239,9.311876,9.317343,9.322239,9.324474,9.326342,9.326353,9.325485,9.323242,9.3211155,9.317516,9.313789,9.309855,9.305402,9.30215,9.298547,9.296589,9.295435,9.295414,9.29579,9.296348,9.296666,9.296691,9.295901,9.294601,9.292494,9.290756,9.288412,9.286417,9.284982,9.28365,9.282893,9.282022,9.281166,9.279943,9.277729,9.275591,9.2721615,9.268896,9.265255,9.260504,9.256248,9.249648,9.243788,9.236017,9.227008,9.219112,9.207789,9.198647,9.186253,9.173407,9.161198,9.145092,9.132818,9.116167,9.101118,9.08614,9.067429,9.052681,9.031735,9.013538,8.992729,8.968576,8.949232,8.922893,8.902295,8.877447,8.851861,8.831005,8.803285,8.782048,8.752781,8.719203,8.685622,8.633838,8.589558,8.528775,8.473049,8.418939,8.358544,8.316897,8.262499,8.219,8.172349,8.116232,8.070942,7.986935,7.910365,7.835803,7.7944965,7.5789137,7.8151674,8.988175,18.038181,27.824188,30.680344,31.054184,29.999577,29.541563,29.478188,29.261314,29.300898,29.613758,29.917467,30.07763,30.173805,30.238926,30.306608,30.351505,30.341011,30.28759,30.183327,30.084293,29.953323,29.861565,29.778854,29.726143,29.6875,29.638126,29.598263,29.535496,29.465214,29.39293,29.290375,29.206867,29.073513,28.940798,28.789082,28.620335,28.505087,28.337997,28.205421,28.10365,27.976894,27.97364,27.163532,25.857094,23.572512,21.032993,19.076324,17.485632,17.009724,16.55907,16.430355,16.340908,16.34101,16.390991,16.44579,16.480133,16.494385,16.488155,16.473682,16.455156,16.446526,16.453667,16.484522,16.52072,16.575459,16.6181,16.654118,16.674608,16.682446,16.700554,16.725653,16.810322,16.990044,17.179794,17.67442,18.198906,19.849697,21.76715,23.33852,24.4976,24.892492,25.244413,25.375946,25.550709,25.693789,25.791449,25.861305,25.87394,25.907368,25.96173,26.029675,26.117743,26.177832,26.245564,26.300747,26.350376,26.406712,26.444729,26.493732,26.533257,26.57208,26.608604,26.62959,26.651585,26.66315,26.673386,26.678707,26.68034,26.679201,26.676157,26.673512,26.67138,26.670513,26.667957,26.664509,26.657043,26.643211,26.626938,26.59585,26.566072,26.521431,26.478825,26.440575,26.395641,26.361465,26.315754,26.279385,26.241905,26.202923,26.173855,26.134106,26.102942,26.066929,26.030777,26.00144,25.964113,25.936989,25.90107,25.867285,25.839375,25.806255,25.783073,25.760033,25.74387,25.726458,25.701912,25.680923,25.65009,25.621044,25.587296,25.54403,25.507938,25.456562,25.414139,25.361713,25.30986,25.272713,25.228302,25.197731,25.158337,25.116213,25.075335,25.01831,24.973618,24.913809,24.858515,24.806982,24.741562,24.690586,24.61848,24.55322,24.480244,24.392021,24.322674,24.225742,24.146107,24.051723,23.948833,23.872164,23.727167,23.587687,23.435959,23.31237,23.220211,23.141464,23.11027,23.087936,23.094275,23.126808,23.124743,23.078972,22.998608,22.90705,22.811298,22.66291,22.529804,22.253674,21.976402,21.710648,21.473553,21.310764,21.116535,20.983139,20.817621
9.101173,9.119259,9.137912,9.158972,9.174965,9.1957,9.211143,9.227949,9.243788,9.255394,9.269083,9.278053,9.288191,9.296303,9.302344,9.308321,9.311566,9.314868,9.316382,9.31698,9.316597,9.315859,9.3141,9.311876,9.309403,9.306403,9.304116,9.301611,9.300314,9.29974,9.300079,9.30065,9.301316,9.301622,9.301645,9.300888,9.2996645,9.297754,9.296234,9.294231,9.292608,9.291516,9.2906,9.290134,9.289625,9.289061,9.28813,9.286272,9.28441,9.281403,9.278517,9.27532,9.271099,9.267286,9.26128,9.255871,9.248626,9.240096,9.232559,9.22167,9.212824,9.200766,9.188161,9.176145,9.160174,9.147936,9.131214,9.115955,9.1007,9.081503,9.066299,9.044737,9.026065,9.004801,8.980371,8.96096,8.934774,8.914461,8.889805,8.864698,8.844585,8.818199,8.798091,8.769066,8.735192,8.701781,8.650156,8.605871,8.546061,8.491827,8.439118,8.380026,8.338926,8.286055,8.244259,8.199088,8.1446295,8.100997,8.017649,7.940106,7.8642635,7.817918,7.604722,7.772168,8.855585,18.01098,27.942703,30.771736,31.148998,30.158396,29.716827,29.635605,29.411152,29.478745,29.849102,30.146202,30.256447,30.342266,30.408829,30.475756,30.519644,30.508312,30.45285,30.349113,30.254555,30.12728,30.036251,29.955898,29.905773,29.869076,29.821388,29.782202,29.7198,29.649153,29.57596,29.472805,29.389603,29.255686,29.12146,28.966675,28.795795,28.681282,28.51289,28.377625,28.27346,28.142384,28.130894,27.330772,26.041702,23.725979,21.125454,19.114231,17.485943,17.009588,16.553791,16.424688,16.340641,16.344772,16.393078,16.451263,16.490711,16.507788,16.499157,16.478075,16.454927,16.446268,16.455406,16.489456,16.527779,16.582195,16.622486,16.657448,16.678429,16.689117,16.703566,16.720167,16.80336,16.985413,17.17407,17.663244,18.17928,19.865498,21.841906,23.471245,24.65539,25.026854,25.363844,25.496788,25.683643,25.837534,25.932978,25.99916,26.0094,26.041714,26.096605,26.165651,26.255188,26.316204,26.38524,26.441387,26.49131,26.548206,26.586958,26.636917,26.677574,26.718136,26.756926,26.77956,26.803545,26.816357,26.827415,26.833027,26.834732,26.833275,26.829659,26.82615,26.822975,26.821259,26.817644,26.813469,26.805262,26.790926,26.77422,26.742886,26.713144,26.668438,26.625671,26.58723,26.541702,26.506819,26.459953,26.422392,26.383392,26.342484,26.311798,26.270203,26.237907,26.200672,26.163692,26.133995,26.096323,26.068966,26.03253,25.997974,25.96922,25.934834,25.910625,25.886017,25.86832,25.84955,25.823286,25.80094,25.768028,25.73702,25.701057,25.655088,25.616856,25.562313,25.517242,25.46164,25.407177,25.368603,25.323341,25.292854,25.253788,25.212631,25.173061,25.117676,25.074024,25.01503,24.959934,24.908464,24.842735,24.791319,24.718334,24.652193,24.578487,24.489689,24.420063,24.322666,24.242664,24.150135,24.043022,23.952404,23.802057,23.66948,23.524494,23.408703,23.3237,23.25393,23.228977,23.215542,23.222221,23.240173,23.219265,23.164337,23.06873,22.96328,22.870987,22.672306,22.43583,22.087444,21.805832,21.546114,21.33108,21.184723,21.011154,20.891745,20.740162
9.097684,9.113943,9.130946,9.150009,9.164318,9.182742,9.196357,9.211152,9.225067,9.235243,9.2473955,9.25552,9.264904,9.272826,9.278966,9.285603,9.289678,9.294292,9.297371,9.299576,9.301348,9.302265,9.302736,9.302364,9.3017025,9.300501,9.299402,9.298237,9.297733,9.297855,9.29863,9.299436,9.300246,9.300556,9.30061,9.299957,9.298893,9.297324,9.296152,9.294674,9.293607,9.2930155,9.292681,9.292614,9.29257,9.29235,9.291754,9.290284,9.288723,9.286182,9.283741,9.281094,9.277589,9.274405,9.2693,9.26462,9.258261,9.250605,9.243757,9.233723,9.225481,9.2141285,9.202077,9.19051,9.174939,9.1628895,9.146244,9.130832,9.115313,9.095571,9.079829,9.057533,9.038294,9.016483,8.991706,8.972204,8.945958,8.925753,8.901829,8.877832,8.85865,8.833008,8.81307,8.784335,8.750549,8.716768,8.665443,8.6221075,8.564133,8.512083,8.461538,8.40509,8.3659,8.3161335,8.277081,8.2345915,8.181848,8.138416,8.056344,7.979274,7.8981175,7.842041,7.6322336,7.725363,8.708662,17.938124,28.007463,30.858624,31.286667,30.368855,29.940193,29.829433,29.593374,29.703018,30.158302,30.444885,30.480772,30.552269,30.622377,30.688793,30.731739,30.71958,30.66283,30.560703,30.471256,30.348896,30.259804,30.183123,30.136578,30.102453,30.056934,30.01857,29.956596,29.885399,29.811123,29.706589,29.622627,29.487272,29.351254,29.193062,29.020874,28.909058,28.73981,28.601107,28.496975,28.362232,28.338398,27.54803,26.278786,23.919775,21.239733,19.161423,17.484612,17.003647,16.54235,16.416042,16.338837,16.348522,16.396301,16.457005,16.499542,16.518124,16.50757,16.481861,16.457703,16.451128,16.457893,16.49099,16.532768,16.591024,16.633194,16.670591,16.690468,16.696457,16.700655,16.707722,16.78973,16.97596,17.165295,17.648907,18.153946,19.882408,21.933023,23.644821,24.869343,25.211967,25.528131,25.660202,25.864597,26.034925,26.127209,26.188412,26.195646,26.22676,26.282703,26.35351,26.445257,26.50761,26.578705,26.636246,26.686121,26.743366,26.783106,26.833853,26.875479,26.918278,26.960138,26.98495,27.01155,27.026045,27.038475,27.044704,27.046482,27.04444,27.039837,27.034897,27.030102,27.027206,27.022057,27.016754,27.007317,26.992058,26.97459,26.942642,26.91267,26.867624,26.82447,26.78556,26.739025,26.703066,26.654549,26.61538,26.574436,26.531162,26.498516,26.454838,26.421413,26.383003,26.345396,26.315619,26.277931,26.250513,26.213627,26.17818,26.148445,26.112434,26.086798,26.060143,26.040443,26.019766,25.991043,25.966747,25.930792,25.89686,25.857552,25.80766,25.76651,25.707108,25.657772,25.598036,25.540451,25.499916,25.453453,25.423073,25.38441,25.344534,25.306763,25.253626,25.21138,25.153421,25.09847,25.046982,24.98061,24.92836,24.853992,24.78658,24.711761,24.622076,24.552048,24.453907,24.373371,24.283798,24.172,24.06384,23.906605,23.782576,23.6464,23.540813,23.464943,23.406052,23.388222,23.384663,23.389812,23.386353,23.33995,23.274364,23.162258,23.03365,22.904783,22.628878,22.300926,21.89761,21.62313,21.368431,21.167038,21.030994,20.874298,20.769571,20.6339
9.101155,9.11561,9.130905,9.147789,9.160271,9.1761055,9.187595,9.200005,9.211519,9.21986,9.229861,9.236617,9.244564,9.251556,9.257135,9.26354,9.267763,9.27283,9.276718,9.279856,9.283022,9.28507,9.287126,9.288128,9.288816,9.288986,9.288805,9.28868,9.288809,9.289503,9.290678,9.291728,9.292749,9.293146,9.293337,9.292892,9.292059,9.290895,9.290091,9.289145,9.288612,9.288487,9.2886715,9.288939,9.289269,9.289293,9.28891,9.287667,9.286274,9.284008,9.281855,9.279594,9.276664,9.274019,9.269737,9.265764,9.260304,9.253576,9.24748,9.238394,9.230827,9.220271,9.208853,9.1978,9.182705,9.170906,9.15443,9.138963,9.12329,9.103167,9.08704,9.064184,9.044482,9.022202,8.997071,8.977404,8.951091,8.931038,8.907875,8.8848095,8.866236,8.840461,8.81979,8.790975,8.757278,8.72279,8.671852,8.629985,8.57412,8.524336,8.476124,8.422824,8.386208,8.339943,8.303593,8.2639265,8.21221,8.167365,8.08648,8.010815,7.921157,7.8540597,7.6476035,7.69878,8.62068,17.839426,27.957623,30.878828,31.400856,30.54604,30.125523,29.982597,29.736319,29.878845,30.4,30.677616,30.65475,30.714346,30.786732,30.852627,30.894823,30.88224,30.825449,30.725395,30.639688,30.521639,30.43505,30.36203,30.318634,30.286516,30.242592,30.204811,30.143118,30.071457,29.996292,29.890497,29.80569,29.668919,29.5316,29.371592,29.199837,29.09135,28.922325,28.7812,28.678013,28.541481,28.509289,27.72447,26.466423,24.069073,21.324898,19.196276,17.481722,16.99458,16.530851,16.409655,16.336372,16.349865,16.399143,16.460947,16.503483,16.521812,16.510693,16.484442,16.461216,16.45548,16.457537,16.487396,16.53177,16.595333,16.642086,16.68343,16.701546,16.699928,16.693474,16.693686,16.773886,16.963287,17.156223,17.63687,18.131355,19.89026,21.999744,23.78609,25.051586,25.372711,25.670446,25.7981,26.014347,26.198868,26.292736,26.352375,26.356606,26.386887,26.44386,26.516266,26.609774,26.672985,26.745255,26.803452,26.853195,26.910334,26.950268,27.00116,27.04339,27.087921,27.132202,27.158674,27.187248,27.20287,27.215778,27.221905,27.22354,27.221153,27.216125,27.210373,27.204418,27.200453,27.193802,27.18734,27.17657,27.160225,27.141865,27.109005,27.078491,27.032791,26.989033,26.949442,26.901783,26.864758,26.814716,26.774197,26.73172,26.686764,26.652794,26.607922,26.574072,26.53531,26.497835,26.46851,26.431358,26.404205,26.36726,26.331272,26.30088,26.263603,26.236767,26.208466,26.187145,26.164845,26.133936,26.107895,26.069157,26.032507,25.990131,25.936583,25.892654,25.828615,25.7753,25.712233,25.65229,25.610025,25.56245,25.532125,25.493801,25.455076,25.41896,25.367893,25.32694,25.269938,25.2151,25.163548,25.09645,25.04329,24.967607,24.899078,24.82324,24.73275,24.662369,24.563705,24.482626,24.393599,24.277184,24.156675,23.99571,23.879223,23.75077,23.653421,23.584625,23.53334,23.519867,23.521988,23.523506,23.500113,23.432455,23.360159,23.23772,23.085953,22.893847,22.545406,22.177944,21.760658,21.501694,21.251575,21.05336,20.919674,20.770163,20.673763,20.54702
9.106391,9.1193905,9.132587,9.146801,9.157383,9.170488,9.17971,9.1895485,9.19846,9.2048025,9.212431,9.21764,9.223923,9.229752,9.234574,9.240494,9.24468,9.249977,9.254501,9.258426,9.26285,9.26596,9.269539,9.271905,9.2739525,9.275536,9.276319,9.2773285,9.278187,9.279571,9.281292,9.282715,9.284128,9.2847595,9.285271,9.285208,9.28475,9.284169,9.283858,9.283603,9.283726,9.284172,9.284973,9.285639,9.286407,9.286705,9.286545,9.285513,9.284271,9.28224,9.280338,9.278437,9.27607,9.273966,9.270542,9.267331,9.262848,9.257153,9.251902,9.243884,9.237086,9.227441,9.216742,9.206264,9.191698,9.180174,9.163892,9.148388,9.132585,9.112161,9.095764,9.072371,9.052076,9.029043,9.003144,8.982859,8.956884,8.937819,8.914927,8.891899,8.873713,8.847801,8.826519,8.797222,8.763222,8.728239,8.677898,8.637478,8.583984,8.536869,8.491364,8.441532,8.407606,8.36496,8.331338,8.294482,8.243664,8.197349,8.116943,8.041407,7.93929,7.859933,7.6626577,7.6765175,8.532125,17.654297,27.761093,30.818565,31.50958,30.737577,30.334175,30.152702,29.899395,30.05749,30.608982,30.88306,30.833172,30.884495,30.954609,31.018938,31.059584,31.046463,30.989883,30.892262,30.810276,30.696684,30.61287,30.543745,30.503565,30.473349,30.430893,30.393661,30.332294,30.260263,30.184284,30.077349,29.991812,29.85361,29.71537,29.555561,29.3861,29.281136,29.11319,28.969944,28.863033,28.722858,28.688534,27.911964,26.662212,24.222813,21.411247,19.230972,17.478956,16.987091,16.52285,16.406612,16.3321,16.347326,16.401924,16.466858,16.509403,16.52732,16.51659,16.492699,16.465807,16.45325,16.451832,16.480812,16.525137,16.591793,16.6427,16.686296,16.703472,16.699604,16.686499,16.679537,16.754915,16.945082,17.144968,17.623497,18.103535,19.89303,22.066723,23.939442,25.252373,25.546736,25.822443,25.943686,26.161263,26.357025,26.465061,26.530642,26.529903,26.559172,26.616955,26.690762,26.785355,26.848581,26.920092,26.977535,27.027943,27.084667,27.122898,27.173393,27.216707,27.262783,27.309092,27.33691,27.367622,27.384377,27.39556,27.399456,27.400629,27.39902,27.395401,27.390514,27.38426,27.379082,27.370644,27.362888,27.350582,27.332869,27.313297,27.279045,27.247604,27.200712,27.155884,27.115196,27.065952,27.027523,26.975601,26.933563,26.889427,26.84288,26.807804,26.762148,26.728264,26.689667,26.652866,26.62442,26.588272,26.56164,26.524921,26.488544,26.457565,26.418976,26.390839,26.36073,26.337584,26.31344,26.280031,26.251974,26.210062,26.170374,26.124708,26.066982,26.019493,25.950308,25.893005,25.826435,25.76395,25.719799,25.671028,25.640804,25.603033,25.565872,25.531864,25.483501,25.444323,25.388863,25.33455,25.283195,25.215548,25.161526,25.084572,25.014904,24.937962,24.846529,24.775696,24.676666,24.594673,24.501316,24.377825,24.249592,24.087801,23.97802,23.857101,23.767681,23.70551,23.660973,23.651058,23.658043,23.656094,23.614769,23.526772,23.446388,23.315449,23.141293,22.87312,22.453568,22.071579,21.64763,21.392693,21.142368,20.94651,20.817642,20.676285,20.586838,20.466797
9.113514,9.125399,9.136784,9.148447,9.157049,9.167319,9.174198,9.181421,9.187664,9.191929,9.197002,9.200467,9.204794,9.209095,9.21282,9.217736,9.221451,9.22644,9.231117,9.235384,9.240548,9.244355,9.249013,9.252423,9.255537,9.258284,9.259887,9.261904,9.26346,9.265548,9.267905,9.269798,9.271789,9.272831,9.273882,9.274431,9.274548,9.274779,9.275112,9.275705,9.276585,9.277665,9.279114,9.280172,9.281347,9.2818575,9.2818365,9.2808895,9.279694,9.277744,9.275964,9.274286,9.272379,9.270748,9.26814,9.265694,9.262222,9.257626,9.253275,9.246411,9.240447,9.231787,9.22188,9.212041,9.198093,9.186918,9.170954,9.155506,9.139642,9.118828,9.101946,9.077824,9.05694,9.033423,9.007312,8.986999,8.961618,8.943366,8.920898,8.8978615,8.879555,8.853096,8.831114,8.800345,8.765254,8.7301445,8.681075,8.642481,8.592119,8.548553,8.506603,8.461509,8.43147,8.393467,8.362965,8.329389,8.279427,8.23107,8.151074,8.075631,7.958536,7.862316,7.665951,7.655286,8.470462,17.505165,27.588615,30.754055,31.608047,30.943237,30.567234,30.344814,30.08537,30.247713,30.808945,31.081455,31.021122,31.064037,31.12727,31.188698,31.226364,31.212128,31.15629,31.062122,30.98418,30.875626,30.795208,30.731262,30.69522,30.666718,30.625479,30.588825,30.528023,30.455967,30.379484,30.271603,30.185331,30.045382,29.906483,29.749832,29.584503,29.481464,29.314241,29.169886,29.059958,28.917828,28.884682,28.11549,26.869347,24.383297,21.500322,19.265041,17.47412,16.978643,16.515682,16.40551,16.328566,16.344366,16.404432,16.472118,16.514198,16.531836,16.521288,16.499008,16.467228,16.447033,16.44278,16.47129,16.514591,16.582813,16.636814,16.682169,16.69976,16.696444,16.680958,16.669834,16.736599,16.922264,17.131214,17.607956,18.069828,19.893467,22.13723,24.09224,25.456259,25.739653,25.997063,26.103489,26.3162,26.523384,26.654104,26.730116,26.722328,26.7501,26.808453,26.8835,26.978577,27.041035,27.110397,27.165718,27.21591,27.2714,27.307446,27.357128,27.401241,27.44834,27.49601,27.52484,27.555683,27.571388,27.580353,27.582283,27.583006,27.582165,27.580097,27.577225,27.572132,27.566607,27.556974,27.547987,27.534218,27.515026,27.494041,27.457943,27.425117,27.376392,27.329918,27.287563,27.236252,27.196205,27.142223,27.098654,27.05297,27.005207,26.969463,26.923717,26.890434,26.852818,26.817493,26.790499,26.755949,26.730164,26.69394,26.657284,26.625786,26.58591,26.55645,26.524513,26.499516,26.473503,26.437462,26.407217,26.361843,26.31884,26.269707,26.207317,26.155434,26.08099,26.020275,25.950413,25.885365,25.83923,25.78897,25.758522,25.721066,25.685314,25.653255,25.607338,25.569695,25.515377,25.461079,25.4093,25.340271,25.28475,25.205818,25.134617,25.056347,24.963902,24.892591,24.794022,24.711226,24.606598,24.4725,24.343464,24.185623,24.081871,23.968367,23.886215,23.829777,23.790678,23.783289,23.791172,23.783905,23.730274,23.626705,23.537674,23.395096,23.193882,22.842278,22.353365,21.970478,21.543905,21.286776,21.03391,20.8394,20.715218,20.580511,20.495548,20.377861
9.118231,9.129465,9.140072,9.150305,9.157429,9.165625,9.170834,9.176284,9.180731,9.183562,9.18682,9.188999,9.191853,9.1949215,9.197726,9.201677,9.204821,9.209307,9.213836,9.218098,9.223489,9.2275715,9.2327175,9.236656,9.240334,9.243727,9.245794,9.248413,9.2504225,9.252983,9.255818,9.258078,9.260567,9.262003,9.263561,9.2646885,9.265345,9.266293,9.267153,9.268418,9.269865,9.271406,9.273302,9.274616,9.276044,9.276663,9.276688,9.275728,9.274504,9.272526,9.270758,9.269165,9.267511,9.266172,9.264099,9.262179,9.259421,9.255613,9.2519,9.245863,9.2404995,9.23255,9.223221,9.21385,9.200397,9.189533,9.173938,9.158653,9.14283,9.121538,9.103893,9.078872,9.057538,9.034092,9.008703,8.989342,8.964358,8.945878,8.924171,8.901686,8.882906,8.85589,8.83359,8.800907,8.764179,8.729231,8.681501,8.644373,8.596634,8.556089,8.517143,8.47624,8.4498205,8.415842,8.387835,8.356929,8.307692,8.257713,8.1781845,8.103085,7.975988,7.8643074,7.6568775,7.63222,8.438191,17.464993,27.559708,30.749668,31.677921,31.09691,30.743923,30.494379,30.229725,30.393394,30.960672,31.231167,31.162556,31.19751,31.253952,31.312744,31.347424,31.331833,31.276638,31.18553,31.110985,31.006191,30.928032,30.868874,30.83691,30.80953,30.768959,30.732742,30.672504,30.600676,30.524055,30.415638,30.328808,30.187336,30.048115,29.895966,29.734505,29.630766,29.462944,29.31852,29.209244,29.068016,29.035463,28.269781,27.024021,24.502378,21.566051,19.288786,17.468578,16.97108,16.509796,16.405102,16.328213,16.34475,16.407127,16.475315,16.516407,16.53426,16.52296,16.498867,16.464527,16.44239,16.436531,16.464224,16.507317,16.575912,16.6307,16.67743,16.696476,16.69418,16.679577,16.668533,16.726934,16.90543,17.121374,17.596565,18.04332,19.894627,22.190853,24.1916,25.59005,25.884037,26.135191,26.225388,26.434685,26.652157,26.801632,26.884972,26.869656,26.89563,26.954521,27.030392,27.125576,27.18719,27.254744,27.307972,27.356613,27.410583,27.445759,27.494846,27.539024,27.586456,27.634703,27.664183,27.692884,27.70542,27.713593,27.715637,27.716143,27.714994,27.712921,27.711697,27.708414,27.703384,27.693449,27.68364,27.668922,27.648668,27.626629,27.589035,27.555025,27.504711,27.456793,27.412954,27.359978,27.318783,27.263344,27.218758,27.172108,27.123732,27.08775,27.0423,27.00975,26.973242,26.939373,26.913673,26.880558,26.85557,26.819832,26.783035,26.751247,26.710558,26.680222,26.647058,26.620796,26.59352,26.555618,26.523766,26.475822,26.430336,26.37867,26.31266,26.25707,26.179,26.11652,26.04457,25.977728,25.93021,25.878723,25.84787,25.810455,25.775528,25.744629,25.70013,25.663326,25.609446,25.55475,25.502218,25.431646,25.374657,25.293837,25.221262,25.14193,25.048737,24.97697,24.879692,24.797012,24.679985,24.535717,24.410131,24.257862,24.157965,24.049667,23.972336,23.9194,23.883799,23.878244,23.883327,23.870178,23.812824,23.702389,23.606447,23.453945,23.232658,22.82585,22.287882,21.897757,21.463799,21.203686,20.949333,20.75719,20.636902,20.507275,20.425182,20.307186
9.124388,9.135224,9.145295,9.154425,9.1603775,9.166888,9.17069,9.174561,9.177359,9.178898,9.180487,9.181448,9.182846,9.184603,9.1863575,9.18912,9.191498,9.195154,9.199156,9.20305,9.208178,9.212154,9.217285,9.22135,9.225212,9.228923,9.231268,9.234314,9.236702,9.239679,9.242978,9.245617,9.248632,9.250489,9.252588,9.254309,9.255472,9.25721,9.258752,9.260876,9.263027,9.265104,9.267464,9.268995,9.27058,9.27118,9.271108,9.269955,9.268566,9.266376,9.264478,9.262827,9.261312,9.260194,9.258598,9.257194,9.255188,9.252235,9.24921,9.244057,9.239334,9.2321205,9.223394,9.214566,9.201652,9.19109,9.175649,9.160255,9.144227,9.122639,9.104775,9.079638,9.058413,9.035215,9.010425,8.99175,8.967653,8.949785,8.928806,8.906446,8.887224,8.858708,8.834738,8.800323,8.763119,8.728952,8.683642,8.64904,8.605415,8.569298,8.534578,8.499714,8.478733,8.450466,8.4257145,8.398282,8.349794,8.297216,8.219612,8.147018,8.006456,7.8743167,7.6498876,7.6231256,8.447302,17.566782,27.716537,30.79778,31.723373,31.283928,30.975937,30.696121,30.424923,30.589333,31.164948,31.431955,31.351,31.374563,31.420918,31.474922,31.504639,31.487127,31.433352,31.346786,31.276001,31.177683,31.105255,31.05214,31.024029,30.998083,30.958729,30.923458,30.864538,30.793549,30.717213,30.608349,30.520779,30.377308,30.237038,30.08808,29.929554,29.825205,29.656906,29.512909,29.406948,29.268665,29.236185,28.4729,27.22575,24.66005,21.656477,19.321747,17.462578,16.96475,16.503275,16.402178,16.326464,16.342495,16.402927,16.47269,16.51689,16.53561,16.522636,16.495522,16.45845,16.435133,16.427797,16.454575,16.497414,16.566313,16.62184,16.67004,16.69077,16.68964,16.676716,16.666695,16.715202,16.883503,17.10338,17.575678,18.008062,19.90083,22.268333,24.328432,25.772816,26.084982,26.325512,26.388008,26.592796,26.820791,26.984047,27.076784,27.061228,27.086676,27.144579,27.221312,27.316572,27.377165,27.44257,27.493326,27.540157,27.592327,27.626457,27.67468,27.718706,27.766375,27.815006,27.84486,27.871216,27.880657,27.888416,27.891329,27.892326,27.891926,27.890644,27.891226,27.890463,27.887945,27.879532,27.86942,27.854494,27.833591,27.810635,27.771393,27.735897,27.68348,27.633572,27.587719,27.53257,27.489956,27.43276,27.387003,27.33939,27.29055,27.254448,27.209679,27.178333,27.143478,27.111557,27.087498,27.056019,27.03177,26.99625,26.958849,26.92633,26.88425,26.85263,26.817862,26.790134,26.76146,26.721535,26.68791,26.637146,26.588959,26.534462,26.464838,26.405949,26.324356,26.259857,26.185623,26.11663,26.067327,26.01388,25.981901,25.94352,25.908253,25.877476,25.83274,25.795315,25.73971,25.68242,25.62697,25.552275,25.491955,25.407257,25.332254,25.251196,25.157265,25.08554,24.989685,24.906563,24.774597,24.619135,24.499516,24.355453,24.260437,24.15793,24.085625,24.03706,24.004267,23.998604,24.001995,23.985294,23.92482,23.807903,23.706497,23.521667,23.253563,22.790146,22.20747,21.808155,21.361675,21.093395,20.83552,20.642956,20.521397,20.390083,20.306503,20.185186
9.128601,9.139534,9.14961,9.158584,9.164342,9.170515,9.173967,9.177347,9.179581,9.1807,9.181709,9.182206,9.182995,9.1841,9.185274,9.187307,9.18917,9.192154,9.19557,9.198959,9.203511,9.207082,9.211727,9.215463,9.219048,9.222582,9.22487,9.227937,9.230427,9.233533,9.237027,9.239847,9.243128,9.245201,9.247578,9.249584,9.250958,9.253123,9.255102,9.257769,9.260357,9.262745,9.265315,9.266901,9.268452,9.268896,9.268627,9.267193,9.265586,9.2631,9.26099,9.259161,9.257576,9.256477,9.255024,9.253824,9.25215,9.249599,9.246891,9.242146,9.237719,9.230848,9.2224245,9.213911,9.2012825,9.190844,9.175269,9.159573,9.143227,9.121689,9.104252,9.07981,9.059158,9.036259,9.011646,8.993041,8.969861,8.953114,8.932373,8.909575,8.890141,8.860062,8.834114,8.799194,8.76299,8.729809,8.686718,8.654383,8.614191,8.581561,8.550097,8.519932,8.503279,8.4793625,8.456941,8.432071,8.384062,8.329336,8.253544,8.183519,8.03261,7.8864403,7.649353,7.637224,8.5014715,17.770567,27.9902,30.87825,31.718624,31.403963,31.1391,30.842346,30.567434,30.732332,31.314394,31.579212,31.489342,31.504541,31.543022,31.592758,31.618248,31.599283,31.546974,31.464064,31.395424,31.302893,31.236652,31.187471,31.160755,31.13573,31.097414,31.063013,31.005348,30.935253,30.85936,30.750257,30.662058,30.517078,30.375479,30.226368,30.068123,29.963785,29.795527,29.652199,29.550446,29.415367,29.381748,28.61953,27.37194,24.77737,21.72709,19.348362,17.459656,16.962706,16.499058,16.398027,16.324099,16.338795,16.394175,16.465538,16.514973,16.53474,16.52031,16.490921,16.452402,16.428997,16.421026,16.447277,16.489916,16.558952,16.614899,16.663883,16.685516,16.68499,16.673372,16.664486,16.707111,16.867989,17.086332,17.55576,17.982353,19.909191,22.330286,24.434126,25.912502,26.239399,26.46957,26.507397,26.708817,26.941864,27.106392,27.205675,27.197578,27.224047,27.279856,27.357033,27.452333,27.512314,27.576435,27.625761,27.671621,27.72276,27.756199,27.80376,27.847534,27.895262,27.943897,27.97359,27.998857,28.00719,28.015099,28.01906,28.020988,28.02205,28.022022,28.023653,28.024687,28.025131,28.019133,28.009466,27.995228,27.974483,27.951286,27.911186,27.874756,27.820919,27.769585,27.722317,27.665699,27.622192,27.563894,27.51744,27.46936,27.420412,27.38432,27.340172,27.309772,27.27613,27.245495,27.222446,27.191807,27.167768,27.131987,27.09377,27.06041,27.017056,26.984406,26.948477,26.91986,26.890404,26.84938,26.814785,26.76249,26.712852,26.656765,26.585491,26.52552,26.442368,26.376595,26.301048,26.23066,26.180077,26.124905,26.091637,26.051718,26.015034,25.9832,25.93658,25.897305,25.83861,25.777805,25.718737,25.639454,25.575668,25.487137,25.409956,25.327442,25.233276,25.16232,25.066185,24.980911,24.840374,24.679934,24.56533,24.427582,24.336035,24.237095,24.167604,24.122032,24.09003,24.08256,24.08619,24.069962,24.008665,23.888876,23.785938,23.562824,23.245045,22.751808,22.151186,21.745792,21.288445,21.011065,20.748718,20.552612,20.425587,20.2874,20.199415,20.074066
9.131174,9.142838,9.153618,9.16325,9.1694145,9.176077,9.179858,9.183576,9.186086,9.187408,9.188559,9.189049,9.189721,9.190548,9.191418,9.192962,9.194405,9.196819,9.199678,9.202551,9.206444,9.20951,9.213486,9.216694,9.2197895,9.222895,9.224932,9.227797,9.230246,9.233346,9.236946,9.239897,9.243427,9.2457485,9.24845,9.250841,9.252607,9.255135,9.257251,9.26005,9.262751,9.26537,9.268042,9.269522,9.270811,9.270904,9.270233,9.268318,9.266373,9.263416,9.26093,9.258701,9.25679,9.255515,9.253928,9.252661,9.250658,9.247679,9.244677,9.239573,9.234924,9.228167,9.220104,9.211884,9.199537,9.189229,9.173776,9.158124,9.141796,9.120251,9.102795,9.078348,9.05789,9.035732,9.012344,8.994795,8.972905,8.956838,8.93584,8.911864,8.891178,8.859892,8.8335085,8.79866,8.763493,8.731633,8.691308,8.661705,8.625562,8.597115,8.56988,8.545525,8.533875,8.514979,8.495625,8.475902,8.429692,8.37192,8.2924,8.218232,8.050505,7.8920374,7.646297,7.686837,8.645877,18.193214,28.524658,31.045925,31.673567,31.51537,31.30546,30.997284,30.72501,30.892353,31.47636,31.747889,31.662846,31.672272,31.701662,31.74743,31.768242,31.747095,31.696682,31.618294,31.552113,31.466316,31.407215,31.361343,31.334522,31.309612,31.271353,31.23708,31.179783,31.109821,31.033674,30.923328,30.833607,30.686127,30.54231,30.391262,30.232279,30.128498,29.961002,29.819124,29.724344,29.592606,29.551342,28.796661,27.563286,24.939926,21.829865,19.390913,17.45698,16.955198,16.487986,16.39053,16.321266,16.33601,16.385313,16.454838,16.506443,16.528004,16.514376,16.484102,16.444704,16.420774,16.412024,16.437597,16.479881,16.548862,16.60511,16.654806,16.677359,16.67749,16.667246,16.659534,16.69712,16.850346,17.063526,17.527733,17.949219,19.921509,22.411879,24.571518,26.093233,26.439663,26.654665,26.657703,26.852543,27.090601,27.256075,27.363552,27.365227,27.392385,27.444717,27.522154,27.617367,27.676645,27.739578,27.78772,27.832878,27.88322,27.916035,27.962864,28.006197,28.053898,28.102001,28.13062,28.154938,28.163069,28.171343,28.176441,28.17952,28.182278,28.183672,28.187197,28.190296,28.192493,28.188509,28.180096,28.167221,28.147173,28.124153,28.083683,28.04667,27.991756,27.939228,27.890774,27.833038,27.788969,27.729874,27.682838,27.634342,27.58519,27.548992,27.50513,27.475283,27.442394,27.41243,27.389774,27.359108,27.334614,27.297796,27.258116,27.223392,27.178303,27.144405,27.107113,27.077578,27.04744,27.00554,26.970139,26.91661,26.86583,26.80847,26.735928,26.67522,26.59068,26.523548,26.446627,26.374575,26.322357,26.264677,26.229298,26.186745,26.147388,26.113306,26.063074,26.02053,25.956757,25.890657,25.82647,25.741005,25.672646,25.579212,25.499556,25.41525,25.323826,25.261244,25.15316,25.046173,24.902275,24.749432,24.641378,24.51107,24.423874,24.331015,24.26639,24.22371,24.193048,24.185005,24.18456,24.165693,24.111065,23.993763,23.887325,23.612957,23.22834,22.69012,22.06414,21.656366,21.18918,20.899082,20.619513,20.410007,20.2795,20.140484,20.053726,19.926605
9.133122,9.1460285,9.158113,9.169194,9.176411,9.18446,9.189306,9.194229,9.19792,9.200133,9.202272,9.203344,9.204575,9.205697,9.206716,9.208246,9.209555,9.211723,9.214228,9.216719,9.220019,9.222576,9.225816,9.228366,9.230822,9.233284,9.234896,9.23732,9.23954,9.242437,9.245935,9.248856,9.252428,9.254845,9.25768,9.260265,9.262295,9.264912,9.26688,9.269413,9.271802,9.274208,9.276541,9.277702,9.2785015,9.278107,9.276933,9.274385,9.271942,9.268285,9.265228,9.2624,9.259874,9.258133,9.255905,9.254097,9.251223,9.247272,9.243526,9.237522,9.232269,9.2250805,9.216867,9.208488,9.195978,9.1855545,9.170107,9.15457,9.138325,9.1168995,9.099537,9.075228,9.055086,9.033867,9.011892,8.995583,8.974504,8.958342,8.936904,8.91207,8.89038,8.859012,8.833565,8.799722,8.765928,8.735626,8.698061,8.670999,8.638384,8.613567,8.590485,8.571289,8.563465,8.548626,8.531768,8.515379,8.4709015,8.413469,8.326538,8.2410965,8.056992,7.894366,7.641225,7.788099,8.915925,18.775768,29.192537,31.285717,31.625164,31.582338,31.412539,31.106709,30.844484,31.01961,31.604877,31.890867,31.820911,31.829338,31.852003,31.89539,31.912922,31.890118,31.842262,31.768509,31.704487,31.624342,31.571115,31.526974,31.498678,31.473063,31.433857,31.398937,31.340927,31.270142,31.192936,31.08038,30.988373,30.837708,30.690971,30.535965,30.374653,30.27148,30.104856,29.964527,29.876795,29.747849,29.695293,28.959015,27.75875,25.119446,21.951963,19.447674,17.461498,16.951376,16.478582,16.384895,16.320534,16.335835,16.379517,16.44509,16.495993,16.518375,16.506119,16.476276,16.436825,16.412369,16.402996,16.42788,16.46968,16.53824,16.594398,16.644306,16.667404,16.668003,16.659008,16.65253,16.687717,16.83542,17.04087,17.500008,17.920723,19.9394,22.496012,24.706844,26.265614,26.62666,26.82562,26.79641,26.98402,27.22388,27.385971,27.500298,27.51384,27.541664,27.589886,27.667488,27.763,27.822231,27.885094,27.933216,27.978485,28.028812,28.061455,28.10804,28.151154,28.198874,28.246368,28.273739,28.297749,28.306599,28.315443,28.321545,28.325699,28.330067,28.332804,28.33812,28.34251,28.344698,28.342016,28.335701,28.324974,28.306461,28.28442,28.244652,28.207872,28.152914,28.100025,28.051174,27.99317,27.949162,27.88995,27.842701,27.793987,27.744518,27.708021,27.663776,27.633629,27.60036,27.569702,27.546234,27.514076,27.488174,27.44941,27.407795,27.371445,27.324657,27.28977,27.25151,27.221565,27.191334,27.149448,27.113995,27.06036,27.009453,26.951841,26.879183,26.818722,26.73375,26.665707,26.587889,26.514423,26.460667,26.400265,26.362343,26.316473,26.273373,26.235798,26.180265,26.133244,26.063156,25.99102,25.92112,25.829132,25.75617,25.658188,25.576496,25.49187,25.399475,25.335869,25.211449,25.086277,24.947412,24.809526,24.707968,24.58472,24.501911,24.415098,24.355017,24.31448,24.285305,24.277699,24.272251,24.249163,24.202078,24.084097,23.967175,23.641388,23.195606,22.618351,21.968487,21.553513,21.071106,20.766323,20.473722,20.256992,20.125164,19.98804,19.90465,19.778805
9.135648,9.149822,9.163225,9.175766,9.184044,9.193467,9.199345,9.205431,9.210258,9.213334,9.216452,9.218119,9.219936,9.221394,9.22259,9.224177,9.225424,9.227434,9.229662,9.231838,9.23461,9.236689,9.239227,9.241142,9.24298,9.24482,9.246013,9.247995,9.249977,9.252632,9.25596,9.25879,9.262289,9.264683,9.267508,9.270119,9.272204,9.274864,9.276819,9.279217,9.281232,9.283008,9.2846985,9.285601,9.286066,9.285362,9.283827,9.280612,9.277467,9.272849,9.26905,9.265611,9.26243,9.260073,9.25687,9.254252,9.250666,9.246166,9.241954,9.235444,9.22987,9.221973,9.212967,9.203972,9.190748,9.179825,9.163834,9.147969,9.131301,9.110123,9.093599,9.070589,9.051564,9.031269,9.010149,8.994654,8.973506,8.9565735,8.935093,8.910701,8.889393,8.858795,8.834129,8.80154,8.769419,8.740828,8.7060375,8.68142,8.652058,8.630527,8.611435,8.596767,8.59187,8.580355,8.565086,8.547858,8.503998,8.451643,8.360056,8.263092,8.065269,7.900918,7.6408925,7.890991,9.183376,19.355555,29.872034,31.579475,31.625183,31.639566,31.485971,31.188713,30.935255,31.123753,31.720757,32.024326,31.96616,31.975212,31.993723,32.03578,32.05143,32.02793,31.983307,31.914433,31.85275,31.777447,31.72885,31.686451,31.657314,31.63109,31.590961,31.555378,31.496452,31.424503,31.346207,31.23006,31.133429,30.97874,30.829788,30.671223,30.507404,30.404072,30.237396,30.097946,30.015709,29.889984,29.82904,29.116346,27.953773,25.304428,22.082924,19.512478,17.473148,16.954933,16.475674,16.384054,16.322306,16.337404,16.376926,16.439745,16.489902,16.511063,16.49813,16.46846,16.428848,16.403954,16.393967,16.418133,16.459398,16.527412,16.583336,16.633327,16.656843,16.657738,16.650076,16.645132,16.678083,16.820934,17.020884,17.47564,17.893875,19.957632,22.578896,24.836811,26.428244,26.8018,26.984379,26.924294,27.105959,27.346638,27.501326,27.621284,27.64886,27.67807,27.722374,27.800385,27.896814,27.956688,28.020288,28.068985,28.114704,28.165394,28.198166,28.245039,28.288437,28.336472,28.383915,28.410812,28.434696,28.443863,28.453207,28.460232,28.465277,28.471134,28.475235,28.482613,28.488094,28.489174,28.487158,28.48323,28.474934,28.45832,28.437634,28.399033,28.36282,28.308254,28.255352,28.206335,28.148254,28.104406,28.045197,27.997755,27.94875,27.898746,27.861729,27.816696,27.785831,27.751556,27.71952,27.694733,27.660465,27.632732,27.591589,27.54781,27.509752,27.46132,27.42558,27.386593,27.356539,27.32653,27.285103,27.249989,27.196762,27.1461,27.088564,27.01613,26.95619,26.871157,26.802479,26.724035,26.649403,26.59431,26.531437,26.49115,26.44218,26.395332,26.353954,26.292702,26.240946,26.164742,26.086954,26.011333,25.912746,25.835037,25.734116,25.653217,25.576477,25.47546,25.381773,25.243708,25.127602,24.99685,24.868547,24.77333,24.657719,24.58001,24.498428,24.441887,24.403778,24.376446,24.369366,24.36161,24.334465,24.288387,24.157116,24.01793,23.645557,23.154278,22.54886,21.873705,21.437662,20.927006,20.606169,20.322123,20.118793,19.983402,19.84196,19.757105,19.632015
9.146271,9.161858,9.176794,9.191139,9.200771,9.212006,9.219286,9.226941,9.233345,9.237648,9.242225,9.244838,9.247663,9.249838,9.251518,9.253517,9.25494,9.257071,9.259222,9.261248,9.263636,9.26532,9.267218,9.268505,9.269714,9.270885,9.27161,9.273067,9.2747135,9.277009,9.28001,9.28261,9.285811,9.287981,9.290525,9.292866,9.294741,9.297114,9.298842,9.300893,9.3022785,9.303057,9.303393,9.303347,9.302555,9.300848,9.298469,9.294336,9.290485,9.284851,9.280182,9.275761,9.271497,9.268316,9.263826,9.2601185,9.25544,9.249922,9.244817,9.237167,9.230757,9.221516,9.211166,9.201034,9.186836,9.175536,9.159261,9.143435,9.126858,9.106226,9.09042,9.068546,9.050455,9.030821,9.009977,8.994499,8.97297,8.955609,8.934401,8.910934,8.890528,8.8614,8.838043,8.807502,8.777838,8.751581,8.720261,8.698544,8.672638,8.654669,8.640848,8.6316185,8.629349,8.622054,8.609028,8.587566,8.543438,8.502245,8.398907,8.277024,8.068199,7.9122353,7.617256,8.1496525,9.867506,20.164772,30.476685,31.837109,31.65021,31.715803,31.57679,31.291513,31.06239,31.27145,31.870457,32.189148,32.146156,32.155693,32.168816,32.208538,32.22192,32.198364,32.158787,32.096645,32.03791,31.967764,31.923752,31.882992,31.852678,31.825386,31.783676,31.746937,31.686365,31.612526,31.531418,31.41394,31.318768,31.160297,31.004454,30.838518,30.669952,30.566925,30.400757,30.262325,30.184425,30.060137,29.98431,29.321869,28.238426,25.584288,22.282417,19.613106,17.497011,16.971157,16.480742,16.387547,16.327686,16.342035,16.376284,16.43534,16.484154,16.50317,16.488956,16.459515,16.419693,16.394222,16.383413,16.406513,16.446877,16.513805,16.56907,16.618649,16.642454,16.64399,16.638008,16.634691,16.666336,16.804306,16.993511,17.448269,17.877764,20.001102,22.696424,25.0121,26.631172,26.995079,27.162285,27.089178,27.26398,27.500984,27.650818,27.776733,27.816181,27.845322,27.885231,27.96399,28.062279,28.123737,28.18956,28.240143,28.287027,28.338531,28.371555,28.419079,28.463081,28.51148,28.559078,28.585926,28.61009,28.619785,28.629812,28.637856,28.643793,28.651525,28.657158,28.66364,28.667744,28.668793,28.668953,28.668163,28.663374,28.649754,28.631384,28.59509,28.560215,28.506994,28.454786,28.406221,28.348679,28.305412,28.246693,28.199326,28.15017,28.099537,28.06184,28.0154,27.983013,27.946709,27.911976,27.884632,27.846687,27.816088,27.771736,27.725462,27.68547,27.635506,27.599255,27.559952,27.530222,27.500917,27.460634,27.426409,27.37434,27.324526,27.267635,27.195799,27.136478,27.051304,26.98173,26.902256,26.825726,26.768562,26.701838,26.65784,26.603943,26.55132,26.504272,26.434776,26.376343,26.291294,26.205658,26.12265,26.017227,25.936302,25.829563,25.740776,25.650663,25.530254,25.41784,25.27841,25.177713,25.05825,24.940075,24.851894,24.744705,24.672527,24.595673,24.542023,24.506588,24.481636,24.475498,24.466682,24.434326,24.382584,24.231752,24.069511,23.642658,23.096142,22.457348,21.749908,21.28434,20.737251,20.39721,20.120068,19.935669,19.807508,19.672127,19.590221,19.47332
9.159767,9.176265,9.192237,9.207866,9.218489,9.231081,9.239441,9.248285,9.2558975,9.261158,9.266895,9.270287,9.273967,9.276805,9.278967,9.281434,9.283108,9.285475,9.287704,9.289743,9.292007,9.293526,9.295105,9.2960415,9.296888,9.297646,9.298075,9.299176,9.3005705,9.302584,9.305294,9.307671,9.310553,9.312458,9.314653,9.3166275,9.318199,9.320151,9.321545,9.323235,9.324097,9.324116,9.323065,9.32173,9.31919,9.31612,9.312729,9.307896,9.30378,9.297698,9.292535,9.287249,9.282036,9.278324,9.273035,9.2686205,9.263002,9.256391,9.250309,9.241289,9.233811,9.223284,9.211844,9.200674,9.185871,9.174667,9.158728,9.1434765,9.127687,9.107637,9.091834,9.07003,9.051996,9.032472,9.011351,8.995127,8.973404,8.956511,8.93572,8.912857,8.893034,8.865059,8.842863,8.814089,8.786448,8.762039,8.733337,8.713747,8.689921,8.674151,8.664576,8.659531,8.658741,8.655264,8.644764,8.6184635,8.57398,8.545189,8.42826,8.278794,8.0649805,7.9211664,7.5807977,8.426679,10.607518,20.761292,30.658016,31.894522,31.678677,31.788101,31.662556,31.379717,31.176868,31.401945,31.991053,32.314495,32.28274,32.291557,32.29964,32.336582,32.34777,32.324474,32.28914,32.23239,32.175797,32.10903,32.067875,32.028053,31.996761,31.96849,31.925379,31.887623,31.825607,31.75018,31.665695,31.550354,31.46328,31.303291,31.13851,30.964647,30.791372,30.689205,30.524117,30.38654,30.310398,30.185074,30.093767,29.484486,28.484856,25.828491,22.452583,19.698223,17.51872,16.98973,16.488934,16.39148,16.33276,16.346577,16.376484,16.432405,16.480156,16.49776,16.482784,16.453505,16.413498,16.387548,16.37608,16.39828,16.43784,16.503746,16.558342,16.607336,16.631279,16.633629,16.628899,16.626432,16.658005,16.792889,16.97049,17.429398,17.879017,20.048325,22.792591,25.15189,26.783169,27.12078,27.28141,27.219011,27.388416,27.619095,27.77087,27.900658,27.94293,27.970266,28.00747,28.08688,28.186947,28.250038,28.318504,28.3713,28.41913,28.47106,28.504086,28.552101,28.596682,28.645287,28.693104,28.72022,28.744877,28.755089,28.765675,28.774437,28.780933,28.790512,28.7976,28.800297,28.800884,28.80362,28.806839,28.808323,28.806374,28.795263,28.778927,28.744766,28.711193,28.659386,28.608047,28.560165,28.503338,28.460676,28.402557,28.355423,28.306293,28.25527,28.217125,28.16949,28.135687,28.097569,28.060432,28.030731,27.98955,27.956549,27.909855,27.86202,27.820776,27.769987,27.733644,27.694294,27.664886,27.636265,27.597065,27.563688,27.512768,27.463821,27.4077,27.336412,27.277428,27.191978,27.121595,27.041119,26.962841,26.903849,26.833738,26.786495,26.72825,26.670715,26.619087,26.54304,26.479328,26.386803,26.294579,26.205513,26.09711,26.018085,25.906694,25.804062,25.679283,25.537556,25.437262,25.309723,25.215025,25.102922,24.99148,24.90777,24.805935,24.737276,24.663174,24.611145,24.577473,24.554188,24.54876,24.53983,24.503448,24.443432,24.279526,24.108273,23.642513,23.051085,22.385729,21.654058,21.167633,20.59666,20.243824,19.960749,19.784828,19.67302,19.553741,19.479076,19.374176
9.181919,9.198893,9.215534,9.232235,9.243795,9.257786,9.267373,9.277672,9.286932,9.29357,9.301103,9.305803,9.311,9.315155,9.318335,9.321948,9.324365,9.327582,9.330406,9.332905,9.335499,9.337124,9.33869,9.339455,9.340103,9.340549,9.340712,9.341433,9.342497,9.344091,9.346303,9.348276,9.350563,9.351971,9.353543,9.354845,9.355841,9.356936,9.3576145,9.358329,9.358265,9.357536,9.355409,9.353134,9.349375,9.345263,9.340797,9.334799,9.329895,9.322675,9.316479,9.30985,9.303047,9.298094,9.291128,9.285423,9.278229,9.270181,9.263096,9.252841,9.244472,9.232933,9.2207775,9.209131,9.1939335,9.182529,9.166534,9.151478,9.136061,9.116371,9.100675,9.079016,9.06098,9.041101,9.019366,9.002607,8.980547,8.9637165,8.943075,8.920747,8.901573,8.874998,8.854251,8.827631,8.802385,8.780151,8.754103,8.736345,8.716299,8.704974,8.700405,8.699907,8.701014,8.699426,8.689066,8.661192,8.612274,8.580744,8.440743,8.266448,8.057577,7.940138,7.517623,8.894896,11.884243,22.102316,31.481895,32.19385,31.64354,31.821308,31.735447,31.49981,31.356977,31.604012,32.1567,32.4762,32.462967,32.469826,32.470634,32.504486,32.513557,32.491165,32.46208,32.412827,32.35906,32.29676,32.259407,32.220592,32.187614,32.15776,32.11241,32.073036,32.008743,31.931347,31.843773,31.731346,31.653069,31.492231,31.318565,31.135757,30.956982,30.855993,30.692669,30.556297,30.48061,30.352478,30.244473,29.688728,28.775879,26.13779,22.694769,19.82441,17.554335,17.019714,16.506344,16.404705,16.3451,16.355309,16.378422,16.429733,16.476477,16.492712,16.476887,16.447357,16.406841,16.380285,16.367863,16.388672,16.426945,16.491077,16.54438,16.592087,16.615734,16.618742,16.615482,16.61427,16.64587,16.77721,16.940372,17.406715,17.88472,20.123096,22.93923,25.353867,26.993378,27.289104,27.437538,27.391506,27.55883,27.785099,27.938026,28.074184,28.12326,28.148481,28.181183,28.261703,28.364052,28.428764,28.497635,28.551374,28.603172,28.658836,28.692791,28.741364,28.785679,28.83398,28.881294,28.907963,28.932816,28.943733,28.95495,28.964426,28.971966,28.97947,28.98268,28.982277,28.982204,28.98651,28.992939,28.99729,28.998898,28.991053,28.977459,28.946323,28.914715,28.86519,28.815483,28.769005,28.713741,28.672325,28.615562,28.569132,28.520426,28.469135,28.430485,28.38117,28.345243,28.304302,28.263636,28.230755,28.185488,28.149626,28.099716,28.049723,28.007092,27.956165,27.920807,27.883444,27.856117,27.828785,27.790947,27.75866,27.709127,27.661097,27.605633,27.534332,27.47495,27.388157,27.316013,27.233322,27.151659,27.089298,27.013302,26.960598,26.895157,26.829752,26.770855,26.684856,26.613434,26.510807,26.411827,26.3243,26.205906,26.10685,25.964441,25.837109,25.697102,25.555374,25.465757,25.351528,25.266356,25.16536,25.063858,24.986877,24.890194,24.822384,24.745712,24.691265,24.659863,24.64012,24.636871,24.629475,24.589916,24.521687,24.344273,24.163998,23.651642,23.00306,22.295164,21.531866,21.032398,20.436003,20.06367,19.782303,19.62295,19.52436,19.421782,19.358814,19.268707
9.202209,9.218899,9.235424,9.252377,9.2642975,9.278969,9.289279,9.30051,9.310972,9.318663,9.3276615,9.333499,9.340075,9.345528,9.349747,9.354622,9.35792,9.36221,9.365888,9.369104,9.372387,9.374407,9.376362,9.377306,9.378101,9.378586,9.37871,9.379308,9.380192,9.381512,9.383332,9.384973,9.386745,9.387714,9.388739,9.3894415,9.389917,9.390226,9.39024,9.389985,9.389162,9.388094,9.385725,9.383298,9.379404,9.375072,9.370069,9.36316,9.357474,9.34915,9.342007,9.33432,9.326178,9.319984,9.31142,9.304573,9.296043,9.286928,9.279219,9.268304,9.259523,9.247578,9.235287,9.223797,9.208559,9.196843,9.180567,9.165365,9.149857,9.130205,9.114651,9.093017,9.074762,9.054203,9.031754,9.014783,8.992266,8.974992,8.954024,8.931742,8.912825,8.887024,8.867155,8.841829,8.817988,8.796947,8.772377,8.755671,8.739227,8.7320595,8.730519,8.73243,8.734821,8.731676,8.718588,8.694421,8.639271,8.588598,8.4279785,8.247204,8.051876,7.9665794,7.456915,9.437123,13.333798,23.549156,32.300716,32.511906,31.625923,31.822498,31.768734,31.600578,31.521996,31.786236,32.292862,32.599663,32.60121,32.604546,32.59837,32.629505,32.636917,32.615414,32.59079,32.5471,32.49584,32.43741,32.40321,32.36512,32.330658,32.299576,32.25254,32.211967,32.145943,32.06761,31.979856,31.870167,31.79641,31.63563,31.45778,31.269766,31.087753,30.987804,30.826271,30.69098,30.61386,30.482225,30.364666,29.837097,28.971964,26.364054,22.8933,19.931406,17.586843,17.046791,16.524607,16.42084,16.35881,16.36444,16.382072,16.429546,16.475517,16.491148,16.474892,16.444801,16.403671,16.37664,16.363403,16.38299,16.420113,16.482578,16.534592,16.58093,16.603958,16.607119,16.604763,16.604546,16.636356,16.765553,16.918472,17.391926,17.892765,20.191017,23.068045,25.521423,27.159266,27.417042,27.554653,27.524664,27.694448,27.919846,28.072262,28.214127,28.270897,28.294727,28.323261,28.40494,28.508354,28.572887,28.64003,28.693607,28.749723,28.810352,28.846355,28.89563,28.93899,28.986576,29.032867,29.05862,29.083298,29.09475,29.106318,29.11573,29.12341,29.126259,29.12335,29.122015,29.123972,29.12901,29.137238,29.143576,29.147633,29.142143,29.130621,29.101915,29.07196,29.024483,28.976385,28.931358,28.877756,28.837616,28.782347,28.736824,28.688847,28.637728,28.598936,28.548521,28.510984,28.467829,28.424335,28.388844,28.340527,28.302776,28.250774,28.19968,28.156637,28.106705,28.073078,28.03873,28.014114,27.988167,27.951368,27.919792,27.871109,27.82351,27.768192,27.69622,27.635826,27.547136,27.473038,27.387836,27.302626,27.236847,27.155134,27.097279,27.025166,26.952667,26.88725,26.792751,26.715057,26.60574,26.502071,26.415071,26.280273,26.152588,25.975643,25.831293,25.701942,25.579565,25.495579,25.390333,25.313047,25.220718,25.126385,25.054052,24.959059,24.889027,24.806602,24.747103,24.715601,24.697777,24.696651,24.691032,24.650219,24.57722,24.392454,24.208157,23.665464,22.977373,22.236599,21.451546,20.949066,20.339336,19.954945,19.681778,19.536915,19.441288,19.3469,19.293724,19.214226
9.22499,9.241063,9.257166,9.274078,9.286171,9.301319,9.312222,9.324207,9.335672,9.344265,9.354536,9.361381,9.369242,9.375978,9.381266,9.387501,9.391798,9.397329,9.402054,9.406189,9.4104595,9.413128,9.415821,9.417251,9.418487,9.41933,9.419653,9.420422,9.421337,9.422604,9.42424,9.4256935,9.427114,9.427732,9.428308,9.428518,9.428575,9.42832,9.427905,9.427113,9.425854,9.424473,9.42178,9.41914,9.414986,9.410417,9.405127,9.397796,9.391752,9.382826,9.375069,9.366623,9.357412,9.350194,9.340315,9.332511,9.322842,9.312457,9.303528,9.290994,9.281029,9.267675,9.254345,9.242155,9.226425,9.214557,9.198364,9.183484,9.168307,9.149054,9.133835,9.111877,9.092821,9.071518,9.048279,9.030764,9.007385,8.989389,8.967726,8.945098,8.926128,8.9007,8.881413,8.857005,8.83417,8.813412,8.791374,8.778391,8.766793,8.763552,8.764849,8.769625,8.774737,8.765684,8.745338,8.734564,8.676018,8.590813,8.406761,8.230533,8.061116,8.002441,7.2801456,10.361563,15.91166,25.133848,32.134262,32.546852,31.900867,31.92464,31.838974,31.742851,31.733765,32.017548,32.47118,32.75866,32.770775,32.765533,32.747543,32.772972,32.776527,32.75541,32.733475,32.69471,32.647186,32.595165,32.566307,32.529854,32.494015,32.462273,32.414406,32.373306,32.30613,32.228416,32.145447,32.0402,31.9672,31.804928,31.623749,31.431402,31.247108,31.148577,30.989616,30.855873,30.776104,30.639711,30.512178,30.016376,29.204144,26.63004,23.126495,20.057446,17.625326,17.078278,16.545467,16.439426,16.374865,16.376389,16.389269,16.432198,16.47612,16.491146,16.47468,16.443903,16.40197,16.374294,16.36005,16.378185,16.413956,16.474518,16.525085,16.569859,16.59211,16.595287,16.593805,16.594654,16.626867,16.753891,16.895428,17.376137,17.901058,20.275318,23.231045,25.726658,27.35691,27.568039,27.694191,27.686459,27.861305,28.085148,28.233585,28.381115,28.448696,28.471344,28.494936,28.578701,28.680662,28.740421,28.806871,28.863106,28.921125,28.98682,29.02872,29.080288,29.122074,29.16869,29.213718,29.238564,29.263138,29.275131,29.287264,29.294865,29.298376,29.29707,29.292454,29.290394,29.293066,29.298874,29.309067,29.317509,29.324146,29.321163,29.311909,29.285885,29.25777,29.212578,29.166285,29.122887,29.071104,29.03232,28.97876,28.934437,28.887554,28.837116,28.798643,28.74765,28.708832,28.664143,28.617657,28.578117,28.525234,28.485092,28.432098,28.381977,28.339985,28.292469,28.261292,28.230133,28.208187,28.184555,28.149467,28.1184,28.070364,28.022995,27.967552,27.8945,27.832748,27.74154,27.66484,27.576313,27.48653,27.416447,27.327663,27.263527,27.183414,27.102512,27.029217,26.924438,26.839224,26.73468,26.628231,26.503654,26.323421,26.173107,25.988182,25.854805,25.737385,25.629456,25.55426,25.460495,25.391312,25.306358,25.216125,25.145103,25.049519,24.977524,24.893208,24.82917,24.788702,24.765995,24.767456,24.76213,24.717987,24.637943,24.44434,24.256193,23.680851,22.953014,22.192251,21.387146,20.86182,20.240257,19.861698,19.60083,19.466648,19.369133,19.277185,19.230917,19.163574
9.24959,9.264683,9.280034,9.296623,9.308716,9.324162,9.335554,9.348179,9.3604965,9.36982,9.381184,9.388954,9.398036,9.406062,9.412445,9.420126,9.42551,9.432413,9.438346,9.443563,9.449085,9.452637,9.456419,9.458662,9.46067,9.462263,9.463079,9.464405,9.465649,9.4671955,9.468988,9.470517,9.471923,9.472445,9.4728775,9.472916,9.472832,9.472433,9.471944,9.471127,9.469879,9.468462,9.465742,9.463106,9.458934,9.454347,9.449085,9.441742,9.43565,9.426504,9.418418,9.409515,9.399602,9.391697,9.380964,9.372565,9.362209,9.350998,9.341169,9.327469,9.316691,9.302407,9.288466,9.275897,9.260142,9.248539,9.232884,9.21859,9.203953,9.185015,9.169819,9.14719,9.127066,9.104712,9.080085,9.061325,9.0360565,9.016481,8.993031,8.96887,8.948872,8.922476,8.902737,8.877916,8.855032,8.834042,8.813588,8.803278,8.794706,8.793192,8.794937,8.798541,8.80193,8.789738,8.767305,8.764011,8.693838,8.56934,8.372956,8.222054,8.063734,8.112343,7.366784,11.935478,19.444078,27.158396,31.762028,32.501846,32.251778,32.069195,31.93882,31.913319,31.97659,32.28014,32.676277,32.93463,32.947903,32.929234,32.895714,32.91163,32.907883,32.885517,32.862427,32.827087,32.786327,32.74267,32.718643,32.683876,32.647087,32.615337,32.56782,32.527264,32.460495,32.38517,32.309628,32.209686,32.135616,31.972599,31.790668,31.596401,31.411789,31.315315,31.159985,31.028435,30.944979,30.80342,30.668453,30.201786,29.436836,26.901047,23.369488,20.18782,17.663073,17.108608,16.565117,16.457598,16.391108,16.390205,16.400417,16.439114,16.480019,16.494831,16.478586,16.447004,16.40407,16.375572,16.360157,16.376741,16.41113,16.469826,16.519016,16.562237,16.58358,16.586536,16.585571,16.587254,16.619974,16.745275,16.876236,17.36401,17.91174,20.362204,23.395359,25.922857,27.541595,27.714773,27.837723,27.855068,28.031723,28.250408,28.396366,28.552124,28.63234,28.653847,28.671463,28.75708,28.856237,28.909504,28.975363,29.034607,29.092705,29.161545,29.208738,29.263502,29.305153,29.350681,29.393965,29.417755,29.442127,29.454447,29.466087,29.470844,29.46973,29.465584,29.461353,29.459042,29.46191,29.468216,29.479845,29.48988,29.49844,29.497402,29.49002,29.466347,29.439919,29.39692,29.352463,29.31076,29.26093,29.223598,29.172123,29.12956,29.084545,29.035957,28.998848,28.948841,28.909983,28.864632,28.816008,28.77347,28.717567,28.6763,28.624336,28.577206,28.53788,28.494207,28.466076,28.438179,28.418364,28.396585,28.362553,28.331457,28.283371,28.235678,28.179558,28.104769,28.041069,27.946655,27.866858,27.774143,27.678745,27.603495,27.506554,27.43539,27.346594,27.25689,27.17529,27.061964,26.972103,26.854038,26.722908,26.55557,26.341377,26.187336,26.015518,25.90485,25.801865,25.706478,25.64014,25.556328,25.49279,25.412191,25.322594,25.249943,25.151194,25.076431,24.990555,24.922306,24.872532,24.839968,24.837055,24.827301,24.778381,24.689814,24.487698,24.297113,23.696587,22.940872,22.178768,21.364876,20.811161,20.182772,19.819252,19.56445,19.430965,19.329613,19.238762,19.198929,19.143303
9.2703705,9.2844925,9.29907,9.315386,9.327612,9.3434925,9.355465,9.368906,9.382196,9.392223,9.404663,9.413359,9.42363,9.432882,9.440306,9.44932,9.455681,9.463814,9.470812,9.476981,9.483608,9.487944,9.492699,9.495684,9.498409,9.500712,9.50201,9.503906,9.505516,9.507419,9.509485,9.511192,9.51276,9.5133505,9.513851,9.513948,9.513924,9.513624,9.513231,9.512573,9.511499,9.51023,9.507685,9.505171,9.501119,9.496586,9.491371,9.483994,9.477823,9.468445,9.460041,9.45071,9.440229,9.431841,9.420511,9.411713,9.400936,9.389464,9.3795185,9.365864,9.355259,9.341347,9.3279705,9.316021,9.301102,9.290125,9.275246,9.261507,9.247414,9.228459,9.212708,9.1894,9.168579,9.145061,9.118568,9.098066,9.070248,9.048583,9.022675,8.996236,8.974573,8.9463215,8.925438,8.89938,8.876028,8.855452,8.835184,8.82448,8.817081,8.816404,8.817347,8.814482,8.807743,8.799944,8.788309,8.782085,8.690956,8.533882,8.334154,8.214178,8.058036,8.235531,7.567936,13.506299,22.739357,29.426723,32.05748,32.62762,32.40789,32.155678,32.026573,32.065567,32.188625,32.505432,32.853283,33.084797,33.096012,33.064796,33.016754,33.022625,33.010475,32.985672,32.95938,32.926323,32.8935,32.857372,32.83574,32.801857,32.764442,32.732742,32.685867,32.646217,32.580772,32.507923,32.437305,32.341637,32.268356,32.10636,31.9249,31.730335,31.546623,31.45242,31.300886,31.171692,31.085201,30.939625,30.799374,30.358208,29.633427,27.13019,23.574125,20.295006,17.69096,17.13129,16.579004,16.470417,16.403305,16.40189,16.41101,16.446535,16.484571,16.499392,16.483517,16.451214,16.407433,16.378263,16.361824,16.377071,16.410316,16.46752,16.515644,16.557636,16.57822,16.580944,16.580282,16.582527,16.615692,16.739779,16.862358,17.35659,17.92398,20.430647,23.517643,26.061245,27.671211,27.82619,27.956652,27.995611,28.165445,28.374454,28.525425,28.692562,28.782412,28.802488,28.814428,28.900843,28.998558,29.04839,29.1137,29.174269,29.232618,29.302044,29.349941,29.407719,29.452013,29.49683,29.538269,29.561064,29.585278,29.59776,29.607443,29.609854,29.607832,29.602623,29.597748,29.595085,29.598114,29.604671,29.617167,29.628208,29.63794,29.638103,29.631927,29.609858,29.584639,29.543264,29.500252,29.459908,29.411747,29.37572,29.326206,29.285442,29.24246,29.196106,29.160744,29.112568,29.074427,29.028294,28.978218,28.934994,28.878849,28.837973,28.78772,28.74332,28.70654,28.666294,28.640749,28.615433,28.596882,28.575619,28.541473,28.510063,28.461514,28.413235,28.356302,28.279774,28.21415,28.116856,28.034409,27.937902,27.83735,27.757378,27.653095,27.575695,27.479301,27.382038,27.292137,27.178257,27.095703,26.930283,26.74065,26.558422,26.352499,26.214764,26.057623,25.955387,25.862389,25.77671,25.716646,25.638792,25.577765,25.499355,25.409723,25.3357,25.234005,25.15638,25.067078,24.99585,24.945822,24.904781,24.889023,24.872215,24.82021,24.723257,24.514538,24.324203,23.706581,22.932688,22.1776,21.364803,20.792126,20.158737,19.803162,19.542664,19.402729,19.301964,19.217411,19.18601,19.140339
9.3030205,9.316443,9.330751,9.347025,9.359125,9.375267,9.387741,9.401587,9.415449,9.426087,9.439571,9.449225,9.460722,9.471262,9.479788,9.490241,9.497671,9.507167,9.515379,9.522638,9.530586,9.5359,9.541939,9.5459795,9.549763,9.553198,9.555315,9.558224,9.560549,9.563173,9.565884,9.56805,9.570133,9.571043,9.571907,9.572338,9.572596,9.572681,9.572587,9.57235,9.571679,9.570757,9.568623,9.566401,9.562668,9.55834,9.553308,9.546047,9.539912,9.53046,9.521883,9.512298,9.501495,9.492853,9.481292,9.472429,9.4616785,9.450506,9.44099,9.428102,9.418188,9.405142,9.392631,9.381542,9.367622,9.357301,9.343146,9.329789,9.315922,9.296724,9.280461,9.256361,9.234618,9.209644,9.180909,9.158382,9.127537,9.103327,9.07434,9.044886,9.020937,8.989931,8.967169,8.938798,8.913871,8.893152,8.87105,8.857353,8.843784,8.836418,8.831192,8.82416,8.816503,8.819433,8.813173,8.768264,8.641478,8.483475,8.3135605,8.241564,7.966322,8.563854,8.9971695,16.544788,26.77266,31.951809,32.382133,32.706425,32.55306,32.318825,32.19187,32.255905,32.46632,32.818687,33.10727,33.29258,33.28489,33.236076,33.1717,33.163357,33.139187,33.110588,33.078354,33.047974,33.02819,33.002377,32.98181,32.94877,32.911243,32.880104,32.834866,32.79709,32.734444,32.665318,32.600185,32.509727,32.438362,32.27892,32.098743,31.903149,31.719822,31.62862,31.481848,31.355545,31.265469,31.11589,30.971199,30.560068,29.88144,27.4245,23.842617,20.435505,17.725931,17.158268,16.595263,16.486912,16.419086,16.417557,16.426403,16.458866,16.49371,16.508865,16.493696,16.46072,16.415508,16.384825,16.366821,16.380404,16.412308,16.467882,16.514912,16.555534,16.575174,16.577526,16.576889,16.579405,16.612728,16.734966,16.847193,17.347498,17.935932,20.51316,23.671167,26.23817,27.8428,27.981655,28.118988,28.177822,28.345917,28.546345,28.693108,28.870848,28.977726,28.996191,28.999245,29.085585,29.180872,29.226498,29.289896,29.350315,29.407654,29.476227,29.523878,29.583233,29.629124,29.672907,29.712292,29.733767,29.757208,29.769455,29.777443,29.778206,29.775845,29.770117,29.764828,29.76201,29.765263,29.772089,29.785341,29.79723,29.807976,29.809351,29.804548,29.784468,29.760822,29.721691,29.680756,29.642345,29.596548,29.562334,29.515738,29.47779,29.438053,29.395523,29.36327,29.31874,29.282753,29.237751,29.188187,29.14568,29.09117,29.052149,29.00552,28.965687,28.933107,28.897942,28.875843,28.853874,28.836536,28.81488,28.779518,28.74734,28.697735,28.648373,28.590046,28.510908,28.442524,28.341127,28.254913,28.152996,28.045273,27.958828,27.844997,27.75983,27.65419,27.548328,27.454601,27.32174,27.213333,27.002598,26.78006,26.59739,26.408398,26.28685,26.14566,26.052902,25.96984,25.89349,25.839748,25.768047,25.709679,25.63329,25.542912,25.46663,25.36068,25.27911,25.184702,25.108818,25.057503,25.006653,24.97688,24.94601,24.883602,24.777966,24.5584,24.359276,23.727728,22.94615,22.200962,21.39187,20.804554,20.168278,19.81882,19.546915,19.395485,19.295391,19.217754,19.195242,19.159794
9.3309965,9.344383,9.359098,9.375587,9.387348,9.403414,9.416033,9.429615,9.443317,9.454158,9.468117,9.478262,9.490383,9.501604,9.510727,9.52198,9.530022,9.540314,9.549263,9.557186,9.565988,9.571967,9.578926,9.583777,9.588393,9.592781,9.595607,9.599426,9.602416,9.605729,9.609079,9.611717,9.614358,9.615639,9.616923,9.617739,9.618313,9.618807,9.619017,9.619187,9.618891,9.618294,9.616543,9.614603,9.611195,9.607094,9.602272,9.595203,9.589191,9.579852,9.571323,9.561777,9.551035,9.542456,9.531098,9.522497,9.51215,9.501579,9.492685,9.480686,9.471453,9.459089,9.447088,9.436476,9.423029,9.412967,9.399033,9.385662,9.371561,9.352068,9.335714,9.311148,9.288697,9.262772,9.232704,9.209047,9.176449,9.150703,9.119791,9.0883465,9.062838,9.029829,9.005593,8.975237,8.948579,8.927193,8.902459,8.885241,8.861624,8.843624,8.830275,8.824716,8.827707,8.841129,8.829726,8.731573,8.574432,8.447585,8.323676,8.289406,7.8342915,8.915725,10.881117,19.434183,29.417751,33.349586,32.475014,32.673645,32.635574,32.480587,32.348946,32.385048,32.666622,33.05974,33.308167,33.452175,33.419334,33.3572,33.283333,33.26435,33.231182,33.19969,33.16237,33.133904,33.125137,33.107056,33.08603,33.053444,33.016327,32.98591,32.942345,32.90632,32.84627,32.780056,32.718296,32.631348,32.561863,32.40487,32.22579,32.028576,31.844608,31.755514,31.611887,31.487429,31.395077,31.24348,31.097084,30.705425,30.056046,27.63559,24.039438,20.538776,17.751007,17.176563,16.606308,16.49926,16.430756,16.429195,16.43839,16.46935,16.502377,16.517967,16.50343,16.470184,16.42369,16.391424,16.372126,16.384563,16.415596,16.470207,16.516632,16.556416,16.575401,16.577465,16.576607,16.57901,16.612118,16.732754,16.837717,17.340614,17.940958,20.569088,23.781668,26.37006,27.975437,28.105293,28.2431,28.3099,28.483913,28.682333,28.816422,28.997738,29.120598,29.138113,29.13366,29.219254,29.312286,29.35479,29.415897,29.474985,29.530657,29.597874,29.64517,29.703783,29.748878,29.791807,29.830067,29.850586,29.87304,29.8848,29.892542,29.89323,29.890759,29.88499,29.879765,29.87706,29.880508,29.887527,29.901142,29.913387,29.924599,29.926693,29.922829,29.904203,29.881758,29.8444,29.80515,29.768274,29.724333,29.691513,29.647259,29.611637,29.574596,29.535358,29.50584,29.464666,29.430954,29.388401,29.340908,29.299753,29.247414,29.210447,29.167248,29.13136,29.102364,29.071255,29.051685,29.032185,29.015533,28.993,28.956139,28.923214,28.872608,28.822308,28.76278,28.681564,28.611055,28.506466,28.417309,28.311174,28.19801,28.106709,27.98605,27.8956,27.783772,27.672626,27.581717,27.419678,27.263054,27.0392,26.833782,26.661793,26.4826,26.36441,26.230572,26.144833,26.06691,25.995102,25.94478,25.876877,25.820534,25.745432,25.65429,25.57618,25.467009,25.382544,25.284286,25.204313,25.14999,25.09327,25.057415,25.013454,24.938526,24.82858,24.599318,24.386393,23.749847,22.973133,22.233162,21.4263,20.835367,20.19931,19.85144,19.570496,19.41018,19.309929,19.235487,19.217361,19.187319
9.363422,9.377759,9.393875,9.4120245,9.424879,9.442142,9.455555,9.470406,9.485239,9.496626,9.5109005,9.5210285,9.533295,9.544729,9.554005,9.565691,9.57424,9.585167,9.594717,9.603182,9.612733,9.619335,9.627213,9.632935,9.638468,9.643992,9.647735,9.652764,9.656675,9.660963,9.665243,9.668565,9.672031,9.673874,9.675798,9.677189,9.678228,9.679311,9.679955,9.68069,9.680907,9.680819,9.679465,9.677625,9.6741905,9.669889,9.66481,9.657333,9.650965,9.641124,9.632193,9.622237,9.611197,9.6024685,9.591135,9.582749,9.5728035,9.562906,9.554682,9.543798,9.535555,9.524555,9.513902,9.504496,9.492352,9.483089,9.469992,9.457031,9.443126,9.42357,9.407078,9.382023,9.35885,9.3319235,9.300369,9.2754,9.240768,9.213244,9.180069,9.146382,9.119226,9.084427,9.059017,9.026579,8.995653,8.967939,8.933484,8.908474,8.876735,8.855281,8.844921,8.838463,8.835663,8.818629,8.775251,8.665285,8.531939,8.445978,8.370605,8.404345,7.8742585,9.988869,14.820637,23.557383,30.867668,33.683304,32.720467,32.734512,32.677544,32.637367,32.548206,32.59344,32.957897,33.378895,33.562393,33.65107,33.59406,33.518982,33.435883,33.404434,33.360718,33.326035,33.284374,33.258595,33.260338,33.250256,33.22973,33.198288,33.162155,33.13309,33.092133,33.058624,33.00206,32.939793,32.883057,32.801197,32.73416,32.580757,32.40359,32.20485,32.01928,31.93083,31.789726,31.66742,31.571836,31.417564,31.269028,30.903006,30.29129,27.907375,24.28957,20.689693,17.805008,17.20196,16.616222,16.514912,16.448246,16.44769,16.455585,16.484787,16.516819,16.533371,16.519644,16.485954,16.437351,16.402523,16.381294,16.392265,16.42229,16.475918,16.521864,16.561174,16.579586,16.580849,16.57901,16.580753,16.612942,16.730656,16.825703,17.328342,17.938787,20.629765,23.915466,26.540367,28.15614,28.277782,28.416798,28.490631,28.664328,28.85719,28.98338,29.16868,29.30409,29.325932,29.319614,29.402893,29.490479,29.5276,29.583977,29.639816,29.692253,29.756168,29.801601,29.857527,29.900059,29.939878,29.975103,29.99405,30.01517,30.026566,30.034088,30.035082,30.033115,30.028172,30.023663,30.02177,30.025982,30.033543,30.047935,30.060848,30.07301,30.076405,30.074112,30.057812,30.037222,30.002468,29.965488,29.9305,29.888756,29.857626,29.816223,29.783525,29.74998,29.715233,29.689554,29.653305,29.623245,29.585289,29.542053,29.503508,29.455265,29.422052,29.384373,29.354214,29.33015,29.304365,29.288004,29.27077,29.25403,29.230461,29.191776,29.157585,29.105534,29.054089,28.99319,28.909603,28.83665,28.728092,28.63514,28.52376,28.404171,28.307358,28.179214,28.083141,27.965,27.848747,27.759163,27.574215,27.380608,27.14954,26.960114,26.79504,26.623281,26.510225,26.383972,26.304466,26.231808,26.16473,26.117727,26.053066,25.998062,25.923735,25.831434,25.751154,25.638866,25.5517,25.447279,25.35917,25.298355,25.231266,25.186058,25.122149,25.027508,24.909386,24.660423,24.42014,23.780853,23.02222,22.29264,21.492626,20.903292,20.268494,19.918392,19.622627,19.449223,19.349613,19.27866,19.26422,19.238796
9.390139,9.405661,9.423124,9.443186,9.457787,9.476948,9.491627,9.50852,9.525213,9.53755,9.552309,9.562284,9.574541,9.585975,9.595295,9.606874,9.615205,9.625942,9.635382,9.643744,9.653301,9.660004,9.6681385,9.674222,9.680196,9.686327,9.690563,9.696243,9.700651,9.70547,9.710254,9.713936,9.717839,9.719977,9.722225,9.723881,9.725119,9.72643,9.727224,9.72815,9.728537,9.728649,9.727339,9.725357,9.721607,9.7168865,9.711331,9.703227,9.69636,9.685871,9.6764765,9.666079,9.654757,9.645912,9.634633,9.626463,9.616893,9.607577,9.599882,9.589947,9.5826025,9.572994,9.563816,9.555718,9.545024,9.536682,9.524603,9.512276,9.49889,9.479646,9.4632225,9.438143,9.414806,9.3876,9.3555155,9.330021,9.294537,9.266246,9.232162,9.197403,9.169248,9.133133,9.106642,9.071842,9.036113,9.001371,8.95768,8.926388,8.889469,8.86632,8.858746,8.844339,8.82465,8.768586,8.700556,8.622974,8.553253,8.50695,8.4554,8.57592,8.41112,11.7373295,19.000816,26.938194,30.734928,32.95915,32.914555,32.82453,32.689068,32.739388,32.73488,32.83087,33.224613,33.626022,33.756042,33.80563,33.738613,33.657093,33.568462,33.52822,33.475975,33.438072,33.39621,33.3744,33.381165,33.375458,33.356194,33.326286,33.291527,33.263954,33.22547,33.194183,33.14038,33.081203,33.028847,32.951324,32.88614,32.73575,32.560394,32.361176,32.173378,32.082657,31.941292,31.820074,31.72134,31.564812,31.414577,31.070057,30.489193,28.12666,24.487381,20.820215,17.859938,17.22208,16.6213,16.5281,16.464386,16.464878,16.470558,16.498781,16.531288,16.548935,16.535793,16.501642,16.45092,16.413565,16.39051,16.40031,16.429688,16.48288,16.528793,16.568321,16.586544,16.586853,16.58355,16.584183,16.615395,16.730312,16.816833,17.314917,17.927124,20.665941,24.01418,26.677883,28.312359,28.432148,28.570953,28.644512,28.813206,29.000599,29.125116,29.310127,29.44749,29.479197,29.48011,29.55964,29.64032,29.672455,29.723347,29.774757,29.823406,29.883045,29.925575,29.977345,30.016161,30.052103,30.083912,30.101269,30.121113,30.132282,30.1397,30.141293,30.140224,30.13659,30.133102,30.132298,30.13741,30.145546,30.160706,30.174248,30.1874,30.1922,30.191574,30.177723,30.159073,30.126995,30.09224,30.05899,30.019165,29.98948,29.950489,29.920269,29.889736,29.859005,29.836823,29.805338,29.779081,29.746216,29.708054,29.672895,29.62957,29.600502,29.568401,29.543533,29.523838,29.502523,29.488707,29.472794,29.4555,29.431301,29.391373,29.35607,29.302876,29.25063,29.188757,29.10335,29.02845,28.91661,28.820486,28.704796,28.580334,28.47965,28.346706,28.247368,28.125858,28.007343,27.917665,27.725876,27.521671,27.29469,27.117073,26.955395,26.787224,26.678274,26.556015,26.47893,26.409306,26.345354,26.300467,26.23809,26.184086,26.10981,26.015272,25.931828,25.814194,25.722343,25.612751,25.51903,25.452934,25.376629,25.322733,25.241772,25.129837,25.002716,24.73303,24.465488,23.826878,23.089844,22.36843,21.575558,20.994312,20.359163,20.000002,19.690914,19.50718,19.407143,19.336351,19.321865,19.2964
9.423899,9.439641,9.457162,9.4780655,9.494016,9.515538,9.532456,9.551693,9.5709715,9.585676,9.602702,9.613708,9.627331,9.640049,9.6509,9.662498,9.669277,9.678574,9.686888,9.694244,9.702856,9.709056,9.716801,9.722871,9.729065,9.735381,9.739557,9.745034,9.749189,9.753751,9.758245,9.76169,9.765271,9.767147,9.769039,9.770283,9.771161,9.771917,9.77224,9.7725525,9.772341,9.771852,9.769947,9.767665,9.763577,9.758635,9.752848,9.744534,9.737537,9.727043,9.717777,9.707518,9.696438,9.687826,9.677007,9.669308,9.660378,9.651843,9.644832,9.63595,9.629507,9.621118,9.613146,9.606146,9.596691,9.589152,9.577962,9.56622,9.553341,9.534626,9.5185995,9.494024,9.471084,9.444351,9.41276,9.387611,9.352535,9.324559,9.291477,9.25677,9.227423,9.187883,9.157515,9.115576,9.073931,9.037117,8.995796,8.969483,8.927304,8.887812,8.857064,8.812557,8.769794,8.712397,8.669426,8.628355,8.612991,8.616089,8.489652,8.633624,9.47644,14.244438,22.868498,29.944653,31.245796,32.63703,32.88144,32.8278,32.761322,32.85666,32.97287,33.157623,33.513794,33.837547,33.925713,33.952232,33.888283,33.8021,33.70585,33.657333,33.59432,33.550636,33.513145,33.499725,33.509335,33.50659,33.489185,33.46127,33.428272,33.402348,33.366478,33.337505,33.28624,33.229866,33.181976,33.10877,33.04522,32.897415,32.72377,32.525574,32.335445,32.239716,32.09592,31.975264,31.872936,31.714003,31.561481,31.24077,30.694284,28.353567,24.688332,20.944515,17.906185,17.240292,16.628014,16.54308,16.481056,16.481438,16.485071,16.51263,16.545923,16.56469,16.552002,16.517273,16.464289,16.424324,16.39941,16.40809,16.436909,16.48977,16.53572,16.57566,16.593847,16.59323,16.588268,16.587513,16.618517,16.731163,16.80828,17.299366,17.910698,20.697653,24.111591,26.817944,28.475256,28.595856,28.732193,28.800762,28.964985,29.148136,29.270285,29.44943,29.582747,29.629185,29.644043,29.717945,29.79036,29.818338,29.863258,29.909168,29.953455,30.008068,30.047047,30.093468,30.127728,30.160015,30.18871,30.204266,30.222622,30.233404,30.240486,30.242481,30.242252,30.239819,30.237244,30.237343,30.243158,30.251732,30.267517,30.281628,30.295769,30.30212,30.303387,30.29241,30.276093,30.247261,30.215305,30.184351,30.146997,30.119083,30.082958,30.055569,30.028366,30.001999,29.9836,29.957405,29.935429,29.907822,29.875225,29.844593,29.807243,29.782677,29.756678,29.737514,29.72254,29.70595,29.694725,29.68043,29.663013,29.638626,29.597914,29.561749,29.507725,29.454844,29.392082,29.304703,29.22754,29.11213,29.012676,28.892317,28.762703,28.658081,28.52058,28.41839,28.294054,28.173931,28.083847,27.889828,27.68241,27.457893,27.286865,27.13095,26.96976,26.865887,26.747158,26.671215,26.60457,26.544424,26.502214,26.444763,26.394394,26.320324,26.219927,26.128838,25.994293,25.88695,25.775463,25.687317,25.622747,25.539768,25.474503,25.381054,25.257603,25.120014,24.83034,24.540619,23.900583,23.178244,22.459755,21.671837,21.101166,20.460453,20.084606,19.766296,19.57743,19.474506,19.400751,19.384424,19.356262
9.461798,9.477364,9.4944315,9.515375,9.5319805,9.55472,9.572759,9.592815,9.612976,9.628685,9.646895,9.658636,9.673004,9.686281,9.697754,9.709259,9.715268,9.72379,9.731438,9.738192,9.746073,9.751734,9.7586975,9.764061,9.769526,9.775038,9.778654,9.783324,9.7867985,9.790573,9.79422,9.797005,9.7997265,9.800972,9.802113,9.802618,9.80287,9.8028,9.802502,9.802044,9.801177,9.800089,9.797724,9.795321,9.791132,9.786171,9.780365,9.77203,9.765024,9.754335,9.74485,9.734549,9.723684,9.715391,9.705059,9.697779,9.689364,9.681442,9.674995,9.666995,9.661304,9.6539755,9.647094,9.641102,9.632862,9.626167,9.616135,9.605425,9.593581,9.576009,9.560754,9.537359,9.5154505,9.48976,9.459251,9.4349165,9.401015,9.373965,9.34198,9.307678,9.277926,9.2373085,9.205864,9.162678,9.120396,9.085329,9.04064,9.006937,8.946549,8.885316,8.831685,8.774153,8.732355,8.708851,8.718947,8.730999,8.782827,8.813936,8.810293,9.320307,12.047618,18.079994,25.882341,31.459343,31.643871,32.51316,32.850143,32.895447,32.918037,33.005447,33.268715,33.579655,33.83026,34.028484,34.104168,34.12564,34.0676,33.978058,33.873802,33.817608,33.74308,33.6924,33.660767,33.65715,33.668564,33.668365,33.653442,33.628075,33.597137,33.572865,33.53918,33.51193,33.46191,33.407158,33.36351,33.29403,33.23111,33.084793,32.912003,32.71402,32.51969,32.41656,32.2675,32.145508,32.037415,31.8746,31.71894,31.424673,30.916325,28.59383,24.89405,21.064829,17.944817,17.25464,16.634962,16.560843,16.499813,16.498722,16.499895,16.527224,16.562073,16.581911,16.569324,16.53377,16.478405,16.435802,16.408516,16.41574,16.444195,16.49732,16.543928,16.584713,16.60294,16.601294,16.59423,16.591602,16.622559,16.73304,16.800888,17.28046,17.88338,20.71914,24.207453,26.967674,28.658522,28.784592,28.91602,28.9729,29.132435,29.312624,29.43201,29.60141,29.726585,29.792633,29.827599,29.894749,29.957592,29.981434,30.019514,30.058826,30.098185,30.147099,30.181957,30.222752,30.25257,30.281368,30.307007,30.320644,30.337261,30.34737,30.353699,30.355667,30.356033,30.354523,30.352674,30.353455,30.359798,30.36869,30.385128,30.399971,30.415462,30.423973,30.427841,30.420795,30.407663,30.38327,30.355133,30.327354,30.293316,30.26769,30.235027,30.210846,30.187317,30.165691,30.151396,30.13116,30.114113,30.09218,30.065746,30.040546,30.010319,29.990974,29.971502,29.958126,29.947933,29.936174,29.927666,29.915848,29.899387,29.875507,29.83471,29.798195,29.743942,29.690687,29.626919,29.53691,29.456718,29.336912,29.233608,29.107609,28.97219,28.863638,28.722202,28.618038,28.49208,28.371527,28.27952,28.092396,27.897526,27.680363,27.512644,27.363981,27.211555,27.11332,26.998661,26.924622,26.863089,26.809912,26.773056,26.722057,26.675196,26.602238,26.497139,26.398682,26.251081,26.13274,26.01486,25.924583,25.858522,25.76922,25.69551,25.589642,25.452755,25.301937,24.99475,24.690521,24.048695,23.333828,22.610859,21.823101,21.264462,20.612757,20.211933,19.881588,19.684868,19.5737,19.490004,19.466955,19.430058
9.485355,9.500603,9.517427,9.538204,9.554862,9.577092,9.594233,9.613054,9.631613,9.645828,9.662918,9.674437,9.688154,9.700565,9.710802,9.722414,9.729897,9.739767,9.748383,9.75598,9.7644005,9.77013,9.776521,9.780735,9.784607,9.788569,9.79154,9.795467,9.798435,9.801544,9.804502,9.806782,9.808905,9.809763,9.810533,9.810797,9.810873,9.810708,9.810429,9.810057,9.809401,9.8085985,9.806676,9.804636,9.800801,9.796015,9.79035,9.781977,9.774872,9.763281,9.752659,9.74159,9.730377,9.722087,9.711779,9.704508,9.696079,9.688218,9.681908,9.674198,9.668809,9.662001,9.655737,9.650297,9.642801,9.636679,9.627731,9.618227,9.607678,9.591396,9.576826,9.554499,9.533408,9.508212,9.477904,9.453623,9.419944,9.393015,9.359966,9.3248005,9.295034,9.256786,9.229008,9.194069,9.158388,9.12759,9.068001,9.007714,8.9162855,8.837406,8.779069,8.74163,8.731024,8.746027,8.787458,8.835221,8.918758,8.905741,9.192347,10.322646,15.033659,21.703117,27.088955,31.100594,31.698376,32.60455,32.94284,33.039433,33.06945,33.106056,33.490135,33.92708,34.067535,34.15599,34.249527,34.27719,34.216957,34.12416,34.014053,33.952198,33.869774,33.81446,33.785553,33.787827,33.801407,33.803864,33.7909,33.767597,33.73816,33.714935,33.682335,33.655754,33.60533,33.550636,33.51001,33.442913,33.379623,33.233566,33.06067,32.861362,32.662666,32.55394,32.40009,32.275913,32.162193,31.995474,31.837181,31.5624,31.08213,28.77031,25.041662,21.147465,17.967691,17.262154,16.639599,16.574757,16.514023,16.51112,16.510359,16.53778,16.57414,16.594603,16.581802,16.545519,16.488579,16.444294,16.414928,16.420752,16.449024,16.502777,16.550356,16.591957,16.610188,16.607805,16.598993,16.594675,16.62549,16.73462,16.796883,17.266308,17.858713,20.729326,24.275213,27.079792,28.799965,28.93184,29.058966,29.105062,29.261568,29.44028,29.557013,29.719015,29.838577,29.91971,29.970074,30.03247,30.08821,30.108751,30.141619,30.176046,30.211866,30.256676,30.288507,30.325846,30.353188,30.379574,30.402863,30.415007,30.430157,30.439522,30.444975,30.44654,30.447075,30.446003,30.444614,30.445858,30.452663,30.461891,30.479044,30.49467,30.51149,30.521988,30.528177,30.524555,30.514156,30.493572,30.468666,30.443565,30.412258,30.388485,30.358479,30.336649,30.315748,30.29746,30.286034,30.270073,30.256586,30.238512,30.216269,30.194912,30.169945,30.15459,30.139662,30.130093,30.123066,30.114647,30.108143,30.098923,30.08417,30.061094,30.020683,29.984352,29.930458,29.877197,29.812675,29.720428,29.63767,29.514324,29.40801,29.277271,29.137117,29.02566,28.881554,28.776245,28.64952,28.52885,28.434334,28.255144,28.075169,27.86483,27.697899,27.55473,27.408886,27.314503,27.203625,27.13285,27.077934,27.033583,27.003698,26.957823,26.911827,26.840675,26.735611,26.63472,26.488935,26.374237,26.243942,26.136108,26.061672,25.967655,25.893934,25.77798,25.627384,25.466951,25.150105,24.839447,24.19774,23.486143,22.755787,21.964876,21.415436,20.75446,20.332886,19.990017,19.78321,19.662964,19.568327,19.537868,19.491495
9.534121,9.551139,9.568449,9.587944,9.602683,9.622019,9.636583,9.652333,9.667353,9.678431,9.69245,9.70247,9.71398,9.724191,9.732377,9.742517,9.74984,9.759188,9.767339,9.774603,9.782694,9.788196,9.79448,9.798687,9.802391,9.806137,9.808985,9.812679,9.815357,9.818037,9.820179,9.821562,9.822337,9.82206,9.821343,9.819944,9.818518,9.816369,9.814627,9.8124695,9.810432,9.808601,9.8058605,9.803488,9.799416,9.794665,9.789128,9.780979,9.773995,9.762884,9.752863,9.742376,9.731803,9.724047,9.714323,9.707388,9.699279,9.691737,9.685759,9.678594,9.673704,9.667806,9.662667,9.658356,9.652185,9.646931,9.638947,9.630098,9.620133,9.604513,9.590415,9.569288,9.549688,9.526398,9.4984665,9.476055,9.4449215,9.420017,9.38927,9.357546,9.331806,9.299683,9.276939,9.251099,9.218565,9.181696,9.10253,9.020819,8.913593,8.8334255,8.778053,8.763241,8.780267,8.854617,8.976137,9.120295,9.412632,9.573721,10.650591,12.762193,18.862072,25.4545,28.498524,30.93671,31.802752,32.7414,33.14599,33.288544,33.3711,33.43995,33.845566,34.261833,34.325615,34.35501,34.457447,34.487755,34.426395,34.3323,34.218353,34.151596,34.06094,33.999836,33.97277,33.980347,33.995842,34.0009,33.990013,33.96895,33.94102,33.918697,33.886505,33.859764,33.809185,33.754715,33.71548,33.648804,33.58435,33.437576,33.263435,33.060425,32.854553,32.73864,32.57749,32.448776,32.32593,32.15245,31.989277,31.740934,31.299656,28.999294,25.228252,21.245333,17.988747,17.268852,16.645979,16.59407,16.534138,16.528671,16.524998,16.552101,16.590155,16.611355,16.598228,16.56091,16.50172,16.455044,16.422794,16.42683,16.455137,16.510033,16.55904,16.601688,16.619757,16.61618,16.605427,16.599619,16.629837,16.735931,16.790052,17.24368,17.819036,20.73585,24.361,27.227604,28.990185,29.132057,29.252636,29.281794,29.43517,29.613392,29.725952,29.88055,29.996193,30.095299,30.163458,30.221468,30.269924,30.286804,30.313835,30.342686,30.374321,30.414799,30.443872,30.478634,30.504604,30.529488,30.5514,30.562752,30.57692,30.58556,30.590065,30.590977,30.591461,30.59016,30.58842,30.58902,30.595116,30.60373,30.620853,30.637125,30.65543,30.668636,30.6781,30.679424,30.672998,30.657831,30.637516,30.61631,30.589006,30.56794,30.541712,30.523144,30.505903,30.49228,30.484879,30.474998,30.466656,30.454376,30.438051,30.421587,30.403128,30.392624,30.383163,30.378101,30.37482,30.37047,30.366535,30.36031,30.347372,30.325268,30.28528,30.249046,30.19526,30.141415,30.074987,29.978546,29.891373,29.762287,29.651562,29.514748,29.369104,29.254444,29.107906,29.002098,28.875694,28.75653,28.657696,28.50072,28.359596,28.17206,28.009804,27.873089,27.734585,27.646275,27.542685,27.477364,27.42817,27.390324,27.365967,27.324444,27.279438,27.209524,27.10366,26.999725,26.854343,26.742409,26.605293,26.485687,26.403214,26.299255,26.218208,26.084358,25.91355,25.734083,25.410652,25.110283,24.460136,23.73006,22.988777,22.19111,21.641476,20.963123,20.5169,20.153667,19.92755,19.791605,19.677254,19.632948,19.570427
9.583989,9.603203,9.621027,9.638853,9.651072,9.667288,9.679579,9.692758,9.70495,9.71357,9.724643,9.732698,9.741713,9.749621,9.756078,9.763879,9.769344,9.776424,9.782774,9.788559,9.795437,9.800411,9.806945,9.812162,9.8171215,9.821964,9.825142,9.829092,9.831773,9.834391,9.835974,9.836552,9.835962,9.834419,9.831919,9.828352,9.824928,9.8200035,9.816118,9.81127,9.806991,9.803343,9.79892,9.795655,9.790829,9.785921,9.780405,9.772642,9.766011,9.756569,9.7486,9.739805,9.730642,9.723797,9.715111,9.708833,9.701418,9.694508,9.689074,9.682695,9.678467,9.673679,9.669876,9.666933,9.662356,9.658125,9.65097,9.642397,9.632528,9.61728,9.603739,9.584069,9.566491,9.546181,9.522411,9.503512,9.477081,9.455935,9.43043,9.404856,9.384724,9.3588705,9.339738,9.318619,9.28488,9.237197,9.148204,9.064873,8.97197,8.916447,8.881506,8.895338,8.933938,9.070401,9.284531,9.536879,10.094662,10.545961,12.433892,15.290864,21.34998,27.204807,29.408459,31.178034,31.940317,32.856895,33.35271,33.509087,33.661255,33.828407,34.147842,34.410942,34.47222,34.52304,34.619133,34.646606,34.586365,34.49382,34.380306,34.312172,34.217407,34.152412,34.12544,34.135002,34.151115,34.15728,34.147453,34.12757,34.10035,34.07827,34.04555,34.017906,33.967598,33.913513,33.87322,33.80474,33.739,33.590954,33.41509,33.207916,32.99585,32.875015,32.707977,32.574806,32.4441,32.264824,32.097794,31.869251,31.457129,29.163013,25.358027,21.308228,17.997503,17.27202,16.651325,16.608929,16.549927,16.542559,16.536472,16.562933,16.601929,16.623638,16.610292,16.57214,16.511143,16.46258,16.428158,16.43098,16.459513,16.515415,16.565514,16.608875,16.626698,16.62202,16.610264,16.604183,16.633497,16.736217,16.783878,17.224964,17.786697,20.737162,24.421474,27.335396,29.13135,29.282143,29.397402,29.412409,29.564182,29.743116,29.852125,30.003414,30.119186,30.22929,30.307796,30.36424,30.40923,30.424028,30.447737,30.47332,30.502338,30.540613,30.568804,30.603298,30.629784,30.655123,30.677639,30.689484,30.703829,30.712193,30.716206,30.71645,30.716537,30.714273,30.711435,30.710514,30.714993,30.72226,30.738455,30.754742,30.773705,30.788723,30.800568,30.805634,30.802286,30.791328,30.774675,30.756695,30.732801,30.714073,30.690992,30.675055,30.660772,30.650887,30.64668,30.64169,30.637527,30.630112,30.61848,30.6055,30.59148,30.584183,30.578297,30.57613,30.575224,30.573547,30.571419,30.567005,30.555027,30.533558,30.493797,30.457502,30.40343,30.348682,30.280216,30.179857,30.088745,29.95467,29.840376,29.699429,29.550594,29.434175,29.286911,29.181744,29.056828,28.940235,28.838367,28.704443,28.602127,28.440952,28.286789,28.155472,28.022152,27.939024,27.84193,27.780537,27.732288,27.69421,27.670235,27.629583,27.585442,27.516243,27.410719,27.306667,27.16148,27.050156,26.916183,26.79763,26.712341,26.598665,26.506512,26.356274,26.16898,25.970043,25.644207,25.36279,24.70104,23.942928,23.191477,22.384594,21.824444,21.129505,20.668179,20.287151,20.042171,19.892006,19.759281,19.701756,19.624836
