18.000824,18.079414,18.17025,18.261108,18.337698,18.408222,18.483261,18.550766,18.604517,18.658504,18.716389,18.77198,18.821314,18.880745,18.943954,18.998632,19.044823,19.092484,19.134315,19.166985,19.19756,19.228886,19.258263,19.284378,19.313866,19.346832,19.379673,19.412132,19.451405,19.490751,19.52332,19.555473,19.59104,19.62458,19.652424,19.685337,19.721779,19.755457,19.784706,19.818407,19.850782,19.876617,19.9001,19.925524,19.94941,19.969238,19.991072,20.011198,20.025475,20.03518,20.04715,20.061398,20.077724,20.099403,20.130438,20.165302,20.195961,20.229225,20.260273,20.287056,20.314533,20.34095,20.364826,20.38505,20.403769,20.42761,20.450836,20.467754,20.482353,20.492176,20.497976,20.504124,20.512825,20.526253,20.542055,20.556911,20.57557,20.59565,20.614023,20.634254,20.661837,20.695164,20.72869,20.769304,20.815256,20.858673,20.897675,20.945799,20.997953,21.045708,21.093796,21.150719,21.20821,21.25803,21.31267,21.372643,21.42778,21.473476,21.525906,21.577934,21.62118,21.65997,21.69865,21.732288,21.75956,21.785246,21.810612,21.833012,21.851528,21.88289,21.936808,22.007927,22.087345,22.200935,22.339863,22.477404,22.634132,22.833569,23.056875,23.2741,23.555817,23.945019,24.373482,24.765362,25.24052,25.734167,26.157455,26.551052,26.97191,27.346657,27.637678,27.958126,28.300682,28.612919,28.878685,29.17305,29.45465,29.67158,29.821419,29.95401,30.061872,30.151262,30.25315,30.364712,30.466484,30.551067,30.649952,30.748013,30.828812,30.9016,30.97938,31.047974,31.09933,31.143099,31.187782,31.231007,31.26965,31.317059,31.370419,31.420086,31.464127,31.515913,31.571268,31.620073,31.658432,31.691006,31.716793,31.739475,31.76548,31.79198,31.813152,31.828625,31.841171,31.84589,31.843859,31.839285,31.831635,31.822193,31.813232,31.804998,31.798807,31.796694,31.797878,31.802216,31.808996,31.815105,31.818447,31.823872,31.831596,31.839863,31.85147,31.86673,31.882355,31.895992,31.910183,31.918652,31.91867,31.914263,31.901972,31.885838,31.872967,31.86258,31.85468,31.852474,31.855476,31.862309,31.873573,31.886211,31.89817,31.911852,31.924894,31.93531,31.945139,31.956299,31.970053,31.985992,32.00853,32.039974,32.0756,32.110935,32.1567,32.207108,32.25299,32.29911,32.35572,32.413692,32.46328,32.519604,32.58241,32.639732,32.68605,32.73857,32.79387,32.84562,32.89698,32.960083,33.02674,33.08594,33.147762,33.21534,33.27798,33.33032,33.386486,33.441425,33.48577,33.519363,33.549866,33.57383,33.592422,33.610226,33.634037,33.66289,33.691418,33.72776,33.77232,33.817383,33.859104,33.90836,33.95746,33.99772,34.033844,34.071815,34.103134,34.123795,34.14173,34.154255,34.15978,34.160797,34.158318,34.152557,34.14637,34.14074,34.136604,34.136345,34.13968,34.149406,34.17083,34.20205,34.235153,34.290184,34.36245,34.43522,34.507977,34.59327,34.67488,34.73944,34.80196,34.86323,34.914627,34.95546,35.002747,35.058258,35.116043,35.173714,35.242523,35.313408,35.3759,35.440826,35.523567,35.597572,35.641796,35.710648,35.803215,35.90172,35.99356,36.10814,36.232796,36.344604,36.452744
18.007421,18.081013,18.166334,18.252468,18.32594,18.39399,18.467518,18.534643,18.58842,18.642517,18.700678,18.756477,18.805744,18.865074,18.928455,18.983685,19.030619,19.079887,19.124065,19.1591,19.192398,19.226711,19.258379,19.285717,19.316116,19.349783,19.38338,19.41677,19.457542,19.498749,19.532919,19.566109,19.602345,19.63615,19.66404,19.697025,19.733984,19.768696,19.799137,19.834827,19.869562,19.897415,19.922768,19.950405,19.97625,19.997358,20.020424,20.041456,20.05623,20.06627,20.078583,20.093048,20.109348,20.130692,20.160904,20.194427,20.223602,20.25522,20.284475,20.309761,20.336208,20.36178,20.385212,20.405422,20.424442,20.448647,20.472216,20.489388,20.504063,20.513723,20.519085,20.52465,20.532345,20.544113,20.557877,20.570572,20.586624,20.604322,20.62114,20.640476,20.667854,20.701569,20.735596,20.776754,20.823303,20.86742,20.907318,20.957012,21.011612,21.062202,21.113392,21.174274,21.235764,21.288822,21.346825,21.410088,21.468117,21.516426,21.572561,21.62994,21.679394,21.724655,21.771912,21.814953,21.85048,21.884579,21.916935,21.94424,21.967178,22.003407,22.062967,22.140356,22.227093,22.34905,22.493752,22.63266,22.787453,22.979633,23.193062,23.402187,23.681192,24.07375,24.509087,24.908741,25.390133,25.887184,26.310402,26.697231,27.103218,27.458858,27.73301,28.035807,28.365541,28.673529,28.94003,29.238121,29.530151,29.752863,29.871656,29.988258,30.098078,30.188667,30.29003,30.399887,30.499432,30.58186,30.679493,30.777588,30.859573,30.934547,31.01619,31.089182,31.143963,31.19085,31.23893,31.285069,31.325573,31.374573,31.429413,31.480682,31.526543,31.581253,31.639536,31.690182,31.730064,31.763432,31.789595,31.812916,31.839462,31.866302,31.887735,31.90369,31.916874,31.921896,31.919434,31.913723,31.90276,31.887533,31.871853,31.854488,31.836843,31.823483,31.814724,31.81142,31.813587,31.817547,31.82097,31.82762,31.837933,31.849537,31.864944,31.884281,31.90299,31.918365,31.933393,31.94273,31.94448,31.942368,31.934761,31.924004,31.914896,31.90746,31.90094,31.897766,31.898342,31.901358,31.90769,31.915722,31.923805,31.934214,31.945602,31.955975,31.967087,31.98126,31.998999,32.01862,32.04552,32.0819,32.122257,32.162052,32.212112,32.266182,32.314808,32.362938,32.42092,32.479515,32.529327,32.58474,32.644947,32.69883,32.74205,32.79208,32.84658,32.899506,32.953506,33.021366,33.09384,33.15814,33.225388,33.29904,33.36817,33.42722,33.492508,33.555218,33.602737,33.636303,33.663254,33.678444,33.685738,33.692055,33.704018,33.722446,33.74212,33.76937,33.80509,33.84288,33.87886,33.922348,33.966545,34.003265,34.03688,34.0726,34.10235,34.122116,34.138176,34.14685,34.14677,34.141327,34.13305,34.123516,34.115654,34.109016,34.106224,34.109985,34.11823,34.134026,34.162632,34.20057,34.239403,34.296158,34.371185,34.448975,34.52285,34.614098,34.704777,34.776978,34.847626,34.917625,34.976692,35.023506,35.07715,35.139065,35.20268,35.26587,35.341377,35.41777,35.48355,35.55286,35.640186,35.71829,35.766045,35.836998,35.929943,36.02765,36.11873,36.22937,36.35132,36.4638,36.571396
18.01961,18.08812,18.167934,18.249573,18.320301,18.386248,18.458733,18.525896,18.579971,18.63458,18.693314,18.74939,18.798548,18.857567,18.920559,18.975613,19.022617,19.072718,19.11858,19.155563,19.191204,19.22829,19.262083,19.29033,19.321259,19.35504,19.388607,19.422033,19.463093,19.504795,19.539356,19.572392,19.608154,19.641445,19.669006,19.701782,19.73928,19.775274,19.807098,19.845078,19.88259,19.912926,19.940754,19.971344,19.999886,20.022892,20.047918,20.070747,20.086964,20.098278,20.111904,20.12742,20.144245,20.165585,20.195148,20.22734,20.254963,20.28475,20.312004,20.335712,20.361153,20.38612,20.409588,20.430256,20.449825,20.474586,20.49858,20.516033,20.53099,20.541039,20.54674,20.552454,20.559998,20.570778,20.58289,20.593863,20.608004,20.624292,20.640556,20.660057,20.688158,20.722813,20.757593,20.799278,20.846344,20.89116,20.931938,20.983105,21.039955,21.0931,21.14689,21.210905,21.275293,21.330463,21.390503,21.455536,21.515192,21.565292,21.624424,21.68711,21.743477,21.796228,21.854387,21.910397,21.95798,22.00521,22.050137,22.087738,22.119766,22.16534,22.234692,22.321898,22.419088,22.553158,22.707214,22.850246,23.006594,23.190672,23.392756,23.597546,23.87463,24.271698,24.712074,25.10642,25.588982,26.089258,26.510632,26.887333,27.280066,27.617397,27.868084,28.1464,28.455938,28.753483,29.015944,29.31776,29.608898,29.81968,29.921038,30.033047,30.147814,30.239513,30.340649,30.449627,30.54822,30.629658,30.727018,30.825943,30.909744,30.987373,31.073574,31.151617,31.210175,31.26076,31.311329,31.358704,31.400433,31.451134,31.508095,31.561272,31.608349,31.664734,31.725311,31.777494,31.81297,31.843672,31.870148,31.89368,31.920593,31.94788,31.969837,31.986609,32.00103,32.00718,32.005108,31.99904,31.985437,31.964682,31.94215,31.915052,31.884277,31.858711,31.842056,31.829916,31.824762,31.824574,31.826015,31.831388,31.841671,31.854307,31.871387,31.892761,31.912903,31.928785,31.943594,31.953074,31.956116,31.955994,31.952667,31.94696,31.941525,31.937363,31.93303,31.929897,31.9289,31.929195,31.932217,31.937592,31.943756,31.953436,31.96585,31.978321,31.992483,32.011185,32.03383,32.05751,32.08901,32.130398,32.17551,32.219772,32.2743,32.3324,32.384163,32.434593,32.49402,32.552963,32.602535,32.6563,32.713207,32.76317,32.80294,32.849823,32.90258,32.95552,33.010742,33.08136,33.157333,33.224648,33.29516,33.373062,33.446823,33.509953,33.582607,33.6523,33.70288,33.73648,33.760075,33.76812,33.767265,33.766037,33.769356,33.779503,33.792496,33.81305,33.84238,33.874786,33.906265,33.944897,33.984543,34.017723,34.048817,34.081715,34.10954,34.128983,34.1436,34.14868,34.143433,34.132736,34.119816,34.107224,34.09814,34.091568,34.09173,34.10135,34.11608,34.13932,34.176025,34.2208,34.26483,34.323997,34.3991,34.476624,34.550873,34.64424,34.73974,34.81815,34.895805,34.974045,35.040833,35.09385,35.153915,35.221954,35.29079,35.358765,35.44017,35.52073,35.588203,35.66208,35.75257,35.834515,35.889538,35.962723,36.054947,36.151146,36.24092,36.34852,36.46781,36.579468,36.68576
18.038532,18.10316,18.178833,18.257286,18.32632,18.39109,18.463318,18.53101,18.58566,18.640995,18.700287,18.75637,18.805054,18.863182,18.9249,18.978764,19.024868,19.07457,19.12083,19.158684,19.19558,19.234442,19.269642,19.298298,19.329311,19.362623,19.39537,19.427896,19.467884,19.50843,19.54187,19.57344,19.607492,19.639404,19.66618,19.69834,19.736069,19.773067,19.805933,19.845737,19.885597,19.918205,19.948524,19.982227,20.013771,20.039059,20.066526,20.091793,20.110165,20.123447,20.139124,20.15638,20.174274,20.196053,20.225437,20.256775,20.283283,20.311634,20.337341,20.359894,20.384674,20.4095,20.433548,20.45511,20.475445,20.500921,20.525406,20.543182,20.558647,20.5696,20.576393,20.583023,20.591415,20.602253,20.613668,20.62389,20.637432,20.653713,20.670574,20.691193,20.720665,20.75648,20.792044,20.83413,20.881672,20.9273,20.969055,21.021662,21.080437,21.135517,21.190964,21.25666,21.322235,21.377949,21.438314,21.50346,21.563473,21.614468,21.67572,21.742647,21.804874,21.864481,21.93355,22.003328,22.064112,22.125923,22.186556,22.237978,22.281076,22.337952,22.418535,22.5163,22.624348,22.770212,22.933834,23.082628,23.243793,23.423754,23.61858,23.823143,24.10131,24.499567,24.93723,25.320862,25.80199,26.30425,26.722883,27.093903,27.478268,27.79948,28.026276,28.279251,28.56569,28.847908,29.100636,29.401733,29.677101,29.859325,29.963127,30.082073,30.200958,30.292757,30.394709,30.50535,30.605782,30.68818,30.786854,30.887535,30.973423,31.05347,31.143503,31.225502,31.286762,31.339905,31.392231,31.440311,31.48236,31.533415,31.590742,31.644272,31.691675,31.748304,31.80854,31.858986,31.886992,31.913208,31.939173,31.961807,31.987919,32.014576,32.036366,32.05354,32.069134,32.07702,32.07643,32.071434,32.05745,32.034,32.00733,31.973438,31.933445,31.899794,31.878777,31.858322,31.844387,31.838459,31.835688,31.837673,31.84591,31.857395,31.873377,31.893517,31.912321,31.926907,31.940382,31.949177,31.952562,31.953424,31.952572,31.950756,31.949306,31.948778,31.947575,31.946014,31.945168,31.944946,31.947308,31.95259,31.959103,31.97044,31.985863,32.001713,32.0197,32.043266,32.070656,32.09798,32.133396,32.17874,32.22731,32.274582,32.332436,32.393387,32.446922,32.49839,32.557777,32.61548,32.663338,32.71467,32.768333,32.815002,32.851974,32.896187,32.947136,32.99932,33.054317,33.125206,33.201492,33.268772,33.339256,33.41794,33.49269,33.55591,33.63,33.70202,33.75448,33.788876,33.812065,33.81926,33.81804,33.816406,33.817703,33.824997,33.83603,33.85479,33.8824,33.913063,33.94262,33.978622,34.01523,34.045708,34.0748,34.105232,34.131443,34.150932,34.165344,34.168972,34.161804,34.150417,34.136383,34.123047,34.11459,34.110622,34.116245,34.133514,34.155815,34.187035,34.231354,34.28129,34.328026,34.389244,34.461315,34.532948,34.606377,34.697403,34.791344,34.87099,34.95072,35.032295,35.102745,35.158844,35.221886,35.292316,35.362812,35.432198,35.515564,35.596924,35.663857,35.739296,35.830597,35.916904,35.982445,36.05779,36.148567,36.24337,36.33206,36.43917,36.556908,36.666252,36.772118
18.061878,18.123537,18.196117,18.272339,18.340385,18.40462,18.477169,18.545834,18.601383,18.657639,18.717464,18.773277,18.821064,18.877687,18.937317,18.989147,19.033585,19.08194,19.127594,19.165445,19.202751,19.242586,19.278631,19.3074,19.338318,19.370996,19.402657,19.433893,19.472126,19.510609,19.542065,19.571524,19.603252,19.63335,19.659122,19.690472,19.728085,19.765602,19.799047,19.840122,19.881804,19.916302,19.94883,19.98542,20.019903,20.047573,20.077631,20.105581,20.12642,20.142006,20.160095,20.179506,20.198906,20.221567,20.25132,20.282394,20.30834,20.335802,20.36057,20.382568,20.407171,20.432453,20.457691,20.480625,20.502045,20.528471,20.55352,20.571587,20.587614,20.599606,20.607716,20.615532,20.625103,20.63646,20.647722,20.657806,20.671474,20.688457,20.706455,20.728638,20.75978,20.796896,20.83334,20.875935,20.924091,20.970726,21.01369,21.068083,21.129032,21.18602,21.242832,21.309446,21.37508,21.43021,21.48949,21.553272,21.61237,21.663097,21.725582,21.795284,21.861603,21.92747,22.007153,22.090809,22.165134,22.241177,22.318491,22.385628,22.440876,22.509876,22.602036,22.710285,22.829155,22.984318,23.154833,23.309017,23.475584,23.655884,23.848097,24.052711,24.335545,24.725185,25.146622,25.53103,26.014767,26.516247,26.931236,27.310493,27.68924,27.989735,28.195492,28.424889,28.6885,28.953667,29.193653,29.488632,29.74632,29.902927,30.011154,30.132774,30.251253,30.344948,30.449188,30.563103,30.666758,30.7513,30.852322,30.955349,31.043343,31.125431,31.218304,31.302885,31.36562,31.42012,31.472961,31.52071,31.56227,31.612705,31.669376,31.722359,31.769325,31.82627,31.88251,31.924622,31.948532,31.972189,31.996437,32.0173,32.041504,32.066383,32.08716,32.104248,32.120705,32.130493,32.13203,32.128986,32.11622,32.09223,32.0636,32.024742,31.9806,31.943256,31.915176,31.886787,31.865501,31.854176,31.847221,31.845287,31.850513,31.859894,31.873539,31.891163,31.90761,31.920116,31.931496,31.939022,31.942356,31.943811,31.945024,31.946636,31.948727,31.951616,31.95375,31.954464,31.954655,31.955044,31.957981,31.964222,31.97197,31.985737,32.004604,32.023956,32.045673,32.073753,32.105408,32.13594,32.174644,32.223053,32.27394,32.32293,32.38228,32.444084,32.497765,32.548855,32.606995,32.6628,32.708828,32.75784,32.808723,32.852867,32.887897,32.930405,32.980194,33.03164,33.08584,33.155685,33.230324,33.29549,33.363525,33.439896,33.513268,33.576023,33.64707,33.716362,33.768623,33.804314,33.831047,33.84279,33.844875,33.84442,33.846992,33.856087,33.868866,33.889694,33.919304,33.951157,33.981018,34.0166,34.051857,34.080704,34.10847,34.137436,34.162506,34.181473,34.196526,34.200325,34.193546,34.184982,34.172318,34.16073,34.155792,34.156715,34.170033,34.196686,34.227608,34.26751,34.319458,34.373623,34.42148,34.4822,34.55024,34.61582,34.683796,34.771187,34.862602,34.939423,35.017517,35.098557,35.169308,35.22577,35.28874,35.358257,35.42722,35.494987,35.57641,35.656506,35.72284,35.79521,35.88389,35.974815,36.053104,36.129173,36.217117,36.31083,36.398712,36.506836,36.623734,36.7302,36.838326
18.091875,18.151318,18.221708,18.296694,18.364643,18.429201,18.50278,18.57285,18.629578,18.68686,18.747066,18.802197,18.848541,18.902931,18.959484,19.008232,19.05006,19.096008,19.14001,19.17697,19.213934,19.254133,19.290642,19.319302,19.349934,19.38155,19.411386,19.44049,19.47572,19.510588,19.5386,19.564592,19.592777,19.620327,19.644827,19.675278,19.712822,19.750904,19.784927,19.827234,19.870796,19.907425,19.942656,19.982859,20.021065,20.051779,20.085182,20.116776,20.141058,20.159794,20.181181,20.203514,20.22494,20.248743,20.279022,20.309868,20.335205,20.361706,20.385471,20.40688,20.431265,20.457106,20.483822,20.50852,20.53144,20.559464,20.585888,20.605045,20.622597,20.63691,20.647667,20.657795,20.669744,20.682663,20.69452,20.705086,20.719612,20.73805,20.75784,20.782225,20.815536,20.854214,20.891693,20.934818,20.983622,21.031351,21.075659,21.131971,21.195076,21.253704,21.311373,21.378107,21.442951,21.496862,21.554657,21.617111,21.67582,21.72711,21.791044,21.864395,21.936447,22.009344,22.101,22.200918,22.29182,22.386662,22.48707,22.575455,22.645422,22.729603,22.835262,22.95376,23.080631,23.24644,23.429544,23.594547,23.763569,23.951622,24.154749,24.365171,24.653433,25.026676,25.422657,25.807798,26.29085,26.795326,27.217258,27.600193,27.96612,28.239014,28.417103,28.615082,28.84667,29.08575,29.304947,29.581766,29.820263,29.960178,30.068943,30.191746,30.312027,30.410095,30.519402,30.63935,30.748362,30.836731,30.941095,31.046753,31.136707,31.220284,31.31517,31.401306,31.464476,31.5192,31.571354,31.617573,31.657509,31.706156,31.76099,31.812422,31.857967,31.917103,31.966324,31.991047,32.011047,32.032635,32.0543,32.072636,32.09407,32.11633,32.135532,32.152203,32.16959,32.182106,32.187088,32.187485,32.17782,32.155113,32.126057,32.08714,32.04109,31.99895,31.964079,31.927565,31.898045,31.880054,31.867504,31.859901,31.860289,31.865978,31.87571,31.88924,31.90213,31.911797,31.920454,31.92636,31.92952,31.931524,31.934776,31.939865,31.945658,31.952377,31.958584,31.96257,31.964872,31.967232,31.972374,31.981125,31.991497,32.00913,32.03261,32.05621,32.082092,32.114933,32.150772,32.184177,32.225613,32.27614,32.328197,32.37773,32.43718,32.498417,32.551094,32.600838,32.656624,32.70961,32.75322,32.799362,32.847164,32.88883,32.92223,32.96326,33.01188,33.06227,33.11514,33.182922,33.254623,33.31654,33.38099,33.45376,33.52442,33.585464,33.654358,33.72252,33.77554,33.813263,33.844036,33.86113,33.86812,33.872185,33.880096,33.894608,33.911995,33.937668,33.971527,34.00583,34.036438,34.07135,34.10437,34.130592,34.15599,34.183296,34.207424,34.22557,34.24144,34.24877,34.246803,34.24192,34.233315,34.227013,34.22856,34.23716,34.2613,34.300255,34.342075,34.392006,34.452164,34.511578,34.563187,34.623627,34.686646,34.744423,34.802216,34.87902,34.961266,35.030907,35.103058,35.17948,35.247498,35.30237,35.363358,35.429924,35.49523,35.55924,35.636032,35.712524,35.77644,35.84137,35.92528,36.02041,36.10988,36.19207,36.281006,36.373055,36.4606,36.57019,36.687767,36.793076,36.901176
18.118092,18.17733,18.247768,18.323551,18.392895,18.459,18.534351,18.605999,18.663872,18.721851,18.781916,18.835838,18.880318,18.93207,18.985176,19.03052,19.069407,19.112423,19.15401,19.18925,19.225101,19.264923,19.301453,19.329918,19.36029,19.390759,19.418402,19.444792,19.476032,19.506031,19.529457,19.550987,19.574863,19.599567,19.622835,19.652622,19.69033,19.729055,19.763672,19.806976,19.85213,19.890781,19.928707,19.97263,20.014765,20.04876,20.085655,20.121017,20.148846,20.170715,20.195335,20.220467,20.243748,20.268475,20.29911,20.329664,20.354395,20.379978,20.402756,20.423435,20.447327,20.473324,20.501034,20.52716,20.551517,20.58148,20.610138,20.631489,20.65187,20.670076,20.684994,20.698666,20.714275,20.730022,20.743538,20.755417,20.771564,20.791946,20.81371,20.840294,20.875574,20.915545,20.953835,20.997318,21.046665,21.095404,21.140873,21.198605,21.26297,21.322186,21.379452,21.445007,21.508371,21.561134,21.618275,21.681293,21.742012,21.796104,21.863325,21.941734,22.020267,22.09962,22.202023,22.316921,22.423729,22.538385,22.660755,22.768261,22.853327,22.953186,23.072765,23.20169,23.336391,23.515598,23.714352,23.891312,24.06632,24.268814,24.489304,24.708443,24.993572,25.350677,25.730488,26.113178,26.591198,27.09924,27.532259,27.911394,28.25799,28.500025,28.647501,28.810173,29.00377,29.209366,29.400396,29.644854,29.870293,30.017706,30.122675,30.24487,30.369938,30.474775,30.591759,30.72004,30.835873,30.92902,31.036934,31.144524,31.23524,31.318863,31.413792,31.499474,31.561512,31.614922,31.664984,31.708603,31.746029,31.792006,31.84425,31.893656,31.938202,31.993805,32.033005,32.045006,32.062363,32.08214,32.100937,32.11646,32.134644,32.153645,32.170918,32.18752,32.20601,32.22134,32.230026,32.23439,32.229504,32.211323,32.18577,32.15115,32.105896,32.060307,32.0213,31.978758,31.941841,31.91679,31.897533,31.88232,31.875526,31.875439,31.87933,31.887115,31.895447,31.901846,31.90755,31.911667,31.914333,31.916412,31.920744,31.928036,31.936409,31.946108,31.95607,31.96385,31.96933,31.975307,31.984667,31.997696,32.01207,32.03458,32.063034,32.090736,32.120296,32.157013,32.195946,32.231194,32.274055,32.32509,32.376682,32.425205,32.482937,32.541843,32.59207,32.639183,32.69126,32.74032,32.780815,32.823624,32.86834,32.907974,32.940384,32.98062,33.028503,33.077957,33.129456,33.19494,33.263523,33.322292,33.38349,33.45298,33.521072,33.580296,33.64863,33.717804,33.773155,33.814293,33.850533,33.87471,33.888763,33.900703,33.91742,33.939735,33.963085,33.994347,34.03216,34.067783,34.09762,34.129616,34.157967,34.17965,34.200935,34.22558,34.249096,34.267574,34.285828,34.299706,34.30606,34.30727,34.306946,34.310555,34.32192,34.34076,34.37775,34.42988,34.482765,34.5449,34.616295,34.68223,34.73591,34.793022,34.847366,34.89389,34.9375,34.997395,35.063988,35.122017,35.18354,35.250854,35.312874,35.364143,35.421608,35.48414,35.544846,35.604042,35.674774,35.74586,35.805874,35.864502,35.941387,36.03368,36.126198,36.224968,36.323082,36.411777,36.499603,36.61036,36.729515,36.835342,36.940056
18.13366,18.19423,18.266357,18.344261,18.415783,18.483967,18.561226,18.634214,18.692913,18.751112,18.81058,18.86311,18.905773,18.955132,19.005344,19.047928,19.0844,19.12492,19.164238,19.197666,19.232243,19.271404,19.307774,19.336136,19.366432,19.396069,19.42183,19.445711,19.47312,19.498394,19.517426,19.534771,19.554749,19.577047,19.599453,19.628948,19.667042,19.706446,19.741684,19.785746,19.832088,19.872368,19.91246,19.959463,20.004957,20.04181,20.081575,20.1199,20.150404,20.174568,20.201487,20.228527,20.252998,20.278156,20.30884,20.339045,20.363241,20.388084,20.410004,20.429897,20.453083,20.47876,20.506725,20.533566,20.558918,20.590578,20.621635,20.645592,20.66932,20.691895,20.71132,20.728819,20.748337,20.767311,20.782951,20.796492,20.814436,20.836605,20.85994,20.888092,20.924644,20.96534,21.004045,21.047636,21.097378,21.146917,21.193207,21.251656,21.316309,21.37519,21.431154,21.494873,21.556816,21.60913,21.666948,21.732588,21.797443,21.855978,21.92826,22.012299,22.096306,22.180618,22.290943,22.416971,22.535872,22.666817,22.803734,22.922909,23.021122,23.134327,23.266506,23.406384,23.551643,23.745686,23.957579,24.142508,24.330486,24.547558,24.778936,25.003784,25.276525,25.62529,26.007046,26.384134,26.856007,27.364105,27.801277,28.173342,28.500675,28.714937,28.835367,28.966442,29.124767,29.297745,29.46043,29.669296,29.88916,30.06034,30.162548,30.28431,30.414818,30.52666,30.651478,30.787945,30.91013,31.007492,31.11823,31.226702,31.316978,31.399553,31.49308,31.576992,31.63713,31.688534,31.736084,31.77703,31.812027,31.855442,31.905333,31.953072,31.997974,32.04177,32.07035,32.083282,32.09922,32.11696,32.133286,32.1463,32.16152,32.177452,32.193024,32.21016,32.229782,32.24721,32.258617,32.266132,32.266083,32.254242,32.23504,32.204765,32.16147,32.115467,32.075027,32.029156,31.98688,31.955801,31.930138,31.907055,31.892414,31.885899,31.88345,31.885252,31.889116,31.892536,31.895676,31.898159,31.900093,31.90176,31.906118,31.914118,31.923645,31.934965,31.947601,31.958761,31.967537,31.9776,31.991783,32.00946,32.027946,32.05496,32.08749,32.11827,32.150417,32.189594,32.230286,32.26646,32.309685,32.360218,32.410515,32.45732,32.51259,32.5685,32.615753,32.65973,32.707695,32.75258,32.789803,32.829384,32.87139,32.909546,32.941475,32.981506,33.02923,33.078186,33.128807,33.192688,33.25916,33.315945,33.375298,33.44303,33.509872,33.56839,33.636726,33.70733,33.765625,33.81096,33.853943,33.886635,33.908783,33.929115,33.954617,33.984066,34.012306,34.04746,34.08692,34.121536,34.14863,34.175575,34.1975,34.213543,34.229836,34.250923,34.273956,34.294266,34.31651,34.336967,34.351257,34.36059,34.370667,34.38584,34.407814,34.437004,34.48597,34.54933,34.611267,34.68645,34.771385,34.84379,34.89484,34.944878,34.98737,35.02053,35.05011,35.092964,35.143288,35.188934,35.238857,35.296093,35.351482,35.398853,35.452976,35.51226,35.56941,35.62476,35.690422,35.75647,35.812874,35.870598,35.94017,36.02261,36.1109,36.23111,36.343437,36.428535,36.516827,36.62809,36.74835,36.85482,36.955177
18.14738,18.210009,18.284609,18.36528,18.439396,18.510036,18.589264,18.663338,18.722553,18.78056,18.83898,18.889784,18.930447,18.977259,19.024456,19.064182,19.098188,19.136002,19.172697,19.203934,19.23679,19.274672,19.31033,19.338333,19.368378,19.39711,19.421026,19.44252,19.466328,19.487232,19.502293,19.516104,19.533028,19.553795,19.57611,19.606117,19.645264,19.685776,19.721962,19.766918,19.814415,19.85624,19.898357,19.948147,19.996641,20.036064,20.078373,20.119411,20.152475,20.178854,20.20797,20.236847,20.262476,20.288021,20.318684,20.348528,20.37228,20.396572,20.417978,20.437513,20.460396,20.486221,20.514893,20.542843,20.569578,20.603466,20.6375,20.664587,20.692255,20.719868,20.7444,20.766216,20.790213,20.812943,20.8311,20.846603,20.866653,20.890818,20.915798,20.945532,20.983225,21.02438,21.063221,21.10661,21.156399,21.20641,21.25325,21.312,21.376545,21.434895,21.489525,21.551556,21.612715,21.665665,21.725666,21.795876,21.86673,21.931217,22.009527,22.09924,22.188068,22.27627,22.393139,22.529133,22.659508,22.806087,22.960545,23.096096,23.209454,23.33814,23.4847,23.636925,23.794727,24.00211,24.226418,24.422482,24.626808,24.859886,25.097195,25.316813,25.589096,25.934841,26.309147,26.677288,27.148129,27.654274,28.081242,28.439531,28.743616,28.928738,29.021812,29.121103,29.243967,29.383785,29.516602,29.698338,29.903461,30.07801,30.212437,30.346527,30.473944,30.590944,30.723663,30.868755,30.9973,31.098846,31.212088,31.320831,31.409887,31.490437,31.581278,31.662102,31.71926,31.767653,31.811821,31.849403,31.881344,31.921415,31.967892,32.013355,32.059986,32.08901,32.102615,32.114647,32.127678,32.142036,32.154503,32.16353,32.17584,32.19119,32.20749,32.223988,32.24381,32.263126,32.277645,32.28881,32.293877,32.287964,32.274284,32.249344,32.210747,32.167572,32.128193,32.08178,32.036842,32.001923,31.971704,31.942854,31.922272,31.910725,31.903238,31.90028,31.900644,31.901794,31.90307,31.904446,31.905895,31.90728,31.911608,31.920033,31.930355,31.942947,31.957909,31.972103,31.983816,31.997587,32.01598,32.037395,32.058914,32.08884,32.123425,32.15523,32.18783,32.226944,32.266945,32.30202,32.343426,32.391273,32.438465,32.4821,32.53356,32.585617,32.62963,32.6705,32.714767,32.75618,32.79087,32.828102,32.868385,32.905975,32.938282,32.978928,33.02713,33.076077,33.126244,33.188957,33.25381,33.309174,33.367386,33.434006,33.49998,33.55797,33.62616,33.697716,33.758488,33.807777,33.85746,33.89901,33.929897,33.95952,33.99494,34.03264,34.066658,34.106483,34.147903,34.181255,34.205055,34.22596,34.24016,34.249374,34.259655,34.27636,34.29847,34.320457,34.346928,34.374985,34.398605,34.417152,34.438835,34.466476,34.49937,34.538795,34.598663,34.672997,34.745235,34.831512,34.92373,34.99637,35.043465,35.08463,35.113617,35.132393,35.147995,35.171913,35.20311,35.23471,35.273148,35.321426,35.37168,35.416565,35.46933,35.52761,35.58315,35.636223,35.698494,35.760998,35.81491,35.87169,35.937996,36.014103,36.0954,36.217667,36.34527,36.44612,36.533463,36.6455,36.76743,36.875034,36.976692
18.157333,18.222706,18.300636,18.384764,18.46174,18.534859,18.61558,18.689884,18.748802,18.805756,18.862411,18.911194,18.949934,18.994507,19.039207,19.076624,19.108711,19.144234,19.178417,19.20734,19.23809,19.273876,19.307903,19.334877,19.36404,19.39154,19.413673,19.433025,19.453938,19.471653,19.484074,19.496037,19.511929,19.533081,19.556828,19.58891,19.630375,19.672771,19.71051,19.756649,19.805214,19.848312,19.89198,19.943785,19.994392,20.035622,20.079575,20.12247,20.15747,20.185617,20.216599,20.247139,20.27387,20.299835,20.330574,20.360249,20.383823,20.407982,20.429434,20.449226,20.472424,20.498985,20.528826,20.558182,20.586561,20.623035,20.660526,20.691238,20.723366,20.756538,20.786617,20.81308,20.841934,20.868938,20.89021,20.908222,20.930971,20.957603,20.984497,21.015848,21.0545,21.095695,21.134146,21.176605,21.225384,21.274656,21.320845,21.378399,21.441208,21.497639,21.549858,21.609715,21.670712,21.725712,21.790115,21.867962,21.947617,22.019949,22.104992,22.19907,22.29003,22.378994,22.49824,22.640198,22.779259,22.938492,23.111757,23.267452,23.397144,23.543709,23.70804,23.874897,24.043997,24.263079,24.501461,24.713089,24.932312,25.177807,25.420763,25.640472,25.915623,26.25801,26.621044,26.97545,27.438503,27.933401,28.340382,28.675749,28.951664,29.108128,29.176088,29.24658,29.336975,29.44704,29.555485,29.716846,29.905231,30.072342,30.227983,30.387177,30.53509,30.667145,30.809147,30.961529,31.09592,31.201254,31.316534,31.424969,31.512169,31.59,31.677153,31.75381,31.807167,31.851894,31.892076,31.92567,31.953896,31.98951,32.031548,32.071735,32.109795,32.124336,32.12599,32.133766,32.141453,32.14959,32.156384,32.161358,32.17141,32.185085,32.199482,32.21386,32.23243,32.252754,32.2702,32.285194,32.296288,32.297943,32.291656,32.275326,32.24654,32.211998,32.178883,32.13813,32.096775,32.063103,32.03271,32.00259,31.979856,31.966063,31.9562,31.950933,31.949738,31.9501,31.951012,31.952473,31.954166,31.95578,31.960304,31.968943,31.979607,31.992798,32.009197,32.025467,32.039196,32.055492,32.076313,32.099186,32.121246,32.15045,32.182632,32.21115,32.239685,32.273323,32.30739,32.33718,32.3722,32.41298,32.453743,32.49184,32.53755,32.584934,32.625942,32.664467,32.70652,32.746346,32.78016,32.816807,32.857193,32.89575,32.92965,32.972137,33.021866,33.071625,33.12224,33.185036,33.249878,33.30551,33.36454,33.432117,33.49881,33.55729,33.625988,33.698536,33.76146,33.814373,33.870438,33.92084,33.960876,34.000626,34.047398,34.095028,34.136375,34.182365,34.226776,34.25907,34.279175,34.292885,34.297634,34.298286,34.300735,34.311024,34.330475,34.352936,34.382557,34.417534,34.45024,34.477863,34.51068,34.549435,34.591003,34.63757,34.70347,34.783043,34.86036,34.94935,35.039665,35.105873,35.14527,35.17428,35.187836,35.191643,35.193146,35.19932,35.21436,35.23535,35.264008,35.304314,35.350964,35.396202,35.450264,35.510696,35.56822,35.62274,35.68651,35.75055,35.805904,35.86424,35.931213,36.003937,36.077667,36.19017,36.33177,36.45883,36.54731,36.660248,36.783463,36.893036,36.998127
18.162716,18.230547,18.311527,18.398708,18.477978,18.55286,18.63424,18.70797,18.765934,18.821388,18.876137,18.923172,18.960564,19.003729,19.046972,19.083082,19.11419,19.14832,19.180687,19.207743,19.236494,19.269909,19.3018,19.327324,19.355202,19.381527,19.402508,19.420593,19.440147,19.456738,19.468552,19.48079,19.497871,19.521107,19.547321,19.582375,19.626698,19.671196,19.710651,19.757992,19.807404,19.851347,19.8959,19.948734,20.000332,20.04237,20.086899,20.130533,20.166506,20.195663,20.22786,20.259598,20.287182,20.313545,20.344467,20.37421,20.397903,20.422363,20.44441,20.465055,20.489182,20.516964,20.548195,20.578922,20.608727,20.647333,20.687721,20.721577,20.757536,20.79557,20.830559,20.861168,20.89439,20.925434,20.949833,20.970375,20.995777,21.024734,21.053291,21.085861,21.124958,21.165665,21.203236,21.24424,21.291292,21.338991,21.383743,21.439312,21.499718,21.553839,21.603584,21.661888,21.723991,21.782417,21.852852,21.939962,22.029354,22.109604,22.200706,22.297081,22.38724,22.474007,22.591305,22.734077,22.877056,23.043268,23.23154,23.405304,23.548313,23.710562,23.891094,24.070799,24.247803,24.476723,24.72857,24.954374,25.181784,25.434467,25.685287,25.913742,26.19004,26.526508,26.878672,27.218208,27.664167,28.139147,28.524986,28.835869,29.08664,29.222368,29.274178,29.326395,29.39635,29.488869,29.586054,29.73398,29.910194,30.070135,30.220284,30.402433,30.587643,30.742756,30.893353,31.049732,31.187805,31.295479,31.411781,31.519428,31.604671,31.679945,31.763523,31.8362,31.886078,31.927605,31.964321,31.994347,32.01914,32.05024,32.088074,32.120895,32.139515,32.142963,32.139164,32.140083,32.14116,32.142006,32.143265,32.14566,32.1533,32.16257,32.17169,32.18295,32.199005,32.21897,32.238216,32.25608,32.272697,32.282223,32.28418,32.278053,32.26181,32.23936,32.216137,32.185898,32.153595,32.12607,32.1001,32.073563,32.052917,32.040073,32.030785,32.025784,32.02482,32.025593,32.027176,32.029404,32.031734,32.033897,32.03881,32.047623,32.058357,32.07166,32.08862,32.105816,32.12039,32.137657,32.15875,32.18065,32.20086,32.22615,32.252384,32.274452,32.29573,32.320198,32.34487,32.3667,32.392555,32.423782,32.456474,32.488014,32.52743,32.570408,32.609264,32.64672,32.68856,32.729,32.76371,32.801544,32.843582,32.88412,32.92016,32.965004,33.016747,33.067837,33.119568,33.18352,33.24975,33.307007,33.368256,33.438164,33.506607,33.56623,33.63578,33.709167,33.773582,33.82915,33.890045,33.9475,33.99515,34.043663,34.100716,34.157806,34.20643,34.258743,34.306595,34.33834,34.355156,34.362125,34.357807,34.350136,34.344727,34.348057,34.36382,34.38559,34.41667,34.45643,34.49595,34.530457,34.571358,34.617355,34.663452,34.7126,34.77871,34.85617,34.930565,35.013374,35.094707,35.150948,35.180748,35.19732,35.1973,35.189438,35.18096,35.176434,35.183075,35.199043,35.22164,35.256638,35.301292,35.347847,35.404778,35.4695,35.531456,35.59008,35.65902,35.728607,35.78869,35.85092,35.921143,35.993828,36.063793,36.16561,36.31173,36.457355,36.556416,36.672447,36.795063,36.905872,37.01262
18.165699,18.235546,18.31902,18.408596,18.489563,18.565706,18.647427,18.720459,18.777405,18.83151,18.884617,18.930216,18.966637,19.008774,19.05097,19.086147,19.11663,19.1497,19.180557,19.20601,19.232891,19.263916,19.293625,19.317743,19.344482,19.370115,19.390732,19.408457,19.427847,19.444635,19.45702,19.470577,19.489769,19.515602,19.544409,19.58237,19.6293,19.675608,19.716587,19.764986,19.815117,19.859743,19.904972,19.958527,20.010736,20.053204,20.09795,20.141893,20.178392,20.208164,20.241135,20.273712,20.301952,20.32865,20.359749,20.389656,20.413635,20.4386,20.461557,20.483427,20.508854,20.538113,20.570778,20.602688,20.633549,20.673622,20.716116,20.752476,20.791595,20.833931,20.873533,20.908146,20.945585,20.9806,21.008045,21.030872,21.058548,21.089306,21.118973,21.152222,21.19122,21.231026,21.26746,21.306965,21.352474,21.398952,21.442715,21.497007,21.556078,21.6091,21.65759,21.71594,21.780815,21.843998,21.921679,22.018816,22.118036,22.205853,22.302896,22.401257,22.489952,22.573917,22.687956,22.829311,22.97358,23.143763,23.343668,23.53218,23.685337,23.859497,24.050869,24.239,24.424614,24.665464,24.929329,25.163523,25.395092,25.656721,25.917831,26.15091,26.42864,26.759758,27.100433,27.42588,27.851593,28.30225,28.665554,28.9552,29.18628,29.308197,29.351364,29.393785,29.453423,29.538414,29.63364,29.769655,29.935558,30.09502,30.246487,30.43591,30.639181,30.817932,30.97609,31.134823,31.274628,31.38338,31.49974,31.606041,31.689075,31.761768,31.84179,31.910645,31.95736,31.996082,32.029842,32.05683,32.07866,32.105183,32.14162,32.170113,32.164932,32.155106,32.14606,32.140625,32.134705,32.128952,32.12652,32.128098,32.130825,32.133877,32.138176,32.14584,32.158596,32.17721,32.197342,32.217102,32.238213,32.254738,32.26436,32.268246,32.264793,32.255135,32.242764,32.22448,32.20303,32.18345,32.16369,32.14266,32.12574,32.115005,32.10718,32.10296,32.102333,32.103397,32.105278,32.107784,32.110374,32.112804,32.11795,32.126842,32.13758,32.15097,32.16844,32.186405,32.20158,32.219467,32.24034,32.260704,32.278496,32.299244,32.31897,32.334198,32.347908,32.36293,32.378036,32.391808,32.408535,32.43035,32.455093,32.48015,32.51346,32.552254,32.589214,32.626053,32.668472,32.710365,32.746597,32.786297,32.830437,32.873055,32.91117,32.958237,33.0119,33.064384,33.11736,33.182636,33.250393,33.30932,33.37268,33.444622,33.514442,33.574898,33.644966,33.718807,33.784306,33.842052,33.906975,33.97039,34.024574,34.08061,34.146553,34.211906,34.26691,34.32473,34.37539,34.406315,34.419815,34.42028,34.407463,34.392136,34.379547,34.376595,34.38913,34.41044,34.44298,34.487183,34.532883,34.573452,34.621273,34.67306,34.722282,34.772648,34.837624,34.910374,34.977913,35.052578,35.123497,35.168995,35.18949,35.194275,35.182095,35.16564,35.154007,35.146133,35.148087,35.158752,35.177116,35.209503,35.25257,35.2967,35.35684,35.427025,35.493202,35.555317,35.628437,35.702675,35.767097,35.833645,35.907936,35.983078,36.053696,36.14791,36.283554,36.43265,36.563927,36.687614,36.804398,36.91405,37.01967
18.168653,18.240074,18.325665,18.41743,18.500011,18.577333,18.65937,18.73167,18.787495,18.840282,18.891922,18.936392,18.972214,19.013626,19.054918,19.089191,19.11903,19.150871,19.179914,19.20343,19.227818,19.255596,19.282372,19.30463,19.330036,19.355421,19.376709,19.395332,19.416378,19.435463,19.450268,19.4669,19.489868,19.519402,19.551281,19.592375,19.641785,19.689672,19.732021,19.781452,19.83239,19.87782,19.923874,19.978199,20.030956,20.073772,20.11859,20.162617,20.199392,20.229567,20.263039,20.296066,20.324512,20.35109,20.381817,20.411472,20.435608,20.461246,20.48573,20.50984,20.53772,20.569729,20.60499,20.638832,20.67115,20.7128,20.757404,20.796429,20.83904,20.886597,20.932278,20.97248,21.016052,21.057014,21.089,21.115059,21.145573,21.178043,21.20827,21.241222,21.278587,21.315865,21.349909,21.386784,21.429947,21.475014,21.518108,21.571928,21.631237,21.685314,21.73524,21.797707,21.870174,21.942516,22.032364,22.144499,22.257236,22.354893,22.459272,22.559462,22.645367,22.724764,22.832901,22.968122,23.107403,23.274532,23.478844,23.677494,23.8395,24.02522,24.229053,24.428085,24.623861,24.878395,25.150333,25.384205,25.621506,25.893621,26.164204,26.40096,26.67849,27.001846,27.328327,27.637283,28.036713,28.456596,28.794607,29.064466,29.28187,29.39996,29.44533,29.488573,29.5554,29.649391,29.745878,29.87481,30.03093,30.185787,30.338108,30.53117,30.743069,30.933468,31.093464,31.251316,31.390606,31.498734,31.613647,31.717628,31.79797,31.867714,31.943691,32.008205,32.05137,32.08702,32.11764,32.14133,32.15973,32.186848,32.207855,32.20905,32.189934,32.169754,32.15224,32.13833,32.126034,32.11554,32.108646,32.104385,32.09947,32.09437,32.09208,32.09455,32.10218,32.117664,32.1372,32.157524,32.182068,32.20524,32.222717,32.23766,32.249268,32.255646,32.25769,32.256485,32.25226,32.246864,32.239487,32.230896,32.22373,32.21929,32.216316,32.21502,32.215286,32.216347,32.217575,32.218994,32.22066,32.222485,32.227287,32.236176,32.24707,32.26081,32.27896,32.297497,32.31279,32.330414,32.34954,32.3665,32.380066,32.39397,32.404778,32.41109,32.415226,32.41855,32.421875,32.425743,32.431137,32.44109,32.455673,32.47242,32.497814,32.53125,32.565975,32.602467,32.646484,32.691288,32.730286,32.772995,32.820023,32.86496,32.905075,32.95424,33.009697,33.06356,33.117973,33.184845,33.2543,33.314842,33.379944,33.452934,33.5227,33.582577,33.65149,33.72427,33.7899,33.84934,33.91823,33.988113,34.049644,34.114353,34.190834,34.26621,34.329113,34.393898,34.44835,34.47871,34.488663,34.48194,34.459778,34.43612,34.415657,34.405975,34.41519,34.436127,34.470486,34.519962,34.572937,34.62065,34.67649,34.73462,34.78663,34.83719,34.898827,34.9632,35.019634,35.08174,35.13765,35.168694,35.177044,35.171654,35.152267,35.130577,35.11312,35.098938,35.094822,35.100327,35.114357,35.14395,35.186066,35.229973,35.289402,35.36274,35.43536,35.502266,35.581657,35.663345,35.734962,35.808823,35.890472,35.970566,36.043167,36.135395,36.25966,36.40161,36.548836,36.693108,36.818367,36.921364,37.02509
18.169968,18.242062,18.328842,18.422054,18.505802,18.583935,18.666273,18.738127,18.79313,18.845139,18.896034,18.940079,18.975883,19.017105,19.057873,19.091438,19.120743,19.151436,19.178772,19.200516,19.222466,19.247143,19.271229,19.291883,19.316376,19.342312,19.365341,19.385983,19.410084,19.432884,19.451197,19.471695,19.498936,19.532133,19.566631,19.61015,19.661156,19.709848,19.753002,19.803099,19.854671,19.900795,19.947628,20.002628,20.05584,20.098984,20.143944,20.188122,20.225185,20.255733,20.289583,20.32283,20.351234,20.37753,20.407755,20.437153,20.461575,20.488148,20.514643,20.541632,20.572634,20.608047,20.646378,20.68229,20.715855,20.75847,20.804293,20.84512,20.890285,20.94223,20.993507,21.03907,21.088657,21.13556,21.172035,21.201084,21.23388,21.267193,21.297026,21.3286,21.36317,21.39705,21.428255,21.462402,21.50357,21.547974,21.591444,21.646374,21.708092,21.765594,21.819618,21.889507,21.972618,22.05626,22.16003,22.288544,22.41568,22.523653,22.635742,22.73833,22.82227,22.898254,22.99998,23.126587,23.257763,23.418083,23.619751,23.821526,23.98959,24.184006,24.398952,24.608707,24.814478,25.07426,25.345922,25.57884,25.82221,26.102718,26.37914,26.61764,26.893341,27.208721,27.522362,27.816822,28.192703,28.585337,28.902306,29.159103,29.372433,29.497889,29.55621,29.61356,29.699665,29.809813,29.910572,30.040321,30.193438,30.344704,30.49613,30.689253,30.895596,31.073689,31.22823,31.38208,31.517555,31.62268,31.734102,31.834543,31.911785,31.978588,32.050743,32.111416,32.15167,32.18496,32.213192,32.234653,32.251354,32.272198,32.26809,32.239376,32.2166,32.1901,32.165295,32.146534,32.13009,32.115326,32.102497,32.090298,32.077606,32.064724,32.05571,32.05264,32.054348,32.065258,32.082375,32.101204,32.126442,32.15329,32.176075,32.199516,32.223846,32.244728,32.260483,32.2764,32.29045,32.300903,32.30802,32.314514,32.31965,32.32338,32.3268,32.32938,32.33072,32.33148,32.33145,32.331078,32.33137,32.332394,32.336975,32.346283,32.357803,32.37236,32.39141,32.410397,32.42549,32.442253,32.45878,32.471573,32.480385,32.48719,32.48931,32.487297,32.48266,32.475407,32.468143,32.46302,32.458122,32.457176,32.462326,32.471375,32.48945,32.518044,32.550987,32.587692,32.634083,32.682556,32.724823,32.770866,32.82075,32.86757,32.90905,32.95955,33.01608,33.07078,33.12624,33.194298,33.26487,33.326332,33.392166,33.46482,33.533024,33.591003,33.657383,33.72773,33.79226,33.852158,33.923454,33.99804,34.065216,34.13685,34.221977,34.30577,34.375404,34.44612,34.503822,34.533722,34.540752,34.528206,34.49869,34.468742,34.442398,34.427963,34.435196,34.45636,34.492714,34.54704,34.606445,34.660347,34.72296,34.786064,34.839676,34.889347,34.946327,35.00172,35.047478,35.09604,35.136993,35.155815,35.155476,35.143826,35.12109,35.0966,35.073235,35.05271,35.043564,35.045815,35.056984,35.084766,35.1271,35.17291,35.231373,35.30584,35.38319,35.455048,35.541092,35.63073,35.710075,35.791748,35.881382,35.966824,36.041367,36.13495,36.25154,36.381126,36.520973,36.683212,36.827454,36.930237,37.030975
18.16912,18.241337,18.328655,18.4227,18.507164,18.58576,18.668373,18.740103,18.794704,18.8465,18.89727,18.941364,18.977451,19.018806,19.059357,19.092438,19.121382,19.151201,19.177265,19.19774,19.217953,19.240505,19.262903,19.2827,19.306965,19.333946,19.358946,19.381683,19.408684,19.434772,19.456059,19.479656,19.510185,19.546001,19.582184,19.627188,19.678951,19.727829,19.77132,19.821705,19.873623,19.920189,19.967575,20.02306,20.076645,20.120144,20.165447,20.210072,20.247667,20.278763,20.313131,20.346737,20.375315,20.401634,20.431828,20.461445,20.486485,20.51419,20.542694,20.572332,20.606113,20.644428,20.685211,20.72258,20.756714,20.799435,20.845396,20.886856,20.933142,20.987602,21.042448,21.0915,21.145031,21.19587,21.235256,21.26606,21.299892,21.333094,21.362,21.391926,21.423893,21.455013,21.484123,21.51659,21.556992,21.601826,21.646559,21.703638,21.768698,21.830193,21.888645,21.965662,22.058142,22.151224,22.266146,22.407867,22.546938,22.66364,22.782639,22.888538,22.972805,23.048468,23.145742,23.265568,23.391512,23.547993,23.746597,23.948444,24.120726,24.320938,24.543556,24.760986,24.975048,25.228893,25.495165,25.735613,25.983356,26.268538,26.548092,26.787033,27.060837,27.370388,27.675127,27.959476,28.32029,28.695242,28.998047,29.247543,29.461433,29.597025,29.66994,29.74634,29.847916,29.965736,30.07204,30.206635,30.364052,30.517962,30.667082,30.858337,31.051437,31.203125,31.349915,31.499422,31.629387,31.730412,31.837387,31.933731,32.00778,32.07191,32.14089,32.19872,32.23713,32.269115,32.296036,32.3167,32.33401,32.334507,32.30938,32.27283,32.24617,32.214325,32.18708,32.169743,32.150715,32.129963,32.11032,32.09336,32.07524,32.056606,32.042427,32.034866,32.03145,32.0378,32.05183,32.0681,32.09195,32.119545,32.144638,32.17285,32.20526,32.235985,32.26139,32.28962,32.317017,32.339127,32.357044,32.37477,32.389053,32.398884,32.407066,32.412476,32.414528,32.414978,32.41401,32.4125,32.41216,32.413094,32.418243,32.42859,32.4411,32.456734,32.476814,32.496304,32.511326,32.527405,32.54189,32.551487,32.556698,32.558266,32.55419,32.546432,32.535717,32.521194,32.506638,32.49523,32.48321,32.474735,32.473385,32.47712,32.490295,32.515804,32.54784,32.58516,32.6339,32.685585,32.730515,32.779247,32.831276,32.879314,32.92157,32.972763,33.02973,33.08469,33.1406,33.20912,33.28006,33.341736,33.40764,33.479443,33.54589,33.601967,33.665955,33.733868,33.796837,33.85628,33.928238,34.004944,34.074993,34.150352,34.240326,34.32892,34.402374,34.47638,34.535637,34.56485,34.5698,34.55355,34.51973,34.48638,34.45707,34.44055,34.447426,34.469444,34.50766,34.565567,34.62937,34.687298,34.754135,34.820023,34.874107,34.922546,34.975388,35.02446,35.06378,35.101738,35.132084,35.144745,35.14249,35.12703,35.0998,35.071762,35.045975,35.023045,35.011963,35.012978,35.0232,35.050842,35.094135,35.141514,35.203243,35.279396,35.357246,35.432995,35.524017,35.61935,35.704136,35.791214,35.886314,35.975243,36.050743,36.143383,36.255497,36.376617,36.50278,36.666405,36.8255,36.941383,37.038578
18.165035,18.236973,18.324394,18.419022,18.504238,18.583496,18.666822,18.739002,18.793705,18.845934,18.89721,18.941786,18.97845,19.020136,19.060442,19.092855,19.12117,19.14978,19.174273,19.193306,19.21175,19.232431,19.253698,19.273361,19.298275,19.327301,19.355183,19.38081,19.41135,19.44109,19.465454,19.49195,19.525257,19.562931,19.599918,19.645336,19.696692,19.744774,19.787842,19.837976,19.889893,19.936655,19.98452,20.040535,20.09474,20.139,20.18525,20.231152,20.270088,20.302322,20.337753,20.372137,20.40117,20.427792,20.45834,20.488699,20.514908,20.54433,20.575512,20.608452,20.645582,20.68724,20.730728,20.769552,20.803953,20.846233,20.891579,20.932888,20.97945,21.035448,21.09288,21.144558,21.201015,21.254707,21.296003,21.327559,21.361065,21.392647,21.41934,21.446392,21.474747,21.502655,21.52967,21.56102,21.601835,21.648668,21.6964,21.75795,21.829102,21.89724,21.962729,22.049793,22.15432,22.258896,22.386879,22.543583,22.696285,22.823565,22.951342,23.063627,23.15224,23.231277,23.32785,23.444508,23.568428,23.722748,23.91808,24.118675,24.294228,24.50035,24.732975,24.9569,25.161644,25.413858,25.685406,25.930534,26.181532,26.469427,26.751064,26.991695,27.26427,27.566746,27.859848,28.131042,28.48071,28.843334,29.13325,29.37709,29.594397,29.745583,29.840427,29.941778,30.063618,30.193153,30.309105,30.456463,30.6247,30.782133,30.929691,31.087183,31.235094,31.362505,31.49829,31.63981,31.761215,31.855734,31.95591,32.046257,32.115902,32.17659,32.24189,32.296818,32.3336,32.36443,32.39264,32.41034,32.415184,32.390232,32.34871,32.31293,32.28622,32.256565,32.229416,32.208107,32.184975,32.159004,32.134235,32.11322,32.090366,32.06644,32.047062,32.03452,32.02501,32.025185,32.034153,32.045654,32.065266,32.090645,32.115532,32.14579,32.18345,32.221542,32.25457,32.292824,32.33138,32.36342,32.390533,32.41793,32.440086,32.455086,32.46714,32.47454,32.476635,32.476334,32.47419,32.47167,32.471123,32.472572,32.47924,32.49169,32.50605,32.523605,32.54548,32.56604,32.581413,32.597214,32.610123,32.617107,32.619423,32.61693,32.608208,32.59619,32.58101,32.561012,32.540756,32.524338,32.506554,32.491917,32.485203,32.484535,32.493706,32.516846,32.54844,32.586777,32.63829,32.69355,32.741383,32.793087,32.847435,32.896667,32.939514,32.99109,33.047943,33.102474,33.15807,33.22597,33.296043,33.356834,33.421616,33.491356,33.5551,33.60862,33.669586,33.734436,33.79515,33.853256,33.924526,34.00154,34.07257,34.149544,34.241806,34.332626,34.407722,34.482754,34.541763,34.569473,34.57231,34.553284,34.5173,34.483215,34.453842,34.43873,34.4485,34.47384,34.516155,34.579292,34.648277,34.71045,34.78151,34.85003,34.904488,34.951744,35.000866,35.044167,35.07761,35.10839,35.13147,35.139038,35.134014,35.115913,35.086823,35.057808,35.031425,35.00817,34.997288,34.99891,35.010193,35.03992,35.086174,35.13665,35.202827,35.282143,35.361794,35.441387,35.536686,35.636253,35.724735,35.81524,35.913376,36.003357,36.07776,36.166695,36.272163,36.382565,36.491337,36.64202,36.800797,36.927643,37.045437
18.159588,18.23086,18.317963,18.412836,18.498646,18.578539,18.662735,18.735704,18.790897,18.844017,18.896212,18.941498,18.978806,19.020802,19.060791,19.092451,19.120003,19.147427,19.170593,19.188553,19.205828,19.225605,19.24686,19.267368,19.29395,19.325924,19.357342,19.386353,19.420654,19.453888,19.480938,19.509571,19.544662,19.583153,19.619984,19.66475,19.71468,19.76118,19.803173,19.852493,19.903969,19.950584,19.998676,20.055012,20.10978,20.154926,20.202473,20.250275,20.291235,20.32517,20.362303,20.398106,20.428173,20.45567,20.487328,20.519215,20.547245,20.578995,20.613497,20.650333,20.69131,20.73681,20.783405,20.823872,20.858448,20.90004,20.944185,20.984484,21.030207,21.086134,21.144299,21.196838,21.254377,21.309235,21.351221,21.382711,21.415115,21.444485,21.468597,21.492569,21.517391,21.542469,21.567858,21.598824,21.640884,21.690449,21.741852,21.808672,21.886566,21.961674,22.034433,22.131165,22.246532,22.361082,22.500574,22.670364,22.834942,22.97145,23.109894,23.232677,23.329542,23.415182,23.515923,23.633541,23.756859,23.908787,24.09948,24.296465,24.472044,24.681456,24.916977,25.139534,25.336945,25.590794,25.868355,26.11562,26.367977,26.656195,26.93816,27.180168,27.450998,27.747154,28.032612,28.299637,28.64304,28.997055,29.279781,29.5234,29.75121,29.925236,30.047718,30.17979,30.329834,30.480944,30.617851,30.781578,30.941723,31.070066,31.191935,31.313057,31.428291,31.538479,31.661306,31.790607,31.900742,31.98679,32.078506,32.161808,32.22664,32.283875,32.34579,32.398537,32.434647,32.465965,32.494648,32.50317,32.48465,32.4451,32.401146,32.370174,32.34543,32.31797,32.28988,32.26419,32.23738,32.207584,32.179474,32.155777,32.129692,32.10192,32.078335,32.061268,32.045815,32.039085,32.041496,32.046364,32.0589,32.078686,32.100227,32.129025,32.168034,32.20986,32.247437,32.2921,32.33806,32.376686,32.409813,32.44355,32.470833,32.489098,32.50351,32.511795,32.513412,32.512245,32.50911,32.50621,32.50634,32.509266,32.518528,32.53404,32.550903,32.570847,32.594765,32.61647,32.632233,32.647778,32.6594,32.66447,32.66484,32.659996,32.648994,32.63513,32.618027,32.59555,32.572433,32.553223,32.532112,32.51381,32.503815,32.50041,32.507233,32.529243,32.56105,32.600697,32.65503,32.713654,32.764137,32.81856,32.87515,32.925667,32.969208,33.021225,33.077873,33.131653,33.186325,33.25254,33.320374,33.378975,33.44115,33.507446,33.567513,33.617805,33.67507,33.736046,33.79339,33.84867,33.917015,33.99151,34.060703,34.136322,34.227516,34.317467,34.391724,34.46551,34.522793,34.54886,34.55047,34.530876,34.49604,34.464558,34.438507,34.428234,34.443466,34.47361,34.520916,34.589172,34.662407,34.72766,34.80146,34.87133,34.92552,34.971436,35.01751,35.05654,35.085922,35.112877,35.132637,35.138306,35.132645,35.1151,35.087868,35.061195,35.037117,35.016853,35.009438,35.014442,35.029617,35.064297,35.115784,35.170883,35.242485,35.326836,35.410145,35.492867,35.590927,35.692425,35.78208,35.873253,35.97122,36.05937,36.13057,36.213493,36.31024,36.40929,36.503265,36.63304,36.776955,36.90236,37.027107
18.15599,18.226625,18.313292,18.40813,18.494183,18.574387,18.659084,18.73261,18.788273,18.84216,18.895113,18.94091,18.978565,19.02063,19.060238,19.091255,19.118183,19.144867,19.167416,19.185038,19.202108,19.22216,19.244404,19.266354,19.294989,19.329845,19.364336,19.396149,19.433304,19.468925,19.497654,19.527325,19.563099,19.601635,19.63791,19.681746,19.730244,19.775295,19.816244,19.864697,19.915573,19.961824,20.009838,20.066105,20.121052,20.166773,20.215382,20.264921,20.307858,20.343533,20.382538,20.420105,20.451622,20.480452,20.513805,20.547722,20.577822,20.611988,20.649727,20.690216,20.7347,20.783817,20.833454,20.875626,20.91055,20.95174,20.994781,21.033785,21.078066,21.132648,21.189785,21.241442,21.298262,21.35273,21.394516,21.425688,21.457329,21.485413,21.508043,21.530304,21.55326,21.576906,21.601524,21.632587,21.675663,21.726974,21.780678,21.850735,21.932457,22.011219,22.087746,22.189075,22.309208,22.428001,22.572975,22.749454,22.920486,23.062069,23.210148,23.344467,23.450684,23.543964,23.651642,23.772343,23.894608,24.042686,24.227259,24.418854,24.59156,24.79948,25.029783,25.246174,25.446735,25.702606,25.980583,26.22795,26.48014,26.7677,27.048855,27.290348,27.559399,27.853394,28.139547,28.413883,28.755987,29.10512,29.387758,29.636501,29.879501,30.078173,30.227211,30.389744,30.572027,30.748192,30.901646,31.068066,31.200258,31.283253,31.367449,31.472544,31.585894,31.68752,31.79911,31.91592,32.015694,32.094112,32.17856,32.25619,32.31744,32.37241,32.432312,32.48423,32.520798,32.55438,32.580223,32.57665,32.539753,32.5016,32.465076,32.436295,32.412376,32.38288,32.351753,32.32435,32.295574,32.263756,32.234005,32.209114,32.181602,32.15198,32.126003,32.105965,32.086277,32.073936,32.070374,32.068954,32.074123,32.08729,32.104156,32.12961,32.167385,32.210125,32.249596,32.297226,32.346554,32.3879,32.42321,32.45903,32.487755,32.506725,32.521484,32.52944,32.530327,32.52854,32.525047,32.522724,32.524452,32.529568,32.541904,32.560566,32.579823,32.6018,32.62723,32.649582,32.6654,32.680458,32.690975,32.6948,32.69413,32.6885,32.67732,32.663696,32.646847,32.62452,32.601105,32.581184,32.559113,32.539597,32.528465,32.52408,32.530266,32.552296,32.584717,32.62552,32.681915,32.742855,32.795128,32.851486,32.909935,32.9619,33.006535,33.059517,33.116512,33.169872,33.223606,33.287876,33.35298,33.40887,33.467907,33.530487,33.58693,33.63414,33.68786,33.744858,33.79831,33.849854,33.91374,33.98378,34.049324,34.121677,34.209747,34.29712,34.369316,34.44095,34.496384,34.52156,34.523293,34.505314,34.47404,34.446983,34.425873,34.421455,34.44208,34.476284,34.527138,34.59812,34.672886,34.738823,34.812798,34.882156,34.93538,34.98002,35.024315,35.061455,35.089325,35.115204,35.134964,35.14205,35.138615,35.124565,35.101875,35.0797,35.059868,35.044846,35.043068,35.05322,35.073982,35.11506,35.172516,35.23242,35.308846,35.39861,35.48648,35.571014,35.670082,35.771477,35.86029,35.950146,36.045887,36.1308,36.198227,36.275246,36.363472,36.45319,36.539223,36.65175,36.776943,36.889614,36.996925
18.154343,18.224537,18.310741,18.405245,18.491135,18.5712,18.655811,18.729412,18.785305,18.83963,18.893053,18.93911,18.976814,19.018694,19.057781,19.088152,19.114496,19.140669,19.162998,19.180716,19.198235,19.219296,19.243107,19.266872,19.297758,19.335304,19.372345,19.406319,19.445412,19.482494,19.512218,19.542412,19.578457,19.616934,19.652863,19.696175,19.743862,19.788076,19.828434,19.876404,19.926796,19.972542,20.020226,20.076015,20.130676,20.17656,20.225853,20.276775,20.321445,20.358795,20.399712,20.439259,20.47259,20.503172,20.538795,20.575321,20.607883,20.644714,20.68581,20.729916,20.777735,20.830349,20.883045,20.92709,20.962597,21.003695,21.045776,21.083351,21.125786,21.178053,21.232792,21.282232,21.3368,21.389523,21.43035,21.460934,21.49219,21.520008,21.542374,21.564411,21.58719,21.610645,21.634993,21.66616,21.70943,21.760948,21.815018,21.885567,21.967508,22.046005,22.122017,22.222197,22.340693,22.45794,22.60194,22.779076,22.952477,23.096664,23.252487,23.398232,23.515284,23.618443,23.734615,23.85884,23.979906,24.122826,24.299059,24.483786,24.654102,24.854916,25.081112,25.297993,25.495724,25.749977,26.027317,26.273932,26.525532,26.813026,27.092703,27.330044,27.5985,27.896702,28.190624,28.474722,28.821121,29.172092,29.459427,29.716742,29.977118,30.201965,30.379541,30.575775,30.80043,30.999706,31.13216,31.261791,31.369822,31.45229,31.52903,31.623966,31.726086,31.817602,31.918434,32.024185,32.114983,32.18695,32.265503,32.338837,32.397648,32.451366,32.510517,32.562794,32.60064,32.637585,32.657143,32.64479,32.610115,32.57306,32.537823,32.50965,32.483887,32.452263,32.41909,32.389935,32.359447,32.326134,32.295456,32.27008,32.24209,32.21169,32.184242,32.16202,32.138996,32.12183,32.11282,32.1055,32.103477,32.109947,32.12194,32.143745,32.17985,32.223,32.26388,32.313423,32.364388,32.40634,32.44142,32.47618,32.50325,32.52059,32.533585,32.539738,32.5394,32.53708,32.533913,32.533363,32.53788,32.546223,32.562584,32.585014,32.606873,32.630867,32.657623,32.68035,32.696,32.71029,32.71953,32.722183,32.720722,32.714844,32.704224,32.69158,32.675766,32.65437,32.631332,32.611267,32.588875,32.56894,32.55748,32.55287,32.55916,32.58168,32.614822,32.65665,32.714577,32.77722,32.830948,32.889175,32.949905,33.004143,33.050823,33.10591,33.164314,33.217888,33.270943,33.333267,33.39541,33.448326,33.50412,33.56305,33.616062,33.660423,33.71072,33.763527,33.81248,33.85952,33.917805,33.982193,34.04319,34.11141,34.19561,34.27996,34.349903,34.419464,34.473583,34.498756,34.501625,34.48661,34.46018,34.43841,34.42288,34.424442,34.4498,34.486877,34.539494,34.61052,34.683853,34.747833,34.81928,34.886208,34.937813,34.981277,35.02503,35.062424,35.090958,35.11814,35.14042,35.150993,35.15128,35.14215,35.12522,35.108578,35.09407,35.085747,35.091194,35.107872,35.135635,35.184418,35.248634,35.313576,35.394722,35.490013,35.58264,35.66843,35.767815,35.86831,35.955544,36.04345,36.13647,36.218018,36.2819,36.353523,36.434006,36.5149,36.592567,36.689774,36.799088,36.901436,36.99954
18.155678,18.22572,18.311644,18.405815,18.49143,18.571255,18.655592,18.729145,18.785309,18.839998,18.893845,18.940153,18.977846,19.019585,19.058384,19.08847,19.114609,19.140919,19.163822,19.182323,19.20116,19.224216,19.250406,19.276508,19.310017,19.350298,19.38966,19.42551,19.46598,19.503813,19.533886,19.563793,19.599207,19.636877,19.671959,19.714241,19.760757,19.803928,19.84348,19.890873,19.940758,19.985954,20.033306,20.088614,20.142962,20.188988,20.239033,20.29158,20.338387,20.377842,20.421223,20.46337,20.499043,20.531834,20.570305,20.60996,20.645348,20.6851,20.729773,20.77767,20.82893,20.885296,20.941425,20.987724,21.024181,21.06562,21.10711,21.143448,21.184063,21.233807,21.285769,21.332617,21.384752,21.435947,21.47646,21.507328,21.539577,21.568699,21.59211,21.615366,21.639587,21.664188,21.689106,21.721035,21.764626,21.81583,21.869411,21.939,22.01891,22.09456,22.167389,22.2627,22.37532,22.487217,22.626091,22.799267,22.971851,23.118229,23.28075,23.43718,23.565287,23.679657,23.804462,23.930721,24.048462,24.183182,24.346336,24.517662,24.677755,24.868881,25.092787,25.313236,25.511248,25.762665,26.036419,26.281559,26.532646,26.820578,27.100952,27.33849,27.610191,27.915415,28.21818,28.511261,28.863928,29.22004,29.51442,29.78247,30.062845,30.316898,30.526068,30.76441,31.014158,31.210312,31.329617,31.44166,31.538692,31.61938,31.689972,31.774689,31.8647,31.945736,32.035656,32.130714,32.213272,32.279568,32.353416,32.42382,32.481342,32.53471,32.593952,32.647133,32.686634,32.72876,32.74227,32.72122,32.691566,32.656105,32.62037,32.59092,32.5637,32.53076,32.49666,32.466938,32.436005,32.40266,32.372475,32.3478,32.32074,32.291092,32.26353,32.240196,32.215027,32.19389,32.179737,32.1666,32.15699,32.155777,32.161705,32.178368,32.210884,32.252434,32.292957,32.34216,32.39209,32.432037,32.464203,32.494946,32.517822,32.531776,32.54161,32.54513,32.543327,32.540512,32.53787,32.539375,32.54684,32.5584,32.57847,32.603996,32.6277,32.65284,32.679993,32.702423,32.717506,32.730865,32.73915,32.74141,32.74015,32.73568,32.727814,32.718323,32.705925,32.68831,32.66844,32.650536,32.630386,32.612698,32.603214,32.60024,32.60845,32.63276,32.667206,32.710083,32.76896,32.83229,32.886467,32.945442,33.007484,33.063393,33.111694,33.168556,33.22813,33.28176,33.333855,33.393875,33.452614,33.502083,33.554115,33.60897,33.65827,33.69951,33.745975,33.7938,33.837097,33.878162,33.928772,33.985115,34.039406,34.10137,34.179363,34.258595,34.324707,34.390686,34.44259,34.46785,34.47271,34.462452,34.4434,34.42936,34.421707,34.43132,34.462597,34.502975,34.557167,34.627274,34.697857,34.758636,34.826286,34.889946,34.939705,34.98222,35.02633,35.065437,35.09614,35.126507,35.153717,35.17039,35.176804,35.17559,35.16763,35.15933,35.15271,35.153828,35.168987,35.194054,35.23046,35.28822,35.35968,35.429512,35.51465,35.614113,35.70986,35.795128,35.892693,35.990067,36.073742,36.157753,36.246124,36.322945,36.38257,36.44835,36.52095,36.59301,36.662014,36.746902,36.840515,36.92833,37.017567
18.16019,18.230541,18.31662,18.410715,18.496115,18.575706,18.659721,18.733133,18.789457,18.844284,18.898384,18.94494,18.982704,19.024593,19.063732,19.094336,19.12105,19.148542,19.17308,19.19321,19.21418,19.239992,19.268955,19.297361,19.333183,19.375443,19.416153,19.45301,19.493835,19.531353,19.56086,19.589558,19.623417,19.659615,19.693497,19.734425,19.77966,19.821857,19.86056,19.907454,19.9571,20.002123,20.049526,20.104816,20.159218,20.20554,20.256433,20.31063,20.359562,20.401142,20.446981,20.491661,20.529522,20.564243,20.60514,20.647343,20.68489,20.726776,20.774025,20.824673,20.87841,20.937664,20.996597,21.044891,21.082441,21.124657,21.16626,21.202131,21.241758,21.28997,21.340197,21.38546,21.436499,21.487831,21.52972,21.562477,21.597652,21.629963,21.65596,21.682007,21.709423,21.736736,21.763401,21.797024,21.841393,21.892105,21.94453,22.01186,22.087807,22.158554,22.226196,22.314192,22.418499,22.523031,22.654531,22.820704,22.98976,23.137308,23.303822,23.467106,23.602688,23.725079,23.855465,23.980953,24.092785,24.21711,24.364548,24.518549,24.663055,24.841675,25.059237,25.280338,25.485731,25.738249,26.008774,26.252449,26.50404,26.793953,27.078098,27.320736,27.599197,27.912811,28.2231,28.52115,28.879457,29.241524,29.54219,29.819057,30.115292,30.392288,30.626198,30.8979,31.154896,31.336159,31.456165,31.571789,31.668297,31.742153,31.806189,31.882381,31.963432,32.036873,32.11923,32.207596,32.285767,32.349518,32.42203,32.492447,32.550613,32.604794,32.665054,32.719666,32.76042,32.80033,32.809124,32.78605,32.760445,32.726295,32.68907,32.657455,32.63019,32.597687,32.564644,32.536297,32.50686,32.47554,32.447582,32.424896,32.400177,32.37288,32.346886,32.32411,32.29898,32.276253,32.259033,32.242123,32.22693,32.21935,32.21974,32.23117,32.258923,32.296913,32.335014,32.381218,32.427254,32.462753,32.4899,32.51467,32.532074,32.542076,32.548584,32.54972,32.54686,32.54379,32.54163,32.544506,32.55368,32.566906,32.588394,32.614426,32.637802,32.662,32.687668,32.70862,32.72264,32.735092,32.743214,32.74635,32.746655,32.745525,32.742706,32.738617,32.732193,32.721695,32.7086,32.69609,32.68184,32.67025,32.666027,32.667336,32.679913,32.707603,32.7439,32.78756,32.846237,32.908394,32.96113,33.01854,33.07933,33.134613,33.182587,33.239258,33.29853,33.35143,33.402245,33.460167,33.51617,33.562943,33.612045,33.6638,33.71026,33.74899,33.79212,33.835175,33.872677,33.90736,33.949467,33.996605,34.043007,34.097363,34.167427,34.239777,34.300583,34.361465,34.409943,34.434757,34.441563,34.43641,34.425312,34.41949,34.420074,34.43784,34.474815,34.518173,34.573563,34.642376,34.709972,34.767532,34.8316,34.89245,34.94094,34.983246,35.028694,35.070618,35.104515,35.139217,35.172802,35.1971,35.211075,35.219604,35.22248,35.223953,35.22631,35.23751,35.262207,35.294937,35.338745,35.40336,35.47944,35.55164,35.637787,35.73719,35.831852,35.914215,36.00771,36.10027,36.179375,36.258682,36.342064,36.414604,36.470966,36.532784,36.600357,36.66678,36.72997,36.808273,36.8913,36.96652,37.04798
18.16542,18.23634,18.32289,18.417152,18.502455,18.581856,18.665602,18.738823,18.795109,18.849838,18.904016,18.950806,18.98875,19.031042,19.07098,19.102648,19.13047,19.159718,19.186413,19.208557,19.231884,19.260529,19.292091,19.322403,19.359966,19.403381,19.444597,19.481756,19.522257,19.558876,19.587328,19.61449,19.646568,19.681248,19.714058,19.753803,19.798079,19.839653,19.877731,19.924358,19.974104,20.019396,20.06728,20.123056,20.177906,20.2247,20.276485,20.332134,20.38282,20.42617,20.473988,20.52061,20.56007,20.596054,20.638475,20.682188,20.720917,20.763887,20.812489,20.864632,20.919744,20.980755,21.04153,21.091248,21.129728,21.17282,21.214947,21.25093,21.290377,21.338165,21.387955,21.432903,21.484283,21.53722,21.58169,21.617311,21.656315,21.692589,21.721832,21.751293,21.78257,21.813263,21.842278,21.878038,21.923506,21.973816,22.024899,22.08954,22.160982,22.226418,22.288548,22.36922,22.465633,22.563381,22.688152,22.847687,23.01284,23.160465,23.329105,23.496277,23.635746,23.761776,23.894783,24.01812,24.12301,24.236923,24.369602,24.507948,24.638897,24.802565,25.00576,25.221058,25.43892,25.698349,25.968903,26.211615,26.464718,26.758053,27.047085,27.29496,27.580345,27.902372,28.219368,28.519783,28.882141,29.24876,29.553377,29.83554,30.141243,30.432133,30.681164,30.968538,31.235725,31.419779,31.54096,31.654575,31.746305,31.815098,31.874445,31.945026,32.020645,32.089874,32.168324,32.254017,32.33137,32.39535,32.469234,32.54174,32.601727,32.657276,32.7191,32.775707,32.817215,32.843338,32.84749,32.83078,32.808342,32.77516,32.736675,32.703682,32.677063,32.645977,32.615124,32.58919,32.562195,32.53383,32.50876,32.48844,32.46639,32.441906,32.418156,32.396797,32.373055,32.350555,32.33218,32.313576,32.29522,32.28346,32.279854,32.287212,32.310608,32.344704,32.37974,32.422043,32.46331,32.493874,32.515903,32.5349,32.547394,32.554157,32.55816,32.557785,32.554443,32.55138,32.549557,32.55297,32.562523,32.575905,32.596756,32.621174,32.642555,32.6643,32.687202,32.70595,32.718655,32.730297,32.738747,32.743416,32.74591,32.7488,32.751682,32.753624,32.754013,32.751892,32.747173,32.741707,32.73526,32.73179,32.734543,32.741547,32.759705,32.791454,32.82972,32.873867,32.931534,32.991325,33.0414,33.095703,33.153343,33.206093,33.25206,33.306843,33.36448,33.415993,33.46544,33.521755,33.57609,33.62133,33.668854,33.718933,33.76375,33.80088,33.841526,33.88059,33.912983,33.94191,33.976162,34.014664,34.05358,34.10051,34.162643,34.227898,34.2831,34.338493,34.383022,34.40673,34.41475,34.41356,34.408905,34.40972,34.416954,34.441154,34.482452,34.527905,34.584076,34.651714,34.716904,34.77201,34.83348,34.892517,34.940514,34.983215,35.03044,35.075348,35.11246,35.15145,35.1912,35.2228,35.244022,35.26191,35.27507,35.285583,35.296043,35.315796,35.347878,35.385994,35.434578,35.502785,35.58027,35.652233,35.736786,35.832817,35.923363,36.001812,36.09069,36.17859,36.25376,36.32928,36.409084,36.479115,36.53403,36.59443,36.660316,36.724617,36.785446,36.86005,36.937744,37.006958,37.081413
18.176601,18.248127,18.33503,18.42912,18.513874,18.592644,18.675781,18.748642,18.804789,18.8594,18.913784,18.961086,18.999546,19.042747,19.084152,19.117554,19.147121,19.17883,19.208334,19.233013,19.25916,19.291058,19.325386,19.35745,19.396381,19.44026,19.481167,19.517887,19.55737,19.59253,19.619505,19.644796,19.674774,19.707708,19.739326,19.777798,19.821135,19.8622,19.899765,19.946297,19.9964,20.042198,20.090656,20.146946,20.202202,20.249413,20.30205,20.359283,20.41204,20.457485,20.50763,20.556465,20.59764,20.634922,20.67891,20.724133,20.763947,20.807835,20.857399,20.910477,20.966347,21.0285,21.090637,21.141575,21.181107,21.225437,21.26862,21.305218,21.345032,21.3928,21.442324,21.487085,21.538929,21.593657,21.641026,21.679977,21.723396,21.764435,21.797853,21.831745,21.868332,21.903996,21.936695,21.975813,22.0233,22.073551,22.123081,22.18438,22.250254,22.309265,22.364794,22.436802,22.523884,22.613518,22.729778,22.880306,23.038914,23.184004,23.352077,23.520481,23.661541,23.789288,23.922956,24.043571,24.14242,24.244898,24.361668,24.483665,24.600409,24.748907,24.937918,25.143238,25.353474,25.627966,25.91559,26.15779,26.414177,26.712765,27.008478,27.26308,27.557236,27.889515,28.21371,28.5143,28.880444,29.252653,29.561981,29.850124,30.165915,30.470379,30.732962,31.029308,31.309097,31.503838,31.622967,31.73282,31.819195,31.88274,31.937292,32.00449,32.078136,32.145523,32.222034,32.30652,32.383934,32.44872,32.52481,32.600655,32.663517,32.721436,32.778122,32.82393,32.856224,32.87728,32.881317,32.868996,32.852222,32.82088,32.78258,32.75044,32.725563,32.697357,32.67047,32.648636,32.625854,32.602203,32.581493,32.56465,32.546288,32.525505,32.504753,32.485504,32.46401,32.442757,32.42429,32.405174,32.384964,32.3701,32.363182,32.366768,32.38551,32.414833,32.445778,32.48269,32.51731,32.541122,32.55625,32.567657,32.57381,32.576454,32.5775,32.575615,32.572136,32.56943,32.56836,32.572525,32.5823,32.595436,32.61485,32.636517,32.654747,32.672836,32.691765,32.70748,32.718452,32.729164,32.73829,32.745148,32.750557,32.758446,32.768253,32.77748,32.786148,32.794437,32.800423,32.804115,32.808,32.815437,32.827667,32.842422,32.86814,32.905342,32.94616,32.990788,33.04676,33.102974,33.14912,33.198833,33.25153,33.299965,33.342327,33.393494,33.447994,33.49719,33.544777,33.599457,33.652493,33.69667,33.743248,33.792294,33.83588,33.87166,33.90976,33.944286,33.97061,33.992573,34.01722,34.045013,34.07454,34.112022,34.163864,34.219757,34.26747,34.315495,34.35466,34.376755,34.386154,34.38992,34.393234,34.402103,34.417336,34.448997,34.49491,34.542194,34.598557,34.66405,34.72582,34.777702,34.83584,34.892647,34.940094,34.983315,35.032722,35.08127,35.12227,35.16635,35.21344,35.253834,35.283867,35.31315,35.338898,35.360504,35.380814,35.41068,35.451027,35.49478,35.548004,35.619064,35.69674,35.76718,35.848644,35.93847,36.021736,36.09484,36.17788,36.260387,36.331375,36.403046,36.47962,36.547867,36.602135,36.66221,36.727684,36.79103,36.850414,36.922096,36.996056,37.060993,37.12664
18.195732,18.267601,18.354366,18.447548,18.530989,18.608377,18.69027,18.76236,18.818123,18.872553,18.927265,18.9754,19.014832,19.05962,19.103327,19.139267,19.171364,19.206322,19.239243,19.266815,19.295984,19.331066,19.367691,19.40076,19.440006,19.483078,19.522558,19.55799,19.595898,19.629454,19.655037,19.678745,19.7069,19.73824,19.768751,19.805998,19.848383,19.888872,19.925827,19.972067,20.022385,20.06863,20.117458,20.173988,20.229326,20.276608,20.329742,20.38839,20.443285,20.490963,20.543694,20.594896,20.637707,20.676125,20.721363,20.76763,20.80806,20.852306,20.901863,20.954605,21.01001,21.071857,21.133987,21.185246,21.225407,21.270895,21.315434,21.353065,21.393738,21.441837,21.491173,21.535667,21.587639,21.64349,21.692991,21.73464,21.781666,21.826889,21.86435,21.902712,21.945152,21.98681,22.024307,22.067984,22.118774,22.170057,22.21877,22.277628,22.339039,22.392792,22.443066,22.508018,22.587067,22.669216,22.776768,22.916794,23.065666,23.20358,23.365885,23.53032,23.66843,23.793095,23.923153,24.039417,24.133327,24.228668,24.334492,24.443676,24.548586,24.684635,24.861715,25.056534,25.253546,25.530685,25.835827,26.095295,26.35764,26.663008,26.968023,27.23125,27.535973,27.879585,28.212181,28.516674,28.884521,29.26007,29.576073,29.870913,30.1964,30.5117,30.78326,31.082026,31.372618,31.579815,31.694202,31.799217,31.880646,31.940182,31.99451,32.05208,32.111164,32.169014,32.23867,32.32082,32.400253,32.468338,32.54888,32.628536,32.692566,32.749035,32.801273,32.839687,32.864944,32.885593,32.89409,32.887703,32.874958,32.846905,32.812355,32.78447,32.763218,32.740303,32.720016,32.704567,32.68821,32.67134,32.65641,32.643883,32.629784,32.613045,32.595642,32.579025,32.5607,32.542397,32.526123,32.509193,32.49071,32.476273,32.46867,32.470566,32.48555,32.50958,32.53506,32.564384,32.5896,32.60414,32.61033,32.61232,32.611115,32.609406,32.60788,32.60556,32.603294,32.602135,32.602955,32.60851,32.61846,32.630943,32.648026,32.665718,32.679653,32.693077,32.707146,32.71942,32.72875,32.73906,32.749825,32.759926,32.76919,32.78299,32.800385,32.817368,32.834846,32.854347,32.87211,32.88614,32.901833,32.92189,32.94516,32.968964,33.00344,33.04689,33.09061,33.135704,33.1896,33.24157,33.283073,33.327194,33.373405,33.41564,33.452477,33.49769,33.54683,33.592194,33.637047,33.689827,33.742043,33.785942,33.832466,33.88144,33.924583,33.95955,33.995525,34.025734,34.04596,34.060715,34.075005,34.090797,34.109425,34.13556,34.174583,34.218563,34.256752,34.295532,34.328114,34.348305,34.359467,34.369156,34.38175,34.399746,34.4239,34.463654,34.514336,34.563366,34.61983,34.68302,34.741234,34.789886,34.844627,34.89901,34.94561,34.98905,35.04017,35.09182,35.13635,35.185226,35.239555,35.28901,35.328407,35.369904,35.40924,35.44273,35.473354,35.513233,35.561043,35.609337,35.66579,35.73786,35.813843,35.881172,35.957916,36.039146,36.11286,36.180016,36.257072,36.334763,36.402573,36.471626,36.546543,36.61452,36.669327,36.730263,36.79652,36.85997,36.918835,36.98874,37.06068,37.123703,37.18459
18.218037,18.289783,18.375813,18.467468,18.549074,18.624607,18.70486,18.775906,18.831093,18.885296,18.940311,18.989262,19.029737,19.076202,19.122253,19.160713,19.19535,19.233421,19.269455,19.299557,19.331238,19.368721,19.406757,19.440044,19.478748,19.52028,19.55791,19.591831,19.628292,19.660732,19.685537,19.70848,19.735638,19.765968,19.795727,19.83206,19.873632,19.913525,19.949825,19.995562,20.0458,20.092255,20.141102,20.197495,20.252533,20.299488,20.352623,20.412132,20.46868,20.518183,20.573162,20.626404,20.670517,20.709805,20.755863,20.802692,20.843336,20.887547,20.936457,20.98805,21.042252,21.102814,21.163897,21.21472,21.255022,21.30133,21.347126,21.385872,21.427532,21.476086,21.525215,21.569294,21.620888,21.676815,21.727097,21.770098,21.81903,21.86681,21.90712,21.948807,21.996029,22.042965,22.084925,22.13295,22.187244,22.240202,22.28895,22.346907,22.406153,22.457203,22.504963,22.566284,22.640564,22.71762,22.818377,22.949001,23.087574,23.21597,23.36901,23.525707,23.657873,23.776512,23.900663,24.012001,24.102161,24.195698,24.297886,24.401112,24.499952,24.629051,24.798801,24.987125,25.178726,25.442802,25.752094,26.038536,26.311716,26.6259,26.9401,27.212383,27.527363,27.880978,28.221663,28.534004,28.901814,29.277157,29.599056,29.899734,30.232975,30.555466,30.831581,31.130886,31.426105,31.639091,31.750725,31.852457,31.930285,31.986364,32.039036,32.08027,32.11656,32.160255,32.219933,32.29855,32.380333,32.452488,32.53756,32.61965,32.682564,32.73426,32.78666,32.828384,32.855247,32.875984,32.889404,32.889412,32.877735,32.85395,32.825356,32.802937,32.786148,32.769424,32.756454,32.74778,32.738117,32.72803,32.71855,32.709854,32.69935,32.685867,32.67124,32.657043,32.641872,32.62727,32.61461,32.601646,32.587563,32.57656,32.570786,32.57336,32.58651,32.60626,32.62657,32.64838,32.664177,32.669605,32.667343,32.660713,32.65315,32.64804,32.644966,32.643322,32.64325,32.644432,32.647842,32.655266,32.665665,32.677635,32.692596,32.706615,32.71662,32.725883,32.735672,32.74505,32.75322,32.76363,32.776352,32.789665,32.802505,32.821342,32.844826,32.867836,32.892197,32.92053,32.94774,32.97023,32.99571,33.02634,33.058926,33.090393,33.13224,33.180916,33.227024,33.27245,33.324554,33.37293,33.410522,33.44976,33.490013,33.526165,33.55733,33.596176,33.639404,33.680542,33.722458,33.773335,33.825012,33.869053,33.91588,33.965134,34.00814,34.042587,34.07695,34.103786,34.119217,34.12825,34.134018,34.13958,34.148636,34.164474,34.19155,34.224274,34.25347,34.283676,34.310287,34.32888,34.341797,34.356915,34.37777,34.40374,34.43555,34.482056,34.536568,34.58693,34.643456,34.704803,34.76021,34.806396,34.858536,34.910934,34.95665,35.000046,35.05203,35.10553,35.15232,35.204468,35.264072,35.320503,35.367393,35.418797,35.469284,35.512505,35.551414,35.598953,35.652016,35.703156,35.76129,35.833103,35.90673,35.970818,36.04295,36.116745,36.18251,36.244347,36.31681,36.391663,36.458153,36.526436,36.6015,36.670525,36.726616,36.788895,36.856224,36.92006,36.978764,37.047676,37.118454,37.18088,37.24253
18.24308,18.314318,18.399105,18.488674,18.567984,18.641258,18.719576,18.78941,18.843891,18.897797,18.952995,19.002567,19.04388,19.091732,19.13977,19.180416,19.217281,19.25811,19.296919,19.329296,19.363232,19.402851,19.442093,19.475464,19.513542,19.553503,19.58929,19.621704,19.656845,19.688416,19.712708,19.735247,19.76182,19.79149,19.820753,19.856422,19.897459,19.937,19.972858,20.018274,20.0686,20.11538,20.164213,20.220371,20.274975,20.321451,20.374275,20.434242,20.492027,20.542976,20.599844,20.654842,20.700106,20.740234,20.787136,20.834587,20.875511,20.919785,20.96809,21.01851,21.071487,21.13069,21.190693,21.241129,21.281727,21.32908,21.376396,21.416489,21.459446,21.508705,21.557762,21.601501,21.65268,21.708456,21.75921,21.80331,21.853844,21.903952,21.947018,21.991865,22.043636,22.095592,22.141756,22.193722,22.251095,22.305397,22.353863,22.410738,22.467913,22.516571,22.562195,22.620518,22.690697,22.76312,22.857418,22.97879,23.106972,23.225727,23.36736,23.513885,23.639458,23.75354,23.873459,23.980673,24.06679,24.15627,24.255959,24.358984,24.458801,24.584225,24.748219,24.931656,25.118435,25.37818,25.685043,25.974264,26.276459,26.60845,26.927002,27.209904,27.535603,27.89889,28.246367,28.56358,28.932705,29.306868,29.628708,29.933605,30.27334,30.601727,30.881298,31.18142,31.474253,31.686268,31.803848,31.906391,31.98201,32.0309,32.05314,32.07473,32.10774,32.152027,32.211617,32.29026,32.372715,32.446648,32.5336,32.617363,32.681076,32.732388,32.782845,32.82323,32.85093,32.87387,32.88882,32.890495,32.882458,32.864807,32.841724,32.822845,32.81048,32.799732,32.793633,32.791237,32.787716,32.783695,32.778976,32.77362,32.766212,32.755554,32.743446,32.731613,32.719624,32.70886,32.700047,32.691357,32.682175,32.675323,32.67222,32.676422,32.68895,32.70569,32.72194,32.7377,32.745735,32.743587,32.73429,32.72051,32.70766,32.69973,32.69543,32.69447,32.69642,32.6998,32.70571,32.71513,32.72632,32.738213,32.751793,32.76301,32.769806,32.775505,32.781475,32.78809,32.795,32.805122,32.81909,32.834724,32.85017,32.87267,32.90061,32.92814,32.95781,32.99312,33.02798,33.05749,33.091167,33.13083,33.171486,33.209633,33.25792,33.31108,33.35907,33.40454,33.454735,33.499615,33.533516,33.568214,33.60296,33.633476,33.659378,33.69232,33.730064,33.767273,33.806534,33.855713,33.9069,33.95098,33.99794,34.04706,34.089417,34.122925,34.155315,34.178753,34.189793,34.193794,34.19228,34.189186,34.19008,34.19713,34.213966,34.236954,34.25831,34.281036,34.302338,34.31935,34.333626,34.35323,34.380913,34.413383,34.45134,34.502953,34.559902,34.61061,34.666298,34.725235,34.77771,34.82149,34.87139,34.92238,34.967743,35.011566,35.064743,35.12008,35.168846,35.223614,35.287315,35.349236,35.402214,35.461777,35.521637,35.57322,35.619305,35.673553,35.73134,35.785088,35.84471,35.91633,35.98797,36.049248,36.11709,36.185883,36.24631,36.300476,36.36868,36.44258,36.50886,36.577408,36.653755,36.724773,36.78276,36.84702,36.915993,36.98066,37.039566,37.107975,37.178123,37.24038,37.302505
18.276358,18.346325,18.428791,18.51495,18.590742,18.660744,18.73623,18.804222,18.857552,18.9108,18.965786,19.015564,19.057373,19.106197,19.15583,19.19837,19.237322,19.280811,19.322342,19.356953,19.3931,19.434803,19.47514,19.508457,19.545723,19.58398,19.617884,19.64875,19.682787,19.713928,19.738186,19.760914,19.78752,19.81699,19.846037,19.881268,19.921894,19.961212,19.996914,20.042301,20.09296,20.14021,20.188953,20.244617,20.298313,20.34372,20.395391,20.45486,20.51313,20.564976,20.623405,20.680119,20.726685,20.768013,20.816238,20.864832,20.906532,20.951488,20.999748,21.04936,21.101383,21.159485,21.218737,21.269249,21.310757,21.360052,21.409935,21.452324,21.497547,21.548374,21.5979,21.64156,21.692379,21.74783,21.798847,21.843975,21.896223,21.949093,21.995514,22.044111,22.100967,22.158218,22.208612,22.26412,22.323788,22.378517,22.425823,22.480759,22.535362,22.58156,22.625229,22.680828,22.746994,22.814533,22.90153,23.011974,23.127415,23.233932,23.360664,23.492634,23.607204,23.712402,23.824234,23.925947,24.009129,24.0971,24.197508,24.302073,24.402136,24.529839,24.694727,24.875977,25.05895,25.315474,25.620213,25.910995,26.235308,26.592575,26.929462,27.224989,27.564337,27.939209,28.293636,28.614397,28.984856,29.356113,29.673668,29.979694,30.325218,30.660715,30.944656,31.246979,31.535465,31.745255,31.87627,31.980053,32.042686,32.074448,32.08377,32.100372,32.135696,32.182465,32.24246,32.31904,32.39743,32.466896,32.5476,32.625526,32.685856,32.735542,32.784264,32.822876,32.84919,32.871685,32.88648,32.889355,32.88449,32.872284,32.85543,32.84218,32.835922,32.83306,32.835464,32.84044,32.84401,32.846634,32.846832,32.844856,32.8405,32.832775,32.82363,32.814857,32.806942,32.801254,32.797703,32.794655,32.792274,32.79177,32.79333,32.80137,32.815617,32.83138,32.84516,32.85675,32.85887,32.850677,32.835823,32.81643,32.799507,32.789497,32.78454,32.784866,32.789536,32.795822,32.805283,32.818066,32.831463,32.84465,32.858383,32.868156,32.87267,32.87548,32.87789,32.881508,32.886654,32.895634,32.90952,32.92592,32.942394,32.966312,32.996067,33.025597,33.057884,33.09703,33.136513,33.170494,33.209564,33.255417,33.30182,33.344803,33.397804,33.45417,33.50335,33.548546,33.596817,33.63849,33.66908,33.699738,33.729385,33.754448,33.77513,33.802032,33.834076,33.867195,33.90361,33.950813,34.00105,34.044556,34.090664,34.138176,34.178253,34.209415,34.238457,34.25769,34.26436,34.263893,34.256393,34.246414,34.24084,34.24081,34.249115,34.26375,34.27827,34.294476,34.311165,34.32687,34.34245,34.366158,34.39976,34.43752,34.480232,34.53506,34.592285,34.641373,34.694107,34.748573,34.796654,34.837223,34.884506,34.934364,34.98005,35.025154,35.080364,35.138,35.188805,35.24584,35.312622,35.37867,35.436455,35.50259,35.57041,35.629494,35.682236,35.74308,35.806023,35.86313,35.925262,35.99817,36.069477,36.129433,36.194767,36.260452,36.317734,36.36801,36.4315,36.503395,36.571266,36.64141,36.720406,36.79451,36.855125,36.921825,36.99268,37.058228,37.117203,37.184944,37.254227,37.315964,37.377815
18.309986,18.37838,18.458199,18.540703,18.612858,18.6796,18.752281,18.818428,18.870575,18.923042,18.977488,19.026981,19.068768,19.117867,19.168259,19.211939,19.252327,19.29773,19.341248,19.377487,19.415245,19.458447,19.499554,19.532795,19.569408,19.606422,19.639038,19.668835,19.70238,19.733746,19.758533,19.782066,19.809368,19.839138,19.868212,19.903196,19.943401,19.982403,20.018019,20.063393,20.114313,20.161907,20.210453,20.265503,20.318111,20.36221,20.41224,20.470367,20.528107,20.57992,20.639017,20.696856,20.744549,20.78722,20.837059,20.887192,20.930107,20.976318,21.025202,21.074669,21.12635,21.18399,21.243057,21.294086,21.336895,21.388496,21.441286,21.486305,21.534184,21.58715,21.63778,21.68192,21.732922,21.788464,21.839931,21.88611,21.940111,21.9957,22.045284,22.097284,22.158424,22.219805,22.273258,22.330944,22.391483,22.44561,22.491234,22.543999,22.59639,22.640911,22.683523,22.737606,22.801031,22.86475,22.945393,23.045855,23.149273,23.243881,23.356152,23.473253,23.575531,23.669907,23.771893,23.867619,23.948637,24.036821,24.139442,24.24644,24.347622,24.482098,24.653967,24.838123,25.02211,25.278524,25.584572,25.880005,26.212942,26.594137,26.957638,27.265572,27.619354,28.00594,28.366142,28.688414,29.057632,29.423351,29.733738,30.034595,30.379963,30.71902,31.005447,31.308748,31.593422,31.801403,31.943104,32.048737,32.1015,32.12326,32.1433,32.170845,32.21141,32.25923,32.317833,32.388054,32.4565,32.515934,32.58478,32.65147,32.70398,32.74874,32.793884,32.829456,32.852432,32.871887,32.885582,32.88974,32.886887,32.878498,32.867596,32.861,32.8611,32.86605,32.876328,32.887657,32.89718,32.904972,32.90864,32.908947,32.906662,32.901237,32.894855,32.88926,32.885586,32.885193,32.8871,32.889717,32.894264,32.900555,32.90747,32.920456,32.938175,32.955116,32.968586,32.97886,32.978516,32.967613,32.950386,32.928825,32.910625,32.9003,32.89589,32.898193,32.905823,32.915085,32.928265,32.94491,32.961323,32.9768,32.992146,33.00215,33.005814,33.00698,33.00672,33.00753,33.010574,33.01745,33.029594,33.04478,33.06028,33.08293,33.111416,33.140038,33.171707,33.210754,33.250828,33.28573,33.32614,33.37387,33.42223,33.466934,33.52157,33.578854,33.62801,33.672455,33.719,33.75835,33.78675,33.81484,33.84113,33.86245,33.879482,33.901993,33.92979,33.959816,33.993935,34.039288,34.08811,34.13028,34.174374,34.21874,34.25502,34.282608,34.30735,34.322285,34.325493,34.32213,34.311333,34.29796,34.289238,34.285614,34.28934,34.299316,34.31,34.32267,34.33709,34.352535,34.369453,34.396244,34.433723,34.474445,34.51951,34.574947,34.630257,34.676125,34.724518,34.77359,34.816944,34.854362,34.899437,34.948868,34.995556,35.042496,35.10005,35.15983,35.21216,35.270523,35.33876,35.406784,35.46717,35.53706,35.60984,35.673985,35.731415,35.797325,35.864754,35.925262,35.99044,36.065983,36.13887,36.199417,36.264854,36.33004,36.38685,36.43771,36.498993,36.568737,36.637234,36.70938,36.791252,36.86821,36.931175,36.99994,37.072365,37.138695,37.19775,37.265068,37.33368,37.39479,37.455765
18.337734,18.4049,18.482681,18.562412,18.631853,18.696203,18.766867,18.831715,18.883041,18.934925,18.988842,19.037909,19.079445,19.128443,19.179111,19.223434,19.26474,19.31139,19.35621,19.393496,19.432266,19.47639,19.51799,19.551228,19.58749,19.623825,19.65575,19.684994,19.718472,19.750366,19.77592,19.800447,19.828672,19.858902,19.888031,19.922756,19.962406,20.000849,20.03611,20.081158,20.131994,20.17965,20.227917,20.282425,20.334185,20.377243,20.425865,20.482592,20.539396,20.590626,20.649689,20.708044,20.756527,20.800367,20.851692,20.903324,20.947475,20.99495,21.04459,21.094189,21.145847,21.203342,21.262417,21.313944,21.357883,21.411362,21.466476,21.513659,21.56379,21.618767,21.670746,21.7158,21.767586,21.82388,21.876253,21.92361,21.979298,22.037148,22.089136,22.143627,22.207747,22.27182,22.327133,22.385998,22.446712,22.500057,22.544321,22.595564,22.646748,22.69067,22.73322,22.787075,22.849249,22.910595,22.986656,23.079514,23.17353,23.258615,23.359282,23.464535,23.557148,23.643139,23.737488,23.827908,23.905838,23.992466,24.0955,24.205807,24.312698,24.453335,24.632076,24.822802,25.01302,25.272846,25.581726,25.882303,26.221985,26.620344,27.003746,27.322859,27.68983,28.086933,28.451685,28.774517,29.139553,29.498095,29.801605,30.092571,30.43115,30.767967,31.053223,31.354279,31.636177,31.842358,31.983868,32.09257,32.154007,32.187103,32.21716,32.255383,32.30221,32.350178,32.40658,32.4678,32.523674,32.57311,32.63242,32.689964,32.734253,32.77178,32.809734,32.840027,32.860012,32.877083,32.88988,32.89503,32.89411,32.889442,32.883873,32.88279,32.888004,32.899048,32.915092,32.930748,32.944096,32.95492,32.960327,32.96161,32.96035,32.956383,32.952164,32.9493,32.94936,32.95358,32.96012,32.967445,32.977676,32.989555,33.001007,33.018295,33.039326,33.05786,33.071747,33.081863,33.080826,33.069256,33.051666,33.03017,33.01265,33.003315,33.000347,33.00497,33.015335,33.027042,33.04323,33.063004,33.08197,33.09946,33.116493,33.127213,33.130653,33.13076,33.128387,33.12669,33.127613,33.13211,33.141937,33.155228,33.16909,33.18971,33.216114,33.24304,33.273205,33.310913,33.35013,33.38462,33.42478,33.47254,33.52111,33.565994,33.620667,33.677597,33.72599,33.76934,33.81424,33.8518,33.878757,33.905277,33.929607,33.94876,33.963688,33.983593,34.00879,34.03681,34.06935,34.113167,34.160446,34.20096,34.242653,34.2835,34.315773,34.339653,34.36026,34.37145,34.372066,34.366882,34.354424,34.339615,34.329597,34.324356,34.32599,34.333847,34.342827,34.35421,34.368233,34.384373,34.40274,34.43203,34.472137,34.514565,34.560715,34.615738,34.668724,34.711426,34.755886,34.800423,34.840057,34.875168,34.918884,34.96849,35.01638,35.06502,35.12452,35.185802,35.239,35.29799,35.3668,35.43577,35.4976,35.56978,35.645706,35.713135,35.77365,35.843063,35.913795,35.976925,36.044617,36.12267,36.19745,36.259113,36.325592,36.391525,36.448853,36.500183,36.5631,36.632343,36.69789,36.771484,36.85549,36.934204,36.998684,37.068848,37.14247,37.209564,37.26898,37.336433,37.40496,37.465847,37.52633
18.36764,18.433651,18.509556,18.586794,18.653904,18.716423,18.785864,18.850246,18.901411,18.953255,19.006996,19.055723,19.09695,19.145712,19.196497,19.24133,19.283352,19.33102,19.376886,19.414974,19.454517,19.499416,19.541538,19.574932,19.611206,19.647366,19.679098,19.708208,19.742052,19.77488,19.801529,19.827303,19.856583,19.887138,19.915949,19.949894,19.988268,20.025372,20.059479,20.103348,20.153418,20.200752,20.248573,20.302662,20.353907,20.39626,20.44358,20.498661,20.554005,20.604107,20.662537,20.720951,20.770046,20.815126,20.868237,20.921734,20.967382,21.016373,21.066952,21.116753,21.168407,21.225704,21.284622,21.336388,21.381157,21.436085,21.493114,21.54219,21.594398,21.651482,21.705162,21.751495,21.804676,21.862473,21.916409,21.965462,22.023403,22.08387,22.138311,22.195208,22.261978,22.328304,22.385117,22.444733,22.505287,22.55775,22.600735,22.65075,22.701338,22.745434,22.788778,22.84327,22.904766,22.963972,23.035315,23.119991,23.203747,23.278416,23.366482,23.458946,23.541172,23.618114,23.704266,23.789225,23.864384,23.950483,24.05552,24.170162,24.282549,24.430092,24.618404,24.820562,25.023972,25.296665,25.616076,25.925636,26.27908,26.694252,27.094631,27.429281,27.813362,28.222765,28.590343,28.9098,29.262661,29.60233,29.887669,30.161922,30.479694,30.799408,31.076752,31.368534,31.64333,31.84753,31.991077,32.109383,32.18769,32.238636,32.28553,32.340683,32.3976,32.44728,32.501244,32.55259,32.59308,32.625957,32.671448,32.716747,32.750397,32.779938,32.81037,32.835342,32.852386,32.8671,32.879143,32.88565,32.887215,32.887245,32.888206,32.893528,32.904293,32.921394,32.942406,32.961098,32.97673,32.988617,32.994007,32.995148,32.99415,32.991528,32.989925,32.990532,32.99503,33.004147,33.015118,33.02673,33.041805,33.058395,33.073845,33.09516,33.119762,33.14077,33.15629,33.168182,33.169212,33.159912,33.14486,33.12686,33.113026,33.10666,33.106625,33.114445,33.12777,33.14181,33.16079,33.183647,33.205452,33.225494,33.24508,33.257446,33.261326,33.26071,33.256042,33.25097,33.24858,33.248936,33.25424,33.263508,33.273785,33.29026,33.31277,33.336773,33.364426,33.400127,33.438255,33.47227,33.512238,33.56021,33.6091,33.654137,33.70871,33.764854,33.81184,33.85336,33.895615,33.93035,33.955017,33.97917,34.001072,34.018097,34.031326,34.049393,34.07314,34.10031,34.132256,34.175392,34.221478,34.260185,34.298874,34.335014,34.36181,34.380653,34.395763,34.402184,34.39981,34.392834,34.37934,34.364338,34.354416,34.34919,34.350838,34.358795,34.367973,34.380127,34.39559,34.41355,34.433853,34.46557,34.507507,34.550484,34.59646,34.649666,34.69917,34.737946,34.77799,34.81787,34.854073,34.88739,34.930454,34.98088,35.030308,35.080734,35.141758,35.20372,35.25693,35.315563,35.384018,35.45333,35.516335,35.59071,35.670074,35.74134,35.80565,35.87966,35.955017,36.02198,36.09343,36.17528,36.25311,36.31681,36.385372,36.45311,36.511765,36.564117,36.6284,36.69822,36.762955,36.83395,36.917458,36.99763,37.062943,37.134296,37.209763,37.279015,37.34043,37.410297,37.48097,37.54303,37.603775
18.395733,18.460848,18.53535,18.610788,18.676311,18.737831,18.806885,18.871521,18.923107,18.97534,19.029198,19.077702,19.118603,19.167027,19.217787,19.262959,19.30542,19.35373,19.400219,19.438723,19.478611,19.523895,19.566364,19.599989,19.636501,19.672915,19.704922,19.73432,19.768948,19.80309,19.831173,19.858505,19.889175,19.920254,19.948725,19.98179,20.018627,20.05399,20.086494,20.128628,20.177362,20.223965,20.271154,20.324863,20.375847,20.417803,20.464039,20.51728,20.5706,20.618965,20.675995,20.733814,20.7832,20.82941,20.884342,20.939825,20.987047,21.037577,21.089104,21.1391,21.190758,21.247812,21.306364,21.358006,21.40316,21.458843,21.517014,21.567348,21.62104,21.679852,21.73515,21.782787,21.83752,21.897034,21.95261,22.003185,22.06305,22.125479,22.181488,22.239714,22.307688,22.37479,22.431948,22.49128,22.550919,22.602245,22.64414,22.693335,22.744041,22.789154,22.834126,22.890205,22.952007,23.009983,23.077606,23.1554,23.230375,23.296062,23.373306,23.454788,23.528042,23.597095,23.675968,23.756042,23.828823,23.914898,24.022541,24.141869,24.259558,24.414394,24.612572,24.825916,25.041119,25.33207,25.668804,25.989353,26.35915,26.787899,27.200872,27.552761,27.955307,28.377468,28.746843,29.060978,29.397827,29.712845,29.974089,30.227062,30.51813,30.813152,31.07461,31.3528,31.619732,31.824133,31.973179,32.107765,32.210854,32.285812,32.354275,32.430855,32.500095,32.55105,32.60051,32.640358,32.66497,32.680855,32.70887,32.739025,32.76217,32.78415,32.80774,32.8281,32.84278,32.855644,32.86729,32.875328,32.879524,32.884346,32.891766,32.903107,32.91867,32.9405,32.96451,32.984154,32.9999,33.010612,33.01425,33.014137,33.0127,33.01109,33.011963,33.01599,33.024586,33.03773,33.051926,33.066414,33.08445,33.103905,33.122047,33.14627,33.173855,33.19751,33.21529,33.23021,33.23535,33.23072,33.220673,33.209023,33.201374,33.199635,33.20365,33.215103,33.231087,33.24685,33.26772,33.292747,33.31678,33.338963,33.361,33.37535,33.380203,33.37946,33.37314,33.365143,33.35959,33.35568,33.356033,33.360687,33.3668,33.378403,33.3963,33.416775,33.44125,33.474194,33.510494,33.543396,33.58245,33.6298,33.678158,33.7225,33.77597,33.830338,33.875168,33.914314,33.95363,33.98565,34.008377,34.03086,34.05152,34.06795,34.081062,34.099228,34.123413,34.151115,34.183395,34.22646,34.271416,34.308044,34.34328,34.374123,34.394863,34.408165,34.417362,34.418907,34.413788,34.405426,34.3918,34.377975,34.369656,34.36618,34.370316,34.38117,34.393078,34.408844,34.428482,34.45012,34.473297,34.507767,34.55104,34.593666,34.638462,34.68885,34.734188,34.768738,34.804337,34.84,34.873512,34.90585,34.949265,35.00143,35.05294,35.105392,35.167885,35.230175,35.283016,35.340897,35.40863,35.47794,35.541733,35.61786,35.70007,35.77455,35.842064,35.920155,35.99975,36.07025,36.14524,36.230766,36.31169,36.377647,36.44866,36.518753,36.57919,36.63286,36.698242,36.768826,36.83351,36.900978,36.98137,37.06037,37.12544,37.196983,37.273804,37.345383,37.409363,37.48267,37.55659,37.62056,37.682
