23.252176,23.14464,22.987572,22.836504,22.701664,22.592623,22.504192,22.425085,22.349815,22.269875,22.17874,22.079777,21.977299,21.872025,21.76271,21.64907,21.532215,21.406038,21.273848,21.151857,21.05321,20.9868,20.95174,20.932447,20.916348,20.89545,20.862709,20.81978,20.77219,20.72418,20.67838,20.63328,20.590134,20.55346,20.526276,20.510363,20.50568,20.509811,20.520435,20.5386,20.566366,20.597168,20.623737,20.641682,20.643906,20.616861,20.56513,20.482443,20.366575,20.219633,20.042463,19.84384,19.650034,19.463497,19.28049,19.109674,18.958004,18.82743,18.71411,18.612427,18.51701,18.420029,18.32567,18.238064,18.159174,18.088526,18.024252,17.962957,17.89985,17.836319,17.777523,17.727545,17.687485,17.655497,17.627575,17.600706,17.57513,17.550962,17.52885,17.505861,17.476862,17.441364,17.398106,17.345615,17.284294,17.217358,17.145672,17.061398,16.950914,16.8009,16.592302,16.290583,15.952933,15.655175,15.434206,15.293405,15.218541,15.1822,15.163668,15.150415,15.135666,15.121065,15.114604,15.120288,15.134568,15.152817,15.169277,15.181409,15.191467,15.20318,15.217726,15.236507,15.261175,15.295771,15.350399,15.425296,15.524797,15.656129,15.74513,15.65394,15.541007,15.028173,13.612775,11.896385,11.20071,11.013879,11.029199,11.044064,11.046907,11.031358,10.998966,10.985218,10.940811,10.870871,10.780813,10.690925,10.615159,10.556976,10.514652,10.484298,10.461064,10.445552,10.438236,10.440226,10.450557,10.464467,10.476567,10.486321,10.493531,10.497528,10.498188,10.496085,10.491935,10.486331,10.480415,10.473358,10.464841,10.454833,10.443027,10.429389,10.414713,10.400227,10.385007,10.369659,10.355536,10.344063,10.33642,10.333261,10.334428,10.338957,10.346194,10.354554,10.36282,10.371127,10.380581,10.391859,10.404634,10.418924,10.434122,10.449346,10.463776,10.47689,10.488101,10.49638,10.502251,10.500378,10.493485,10.484688,10.475474,10.467132,10.45861,10.445012,10.424461,10.395372,10.352864,10.292645,10.214796,10.122397,10.007882,9.890927,9.77976,9.684269,9.608591,9.551268,9.512281,9.479445,9.447285,9.412006,9.370424,9.3254,9.283587,9.249384,9.224412,9.20629,9.192832,9.1836815,9.177891,9.173581,9.169216,9.163739,9.153994,9.136739,9.109535,9.073461,9.0304365,8.982806,8.936202,8.890109,8.844272,8.803124,8.767822,8.734742,8.696226,8.64329,8.563892,8.445307,8.293876,8.136153,7.9989853,7.896154,7.829241,7.7882743,7.7570643,7.7308702,7.7052145,7.6804667,7.6614375,7.6524525,7.6537857,7.661938,7.674709,7.6888714,7.702839,7.7158413,7.7269354,7.736225,7.7458057,7.755068,7.7639437,7.7699428,7.7699766,7.7630405,7.75068,7.735975,7.722043,7.71242,7.709029,7.7097435,7.7097583,7.7044816,7.689049,7.6547,7.5942664,7.502518,7.387192,7.2590723,7.125767,7.0052457,6.910553,6.833262,6.7758827,6.72906,6.684377,6.643976,6.606854,6.569495,6.529498,6.4859867,6.439438,6.392095,6.347167,6.3073363,6.271302,6.236415,6.202273,6.167821,6.1317377,6.094375,6.0584583,6.0249043,5.992006,5.9616046,5.9346814,5.9118915,5.8928638,5.876156,5.8615427,5.8471403,5.8341694
23.199432,23.086185,22.967113,22.814533,22.65825,22.528534,22.425934,22.33527,22.249643,22.160116,22.05892,21.947334,21.831743,21.714842,21.597143,21.480604,21.367214,21.250229,21.130432,21.021967,20.935934,20.879696,20.852276,20.839418,20.82877,20.81286,20.784609,20.745564,20.701534,20.656965,20.613922,20.570286,20.526917,20.487524,20.455694,20.43452,20.424871,20.424374,20.430288,20.442417,20.461336,20.481453,20.49749,20.506466,20.50154,20.468615,20.41209,20.323801,20.20429,20.051746,19.87093,19.680119,19.50113,19.330597,19.165354,19.009068,18.866354,18.739363,18.62588,18.52247,18.422838,18.32567,18.228603,18.138395,18.058979,17.988293,17.923971,17.862751,17.79993,17.737707,17.680798,17.633463,17.59742,17.570856,17.549366,17.52995,17.513115,17.495018,17.473064,17.44693,17.416084,17.379158,17.333584,17.278364,17.21395,17.143175,17.06647,16.97612,16.85951,16.705332,16.490522,16.195982,15.876262,15.598652,15.3947735,15.26493,15.195124,15.160132,15.14076,15.12622,15.111372,15.098178,15.093527,15.100516,15.115829,15.134521,15.150936,15.16274,15.171774,15.181051,15.191814,15.206177,15.226931,15.263465,15.313498,15.3938055,15.520514,15.657154,15.724534,15.566326,15.461618,14.692903,13.1177435,11.661977,11.097019,11.057982,11.029084,11.054857,11.043274,11.010292,11.001446,10.972687,10.913247,10.83028,10.731176,10.636266,10.558725,10.50105,10.460543,10.432683,10.4117365,10.398226,10.391959,10.394761,10.404727,10.415958,10.4250145,10.4316635,10.435805,10.437545,10.437167,10.435182,10.432014,10.427906,10.423535,10.418118,10.411123,10.402339,10.391479,10.378681,10.364859,10.35128,10.3369665,10.322393,10.308909,10.2979355,10.290639,10.287634,10.288809,10.293236,10.300502,10.309193,10.318188,10.327498,10.337939,10.3499565,10.363151,10.377357,10.391813,10.405624,10.418077,10.428993,10.438162,10.444143,10.44573,10.440427,10.432099,10.423466,10.415943,10.410409,10.402244,10.389317,10.36898,10.338598,10.292816,10.228179,10.146544,10.052902,9.948094,9.839332,9.739438,9.658537,9.595821,9.545611,9.507295,9.470985,9.43235,9.390637,9.345011,9.298998,9.258466,9.226378,9.202926,9.185411,9.171346,9.160355,9.151941,9.144752,9.137485,9.1292305,9.116605,9.096422,9.066708,9.02885,8.984837,8.936779,8.889718,8.842638,8.794854,8.75025,8.710348,8.672348,8.629671,8.574874,8.497536,8.386495,8.248174,8.105283,7.9806595,7.8861117,7.8225994,7.780744,7.746823,7.7168374,7.688015,7.661587,7.641703,7.63151,7.630793,7.6359444,7.6451397,7.6560326,7.6674547,7.6785617,7.688262,7.696557,7.705438,7.7146435,7.7241607,7.7316875,7.7339334,7.7292895,7.7189302,7.7058325,7.692795,7.6834774,7.680176,7.6814003,7.6828804,7.679942,7.6670256,7.63496,7.5754843,7.4825706,7.365025,7.234165,7.0981264,6.9811697,6.8893337,6.817298,6.764924,6.7217817,6.679482,6.639499,6.6015396,6.5626307,6.5214806,6.478024,6.4326487,6.3870487,6.3438034,6.304945,6.2691927,6.2342043,6.1998386,6.1652966,6.12939,6.0923996,6.0568438,6.023554,5.9908066,5.960343,5.9331284,5.909868,5.8903613,5.873368,5.858635,5.8441954,5.8311915
23.165073,23.040514,22.916573,22.778114,22.644934,22.522453,22.413998,22.319197,22.228037,22.131489,22.017967,21.89453,21.763813,21.629976,21.499342,21.376505,21.263102,21.152466,21.042912,20.945534,20.86888,20.818642,20.793861,20.782341,20.772488,20.757376,20.730541,20.693245,20.651043,20.608152,20.565924,20.521563,20.475714,20.4315,20.39317,20.36526,20.349516,20.343428,20.343855,20.34872,20.357368,20.364939,20.368021,20.364964,20.350378,20.313368,20.252789,20.160679,20.03309,19.873703,19.6968,19.52132,19.36037,19.209358,19.062098,18.920097,18.786406,18.663069,18.550276,18.44771,18.347445,18.247612,18.151745,18.062212,17.98096,17.90825,17.841867,17.7785,17.713652,17.649729,17.592115,17.545143,17.510605,17.48717,17.470367,17.458118,17.446129,17.430666,17.411242,17.387897,17.3589,17.323072,17.277634,17.221483,17.15477,17.079872,16.997267,16.900227,16.77771,16.619884,16.402832,16.115913,15.811364,15.550023,15.35907,15.236792,15.169764,15.134708,15.114147,15.098843,15.08469,15.073502,15.071007,15.079332,15.095417,15.114314,15.130699,15.142693,15.151838,15.160287,15.169035,15.180639,15.19839,15.239206,15.283878,15.365916,15.516799,15.653823,15.696884,15.46683,15.329683,14.374565,12.733319,11.525526,11.076601,11.062149,11.029536,11.035434,11.024108,11.003865,10.991403,10.943921,10.8696785,10.777744,10.675845,10.582565,10.509069,10.456163,10.419956,10.3958,10.377332,10.364856,10.357614,10.358314,10.364696,10.370451,10.374338,10.376441,10.37663,10.375587,10.373867,10.371819,10.369558,10.367052,10.36447,10.361154,10.356401,10.349792,10.340965,10.330067,10.318,10.305968,10.293024,10.279555,10.266903,10.256596,10.249846,10.247235,10.248645,10.253197,10.260741,10.270065,10.280164,10.290906,10.302728,10.315713,10.329388,10.3433895,10.356867,10.369001,10.379532,10.388745,10.395868,10.396485,10.391741,10.383332,10.37545,10.369628,10.364758,10.359434,10.351433,10.33882,10.318363,10.28659,10.23812,10.17042,10.086828,9.994063,9.896825,9.799699,9.712763,9.643384,9.589309,9.543085,9.501655,9.459557,9.413684,9.366132,9.317979,9.272502,9.234017,9.204042,9.181522,9.163498,9.147569,9.133522,9.121368,9.110348,9.099484,9.0880165,9.072415,9.049751,9.018524,8.980197,8.936583,8.889373,8.842757,8.795209,8.745532,8.697161,8.651579,8.606742,8.55833,8.501948,8.427657,8.3248825,8.200444,8.072999,7.9611473,7.874895,7.8149157,7.7726026,7.7362347,7.7030263,7.6714044,7.642968,7.621232,7.608405,7.6039076,7.6044674,7.6087337,7.6152244,7.6232433,7.6318283,7.639566,7.6462955,7.653769,7.662046,7.6713505,7.679662,7.6835647,7.6809473,7.6726184,7.661296,7.649402,7.6405287,7.637322,7.639044,7.6421585,7.642104,7.6326456,7.604016,7.5467243,7.4539924,7.3355913,7.2036314,7.06694,6.9543424,6.867714,6.801779,6.7539635,6.7138557,6.6734514,6.633461,6.5947304,6.5546846,6.5130315,6.470249,6.426507,6.3827977,6.341002,6.3027406,6.2669535,6.231566,6.196748,6.1619987,6.12633,6.0899463,6.0550394,6.022373,5.990113,5.959736,5.932229,5.9084253,5.8883076,5.870859,5.855861,5.8412714,5.8281894
23.15395,23.017311,22.878223,22.739166,22.611013,22.496088,22.396593,22.312365,22.234985,22.153717,22.063421,21.925064,21.767616,21.61481,21.470808,21.339468,21.22365,21.116302,21.01342,20.922989,20.85114,20.802345,20.77604,20.762087,20.749947,20.733162,20.70592,20.66904,20.627407,20.584738,20.541698,20.494984,20.445147,20.394852,20.349041,20.313683,20.291384,20.279442,20.274448,20.272343,20.271336,20.266876,20.256779,20.240389,20.214228,20.171661,20.104366,20.003174,19.8674,19.707487,19.540768,19.382553,19.240492,19.108866,18.978518,18.849705,18.724342,18.604666,18.492544,18.38995,18.29356,18.193413,18.097359,18.008276,17.927122,17.853834,17.786297,17.721695,17.652853,17.584682,17.523628,17.474443,17.439293,17.417109,17.40314,17.39151,17.380888,17.368723,17.354237,17.33605,17.311172,17.278328,17.234959,17.17937,17.11121,17.032795,16.944353,16.840061,16.711708,16.550804,16.3366,16.057192,15.763493,15.513133,15.329865,15.211179,15.144547,15.1081505,15.086229,15.070752,15.057965,15.049132,15.048899,15.058448,15.074959,15.093776,15.110143,15.122849,15.133303,15.142712,15.151492,15.162373,15.1803465,15.214972,15.25882,15.352373,15.514845,15.647688,15.658841,15.4104805,15.20216,14.106827,12.47278,11.469939,11.110994,11.053122,11.034334,11.024663,11.014128,11.000118,10.967526,10.901415,10.814969,10.719106,10.620792,10.5352125,10.470533,10.425512,10.395024,10.374765,10.358241,10.345226,10.335877,10.331856,10.331195,10.329761,10.32732,10.324281,10.320357,10.316459,10.313251,10.310894,10.309222,10.307998,10.30702,10.305814,10.303562,10.299641,10.293503,10.285144,10.275326,10.265126,10.253693,10.241419,10.229713,10.220319,10.214554,10.212918,10.21517,10.220466,10.228854,10.239275,10.250883,10.263445,10.276981,10.291185,10.305494,10.319278,10.332145,10.343693,10.352488,10.356561,10.355244,10.350008,10.343312,10.336881,10.331555,10.327261,10.323029,10.317427,10.30946,10.296948,10.276223,10.243175,10.192763,10.123411,10.039585,9.949327,9.858341,9.771476,9.696026,9.636916,9.588559,9.541355,9.494703,9.445726,9.392913,9.340935,9.292013,9.248333,9.212258,9.184056,9.16179,9.142309,9.123596,9.105705,9.089143,9.073767,9.058993,9.0442095,9.02581,9.001243,8.969351,8.931486,8.889135,8.843469,8.7977295,8.749847,8.698346,8.646278,8.593888,8.541139,8.48767,8.430006,8.359887,8.265762,8.155018,8.042421,7.9426317,7.8641205,7.807331,7.7649813,7.7263002,7.6906734,7.6569266,7.626363,7.602008,7.58548,7.5761795,7.5712357,7.5699544,7.5716934,7.576214,7.5823436,7.5881343,7.593181,7.5989676,7.605777,7.614185,7.622447,7.6270976,7.625723,7.6188354,7.6088796,7.5978813,7.589214,7.585828,7.5877113,7.5920906,7.5946827,7.5887074,7.563819,7.507827,7.4156604,7.297675,7.165224,7.0293055,6.924472,6.8454514,6.7862244,6.7425604,6.7048635,6.6658525,6.62572,6.5865717,6.5460386,6.504639,6.4630623,6.4211364,6.3791924,6.33854,6.300619,6.26457,6.2286015,6.193201,6.1581607,6.1227183,6.0870275,6.052927,6.02109,5.989546,5.9594727,5.931799,5.9074497,5.8866596,5.8687124,5.85338,5.8385744,5.825362
23.168825,23.020596,22.870165,22.716213,22.571198,22.450626,22.355644,22.27848,22.212715,22.145456,22.071802,21.947441,21.802254,21.643438,21.480476,21.344625,21.22683,21.120377,21.019842,20.931307,20.859873,20.80997,20.781635,20.765827,20.75277,20.735968,20.709663,20.674118,20.633629,20.59157,20.548283,20.500132,20.447557,20.392462,20.340126,20.297802,20.26921,20.251993,20.24308,20.237122,20.230486,20.218296,20.198446,20.170446,20.132036,20.079172,20.000607,19.886873,19.743963,19.585556,19.42753,19.28262,19.15638,19.039555,18.922651,18.804314,18.685379,18.56852,18.456705,18.353012,18.25837,18.161938,18.066357,17.976032,17.893848,17.81924,17.749807,17.68339,17.61227,17.541718,17.478071,17.426266,17.388794,17.364756,17.34964,17.336254,17.326107,17.316883,17.306095,17.291403,17.270176,17.240803,17.200678,17.147089,17.0787,16.997524,16.90428,16.794098,16.660252,16.497107,16.290567,16.018003,15.730791,15.486759,15.306788,15.188577,15.120709,15.082529,15.059748,15.045082,15.034523,15.028431,15.0304575,15.041032,15.057645,15.076215,15.09271,15.106681,15.119429,15.131175,15.1415615,15.153179,15.173808,15.19261,15.23794,15.351328,15.516449,15.640102,15.615183,15.387534,15.103147,13.9121895,12.325696,11.464541,11.131868,11.046819,11.04192,11.032532,11.01589,10.989842,10.936384,10.854997,10.760885,10.6654625,10.57456,10.499344,10.444939,10.408367,10.383502,10.366464,10.351023,10.336154,10.324037,10.31431,10.305592,10.29722,10.289094,10.281738,10.274626,10.268513,10.263977,10.261003,10.259255,10.258467,10.258324,10.258476,10.258106,10.256447,10.252708,10.246646,10.238801,10.230124,10.219839,10.208472,10.197652,10.189445,10.185346,10.185678,10.189827,10.196893,10.206921,10.218891,10.23217,10.24655,10.261785,10.277319,10.292796,10.307683,10.318229,10.324356,10.326489,10.324137,10.318338,10.313145,10.308619,10.304812,10.300764,10.296161,10.291331,10.28583,10.27793,10.265571,10.244681,10.210681,10.159064,10.089141,10.006166,9.91921,9.833668,9.753537,9.685141,9.630447,9.582246,9.532195,9.481815,9.43091,9.374366,9.3200245,9.2716055,9.230101,9.195991,9.168728,9.145956,9.124376,9.102481,9.080624,9.05975,9.040272,9.021997,9.004413,8.983839,8.957988,8.925908,8.888552,8.846916,8.801918,8.756467,8.708082,8.655303,8.59971,8.54107,8.482211,8.425913,8.368187,8.302334,8.216728,8.118145,8.018146,7.9283767,7.8560424,7.801626,7.759306,7.718996,7.681509,7.6462,7.6137996,7.58656,7.5659995,7.5519557,7.541666,7.535424,7.533325,7.5353994,7.540093,7.544769,7.548729,7.5532303,7.5586715,7.565959,7.5735116,7.5778646,7.576526,7.569875,7.5602164,7.549254,7.5400867,7.5359154,7.5373087,7.5420756,7.546191,7.5425425,7.519616,7.4637094,7.371878,7.2523775,7.117817,6.9868746,6.892207,6.822507,6.7703614,6.730482,6.6947675,6.657004,6.6170206,6.5781083,6.5379143,6.4974966,6.457441,6.417178,6.3765764,6.336643,6.298831,6.2624245,6.2258644,6.1898994,6.1545515,6.1192665,6.0841866,6.050845,6.0198326,5.9890475,5.9594088,5.9317646,5.907036,5.8856645,5.867278,5.85159,5.836492,5.823028
23.200773,23.045097,22.884073,22.715185,22.555683,22.422152,22.316664,22.232096,22.160763,22.088951,22.00237,21.908932,21.805283,21.667604,21.507978,21.370705,21.252047,21.144606,21.04208,20.950405,20.875763,20.823887,20.79528,20.780666,20.770454,20.757431,20.73512,20.703003,20.665102,20.62503,20.583307,20.536118,20.483622,20.426577,20.370037,20.322052,20.287743,20.266365,20.256403,20.250572,20.243797,20.230078,20.205414,20.168556,20.118622,20.05284,19.959724,19.832912,19.680933,19.518854,19.362963,19.225317,19.10929,19.00163,18.893751,18.78254,18.667763,18.552498,18.440855,18.336552,18.239738,18.146408,18.054417,17.964342,17.879316,17.801018,17.728016,17.658188,17.586422,17.515419,17.450745,17.397127,17.35695,17.32953,17.31108,17.297768,17.287804,17.278584,17.267868,17.253735,17.234013,17.20717,17.170378,17.119656,17.052181,16.968866,16.871584,16.757263,16.619648,16.45557,16.257057,15.992197,15.71007,15.468946,15.289565,15.170162,15.100499,15.060983,15.038341,15.025569,15.017942,15.014738,15.018778,15.030052,15.046412,15.064328,15.080811,15.096231,15.11172,15.126497,15.139243,15.153399,15.169,15.173286,15.223879,15.356283,15.521702,15.63064,15.573932,15.365175,15.024326,13.77406,12.239495,11.473261,11.12637,11.05156,11.051078,11.042091,11.016247,10.973365,10.903702,10.811983,10.714796,10.622698,10.540343,10.475238,10.43005,10.400683,10.380376,10.365539,10.350353,10.333608,10.318111,10.302893,10.287679,10.274094,10.262172,10.252252,10.243524,10.236295,10.230891,10.227158,10.224748,10.2235565,10.223368,10.223906,10.224447,10.224165,10.222054,10.2175865,10.211096,10.203382,10.193694,10.182779,10.172588,10.16561,10.163565,10.166547,10.173361,10.1829405,10.195089,10.208703,10.2234125,10.239187,10.25577,10.2724,10.28686,10.299057,10.304417,10.303636,10.299501,10.295006,10.292732,10.29109,10.287997,10.283552,10.278452,10.27331,10.268342,10.26297,10.255246,10.243174,10.2223,10.187695,10.135476,10.0657215,9.9842005,9.900687,9.819514,9.743755,9.678372,9.622021,9.56953,9.51696,9.46442,9.41423,9.359266,9.305797,9.258516,9.218653,9.185556,9.158274,9.134373,9.110453,9.085484,9.0601015,9.035591,9.012821,8.9919195,8.97241,8.950536,8.92405,8.891895,8.8544445,8.812388,8.766846,8.720704,8.671334,8.617273,8.558729,8.496094,8.434227,8.3772545,8.321138,8.2586775,8.180696,8.091952,8.001519,7.919028,7.8507996,7.7977967,7.75539,7.714592,7.676096,7.639759,7.6059265,7.5760903,7.551836,7.5334225,7.5185304,7.5084524,7.5038133,7.504718,7.5091314,7.5136995,7.517438,7.521444,7.5261555,7.5326653,7.539412,7.5429277,7.5407925,7.5334105,7.523129,7.511445,7.501215,7.4958115,7.4961925,7.500481,7.5047474,7.5017586,7.478092,7.4212046,7.3288927,7.205386,7.0679917,6.9466066,6.862059,6.8011265,6.755515,6.7189097,6.6847687,6.648148,6.6085825,6.5704274,6.5311913,6.4921656,6.4536405,6.4146886,6.3749223,6.335289,6.297405,6.2606773,6.223669,6.1872897,6.1517034,6.116516,6.0818863,6.049123,6.018771,5.988625,5.9593844,5.9318757,5.9069743,5.8852196,5.86651,5.850503,5.835079,5.8212543
23.23104,23.076992,22.911196,22.729843,22.55523,22.40789,22.291225,22.19792,22.120157,22.044052,21.95791,21.859535,21.752054,21.650995,21.543432,21.409454,21.295813,21.186522,21.079062,20.980852,20.900213,20.84505,20.816553,20.804386,20.79874,20.791407,20.774555,20.74726,20.713327,20.676317,20.637297,20.592592,20.541813,20.484362,20.424526,20.371498,20.332348,20.307833,20.29855,20.294228,20.290537,20.279655,20.253801,20.210499,20.151123,20.074242,19.966194,19.82359,19.658464,19.48818,19.329819,19.194706,19.083935,18.982199,18.880428,18.774101,18.662102,18.547932,18.436703,18.332531,18.235603,18.140928,18.051981,17.966238,17.881845,17.8008,17.725304,17.65305,17.578394,17.504427,17.43716,17.381502,17.3398,17.311314,17.292171,17.277603,17.26602,17.254692,17.241632,17.225689,17.205431,17.179455,17.144968,17.096687,17.030293,16.945463,16.844206,16.725906,16.58742,16.424305,16.229342,15.975484,15.700708,15.460196,15.280237,15.159319,15.08829,15.04841,15.026902,15.01657,15.01177,15.0107155,15.015701,15.026789,15.042147,15.058597,15.074494,15.091023,15.109085,15.126753,15.141172,15.157004,15.154806,15.152937,15.217141,15.364455,15.528049,15.618205,15.535374,15.342287,14.95452,13.645607,12.144965,11.469429,11.139678,11.078634,11.062817,11.045008,11.011376,10.954771,10.871613,10.773157,10.675593,10.588013,10.514045,10.458066,10.420747,10.39722,10.380337,10.366795,10.35126,10.333601,10.314621,10.294446,10.274826,10.258088,10.244342,10.233579,10.224737,10.217515,10.211911,10.207698,10.204601,10.202725,10.202099,10.202501,10.203354,10.203842,10.2028,10.199455,10.193925,10.186847,10.17744,10.166662,10.156751,10.150618,10.150257,10.155567,10.164798,10.176687,10.19066,10.205473,10.220912,10.237229,10.254016,10.269379,10.278249,10.280499,10.281314,10.282807,10.283069,10.281102,10.278859,10.275691,10.271481,10.266376,10.260735,10.255104,10.2499275,10.244668,10.237152,10.225359,10.204532,10.169539,10.117128,10.048132,9.968617,9.888471,9.811079,9.73848,9.6745205,9.617473,9.562397,9.50623,9.450316,9.395348,9.344472,9.29474,9.249396,9.21096,9.178321,9.150376,9.125096,9.099,9.071436,9.043233,9.015939,8.990768,8.96808,8.947413,8.924992,8.898422,8.8661,8.828026,8.785153,8.738871,8.691501,8.640421,8.583954,8.523488,8.459097,8.396006,8.339624,8.28568,8.225966,8.154118,8.072983,7.9895024,7.911894,7.8461266,7.7938113,7.7513733,7.7109203,7.672922,7.636425,7.6014786,7.5696173,7.5422335,7.519579,7.500753,7.487604,7.4810534,7.481256,7.485797,7.4907045,7.494773,7.4989877,7.5038047,7.51032,7.516865,7.519929,7.51717,7.509063,7.498135,7.485738,7.4745545,7.468045,7.467406,7.470857,7.4743767,7.470761,7.444778,7.38522,7.290917,7.1643963,7.0269766,6.9154024,6.8400736,6.7849917,6.743997,6.7099195,6.676844,6.6408195,6.601448,6.563966,6.525735,6.4880066,6.4507413,6.412709,6.3733997,6.3338504,6.29588,6.258984,6.221759,6.1851892,6.1495004,6.1144066,6.0800858,6.047715,6.0178113,5.9880953,5.959114,5.931678,5.906665,5.884686,5.8657713,5.8495617,5.8338842,5.8197165
23.256292,23.108097,22.939465,22.755644,22.56904,22.40724,22.279219,22.176807,22.092222,22.011345,21.92153,21.822834,21.720005,21.6179,21.5231,21.440722,21.365751,21.255072,21.140404,21.034658,20.946375,20.885408,20.855246,20.84455,20.842396,20.840069,20.827826,20.807919,20.78287,20.752014,20.71759,20.676405,20.627148,20.56662,20.496588,20.434414,20.39304,20.366402,20.35304,20.3479,20.346495,20.338692,20.31506,20.2715,20.20632,20.115494,19.995104,19.836637,19.655542,19.47343,19.309305,19.17366,19.065289,18.967682,18.870577,18.768183,18.658447,18.545702,18.436035,18.332674,18.235712,18.141493,18.05238,17.970331,17.890232,17.808811,17.731308,17.65723,17.580645,17.504618,17.435408,17.378134,17.335148,17.30557,17.285347,17.269125,17.255043,17.240128,17.222828,17.203058,17.180323,17.153418,17.120243,17.073656,17.007675,16.921623,16.817719,16.69692,16.55912,16.39983,16.207603,15.967329,15.701728,15.461363,15.281044,15.15941,15.08827,15.049345,15.029841,15.02201,15.019299,15.018733,15.022049,15.030584,15.043043,15.057649,15.073024,15.0906105,15.1112,15.131067,15.143675,15.1442795,15.138306,15.140129,15.213976,15.370807,15.531993,15.602848,15.486047,15.313951,14.868391,13.510859,12.054737,11.455323,11.14936,11.106271,11.075367,11.047605,11.005307,10.935841,10.841521,10.738233,10.641287,10.558159,10.491734,10.44372,10.413106,10.394398,10.380135,10.367289,10.351114,10.3322935,10.310596,10.287009,10.264739,10.246622,10.232683,10.222525,10.21486,10.208723,10.203743,10.199611,10.196131,10.193626,10.192466,10.192457,10.193172,10.19392,10.193481,10.190893,10.186075,10.179484,10.170225,10.15941,10.149459,10.143646,10.144265,10.151106,10.161957,10.175385,10.190373,10.205742,10.220657,10.236114,10.249308,10.253007,10.258893,10.265979,10.270781,10.272395,10.2710285,10.267736,10.264409,10.26038,10.25537,10.249605,10.243319,10.237129,10.231708,10.226541,10.219199,10.207584,10.18671,10.151415,10.09914,10.031496,9.954687,9.878177,9.804506,9.734653,9.671522,9.613061,9.55512,9.495987,9.437848,9.382016,9.327967,9.279068,9.238632,9.204839,9.173565,9.144277,9.117408,9.089233,9.059346,9.02872,8.999187,8.972293,8.94852,8.927298,8.90488,8.878276,8.845604,8.806979,8.763197,8.715318,8.666057,8.612736,8.55388,8.491662,8.426741,8.364373,8.309296,8.256524,8.200186,8.133574,8.058214,7.9796324,7.905157,7.840725,7.788659,7.746276,7.706469,7.669637,7.63402,7.598751,7.5650325,7.5346336,7.5084333,7.486296,7.4706,7.462434,7.4620113,7.466688,7.472052,7.476762,7.481722,7.487458,7.4948807,7.502105,7.5055256,7.502804,7.494459,7.483278,7.4705267,7.4587693,7.45152,7.4501514,7.4528265,7.4551964,7.450139,7.420994,7.3573675,7.259503,7.1313143,6.996695,6.8935475,6.825906,6.774778,6.73606,6.703899,6.6718388,6.635653,6.5960517,6.558629,6.5211062,6.484339,6.4479766,6.4105277,6.3714385,6.3318987,6.293899,6.2570114,6.219799,6.1832414,6.147595,6.1126275,6.0785427,6.0464563,6.016845,5.987381,5.9584975,5.9310217,5.905882,5.8837295,5.8646574,5.8483157,5.8324513,5.8179865
23.259817,23.119503,22.95641,22.769253,22.579304,22.409964,22.271585,22.161509,22.071129,21.986458,21.894266,21.795673,21.696266,21.598854,21.510092,21.436573,21.369408,21.291048,21.213047,21.119057,21.018766,20.945122,20.913301,20.903645,20.91253,20.920698,20.904673,20.87479,20.84346,20.809654,20.774506,20.736042,20.693672,20.6463,20.599552,20.54853,20.491581,20.445429,20.425402,20.42298,20.434587,20.449331,20.4394,20.393204,20.324572,20.234152,20.078459,19.874454,19.662924,19.465487,19.292892,19.155027,19.047985,18.953716,18.86104,18.762512,18.655952,18.545517,18.437233,18.335436,18.239958,18.14639,18.058254,17.97682,17.900932,17.82484,17.744081,17.66856,17.590387,17.512642,17.441828,17.383274,17.339405,17.3092,17.28814,17.270226,17.25313,17.233875,17.211279,17.186266,17.159721,17.1312,17.09798,17.051617,16.984901,16.896843,16.789883,16.666636,16.530022,16.376064,16.189869,15.968857,15.714021,15.472507,15.29247,15.170887,15.100663,15.063826,15.04715,15.041854,15.039188,15.036002,15.0362835,15.041699,15.051403,15.064691,15.080798,15.101958,15.122643,15.133149,15.135491,15.132572,15.123778,15.133284,15.217957,15.379117,15.533829,15.583019,15.436359,15.283779,14.757879,13.374448,11.988768,11.44255,11.159607,11.131706,11.087372,11.048704,10.9963875,10.914418,10.8103,10.703646,10.608379,10.530105,10.470983,10.430368,10.4057665,10.391226,10.379124,10.366676,10.350691,10.330374,10.306349,10.2806015,10.257038,10.238832,10.225874,10.217311,10.21171,10.207392,10.203586,10.199908,10.196246,10.19314,10.191338,10.190647,10.190824,10.191403,10.191206,10.189174,10.185064,10.1791315,10.170309,10.15975,10.149931,10.144345,10.14551,10.15322,10.164961,10.179177,10.195177,10.209972,10.220398,10.226203,10.231216,10.239596,10.248066,10.25577,10.260363,10.2612295,10.258761,10.254438,10.2502575,10.245499,10.239755,10.233302,10.226288,10.219452,10.213712,10.208563,10.201311,10.189686,10.168445,10.132628,10.080509,10.014516,9.9409275,9.868508,9.798718,9.731505,9.668863,9.608656,9.547785,9.485936,9.425978,9.369399,9.314824,9.26632,9.225071,9.189122,9.156527,9.127367,9.100897,9.073022,9.043877,9.014332,8.985343,8.957848,8.932933,8.911381,8.889074,8.86257,8.829666,8.789948,8.744084,8.693644,8.641814,8.585662,8.524179,8.460075,8.395611,8.334916,8.280752,8.229942,8.177168,8.11509,8.044289,7.969317,7.896933,7.8332086,7.781211,7.73906,7.700265,7.665098,7.630834,7.595624,7.560396,7.5273156,7.4978423,7.472623,7.4544234,7.444436,7.4429665,7.4473257,7.452899,7.4583054,7.4643373,7.471628,7.480714,7.489356,7.4938016,7.491675,7.483492,7.472336,7.459418,7.447228,7.4393454,7.43737,7.439345,7.4403667,7.43341,7.400446,7.3318305,7.229688,7.1003056,6.970123,6.8760567,6.812533,6.767531,6.731622,6.7005973,6.668743,6.6317663,6.5914855,6.553831,6.5167575,6.4806867,6.4450483,6.4080653,6.3691287,6.3296366,6.291696,6.254944,6.217887,6.181444,6.1458855,6.1110253,6.0770893,6.045186,6.0157595,5.986414,5.957503,5.929886,5.904578,5.8822618,5.8630133,5.8465786,5.8305597,5.8158374
23.183216,23.058529,22.911224,22.730608,22.547573,22.383572,22.246895,22.137014,22.047026,21.963287,21.872519,21.776684,21.682117,21.591629,21.507664,21.43333,21.366468,21.300943,21.23445,21.158117,21.079002,21.017216,20.982147,20.962019,20.952827,20.943075,20.919897,20.887985,20.854437,20.819824,20.78476,20.747713,20.708147,20.666164,20.626785,20.586592,20.543829,20.509588,20.493334,20.486832,20.487818,20.487253,20.4659,20.415487,20.344519,20.255123,20.123722,19.915918,19.673695,19.45251,19.274916,19.135746,19.03214,18.94209,18.853888,18.759525,18.655865,18.547234,18.440851,18.341608,18.248861,18.157698,18.071188,17.990295,17.91587,17.843246,17.765022,17.68767,17.607998,17.52872,17.456541,17.397161,17.353249,17.323578,17.302904,17.28508,17.266666,17.240849,17.209164,17.176706,17.14478,17.112522,17.07649,17.027626,16.958748,16.869598,16.763577,16.641924,16.50505,16.355597,16.177044,15.973199,15.734848,15.49958,15.318823,15.197803,15.129171,15.095071,15.081318,15.076106,15.070713,15.063979,15.060746,15.063165,15.07135,15.086431,15.102161,15.116765,15.128618,15.13348,15.131189,15.126859,15.11455,15.134887,15.23398,15.408667,15.558326,15.547952,15.40936,15.270772,14.642028,13.238293,11.935563,11.433075,11.171196,11.154954,11.097666,11.0474415,10.984762,10.891499,10.779429,10.670961,10.578221,10.504777,10.452118,10.417672,10.397833,10.386451,10.376027,10.364211,10.348833,10.327635,10.302357,10.275766,10.252095,10.234692,10.223286,10.216717,10.213428,10.211152,10.208779,10.205842,10.202259,10.198738,10.196374,10.194941,10.194357,10.194453,10.194254,10.192764,10.189686,10.1850395,10.177595,10.168331,10.159474,10.154404,10.155725,10.163543,10.175731,10.190498,10.20204,10.20718,10.211232,10.216466,10.222138,10.232237,10.241416,10.248395,10.252171,10.2524805,10.249553,10.244838,10.240366,10.235301,10.22911,10.222074,10.214331,10.2068,10.200674,10.19548,10.188154,10.176167,10.154034,10.117107,10.064672,10.000134,9.929841,9.861619,9.795687,9.730984,9.668609,9.60648,9.542643,9.478112,9.416291,9.358653,9.303604,9.254712,9.212232,9.174578,9.140793,9.110783,9.0829525,9.053829,9.023356,8.993802,8.96577,8.938831,8.9137745,8.891217,8.867896,8.841466,8.8101425,8.773139,8.728916,8.676792,8.621044,8.561808,8.49761,8.432271,8.368248,8.308822,8.25615,8.207388,8.15718,8.098117,8.030204,7.9574366,7.886285,7.822991,7.7711864,7.729624,7.6922603,7.659196,7.6267257,7.5920553,7.5558653,7.5206785,7.4883795,7.4602585,7.439276,7.4266725,7.4229794,7.4258175,7.4307413,7.436431,7.4434896,7.452664,7.463905,7.474502,7.4805136,7.479455,7.471766,7.46081,7.4477205,7.4349732,7.4263363,7.4237366,7.4251194,7.4249773,7.4162617,7.3798304,7.306637,7.200991,7.0718403,6.9477086,6.8635616,6.803939,6.7636137,6.731083,6.7009664,6.668045,6.629392,6.5878153,6.549614,6.5128713,6.477358,6.4422913,6.4057407,6.3670955,6.327861,6.290159,6.2536783,6.216843,6.1804705,6.1448703,6.10994,6.0759487,6.044043,6.0146475,5.985284,5.9561796,5.9282746,5.9027243,5.880229,5.860828,5.8443975,5.8283567,5.8135586
22.968634,22.868277,22.7426,22.586285,22.426073,22.282394,22.162472,22.06517,21.985134,21.909729,21.826498,21.73824,21.651976,21.570227,21.493662,21.423607,21.35811,21.289814,21.218153,21.149452,21.088436,21.038385,21.000488,20.971384,20.94508,20.918951,20.892735,20.864475,20.833591,20.801289,20.768137,20.732483,20.693375,20.650654,20.607166,20.568926,20.539799,20.51866,20.50514,20.493116,20.481575,20.46297,20.429815,20.377748,20.305033,20.21247,20.10265,19.94096,19.683874,19.430798,19.253506,19.118122,19.020002,18.935768,18.852592,18.762243,18.660824,18.553501,18.449215,18.352877,18.263203,18.175106,18.090015,18.009481,17.934174,17.862074,17.788826,17.70951,17.62812,17.547293,17.473907,17.414242,17.371752,17.345194,17.327888,17.310339,17.289034,17.257906,17.219929,17.181734,17.145271,17.10895,17.068796,17.014933,16.94033,16.846085,16.737698,16.61772,16.485712,16.341282,16.169323,15.974393,15.75988,15.542099,15.357382,15.237516,15.170839,15.139898,15.126877,15.119988,15.1117,15.101514,15.094927,15.095381,15.100426,15.10992,15.11955,15.1275215,15.134342,15.13823,15.134839,15.1278305,15.113036,15.147041,15.267872,15.45148,15.576464,15.509247,15.395241,15.276831,14.555828,13.124046,11.887533,11.426619,11.18367,11.163957,11.103146,11.04473,10.971846,10.869479,10.751884,10.643307,10.553828,10.484995,10.437654,10.407779,10.3910675,10.381554,10.372343,10.361719,10.34664,10.325308,10.299958,10.273659,10.250752,10.2345915,10.224782,10.220019,10.218674,10.218088,10.21694,10.214693,10.211265,10.207448,10.204567,10.202315,10.200749,10.200007,10.199461,10.198376,10.196517,10.193711,10.188586,10.181799,10.174998,10.171516,10.173868,10.180967,10.188815,10.195479,10.2013855,10.203218,10.206396,10.213642,10.221586,10.229575,10.237549,10.243817,10.247276,10.247534,10.244759,10.240337,10.236173,10.231279,10.224995,10.217558,10.209183,10.2010355,10.19458,10.189353,10.181847,10.169164,10.14556,10.106771,10.053236,9.989517,9.922095,9.857738,9.795352,9.732947,9.670741,9.606771,9.540165,9.473053,9.409218,9.350089,9.29373,9.243613,9.200169,9.16184,9.12739,9.096441,9.067309,9.037156,9.005743,8.975111,8.946304,8.919309,8.894463,8.871628,8.848027,8.821629,8.790496,8.75363,8.709874,8.65881,8.603514,8.541767,8.4750595,8.40901,8.345689,8.287535,8.2364435,8.189089,8.140072,8.082348,8.0157,7.943904,7.8733234,7.810309,7.7588067,7.7180166,7.682182,7.6512556,7.6206903,7.586916,7.550417,7.513952,7.479643,7.449149,7.42541,7.4096575,7.402743,7.4029207,7.4063005,7.411685,7.419428,7.430354,7.4437165,7.456293,7.46397,7.464142,7.4570823,7.4463444,7.432933,7.4193788,7.4097486,7.4064026,7.4072714,7.4062843,7.396262,7.357176,7.280578,7.1730337,7.0459766,6.928544,6.853168,6.7994723,6.763196,6.733844,6.7039933,6.668995,6.6280074,6.5846972,6.545809,6.5093126,6.4745455,6.44045,6.4046926,6.366502,6.327531,6.290012,6.253618,6.2168083,6.1803427,6.1445875,6.109503,6.075362,6.043279,6.013591,5.983816,5.954377,5.926143,5.900301,5.877614,5.8580832,5.8417315,5.8257866,5.8110986
22.588089,22.517279,22.42138,22.303297,22.179762,22.068907,21.977795,21.904245,21.842981,21.783054,21.713825,21.638704,21.564964,21.494972,21.429157,21.3679,21.306925,21.240402,21.172426,21.104708,21.04166,20.989769,20.951416,20.922098,20.897669,20.87379,20.849062,20.822678,20.794731,20.765696,20.735674,20.702848,20.666237,20.62539,20.583126,20.543358,20.50898,20.481764,20.463896,20.44959,20.439287,20.425522,20.397585,20.348518,20.276405,20.180805,20.057083,19.928099,19.688923,19.424038,19.237644,19.1099,19.019756,18.943804,18.867046,18.78031,18.68059,18.574455,18.471638,18.377153,18.289219,18.202301,18.116909,18.034065,17.955235,17.880869,17.80828,17.729513,17.645947,17.563328,17.489449,17.431084,17.39219,17.370674,17.356985,17.340767,17.318457,17.287365,17.249454,17.209902,17.171564,17.132483,17.087917,17.026709,16.941578,16.8353,16.716566,16.592606,16.465984,16.327572,16.16277,15.972002,15.774914,15.577974,15.398944,15.27899,15.214645,15.185711,15.172653,15.165405,15.15486,15.139349,15.127127,15.122883,15.122141,15.122949,15.126981,15.135256,15.143953,15.146573,15.140747,15.131061,15.121163,15.170336,15.324145,15.500046,15.558321,15.477608,15.376118,15.296396,14.518913,13.048293,11.844115,11.420859,11.195861,11.160639,11.103197,11.041284,10.960453,10.851888,10.731569,10.624581,10.538973,10.474415,10.431143,10.40412,10.388613,10.379648,10.371384,10.361299,10.346075,10.325054,10.30046,10.275282,10.25372,10.238923,10.230414,10.226874,10.226646,10.226929,10.226341,10.22434,10.220833,10.216627,10.213128,10.209911,10.207146,10.205235,10.203961,10.202987,10.202242,10.201451,10.199198,10.195908,10.192474,10.189421,10.188823,10.191973,10.19506,10.194672,10.199568,10.20634,10.212208,10.217502,10.223514,10.230385,10.237394,10.2429695,10.24618,10.24662,10.244374,10.240678,10.237191,10.23278,10.22667,10.219047,10.210283,10.201828,10.195362,10.190338,10.182772,10.169259,10.143732,10.102327,10.046724,9.982809,9.917345,9.856038,9.79656,9.736091,9.674004,9.60848,9.539566,9.470206,9.404386,9.343489,9.285229,9.233123,9.187801,9.14794,9.112489,9.081183,9.052122,9.022514,8.992244,8.961587,8.931849,8.904383,8.879573,8.857276,8.834388,8.808075,8.775586,8.735717,8.689358,8.638477,8.584971,8.523149,8.456178,8.390155,8.328207,8.272039,8.221962,8.1751795,8.12622,8.068509,8.001877,7.9301105,7.8595705,7.7966175,7.7453327,7.7052116,7.6706314,7.641494,7.612625,7.579918,7.543727,7.5068817,7.471572,7.439528,7.4134808,7.394617,7.3841085,7.381033,7.382328,7.3869014,7.394834,7.4069877,7.421936,7.4360123,7.445023,7.4462776,7.439827,7.4292445,7.4153857,7.400868,7.39009,7.385885,7.3862348,7.3845525,7.373403,7.3323336,7.253605,7.1454334,7.0218906,6.9117208,6.84358,6.796462,6.7649565,6.738123,6.7076726,6.6702285,6.626782,6.581727,6.542363,6.5064836,6.4727864,6.43999,6.405323,6.3677874,6.329174,6.2918167,6.255358,6.2183447,6.181497,6.1452627,6.109715,6.0751643,6.042683,6.0125103,5.9821563,5.9520783,5.923384,5.8972974,5.8744493,5.8548336,5.838575,5.822787,5.8083324
22.071056,22.030142,21.97344,21.896788,21.814083,21.74208,21.685505,21.640287,21.601906,21.561155,21.50987,21.451675,21.393562,21.337912,21.285011,21.23507,21.184309,21.125397,21.065569,21.005535,20.948683,20.900799,20.864138,20.835325,20.810675,20.78672,20.7634,20.740067,20.716324,20.692091,20.666819,20.63842,20.606087,20.569136,20.529974,20.4918,20.457212,20.428488,20.40834,20.391922,20.381628,20.370577,20.347797,20.304977,20.237854,20.144016,20.02149,19.875683,19.68373,19.44788,19.2379,19.113932,19.03379,18.968895,18.901043,18.81905,18.720602,18.61429,18.511465,18.417612,18.32974,18.241295,18.152885,18.064243,17.978443,17.898035,17.821007,17.74502,17.660053,17.576294,17.502926,17.447159,17.412853,17.39628,17.384884,17.374466,17.359524,17.333965,17.299334,17.261797,17.223978,17.183155,17.133469,17.062601,16.963385,16.840899,16.707645,16.57369,16.442469,16.30784,16.151321,15.9668045,15.771235,15.587861,15.431425,15.312635,15.250535,15.22109,15.208548,15.2013645,15.187344,15.164938,15.145011,15.132487,15.126986,15.129024,15.135636,15.14455,15.152022,15.152649,15.14484,15.133362,15.137436,15.204497,15.389399,15.543581,15.519792,15.452454,15.368426,15.331234,14.522768,13.007384,11.806137,11.41267,11.205862,11.158297,11.100165,11.036946,10.952384,10.840615,10.720118,10.616019,10.534552,10.473787,10.433377,10.407611,10.3918,10.382478,10.374529,10.363308,10.34788,10.327402,10.303988,10.280423,10.260513,10.247016,10.239381,10.2363615,10.236314,10.236526,10.235716,10.233391,10.229464,10.224718,10.220505,10.216284,10.212292,10.209116,10.206933,10.205825,10.205949,10.206998,10.207638,10.206294,10.204797,10.199778,10.192209,10.189872,10.19478,10.201445,10.208645,10.214629,10.219447,10.224003,10.22897,10.234687,10.240659,10.245453,10.248328,10.248919,10.247249,10.244364,10.24162,10.237768,10.231947,10.224325,10.215509,10.207213,10.201235,10.1968565,10.18955,10.175306,10.147682,10.10313,10.044587,9.979413,9.914827,9.855555,9.798216,9.739262,9.677304,9.610643,9.540033,9.468937,9.401372,9.33865,9.278135,9.223411,9.175468,9.133354,9.096281,9.064117,9.034793,9.005541,8.976074,8.946616,8.9180355,8.891235,8.866626,8.844258,8.821361,8.79529,8.763122,8.723526,8.676001,8.621428,8.564348,8.50469,8.440436,8.375804,8.315734,8.261906,8.212599,8.165812,8.116159,8.057617,7.9901876,7.917803,7.8468523,7.783668,7.732367,7.6926327,7.658889,7.6310596,7.603563,7.5719743,7.5365534,7.50006,7.46461,7.431796,7.404026,7.3824244,7.368444,7.3620443,7.361099,7.3645496,7.3721995,7.384921,7.4007254,7.415657,7.4255524,7.4276857,7.4218626,7.411459,7.3972197,7.3818216,7.3699636,7.36489,7.3646526,7.3622184,7.3497105,7.3070707,7.227242,7.1191454,7.000083,6.898194,6.8363924,6.794223,6.76721,6.742301,6.710837,6.671031,6.6254644,6.579096,6.539713,6.5050564,6.4725227,6.440756,6.407037,6.3703513,6.3324175,6.2954383,6.2590437,6.2217216,6.184125,6.146841,6.110207,6.0747457,6.041602,6.011025,5.980373,5.949461,5.9200697,5.8937483,5.8708367,5.8512263,5.835044,5.819436,5.8052797
21.49364,21.47923,21.45415,21.41724,21.375513,21.340237,21.314474,21.294802,21.277609,21.255022,21.221554,21.180588,21.13846,21.097576,21.058315,21.020721,20.981474,20.93952,20.892387,20.843035,20.79563,20.754444,20.721447,20.69453,20.670794,20.647686,20.626335,20.606407,20.587297,20.568426,20.548536,20.525486,20.498642,20.467129,20.432962,20.398615,20.366205,20.338198,20.317604,20.300709,20.291725,20.284481,20.26843,20.234432,20.175875,20.08837,19.970352,19.82281,19.668564,19.46628,19.251968,19.120653,19.046444,18.99347,18.938034,18.865068,18.767662,18.656914,18.551659,18.459723,18.37299,18.282413,18.189144,18.093855,18.000359,17.912577,17.830385,17.751486,17.669233,17.587637,17.514576,17.458632,17.425709,17.413996,17.41223,17.411736,17.40652,17.38907,17.360767,17.327948,17.292572,17.250921,17.196047,17.114574,16.999805,16.859112,16.70891,16.562721,16.424843,16.288223,16.132349,15.954452,15.76658,15.589993,15.44455,15.341053,15.279466,15.248867,15.230839,15.216093,15.197336,15.173874,15.153322,15.140856,15.135716,15.137606,15.144204,15.153349,15.160471,15.15972,15.150508,15.137963,15.154445,15.249922,15.425797,15.540197,15.499378,15.437084,15.422683,15.389022,14.548502,12.988958,11.770308,11.399166,11.211015,11.152921,11.095258,11.03211,10.945973,10.833345,10.714269,10.613691,10.536261,10.478805,10.440462,10.414872,10.398875,10.389083,10.379321,10.367065,10.351339,10.331457,10.309369,10.287573,10.269359,10.257009,10.2499275,10.246972,10.246532,10.246109,10.244618,10.241675,10.237213,10.231968,10.227158,10.222105,10.217101,10.212821,10.209756,10.208406,10.209136,10.211613,10.214575,10.207275,10.198687,10.195221,10.195865,10.198586,10.203449,10.209528,10.216534,10.222561,10.227255,10.231286,10.23535,10.23996,10.244818,10.248715,10.251102,10.251692,10.250451,10.248217,10.246065,10.242642,10.237064,10.229517,10.220876,10.213091,10.208001,10.204629,10.197894,10.183149,10.153568,10.105808,10.044022,9.977087,9.912747,9.854871,9.799206,9.741567,9.679903,9.6125965,9.540924,9.468632,9.399643,9.335233,9.2723875,9.214754,9.16375,9.118869,9.079642,9.046131,9.016184,8.986969,8.958059,8.929446,8.901621,8.875256,8.850826,8.828483,8.80577,8.780167,8.748606,8.70949,8.662078,8.607243,8.549816,8.489613,8.426698,8.364546,8.306868,8.254987,8.206932,8.159772,8.109125,8.0494,7.980813,7.907438,7.8357096,7.771953,7.7203074,7.680606,7.6472898,7.6203356,7.5938997,7.5633874,7.5289907,7.4933047,7.4583106,7.4253416,7.396446,7.3726625,7.3556833,7.346291,7.3432603,7.345517,7.3526144,7.365409,7.3815126,7.396839,7.407372,7.4103837,7.405383,7.395392,7.38107,7.365114,7.352435,7.3465977,7.3457236,7.3424315,7.328362,7.284435,7.2040987,7.09693,6.98381,6.890344,6.831751,6.7939568,6.770228,6.746398,6.7137074,6.6717434,6.6245737,6.577631,6.538551,6.5047717,6.473173,6.44231,6.4094462,6.373514,6.33617,6.2995644,6.2631254,6.225239,6.1866035,6.148,6.1100507,6.0735073,6.0395923,6.0085516,5.9775863,5.946541,5.91656,5.8896904,5.8668556,5.847351,5.8312325,5.815789,5.8019056
20.876257,20.880718,20.879177,20.871479,20.860611,20.853176,20.850307,20.849056,20.8468,20.837551,20.81903,20.79508,20.771141,20.747978,20.725027,20.702862,20.679136,20.651386,20.618145,20.5822,20.54663,20.514208,20.486523,20.462666,20.440554,20.418644,20.399048,20.381973,20.366985,20.353323,20.33915,20.322233,20.302055,20.27761,20.250526,20.22254,20.195063,20.17063,20.153324,20.141891,20.135738,20.12927,20.119076,20.097893,20.052994,19.978727,19.873423,19.736973,19.589611,19.430004,19.262955,19.126879,19.06148,19.019913,18.975933,18.912374,18.821198,18.712137,18.603634,18.505632,18.411697,18.313745,18.21197,18.110859,18.013964,17.922092,17.835474,17.752954,17.668392,17.585691,17.512854,17.459326,17.431578,17.42729,17.434444,17.44355,17.450253,17.450317,17.44022,17.42201,17.398043,17.361868,17.302752,17.20407,17.057816,16.889786,16.722702,16.562342,16.415321,16.27449,16.118187,15.94268,15.758375,15.587703,15.450223,15.352399,15.293718,15.262602,15.245054,15.231012,15.212439,15.188882,15.167927,15.155171,15.150097,15.152538,15.1595955,15.168444,15.174166,15.171215,15.160141,15.149402,15.175543,15.304263,15.457267,15.523758,15.489756,15.428465,15.4791,15.451354,14.585112,12.977035,11.73169,11.38077,11.210922,11.147785,11.088227,11.025394,10.939563,10.827515,10.710876,10.614339,10.5411625,10.487112,10.450748,10.425484,10.409137,10.39838,10.386643,10.373103,10.356891,10.33753,10.316835,10.296949,10.2805395,10.26932,10.262634,10.259462,10.258259,10.256832,10.25436,10.250633,10.245655,10.240082,10.2349205,10.229374,10.223709,10.218648,10.214952,10.213434,10.213772,10.213189,10.205933,10.202192,10.200744,10.200663,10.202476,10.205939,10.210876,10.216927,10.224056,10.230249,10.234841,10.23828,10.241276,10.244538,10.247972,10.250641,10.252193,10.252436,10.251305,10.2494335,10.247586,10.2443695,10.238866,10.231358,10.223024,10.216042,10.21222,10.21023,10.204388,10.189353,10.1579075,10.106842,10.0416,9.972663,9.908337,9.851684,9.797679,9.741586,9.680645,9.613312,9.541305,9.468477,9.39852,9.332678,9.267479,9.206626,9.151976,9.103573,9.061397,9.025766,8.994519,8.96467,8.935673,8.907331,8.879816,8.853606,8.829283,8.8070755,8.784835,8.760189,8.729962,8.692216,8.645826,8.591615,8.534792,8.474909,8.412727,8.353164,8.298734,8.2491,8.202176,8.155365,8.103689,8.042821,7.97305,7.8984804,7.825536,7.7605915,7.7079864,7.6677027,7.6342306,7.6076865,7.582023,7.5525646,7.519436,7.484978,7.4510126,7.418562,7.3892837,7.364073,7.3447742,7.3329115,7.328102,7.3292418,7.3356724,7.348254,7.3643265,7.379862,7.3910913,7.3953,7.391638,7.3826075,7.3687363,7.3527164,7.339514,7.332945,7.331251,7.326741,7.3106327,7.2651567,7.1843414,7.0793753,6.9726458,6.88612,6.8299356,6.796522,6.775237,6.751718,6.7174664,6.673422,6.624935,6.5776978,6.539015,6.506049,6.4751844,6.444929,6.412644,6.3772793,6.340396,6.304033,6.267406,6.228802,6.1887016,6.1483064,6.1087017,6.0708313,6.036049,6.0045853,5.9734197,5.9423456,5.9124284,5.885314,5.8620996,5.842805,5.8268394,5.811435,5.79776
20.275501,20.295372,20.30896,20.315098,20.316418,20.320543,20.330814,20.34557,20.361395,20.371025,20.365757,20.354788,20.342993,20.330893,20.318466,20.306381,20.293045,20.276175,20.254623,20.230335,20.20543,20.181683,20.160345,20.141346,20.12305,20.10405,20.086348,20.070518,20.056684,20.04464,20.032995,20.019815,20.004591,19.986675,19.967583,19.948908,19.932142,19.916521,19.894346,19.854706,19.849154,19.878992,19.892918,19.872223,19.843512,19.788555,19.703846,19.588297,19.45526,19.326014,19.201868,19.089476,19.031158,18.980684,18.930101,18.8716,18.801392,18.722872,18.635538,18.533901,18.437372,18.334251,18.225426,18.11515,18.009172,17.912207,17.825672,17.745167,17.661959,17.579374,17.506865,17.454159,17.42885,17.43068,17.446222,17.470934,17.499336,17.519363,17.529728,17.534542,17.529676,17.50261,17.44016,17.323261,17.15041,16.946085,16.747707,16.574425,16.4174,16.270874,16.112522,15.938135,15.7563095,15.588863,15.456154,15.363905,15.306924,15.276552,15.260643,15.24867,15.231875,15.209731,15.189971,15.178359,15.174517,15.178062,15.1856,15.1938305,15.197677,15.192028,15.178762,15.170566,15.204717,15.369301,15.49847,15.510824,15.4827795,15.429411,15.539946,15.5164175,14.628271,12.968826,11.68902,11.354935,11.202206,11.137594,11.077589,11.015626,10.931471,10.821703,10.708422,10.616335,10.547514,10.496918,10.462448,10.438513,10.422047,10.409507,10.395961,10.381128,10.364401,10.3455515,10.326302,10.30842,10.2938795,10.28379,10.277422,10.273908,10.271758,10.269144,10.265555,10.261013,10.255632,10.249963,10.244748,10.239162,10.233872,10.228937,10.225184,10.220661,10.212849,10.207707,10.203365,10.2034,10.20515,10.206808,10.208948,10.212462,10.217439,10.223505,10.230742,10.237055,10.241464,10.244173,10.245938,10.247665,10.249455,10.250648,10.251081,10.250687,10.249385,10.247583,10.245763,10.242491,10.236879,10.229366,10.221442,10.215503,10.213277,10.213007,10.208399,10.193398,10.16025,10.106394,10.037865,9.966578,9.902218,9.846663,9.794282,9.739892,9.680036,9.613227,9.541558,9.468861,9.398481,9.331616,9.264291,9.200197,9.141635,9.089264,9.043588,9.005244,8.972122,8.941028,8.911299,8.882622,8.854918,8.828555,8.804234,8.782212,8.7606325,8.737278,8.708886,8.673111,8.628578,8.575969,8.520063,8.461074,8.40005,8.342321,8.290211,8.243305,8.198735,8.151943,8.099783,8.038048,7.96721,7.8913765,7.816906,7.7502775,7.6961513,7.6547413,7.620597,7.5940194,7.568824,7.540289,7.5084743,7.475428,7.442816,7.4113617,7.38231,7.3563714,7.335452,7.321681,7.315398,7.315463,7.32104,7.3330355,7.3486624,7.364145,7.3760624,7.3817053,7.3798285,7.372245,7.3593426,7.343755,7.3303585,7.3231316,7.3204527,7.31438,7.2957487,7.2485476,7.167613,7.065075,6.963669,6.883292,6.831223,6.801277,6.7814445,6.7575,6.7215014,6.6756487,6.626302,6.5791836,6.5410576,6.508817,6.4784565,6.448496,6.4164796,6.3814373,6.344832,6.308544,6.2715406,6.231964,6.190125,6.1475825,6.105984,6.066619,6.030928,5.9991436,5.967941,5.9370666,5.9074726,5.880593,5.8573503,5.837847,5.821882,5.806485,5.792858
19.661821,19.686766,19.705359,19.717056,19.72343,19.7308,19.742819,19.759336,19.777948,19.79167,19.79367,19.791409,19.789932,19.78982,19.790361,19.791603,19.791838,19.790186,19.785583,19.777971,19.766817,19.75123,19.731205,19.708027,19.682178,19.656322,19.636242,19.624475,19.621216,19.623959,19.62725,19.627888,19.625608,19.617702,19.603817,19.582829,19.55371,19.517677,19.47599,19.42786,19.420393,19.459698,19.521297,19.560629,19.548462,19.50881,19.44681,19.359833,19.25764,19.15253,19.04825,18.95734,18.910492,18.865736,18.812944,18.757637,18.702042,18.645592,18.582436,18.50351,18.413834,18.314104,18.206915,18.096457,17.990192,17.895054,17.81187,17.734287,17.6545,17.574678,17.502907,17.449787,17.425442,17.431255,17.453552,17.49393,17.539412,17.577147,17.597618,17.59869,17.583149,17.552206,17.495066,17.402828,17.241322,17.021519,16.793898,16.59901,16.437704,16.28641,16.125587,15.951352,15.771046,15.6046505,15.472891,15.383486,15.329824,15.299419,15.284185,15.27394,15.25947,15.240045,15.223077,15.214123,15.212882,15.218515,15.227154,15.234922,15.236774,15.228313,15.212498,15.206711,15.253042,15.415755,15.523788,15.515898,15.484011,15.439336,15.603875,15.584223,14.673849,12.960591,11.642978,11.322672,11.185012,11.121494,11.063815,11.004037,10.922036,10.815112,10.70566,10.617872,10.55308,10.505719,10.472934,10.450955,10.434959,10.420784,10.405931,10.390143,10.373102,10.354822,10.336975,10.320996,10.308227,10.29924,10.293253,10.28952,10.286612,10.283037,10.278554,10.273561,10.268457,10.263622,10.259341,10.254491,10.246808,10.23779,10.229321,10.220966,10.212433,10.20786,10.208201,10.20924,10.21076,10.212696,10.215042,10.218431,10.223243,10.22917,10.236295,10.242512,10.246578,10.248502,10.249079,10.24938,10.249658,10.249494,10.248886,10.247885,10.2463875,10.244568,10.242642,10.239186,10.233347,10.22576,10.218203,10.213258,10.212557,10.213949,10.210627,10.195802,10.161821,10.105894,10.034499,9.961138,9.896677,9.842055,9.791042,9.738184,9.679367,9.613207,9.542172,9.47001,9.399647,9.332235,9.26333,9.196514,9.134462,9.07843,9.029399,8.988293,8.953116,8.920449,8.889585,8.860176,8.83201,8.805401,8.781134,8.7594185,8.738602,8.716581,8.690037,8.656247,8.613683,8.562902,8.507939,8.449956,8.390132,8.333725,8.282978,8.237055,8.193319,8.148482,8.097151,8.034661,7.962932,7.8861017,7.810121,7.741619,7.6856456,7.6426945,7.6074247,7.5802917,7.555067,7.527032,7.496194,7.4643664,7.433107,7.402895,7.374623,7.348759,7.327147,7.3122697,7.3049684,7.304117,7.308758,7.3198776,7.334726,7.3498836,7.362338,7.369399,7.3693957,7.363457,7.3517838,7.3369308,7.3235793,7.3157587,7.311991,7.304267,7.283397,7.2345514,7.1537037,7.0538235,6.9575195,6.882986,6.8352385,6.807642,6.7881937,6.7631335,6.725358,6.678144,6.6284885,6.5819144,6.544477,6.51282,6.4827223,6.452742,6.4206595,6.3856344,6.3490295,6.3125525,6.2749386,6.2341366,6.1903515,6.145501,6.101818,6.060994,6.02454,5.992662,5.961662,5.9312553,5.9021993,5.8758335,5.852928,5.8333626,5.817174,5.80153,5.7877183
19.084515,19.10556,19.122322,19.135391,19.144436,19.151909,19.159487,19.167744,19.176353,19.181316,19.183678,19.184406,19.187912,19.194534,19.202671,19.212011,19.221,19.229198,19.235548,19.24069,19.240797,19.230915,19.209856,19.18016,19.146225,19.113493,19.08976,19.079182,19.082499,19.095469,19.109371,19.12021,19.127829,19.128128,19.11935,19.098152,19.060867,19.011068,18.963457,18.932331,18.921726,18.94009,19.017727,19.113342,19.143103,19.146105,19.12069,19.060469,18.977201,18.883936,18.791708,18.719233,18.688133,18.667173,18.634823,18.595345,18.549707,18.498104,18.444504,18.39027,18.31562,18.229866,18.13628,18.040493,17.949707,17.868372,17.795166,17.724285,17.648668,17.570719,17.499466,17.446058,17.421076,17.42743,17.45362,17.499638,17.549667,17.58874,17.598053,17.576326,17.5408,17.50194,17.453032,17.393011,17.278088,17.083433,16.849323,16.639921,16.472189,16.320505,16.159077,15.984754,15.804891,15.63823,15.504608,15.413265,15.361872,15.332957,15.31781,15.308294,15.296244,15.280334,15.26727,15.262086,15.264728,15.273865,15.2842455,15.292877,15.294483,15.283438,15.265014,15.260931,15.32192,15.451056,15.535984,15.53414,15.497616,15.466677,15.668232,15.645702,14.704037,12.9420185,11.596193,11.285949,11.160442,11.099629,11.046128,10.991562,10.91184,10.806827,10.701646,10.617655,10.556283,10.5116825,10.481112,10.461043,10.445625,10.430696,10.4151325,10.398817,10.381672,10.363933,10.347261,10.332858,10.3216,10.31364,10.308141,10.304451,10.301153,10.297288,10.292853,10.28763,10.281402,10.274925,10.269252,10.262928,10.253135,10.241665,10.230198,10.221293,10.217554,10.215623,10.214889,10.215274,10.216563,10.218324,10.220471,10.223516,10.227989,10.23361,10.240387,10.246275,10.249867,10.251047,10.250663,10.24987,10.24899,10.247826,10.246497,10.245149,10.243646,10.241931,10.239977,10.2364,10.230353,10.22267,10.215364,10.211163,10.211605,10.214265,10.211991,10.197422,10.163408,10.106123,10.032616,9.957863,9.893252,9.839341,9.78926,9.737457,9.679274,9.613501,9.543045,9.471576,9.401567,9.334095,9.264338,9.19568,9.131069,9.072252,9.020591,8.977213,8.940258,8.906121,8.874118,8.843953,8.815374,8.788662,8.764622,8.743359,8.723279,8.702377,8.677242,8.644941,8.603795,8.554211,8.499903,8.442571,8.383568,8.328033,8.277897,8.231448,8.186601,8.142744,8.092686,8.031389,7.9596033,7.8819532,7.804748,7.734478,7.6765947,7.6318636,7.5951014,7.566869,7.5410337,7.512951,7.48259,7.4516344,7.421586,7.3927155,7.3656874,7.340671,7.3193245,7.3042145,7.296418,7.294906,7.298664,7.3087444,7.322564,7.33709,7.3497133,7.3578076,7.359329,7.354846,7.3443327,7.3303013,7.31714,7.3088045,7.3040557,7.294592,7.2685432,7.218943,7.1405125,7.044562,6.953589,6.8847284,6.840289,6.8141656,6.7942963,6.767745,6.728433,6.680459,6.6310654,6.5853624,6.5486455,6.5173483,6.487259,6.456979,6.424528,6.3892226,6.352337,6.3154116,6.2770214,6.234908,6.189174,6.1421413,6.0965805,6.05451,6.017545,5.985824,5.9552317,5.925467,5.897094,5.8712916,5.8488092,5.829484,5.8130684,5.797031,5.7828484
18.625364,18.641535,18.65469,18.664494,18.670416,18.674223,18.677523,18.680895,18.684113,18.685299,18.68493,18.683277,18.68271,18.683636,18.685421,18.688213,18.691648,18.695154,18.696627,18.699875,18.700497,18.692097,18.673742,18.64767,18.619902,18.592535,18.569012,18.552826,18.546198,18.547283,18.550667,18.553984,18.55673,18.557283,18.555313,18.549433,18.536568,18.515089,18.488342,18.461699,18.448378,18.460686,18.500746,18.56581,18.64463,18.7061,18.72432,18.686092,18.60757,18.520544,18.451696,18.410976,18.39333,18.386251,18.380373,18.366516,18.338636,18.298105,18.25024,18.198376,18.142557,18.077461,18.005705,17.932842,17.865282,17.805964,17.752193,17.697498,17.63069,17.55454,17.48293,17.4284,17.400154,17.402525,17.428095,17.467182,17.512373,17.534983,17.52215,17.491407,17.46244,17.427597,17.381407,17.314877,17.240147,17.092743,16.881796,16.684006,16.509329,16.361153,16.203354,16.030952,15.851353,15.683498,15.546881,15.451167,15.396286,15.369651,15.35481,15.345626,15.336121,15.324533,15.316785,15.316983,15.324834,15.338608,15.353822,15.368065,15.3727665,15.3593235,15.337271,15.332205,15.40463,15.501782,15.555538,15.550665,15.519047,15.511724,15.720432,15.681186,14.702848,12.90849,11.5509205,11.245526,11.129277,11.071856,11.023142,10.976398,10.900311,10.796898,10.695689,10.615041,10.556426,10.514023,10.486514,10.4682,10.453195,10.438369,10.422681,10.406192,10.389033,10.371648,10.355757,10.342465,10.3323555,10.325285,10.320343,10.316869,10.313598,10.308715,10.302953,10.296237,10.287469,10.277285,10.268166,10.2587805,10.251116,10.24398,10.236788,10.230247,10.224992,10.221958,10.22048,10.220241,10.221022,10.222439,10.22431,10.227005,10.231105,10.236345,10.242656,10.248105,10.251216,10.251793,10.250725,10.249203,10.247524,10.245694,10.24393,10.242476,10.241168,10.239741,10.237947,10.234434,10.228358,10.220638,10.213491,10.209734,10.210849,10.214274,10.212706,10.198615,10.164767,10.106897,10.032396,9.95697,9.892332,9.838887,9.7892475,9.737878,9.679779,9.614004,9.543899,9.473117,9.403705,9.336572,9.266659,9.197083,9.130971,9.070447,9.017138,8.972289,8.934155,8.899025,8.866253,8.8356285,8.806904,8.780324,8.756656,8.735888,8.7163725,8.696192,8.671777,8.640147,8.599534,8.550186,8.495925,8.438691,8.380114,8.324766,8.274467,8.227695,8.181772,8.135311,8.085429,8.027128,7.956507,7.8783426,7.8001776,7.728434,7.6688046,7.622296,7.5838494,7.554121,7.5272326,7.4986973,7.468472,7.4381676,7.4092364,7.3817463,7.356228,7.3325405,7.3120866,7.2973313,7.2893915,7.2873783,7.2902775,7.299158,7.311656,7.3251143,7.3372936,7.345707,7.348097,7.344544,7.3350306,7.3218684,7.3090725,7.3005486,7.294548,7.2814074,7.248043,7.1988187,7.125901,7.0353336,6.949324,6.885711,6.844036,6.8188148,6.798193,6.7702527,6.729972,6.681975,6.6333795,6.588754,6.5527005,6.5215178,6.491215,6.4604545,6.427454,6.391671,6.3543267,6.3168287,6.2776694,6.2344065,6.187049,6.138255,6.091206,6.0481825,6.010931,5.9794893,5.9493504,5.920194,5.8924303,5.8671107,5.844961,5.8258076,5.80933,5.793035,5.7784505
18.243876,18.255316,18.264187,18.270496,18.273262,18.273682,18.273094,18.272223,18.271275,18.269009,18.266054,18.262608,18.260515,18.259659,18.259127,18.259098,18.259687,18.260918,18.261414,18.260689,18.256767,18.247496,18.23226,18.211811,18.18739,18.161558,18.138636,18.122519,18.115372,18.115461,18.117722,18.119951,18.121801,18.122313,18.121767,18.119783,18.112606,18.096285,18.074774,18.052452,18.038507,18.043814,18.074207,18.122015,18.169538,18.203741,18.225868,18.216677,18.181616,18.138124,18.102173,18.080908,18.072964,18.070354,18.0666,18.056843,18.038345,18.012249,17.981583,17.94797,17.909842,17.865152,17.816124,17.767593,17.724901,17.689686,17.657951,17.62236,17.5724,17.507263,17.435528,17.377062,17.346045,17.341892,17.360773,17.387466,17.418352,17.43244,17.416857,17.385164,17.356289,17.32413,17.283077,17.224657,17.151768,17.03589,16.871078,16.694738,16.541039,16.39577,16.246672,16.08009,15.901991,15.732723,15.592468,15.491809,15.430965,15.3979225,15.382811,15.375946,15.369646,15.36356,15.36327,15.371412,15.385938,15.405334,15.433846,15.461926,15.471381,15.454959,15.425867,15.414925,15.495727,15.556056,15.570246,15.560558,15.540504,15.550604,15.741776,15.677443,14.677408,12.870547,11.507248,11.201828,11.093376,11.039341,10.995872,10.955605,10.88633,10.78698,10.687508,10.609985,10.553494,10.512811,10.4879055,10.47148,10.457498,10.4434395,10.428201,10.41189,10.394833,10.377615,10.362117,10.349478,10.340142,10.333794,10.329374,10.325829,10.322818,10.3136,10.30057,10.289693,10.282202,10.275162,10.2690525,10.262805,10.256143,10.24902,10.241738,10.234949,10.229424,10.225913,10.223919,10.223253,10.223714,10.224903,10.226551,10.228914,10.232611,10.237417,10.243219,10.248237,10.250976,10.251178,10.249716,10.247755,10.245569,10.2433195,10.241293,10.23985,10.238839,10.237831,10.23637,10.23313,10.227246,10.219612,10.212535,10.208903,10.210231,10.213963,10.212768,10.199401,10.165913,10.108221,10.03384,9.958523,9.8941,9.840928,9.791276,9.739719,9.68118,9.614998,9.544912,9.47461,9.405808,9.3391905,9.269594,9.199848,9.133182,9.071996,9.018055,8.972607,8.934005,8.898514,8.865511,8.834869,8.806335,8.780098,8.75688,8.736541,8.717334,8.697385,8.672953,8.641034,8.599971,8.550097,8.495296,8.437665,8.379026,8.323446,8.272639,8.225127,8.178277,8.131009,8.080163,8.021883,7.952799,7.875225,7.7961426,7.7233043,7.662279,7.614239,7.574174,7.542822,7.514678,7.4855156,7.455311,7.4256063,7.3977737,7.371641,7.347635,7.325343,7.305912,7.291624,7.2835617,7.280995,7.282921,7.2903676,7.3012094,7.313077,7.324095,7.3320446,7.3345833,7.3312864,7.322707,7.3105483,7.298399,7.2902203,7.2815967,7.260442,7.2273464,7.1785507,7.110203,7.024746,6.9432793,6.8842535,6.8450694,6.820449,6.7991076,6.7701974,6.7296596,6.6823454,6.6349726,6.5915265,6.55607,6.5248404,6.494217,6.462955,6.429397,6.3930864,6.3552256,6.3171744,6.2773867,6.233285,6.1848087,6.1347837,6.086668,6.042983,6.00558,5.9743958,5.9446106,5.915858,5.888455,5.8634033,5.841447,5.822421,5.805887,5.7893934,5.774511
17.862156,17.8703,17.876581,17.881535,17.883984,17.884487,17.883728,17.881823,17.878765,17.87424,17.868961,17.86324,17.858892,17.855577,17.852205,17.848955,17.84609,17.843216,17.839228,17.833782,17.826004,17.81524,17.801403,17.784363,17.764635,17.743692,17.724169,17.709373,17.701841,17.70069,17.701927,17.704163,17.707064,17.710491,17.71436,17.71527,17.709785,17.69823,17.681755,17.663763,17.650604,17.65165,17.672367,17.707129,17.742794,17.77058,17.78774,17.788555,17.776657,17.760197,17.746195,17.737537,17.733122,17.729195,17.72241,17.713705,17.700977,17.683887,17.664936,17.645058,17.621677,17.5946,17.565922,17.53999,17.521229,17.509779,17.500065,17.48455,17.453224,17.40313,17.340645,17.281918,17.244167,17.23315,17.238802,17.249659,17.26156,17.267374,17.266054,17.249792,17.215275,17.183842,17.147522,17.099232,17.04207,16.943611,16.805399,16.66723,16.543404,16.42049,16.278385,16.122223,15.951531,15.782195,15.638947,15.5330715,15.466277,15.426934,15.407053,15.397859,15.392286,15.389872,15.395512,15.412142,15.439292,15.480164,15.530988,15.569143,15.573497,15.545763,15.507069,15.493925,15.566836,15.59187,15.578256,15.567909,15.553579,15.563688,15.738951,15.650945,14.624828,12.818691,11.465323,11.155914,11.052966,11.001661,10.9644375,10.927611,10.867605,10.774998,10.675304,10.602535,10.548479,10.508996,10.486304,10.47133,10.457836,10.444175,10.4293585,10.413499,10.39682,10.37991,10.364604,10.352201,10.343231,10.337417,10.333066,10.32335,10.315355,10.306704,10.297195,10.288349,10.28097,10.274561,10.269077,10.263478,10.257365,10.250657,10.24364,10.236929,10.231275,10.22752,10.225275,10.224457,10.224873,10.226067,10.227651,10.229779,10.233107,10.237465,10.242751,10.247342,10.249746,10.249658,10.247921,10.245627,10.242998,10.240375,10.238113,10.236689,10.236014,10.235527,10.23454,10.231722,10.226207,10.218807,10.211806,10.208178,10.209515,10.213287,10.2122555,10.199389,10.1664505,10.109438,10.035773,9.961011,9.896924,9.843845,9.793817,9.741581,9.682186,9.615286,9.544967,9.474988,9.406799,9.340763,9.27174,9.202268,9.135656,9.074525,9.0206785,8.975294,8.93679,8.901436,8.868635,8.83835,8.810314,8.784654,8.762057,8.742256,8.723359,8.703526,8.678776,8.646084,8.6039915,8.553034,8.497232,8.438749,8.37966,8.323475,8.2718315,8.223338,8.175353,8.126969,8.075202,8.0158615,7.948713,7.872221,7.7921147,7.718411,7.6561766,7.6066613,7.5648665,7.531631,7.501968,7.4720354,7.441867,7.412897,7.3863506,7.361729,7.3394117,7.31872,7.3005457,7.2869735,7.279009,7.2761,7.2772512,7.283386,7.2925653,7.302649,7.312093,7.3191633,7.321733,7.3179626,7.309265,7.298462,7.2878256,7.2777624,7.264127,7.2407384,7.2104673,7.1622705,7.0952587,7.013256,6.9362235,6.881158,6.8449187,6.8206434,6.7985497,6.7689347,6.72864,6.6825247,6.6366878,6.594469,6.559492,6.527996,6.4968624,6.464975,6.4307423,6.393764,6.3552566,6.3165693,6.2761497,6.231317,6.1819553,6.1309376,6.0819607,6.037813,6.000413,5.9695883,5.9402246,5.911876,5.884795,5.859953,5.838136,5.819231,5.80266,5.786004,5.77088
17.487648,17.491982,17.494915,17.497187,17.497366,17.495646,17.492445,17.487715,17.481518,17.474066,17.465937,17.457418,17.450155,17.443779,17.437313,17.431004,17.425106,17.419043,17.411797,17.403313,17.393257,17.381584,17.368416,17.353336,17.336752,17.319466,17.303263,17.290625,17.283657,17.281757,17.281734,17.282627,17.284101,17.286177,17.289246,17.292221,17.292864,17.289663,17.282932,17.275164,17.27023,17.272964,17.286352,17.308279,17.332321,17.352379,17.365282,17.370098,17.370045,17.369415,17.37004,17.370789,17.369646,17.366718,17.35992,17.349798,17.336964,17.32277,17.30904,17.296356,17.282652,17.267698,17.252815,17.240768,17.234322,17.235703,17.243223,17.24544,17.232597,17.19971,17.149935,17.097797,17.060207,17.042362,17.033825,17.030289,17.025702,17.016943,17.01082,17.008612,17.003698,16.995941,16.974533,16.929798,16.861727,16.769468,16.668015,16.576447,16.492802,16.404715,16.291763,16.148085,15.988705,15.829729,15.6866255,15.57769,15.50571,15.459927,15.434424,15.422091,15.416801,15.417495,15.427416,15.448761,15.482153,15.541436,15.609268,15.657367,15.665744,15.63661,15.594542,15.580126,15.590845,15.593112,15.581234,15.567957,15.5537405,15.5460415,15.704437,15.594816,14.532248,12.742666,11.422446,11.105375,11.006964,10.95786,10.926548,10.8932495,10.841466,10.75978,10.66474,10.590239,10.537522,10.498824,10.477533,10.464015,10.452017,10.439881,10.426216,10.411193,10.394902,10.378082,10.363009,10.349798,10.338803,10.330727,10.324254,10.316067,10.308224,10.300245,10.292053,10.284153,10.27713,10.271186,10.266148,10.261007,10.255388,10.249173,10.2426,10.236248,10.230854,10.227281,10.225242,10.224755,10.22557,10.227121,10.228887,10.230911,10.233879,10.237701,10.24236,10.246361,10.248265,10.247715,10.245467,10.24256,10.239182,10.235844,10.233019,10.231325,10.230778,10.230709,10.23016,10.227789,10.222704,10.215659,10.208963,10.205574,10.207039,10.210844,10.209873,10.1972885,10.164799,10.108519,10.035746,9.961734,9.898074,9.845082,9.794675,9.741689,9.681368,9.613733,9.543204,9.473599,9.406088,9.340684,9.272341,9.2033825,9.137217,9.076668,9.023542,8.978846,8.940964,8.9062,8.873968,8.844283,8.816883,8.791878,8.769956,8.750744,8.732244,8.71259,8.687512,8.653849,8.61038,8.557999,8.500853,8.441404,8.381443,8.324374,8.27184,8.222402,8.173324,8.123761,8.070899,8.010317,7.942733,7.8674994,7.7883167,7.7135572,7.6501913,7.599296,7.5556965,7.520427,7.4891586,7.4585657,7.4287553,7.400945,7.376103,7.3533134,7.3328657,7.3138723,7.297061,7.284381,7.2767906,7.2738767,7.2746305,7.2797627,7.287448,7.2956967,7.303338,7.309011,7.310568,7.3064194,7.297962,7.286724,7.275334,7.2636027,7.2483892,7.2267237,7.1957135,7.1467285,7.081059,7.0025187,6.9296465,6.878327,6.8447366,6.820394,6.797438,6.76729,6.727654,6.6832085,6.6391973,6.59822,6.563572,6.5315447,6.4996066,6.4668365,6.4317107,6.39386,6.3545504,6.3151813,6.2741547,6.22871,6.178666,6.1268115,6.077073,6.0325766,5.995274,5.964937,5.9361567,5.90831,5.8816013,5.85697,5.835263,5.816479,5.799899,5.7830987,5.7677803
17.127207,17.128786,17.129353,17.129646,17.127985,17.124306,17.1189,17.111748,17.10307,17.093363,17.083014,17.072285,17.062662,17.053885,17.045237,17.037058,17.02946,17.021809,17.01313,17.00344,16.99269,16.981094,16.968878,16.955597,16.94161,16.927414,16.914396,16.904253,16.898376,16.89613,16.894913,16.893986,16.893057,16.89208,16.891865,16.89332,16.895168,16.894539,16.891863,16.888739,16.887428,16.890896,16.901146,16.917027,16.934624,16.950247,16.962881,16.972157,16.97956,16.985382,16.990297,16.994627,16.995659,16.99372,16.987312,16.976044,16.962086,16.948076,16.93568,16.925543,16.916336,16.907204,16.898998,16.89318,16.891945,16.89782,16.909891,16.918743,16.917206,16.899878,16.86682,16.828022,16.796223,16.775667,16.759857,16.745672,16.728703,16.706196,16.685621,16.67949,16.687527,16.691055,16.68016,16.64546,16.586329,16.518297,16.459126,16.413845,16.374466,16.327572,16.255974,16.142874,16.002466,15.857919,15.725642,15.617855,15.543443,15.493072,15.461914,15.4437275,15.43477,15.435442,15.447496,15.4711,15.51621,15.588871,15.654766,15.685232,15.68102,15.657594,15.622591,15.598339,15.571435,15.572704,15.568757,15.552089,15.530567,15.48386,15.625109,15.503333,14.394125,12.642111,11.384725,11.053467,10.956875,10.911075,10.88408,10.855959,10.810643,10.741504,10.6570015,10.577923,10.523118,10.484811,10.463957,10.451463,10.441273,10.43152,10.420085,10.405367,10.388662,10.371167,10.355206,10.341211,10.329555,10.320613,10.313406,10.30748,10.300892,10.293224,10.285059,10.277409,10.270876,10.265428,10.260852,10.256218,10.251141,10.245536,10.239639,10.233986,10.229293,10.226378,10.2250805,10.225434,10.227097,10.229338,10.231464,10.233441,10.236017,10.239185,10.243069,10.246286,10.247466,10.24621,10.243174,10.239359,10.234928,10.230549,10.226827,10.224535,10.2238245,10.223956,10.223681,10.221653,10.216952,10.210409,10.204443,10.201844,10.203873,10.20793,10.206993,10.194356,10.161875,10.105919,10.033793,9.960509,9.897365,9.844591,9.794072,9.740576,9.679497,9.611236,9.5405655,9.471315,9.404332,9.339328,9.271426,9.202881,9.1372795,9.077639,9.025691,8.982162,8.945312,8.911465,8.879997,8.850964,8.8241205,8.799634,8.778262,8.759569,8.741516,8.722183,8.696973,8.662577,8.61784,8.563907,8.505364,8.44492,8.383977,8.326054,8.272838,8.222759,8.17288,8.12226,8.0682125,8.006257,7.9368634,7.8626575,7.785018,7.7090807,7.645213,7.592984,7.5476327,7.5103717,7.477602,7.446642,7.417678,7.3915653,7.3688827,7.3482037,7.329613,7.3121195,7.296426,7.28451,7.277419,7.274819,7.275607,7.280261,7.286904,7.293567,7.299551,7.3036604,7.303184,7.2990294,7.290969,7.2798314,7.267423,7.2545776,7.239255,7.217178,7.183736,7.1333194,7.068432,6.9936666,6.9252987,6.8768516,6.8448052,6.8207197,6.796769,6.7661257,6.727386,6.6848807,6.642832,6.603056,6.568619,6.5359077,6.5029836,6.4691706,6.433016,6.3941603,6.353946,6.313876,6.272235,6.226203,6.1755204,6.122817,6.0723095,6.027548,5.990437,5.9607515,5.932792,5.9056377,5.8794193,5.8550377,5.833419,5.8147464,5.7981644,5.7812276,5.7657356
16.781498,16.781845,16.781542,16.781342,16.779346,16.775303,16.769379,16.761543,16.752094,16.741693,16.730589,16.719053,16.70852,16.698837,16.689531,16.681038,16.67328,16.665611,16.657078,16.647665,16.637455,16.62682,16.616041,16.604696,16.593117,16.581562,16.571074,16.562767,16.557528,16.554752,16.55239,16.5499,16.546955,16.543564,16.540543,16.538671,16.537132,16.534056,16.529919,16.525528,16.522415,16.523567,16.530949,16.54291,16.55564,16.567127,16.577633,16.587591,16.597342,16.605616,16.612587,16.619043,16.622553,16.622387,16.617416,16.607563,16.59477,16.581755,16.570744,16.562412,16.55386,16.545496,16.538345,16.53366,16.533974,16.540552,16.550638,16.559198,16.561878,16.55379,16.53351,16.506302,16.481081,16.462648,16.447233,16.428955,16.406685,16.37881,16.351175,16.334583,16.331085,16.328093,16.319098,16.298248,16.266254,16.231491,16.205673,16.193087,16.186005,16.17515,16.14389,16.074045,15.964885,15.841477,15.728173,15.630585,15.559217,15.50713,15.4714155,15.447708,15.434337,15.432849,15.444646,15.469407,15.525093,15.604559,15.648927,15.648117,15.630509,15.6101465,15.580996,15.547669,15.519967,15.524608,15.524414,15.508629,15.476118,15.397941,15.50086,15.372091,14.23335,12.542679,11.360122,11.007537,10.909069,10.866556,10.842003,10.819657,10.780923,10.720955,10.647206,10.572062,10.511766,10.47134,10.448783,10.436319,10.428192,10.420237,10.408709,10.394079,10.377274,10.359487,10.342872,10.32895,10.318247,10.310252,10.30387,10.297975,10.291493,10.284039,10.2761755,10.26894,10.262934,10.258059,10.254054,10.250064,10.245708,10.240933,10.235973,10.231329,10.227667,10.225752,10.225533,10.227031,10.229785,10.232872,10.235428,10.237361,10.239507,10.241926,10.24492,10.247204,10.247482,10.245343,10.241359,10.236488,10.23088,10.225323,10.22057,10.217514,10.216426,10.216514,10.216314,10.21451,10.2103,10.204695,10.20021,10.199362,10.202858,10.207706,10.20686,10.19375,10.160347,10.103581,10.031161,9.958085,9.895369,9.842894,9.792478,9.738777,9.677285,9.60865,9.537886,9.468817,9.401979,9.33685,9.26881,9.200201,9.134915,9.076158,9.025517,8.983383,8.947746,8.914936,8.884271,8.855797,8.829338,8.805193,8.784221,8.765974,8.748435,8.7296295,8.704659,8.670043,8.624495,8.569245,8.509536,8.4481945,8.386431,8.327932,8.274411,8.224123,8.1738405,8.122393,8.067184,8.003723,7.9324427,7.857818,7.7807293,7.704725,7.640813,7.5878873,7.5408354,7.50161,7.467468,7.4363995,7.4086804,7.384676,7.364459,7.346004,7.3290596,7.3126545,7.2976556,7.286291,7.2798715,7.2781067,7.2796702,7.2846336,7.291034,7.2969217,7.3020763,7.304934,7.3014054,7.2974253,7.289914,7.279829,7.267352,7.253506,7.2367687,7.211423,7.1752763,7.1231666,7.058403,6.9875274,6.923817,6.877321,6.845781,6.8215756,6.796671,6.7657847,6.728138,6.6876225,6.647517,6.608922,6.5746865,6.541314,6.5073853,6.472477,6.4352207,6.395278,6.354072,6.313222,6.2708163,6.223958,6.172336,6.118467,6.0669913,6.021989,5.9852576,5.956523,5.9297585,5.9036493,5.878199,5.854239,5.832785,5.8142505,5.7976637,5.780546,5.764815
16.457012,16.456861,16.456318,16.456142,16.454319,16.450506,16.444836,16.43729,16.428215,16.418282,16.407663,16.396597,16.386429,16.377077,16.36825,16.36048,16.353561,16.346945,16.339666,16.331577,16.32276,16.313583,16.304316,16.294582,16.284721,16.2748,16.265635,16.257994,16.25249,16.248682,16.245022,16.241125,16.236511,16.231274,16.226242,16.222282,16.21889,16.214546,16.20976,16.20472,16.20068,16.199347,16.201727,16.206758,16.212114,16.216455,16.220615,16.225197,16.231213,16.23999,16.250423,16.259354,16.264996,16.267231,16.264881,16.257458,16.246538,16.234913,16.2252,16.218094,16.209093,16.200066,16.192026,16.186178,16.185003,16.190138,16.199554,16.208355,16.213106,16.20914,16.194757,16.17418,16.154533,16.139584,16.126945,16.110725,16.090391,16.064903,16.039944,16.022457,16.012985,16.00657,15.998122,15.984405,15.966567,15.94991,15.941972,15.944988,15.952788,15.962819,15.960285,15.927301,15.857452,15.765899,15.674825,15.595795,15.533504,15.483896,15.44715,15.421899,15.407021,15.403044,15.412056,15.437017,15.490052,15.564666,15.585087,15.569195,15.555655,15.533306,15.501969,15.469128,15.439941,15.43824,15.441435,15.429722,15.388922,15.304737,15.34121,15.205641,14.085059,12.477276,11.355543,10.9744835,10.868141,10.828908,10.804467,10.786047,10.754582,10.700317,10.63325,10.569035,10.5070095,10.463214,10.437007,10.42263,10.414424,10.405795,10.392294,10.378397,10.362653,10.345753,10.329968,10.316791,10.306742,10.299371,10.293455,10.287852,10.281549,10.274313,10.266785,10.260028,10.254639,10.250469,10.247204,10.244055,10.240635,10.2368965,10.233048,10.229551,10.227029,10.226191,10.227077,10.229721,10.233519,10.237389,10.240334,10.242209,10.243919,10.245591,10.247682,10.248994,10.248342,10.245328,10.240429,10.234566,10.227894,10.221283,10.215611,10.211828,10.210268,10.210112,10.20979,10.208111,10.20464,10.200544,10.198361,10.200264,10.206196,10.212406,10.211737,10.197589,10.162077,10.103073,10.029118,9.955513,9.89303,9.840918,9.7907095,9.737075,9.675625,9.606994,9.536229,9.467147,9.400029,9.334191,9.265335,9.19603,9.130576,9.07238,9.022861,8.982057,8.947578,8.915728,8.885771,8.8577,8.831449,8.807482,8.786736,8.768801,8.751745,8.733562,8.709147,8.674779,8.628945,8.5729065,8.512419,8.45038,8.388069,8.32937,8.275981,8.225929,8.175634,8.123624,8.067353,8.002363,7.929333,7.852704,7.775551,7.701195,7.6362624,7.583189,7.5348587,7.493853,7.458432,7.427392,7.4010944,7.3793535,7.3616586,7.3453436,7.3297005,7.313885,7.2991123,7.288074,7.2824626,7.2818756,7.2846875,7.2906713,7.297652,7.3039107,7.30834,7.3089705,7.3040533,7.3004513,7.2938805,7.284749,7.272532,7.257429,7.2378416,7.209102,7.1697736,7.1156487,7.050897,6.9837837,6.924357,6.87932,6.8478613,6.8225737,6.7967095,6.7657614,6.729368,6.6909714,6.652859,6.615409,6.581465,6.5476055,6.512806,6.476876,6.43856,6.397559,6.3553653,6.3136744,6.2703266,6.2223015,6.1692905,6.1138334,6.0611434,6.01589,5.979745,5.952278,5.9270697,5.9023385,5.8779216,5.854556,5.8333464,5.814972,5.7983685,5.781004,5.7649174
16.164967,16.164642,16.16408,16.164007,16.162416,16.158937,16.153713,16.146784,16.13852,16.129545,16.119932,16.109877,16.100624,16.092098,16.084131,16.077347,16.071533,16.066196,16.060436,16.053968,16.046774,16.039145,16.031286,16.022875,16.014273,16.005396,15.996887,15.989314,15.983158,15.978184,15.973297,15.968146,15.962208,15.955576,15.949094,15.943658,15.938916,15.93359,15.928169,15.922426,15.917407,15.914198,15.913396,15.914248,15.915192,15.915387,15.915737,15.91699,15.919903,15.925196,15.931902,15.937637,15.940858,15.941435,15.938307,15.930778,15.919962,15.907946,15.896805,15.887831,15.879948,15.872397,15.86546,15.859378,15.85631,15.858607,15.865524,15.873175,15.879438,15.880228,15.873352,15.861002,15.847135,15.834259,15.823412,15.810488,15.793742,15.772132,15.750601,15.735738,15.728852,15.725562,15.719626,15.709883,15.698088,15.688923,15.689065,15.7008915,15.71834,15.734345,15.742087,15.732889,15.697138,15.639395,15.574552,15.513851,15.463759,15.422033,15.3892765,15.364801,15.348536,15.341057,15.345337,15.369228,15.412819,15.470683,15.483698,15.466675,15.450728,15.427334,15.395929,15.363178,15.333166,15.326965,15.329443,15.317972,15.274325,15.188478,15.156867,15.020197,13.969453,12.4593315,11.374685,10.957139,10.832589,10.799479,10.771389,10.753813,10.728298,10.68151,10.619762,10.558533,10.5054455,10.462269,10.432907,10.414163,10.400452,10.388465,10.376833,10.36414,10.349399,10.333459,10.318599,10.30628,10.297005,10.290275,10.284784,10.279455,10.273314,10.266306,10.259148,10.252909,10.248184,10.24479,10.242321,10.240085,10.237664,10.234977,10.23219,10.229738,10.228211,10.228286,10.230082,10.233631,10.238232,10.242694,10.245917,10.24772,10.249046,10.250084,10.251399,10.251879,10.250469,10.246788,10.241218,10.234624,10.22722,10.219884,10.213585,10.20926,10.20725,10.206732,10.2061205,10.204441,10.201773,10.19945,10.199966,10.205086,10.21384,10.221576,10.221058,10.205207,10.166695,10.104534,10.028328,9.953835,9.891536,9.839999,9.790188,9.73688,9.675862,9.607588,9.536992,9.467873,9.400244,9.333354,9.263239,9.192766,9.126707,9.068677,9.019928,8.980157,8.946598,8.915491,8.886052,8.858199,8.83197,8.807968,8.787155,8.769225,8.752365,8.734593,8.710749,8.676863,8.631138,8.574821,8.513954,8.451379,8.388815,8.330274,8.277406,8.227981,8.178015,8.125704,8.068488,8.002022,7.9271684,7.84857,7.7719545,7.699523,7.63198,7.5781507,7.5293775,7.487163,7.450664,7.419738,7.3948536,7.3753095,7.35999,7.3455896,7.330868,7.315163,7.300127,7.2890315,7.283964,7.2842293,7.287883,7.295097,7.3029733,7.3098693,7.3119164,7.308325,7.3070345,7.304368,7.2990065,7.290926,7.278793,7.2622433,7.239771,7.2074814,7.1649857,7.1089354,7.044211,6.9805975,6.9251623,6.881498,6.8500657,6.8237677,6.7966843,6.7653437,6.7301626,6.694145,6.6582327,6.6219087,6.5883665,6.5542674,6.518851,6.4821367,6.4430046,6.40119,6.358201,6.315773,6.2714634,6.222127,6.1674867,6.110246,6.056265,6.01078,5.975297,5.949196,5.925641,5.9023266,5.878921,5.856094,5.8350587,5.816778,5.8001394,5.7825017,5.7660007
15.894386,15.893758,15.893028,15.892793,15.89114,15.8877735,15.882871,15.876513,15.869087,15.861128,15.85265,15.843741,15.8355055,15.827843,15.820665,15.814693,15.8097515,15.805477,15.801016,15.796026,15.790354,15.784161,15.777599,15.770348,15.7628,15.75477,15.746719,15.739101,15.7323675,15.72645,15.720615,15.714586,15.70775,15.700234,15.692855,15.68652,15.680995,15.6751375,15.669334,15.6631565,15.657473,15.65295,15.649912,15.647834,15.645675,15.642921,15.640418,15.638914,15.639072,15.641375,15.644971,15.647941,15.649045,15.6481695,15.644392,15.636982,15.626689,15.61515,15.604134,15.59483,15.586337,15.57792,15.569804,15.562118,15.556749,15.555824,15.558815,15.562686,15.565805,15.564929,15.558124,15.547564,15.537478,15.529779,15.522584,15.513508,15.500491,15.482452,15.463647,15.450342,15.444706,15.4438505,15.445111,15.449827,15.445829,15.438482,15.439959,15.453498,15.4736185,15.494217,15.5108185,15.514105,15.498466,15.465816,15.423911,15.38146,15.344496,15.312105,15.285041,15.26312,15.246844,15.237161,15.237149,15.254524,15.2870245,15.336175,15.352587,15.338005,15.317411,15.292798,15.2615385,15.229385,15.1993065,15.189716,15.187769,15.172538,15.129639,15.047152,14.9430895,14.816261,13.893589,12.495059,11.421415,10.959656,10.800666,10.774702,10.736534,10.716919,10.696947,10.658549,10.605041,10.548536,10.498057,10.456822,10.424879,10.40173,10.385343,10.3728695,10.36152,10.3497925,10.336142,10.321388,10.307695,10.296395,10.287933,10.281811,10.276712,10.271629,10.26568,10.258974,10.252283,10.246674,10.242718,10.240183,10.238577,10.237309,10.235868,10.234146,10.232278,10.230651,10.229857,10.23059,10.233012,10.2371855,10.242364,10.247276,10.250755,10.252586,10.253724,10.254387,10.255222,10.255201,10.253373,10.249396,10.243568,10.236654,10.228943,10.221347,10.214842,10.210354,10.208156,10.207333,10.206363,10.204534,10.202534,10.201967,10.20531,10.21385,10.225576,10.234762,10.23411,10.216027,10.173845,10.107947,10.029155,9.95367,9.891634,9.840813,9.791545,9.738688,9.678102,9.610181,9.539888,9.470918,9.402839,9.334876,9.263368,9.191496,9.124513,9.066275,9.017893,8.978773,8.945813,8.915192,8.886095,8.858335,8.832035,8.807871,8.786761,8.76855,8.751545,8.733881,8.710476,8.677137,8.631779,8.575534,8.514445,8.451574,8.388978,8.330839,8.278735,8.23016,8.180727,8.128277,8.070232,8.002341,7.9256477,7.845349,7.7673435,7.694465,7.6280985,7.5734253,7.523293,7.480184,7.44324,7.4125104,7.388861,7.3713794,7.358285,7.345621,7.331543,7.3156614,7.3001356,7.288455,7.2830644,7.2841716,7.2890673,7.2978864,7.3066635,7.3099937,7.3088717,7.308361,7.308553,7.306904,7.3027573,7.295656,7.2834797,7.2652993,7.239767,7.2038703,7.158353,7.1007004,7.036519,6.975413,6.923649,6.8827667,6.85137,6.824355,6.7964315,6.7649803,6.7307825,6.6965413,6.662754,6.628277,6.595132,6.561007,6.525249,6.4880385,6.448397,6.4060693,6.362507,6.319428,6.2741055,6.2232847,6.166773,6.1076,6.052317,6.00666,5.9719296,5.9472303,5.9252996,5.9033012,5.880752,5.8583198,5.837371,5.819137,5.8024626,5.784557,5.7675996
15.62144,15.620338,15.619213,15.618499,15.616496,15.612992,15.60824,15.602409,15.595861,15.588966,15.581694,15.57403,15.566899,15.560156,15.553771,15.54853,15.544352,15.541002,15.537725,15.534129,15.529902,15.525048,15.519631,15.513348,15.506664,15.499246,15.491479,15.48373,15.476452,15.4697695,15.463219,15.456596,15.449251,15.441303,15.433511,15.426722,15.42077,15.414623,15.408579,15.402104,15.395887,15.390336,15.3856535,15.381479,15.377118,15.372287,15.367589,15.36375,15.361338,15.360687,15.361192,15.361457,15.360509,15.35831,15.354078,15.347101,15.337857,15.327547,15.317537,15.308819,15.300566,15.292196,15.2838125,15.275421,15.268546,15.265004,15.264533,15.264893,15.264826,15.261864,15.254553,15.244763,15.236122,15.230119,15.224515,15.21739,15.207096,15.192604,15.176935,15.16519,15.159548,15.157739,15.158108,15.16125,15.163765,15.169613,15.180357,15.193403,15.209123,15.227611,15.245238,15.254589,15.251835,15.237103,15.214015,15.188273,15.164339,15.142069,15.121969,15.104019,15.088928,15.078163,15.073992,15.080021,15.102632,15.13626,15.166822,15.171176,15.149295,15.120985,15.089365,15.057503,15.02923,15.015512,15.005183,14.982484,14.940636,14.870731,14.737446,14.588393,13.808934,12.566347,11.516319,10.9916115,10.784903,10.75885,10.702787,10.6759205,10.658844,10.628838,10.58654,10.539197,10.49411,10.45423,10.420003,10.393144,10.373596,10.3592005,10.347126,10.335782,10.322939,10.309323,10.296852,10.286652,10.279072,10.273612,10.26898,10.264307,10.258761,10.252596,10.2466345,10.241896,10.238895,10.237362,10.236694,10.236407,10.235908,10.235023,10.233856,10.232786,10.232423,10.233515,10.236259,10.240779,10.246294,10.251532,10.255313,10.257353,10.258536,10.2591305,10.259823,10.259655,10.257775,10.253878,10.248178,10.241319,10.233685,10.226233,10.219932,10.215704,10.213606,10.212533,10.211131,10.209037,10.207657,10.208969,10.215393,10.227614,10.242373,10.252706,10.25129,10.230072,10.183182,10.1126585,10.0307255,9.954015,9.892184,9.842099,9.793389,9.741008,9.680842,9.613398,9.54379,9.475486,9.407363,9.338562,9.265738,9.192355,9.124155,9.065281,9.016815,8.97796,8.945297,8.915026,8.886251,8.8586645,8.832396,8.808085,8.786536,8.767767,8.75027,8.732399,8.70929,8.676522,8.631687,8.575735,8.514454,8.45133,8.38878,8.331153,8.279962,8.232415,8.183678,8.131172,8.072328,8.003004,7.9244204,7.8423142,7.7626767,7.689615,7.625724,7.5687885,7.517159,7.4725986,7.434867,7.404646,7.382495,7.366824,7.3558702,7.3448963,7.331501,7.315031,7.2981157,7.2854986,7.2804966,7.2826834,7.289343,7.2977757,7.303167,7.3051987,7.3063893,7.3078303,7.3085895,7.30794,7.3049736,7.2987385,7.2862973,7.266156,7.2372336,7.197583,7.1491404,7.0902367,7.027115,6.9685807,6.9202285,6.8824673,6.852236,6.824761,6.7953076,6.763729,6.731291,6.6991706,6.6670218,6.6342535,6.6024885,6.56851,6.532588,6.495116,6.4552155,6.4126134,6.368661,6.324992,6.2785654,6.226018,6.167308,6.1059465,6.049277,6.0034966,5.969607,5.9463797,5.9261026,5.905379,5.8835993,5.861493,5.840591,5.8223705,5.80565,5.7874384,5.769919
15.353446,15.351792,15.350147,15.348772,15.346184,15.342304,15.337454,15.331878,15.325939,15.319801,15.3134365,15.306733,15.3004875,15.294511,15.288782,15.28413,15.280577,15.278,15.275763,15.27342,15.270506,15.266856,15.262449,15.257023,15.2511,15.244288,15.236918,15.229238,15.221684,15.214541,15.207556,15.200607,15.193011,15.184877,15.176884,15.169825,15.163625,15.157383,15.151285,15.14475,15.1382885,15.132118,15.126396,15.12089,15.11512,15.108993,15.102814,15.097268,15.092846,15.089845,15.087889,15.086026,15.08354,15.080375,15.075895,15.069521,15.061553,15.052801,15.044241,15.036613,15.029148,15.021431,15.013438,15.0050955,14.997595,14.992441,14.989626,14.987607,14.985372,14.981116,14.973761,14.964779,14.956991,14.951546,14.946645,14.940666,14.932197,14.9202175,14.906719,14.895438,14.88815,14.883421,14.880047,14.877752,14.87891,14.886037,14.89827,14.9132805,14.93079,14.95021,14.969461,14.984306,14.988596,14.982313,14.970163,14.95532,14.940299,14.925417,14.910768,14.896355,14.882853,14.871804,14.864817,14.86286,14.871892,14.893699,14.92254,14.937284,14.9301605,14.912045,14.886322,14.861771,14.829097,14.801251,14.785122,14.763363,14.719939,14.660138,14.545248,14.397838,13.743191,12.676849,11.682401,11.078439,10.807576,10.740671,10.677718,10.640973,10.617979,10.594628,10.565987,10.531574,10.495596,10.4598875,10.425333,10.395412,10.371776,10.353689,10.339324,10.326988,10.313908,10.300648,10.288874,10.279472,10.272659,10.267884,10.263902,10.259927,10.255176,10.250008,10.245192,10.24162,10.239719,10.239165,10.239321,10.239773,10.239855,10.239362,10.238403,10.237399,10.237017,10.238076,10.240789,10.245329,10.250939,10.256388,10.260508,10.262941,10.264446,10.265317,10.266234,10.266318,10.264818,10.261457,10.256363,10.250057,10.242992,10.236179,10.230556,10.226954,10.225128,10.223772,10.221779,10.219183,10.218208,10.221217,10.230442,10.245842,10.262791,10.273092,10.269601,10.244045,10.19153,10.115873,10.030639,9.952665,9.890939,9.84148,9.793262,9.741364,9.681817,9.615307,9.547027,9.480113,9.412778,9.344033,9.270609,9.196097,9.126642,9.066756,9.017685,8.978602,8.945901,8.915877,8.887512,8.860304,8.834251,8.809796,8.787578,8.767897,8.749464,8.731031,8.70807,8.675923,8.631767,8.576244,8.51474,8.451038,8.3882265,8.330852,8.280381,8.233755,8.18568,8.133158,8.0736,8.003005,7.92275,7.8390336,7.75807,7.6843476,7.6209984,7.564794,7.5117025,7.46544,7.4266586,7.396552,7.375822,7.3622923,7.353366,7.343696,7.330269,7.31293,7.294901,7.2816343,7.2770348,7.2801685,7.286795,7.293067,7.2976284,7.3008814,7.3034286,7.3052645,7.306292,7.306382,7.304247,7.2984853,7.2854385,7.2631493,7.230911,7.1879134,7.137173,7.0777626,7.0162935,6.960708,6.9152102,6.8792033,6.849409,6.8215346,6.7920194,6.7610703,6.7299023,6.7004733,6.6711626,6.6392775,6.6087275,6.575743,6.540167,6.502755,6.462968,6.420494,6.376451,6.332333,6.2848024,6.23042,6.1693807,6.1058254,6.0479,6.0021505,5.969202,5.94744,5.9286985,5.9090652,5.8878703,5.8659563,5.845036,5.8268,5.810005,5.791445,5.7732472
15.096741,15.094581,15.092419,15.090385,15.087148,15.082781,15.077691,15.072159,15.06653,15.06082,15.054978,15.048859,15.043197,15.037756,15.032516,15.028328,15.025255,15.023278,15.021885,15.02058,15.018775,15.016136,15.012557,15.007866,15.002612,14.996432,14.989609,14.982257,14.9747305,14.967414,14.960258,14.953223,14.945576,14.937447,14.929417,14.922224,14.915909,14.909725,14.903734,14.89737,14.890915,14.884459,14.878142,14.87184,14.865238,14.858382,14.851321,14.844656,14.838846,14.834217,14.830583,14.827288,14.823822,14.820049,14.815483,14.809725,14.802969,14.795737,14.788674,14.782251,14.775747,14.768862,14.761524,14.753652,14.746167,14.740286,14.736176,14.732842,14.729469,14.724731,14.717789,14.709748,14.7028265,14.697929,14.693529,14.688338,14.680902,14.670148,14.657432,14.645568,14.636111,14.62845,14.621732,14.61581,14.611827,14.611716,14.617944,14.631098,14.648184,14.665782,14.682983,14.69735,14.703591,14.702038,14.696903,14.689744,14.681817,14.6733055,14.663736,14.653017,14.641737,14.63121,14.622594,14.615973,14.612349,14.618246,14.630587,14.641748,14.645166,14.637845,14.620695,14.605351,14.587882,14.564154,14.548121,14.531251,14.4924555,14.436319,14.350048,14.22731,13.728494,12.844445,11.906834,11.238256,10.889436,10.749087,10.6801605,10.624965,10.584448,10.561928,10.544915,10.524419,10.500509,10.472499,10.440284,10.408382,10.380285,10.357315,10.339238,10.324448,10.309901,10.295998,10.284172,10.275127,10.268888,10.264782,10.261616,10.258582,10.254973,10.251158,10.247772,10.245524,10.244712,10.24497,10.245691,10.246502,10.246725,10.246158,10.244955,10.243611,10.242886,10.243665,10.246121,10.25048,10.256031,10.261598,10.266062,10.269011,10.271021,10.2724285,10.273874,10.27455,10.273822,10.271449,10.267476,10.262294,10.256368,10.250793,10.246417,10.243863,10.242531,10.240944,10.23829,10.235088,10.234392,10.23893,10.250604,10.268422,10.286546,10.295798,10.288739,10.257124,10.198026,10.116932,10.028352,9.949001,9.887062,9.837845,9.789795,9.738216,9.679375,9.614201,9.547831,9.482995,9.41743,9.349979,9.277047,9.202116,9.1315975,9.070483,9.020415,8.980743,8.947838,8.9181795,8.890542,8.864126,8.838618,8.814096,8.791027,8.770123,8.750341,8.731016,8.708006,8.676389,8.632834,8.577581,8.515591,8.450837,8.387301,8.329746,8.279642,8.233703,8.186177,8.133648,8.073533,8.001974,7.920463,7.835533,7.753633,7.6790133,7.614824,7.560423,7.5067787,7.4591384,7.4191885,7.388802,7.3690014,7.3572893,7.3501186,7.34159,7.3281674,7.310315,7.2917337,7.27813,7.2737384,7.277543,7.281705,7.287173,7.2930765,7.2970924,7.299027,7.3005695,7.3016987,7.3021717,7.300433,7.2947216,7.280826,7.256457,7.2213454,7.175783,7.1236176,7.0644884,7.005108,6.952591,6.9096146,6.874709,6.845033,6.8170085,6.788049,6.7578974,6.727623,6.6996493,6.6729155,6.643815,6.6136,6.5815887,6.546812,6.5100784,6.470823,6.4287214,6.3848543,6.3404374,6.2918844,6.235731,6.172441,6.106857,6.047858,6.002201,5.9701166,5.949614,5.9321117,5.9133196,5.8925543,5.8707857,5.8498974,5.8317213,5.814902,5.796046,5.777178
14.855949,14.853387,14.850787,14.848185,14.844377,14.839577,14.834267,14.82873,14.823271,14.817814,14.812254,14.806483,14.801185,14.796102,14.791209,14.787354,14.784602,14.783026,14.782221,14.781663,14.780689,14.778811,14.775841,14.771718,14.767005,14.761379,14.755117,14.748201,14.740874,14.733587,14.726459,14.719547,14.712065,14.704175,14.696335,14.689196,14.682909,14.676882,14.671097,14.664995,14.65863,14.652033,14.64537,14.638607,14.631598,14.624449,14.616984,14.609678,14.602999,14.597318,14.592594,14.588373,14.584317,14.580202,14.575663,14.570466,14.564734,14.558798,14.5530405,14.547686,14.542083,14.535989,14.529336,14.5220785,14.514927,14.508842,14.504086,14.500055,14.496119,14.491253,14.484797,14.477582,14.47135,14.466844,14.4627905,14.458016,14.451069,14.440805,14.428157,14.415537,14.404543,14.394948,14.385891,14.377397,14.370489,14.366842,14.368006,14.374077,14.383167,14.392969,14.402492,14.409603,14.413509,14.414503,14.413361,14.410868,14.407864,14.403927,14.3981,14.390175,14.380688,14.370712,14.361065,14.351438,14.342501,14.332659,14.330239,14.332815,14.332755,14.327031,14.315838,14.3061,14.313361,14.320907,14.316956,14.302341,14.275126,14.22357,14.150467,14.047714,13.734894,13.028206,12.157154,11.482712,11.049176,10.825143,10.719228,10.634911,10.571246,10.539422,10.526557,10.516869,10.505308,10.486669,10.459334,10.427573,10.396042,10.368239,10.345855,10.327609,10.310637,10.295182,10.282586,10.273448,10.267559,10.264036,10.261714,10.259651,10.257241,10.254774,10.252731,10.2516365,10.251651,10.252383,10.253323,10.254122,10.254177,10.2533245,10.25178,10.250106,10.249092,10.249635,10.251866,10.256015,10.261418,10.266975,10.271666,10.275059,10.277559,10.279538,10.2816105,10.2830305,10.283287,10.282196,10.279735,10.27617,10.271936,10.268232,10.265755,10.264804,10.264378,10.262875,10.259821,10.25629,10.256178,10.2624855,10.276484,10.296291,10.313897,10.318586,10.306614,10.270559,10.205161,10.1183195,10.02619,9.945131,9.882418,9.832775,9.784338,9.732619,9.6741905,9.610302,9.546007,9.483599,9.420467,9.35519,9.283622,9.208948,9.137685,9.075331,9.024143,8.983856,8.950914,8.922056,8.895719,8.870688,8.846134,8.82165,8.797602,8.77522,8.7537565,8.733255,8.709914,8.678501,8.635149,8.579673,8.516714,8.450474,8.385832,8.327773,8.277791,8.232386,8.185353,8.13285,8.072375,8.000194,7.9178643,7.83213,7.749569,7.6743507,7.6095896,7.5550385,7.5021915,7.4538307,7.4127636,7.3820853,7.362799,7.352193,7.3465137,7.3392496,7.326474,7.308671,7.28977,7.2759542,7.2714686,7.274182,7.2765703,7.2829576,7.2889023,7.291987,7.2933455,7.294527,7.2955256,7.2961264,7.294528,7.2886877,7.2740116,7.247978,7.210715,7.1634827,7.110687,7.0523567,6.9951468,6.945348,6.90462,6.871016,6.841889,6.8140206,6.7850704,6.7553473,6.726012,6.698206,6.6721783,6.64631,6.617739,6.586037,6.551935,6.5161033,6.4776983,6.436217,6.392598,6.348014,6.298629,6.240981,6.1757445,6.1084223,6.048483,6.002773,5.9712186,5.9515376,5.9348073,5.9165726,5.896151,5.874606,5.8539276,5.8359833,5.819273,5.800291,5.7809362
14.634695,14.63181,14.628861,14.62578,14.621522,14.616404,14.610932,14.605387,14.600032,14.594724,14.589324,14.583757,14.578661,14.573776,14.569085,14.565386,14.562769,14.561375,14.560865,14.560734,14.560276,14.558905,14.556378,14.552682,14.548407,14.543255,14.53752,14.53104,14.523991,14.516891,14.509921,14.503275,14.496132,14.488646,14.48114,14.47418,14.467998,14.462162,14.456612,14.450741,14.444448,14.437774,14.430914,14.423963,14.416895,14.409829,14.402372,14.394878,14.3877735,14.381494,14.3761,14.371297,14.36691,14.362627,14.358162,14.353407,14.3484535,14.343481,14.338673,14.334105,14.329157,14.323671,14.317558,14.310852,14.304098,14.298035,14.292989,14.288631,14.284407,14.279523,14.273477,14.266943,14.261328,14.25721,14.253489,14.249011,14.242388,14.232437,14.219847,14.206824,14.195044,14.184602,14.174882,14.165614,14.157589,14.15213,14.150482,14.152708,14.15728,14.1622715,14.166706,14.169021,14.168607,14.16605,14.162347,14.158071,14.153818,14.148799,14.142052,14.13346,14.123486,14.112941,14.102695,14.093235,14.084469,14.076408,14.066873,14.061062,14.060396,14.05823,14.052065,14.047554,14.047894,14.076831,14.0980215,14.09157,14.071754,14.03157,13.967098,13.878149,13.698568,13.157838,12.413483,11.7935,11.290251,10.979048,10.793317,10.6736,10.587013,10.534656,10.515945,10.510297,10.507611,10.497624,10.476847,10.447755,10.415012,10.383825,10.357626,10.335702,10.315866,10.2982855,10.284434,10.274889,10.269167,10.266113,10.264508,10.2631855,10.26167,10.260158,10.258983,10.258543,10.258903,10.259652,10.260465,10.261007,10.260798,10.259788,10.258235,10.256668,10.255791,10.256376,10.25858,10.262563,10.267694,10.273005,10.277615,10.281151,10.283931,10.286294,10.288881,10.291006,10.292285,10.292603,10.291892,10.290301,10.288245,10.286994,10.287067,10.28832,10.289312,10.288383,10.285456,10.282143,10.283205,10.291801,10.307895,10.328389,10.34241,10.338183,10.320632,10.284235,10.215011,10.122725,10.026657,9.94354,9.879511,9.828801,9.779474,9.727081,9.668552,9.605524,9.54301,9.482918,9.422316,9.359375,9.289479,9.215494,9.14383,9.080418,9.028269,8.987648,8.955097,8.927613,8.9032,8.880087,8.85676,8.832292,8.807092,8.7830105,8.759604,8.737709,8.713731,8.682079,8.638372,8.582064,8.517662,8.449605,8.383634,8.324971,8.27507,8.230173,8.1836405,8.13123,8.070577,7.998048,7.915248,7.8290367,7.746053,7.670413,7.605122,7.549655,7.4978623,7.4495435,7.407792,7.376872,7.358108,7.3485284,7.344069,7.337764,7.325585,7.3080616,7.2891426,7.275222,7.269985,7.269378,7.273103,7.279124,7.284049,7.2862363,7.2868342,7.2875247,7.288291,7.28891,7.2873945,7.2814994,7.266406,7.2393994,7.2008815,7.1528587,7.1000676,7.042778,6.987526,6.9399104,6.900843,6.8681145,6.8393283,6.8116207,6.7828536,6.753622,6.724946,6.6980295,6.67184,6.6450377,6.62057,6.589681,6.5558305,6.520301,6.4827194,6.4421463,6.398789,6.3541718,6.3042507,6.245557,6.178889,6.1102586,6.0495186,6.0035305,5.972061,5.952656,5.9361625,5.918174,5.8980255,5.876804,5.856511,5.838953,5.8224897,5.8035946,5.7840314
