18.681637,18.574764,18.475292,18.34692,18.211761,18.099144,17.968086,17.835484,17.733139,17.63115,17.528614,17.448406,17.378765,17.303165,17.239244,17.18925,17.134197,17.08189,17.039007,16.994625,16.953182,16.923008,16.896025,16.87047,16.851233,16.83517,16.817114,16.801565,16.79004,16.776512,16.76205,16.748886,16.73248,16.702858,16.667038,16.630505,16.590782,16.55892,16.532745,16.506433,16.486881,16.473686,16.46252,16.4547,16.449238,16.444286,16.442242,16.443554,16.446426,16.451046,16.455667,16.459589,16.462812,16.46352,16.462223,16.460608,16.457932,16.454735,16.450258,16.444723,16.439732,16.434116,16.429234,16.428852,16.432796,16.44171,16.454876,16.467863,16.48471,16.503147,16.517883,16.532444,16.546282,16.555912,16.562716,16.569912,16.57496,16.57703,16.577934,16.576462,16.573606,16.570171,16.559473,16.543392,16.524426,16.50644,16.49633,16.490202,16.490238,16.498573,16.510353,16.53003,16.554207,16.57491,16.59634,16.614895,16.6264,16.63478,16.640736,16.643639,16.644636,16.64601,16.64827,16.650936,16.655352,16.66376,16.674538,16.690012,16.713875,16.738441,16.759525,16.785011,16.809914,16.832115,16.86132,16.890453,16.913609,16.94134,16.968266,16.988564,17.00965,17.02958,17.044472,17.058601,17.075129,17.090263,17.103065,17.11705,17.131891,17.147034,17.168589,17.201704,17.239079,17.285957,17.348854,17.412642,17.479824,17.565327,17.648209,17.720203,17.809494,17.893627,17.956455,18.021053,18.076921,18.115772,18.150776,18.179207,18.19827,18.217999,18.24013,18.260286,18.27798,18.301937,18.331966,18.362396,18.39945,18.443848,18.485462,18.532475,18.588818,18.640701,18.689415,18.747768,18.80218,18.847206,18.902653,18.958149,19.002794,19.056238,19.11415,19.162563,19.212677,19.266891,19.310682,19.346268,19.379509,19.400082,19.411268,19.413967,19.398716,19.372366,19.325489,19.246006,19.157219,19.059029,18.928665,18.793528,18.664894,18.47639,18.24876,18.02822,17.710392,17.352781,17.062801,16.740025,16.553757,16.513634,16.407803,15.903995,14.991138,14.008265,11.735294,9.43961,8.445989,7.754316,7.478883,7.3763866,7.313654,7.310315,7.330842,7.349146,7.3700204,7.3869576,7.3996763,7.4199214,7.4493566,7.481469,7.5321207,7.6012225,7.668043,7.74459,7.8344326,7.913123,7.9826374,8.062004,8.131937,8.1883545,8.249514,8.302973,8.34397,8.390938,8.432444,8.458618,8.480688,8.497489,8.507577,8.51613,8.525963,8.535425,8.543949,8.553397,8.560604,8.564421,8.566161,8.565104,8.563002,8.561201,8.55987,8.563536,8.577012,8.598673,8.620476,8.636747,8.652189,8.6611805,8.663726,8.661293,8.655251,8.650719,8.649279,8.653021,8.6617985,8.673295,8.69033,8.706549,8.717875,8.721921,8.713776,8.699517,8.678181,8.651138,8.6278305,8.6054945,8.582265,8.564884,8.552518,8.542473,8.538107,8.537444,8.537352,8.538863,8.541113,8.543375,8.540615,8.532089,8.520222,8.501215,8.478249,8.4539,8.420619,8.38641,8.358742,8.3334675,8.32313,8.328802,8.348564,8.38808,8.431353,8.472464,8.51084,8.527308,8.524741,8.497768,8.44903,8.400547,8.342697,8.287508,8.25088
19.076885,18.957592,18.850746,18.71389,18.570856,18.452171,18.314865,18.175613,18.06707,17.957737,17.845762,17.756298,17.677803,17.591469,17.517593,17.459625,17.395134,17.333517,17.283154,17.230816,17.181608,17.14553,17.113304,17.082802,17.059921,17.040932,17.019783,17.001698,16.988235,16.972897,16.957188,16.943583,16.930418,16.910683,16.885677,16.851986,16.812225,16.779549,16.753248,16.726482,16.706127,16.692085,16.679605,16.670158,16.66325,16.656452,16.65231,16.651863,16.653034,16.65587,16.65915,16.662128,16.664495,16.664719,16.663227,16.661732,16.659733,16.657494,16.654358,16.650646,16.647459,16.643887,16.640625,16.641054,16.645756,16.655172,16.668236,16.680714,16.696373,16.7129,16.7257,16.737843,16.749031,16.756653,16.761902,16.767422,16.770834,16.771317,16.769833,16.765144,16.759014,16.753056,16.7447,16.734167,16.716925,16.693382,16.6736,16.660671,16.652987,16.65425,16.660036,16.673164,16.691643,16.708206,16.724669,16.73794,16.745049,16.748718,16.748997,16.746855,16.743683,16.741425,16.741417,16.742483,16.745544,16.753227,16.763737,16.778954,16.802492,16.826618,16.847057,16.871412,16.89488,16.915415,16.942974,16.971443,16.994965,17.023167,17.050917,17.072218,17.094769,17.116804,17.134153,17.15173,17.173717,17.195305,17.214725,17.237722,17.261604,17.283733,17.312717,17.351238,17.390926,17.438591,17.49947,17.55914,17.620361,17.698528,17.774893,17.841364,17.922943,18.000675,18.060684,18.123573,18.178596,18.217009,18.2537,18.289394,18.316652,18.337574,18.35896,18.379265,18.400269,18.424698,18.452646,18.481136,18.517454,18.561914,18.603718,18.651104,18.708773,18.762787,18.813992,18.875954,18.934324,18.982979,19.042915,19.102886,19.151066,19.208662,19.270435,19.321766,19.37621,19.436352,19.48631,19.528246,19.569891,19.599428,19.618832,19.632332,19.62815,19.61031,19.572289,19.50011,19.41554,19.320957,19.19325,19.058517,18.92868,18.733809,18.494652,18.261703,17.924856,17.551174,17.257095,16.96354,16.829353,16.830317,16.757187,16.190321,15.119647,13.945522,11.502962,9.189159,8.323271,7.692306,7.441182,7.364996,7.31931,7.327486,7.35446,7.3731704,7.3909035,7.4030175,7.4103937,7.42626,7.4557333,7.4914455,7.5531635,7.641404,7.728552,7.8337493,7.9581356,8.065723,8.1605,8.267868,8.355828,8.414066,8.485571,8.5599375,8.624512,8.698494,8.763687,8.803604,8.8358135,8.8580475,8.869837,8.879738,8.895309,8.914646,8.933142,8.958503,8.98352,9.001165,9.016426,9.027464,9.034657,9.043051,9.055239,9.0717125,9.094701,9.127147,9.158716,9.18277,9.208084,9.229083,9.243704,9.25841,9.276377,9.296661,9.321476,9.37092,9.435226,9.501371,9.580643,9.646542,9.688612,9.741688,9.787715,9.814119,9.830018,9.830641,9.822884,9.81628,9.811155,9.811257,9.815442,9.827312,9.845173,9.862638,9.883535,9.904118,9.919541,9.933999,9.945823,9.952625,9.960594,9.949436,9.914307,9.869554,9.797665,9.719013,9.657211,9.606829,9.5917225,9.60801,9.648537,9.721848,9.79393,9.8504505,9.875509,9.844621,9.780613,9.662253,9.511881,9.378628,9.23587,9.121502,9.059783
19.398277,19.27767,19.169136,19.03107,18.887589,18.76883,18.631977,18.492609,18.382816,18.27118,18.154799,18.059925,17.975828,17.88209,17.800684,17.736252,17.663507,17.593132,17.535448,17.47528,17.418242,17.376078,17.338453,17.30275,17.27588,17.25353,17.228695,17.20737,17.191292,17.17294,17.15502,17.140465,17.124035,17.107279,17.091564,17.06694,17.02964,16.993214,16.965736,16.937664,16.915874,16.900352,16.886078,16.874832,16.866539,16.858253,16.852615,16.851028,16.851173,16.85312,16.85596,16.858816,16.861374,16.862167,16.861351,16.861008,16.860811,16.860508,16.859673,16.858875,16.858536,16.85801,16.85801,16.861122,16.868164,16.880241,16.895603,16.909697,16.926804,16.944294,16.957554,16.969833,16.981203,16.989294,16.995338,17.002098,17.006744,17.008175,17.007458,17.0028,16.996073,16.98698,16.979496,16.975292,16.965797,16.945976,16.923191,16.904541,16.889412,16.88349,16.882782,16.88839,16.899899,16.911247,16.921875,16.929478,16.93224,16.931305,16.926212,16.91978,16.91407,16.909908,16.908974,16.9095,16.912273,16.920033,16.930763,16.946249,16.96994,16.993958,17.014063,17.037552,17.059664,17.0783,17.104626,17.132591,17.155537,17.182522,17.208591,17.228369,17.249027,17.269016,17.285042,17.302258,17.325207,17.349232,17.371958,17.4002,17.429836,17.456556,17.490452,17.531963,17.57198,17.61832,17.67487,17.72818,17.780754,17.84729,17.9127,17.970478,18.04058,18.107449,18.15992,18.215384,18.26429,18.298883,18.333939,18.374268,18.409645,18.436207,18.462536,18.486101,18.509483,18.537548,18.571228,18.60648,18.643944,18.686493,18.727188,18.7743,18.832752,18.888397,18.94163,19.006824,19.069057,19.121437,19.186302,19.251629,19.304369,19.36705,19.43438,19.490816,19.551842,19.62005,19.677685,19.727335,19.779121,19.819254,19.848118,19.873604,19.881372,19.87259,19.843853,19.779194,19.69887,19.607874,19.48251,19.347782,19.21664,19.015438,18.76476,18.519197,18.161898,17.775814,17.48812,17.255527,17.181522,17.199383,17.14391,16.524591,15.323348,13.975689,11.354776,8.991608,8.224245,7.6480894,7.4218397,7.362363,7.3321514,7.349324,7.378039,7.397044,7.412325,7.4205685,7.4241295,7.438631,7.472801,7.517188,7.5963182,7.712367,7.828573,7.9703026,8.131536,8.266302,8.388996,8.53219,8.652613,8.733553,8.832636,8.931522,9.012559,9.101808,9.17794,9.223627,9.258644,9.28017,9.289776,9.298056,9.315826,9.341967,9.368659,9.40621,9.444937,9.473854,9.500485,9.521544,9.5362,9.553801,9.57901,9.606929,9.635569,9.671702,9.704666,9.729252,9.755678,9.780686,9.802029,9.832741,9.878267,9.928117,9.984039,10.075147,10.182083,10.289983,10.409281,10.501471,10.5589485,10.635391,10.7084675,10.75769,10.799086,10.826566,10.841251,10.858177,10.881069,10.907067,10.934115,10.973702,11.018638,11.058738,11.1096945,11.161508,11.20097,11.242048,11.284231,11.317798,11.352972,11.357372,11.31815,11.261082,11.164188,11.059222,10.981722,10.918423,10.897074,10.912236,10.952983,11.0259285,11.09612,11.154043,11.165284,11.101928,10.999439,10.815207,10.588558,10.394098,10.196402,10.043001,9.960234
19.581379,19.471355,19.3666,19.23403,19.096733,18.98316,18.852371,18.718376,18.611778,18.502823,18.387589,18.292025,18.206554,18.110302,18.025526,17.9576,17.879856,17.803623,17.740803,17.675032,17.612213,17.565464,17.52378,17.484102,17.454082,17.428978,17.401001,17.376766,17.358223,17.337122,17.316792,17.30061,17.28349,17.264454,17.2472,17.233208,17.200413,17.159576,17.130005,17.099997,17.07661,17.059553,17.043598,17.03091,17.021675,17.012617,17.006432,17.004564,17.004543,17.006649,17.010027,17.013573,17.017277,17.019503,17.020016,17.021503,17.02364,17.025593,17.02746,17.030102,17.032913,17.034834,17.038315,17.045193,17.055435,17.0715,17.090818,17.108091,17.128765,17.14973,17.16566,17.180542,17.19482,17.20571,17.214664,17.225155,17.233412,17.237875,17.240538,17.238564,17.23344,17.225967,17.218184,17.213024,17.209469,17.199934,17.1837,17.161755,17.141106,17.12981,17.124386,17.1241,17.129478,17.135733,17.141068,17.143925,17.143337,17.138943,17.130001,17.12075,17.113976,17.108263,17.105766,17.105383,17.10747,17.115152,17.126244,17.142347,17.16712,17.192308,17.213528,17.238148,17.260933,17.279594,17.307,17.335548,17.357199,17.381735,17.4042,17.420433,17.436516,17.451038,17.46246,17.475748,17.495033,17.516869,17.538668,17.566824,17.597155,17.62461,17.659237,17.700188,17.738174,17.780865,17.830742,17.876131,17.920166,17.974594,18.02753,18.074585,18.132381,18.187677,18.230621,18.277977,18.32138,18.352879,18.38567,18.423382,18.458443,18.492691,18.528858,18.55805,18.580547,18.614216,18.660965,18.710773,18.752491,18.793922,18.83451,18.881351,18.94002,18.996613,19.051132,19.118584,19.183735,19.239046,19.30796,19.377975,19.434921,19.502388,19.575857,19.638458,19.705685,19.781143,19.845654,19.901968,19.962633,20.012112,20.049269,20.08501,20.10282,20.10159,20.080547,20.022108,19.945335,19.857391,19.73388,19.599152,19.467419,19.261908,19.002502,18.746708,18.371431,17.980848,17.71178,17.549938,17.518593,17.518978,17.462208,16.821083,15.554249,14.090839,11.301039,8.8506565,8.143679,7.6129208,7.4157925,7.3695664,7.3503456,7.371411,7.3986387,7.417399,7.4315863,7.4382863,7.44005,7.456242,7.498375,7.5539722,7.652266,7.7985783,7.946433,8.119595,8.3114395,8.470654,8.619022,8.797724,8.95805,9.081339,9.213566,9.324074,9.403373,9.483757,9.546791,9.58301,9.610294,9.626488,9.634151,9.642351,9.66043,9.6870985,9.714936,9.751287,9.788027,9.816432,9.843528,9.865165,9.88,9.899204,9.926308,9.955364,9.984827,10.020302,10.051284,10.073855,10.098349,10.123299,10.146742,10.186597,10.250235,10.319639,10.396498,10.497366,10.599316,10.701519,10.804089,10.877071,10.924976,10.975557,11.016719,11.044029,11.071709,11.100256,11.1263895,11.156331,11.195978,11.237099,11.276716,11.329899,11.388061,11.440479,11.512125,11.589851,11.651981,11.721893,11.793215,11.845966,11.893137,11.908394,11.878635,11.8298435,11.747469,11.663577,11.609079,11.561714,11.54077,11.544296,11.563047,11.598947,11.637598,11.687096,11.708318,11.670824,11.60066,11.44483,11.239692,11.0644455,10.888981,10.742435,10.650385
19.724365,19.62031,19.52369,19.401361,19.27467,19.169903,19.049294,18.924946,18.82503,18.72235,18.612118,18.51901,18.43483,18.33873,18.252563,18.182556,18.100956,18.019531,17.951962,17.88086,17.812346,17.760979,17.715143,17.671364,17.638073,17.610107,17.578785,17.551361,17.530066,17.50586,17.482887,17.465021,17.446243,17.426075,17.408558,17.39444,17.365747,17.329185,17.297115,17.2641,17.238537,17.220175,17.20244,17.188068,17.177773,17.16785,17.16105,17.158878,17.158705,17.16106,17.165176,17.16972,17.175093,17.179405,17.181837,17.185822,17.191017,17.195862,17.201145,17.207256,17.212881,17.218082,17.225977,17.237305,17.251387,17.272297,17.296532,17.317875,17.343319,17.369162,17.388985,17.407837,17.426622,17.441746,17.455002,17.470955,17.484573,17.493715,17.501785,17.50462,17.502932,17.498974,17.494045,17.490719,17.488087,17.486338,17.479324,17.455654,17.430862,17.414911,17.40505,17.399172,17.398952,17.400845,17.401257,17.39898,17.39436,17.38677,17.375282,17.363781,17.35352,17.343166,17.336592,17.333477,17.334316,17.342575,17.354816,17.372204,17.400337,17.430208,17.456184,17.486183,17.513348,17.535782,17.564358,17.591099,17.61058,17.63124,17.648203,17.65909,17.668556,17.675356,17.680231,17.687649,17.700932,17.718315,17.737076,17.76246,17.790855,17.816978,17.850004,17.888166,17.922426,17.959536,18.000866,18.03685,18.07061,18.110863,18.149195,18.183071,18.226662,18.270103,18.304417,18.34297,18.37995,18.408401,18.4397,18.477615,18.51416,18.550648,18.592503,18.629803,18.660927,18.699635,18.746819,18.795773,18.84945,18.912506,18.97063,19.018023,19.071491,19.125221,19.179821,19.24901,19.317005,19.375158,19.448292,19.523548,19.585384,19.658247,19.73848,19.808025,19.883486,19.968994,20.042612,20.106936,20.177372,20.236544,20.282269,20.328108,20.355282,20.360823,20.346361,20.29274,20.218248,20.131973,20.009007,19.873507,19.74067,19.53106,19.263779,18.998608,18.603237,18.216965,17.985867,17.868015,17.886799,17.913115,17.814499,17.146921,15.853287,14.296078,11.310564,8.722148,8.049873,7.5723724,7.4183035,7.3786697,7.3721323,7.3979177,7.421386,7.439104,7.4528866,7.4596167,7.4605103,7.479622,7.5317698,7.6012707,7.7226396,7.9047937,8.088364,8.273111,8.51544,8.755588,8.964365,9.187714,9.358886,9.471951,9.588664,9.680349,9.741894,9.802176,9.848233,9.875143,9.897125,9.90819,9.909792,9.910772,9.924368,9.947571,9.967546,9.998217,10.031761,10.05755,10.082325,10.104235,10.121729,10.144141,10.175125,10.206968,10.237574,10.274142,10.305157,10.326361,10.34751,10.368099,10.387925,10.415556,10.473791,10.550646,10.637997,10.74881,10.855874,10.961981,11.064962,11.136759,11.185749,11.238121,11.284329,11.319242,11.3577585,11.402248,11.444903,11.492329,11.552624,11.612399,11.668607,11.740824,11.815529,11.880272,11.964106,12.046428,12.104855,12.166172,12.222574,12.260145,12.29195,12.296209,12.266539,12.226196,12.157732,12.080391,12.018892,11.961424,11.928234,11.921421,11.92701,11.946018,11.9648285,11.980333,11.970526,11.925343,11.864267,11.757227,11.628539,11.520733,11.39609,11.287336,11.22497
19.847614,19.750645,19.664595,19.555649,19.442852,19.349604,19.242386,19.131151,19.040737,18.946842,18.844025,18.75529,18.674202,18.579954,18.493713,18.422838,18.338428,18.252506,18.180622,18.104477,18.030354,17.974314,17.92423,17.876125,17.839298,17.808239,17.773376,17.742638,17.71849,17.691055,17.665365,17.645826,17.62541,17.604391,17.586723,17.570387,17.547157,17.518784,17.48574,17.45071,17.42281,17.402094,17.38226,17.366152,17.354492,17.343334,17.335358,17.332317,17.33152,17.333813,17.338696,17.344501,17.351841,17.358627,17.363464,17.370567,17.379398,17.387499,17.396545,17.407017,17.416618,17.425919,17.438828,17.45489,17.473022,17.499142,17.528864,17.554897,17.586096,17.61814,17.643127,17.667488,17.692596,17.713633,17.73287,17.756588,17.778221,17.794708,17.811852,17.823658,17.829077,17.832884,17.835575,17.838074,17.84152,17.840214,17.829689,17.807598,17.782833,17.764397,17.751453,17.74121,17.736382,17.734785,17.731735,17.726688,17.720562,17.71214,17.701298,17.691132,17.681246,17.671246,17.665222,17.662865,17.664999,17.675673,17.690922,17.712425,17.745941,17.780815,17.811817,17.846714,17.87698,17.901476,17.929111,17.951593,17.96627,17.97937,17.986763,17.989008,17.988178,17.98341,17.978573,17.976954,17.980282,17.989227,18.00117,18.018793,18.040215,18.060944,18.08775,18.118784,18.146145,18.17455,18.204464,18.228909,18.250204,18.27433,18.296509,18.315584,18.341251,18.368828,18.392279,18.420712,18.450872,18.476227,18.506271,18.544998,18.583355,18.62143,18.667294,18.710682,18.748468,18.793816,18.845459,18.896584,18.958439,19.032959,19.10095,19.1608,19.232176,19.30046,19.35782,19.427708,19.497097,19.558458,19.636593,19.718243,19.786106,19.865692,19.954006,20.03151,20.11618,20.213001,20.297314,20.371765,20.455246,20.526432,20.58069,20.63668,20.673824,20.68721,20.679806,20.630371,20.55655,20.469175,20.342705,20.202671,20.0657,19.849752,19.574263,19.29898,18.915049,18.554165,18.345573,18.302795,18.348476,18.32306,18.161858,17.478321,16.191029,14.590323,11.390635,8.614704,7.9728928,7.5451145,7.432392,7.397378,7.399117,7.4268,7.447027,7.4645443,7.4807982,7.490917,7.492463,7.518042,7.58455,7.67103,7.821759,8.040228,8.255959,8.490385,8.811783,9.120438,9.345977,9.563652,9.714703,9.805384,9.893302,9.955955,9.994181,10.030643,10.057273,10.072343,10.083392,10.088182,10.091589,10.104006,10.125027,10.146621,10.1615095,10.185648,10.213008,10.23449,10.255952,10.276919,10.295044,10.316639,10.346119,10.377981,10.412954,10.45258,10.484257,10.505997,10.527058,10.545904,10.562698,10.58223,10.623493,10.680145,10.744995,10.835153,10.929434,11.023293,11.123938,11.20447,11.263744,11.327518,11.383808,11.425838,11.47452,11.532307,11.587807,11.64869,11.72541,11.800423,11.869791,11.958935,12.046196,12.115204,12.197346,12.27212,12.322652,12.374459,12.420393,12.449827,12.473558,12.476372,12.452454,12.41843,12.358631,12.284447,12.217503,12.154817,12.11343,12.096466,12.0897045,12.093838,12.097752,12.091661,12.064201,12.01786,11.966472,11.8990555,11.82987,11.773516,11.701299,11.64101,11.614153
19.937433,19.848007,19.770748,19.673328,19.572834,19.489895,19.394821,19.29583,19.214575,19.128998,19.033384,18.94925,18.87175,18.780128,18.694881,18.62443,18.538994,18.450602,18.376139,18.296757,18.218788,18.159424,18.106266,18.054934,18.015438,17.9821,17.944736,17.911745,17.88567,17.856068,17.828638,17.808123,17.78675,17.765335,17.747906,17.731163,17.712788,17.691114,17.659374,17.624739,17.595806,17.573051,17.551062,17.532887,17.519585,17.506775,17.497025,17.492527,17.49056,17.492235,17.497505,17.50436,17.513529,17.522762,17.530025,17.540216,17.552462,17.563465,17.575779,17.590458,17.604116,17.617054,17.63397,17.653515,17.674541,17.704384,17.738102,17.76765,17.803333,17.840427,17.86977,17.898956,17.929703,17.956062,17.980732,18.01182,18.041447,18.065475,18.092434,18.114727,18.129063,18.143366,18.155495,18.163826,18.174154,18.16933,18.150267,18.13277,18.111813,18.093601,18.079674,18.067402,18.06018,18.0569,18.053082,18.048891,18.044712,18.038754,18.032196,18.027206,18.022652,18.019432,18.019846,18.022625,18.0296,18.044853,18.06446,18.091768,18.130878,18.169275,18.203575,18.24057,18.270786,18.294127,18.31836,18.335106,18.343487,18.347317,18.343958,18.337223,18.32617,18.310492,18.29677,18.286873,18.280832,18.281366,18.286081,18.294865,18.307808,18.321804,18.340927,18.364016,18.38451,18.404747,18.424171,18.43813,18.448475,18.459137,18.468403,18.475933,18.486572,18.50016,18.513985,18.534353,18.560013,18.583975,18.614193,18.654747,18.69548,18.736134,18.785145,18.831387,18.871151,18.922445,18.98135,19.037163,19.09946,19.169554,19.234451,19.30866,19.404728,19.493063,19.559757,19.636623,19.710197,19.774214,19.857166,19.945059,20.018517,20.104755,20.200912,20.28568,20.378265,20.484749,20.578453,20.662178,20.757835,20.839588,20.9001,20.963825,21.006477,21.021551,21.015923,20.966808,20.891697,20.801636,20.670952,20.526382,20.384987,20.162373,19.879845,19.596592,19.247513,18.926949,18.728518,18.752335,18.786259,18.661476,18.445675,17.764738,16.510769,14.928238,11.532063,8.55094,7.9364777,7.5394716,7.452117,7.421668,7.425826,7.452593,7.471835,7.491111,7.512204,7.5277605,7.531737,7.5658555,7.647576,7.7502832,7.928953,8.173853,8.408781,8.723421,9.113609,9.429641,9.623695,9.794484,9.909746,9.982586,10.047287,10.087172,10.108576,10.128249,10.141792,10.149623,10.155844,10.163733,10.178635,10.210779,10.24526,10.269268,10.2850895,10.305054,10.326872,10.346423,10.367132,10.388189,10.406023,10.425537,10.451193,10.480272,10.516493,10.555668,10.586048,10.608166,10.632275,10.653933,10.670665,10.691713,10.718031,10.744359,10.773529,10.825163,10.889574,10.954804,11.03753,11.115363,11.175955,11.239073,11.292868,11.332402,11.383422,11.447907,11.5112915,11.581566,11.671614,11.759961,11.841116,11.940868,12.032682,12.101337,12.176748,12.243658,12.291444,12.343948,12.395352,12.432168,12.462742,12.477333,12.464376,12.434412,12.377853,12.307888,12.247229,12.190644,12.14952,12.126793,12.112917,12.107761,12.105646,12.1010475,12.081329,12.046684,12.007485,11.9550295,11.900954,11.857225,11.813779,11.785348,11.777335
19.992981,19.910255,19.839485,19.750832,19.660002,19.585335,19.500107,19.411327,19.337963,19.25972,19.170843,19.091358,19.017529,18.929062,18.84573,18.77658,18.691648,18.602734,18.527435,18.446705,18.36685,18.305714,18.250874,18.197731,18.15678,18.122318,18.083788,18.04977,18.022789,17.99217,17.964136,17.943531,17.921543,17.899801,17.882732,17.866375,17.850765,17.832811,17.803017,17.770031,17.74186,17.719273,17.694992,17.673618,17.658428,17.643616,17.63184,17.62578,17.62252,17.623314,17.628635,17.636204,17.647276,17.659245,17.66903,17.682268,17.69777,17.711496,17.72689,17.744946,17.761436,17.777023,17.796762,17.818611,17.84145,17.873508,17.909555,17.94117,17.979563,18.019812,18.051964,18.084375,18.119003,18.149128,18.1777,18.21448,18.25058,18.280716,18.315708,18.3472,18.370045,18.395744,18.415007,18.42305,18.429626,18.426964,18.415989,18.403896,18.386513,18.368904,18.354408,18.341301,18.333359,18.329815,18.327036,18.325296,18.324081,18.322327,18.32177,18.322985,18.324457,18.328743,18.336222,18.3446,18.357918,18.37899,18.402927,18.434996,18.478779,18.520603,18.557812,18.596516,18.626526,18.648918,18.669086,18.679445,18.681957,18.6772,18.664646,18.651054,18.632637,18.609646,18.590298,18.575352,18.56356,18.558746,18.558723,18.561392,18.568192,18.577206,18.590834,18.608809,18.625355,18.640566,18.652155,18.657465,18.659634,18.660246,18.66023,18.66016,18.662617,18.668943,18.676888,18.691925,18.715263,18.73994,18.772032,18.815735,18.859552,18.90289,18.955858,19.006721,19.051266,19.106556,19.165058,19.21652,19.278406,19.349274,19.413622,19.486214,19.575993,19.66248,19.747566,19.848087,19.936071,20.00138,20.088303,20.181698,20.259768,20.351898,20.455086,20.54622,20.645597,20.760273,20.861486,20.951706,21.055563,21.145,21.211384,21.28257,21.323786,21.327095,21.312706,21.257809,21.180443,21.089338,20.960003,20.817184,20.675613,20.447182,20.157148,19.868824,19.541504,19.263344,19.100428,19.119923,19.12144,18.96267,18.70556,18.040844,16.8372,15.28541,11.701834,8.514946,7.9201875,7.5409346,7.469928,7.4444246,7.450748,7.476964,7.4959354,7.518523,7.544484,7.5647306,7.5724115,7.6146793,7.7097816,7.82724,8.028994,8.291864,8.536623,8.920771,9.338149,9.616911,9.795595,9.941677,10.02994,10.083387,10.126734,10.149377,10.159811,10.1670065,10.172966,10.1819,10.204494,10.235599,10.264563,10.29487,10.330221,10.357557,10.372906,10.388903,10.408457,10.4309845,10.454451,10.478626,10.499231,10.522108,10.549626,10.575497,10.600412,10.628816,10.6531315,10.671194,10.697052,10.722366,10.739168,10.757112,10.775726,10.792465,10.811632,10.840653,10.873681,10.906579,10.948807,10.9892845,11.021169,11.054644,11.090059,11.125129,11.180235,11.257101,11.334694,11.423403,11.538236,11.650545,11.755392,11.863836,11.95426,12.028647,12.107206,12.172718,12.216537,12.265507,12.315616,12.354061,12.387259,12.40749,12.401873,12.379265,12.330286,12.269363,12.220065,12.16839,12.126857,12.103116,12.090362,12.087257,12.086956,12.08326,12.068574,12.043806,12.016445,11.980017,11.944534,11.918434,11.892509,11.877875,11.877508
20.050304,19.973417,19.90818,19.827442,19.745869,19.679462,19.604055,19.525656,19.460526,19.39005,19.308647,19.234829,19.166079,19.082537,19.002794,18.936377,18.853596,18.765749,18.690847,18.610044,18.529423,18.467295,18.411491,18.357325,18.315666,18.280828,18.242079,18.208069,18.181198,18.150917,18.122643,18.101086,18.078617,18.057518,18.04211,18.028996,18.012882,17.993183,17.967787,17.939302,17.913185,17.890455,17.864471,17.840084,17.8222,17.805107,17.790882,17.782604,17.777412,17.776669,17.781628,17.789738,17.802597,17.817348,17.82983,17.846256,17.865047,17.881433,17.899706,17.920763,17.939661,17.957472,17.979357,18.00264,18.026386,18.059248,18.095888,18.12798,18.166975,18.207962,18.240845,18.274143,18.309864,18.341335,18.372068,18.411839,18.451136,18.484055,18.525406,18.565392,18.595428,18.628326,18.655937,18.671358,18.67915,18.681046,18.678741,18.67424,18.665207,18.654303,18.645,18.63314,18.62365,18.619398,18.617216,18.618103,18.620743,18.624557,18.632034,18.64177,18.651878,18.667337,18.685768,18.703098,18.726608,18.756992,18.787785,18.827862,18.879608,18.92707,18.969238,19.008095,19.033775,19.052246,19.067818,19.072025,19.066544,19.054482,19.035172,19.015633,18.992199,18.965746,18.944965,18.929611,18.91867,18.91515,18.915798,18.9187,18.925253,18.93396,18.947193,18.964283,18.979523,18.992859,19.000751,19.001083,18.996956,18.98891,18.980785,18.974457,18.971027,18.97377,18.98008,18.995825,19.023035,19.052742,19.09142,19.143738,19.196022,19.250015,19.307957,19.355019,19.392452,19.441692,19.497416,19.548462,19.610022,19.681961,19.748207,19.821735,19.911186,19.997887,20.08847,20.187307,20.27116,20.340168,20.43383,20.533041,20.612951,20.71144,20.823467,20.922222,21.02972,21.154129,21.265244,21.368134,21.479652,21.564585,21.618122,21.673653,21.703068,21.70187,21.681477,21.620121,21.537346,21.440937,21.306057,21.160143,21.01743,20.800613,20.524582,20.237516,19.924503,19.676289,19.543268,19.536472,19.503183,19.332935,19.049622,18.387753,17.252537,15.89867,12.066432,8.5074625,7.9191093,7.548379,7.4932814,7.472769,7.4813805,7.5074844,7.526659,7.5531664,7.5853233,7.6118813,7.624564,7.6766157,7.786789,7.9204836,8.143206,8.433978,8.706736,9.130094,9.545357,9.782436,9.939346,10.056445,10.115283,10.145572,10.165167,10.171813,10.174957,10.185473,10.205069,10.227944,10.2607,10.300114,10.333302,10.362554,10.397915,10.428033,10.447895,10.464515,10.482226,10.504122,10.529764,10.557746,10.581455,10.607594,10.637875,10.664272,10.686676,10.712629,10.736382,10.755707,10.780402,10.803291,10.818562,10.834212,10.84889,10.860552,10.873175,10.888226,10.902281,10.915248,10.930916,10.945087,10.955664,10.967295,10.983186,11.002495,11.036136,11.08747,11.143442,11.210545,11.31559,11.43018,11.531252,11.653614,11.768866,11.8609915,11.958884,12.045307,12.108311,12.176559,12.234193,12.268102,12.299982,12.32225,12.322891,12.308012,12.276049,12.232378,12.19126,12.144226,12.105843,12.086054,12.075192,12.070879,12.067661,12.061493,12.046814,12.0258875,12.004304,11.977248,11.953243,11.937515,11.922719,11.917957,11.927101
20.09341,20.02049,19.959124,19.884315,19.810097,19.750484,19.683056,19.61319,19.555,19.4912,19.416613,19.348507,19.285328,19.20787,19.133257,19.070951,18.99253,18.908363,18.83605,18.757591,18.678707,18.617565,18.562542,18.509167,18.468353,18.434582,18.397335,18.364464,18.337877,18.308144,18.280304,18.258884,18.237106,18.218178,18.205116,18.192091,18.172384,18.150066,18.129452,18.105682,18.081856,18.059555,18.033169,18.00694,17.986694,17.967482,17.950773,17.94017,17.9329,17.93037,17.934689,17.943104,17.957407,17.974613,17.98959,18.008883,18.030495,18.049013,18.069443,18.092548,18.11296,18.132181,18.155273,18.179092,18.202908,18.235317,18.27099,18.302052,18.33959,18.378891,18.410366,18.442165,18.47631,18.506252,18.534771,18.572227,18.610859,18.64482,18.69054,18.737572,18.774208,18.81338,18.85084,18.877922,18.8955,18.905725,18.909597,18.912441,18.912636,18.910263,18.908138,18.898613,18.88795,18.883411,18.88219,18.885994,18.892754,18.902683,18.91906,18.938381,18.95842,18.987038,19.018639,19.046864,19.08252,19.123934,19.162735,19.20885,19.261522,19.30594,19.345608,19.380632,19.40253,19.418129,19.432386,19.437641,19.434326,19.422308,19.401707,19.381481,19.36016,19.339016,19.32478,19.317064,19.316544,19.32304,19.331871,19.34344,19.357449,19.372135,19.39225,19.41563,19.435207,19.452702,19.463348,19.464066,19.458445,19.447031,19.435434,19.426655,19.422695,19.428196,19.438864,19.462988,19.502304,19.543674,19.597118,19.6645,19.725136,19.779827,19.833324,19.872787,19.902187,19.944405,19.997772,20.050432,20.111937,20.17934,20.238049,20.304192,20.38585,20.464756,20.54369,20.629211,20.707283,20.780855,20.880198,20.984585,21.067932,21.173706,21.295206,21.40207,21.5183,21.654926,21.77404,21.873093,21.975357,22.047218,22.086563,22.123505,22.140553,22.137894,22.113106,22.04483,21.954557,21.850231,21.705984,21.553337,21.406551,21.198265,20.940048,20.668686,20.36116,20.115051,19.987614,19.966942,19.919554,19.743122,19.430012,18.758076,17.696148,16.59919,12.520504,8.544671,7.9320736,7.5557156,7.5150204,7.498539,7.508854,7.5366306,7.5585804,7.588512,7.626701,7.660264,7.6786118,7.7405386,7.8646646,8.012825,8.24987,8.5651245,8.865851,9.289438,9.678251,9.881276,10.014605,10.10429,10.139239,10.152105,10.15583,10.15804,10.167509,10.191623,10.228949,10.264228,10.29966,10.337118,10.368469,10.397785,10.432788,10.4644,10.489906,10.510567,10.528198,10.547228,10.574005,10.605065,10.631119,10.659435,10.692029,10.720722,10.746103,10.774992,10.80127,10.823596,10.847599,10.867887,10.881989,10.8964815,10.90905,10.9175205,10.925068,10.932468,10.938109,10.94245,10.946209,10.948561,10.95002,10.952961,10.958703,10.966165,10.979691,11.004293,11.035652,11.07567,11.152229,11.243811,11.321159,11.434344,11.554832,11.651168,11.755802,11.853126,11.928029,12.0078945,12.073686,12.111502,12.149488,12.181974,12.194336,12.189922,12.172775,12.139079,12.098042,12.051465,12.015608,12.000311,11.993395,11.992651,11.992359,11.989814,11.9813175,11.967976,11.953808,11.936093,11.920307,11.909741,11.9015045,11.906805,11.9291
20.116901,20.04678,19.988346,19.917994,19.849258,19.794664,19.73304,19.669317,19.616138,19.557283,19.488028,19.424664,19.366177,19.294289,19.22483,19.166769,19.093534,19.01442,18.945974,18.871384,18.795998,18.73735,18.684347,18.63301,18.594063,18.562172,18.527315,18.495876,18.469074,18.439117,18.41214,18.392693,18.372723,18.356157,18.344177,18.32561,18.302292,18.281284,18.263355,18.24176,18.21922,18.198189,18.172255,18.145359,18.123981,18.103245,18.08459,18.0723,18.06352,18.059673,18.063519,18.072193,18.087696,18.106945,18.123997,18.145653,18.169508,18.189632,18.211592,18.23603,18.257366,18.277485,18.3014,18.3256,18.349453,18.381435,18.41613,18.446077,18.481972,18.519276,18.549038,18.578993,18.611279,18.638996,18.662853,18.69553,18.73274,18.768934,18.81818,18.870924,18.914322,18.962065,19.009182,19.044868,19.076008,19.096481,19.104103,19.111897,19.117624,19.11972,19.120884,19.112806,19.102375,19.09853,19.099152,19.106028,19.1163,19.13147,19.155445,19.182991,19.211569,19.251629,19.29475,19.332512,19.378597,19.428877,19.473324,19.519726,19.563503,19.59513,19.62371,19.652798,19.675297,19.691837,19.708607,19.721624,19.73177,19.726873,19.709753,19.693993,19.68053,19.670746,19.667862,19.672237,19.686363,19.706114,19.726192,19.749779,19.773815,19.795992,19.825045,19.857584,19.884533,19.909412,19.926134,19.930298,19.927422,19.918163,19.908054,19.900562,19.900364,19.912228,19.929598,19.964169,20.017536,20.072231,20.141613,20.222431,20.28493,20.323975,20.36363,20.399517,20.430544,20.473442,20.526379,20.578442,20.639181,20.696476,20.737564,20.786945,20.849442,20.911892,20.974543,21.057796,21.144371,21.22095,21.322428,21.43118,21.521996,21.635529,21.765461,21.879667,22.003656,22.150959,22.27137,22.34592,22.424026,22.485703,22.526134,22.56222,22.575531,22.567669,22.536804,22.460953,22.363602,22.252293,22.100609,21.941484,21.78822,21.569567,21.313513,21.066296,20.760872,20.498165,20.355345,20.355217,20.319908,20.12399,19.765392,19.081852,18.077538,17.135674,12.8772335,8.604185,7.946439,7.557482,7.5294113,7.515703,7.5268855,7.5577755,7.584732,7.616955,7.659642,7.6992726,7.7226944,7.7927947,7.927583,8.086323,8.33186,8.657949,8.969002,9.378105,9.740948,9.92251,10.037529,10.106995,10.127385,10.133154,10.133435,10.143135,10.168526,10.20187,10.2415905,10.27594,10.3118105,10.350025,10.382,10.411676,10.446647,10.478842,10.506397,10.530469,10.549589,10.5667515,10.593998,10.626544,10.653678,10.682976,10.716442,10.745777,10.771787,10.801613,10.828617,10.850899,10.877124,10.899994,10.914862,10.928831,10.93829,10.942129,10.943777,10.943201,10.941057,10.938217,10.933727,10.930071,10.928733,10.929911,10.936372,10.94619,10.964101,10.995072,11.031265,11.074776,11.13623,11.200573,11.259932,11.338005,11.421991,11.498166,11.582455,11.660734,11.719534,11.782663,11.847704,11.900753,11.952999,12.003659,12.031437,12.038208,12.024513,11.986887,11.942004,11.893434,11.857382,11.842995,11.840753,11.850956,11.864141,11.874772,11.8834305,11.886769,11.886803,11.884146,11.879864,11.876291,11.875839,11.893581,11.928903
20.128632,20.063297,20.009365,19.944778,19.882385,19.833435,19.778397,19.721512,19.673841,19.620869,19.55819,19.500612,19.447495,19.381973,19.318516,19.265503,19.198608,19.126009,19.06284,18.993681,18.923615,18.868923,18.818352,18.769783,18.733406,18.702923,18.669611,18.640003,18.615356,18.587242,18.561611,18.543144,18.525368,18.505676,18.486279,18.463972,18.439503,18.419603,18.402967,18.38282,18.36139,18.341085,18.315409,18.288296,18.266598,18.245346,18.225752,18.212456,18.2029,18.198555,18.202644,18.212194,18.229595,18.251522,18.271156,18.295788,18.32249,18.344696,18.368668,18.394936,18.41764,18.43914,18.46457,18.489902,18.514473,18.546822,18.581295,18.610752,18.645607,18.681435,18.709854,18.738356,18.768719,18.79535,18.82053,18.855469,18.895746,18.93604,18.988518,19.045279,19.09439,19.14856,19.201927,19.242958,19.283943,19.319096,19.339111,19.352215,19.362804,19.365967,19.362484,19.35366,19.345304,19.342957,19.34619,19.356686,19.370571,19.390295,19.420628,19.455307,19.491837,19.542595,19.597149,19.645351,19.706064,19.762394,19.800144,19.839771,19.879555,19.911491,19.939518,19.968853,19.99233,20.009705,20.027771,20.04221,20.052765,20.062176,20.06172,20.052917,20.050362,20.05569,20.068398,20.089859,20.12468,20.163286,20.199726,20.243252,20.278587,20.298672,20.326359,20.35888,20.387653,20.416737,20.442112,20.456772,20.464966,20.46917,20.471067,20.473232,20.483658,20.5047,20.52891,20.571228,20.631748,20.689234,20.742216,20.799168,20.84649,20.881783,20.91988,20.954432,20.984137,21.022348,21.066292,21.108084,21.155941,21.205482,21.246712,21.295017,21.35682,21.418816,21.480452,21.562794,21.649406,21.726654,21.832352,21.948536,22.046677,22.168882,22.310791,22.43639,22.571215,22.702972,22.794758,22.865833,22.941422,22.999872,23.037346,23.07267,23.082304,23.065662,23.016855,22.921185,22.811104,22.688417,22.523209,22.35056,22.183552,21.95129,21.696873,21.471151,21.164753,20.879326,20.714926,20.767132,20.77254,20.55775,20.14843,19.454966,18.496155,17.63901,13.211077,8.684694,7.965082,7.559657,7.5456066,7.533891,7.5455065,7.5796328,7.6121435,7.647127,7.6948605,7.7411666,7.7705007,7.849389,7.9945745,8.162895,8.416225,8.751178,9.069247,9.458626,9.79096,9.950836,10.0535755,10.107825,10.115674,10.115182,10.128183,10.154797,10.182226,10.216438,10.255013,10.288109,10.32439,10.36375,10.396761,10.427289,10.463257,10.496281,10.524149,10.551391,10.572338,10.58713,10.61433,10.647375,10.674343,10.703371,10.736335,10.765196,10.790916,10.820971,10.848306,10.870326,10.896818,10.921108,10.938028,10.953083,10.961751,10.963229,10.961278,10.954654,10.946331,10.9388,10.93015,10.923506,10.919558,10.918498,10.923093,10.93141,10.950636,10.986286,11.027379,11.072819,11.132986,11.193764,11.250367,11.321555,11.3929405,11.453554,11.523283,11.589148,11.6380205,11.687653,11.7358265,11.772862,11.807066,11.83793,11.853025,11.855256,11.843755,11.818113,11.789772,11.759626,11.736868,11.726667,11.719113,11.735412,11.768711,11.796879,11.826245,11.847494,11.860813,11.875597,11.892581,11.9106865,11.928978,11.9531765,11.983797
20.143904,20.08481,20.036472,19.978535,19.922918,19.879787,19.831491,19.781404,19.739113,19.69222,19.636496,19.58506,19.537506,19.478752,19.42188,19.374489,19.315012,19.250467,19.194056,19.132318,19.069,19.01862,18.970997,18.925144,18.891308,18.86356,18.83326,18.806538,18.784729,18.75925,18.735447,18.717999,18.702438,18.679173,18.65198,18.627632,18.602589,18.582531,18.565655,18.545555,18.524511,18.504692,18.479477,18.452818,18.43151,18.410578,18.39091,18.377308,18.367733,18.363668,18.36861,18.37957,18.399456,18.424625,18.447342,18.475529,18.505608,18.530231,18.55653,18.584782,18.60886,18.631802,18.659,18.685932,18.711763,18.745327,18.780575,18.810398,18.845251,18.880726,18.908764,18.936968,18.96685,18.993612,19.020844,19.059269,19.103065,19.145962,19.200874,19.260925,19.314407,19.374664,19.43567,19.484066,19.534851,19.58518,19.619274,19.639944,19.65586,19.660501,19.655754,19.648504,19.643951,19.645094,19.653112,19.669247,19.688145,19.713848,19.752031,19.794992,19.840263,19.903793,19.969143,20.022451,20.082418,20.132742,20.164734,20.200405,20.240108,20.274754,20.304508,20.335247,20.359636,20.378056,20.39677,20.411165,20.420784,20.438614,20.45485,20.46246,20.4789,20.504765,20.5336,20.568867,20.616814,20.664433,20.70683,20.755358,20.793743,20.815773,20.846062,20.882935,20.91729,20.955074,20.993881,21.022717,21.045174,21.065975,21.0824,21.096731,21.119429,21.14796,21.17458,21.21699,21.273458,21.324808,21.368372,21.41431,21.455647,21.49408,21.53663,21.573793,21.604925,21.642994,21.684267,21.722225,21.765198,21.815407,21.863194,21.916412,21.982563,22.047436,22.111431,22.1959,22.28497,22.365425,22.478584,22.605938,22.714935,22.853786,23.008263,23.134724,23.2585,23.372501,23.453547,23.528515,23.609982,23.670462,23.706264,23.723825,23.708832,23.675985,23.610659,23.499462,23.376934,23.23944,23.05702,22.87381,22.707256,22.480595,22.232998,22.011826,21.698143,21.391632,21.2063,21.288868,21.319714,21.092768,20.656479,19.926474,18.960102,18.187168,13.566621,8.761503,7.9804263,7.5589237,7.5598783,7.5505514,7.563149,7.601058,7.639414,7.677163,7.729704,7.7823024,7.8172107,7.9041576,8.058264,8.234196,8.494007,8.835335,9.156874,9.5248375,9.825697,9.963512,10.053386,10.098417,10.105185,10.11117,10.136221,10.171314,10.197828,10.231787,10.269815,10.302378,10.338751,10.378595,10.412058,10.442828,10.478372,10.510953,10.538956,10.57004,10.594189,10.607836,10.6327,10.663866,10.690552,10.718576,10.750161,10.777837,10.802668,10.832314,10.859861,10.882263,10.909142,10.934018,10.951714,10.968398,10.977996,10.978798,10.974915,10.965654,10.954945,10.944971,10.933983,10.925697,10.920485,10.91916,10.924477,10.933735,10.955827,10.99559,11.040024,11.087643,11.150256,11.212704,11.269471,11.339335,11.404842,11.455414,11.513537,11.566845,11.604578,11.6403055,11.669695,11.687637,11.701643,11.710218,11.70974,11.703831,11.690599,11.672878,11.656845,11.641552,11.632021,11.629339,11.626642,11.643837,11.679264,11.721729,11.77188,11.814062,11.846951,11.885569,11.923561,11.955753,11.98633,12.009991,12.029688
20.170649,20.117476,20.07426,20.022346,19.972677,19.934456,19.891743,19.847122,19.809055,19.767021,19.716871,19.670353,19.627235,19.574007,19.522652,19.480001,19.42709,19.37001,19.320038,19.265463,19.208145,19.16114,19.116734,19.073627,19.042229,19.0181,18.99184,18.968315,18.948708,18.925415,18.903248,18.886812,18.872292,18.849129,18.82109,18.795925,18.76928,18.74741,18.729126,18.707838,18.68647,18.667019,18.642595,18.617004,18.596565,18.576302,18.557125,18.543903,18.534912,18.531696,18.537828,18.550362,18.57275,18.601017,18.626644,18.658213,18.691422,18.718182,18.746475,18.776184,18.801044,18.824802,18.85315,18.881374,18.90842,18.943546,18.980312,19.011292,19.047394,19.084133,19.113316,19.143108,19.175152,19.203999,19.232986,19.274315,19.321121,19.365814,19.423939,19.487669,19.543915,19.60893,19.676983,19.73241,19.79036,19.847616,19.887455,19.915253,19.938358,19.94987,19.953144,19.954315,19.957088,19.963818,19.979301,20.004017,20.030125,20.062836,20.10806,20.156458,20.206247,20.275837,20.343971,20.394737,20.442532,20.482464,20.51498,20.552052,20.59328,20.628147,20.658024,20.688778,20.713293,20.732162,20.751043,20.766138,20.777565,20.795101,20.818998,20.843307,20.877361,20.92015,20.95964,21.00137,21.052246,21.098507,21.137138,21.177944,21.214195,21.244747,21.284723,21.332815,21.37725,21.425243,21.474371,21.511627,21.542564,21.572872,21.597527,21.61896,21.64883,21.681128,21.70782,21.747908,21.798496,21.844833,21.89803,21.95813,22.008614,22.052753,22.10091,22.143063,22.178608,22.222477,22.270485,22.314825,22.36585,22.42408,22.477562,22.53645,22.60767,22.67619,22.743343,22.83434,22.932129,23.020447,23.144758,23.286428,23.409592,23.56333,23.722208,23.84039,23.945463,24.059023,24.157446,24.23928,24.324158,24.380604,24.407494,24.39907,24.3563,24.310734,24.23991,24.126328,23.999708,23.855154,23.664194,23.47879,23.321852,23.109016,22.865929,22.634548,22.308434,21.99476,21.809704,21.877838,21.889011,21.649128,21.218231,20.432323,19.395802,18.669907,13.849551,8.7922,7.983096,7.555316,7.56802,7.561989,7.576576,7.6181774,7.661256,7.701192,7.7572565,7.814347,7.8531904,7.945668,8.105613,8.286274,8.549971,8.895552,9.219724,9.57211,9.849733,9.970551,10.047943,10.08783,10.101307,10.1231575,10.15171,10.182642,10.209753,10.245146,10.284724,10.317926,10.354164,10.393614,10.426737,10.45705,10.491085,10.522176,10.549737,10.583191,10.610863,10.626434,10.648421,10.676017,10.70187,10.728744,10.758905,10.785273,10.809065,10.837861,10.865381,10.888565,10.916312,10.941471,10.958769,10.97653,10.987455,10.988746,10.984663,10.975779,10.965617,10.954932,10.942666,10.933645,10.928748,10.92915,10.938096,10.951426,10.97727,11.019076,11.0637245,11.112526,11.175298,11.236098,11.290213,11.355486,11.41564,11.461889,11.5121,11.554268,11.581354,11.605591,11.623236,11.632027,11.637419,11.637222,11.630183,11.619373,11.60198,11.58232,11.565877,11.552389,11.548237,11.552544,11.563476,11.580776,11.6044235,11.648495,11.709511,11.768757,11.819937,11.879169,11.92934,11.962467,11.992807,12.014303,12.031616
20.205486,20.157375,20.11847,20.071903,20.027634,19.993793,19.95599,19.916122,19.881676,19.843588,19.797882,19.755268,19.715662,19.666792,19.619806,19.58094,19.533379,19.482635,19.438347,19.38958,19.33685,19.292587,19.251907,19.21311,19.18532,19.164204,19.141193,19.1203,19.102592,19.081013,19.059965,19.04412,19.029057,19.00983,18.987995,18.96017,18.929644,18.905592,18.88538,18.862494,18.840672,18.821648,18.798275,18.774117,18.754774,18.73491,18.716282,18.703953,18.69571,18.693478,18.70087,18.714941,18.739704,18.770782,18.798954,18.833523,18.869438,18.897934,18.92778,18.958385,18.983444,19.007343,19.03597,19.06472,19.092434,19.12873,19.166973,19.199245,19.237095,19.276009,19.3073,19.339931,19.37584,19.408596,19.441591,19.487438,19.539074,19.589426,19.654594,19.723839,19.782578,19.851162,19.922762,19.980602,20.041906,20.094849,20.127693,20.158762,20.193445,20.221043,20.238642,20.25736,20.274235,20.288109,20.314415,20.352547,20.389828,20.429893,20.477762,20.523197,20.56723,20.6246,20.680565,20.725246,20.773064,20.81602,20.849033,20.885468,20.925797,20.960308,20.989704,21.01997,21.044018,21.062092,21.081055,21.09729,21.110022,21.130192,21.157757,21.185514,21.224594,21.274025,21.319775,21.367943,21.425571,21.477207,21.520212,21.56715,21.610952,21.649027,21.698994,21.75938,21.814518,21.86686,21.91467,21.948795,21.979164,22.010513,22.036846,22.059002,22.090351,22.126652,22.159443,22.207218,22.266602,22.320389,22.380943,22.448439,22.504578,22.553139,22.605867,22.652065,22.691246,22.739872,22.793411,22.843012,22.90142,22.966146,23.023407,23.088705,23.169834,23.248749,23.32515,23.42762,23.537085,23.635984,23.774363,23.935184,24.078686,24.22992,24.37743,24.493427,24.614227,24.74793,24.861385,24.962444,25.048697,25.082165,25.075539,25.056744,25.019293,24.975002,24.90157,24.785934,24.661003,24.52272,24.336208,24.14841,23.983753,23.756836,23.50097,23.264702,22.922718,22.612347,22.45557,22.507215,22.475496,22.201155,21.776539,20.943367,19.810379,19.012745,14.00028,8.780266,7.975086,7.550838,7.5714006,7.569504,7.5870085,7.632429,7.6795473,7.7213182,7.7802725,7.841094,7.8833213,7.98009,8.144436,8.328884,8.5942545,8.943628,9.272799,9.612648,9.87356,9.98427,10.052786,10.0853405,10.100166,10.135242,10.167948,10.19657,10.224064,10.260065,10.299926,10.332836,10.368725,10.40781,10.44071,10.470905,10.504938,10.534887,10.559044,10.591237,10.622103,10.643404,10.66474,10.688,10.710463,10.736092,10.7651825,10.790342,10.813337,10.841179,10.868069,10.891153,10.919467,10.94595,10.964668,10.98288,10.994265,10.99649,10.993761,10.985353,10.974749,10.963965,10.952148,10.944355,10.941027,10.943743,10.95657,10.974396,11.003576,11.047484,11.093096,11.142996,11.2057495,11.264853,11.316345,11.376909,11.4308605,11.4711075,11.513222,11.546057,11.564957,11.579291,11.585394,11.58415,11.580098,11.570099,11.555889,11.540285,11.519287,11.498608,11.482714,11.470858,11.469563,11.476859,11.491623,11.516525,11.545213,11.576769,11.6366825,11.707821,11.767396,11.835966,11.893808,11.9321,11.9594755,11.984581,12.015364
20.25432,20.212315,20.178406,20.138187,20.100227,20.07127,20.03894,20.00434,19.973898,19.940186,19.899414,19.861168,19.825527,19.781704,19.73991,19.7056,19.664719,19.621712,19.583967,19.540672,19.494087,19.45611,19.421432,19.38879,19.365812,19.348667,19.329987,19.3126,19.297337,19.27796,19.25827,19.243034,19.227253,19.211761,19.197163,19.173746,19.14133,19.111408,19.088364,19.063202,19.040787,19.022438,19.000895,18.979448,18.962425,18.944145,18.926413,18.914774,18.908325,18.908451,18.91816,18.93452,18.962376,18.997124,19.028946,19.067814,19.10743,19.138023,19.169544,19.200539,19.224869,19.247774,19.276037,19.305567,19.334553,19.37328,19.414726,19.449917,19.491611,19.535248,19.571148,19.61029,19.654984,19.696423,19.73798,19.795013,19.857567,19.916924,19.992374,20.0701,20.134052,20.200396,20.262325,20.309566,20.360306,20.407362,20.441442,20.47594,20.517838,20.556404,20.586866,20.622114,20.654757,20.6796,20.716324,20.763245,20.806713,20.852928,20.906292,20.954586,20.999329,21.054966,21.107773,21.149876,21.19755,21.241217,21.273693,21.30939,21.348778,21.382477,21.410925,21.440453,21.464228,21.481972,21.501883,21.52035,21.535366,21.559425,21.59205,21.624447,21.669857,21.726202,21.777468,21.831348,21.896698,21.95589,22.004898,22.058483,22.108559,22.152174,22.20739,22.270168,22.324917,22.3778,22.427418,22.464268,22.497845,22.533764,22.564571,22.590044,22.626087,22.668587,22.707935,22.76421,22.833305,22.895346,22.964094,23.04009,23.103138,23.157593,23.217102,23.269936,23.315321,23.372375,23.434715,23.491322,23.557768,23.63229,23.699324,23.775854,23.871246,23.964043,24.053635,24.172976,24.30104,24.418224,24.589539,24.773296,24.914986,25.075867,25.234982,25.35528,25.466728,25.59262,25.696342,25.764587,25.809986,25.813868,25.793472,25.76889,25.744097,25.723759,25.680332,25.603035,25.514442,25.41704,25.277658,25.113358,24.928963,24.675606,24.401865,24.159374,23.798122,23.523762,23.455929,23.42107,23.263073,22.940598,22.548931,21.642582,20.338787,19.422699,14.129816,8.701721,7.9540024,7.5495386,7.575337,7.5791807,7.5990305,7.6474295,7.6987886,7.7433357,7.805105,7.8686876,7.913951,8.014355,8.182041,8.3690815,8.63442,8.986787,9.321703,9.65147,9.898386,10.000755,10.062904,10.089409,10.103257,10.14464,10.184224,10.216055,10.242362,10.2782,10.317967,10.35046,10.385616,10.423995,10.456539,10.486531,10.520609,10.550106,10.57283,10.6012,10.630983,10.656443,10.6817045,10.706474,10.727444,10.750849,10.776882,10.798817,10.81735,10.841898,10.867975,10.8912945,10.9200115,10.947435,10.967428,10.986702,10.999161,11.002351,11.00062,10.992833,10.982548,10.972399,10.962109,10.956709,10.955938,10.962149,10.979261,11.001046,11.03377,11.080267,11.126993,11.177269,11.238726,11.294781,11.342377,11.396574,11.44269,11.475628,11.508206,11.530382,11.540123,11.543795,11.537937,11.526531,11.51285,11.49292,11.471371,11.450617,11.425261,11.402367,11.385702,11.373873,11.374031,11.383493,11.401077,11.431822,11.466346,11.499476,11.556062,11.621727,11.677625,11.749422,11.813595,11.854281,11.893515,11.935471,11.978086
20.313192,20.277557,20.248714,20.214794,20.182848,20.158337,20.130896,20.100933,20.074003,20.04414,20.00776,19.97348,19.941502,19.902542,19.86584,19.835928,19.801277,19.765244,19.73334,19.69642,19.658142,19.62846,19.601158,19.575844,19.558525,19.54607,19.532536,19.519333,19.506977,19.490366,19.472515,19.458168,19.44253,19.428596,19.417934,19.403189,19.375454,19.343441,19.31691,19.289135,19.26649,19.249275,19.230461,19.213062,19.199684,19.184986,19.170366,19.160997,19.157482,19.161226,19.174402,19.193981,19.225975,19.265028,19.30054,19.343515,19.38628,19.418327,19.45077,19.4814,19.50456,19.526253,19.554361,19.585472,19.61678,19.660164,19.707918,19.748924,19.798258,19.851154,19.895735,19.945618,20.003876,20.05817,20.11274,20.182718,20.25209,20.311909,20.38665,20.462004,20.522936,20.581823,20.632772,20.670238,20.710526,20.755587,20.795803,20.833744,20.879532,20.92369,20.962011,21.008362,21.054646,21.092222,21.139984,21.1944,21.241734,21.292934,21.352257,21.405645,21.454159,21.513771,21.568787,21.610878,21.657305,21.698776,21.729366,21.763409,21.801273,21.833775,21.861063,21.890198,21.91474,21.933697,21.956593,21.979248,21.998095,22.027237,22.065426,22.102442,22.15363,22.216164,22.27203,22.329472,22.397106,22.45752,22.508335,22.564812,22.618015,22.664074,22.720606,22.781273,22.832005,22.884974,22.93895,22.981865,23.020884,23.063414,23.100471,23.13131,23.17451,23.22464,23.27044,23.334944,23.413078,23.48265,23.559368,23.644093,23.714706,23.776224,23.84457,23.906109,23.958992,24.025932,24.098757,24.164139,24.240803,24.328789,24.409801,24.501087,24.6142,24.724064,24.830433,24.97343,25.125889,25.264359,25.449358,25.627178,25.749912,25.908283,26.072094,26.19318,26.297241,26.40142,26.472355,26.49715,26.502598,26.493397,26.484062,26.470703,26.463743,26.466688,26.455868,26.419441,26.367716,26.309399,26.216133,26.086048,25.915058,25.673357,25.407604,25.169048,24.825487,24.565674,24.489672,24.311377,24.03944,23.72781,23.407269,22.454205,20.960377,19.836996,14.2052555,8.575159,7.9245644,7.552453,7.580858,7.590822,7.6125727,7.662715,7.717228,7.764635,7.828288,7.8927746,7.939582,8.04162,8.210223,8.397364,8.661346,9.015337,9.354608,9.678646,9.917929,10.016404,10.076029,10.097761,10.107602,10.148807,10.193493,10.231835,10.260864,10.296993,10.335664,10.367568,10.402039,10.43981,10.472043,10.501886,10.535967,10.565522,10.588511,10.613695,10.639526,10.663673,10.692083,10.720699,10.742487,10.764819,10.788904,10.808977,10.825169,10.847594,10.871811,10.892662,10.920559,10.948523,10.968982,10.989025,11.002218,11.005764,11.004172,10.9966545,10.987007,10.977818,10.969525,10.9669075,10.968901,10.978641,10.99914,11.023254,11.058163,11.105871,11.152399,11.201283,11.259451,11.31101,11.353785,11.401056,11.4395075,11.465733,11.489973,11.503275,11.505625,11.500999,11.486205,11.467178,11.445565,11.416521,11.387661,11.361917,11.332275,11.307529,11.290937,11.279388,11.279566,11.288663,11.307071,11.339935,11.377965,11.4197645,11.476095,11.533676,11.58478,11.655174,11.721756,11.765334,11.8184395,11.874609,11.921852
20.369875,20.33985,20.31545,20.286768,20.259596,20.23853,20.214758,20.188187,20.16383,20.136784,20.10366,20.072384,20.043217,20.00815,19.97553,19.949028,19.918747,19.887516,19.85992,19.830696,19.801481,19.778744,19.758137,19.73973,19.727913,19.72,19.711456,19.702347,19.692873,19.679178,19.663462,19.650305,19.63586,19.621586,19.610678,19.60179,19.5836,19.557453,19.528019,19.498077,19.475708,19.459906,19.444115,19.431046,19.421646,19.411625,19.402332,19.397327,19.397112,19.404675,19.421665,19.444817,19.481457,19.524685,19.562885,19.608501,19.65287,19.685337,19.717815,19.74789,19.770454,19.791943,19.821003,19.854597,19.889057,19.93866,19.9948,20.043533,20.103058,20.167814,20.222736,20.283653,20.354866,20.42101,20.487972,20.565521,20.631325,20.679794,20.739609,20.79869,20.84555,20.8974,20.949017,20.990278,21.033861,21.082088,21.124899,21.165981,21.216667,21.266228,21.308907,21.362003,21.41819,21.466469,21.526241,21.591476,21.645378,21.701624,21.764547,21.819439,21.868252,21.92681,21.98016,22.021297,22.065983,22.105143,22.133614,22.165186,22.20089,22.232237,22.258636,22.288078,22.314377,22.33572,22.362967,22.39088,22.414253,22.448536,22.491062,22.530767,22.58498,22.65166,22.711126,22.770039,22.833076,22.886024,22.932732,22.987875,23.042229,23.089186,23.147352,23.210766,23.264488,23.320381,23.377613,23.423641,23.466187,23.513443,23.55545,23.590889,23.640337,23.697369,23.74924,23.821255,23.907333,23.983337,24.06689,24.15926,24.236763,24.304966,24.381987,24.451818,24.511112,24.585995,24.668034,24.742512,24.831287,24.93353,25.027138,25.132408,25.262682,25.38929,25.512157,25.67944,25.853601,26.006832,26.16632,26.305252,26.41386,26.545034,26.683727,26.796082,26.919666,27.015648,27.054974,27.077557,27.086456,27.088009,27.095573,27.1073,27.117577,27.121422,27.113972,27.081322,27.033138,26.978533,26.888985,26.778927,26.666882,26.48765,26.261395,26.039215,25.753166,25.451187,25.206188,24.89622,24.605768,24.378948,24.148762,23.206558,21.573738,20.187244,14.238884,8.460418,7.8985596,7.5568275,7.5873547,7.60216,7.626011,7.677455,7.7336607,7.7830257,7.847541,7.9117837,7.9587812,8.060822,8.2286415,8.414284,8.676949,9.031654,9.372952,9.693678,9.9300165,10.028139,10.086807,10.10384,10.10879,10.149696,10.194765,10.237434,10.274596,10.312384,10.349533,10.380884,10.415094,10.45269,10.484804,10.514671,10.548742,10.57823,10.60121,10.626259,10.649359,10.668214,10.694374,10.723282,10.746221,10.769602,10.794884,10.816559,10.836243,10.860116,10.881674,10.897135,10.923004,10.951286,10.971537,10.99133,11.00418,11.007366,11.0053625,10.997557,10.988062,10.979449,10.97262,10.972109,10.976149,10.9882965,11.0108185,11.036061,11.071428,11.118312,11.163034,11.209293,11.263237,11.310045,11.348247,11.389624,11.422234,11.443722,11.462469,11.47037,11.468439,11.459071,11.439228,11.415642,11.388533,11.351862,11.316156,11.285948,11.252741,11.227438,11.212744,11.20298,11.202705,11.209269,11.226812,11.259726,11.298553,11.341864,11.40284,11.46657,11.523262,11.593096,11.659145,11.708921,11.76318,11.817896,11.864431
20.434322,20.410652,20.391249,20.368423,20.346521,20.329191,20.309368,20.286558,20.265179,20.2414,20.212006,20.183855,20.156921,20.125183,20.096489,20.073551,20.048023,20.023352,20.002888,19.982403,19.962883,19.948126,19.935413,19.925297,19.920135,19.917698,19.915272,19.911263,19.905397,19.895435,19.882542,19.871,19.858074,19.84458,19.833895,19.824623,19.813696,19.797958,19.772379,19.742935,19.720133,19.706413,19.694729,19.6875,19.683567,19.680122,19.67828,19.679596,19.685402,19.699776,19.722706,19.750748,19.79308,19.841272,19.882984,19.93218,19.979202,20.01306,20.04657,20.077461,20.101063,20.124075,20.158083,20.200134,20.244072,20.309376,20.38491,20.451,20.534706,20.617167,20.675274,20.731209,20.793098,20.851082,20.908634,20.97805,21.041115,21.091211,21.151823,21.21027,21.255814,21.30746,21.360062,21.402767,21.447931,21.49888,21.545166,21.59005,21.646578,21.70288,21.751795,21.812458,21.876312,21.930883,21.997253,22.070183,22.131493,22.195366,22.26684,22.328453,22.3819,22.443512,22.497528,22.53834,22.583088,22.622927,22.652317,22.683228,22.717308,22.747566,22.774342,22.806087,22.835575,22.859358,22.89117,22.924479,22.95216,22.99058,23.035618,23.075916,23.12845,23.189953,23.24294,23.294975,23.352371,23.402042,23.445202,23.496834,23.548607,23.5938,23.650112,23.712261,23.7655,23.821037,23.87876,23.926167,23.970718,24.021288,24.06728,24.106709,24.161688,24.224878,24.282162,24.360668,24.453266,24.53437,24.624107,24.724068,24.808262,24.881462,24.965046,25.042875,25.110962,25.197206,25.29191,25.377947,25.4814,25.601294,25.711134,25.836084,25.97986,26.109324,26.236034,26.394526,26.54316,26.660503,26.800114,26.939358,27.054516,27.189655,27.334158,27.450317,27.555965,27.633478,27.667107,27.689472,27.708359,27.72638,27.74831,27.772007,27.79166,27.803865,27.806507,27.785412,27.747765,27.705025,27.630924,27.539661,27.452488,27.306664,27.109722,26.908497,26.60433,26.222637,25.877262,25.519176,25.21802,25.02143,24.955608,24.067486,22.27761,20.624996,14.3144455,8.342815,7.8738933,7.564032,7.595957,7.612957,7.6400814,7.6939583,7.7512236,7.8020616,7.8667316,7.9300494,7.9767246,8.078354,8.245106,8.429014,8.688974,9.041597,9.382116,9.698311,9.934237,10.034792,10.086434,10.098387,10.103016,10.144392,10.189609,10.232269,10.269585,10.312715,10.355969,10.389545,10.422962,10.459099,10.490868,10.52099,10.555418,10.585058,10.60801,10.632675,10.654667,10.671982,10.69429,10.719239,10.740328,10.762611,10.787886,10.810355,10.830967,10.855669,10.878513,10.896782,10.919451,10.943251,10.963247,10.98247,10.994282,10.99609,10.992653,10.98337,10.973085,10.964479,10.95853,10.959614,10.965285,10.979303,11.003233,11.029037,11.064075,11.109194,11.151402,11.194752,11.244226,11.286041,11.319485,11.354797,11.381619,11.398659,11.41254,11.416027,11.410846,11.398272,11.374958,11.3492775,11.324564,11.289305,11.251112,11.215278,11.175811,11.144857,11.125259,11.113019,11.110319,11.113108,11.127162,11.158115,11.197521,11.243143,11.309135,11.379173,11.441912,11.517953,11.589405,11.643731,11.702636,11.759611,11.8053055
20.506718,20.4898,20.475689,20.459106,20.442839,20.429508,20.413818,20.394627,20.375832,20.354935,20.328844,20.30375,20.279716,20.252188,20.2279,20.208305,20.188549,20.172054,20.159788,20.148754,20.139585,20.133526,20.129616,20.128922,20.131432,20.135311,20.140106,20.142288,20.14087,20.135712,20.126656,20.11742,20.106733,20.094788,20.084602,20.07395,20.065212,20.05723,20.044497,20.02036,19.997126,19.986038,19.979683,19.980202,19.983719,19.989576,19.998589,20.00938,20.024658,20.04988,20.082382,20.1185,20.170773,20.228077,20.276352,20.332699,20.385223,20.422169,20.460154,20.498352,20.530655,20.5632,20.610298,20.665123,20.719326,20.79567,20.880474,20.953304,21.043564,21.130455,21.190292,21.246689,21.30653,21.360521,21.412098,21.477276,21.541172,21.595825,21.661144,21.723293,21.771305,21.825153,21.879677,21.924046,21.971138,22.025158,22.07507,22.123547,22.185326,22.247414,22.301445,22.36858,22.438793,22.498165,22.569496,22.648487,22.71589,22.785824,22.864,22.93076,22.987524,23.051323,23.10564,23.145737,23.190111,23.230457,23.261002,23.293507,23.32986,23.362352,23.391066,23.425785,23.459131,23.487267,23.52533,23.5649,23.59731,23.639946,23.687288,23.727976,23.77848,23.834167,23.879864,23.924026,23.974129,24.01828,24.055288,24.098999,24.14307,24.182293,24.231579,24.287155,24.335758,24.386635,24.440807,24.486752,24.530912,24.5826,24.630959,24.673014,24.731594,24.799011,24.860348,24.943516,25.04052,25.124182,25.212101,25.306673,25.385956,25.45739,25.541607,25.623165,25.696827,25.791128,25.895481,25.990444,26.104885,26.236664,26.356106,26.490482,26.64283,26.777847,26.912418,27.056862,27.176865,27.272366,27.40797,27.558115,27.68272,27.82706,27.981152,28.101065,28.181202,28.242302,28.28041,28.30389,28.333176,28.36554,28.39646,28.42567,28.449043,28.466244,28.477884,28.471464,28.450272,28.42799,28.380451,28.309505,28.231133,28.082708,27.874935,27.665909,27.347,26.933254,26.547308,26.16106,25.830822,25.64539,25.794392,25.014957,23.095486,21.204975,14.475287,8.233459,7.8537793,7.57335,7.6068525,7.6250973,7.655634,7.7121115,7.77011,7.822115,7.886232,7.9477587,7.9934406,8.093975,8.259291,8.441507,8.696907,9.044706,9.382582,9.694317,9.926609,10.024693,10.069666,10.079795,10.0869875,10.128439,10.173387,10.214715,10.249815,10.294319,10.340771,10.376696,10.412618,10.452299,10.487011,10.517588,10.5519705,10.581278,10.603689,10.627503,10.648481,10.664896,10.684005,10.705219,10.724136,10.744911,10.769514,10.792011,10.812546,10.8376255,10.861943,10.883032,10.905114,10.926249,10.944508,10.960289,10.968487,10.967968,10.961756,10.949625,10.936983,10.925658,10.9178705,10.918882,10.925348,10.940794,10.96638,10.993351,11.029184,11.07379,11.113832,11.152365,11.195162,11.230974,11.259504,11.289519,11.312429,11.327245,11.339821,11.343775,11.339966,11.328257,11.304848,11.278357,11.253124,11.217536,11.177982,11.138545,11.094189,11.057398,11.031829,11.0133915,11.005617,11.005113,11.0140705,11.040722,11.078822,11.125097,11.1944065,11.269548,11.33745,11.420673,11.498802,11.557315,11.620985,11.682356,11.731184
20.57286,20.561508,20.551743,20.540285,20.52867,20.51868,20.506437,20.490215,20.4735,20.454914,20.431541,20.409283,20.388664,20.36552,20.345375,20.328865,20.314896,20.305922,20.30027,20.297096,20.296604,20.297886,20.301506,20.30899,20.318262,20.327759,20.339119,20.34713,20.350037,20.349758,20.344852,20.33831,20.330345,20.320492,20.31139,20.30164,20.291565,20.28521,20.285015,20.269768,20.249838,20.241207,20.240307,20.248861,20.260204,20.276077,20.297024,20.3184,20.34432,20.382126,20.42559,20.470337,20.530834,20.594261,20.647041,20.708626,20.76595,20.806595,20.850822,20.899876,20.94479,20.990618,21.053394,21.12067,21.183073,21.26428,21.348362,21.417866,21.498383,21.579739,21.644316,21.712383,21.785776,21.848719,21.907635,21.979916,22.048481,22.105492,22.173264,22.237347,22.286633,22.342106,22.3987,22.44511,22.494295,22.551178,22.604034,22.655071,22.720272,22.785793,22.842524,22.913755,22.98873,23.052103,23.127605,23.210617,23.280958,23.353018,23.432705,23.499996,23.556505,23.619709,23.673203,23.71238,23.755816,23.795921,23.827118,23.862644,23.904465,23.942213,23.974451,24.012878,24.050533,24.084402,24.12935,24.174885,24.211613,24.257938,24.30724,24.348408,24.398083,24.451107,24.493103,24.53233,24.574562,24.609837,24.638515,24.671444,24.704678,24.735088,24.773743,24.818867,24.859653,24.90253,24.949772,24.991562,25.032814,25.08294,25.13127,25.17368,25.233002,25.300667,25.361347,25.442337,25.535788,25.615376,25.693737,25.774212,25.841902,25.907646,25.988596,26.069738,26.14423,26.240807,26.34887,26.447678,26.566807,26.70243,26.823467,26.956045,27.113268,27.259453,27.405294,27.547997,27.664135,27.773132,27.917881,28.07124,28.196678,28.340654,28.49336,28.610744,28.679688,28.734293,28.774113,28.797691,28.82896,28.86356,28.89468,28.924786,28.94907,28.966831,28.983643,28.989658,28.984665,28.983856,28.96466,28.913837,28.841646,28.673637,28.434948,28.207287,27.90926,27.527403,27.147661,26.735415,26.356596,26.164452,26.48483,25.838501,23.87949,21.843575,14.71188,8.156333,7.840969,7.5807257,7.6172104,7.636786,7.6698294,7.7282205,7.786916,7.8399982,7.9034176,7.9630175,8.007673,8.106976,8.27098,8.45208,8.702196,9.043375,9.376743,9.681393,9.90553,9.997988,10.0397415,10.052392,10.064007,10.104696,10.14916,10.189928,10.22401,10.264954,10.308464,10.344658,10.384342,10.42991,10.468955,10.500856,10.536237,10.566163,10.58876,10.611751,10.631088,10.646005,10.663816,10.683817,10.701702,10.721507,10.745199,10.767117,10.787366,10.812318,10.836353,10.85656,10.880297,10.9018135,10.916775,10.927055,10.929819,10.9261265,10.915773,10.899067,10.88239,10.8666115,10.855157,10.854773,10.861222,10.877514,10.904714,10.933182,10.970579,11.015966,11.055125,11.089836,11.127241,11.158434,11.1833515,11.209803,11.2306595,11.244892,11.25832,11.265241,11.265034,11.256524,11.23568,11.209568,11.179993,11.140635,11.100265,11.061362,11.016186,10.976596,10.947583,10.922092,10.907894,10.904768,10.9086895,10.93014,10.965244,11.01008,11.079779,11.157127,11.227755,11.31518,11.39807,11.460551,11.528065,11.594532,11.649475
20.633621,20.626785,20.620483,20.612844,20.604515,20.59687,20.587156,20.5739,20.560091,20.544548,20.5249,20.506134,20.488739,20.468472,20.451338,20.438972,20.43024,20.427284,20.427202,20.430508,20.437126,20.444452,20.454325,20.468643,20.483637,20.497986,20.51509,20.528378,20.53544,20.53992,20.539337,20.535892,20.531136,20.524025,20.51663,20.508255,20.499653,20.494682,20.49435,20.48986,20.482315,20.475338,20.479801,20.496395,20.515465,20.541382,20.574265,20.606485,20.64436,20.697948,20.754274,20.806374,20.863277,20.915955,20.961517,21.015736,21.070374,21.11361,21.161907,21.217834,21.270111,21.322994,21.395504,21.47405,21.548119,21.64581,21.746548,21.828266,21.921635,22.014786,22.08815,22.164314,22.246254,22.316456,22.381271,22.459805,22.53331,22.59379,22.665222,22.732182,22.783314,22.840925,22.89978,22.948135,22.999298,23.058819,23.11436,23.167725,23.236038,23.304749,23.364136,23.438623,23.516716,23.582413,23.660053,23.745132,23.817123,23.890259,23.970505,24.037718,24.093739,24.15609,24.208813,24.247583,24.290974,24.33228,24.365602,24.403942,24.450161,24.4928,24.530455,24.57586,24.620274,24.660213,24.712727,24.765072,24.806671,24.856817,24.9076,24.948448,24.995714,25.04353,25.079252,25.111052,25.143017,25.167522,25.186005,25.205692,25.225586,25.24515,25.270874,25.303375,25.334711,25.367847,25.406233,25.442196,25.478977,25.525846,25.572649,25.614105,25.673595,25.737392,25.788513,25.852842,25.924807,25.98701,26.054129,26.129702,26.19721,26.26231,26.343285,26.425371,26.501324,26.600147,26.711342,26.813465,26.937513,27.079422,27.206131,27.344439,27.508614,27.659298,27.802494,27.94689,28.068047,28.179474,28.325441,28.47793,28.601429,28.741898,28.88953,29.002546,29.069477,29.121918,29.16034,29.186678,29.214699,29.240372,29.26284,29.286203,29.310427,29.333435,29.355343,29.36895,29.373358,29.38625,29.386852,29.354092,29.295027,29.129192,28.900673,28.709257,28.430958,28.059444,27.691778,27.298252,26.88076,26.634457,27.058062,26.550138,24.628403,22.512749,14.995788,8.099932,7.8293657,7.583989,7.6260176,7.646725,7.682021,7.742198,7.8017187,7.8562484,7.9191875,7.976985,8.021059,8.119434,8.282335,8.462637,8.70727,9.040109,9.365852,9.654184,9.869333,9.963985,10.002125,10.0186615,10.037056,10.076569,10.120087,10.160185,10.19353,10.23344,10.275436,10.310083,10.348333,10.392355,10.431469,10.46737,10.508708,10.543879,10.57025,10.593355,10.610062,10.623013,10.63847,10.656398,10.6731,10.691819,10.714636,10.736067,10.75605,10.780813,10.804545,10.824259,10.84712,10.865931,10.876724,10.882197,10.880042,10.872247,10.855881,10.831255,10.808242,10.789282,10.775627,10.774469,10.780804,10.797384,10.824968,10.853479,10.89011,10.934473,10.973412,11.010124,11.048971,11.079584,11.102854,11.126295,11.143843,11.155628,11.166612,11.171662,11.170486,11.162992,11.145092,11.122157,11.095205,11.0581665,11.020084,10.985062,10.941487,10.899612,10.86657,10.834543,10.813381,10.805542,10.803774,10.819726,10.851426,10.8943,10.963687,11.042635,11.115591,11.206989,11.294692,11.36132,11.433708,11.504784,11.562886
20.70676,20.70399,20.701029,20.697548,20.693281,20.688744,20.682573,20.673393,20.663387,20.652067,20.636662,20.621185,20.606838,20.591103,20.57917,20.571537,20.568516,20.571678,20.577023,20.58649,20.59972,20.61261,20.628271,20.649017,20.669508,20.688545,20.711456,20.7304,20.742102,20.752144,20.757011,20.75776,20.757637,20.754997,20.75087,20.745422,20.740108,20.737938,20.73822,20.745003,20.751335,20.749105,20.760841,20.787235,20.816391,20.855831,20.906178,20.952682,20.997662,21.053997,21.109344,21.159512,21.215635,21.268349,21.31341,21.367708,21.424875,21.472576,21.526623,21.590956,21.652191,21.714027,21.799978,21.893436,21.98095,22.094418,22.21113,22.307,22.417446,22.527693,22.613747,22.701565,22.795097,22.874493,22.946606,23.0329,23.112793,23.178104,23.254482,23.325588,23.379887,23.441277,23.504128,23.555733,23.61004,23.673012,23.731518,23.787334,23.85865,23.930191,23.991802,24.069178,24.150108,24.217865,24.296894,24.38298,24.455769,24.529257,24.609749,24.677277,24.733667,24.796886,24.851425,24.892633,24.940325,24.987457,25.026257,25.071037,25.125553,25.176498,25.223095,25.279642,25.333776,25.381496,25.436749,25.486202,25.524368,25.567886,25.609798,25.642778,25.680248,25.71729,25.744358,25.768158,25.791302,25.807762,25.81898,25.82836,25.836313,25.844933,25.855297,25.869951,25.886106,25.903072,25.925362,25.94913,25.974873,26.010344,26.047619,26.08087,26.129307,26.182304,26.225647,26.280619,26.341875,26.39478,26.455322,26.527111,26.593418,26.657593,26.73821,26.820871,26.897968,26.999168,27.114094,27.22019,27.349354,27.49725,27.629238,27.773361,27.944801,28.100372,28.241638,28.388294,28.514183,28.626945,28.772188,28.92117,29.040236,29.174297,29.3138,29.42062,29.487274,29.540747,29.577919,29.600538,29.615383,29.629326,29.65272,29.678505,29.707375,29.735472,29.762096,29.781942,29.794016,29.815926,29.843403,29.841112,29.791351,29.644741,29.443825,29.279297,29.018282,28.660774,28.30934,27.924934,27.467127,27.163399,27.578735,27.293875,25.612154,23.457775,15.435339,8.052156,7.822419,7.5884,7.6375422,7.659827,7.697774,7.759638,7.819428,7.8748865,7.937872,7.994895,8.038565,8.135918,8.297329,8.476404,8.714947,9.033628,9.342218,9.609598,9.81572,9.913664,9.941615,9.965323,9.999192,10.037222,10.079401,10.118504,10.15081,10.189267,10.229433,10.262429,10.299042,10.341562,10.38034,10.417961,10.461395,10.498161,10.525675,10.550713,10.569727,10.584593,10.602385,10.620218,10.63433,10.651222,10.672387,10.692693,10.711853,10.735672,10.758172,10.776397,10.796634,10.811081,10.8168545,10.816075,10.804054,10.785628,10.760103,10.72693,10.697853,10.674076,10.65469,10.649536,10.654776,10.670818,10.699317,10.729614,10.76865,10.814127,10.852472,10.889513,10.928015,10.957272,10.978733,10.99946,11.014404,11.024471,11.034186,11.039179,11.038937,11.034007,11.020325,11.001562,10.9786215,10.945577,10.910576,10.878471,10.837053,10.795204,10.760799,10.723294,10.693457,10.677964,10.670172,10.679745,10.705865,10.744669,10.81156,10.890984,10.966341,11.062546,11.156662,11.229145,11.308606,11.386467,11.44919
20.780283,20.780815,20.780739,20.781162,20.78099,20.779713,20.777298,20.772308,20.766052,20.758991,20.748196,20.736624,20.72588,20.71585,20.709929,20.706661,20.708656,20.71677,20.726238,20.740223,20.758099,20.774822,20.794487,20.819765,20.84424,20.866713,20.894125,20.917786,20.933598,20.948858,20.959267,20.96461,20.969805,20.97274,20.973055,20.971828,20.971224,20.97316,20.9763,20.989914,21.006847,21.015707,21.038298,21.074411,21.111355,21.15958,21.219757,21.273392,21.320576,21.374512,21.425423,21.472183,21.531918,21.5924,21.642317,21.7025,21.76572,21.818398,21.878387,21.950806,22.020628,22.091434,22.19009,22.29628,22.393848,22.51877,22.647419,22.754545,22.878975,23.003906,23.101387,23.199982,23.303843,23.39072,23.46812,23.559917,23.644554,23.713728,23.794468,23.869844,23.92781,23.99367,24.061234,24.116554,24.174374,24.240635,24.301495,24.35921,24.432722,24.506199,24.569372,24.647215,24.726645,24.79189,24.86773,24.950344,25.020454,25.09114,25.169094,25.235415,25.291653,25.356056,25.413624,25.458805,25.51252,25.566963,25.612188,25.66433,25.727125,25.785175,25.838482,25.90176,25.96034,26.010746,26.064264,26.107899,26.140343,26.175314,26.207321,26.23212,26.26019,26.287905,26.308304,26.326624,26.344555,26.356781,26.364262,26.367767,26.367962,26.368774,26.3679,26.368313,26.371267,26.37376,26.381178,26.39332,26.408161,26.43203,26.459442,26.484215,26.520796,26.564602,26.605024,26.659142,26.720642,26.77301,26.832249,26.901981,26.966576,27.030088,27.1105,27.193623,27.271584,27.375044,27.49358,27.603355,27.736504,27.888254,28.0233,28.171215,28.348484,28.508392,28.64744,28.794937,28.923843,29.037315,29.181198,29.326279,29.44081,29.568829,29.70156,29.803596,29.86959,29.920673,29.952942,29.971313,29.97763,29.98774,30.018543,30.053417,30.089882,30.12187,30.152256,30.176584,30.194,30.221323,30.270891,30.295525,30.25322,30.130905,29.959377,29.80981,29.570606,29.240372,28.910044,28.467337,27.965706,27.671658,28.00587,27.953182,26.623978,24.54995,15.995577,8.025104,7.8216867,7.5918365,7.649591,7.675091,7.715415,7.778323,7.8381643,7.894182,7.9578776,8.015473,8.0596895,8.156428,8.31616,8.493766,8.726702,9.027673,9.312322,9.560354,9.756222,9.854391,9.883175,9.916926,9.9606,9.995682,10.035921,10.074049,10.105148,10.141928,10.180298,10.211979,10.247421,10.2890625,10.327285,10.364281,10.406441,10.441845,10.468321,10.494927,10.516951,10.533786,10.5536995,10.572202,10.585422,10.601777,10.622144,10.64146,10.659543,10.681654,10.701805,10.717451,10.733625,10.742552,10.74279,10.734688,10.710924,10.679826,10.643251,10.6,10.56409,10.534863,10.509986,10.50141,10.505478,10.520807,10.549902,10.581648,10.622726,10.66971,10.708267,10.745064,10.783034,10.811743,10.8326845,10.852664,10.867037,10.876916,10.8870945,10.893858,10.896097,10.894552,10.885258,10.87052,10.851547,10.822512,10.790025,10.758953,10.718231,10.675997,10.640385,10.598423,10.560223,10.536006,10.521056,10.524269,10.546217,10.582811,10.649401,10.730032,10.806227,10.905517,11.004943,11.082922,11.16935,11.254391,11.322395
20.842964,20.84644,20.848904,20.852581,20.855705,20.857025,20.857557,20.855816,20.852509,20.848667,20.842627,20.83615,20.829996,20.825256,20.823956,20.824259,20.830124,20.841805,20.85412,20.871124,20.891993,20.911123,20.933311,20.961454,20.988495,21.01323,21.043678,21.07071,21.089645,21.109055,21.12413,21.133537,21.143532,21.151686,21.156311,21.1593,21.163403,21.169392,21.176,21.19139,21.214903,21.238892,21.274666,21.318817,21.358585,21.406715,21.462296,21.511452,21.561026,21.621706,21.67992,21.731838,21.795975,21.859459,21.91176,21.975004,22.04191,22.098127,22.162472,22.240913,22.317032,22.394524,22.500847,22.613586,22.716064,22.849796,22.988522,23.103188,23.235714,23.368664,23.472616,23.577251,23.686766,23.777348,23.856474,23.94983,24.035994,24.106634,24.1899,24.268524,24.32946,24.398952,24.470331,24.528587,24.589157,24.657719,24.719992,24.778858,24.853756,24.92847,24.992868,25.068665,25.141727,25.199306,25.267288,25.342194,25.406372,25.47122,25.543566,25.606342,25.660778,25.72476,25.783943,25.831839,25.888971,25.947628,25.996984,26.053751,26.1207,26.18095,26.234959,26.29588,26.350029,26.395607,26.447762,26.493038,26.526333,26.562025,26.594173,26.618542,26.645496,26.67123,26.689453,26.705395,26.720154,26.728989,26.733093,26.731934,26.726936,26.723064,26.717636,26.712967,26.710712,26.707108,26.70834,26.716007,26.726837,26.747353,26.772938,26.796574,26.832443,26.87585,26.915785,26.968874,27.028988,27.0802,27.138496,27.207508,27.271875,27.335732,27.416773,27.500721,27.579594,27.685009,27.806314,27.9187,28.054367,28.2081,28.344482,28.494446,28.675922,28.83866,28.972878,29.11949,29.251247,29.365566,29.509048,29.652145,29.76426,29.889263,30.019392,30.119778,30.183737,30.225437,30.248064,30.26902,30.282341,30.29936,30.333475,30.374228,30.416506,30.451756,30.485353,30.513412,30.535086,30.56864,30.626747,30.660786,30.629116,30.520435,30.365574,30.234047,30.026352,29.73434,29.427536,28.8637,28.315937,28.106926,28.391205,28.498169,27.446955,25.551414,16.54831,8.013941,7.82309,7.5925283,7.6595325,7.6897497,7.73176,7.7951145,7.855401,7.912206,7.976819,8.035401,8.081125,8.177815,8.336036,8.512344,8.740615,9.025364,9.287636,9.521553,9.705169,9.799521,9.849275,9.89338,9.931317,9.961937,9.999821,10.0372925,10.067316,10.1027155,10.139627,10.170204,10.20466,10.245312,10.282782,10.319299,10.36115,10.3963585,10.4226055,10.448466,10.468736,10.483259,10.499783,10.517567,10.533352,10.551418,10.572774,10.591909,10.609192,10.629454,10.646877,10.659658,10.671691,10.675125,10.6698,10.654453,10.621872,10.582487,10.535593,10.480465,10.435958,10.4021225,10.375774,10.367935,10.371809,10.387157,10.415888,10.446703,10.48574,10.532176,10.572359,10.610735,10.650631,10.6809845,10.703243,10.724434,10.739641,10.750097,10.761123,10.769336,10.773365,10.774363,10.768486,10.75696,10.741124,10.714939,10.6838665,10.65325,10.611308,10.565724,10.5260315,10.479441,10.434753,10.403389,10.380023,10.377548,10.39906,10.43767,10.508682,10.592492,10.667649,10.767256,10.86917,10.950516,11.041686,11.132183,11.204584
20.915585,20.92218,20.927345,20.934555,20.941486,20.946058,20.950611,20.95367,20.954823,20.955915,20.955896,20.955027,20.953981,20.955185,20.959091,20.963383,20.97349,20.988914,21.004093,21.02414,21.047958,21.069431,21.094116,21.125137,21.154774,21.18178,21.21534,21.245955,21.268309,21.292368,21.31286,21.327091,21.342781,21.357174,21.367004,21.375132,21.384966,21.395853,21.406532,21.42618,21.454483,21.484104,21.525719,21.57491,21.618229,21.67041,21.730188,21.78308,21.837454,21.90439,21.968075,22.023794,22.091648,22.157936,22.212215,22.278088,22.3482,22.407494,22.475548,22.559147,22.64056,22.723267,22.835201,22.952843,23.059841,23.19941,23.344017,23.463383,23.600807,23.738514,23.846262,23.954357,24.066914,24.159327,24.23917,24.333305,24.420494,24.492249,24.577322,24.658554,24.722256,24.795244,24.870407,24.931604,24.994846,25.065561,25.128963,25.18937,25.260534,25.32782,25.386326,25.456703,25.526928,25.584019,25.651001,25.72502,25.788685,25.85299,25.924726,25.987194,26.0418,26.106552,26.167385,26.217457,26.2776,26.339735,26.39212,26.452187,26.522427,26.585114,26.641134,26.703487,26.758131,26.803692,26.856153,26.901817,26.935204,26.970627,27.002129,27.025787,27.05162,27.075857,27.092701,27.107357,27.1207,27.128174,27.130848,27.127829,27.120659,27.11458,27.106228,27.099125,27.09546,27.087404,27.083172,27.086718,27.093477,27.110138,27.133144,27.154945,27.189034,27.231316,27.27078,27.323097,27.38221,27.432554,27.490593,27.559788,27.62465,27.689407,27.771818,27.85736,27.937893,28.045425,28.168905,28.283085,28.42097,28.5769,28.71499,28.867271,29.053333,29.217972,29.341908,29.485615,29.622099,29.738392,29.882944,30.025806,30.137186,30.262255,30.389582,30.483994,30.53857,30.574093,30.597525,30.622034,30.641424,30.66686,30.71104,30.760761,30.809483,30.849152,30.887583,30.922585,30.953331,31.00899,31.056961,31.065357,31.04948,30.957767,30.827099,30.733917,30.583046,30.296415,29.929188,29.340656,28.817806,28.647549,28.817463,29.225058,28.586248,26.567501,17.041122,8.031527,7.8296576,7.5921335,7.6706815,7.706441,7.7505884,7.8146925,7.8756413,7.9333982,7.9991503,8.0589695,8.106493,8.203099,8.35952,8.534334,8.757637,9.023389,9.258884,9.478517,9.648075,9.736113,9.810505,9.873438,9.912038,9.937083,9.969424,10.003674,10.032732,10.067394,10.102686,10.130438,10.1594095,10.1970005,10.235121,10.271307,10.31253,10.347065,10.372881,10.398111,10.417429,10.430857,10.44587,10.462257,10.477164,10.493923,10.513561,10.530886,10.546215,10.563397,10.576731,10.585142,10.590708,10.586054,10.573145,10.548415,10.505571,10.457956,10.403139,10.34203,10.290706,10.240137,10.20149,10.191677,10.198282,10.221516,10.258396,10.292431,10.333184,10.379808,10.419752,10.458275,10.498464,10.529097,10.551578,10.5727825,10.58778,10.597986,10.608814,10.617302,10.622085,10.624474,10.620899,10.611839,10.5985985,10.5752735,10.546486,10.517741,10.477163,10.431537,10.39082,10.341862,10.29389,10.259545,10.231474,10.222544,10.238034,10.271059,10.336281,10.418527,10.497873,10.606607,10.716015,10.798111,10.892309,10.987847,11.065481
20.996517,21.00624,21.014154,21.025005,21.035988,21.044155,21.053352,21.06211,21.068573,21.075504,21.08228,21.087442,21.091843,21.099258,21.108486,21.11679,21.13102,21.149868,21.167522,21.190086,21.216251,21.239565,21.266235,21.299543,21.33125,21.360075,21.396229,21.430044,21.455645,21.484373,21.510601,21.530106,21.552061,21.57344,21.589191,21.603207,21.619656,21.636196,21.651535,21.67638,21.708479,21.739872,21.78389,21.835926,21.881996,21.938353,22.003841,22.062038,22.120968,22.192926,22.260658,22.319145,22.389748,22.4582,22.514061,22.58205,22.65477,22.716553,22.78749,22.874775,22.959576,23.04501,23.15953,23.27893,23.387177,23.527176,23.671497,23.790655,23.927414,24.064356,24.171661,24.279322,24.391638,24.483978,24.56363,24.65732,24.74424,24.816217,24.902065,24.985035,25.05095,25.126846,25.20516,25.268719,25.334076,25.406239,25.470135,25.530975,25.60172,25.666489,25.720306,25.787199,25.85692,25.915573,25.98393,26.059464,26.124449,26.190117,26.26321,26.326782,26.382507,26.448784,26.511532,26.563686,26.626791,26.692043,26.746742,26.809296,26.88182,26.946074,27.003448,27.067158,27.122772,27.168911,27.221401,27.266651,27.299706,27.334885,27.36639,27.390263,27.416542,27.441414,27.45896,27.474693,27.489733,27.499126,27.50365,27.503368,27.498997,27.494955,27.488644,27.483662,27.48189,27.475258,27.470787,27.472475,27.476673,27.49046,27.511292,27.531416,27.564041,27.605753,27.645401,27.697308,27.75637,27.807474,27.867008,27.938347,28.005276,28.07214,28.157248,28.245407,28.328236,28.437813,28.5624,28.67694,28.815668,28.972614,29.11168,29.26793,29.449638,29.603872,29.723194,29.867756,30.008898,30.128304,30.27602,30.421501,30.534817,30.664684,30.78894,30.872334,30.91982,30.95456,30.982878,31.010796,31.04105,31.080292,31.133842,31.192593,31.24857,31.293755,31.341488,31.38554,31.419106,31.46648,31.4957,31.494717,31.497753,31.430649,31.328682,31.269047,31.162416,30.85056,30.38976,29.852238,29.466188,29.38929,29.430481,30.027765,29.686039,27.532635,17.5261,8.079345,7.841612,7.589642,7.6814938,7.723419,7.770743,7.836045,7.8972797,7.955983,8.023039,8.084269,8.133617,8.230099,8.38434,8.55694,8.774475,9.023042,9.235482,9.437643,9.599361,9.690566,9.773594,9.843506,9.884489,9.911523,9.9437275,9.976086,10.003511,10.036982,10.070509,10.095694,10.120834,10.152182,10.184387,10.217177,10.256584,10.290624,10.3156185,10.340007,10.358593,10.371434,10.385712,10.400824,10.414175,10.429211,10.446743,10.461906,10.474888,10.4883375,10.496736,10.499912,10.497838,10.484044,10.462954,10.428488,10.375792,10.320986,10.26123,10.189392,10.124719,10.064325,10.01954,10.010184,10.020478,10.050289,10.094715,10.134053,10.178199,10.225283,10.263811,10.301147,10.340275,10.370363,10.392572,10.413471,10.428095,10.437885,10.448135,10.456213,10.46097,10.463764,10.461298,10.453697,10.44217,10.421068,10.394372,10.367436,10.328688,10.284215,10.243976,10.194598,10.145412,10.109737,10.079745,10.064905,10.072653,10.10071,10.158319,10.234036,10.311611,10.420446,10.532028,10.616713,10.716663,10.817654,10.897722
21.071114,21.083471,21.093752,21.107737,21.122246,21.13358,21.146904,21.160751,21.171955,21.184036,21.196812,21.20729,21.216438,21.22918,21.242903,21.254568,21.272163,21.2937,21.31321,21.337547,21.3653,21.389854,21.417854,21.452627,21.485615,21.515572,21.553381,21.589428,21.617477,21.649916,21.680927,21.704964,21.73233,21.759832,21.780838,21.800108,21.82251,21.844158,21.863708,21.89293,21.928358,21.961933,22.007988,22.061611,22.108883,22.166954,22.234726,22.295124,22.356192,22.430725,22.50065,22.56064,22.63286,22.702856,22.76009,22.829887,22.904797,22.968586,23.041702,23.131266,23.217651,23.30386,23.418747,23.537447,23.643871,23.780373,23.920347,24.03585,24.16822,24.300886,24.405178,24.510231,24.62074,24.71239,24.791954,24.885143,24.971405,25.043167,25.129234,25.213194,25.280499,25.358288,25.438583,25.503513,25.570095,25.642845,25.706684,25.766731,25.841675,25.912334,25.967781,26.036543,26.107452,26.166382,26.235073,26.310913,26.376223,26.442398,26.516235,26.580694,26.637474,26.705395,26.770222,26.824488,26.890518,26.95868,27.015388,27.080124,27.154255,27.21909,27.276567,27.339825,27.394588,27.43968,27.491001,27.535337,27.567743,27.602806,27.6349,27.659657,27.687489,27.71442,27.733969,27.752222,27.770721,27.783894,27.79225,27.797491,27.79903,27.7998,27.799446,27.799622,27.801004,27.799957,27.799713,27.802181,27.805988,27.818611,27.83812,27.856981,27.888538,27.929935,27.969868,28.021797,28.081902,28.135159,28.197453,28.272297,28.342396,28.412182,28.500599,28.591467,28.676273,28.787254,28.911928,29.025703,29.16378,29.320257,29.459032,29.617405,29.786612,29.923191,30.04638,30.196024,30.340286,30.463001,30.614937,30.764843,30.881863,31.018917,31.141552,31.214705,31.26182,31.299309,31.330597,31.360065,31.402843,31.456612,31.513763,31.578217,31.640635,31.691109,31.746796,31.79419,31.820446,31.834026,31.855396,31.87795,31.893665,31.85334,31.780254,31.738796,31.62678,31.268099,30.751408,30.311768,30.108826,30.16037,30.198303,30.766705,30.409376,28.289368,17.960777,8.135402,7.8545303,7.586135,7.6899214,7.737249,7.7882476,7.854971,7.9159136,7.9753094,8.043344,8.105669,8.1565895,8.25308,8.405078,8.574675,8.786539,9.024603,9.224915,9.411301,9.571722,9.672117,9.744818,9.80549,9.846539,9.880407,9.917602,9.951063,9.977474,10.010174,10.043085,10.067817,10.09318,10.118345,10.140451,10.16703,10.202227,10.234699,10.258746,10.282284,10.3003025,10.3127775,10.326584,10.34122,10.354177,10.368765,10.385418,10.399204,10.410407,10.42074,10.424928,10.4237,10.415354,10.394321,10.36697,10.325279,10.265657,10.205849,10.142522,10.056412,9.977147,9.920998,9.881914,9.87642,9.889272,9.919783,9.965601,10.008417,10.054298,10.101015,10.137932,10.173769,10.211637,10.241203,10.263285,10.284216,10.298849,10.308492,10.318302,10.325767,10.330038,10.33246,10.329907,10.322539,10.311476,10.291218,10.265399,10.239099,10.201045,10.157179,10.117416,10.068427,10.018911,9.982188,9.950571,9.931426,9.934238,9.960957,10.015039,10.083574,10.151562,10.247422,10.351656,10.438457,10.542727,10.647255,10.727694
21.143433,21.158236,21.170734,21.187645,21.205486,21.219868,21.23712,21.25586,21.271675,21.288721,21.307243,21.322805,21.336521,21.354382,21.37246,21.387444,21.408375,21.432577,21.453945,21.480068,21.509453,21.535294,21.564568,21.600681,21.634766,21.665583,21.704618,21.742424,21.772526,21.80803,21.84312,21.871166,21.903269,21.936165,21.961853,21.985826,22.013596,22.039883,22.06329,22.096481,22.1348,22.170135,22.217514,22.271797,22.319407,22.378048,22.446728,22.50813,22.570171,22.646015,22.717228,22.778229,22.85181,22.923458,22.982357,23.054464,23.132092,23.198214,23.27375,23.365528,23.453247,23.54031,23.655012,23.77219,23.876514,24.009169,24.14429,24.255539,24.382978,24.511078,24.612366,24.71509,24.824017,24.915234,24.995579,25.089815,25.1767,25.248549,25.334984,25.419739,25.488005,25.56712,25.648758,25.714561,25.781904,25.854906,25.918468,25.978018,26.052547,26.125103,26.185593,26.260708,26.336098,26.396088,26.464867,26.540232,26.605394,26.67164,26.745787,26.81081,26.868414,26.937775,27.00449,27.060654,27.12962,27.20081,27.259552,27.326487,27.402103,27.467278,27.524609,27.587032,27.640549,27.684238,27.734058,27.77726,27.808893,27.843723,27.876362,27.901985,27.93132,27.96018,27.98154,28.002083,28.023708,28.04041,28.05251,28.063501,28.071548,28.077831,28.084566,28.09166,28.097824,28.101156,28.105032,28.110413,28.115868,28.128887,28.147533,28.16519,28.195171,28.235106,28.274002,28.326658,28.388994,28.444588,28.510002,28.588902,28.662739,28.736012,28.827766,28.920685,29.006546,29.118162,29.242443,29.355133,29.49188,29.647312,29.78493,29.937534,30.095747,30.223701,30.34855,30.501572,30.649166,30.77525,30.931786,31.08683,31.208302,31.352203,31.477783,31.54834,31.59335,31.630953,31.664427,31.694042,31.744934,31.808577,31.867855,31.935867,32.00349,32.059124,32.11145,32.14467,32.15715,32.17559,32.211926,32.24742,32.262707,32.243908,32.21007,32.2105,32.03068,31.573256,31.03484,30.783096,30.739151,30.830284,31.173399,31.655739,30.961254,28.926483,18.350765,8.188815,7.866378,7.5826244,7.6975117,7.7499294,7.8046865,7.872957,7.9335685,7.9935646,8.062106,8.125194,8.178148,8.275208,8.424688,8.589914,8.796284,9.028218,9.223354,9.403509,9.557196,9.6518545,9.71792,9.772528,9.809729,9.840263,9.876353,9.911978,9.94182,9.978054,10.014363,10.041159,10.064972,10.087482,10.106149,10.12496,10.149761,10.17578,10.20032,10.223868,10.241553,10.253791,10.267401,10.281851,10.294603,10.308865,10.324787,10.337397,10.347044,10.354676,10.355255,10.350279,10.336666,10.309692,10.277313,10.229902,10.165152,10.101404,10.03017,9.937752,9.857782,9.804787,9.769807,9.767721,9.782997,9.815532,9.862574,9.905964,9.950478,9.99465,10.029663,10.064913,10.102673,10.132386,10.154814,10.176125,10.1908,10.200082,10.209241,10.215715,10.2189665,10.220118,10.216145,10.207637,10.195536,10.1744,10.148211,10.121878,10.084253,10.041056,10.001768,9.952975,9.904514,9.869156,9.832319,9.808144,9.808832,9.829753,9.880631,9.94661,10.006942,10.091282,10.183603,10.261675,10.35649,10.460263,10.548522
21.231045,21.248568,21.263582,21.28376,21.305325,21.323154,21.34489,21.369194,21.39021,21.412876,21.437832,21.459026,21.477804,21.5013,21.52416,21.54283,21.567484,21.594677,21.618126,21.646152,21.677238,21.704416,21.734951,21.772287,21.807302,21.83889,21.87895,21.918354,21.95055,21.98922,22.028618,22.060951,22.09811,22.13674,22.167381,22.19636,22.229813,22.26099,22.28851,22.32582,22.36695,22.403824,22.451908,22.505901,22.552937,22.61089,22.678955,22.740067,22.801956,22.877872,22.949478,23.011059,23.085825,23.159386,23.220436,23.295488,23.37642,23.445202,23.523384,23.617199,23.705769,23.793274,23.907204,24.02196,24.122917,24.25011,24.37867,24.484173,24.605267,24.72775,24.825481,24.925688,25.033257,25.124393,25.205584,25.301342,25.389933,25.46339,25.55104,25.636757,25.7061,25.786669,25.86966,25.936241,26.004284,26.077562,26.140816,26.199661,26.272984,26.345198,26.407047,26.4837,26.560776,26.62236,26.692608,26.769226,26.835464,26.903599,26.980713,27.049103,27.11018,27.184303,27.256142,27.317024,27.389858,27.463726,27.52447,27.593517,27.670444,27.73575,27.79272,27.854061,27.906132,27.948282,27.996487,28.038555,28.069504,28.104357,28.13797,28.164925,28.196342,28.22784,28.251648,28.275013,28.300407,28.321325,28.337925,28.355705,28.371574,28.384735,28.400421,28.41665,28.429564,28.439423,28.449036,28.458,28.465658,28.47961,28.49784,28.51463,28.543665,28.583027,28.621758,28.675785,28.740932,28.799477,28.868824,28.952969,29.031754,29.109661,29.20562,29.300762,29.38742,29.49931,29.622684,29.733719,29.867868,30.022585,30.159702,30.293404,30.437048,30.564617,30.690617,30.846226,30.997215,31.126959,31.289005,31.450687,31.578096,31.730862,31.861124,31.930313,31.976902,32.017017,32.05236,32.081474,32.138855,32.21045,32.270473,32.34037,32.412514,32.473637,32.51271,32.533325,32.547718,32.576805,32.62794,32.672195,32.68175,32.694103,32.690125,32.67377,32.439426,31.981112,31.530344,31.399086,31.436787,31.574335,32.207893,32.633713,31.639206,29.660099,18.790817,8.257008,7.8830595,7.57987,7.7067413,7.7644935,7.823607,7.8935757,7.9533844,8.013853,8.082061,8.145134,8.200682,8.298435,8.444914,8.605103,8.806157,9.031738,9.220606,9.394396,9.5402565,9.627525,9.687174,9.734626,9.765873,9.791836,9.824455,9.858732,9.888388,9.923846,9.9597435,9.987074,10.012896,10.039921,10.062136,10.079697,10.097971,10.114769,10.131134,10.150068,10.167377,10.180286,10.19448,10.209276,10.221972,10.236065,10.251421,10.263015,10.271254,10.276458,10.273834,10.265556,10.247381,10.215416,10.178946,10.126847,10.058708,9.993681,9.9203205,9.828192,9.751428,9.702702,9.6718025,9.672388,9.689562,9.724008,9.768808,9.805897,9.844084,9.883635,9.916925,9.950357,9.987041,10.01663,10.039108,10.060897,10.076487,10.086889,10.095755,10.100138,10.100739,10.098822,10.091668,10.081102,10.068138,10.0470085,10.021304,9.995346,9.95731,9.913858,9.875378,9.828005,9.781081,9.746483,9.708166,9.682551,9.682011,9.698309,9.743273,9.802023,9.852669,9.923147,10.000284,10.065657,10.145036,10.235023,10.315155
21.320587,21.340569,21.357914,21.381046,21.405964,21.426922,21.45269,21.481945,21.507555,21.535168,21.565754,21.591854,21.615032,21.643398,21.67041,21.69234,21.72031,21.750208,21.775547,21.805246,21.837788,21.866096,21.897606,21.935791,21.971413,22.003513,22.04419,22.084717,22.118607,22.159855,22.202816,22.23875,22.280136,22.323517,22.358253,22.391405,22.429562,22.464756,22.495686,22.536295,22.579477,22.617329,22.665363,22.71822,22.763937,22.820156,22.886234,22.945797,23.0064,23.0811,23.152096,23.213669,23.289127,23.364355,23.427494,23.505295,23.589172,23.660213,23.740543,23.835722,23.924519,24.011915,24.124794,24.237297,24.335299,24.457523,24.580061,24.68032,24.795914,24.913727,25.008598,25.107044,25.214012,25.305489,25.387459,25.484673,25.575153,25.650665,25.740372,25.827785,25.898449,25.980618,26.065033,26.132492,26.201477,26.275326,26.338505,26.396965,26.469364,26.539974,26.59975,26.673512,26.74887,26.810818,26.882175,26.960232,27.027626,27.097668,27.178017,27.250282,27.315414,27.39499,27.4725,27.538403,27.616108,27.694069,27.758,27.830456,27.910213,27.976978,28.034515,28.095276,28.146084,28.187077,28.234158,28.275537,28.306137,28.341412,28.376328,28.404795,28.438385,28.47256,28.498772,28.524742,28.553427,28.577904,28.59829,28.621582,28.643795,28.662657,28.685884,28.710161,28.729395,28.746077,28.76177,28.77441,28.784721,28.800465,28.819305,28.83618,28.865528,28.905575,28.945124,29.000835,29.06868,29.130098,29.203266,29.292484,29.376034,29.458294,29.558434,29.65607,29.743816,29.856236,29.978897,30.088419,30.221016,30.371704,30.50177,30.617355,30.751389,30.88267,31.009094,31.16603,31.319517,31.452187,31.619137,31.787125,31.92031,32.081543,32.216713,32.285645,32.336346,32.380043,32.416153,32.443977,32.50463,32.58042,32.639515,32.70925,32.78228,32.844418,32.872795,32.89199,32.919785,32.959816,33.016716,33.06093,33.067825,33.112724,33.125134,33.05794,32.801537,32.42026,32.113846,32.02395,32.04906,32.192062,32.961067,33.43056,32.360893,30.369457,19.196484,8.325841,7.9020166,7.5793524,7.7164927,7.778698,7.84173,7.913127,7.9718337,8.032368,8.099466,8.161711,8.219306,8.317564,8.461409,8.617172,8.81406,9.033556,9.215222,9.382526,9.521483,9.602828,9.657394,9.698519,9.724123,9.746292,9.77452,9.804525,9.830599,9.861788,9.893768,9.919065,9.946434,9.977834,10.004586,10.026062,10.046272,10.060467,10.070398,10.083811,10.098076,10.109735,10.122559,10.136845,10.149836,10.163881,10.178928,10.189909,10.197234,10.20097,10.196512,10.1863785,10.165611,10.1310425,10.092747,10.038919,9.970152,9.906136,9.835976,9.750558,9.680802,9.636171,9.610638,9.615244,9.633657,9.6660595,9.703559,9.731443,9.762335,9.797363,9.828976,9.860376,9.8960705,9.926197,9.949877,9.973579,9.990991,10.00259,10.01115,10.013222,10.010855,10.005449,9.994977,9.982153,9.966661,9.942968,9.915272,9.887663,9.846867,9.801066,9.761833,9.714291,9.666708,9.630726,9.593134,9.567581,9.564898,9.577465,9.614235,9.662789,9.704889,9.763259,9.827385,9.882227,9.94858,10.021715,10.085441
