8.558161,8.55538,8.550903,8.544456,8.537811,8.529345,8.517424,8.504907,8.492008,8.475787,8.460446,8.44763,8.433034,8.419912,8.410093,8.399364,8.389666,8.382912,8.376482,8.370499,8.366104,8.362345,8.358488,8.355501,8.353302,8.351333,8.349994,8.349129,8.348225,8.347746,8.347809,8.347977,8.349258,8.351185,8.352768,8.354287,8.355406,8.356319,8.3571825,8.357904,8.358408,8.357252,8.354925,8.35276,8.350676,8.348519,8.346817,8.345331,8.343912,8.342688,8.34151,8.34001,8.33783,8.335392,8.333017,8.330721,8.32894,8.327246,8.325359,8.323732,8.322401,8.320953,8.319841,8.319138,8.318552,8.318341,8.318443,8.318758,8.31946,8.320344,8.321387,8.322772,8.324038,8.324984,8.325901,8.326506,8.326822,8.327124,8.327431,8.327705,8.327948,8.328024,8.327875,8.327627,8.3272085,8.326729,8.326253,8.325652,8.324985,8.324362,8.323594,8.322803,8.322196,8.321657,8.321119,8.320576,8.319887,8.318811,8.3175335,8.316298,8.31472,8.3131485,8.311929,8.310449,8.308701,8.30706,8.305231,8.303007,8.300905,8.298921,8.2964325,8.293869,8.291525,8.288517,8.285345,8.282726,8.279837,8.276901,8.274499,8.271925,8.268854,8.265917,8.263102,8.259502,8.255943,8.253004,8.249413,8.245672,8.242537,8.239021,8.235366,8.232422,8.229568,8.226353,8.223434,8.220791,8.217524,8.214334,8.211699,8.208704,8.205883,8.203734,8.201247,8.19848,8.196031,8.1935,8.19039,8.187471,8.184962,8.181919,8.178921,8.176423,8.173473,8.170492,8.168123,8.165569,8.162851,8.160558,8.158373,8.155838,8.153568,8.151681,8.149605,8.147862,8.146645,8.145215,8.143724,8.142452,8.141052,8.139208,8.137337,8.135513,8.133204,8.130951,8.129002,8.12678,8.124826,8.123442,8.122004,8.120657,8.1196,8.118477,8.117252,8.1162,8.11522,8.114225,8.113436,8.11281,8.111949,8.110989,8.110164,8.109449,8.10854,8.107498,8.106351,8.104839,8.103297,8.10179,8.10002,8.098482,8.097346,8.09609,8.094894,8.0939045,8.092651,8.091079,8.089553,8.087877,8.085981,8.084404,8.083153,8.081685,8.080273,8.079067,8.077566,8.075741,8.073931,8.071711,8.0689125,8.066206,8.063294,8.059903,8.057043,8.054838,8.052554,8.050529,8.048793,8.046356,8.043417,8.040732,8.037493,8.033897,8.030911,8.028097,8.024771,8.0216255,8.018844,8.015607,8.0121565,8.008827,8.004459,7.999487,7.995268,7.9908023,7.9862404,7.9826517,7.9794345,7.9758177,7.9724674,7.969459,7.9655533,7.9614077,7.9578857,7.9534683,7.9487333,7.944949,7.9412417,7.9374695,7.9344206,7.931761,7.928504,7.925128,7.9219546,7.9177313,7.9131594,7.9093013,7.904733,7.900233,7.897002,7.8941245,7.891652,7.8898735,7.88811,7.8857594,7.8832707,7.881065,7.8784013,7.875779,7.873724,7.871431,7.86875,7.8662214,7.863646,7.860084,7.8564796,7.8534617,7.8499956,7.8469505,7.844643,7.842044,7.839703,7.8380394,7.836338,7.8350058,7.8342857,7.8336706,7.8333516,7.833424,7.8336263,7.834013,7.834568,7.835183,7.8359222,7.836459,7.836622,7.836741,7.8360925,7.835079,7.8348675,7.834911
8.520424,8.517508,8.5128355,8.506145,8.499285,8.490615,8.478571,8.466063,8.453245,8.437235,8.42219,8.409668,8.39542,8.382599,8.372978,8.362428,8.35281,8.346045,8.339565,8.333481,8.32898,8.325115,8.321139,8.318059,8.315802,8.313767,8.312284,8.311211,8.310833,8.310673,8.310522,8.311382,8.313105,8.3149185,8.316481,8.317996,8.319133,8.320066,8.321077,8.321649,8.321579,8.319677,8.316801,8.31448,8.312119,8.309604,8.30755,8.305753,8.303954,8.302366,8.300883,8.299016,8.296474,8.293758,8.291103,8.288557,8.286602,8.284759,8.28273,8.2809925,8.279572,8.278032,8.27684,8.276075,8.275403,8.275063,8.27502,8.275148,8.275634,8.276343,8.277236,8.278488,8.279673,8.280563,8.281438,8.282024,8.282336,8.282649,8.282991,8.283308,8.283609,8.283747,8.283642,8.283426,8.283039,8.282578,8.282113,8.281512,8.280832,8.280195,8.279399,8.278582,8.277971,8.277432,8.27691,8.276383,8.275705,8.27463,8.273346,8.272104,8.270542,8.269011,8.267838,8.266418,8.264734,8.263132,8.26132,8.259096,8.256985,8.254988,8.252488,8.249925,8.247591,8.244602,8.241468,8.238899,8.236082,8.233243,8.230938,8.228466,8.225503,8.222656,8.219925,8.21645,8.213047,8.210264,8.206884,8.203369,8.200406,8.19705,8.193518,8.190645,8.187859,8.184719,8.181874,8.179301,8.176115,8.172989,8.170397,8.167454,8.164671,8.16254,8.160061,8.157276,8.154796,8.152224,8.149068,8.146122,8.143602,8.140565,8.137578,8.135082,8.13212,8.129126,8.126755,8.124193,8.121477,8.119196,8.117033,8.114521,8.11227,8.110396,8.108333,8.106594,8.1053705,8.103927,8.102401,8.101084,8.099634,8.09775,8.095864,8.094038,8.091765,8.089585,8.087708,8.085577,8.083726,8.082436,8.081097,8.079851,8.078878,8.077845,8.076714,8.075736,8.074818,8.073882,8.073146,8.0725765,8.0718,8.070946,8.070224,8.069651,8.06892,8.068056,8.067116,8.065902,8.06468,8.063485,8.062107,8.060941,8.060105,8.05915,8.058186,8.057344,8.056204,8.054697,8.0532,8.051542,8.049667,8.048117,8.046906,8.045486,8.0441065,8.042914,8.041406,8.039561,8.037744,8.035548,8.032833,8.03024,8.027452,8.024187,8.021402,8.019236,8.016943,8.014865,8.0130825,8.010567,8.007527,8.004753,8.001424,7.997761,7.9947557,7.9919653,7.9886904,7.985614,7.9828997,7.979765,7.976453,7.9732637,7.9691086,7.964411,7.960439,7.956208,7.9518385,7.948353,7.945208,7.941636,7.938292,7.9352803,7.9313297,7.927096,7.9234776,7.918937,7.9140863,7.9102397,7.9065084,7.902728,7.899688,7.8970647,7.893874,7.8906097,7.887591,7.8836203,7.87936,7.875778,7.8715043,7.867276,7.8642435,7.8615727,7.8593187,7.8577223,7.8561335,7.853944,7.8515472,7.8493795,7.8467264,7.844113,7.8420897,7.8398886,7.837366,7.8350005,7.8326073,7.8292513,7.825816,7.822937,7.819658,7.816784,7.8145885,7.8121023,7.8098435,7.808227,7.806589,7.8053546,7.804745,7.8042564,7.804054,7.804158,7.8043146,7.804563,7.804946,7.8054395,7.8060913,7.8065996,7.806773,7.8069177,7.8063154,7.805357,7.8052053,7.8053823
8.478918,8.4760685,8.471403,8.464626,8.457652,8.448854,8.436739,8.424282,8.411613,8.395937,8.381329,8.369237,8.355494,8.343108,8.333777,8.323476,8.313971,8.307188,8.300631,8.294374,8.289673,8.285609,8.281403,8.278086,8.275575,8.273191,8.2717,8.271065,8.270856,8.270937,8.2711735,8.272476,8.274334,8.275978,8.277498,8.279011,8.280209,8.281254,8.2823925,8.28256,8.281561,8.27912,8.275955,8.273447,8.270767,8.267784,8.265249,8.263016,8.260685,8.258581,8.256672,8.254298,8.25127,8.248191,8.245176,8.242315,8.240149,8.238136,8.23595,8.234097,8.232588,8.230955,8.229678,8.228842,8.228058,8.227544,8.227304,8.227179,8.227352,8.227794,8.228449,8.229482,8.230529,8.231337,8.232168,8.232773,8.233129,8.233532,8.234005,8.234446,8.2348995,8.235208,8.235243,8.235152,8.234905,8.234559,8.234174,8.2336445,8.232997,8.232361,8.231538,8.230667,8.230001,8.229408,8.228825,8.228245,8.227515,8.226377,8.225039,8.223757,8.2221775,8.220662,8.219521,8.218155,8.216526,8.214956,8.213163,8.210945,8.208831,8.206821,8.204304,8.201725,8.199382,8.196381,8.193241,8.19068,8.187888,8.185104,8.182861,8.180462,8.177587,8.174827,8.172177,8.16885,8.165646,8.163061,8.159977,8.156796,8.154105,8.151026,8.147747,8.145055,8.142426,8.139455,8.136755,8.134312,8.131266,8.128255,8.125739,8.1228695,8.120135,8.118026,8.115547,8.112732,8.110206,8.107578,8.104363,8.101383,8.098854,8.095833,8.092888,8.090433,8.087507,8.084544,8.082196,8.079651,8.076954,8.074696,8.072553,8.070057,8.067808,8.065929,8.063864,8.062112,8.060856,8.059346,8.05772,8.056307,8.054755,8.052785,8.050865,8.049028,8.046815,8.0447445,8.042974,8.040979,8.039276,8.038111,8.0369,8.035778,8.0349045,8.033955,8.032899,8.031966,8.031067,8.030148,8.029427,8.028873,8.028127,8.027326,8.026667,8.026178,8.025597,8.024919,8.024212,8.023363,8.022541,8.021725,8.020819,8.020094,8.019611,8.019015,8.018336,8.017679,8.016677,8.015245,8.013772,8.012111,8.010218,8.00865,8.00743,8.005986,8.00456,8.003309,8.001692,7.9997473,7.997892,7.9957037,7.993098,7.990671,7.988065,7.984991,7.982341,7.980259,7.9779987,7.9759035,7.9741006,7.971526,7.9683895,7.965521,7.962082,7.9583206,7.955269,7.9524784,7.9492435,7.9462376,7.94361,7.940612,7.937494,7.934519,7.930679,7.926369,7.922737,7.9188323,7.914722,7.91137,7.9083166,7.904803,7.9014864,7.89851,7.894557,7.8902674,7.886576,7.881918,7.8769364,7.8729954,7.869197,7.865348,7.8622484,7.8595934,7.8563776,7.8531446,7.850225,7.8464746,7.8425407,7.839274,7.8353586,7.8314743,7.8286924,7.8262734,7.824274,7.8228755,7.82146,7.8194084,7.8170505,7.814855,7.8121133,7.8093967,7.807316,7.8051186,7.802665,7.800392,7.798108,7.7948575,7.7914963,7.7886796,7.7855015,7.7827463,7.780652,7.778272,7.7761025,7.7745466,7.7729826,7.7718296,7.7712936,7.7708893,7.7707005,7.7706976,7.770667,7.7705684,7.770554,7.7707386,7.7711034,7.7714148,7.7714834,7.7715526,7.7708774,7.769848,7.769633,7.769801
8.439131,8.436518,8.432043,8.425361,8.418402,8.409584,8.397465,8.385075,8.372561,8.357204,8.343007,8.331314,8.318031,8.306039,8.29697,8.286884,8.277468,8.270653,8.264005,8.257548,8.252602,8.248299,8.243767,8.24023,8.237728,8.235287,8.234,8.233907,8.233713,8.234056,8.234915,8.236143,8.23781,8.239391,8.240889,8.242343,8.243417,8.244328,8.244856,8.244104,8.242355,8.2397785,8.236587,8.233824,8.23085,8.227451,8.224493,8.221871,8.219053,8.216471,8.214161,8.211313,8.207834,8.204418,8.201071,8.197917,8.195555,8.193386,8.1910515,8.189085,8.18749,8.185771,8.184413,8.18351,8.182631,8.181965,8.181558,8.181215,8.181117,8.181312,8.18175,8.182581,8.183503,8.184246,8.185064,8.185728,8.186168,8.186714,8.187371,8.187976,8.18862,8.189142,8.189356,8.189428,8.189368,8.189182,8.188915,8.188507,8.187937,8.187332,8.186522,8.185619,8.184899,8.184248,8.183584,8.18292,8.182112,8.180872,8.179441,8.178089,8.176449,8.1749,8.173748,8.172392,8.170777,8.169212,8.167421,8.165208,8.163101,8.161093,8.158579,8.156012,8.153681,8.150698,8.14758,8.1450405,8.142288,8.139554,8.137357,8.135002,8.132181,8.129475,8.126879,8.12366,8.120617,8.118199,8.1153755,8.112506,8.110077,8.107279,8.104283,8.1018095,8.099379,8.0966215,8.094115,8.091845,8.088996,8.086152,8.0837555,8.081003,8.078342,8.0762615,8.073787,8.0709305,8.06834,8.065636,8.062333,8.05929,8.056724,8.053701,8.050793,8.04838,8.045512,8.04261,8.040302,8.037805,8.035165,8.032959,8.030865,8.0284195,8.026206,8.024345,8.022311,8.020568,8.019286,8.017699,8.015949,8.014419,8.012736,8.010656,8.008688,8.006842,8.004692,8.002741,8.001085,7.9992476,7.9977074,7.996675,7.9956055,7.994624,7.993858,7.992999,7.9920206,7.991136,7.9902534,7.989352,7.9886475,7.988102,7.987361,7.9865723,7.985935,7.9854674,7.984969,7.984432,7.983921,7.9833946,7.982935,7.9824524,7.9819584,7.981616,7.9814367,7.981152,7.9807234,7.9802322,7.979354,7.9779925,7.9765472,7.9748774,7.972953,7.971345,7.9700747,7.968541,7.966988,7.9655976,7.9637685,7.961622,7.959655,7.957388,7.9547997,7.952461,7.949957,7.9469914,7.9444056,7.942354,7.940077,7.93793,7.9360867,7.933447,7.930229,7.927288,7.923764,7.9199233,7.916824,7.914018,7.9107876,7.9078116,7.9052305,7.902309,7.8993225,7.8965106,7.8929253,7.8889318,7.8855696,7.881922,7.878002,7.8747315,7.871725,7.8682356,7.8649426,7.8620176,7.8581038,7.853822,7.85012,7.845413,7.840357,7.8363457,7.8324795,7.828534,7.8253326,7.8225875,7.8192563,7.815954,7.8130364,7.8093834,7.8056507,7.802605,7.7989416,7.7952995,7.7926826,7.790422,7.7885675,7.787271,7.7859426,7.7839413,7.781558,7.779293,7.776423,7.77357,7.771408,7.7691755,7.766736,7.7644987,7.762259,7.7590303,7.7556634,7.752841,7.7496758,7.7469606,7.7449207,7.7425914,7.740467,7.73895,7.737426,7.736318,7.735815,7.7354527,7.7352366,7.7351017,7.7348833,7.734461,7.7340827,7.7339783,7.7340827,7.7342277,7.7342234,7.734269,7.7335773,7.732517,7.7322764,7.732467
8.402195,8.399811,8.395544,8.388996,8.382098,8.373311,8.361218,8.348888,8.336489,8.321348,8.307417,8.295974,8.282974,8.271216,8.2623,8.2523365,8.242954,8.236101,8.229375,8.222717,8.217495,8.212893,8.207867,8.204258,8.202528,8.200926,8.1999,8.1993885,8.199875,8.200836,8.201565,8.202655,8.204233,8.205868,8.207544,8.209008,8.209682,8.209954,8.208668,8.206316,8.204318,8.201625,8.198385,8.19549,8.192352,8.188715,8.185509,8.182661,8.179546,8.176661,8.174095,8.170931,8.167139,8.163492,8.159911,8.156545,8.154032,8.1517315,8.149264,8.147187,8.145502,8.143684,8.142249,8.141291,8.140348,8.139603,8.139103,8.138652,8.138411,8.1384735,8.138805,8.139542,8.140417,8.141142,8.141991,8.142739,8.143272,8.143957,8.144779,8.145524,8.146325,8.147011,8.147356,8.147549,8.147625,8.14756,8.147396,8.147096,8.146612,8.146065,8.145304,8.144426,8.143705,8.143047,8.142349,8.141634,8.140769,8.139439,8.137907,8.136472,8.134743,8.133118,8.1319065,8.130511,8.128866,8.127272,8.125465,8.123251,8.121159,8.119175,8.116711,8.114212,8.111952,8.109077,8.106083,8.103643,8.1010065,8.098384,8.096261,8.093969,8.091192,8.088512,8.085942,8.082776,8.079816,8.077486,8.074809,8.072123,8.069853,8.067234,8.06443,8.062119,8.059849,8.057286,8.054967,8.0528755,8.050248,8.047608,8.045361,8.042765,8.0402155,8.038176,8.035713,8.032809,8.030129,8.027323,8.023893,8.020742,8.018089,8.015016,8.012096,8.009684,8.006837,8.003975,8.001712,7.9992743,7.9967203,7.9946017,7.9925966,7.9902635,7.98815,7.9863605,7.984414,7.982728,7.981452,7.97983,7.977994,7.9763627,7.9745655,7.972389,7.9703817,7.96852,7.9664226,7.9645786,7.9630194,7.9613166,7.959922,7.959008,7.9580784,7.9572396,7.956587,7.955836,7.9549694,7.954171,7.9533434,7.952506,7.9518576,7.9513493,7.950639,7.9498696,7.9492464,7.9487863,7.948339,7.9479,7.947521,7.9472237,7.9470267,7.946784,7.946576,7.946495,7.9465218,7.946439,7.9461737,7.945799,7.9450016,7.943694,7.942277,7.9406056,7.9386597,7.937009,7.935673,7.93402,7.932293,7.9307175,7.9286294,7.9262147,7.924054,7.921604,7.918878,7.9164686,7.913905,7.91086,7.90818,7.906034,7.903612,7.9013195,7.899368,7.8966255,7.8933325,7.8903494,7.886783,7.882909,7.8797913,7.876971,7.8737144,7.8707066,7.8680973,7.865143,7.862151,7.85937,7.8558655,7.8519936,7.848735,7.8451777,7.8413,7.8380156,7.8349895,7.8314705,7.828171,7.825279,7.821412,7.8171816,7.8135176,7.8088403,7.8037906,7.799769,7.795868,7.791849,7.788556,7.785713,7.782248,7.7788363,7.7758646,7.772201,7.7685175,7.76554,7.761948,7.7583485,7.7557335,7.7534595,7.7515655,7.7502217,7.748871,7.7468224,7.7443714,7.7420416,7.7390785,7.7361484,7.7339554,7.7317247,7.7293224,7.727127,7.724931,7.721723,7.7183466,7.715511,7.712328,7.7096004,7.707553,7.7051954,7.7030344,7.7014885,7.6999307,7.698808,7.6983175,7.697977,7.697772,7.6976137,7.697336,7.6968107,7.6963186,7.6961236,7.6961966,7.6963944,7.6964808,7.69668,7.696184,7.6952925,7.695218,7.6956344
8.352341,8.350181,8.34611,8.339687,8.33284,8.324057,8.311942,8.29961,8.287262,8.272243,8.258478,8.24721,8.234397,8.222792,8.213976,8.204121,8.194651,8.187521,8.180373,8.173698,8.169029,8.165253,8.161118,8.157937,8.156046,8.15497,8.154781,8.154768,8.155651,8.156883,8.157761,8.159014,8.160091,8.160451,8.160364,8.159687,8.158525,8.157412,8.155139,8.152409,8.150326,8.147582,8.1443,8.141329,8.13811,8.134361,8.131031,8.128062,8.124774,8.121691,8.118944,8.115538,8.111492,8.107641,8.103849,8.100267,8.097582,8.095125,8.092478,8.0902405,8.088421,8.086456,8.084909,8.08388,8.082876,8.08208,8.081541,8.081049,8.080755,8.080772,8.081066,8.0817795,8.082663,8.083416,8.084339,8.085203,8.08585,8.086693,8.087684,8.088556,8.089502,8.090329,8.090779,8.091072,8.091274,8.091333,8.091282,8.091129,8.090797,8.090368,8.089753,8.089019,8.088398,8.087839,8.087215,8.086527,8.08566,8.08428,8.08266,8.081133,8.079285,8.0775385,8.076219,8.074717,8.072969,8.071299,8.06943,8.067185,8.065101,8.063152,8.060781,8.058427,8.056324,8.0536785,8.050949,8.048731,8.046345,8.043945,8.041959,8.039766,8.037037,8.034349,8.031763,8.028572,8.025599,8.02327,8.020633,8.018015,8.01581,8.013282,8.010603,8.008419,8.006294,8.003939,8.001849,7.9999886,7.9976807,7.995359,7.993355,7.9910297,7.9886856,7.986743,7.984332,7.9813776,7.978575,7.9756117,7.9719696,7.9686217,7.9658084,7.9625864,7.9595747,7.9571047,7.954237,7.951408,7.9492054,7.9468656,7.9444737,7.9425335,7.9407167,7.9386253,7.9367456,7.9351435,7.9334097,7.931879,7.9306746,7.929066,7.9271536,7.9254084,7.9234667,7.9211483,7.919059,7.917144,7.9150653,7.9132996,7.9118204,7.9102335,7.9089823,7.908204,7.9074354,7.906786,7.9063067,7.9057293,7.905058,7.9044237,7.9037266,7.903037,7.902503,7.902069,7.901413,7.900649,7.8999987,7.899487,7.899006,7.898584,7.8982587,7.898102,7.8980875,7.898023,7.898031,7.8981495,7.898334,7.898423,7.8983088,7.8980484,7.8973646,7.8961706,7.8948445,7.893247,7.8913774,7.889763,7.8884068,7.886635,7.884679,7.882846,7.880389,7.8775654,7.8750787,7.8722787,7.869216,7.8665533,7.8637404,7.860388,7.8574076,7.8549876,7.8522387,7.8496685,7.8475432,7.844659,7.8413105,7.8383393,7.834822,7.8310432,7.828025,7.8252773,7.822067,7.8190546,7.816416,7.8133936,7.8103366,7.8075247,7.8040104,7.800151,7.7969046,7.7933187,7.7893586,7.7859745,7.7828584,7.7792673,7.775961,7.773119,7.769365,7.7652965,7.761788,7.7572846,7.752406,7.7485094,7.7446985,7.740717,7.737399,7.7344875,7.730901,7.7273617,7.7242966,7.7205496,7.7168074,7.713785,7.7101145,7.7063756,7.703597,7.701133,7.699013,7.69748,7.695977,7.693778,7.6912165,7.6888056,7.6857724,7.6828156,7.6806355,7.67845,7.6761103,7.67396,7.671785,7.668567,7.665145,7.6622424,7.658947,7.6560845,7.6539187,7.65139,7.64904,7.64735,7.6456447,7.6444073,7.6438627,7.6434875,7.6432724,7.6431255,7.6428595,7.642361,7.641909,7.641747,7.6419344,7.6423283,7.6426206,7.643116,7.6429987,7.642454,7.642725,7.6435757
8.296766,8.294793,8.290911,8.284639,8.2778845,8.269164,8.2570915,8.244802,8.23253,8.217628,8.203991,8.192839,8.180139,8.168573,8.159731,8.14967,8.140399,8.133946,8.127389,8.121441,8.11746,8.114246,8.111162,8.108919,8.107207,8.106527,8.1068,8.107088,8.107058,8.106658,8.106186,8.106195,8.105752,8.1045475,8.102826,8.100288,8.09766,8.095539,8.093005,8.090448,8.088315,8.085493,8.082127,8.0791025,8.075846,8.072066,8.068705,8.065694,8.062325,8.059132,8.056273,8.052713,8.048508,8.04454,8.040632,8.036939,8.034169,8.031637,8.028891,8.02655,8.024635,8.0225525,8.020897,8.019793,8.018719,8.017881,8.017324,8.016815,8.0165,8.016485,8.016733,8.017378,8.018196,8.018899,8.019789,8.020657,8.021339,8.022251,8.023337,8.024288,8.025328,8.026247,8.02676,8.02711,8.027384,8.0275135,8.027518,8.027453,8.027225,8.026884,8.026392,8.025786,8.02526,8.024788,8.024223,8.023539,8.022647,8.021192,8.0194645,8.017835,8.015861,8.01399,8.012577,8.010985,8.009165,8.007448,8.00555,8.0033,8.001239,7.9993286,7.9970436,7.994833,7.9928975,7.990495,7.9880514,7.9860787,7.9839635,7.9817896,7.9799213,7.977804,7.9750824,7.9723563,7.969737,7.966513,7.963526,7.9612026,7.9586086,7.9560614,7.9539146,7.95147,7.9489,7.9468203,7.944803,7.9425964,7.9406734,7.9389772,7.9369,7.9348125,7.9329863,7.930847,7.9286156,7.926691,7.9242444,7.9211617,7.918188,7.915038,7.9111786,7.907655,7.9047136,7.901402,7.89837,7.895912,7.8931084,7.8903995,7.8883233,7.8861456,7.8839703,7.882248,7.8806496,7.8788404,7.877228,7.8758497,7.8743634,7.8730097,7.8718853,7.8703084,7.8683405,7.8664994,7.8644505,7.8620596,7.859973,7.8581,7.856167,7.8546047,7.8533087,7.8519535,7.8509374,7.850351,7.849791,7.849359,7.849064,7.84867,7.848202,7.8477497,7.8472137,7.8467093,7.846327,7.845996,7.8454304,7.8447046,7.844046,7.843515,7.8430386,7.8426666,7.8424287,7.842445,7.842639,7.8427706,7.843009,7.8433247,7.8436527,7.8438883,7.84389,7.8437076,7.8431144,7.842032,7.8408194,7.839352,7.8376412,7.836138,7.834823,7.8329916,7.8308473,7.8287773,7.825984,7.822777,7.819971,7.8168235,7.813404,7.8104515,7.807347,7.8036366,7.8003063,7.7975597,7.7944098,7.791487,7.7891226,7.7860427,7.7826147,7.7796593,7.7762213,7.77259,7.7697067,7.7670555,7.7639008,7.7608776,7.7581873,7.7550783,7.751937,7.749077,7.745529,7.741662,7.7384157,7.734798,7.730765,7.7272987,7.724103,7.7204447,7.717121,7.714302,7.7106423,7.706731,7.7033796,7.6990657,7.694372,7.6905947,7.686846,7.6828537,7.6794567,7.6764174,7.6726503,7.6689343,7.6657233,7.661819,7.6579304,7.654788,7.6509476,7.6469727,7.6439514,7.6412034,7.638751,7.636937,7.635194,7.632783,7.630104,7.62763,7.6245937,7.621704,7.619608,7.617524,7.615287,7.613199,7.611043,7.607831,7.604395,7.6014457,7.5980577,7.595071,7.592787,7.590078,7.5875206,7.5856614,7.5837765,7.5823736,7.5817175,7.5812354,7.580948,7.5807867,7.580529,7.5800867,7.579707,7.579588,7.5798492,7.580351,7.58076,7.581443,7.5816026,7.5813503,7.5819407,7.5832233
8.249146,8.247314,8.24361,8.23753,8.230931,8.222366,8.210457,8.1983185,8.186209,8.171496,8.158016,8.14698,8.134357,8.122816,8.11397,8.103655,8.095011,8.090115,8.085171,8.080326,8.076478,8.072847,8.069891,8.068438,8.06765,8.067156,8.066783,8.066239,8.064253,8.060915,8.057745,8.055197,8.052813,8.050936,8.049292,8.046932,8.044388,8.042276,8.039593,8.036805,8.034507,8.031513,8.028004,8.024892,8.021564,8.017729,8.014326,8.011265,8.007809,8.004511,8.001563,7.9978876,7.993591,7.9895897,7.9856634,7.981989,7.9792604,7.976777,7.974079,7.971759,7.969836,7.9677153,7.9659944,7.964821,7.9636736,7.9627695,7.962166,7.9616046,7.961214,7.9611044,7.9612265,7.9616756,7.962283,7.962797,7.963478,7.9641886,7.9647865,7.965637,7.966711,7.967683,7.9687576,7.969721,7.970266,7.9706316,7.9709086,7.9710264,7.971008,7.9709086,7.970648,7.970292,7.9697886,7.9691696,7.9686246,7.9681225,7.9674845,7.9667034,7.9657063,7.9641047,7.962241,7.960511,7.9584312,7.956489,7.9550505,7.953459,7.9516687,7.9499903,7.948141,7.945943,7.943923,7.9420395,7.9397855,7.937628,7.935773,7.9334984,7.931213,7.929385,7.927422,7.925356,7.923522,7.9214096,7.918649,7.915882,7.913253,7.910062,7.907153,7.904922,7.9024744,7.900096,7.8980865,7.895796,7.8933706,7.891387,7.889438,7.8872843,7.885392,7.883717,7.881663,7.879584,7.877756,7.8755836,7.8732514,7.8711977,7.8685827,7.865286,7.862124,7.8588147,7.854823,7.851243,7.848295,7.845056,7.8421693,7.839861,7.8372617,7.834779,7.832884,7.8308983,7.828922,7.827363,7.82592,7.8242993,7.82286,7.821627,7.8202987,7.819046,7.817953,7.8163843,7.8143797,7.8124895,7.810417,7.8080864,7.806147,7.8044634,7.802852,7.8016596,7.8006816,7.799699,7.799016,7.7986655,7.798337,7.7980976,7.797932,7.7976594,7.7973204,7.796987,7.79657,7.796212,7.795965,7.7957373,7.795287,7.7946563,7.7940583,7.7936096,7.793271,7.793067,7.7930326,7.793346,7.793846,7.7942543,7.794801,7.7953653,7.7958603,7.796237,7.796319,7.796171,7.7956076,7.7945747,7.79344,7.7920923,7.790541,7.789164,7.7879243,7.786112,7.7838917,7.7816963,7.778737,7.775338,7.772373,7.7690616,7.7654753,7.7623835,7.759141,7.755254,7.75173,7.7487783,7.7453384,7.7421145,7.739506,7.7362113,7.7326593,7.729669,7.72626,7.7227087,7.7198935,7.7172832,7.7141314,7.711068,7.7083135,7.7051363,7.701956,7.699091,7.6955767,7.691784,7.6886196,7.6850834,7.681116,7.67768,7.67449,7.6708155,7.6674643,7.6646147,7.660952,7.657072,7.653759,7.6495,7.6448355,7.641037,7.6371975,7.6330304,7.629431,7.626172,7.6221504,7.618219,7.614848,7.610773,7.6067414,7.6034946,7.599523,7.595377,7.592177,7.5892115,7.5864825,7.5844173,7.5824547,7.5798583,7.577091,7.5745897,7.5716004,7.568831,7.5668564,7.564896,7.562775,7.5607653,7.558647,7.555486,7.552105,7.549185,7.54582,7.542836,7.540536,7.537773,7.5351295,7.5331826,7.531188,7.529652,7.52887,7.528242,7.527809,7.52755,7.5272193,7.526721,7.526286,7.5260878,7.5262165,7.5265646,7.526855,7.52744,7.527561,7.5273457,7.52804,7.5295305
8.1999,8.198212,8.194719,8.188915,8.182581,8.174299,8.162716,8.150866,8.139042,8.124636,8.111383,8.100502,8.087795,8.0765085,8.06853,8.060045,8.052701,8.04774,8.042784,8.037619,8.033708,8.031399,8.029139,8.026957,8.02472,8.022325,8.01943,8.016216,8.012334,8.007923,8.004245,8.00112,7.998245,7.9960785,7.9942446,7.9916716,7.988904,7.986578,7.983613,7.980529,7.9779897,7.974738,7.970994,7.9677277,7.96427,7.9603252,7.956836,7.9536858,7.9501104,7.9466896,7.9436398,7.939866,7.9355316,7.931557,7.927703,7.9241667,7.9215927,7.9192786,7.916768,7.9145813,7.9127417,7.910657,7.908907,7.907674,7.9064484,7.9054604,7.904792,7.9041576,7.903652,7.903393,7.9033113,7.903448,7.90372,7.9039354,7.9042683,7.904695,7.9051204,7.9058304,7.906836,7.9077983,7.9088974,7.9099054,7.910475,7.910837,7.91107,7.911101,7.910981,7.9107313,7.9103103,7.909831,7.9091883,7.9084234,7.907751,7.907091,7.906248,7.905262,7.904057,7.9022126,7.900152,7.8982925,7.8961086,7.8941317,7.8927107,7.8911953,7.8895416,7.8879976,7.886283,7.884207,7.8822513,7.8803883,7.8781214,7.8759503,7.874111,7.871894,7.8697042,7.8679743,7.866102,7.864083,7.8622417,7.860097,7.857294,7.854513,7.8519254,7.848856,7.84614,7.8441076,7.8419304,7.8398356,7.838048,7.835983,7.833745,7.8318605,7.829954,7.827767,7.8257785,7.8239937,7.8217974,7.819559,7.8175774,7.815176,7.812559,7.810238,7.807315,7.803691,7.800289,7.7968073,7.792725,7.7891703,7.7862997,7.7832665,7.7806783,7.778648,7.776398,7.774268,7.7726326,7.770895,7.7691307,7.7677155,7.7664003,7.7649264,7.763621,7.762507,7.761297,7.7601166,7.7590446,7.7574725,7.7554483,7.7535543,7.75154,7.749403,7.7477593,7.746422,7.7453384,7.7447157,7.7442274,7.743799,7.743588,7.743559,7.7435236,7.7434835,7.7434196,7.7432327,7.742983,7.7427444,7.7424355,7.7422304,7.7421436,7.742056,7.7417808,7.7413244,7.7408667,7.7406206,7.740572,7.740674,7.7409897,7.7417674,7.7427197,7.7435293,7.7445154,7.7454147,7.7461286,7.746667,7.7467976,7.7466307,7.7460337,7.7449937,7.743907,7.7426662,7.7412825,7.7400637,7.738937,7.7372017,7.7349863,7.732746,7.729738,7.7262926,7.723293,7.7199507,7.716337,7.7132215,7.709956,7.7060013,7.702347,7.6992307,7.695509,7.6919365,7.6890106,7.685404,7.681634,7.6785464,7.675109,7.6715784,7.668784,7.666169,7.6629677,7.6598225,7.6569843,7.653731,7.6505265,7.647684,7.6442466,7.6406054,7.637606,7.634265,7.630496,7.627184,7.624072,7.620409,7.6169906,7.6140394,7.610256,7.60627,7.6028824,7.5985374,7.5937505,7.5898027,7.5857306,7.5812235,7.5772777,7.573682,7.569291,7.5650682,7.561491,7.5571995,7.55299,7.549617,7.5455136,7.541199,7.5378146,7.5346107,7.5315638,7.5292015,7.526972,7.5241394,7.521262,7.5187383,7.5158186,7.5132174,7.511421,7.5096407,7.507682,7.50578,7.50375,7.5006943,7.4974213,7.494603,7.4913507,7.488448,7.4861956,7.4834456,7.480755,7.4787316,7.476623,7.4749107,7.4739285,7.4730415,7.472311,7.471815,7.4713054,7.4706106,7.4699745,7.46958,7.4694047,7.469381,7.4693565,7.469638,7.469521,7.4692106,7.4699135,7.471542
8.14957,8.14814,8.144997,8.139609,8.133635,8.125734,8.114538,8.102987,8.091429,8.077259,8.064114,8.053213,8.0404625,8.029568,8.02248,8.014869,8.007663,8.002055,7.9962583,7.9909596,7.987681,7.985878,7.9835787,7.980505,7.976986,7.9722652,7.9668245,7.9618874,7.9567156,7.9515963,7.947607,7.9441204,7.940848,7.9383106,7.9361105,7.93309,7.929866,7.9271173,7.923607,7.919946,7.916934,7.9131613,7.90893,7.905327,7.9015703,7.8973527,7.8936605,7.8903246,7.886527,7.882905,7.879698,7.87578,7.871389,7.867444,7.863677,7.8603086,7.857916,7.8557973,7.853499,7.851454,7.849679,7.8475757,7.8456907,7.8442774,7.8427916,7.8414946,7.8405557,7.8396034,7.838687,7.8379974,7.837414,7.836852,7.836407,7.8359823,7.835553,7.8352594,7.8351054,7.8352003,7.8356705,7.8362703,7.8370385,7.8377466,7.838081,7.838215,7.8381414,7.837841,7.8374023,7.8367176,7.835829,7.8349605,7.833847,7.8325768,7.8314786,7.8303385,7.8289547,7.8275075,7.825891,7.823619,7.821253,7.81921,7.81689,7.814875,7.8134766,7.8120375,7.810515,7.8090935,7.8074846,7.805455,7.8034496,7.801469,7.7989616,7.7964897,7.79438,7.791831,7.7893057,7.787299,7.7850795,7.782668,7.7804956,7.778018,7.7749104,7.7719755,7.7693505,7.766378,7.763886,7.7620993,7.760257,7.7585254,7.757019,7.7552204,7.7531652,7.7513247,7.7493505,7.7469077,7.7445364,7.7423396,7.739584,7.7367773,7.734335,7.7313766,7.72822,7.7255,7.7221727,7.718228,7.7146845,7.7111797,7.707245,7.7039785,7.7014303,7.698883,7.696845,7.695292,7.693593,7.6919765,7.6906986,7.6892757,7.687722,7.6863785,7.6850786,7.68357,7.6822014,7.6810246,7.6797204,7.678438,7.6772904,7.6756487,7.6736345,7.671844,7.6700625,7.66839,7.667315,7.666587,7.6663094,7.666463,7.6666136,7.6668677,7.6672044,7.667536,7.6678047,7.667921,7.667878,7.6676664,7.6673546,7.667074,7.66677,7.6666408,7.6667128,7.6668134,7.666833,7.666774,7.66671,7.6670146,7.667689,7.6684837,7.6695576,7.671232,7.6729774,7.6744766,7.676199,7.6776733,7.678783,7.6796713,7.6800013,7.6799107,7.67938,7.6784244,7.6774554,7.676388,7.675251,7.6742773,7.6733656,7.6718864,7.6699257,7.6679106,7.665251,7.6622458,7.6596475,7.656782,7.6537046,7.651045,7.6482296,7.64476,7.6414785,7.6386337,7.635124,7.631606,7.628623,7.6248226,7.6208553,7.617704,7.6142693,7.6108,7.6080694,7.6055055,7.602359,7.599267,7.5964766,7.5933447,7.590346,7.587729,7.5846186,7.581401,7.5787992,7.5759096,7.5726037,7.5696144,7.5667305,7.563191,7.5597305,7.55665,7.5526524,7.5484147,7.544821,7.5402155,7.5351067,7.53084,7.526354,7.521304,7.5168457,7.5127783,7.5078917,7.503296,7.4994617,7.4949102,7.4905024,7.4870043,7.482778,7.478317,7.47476,7.4713106,7.467904,7.465176,7.4626017,7.4594326,7.4563446,7.4537144,7.4507675,7.4482417,7.4465513,7.444866,7.4429865,7.441135,7.43914,7.436144,7.4329553,7.4302335,7.4271083,7.4243193,7.422143,7.419445,7.4167376,7.414648,7.412417,7.4104557,7.409149,7.407832,7.4065228,7.4054575,7.4044466,7.4030786,7.401696,7.40063,7.3995094,7.398403,7.3974667,7.3967805,7.3957167,7.3947372,7.394951,7.3962126
8.109126,8.108052,8.10536,8.100445,8.094837,8.087284,8.076369,8.064959,8.053478,8.039287,8.025975,8.014812,8.001821,7.990758,7.983561,7.9750443,7.9666605,7.960284,7.953496,7.948252,7.9456186,7.9430237,7.939951,7.936595,7.933143,7.927888,7.921751,7.9165263,7.910774,7.904895,7.900243,7.8961086,7.892138,7.8890047,7.8862734,7.8826056,7.878731,7.875399,7.871147,7.866707,7.863054,7.858572,7.8536644,7.849583,7.845397,7.8407793,7.836788,7.833191,7.82909,7.825198,7.8217864,7.817666,7.813154,7.8091807,7.805426,7.802126,7.79982,7.7977934,7.7955837,7.793564,7.79175,7.7894955,7.787329,7.785595,7.7836556,7.7818184,7.7803993,7.7788796,7.777271,7.7759056,7.774579,7.773034,7.7716,7.7702894,7.76875,7.767498,7.766753,7.76624,7.7661915,7.7664213,7.766814,7.7671204,7.7670803,7.7668095,7.766183,7.7653017,7.7643332,7.7630157,7.7615747,7.760336,7.7588673,7.7573547,7.7561407,7.7548847,7.753392,7.751854,7.750148,7.747753,7.7452817,7.743183,7.7408237,7.738823,7.737479,7.736134,7.7347336,7.7334003,7.7318306,7.7297206,7.7275114,7.7252536,7.7223415,7.719491,7.7171316,7.714381,7.711793,7.7098207,7.707645,7.7052727,7.7031083,7.7006083,7.697448,7.6944733,7.6918545,7.6889486,7.6865883,7.684946,7.6833377,7.681883,7.6805983,7.67899,7.67701,7.675111,7.6729937,7.670286,7.6676245,7.6651707,7.6621165,7.659014,7.656305,7.6529765,7.6493883,7.646297,7.642594,7.6383133,7.6345644,7.63094,7.6269913,7.6238346,7.62145,7.6192265,7.6176214,7.616472,7.615222,7.613969,7.6128807,7.61156,7.609988,7.608571,7.6072197,7.605716,7.604436,7.6033874,7.602255,7.601143,7.600124,7.598626,7.5967236,7.5949974,7.5933075,7.5918026,7.590955,7.5904975,7.590686,7.591399,7.5920687,7.592905,7.5936966,7.594282,7.594721,7.594884,7.594833,7.5946484,7.5944633,7.594394,7.594343,7.5945497,7.5949545,7.595332,7.5956993,7.5959835,7.5961847,7.5968122,7.5978823,7.599061,7.6005745,7.6028624,7.605256,7.607391,7.6098514,7.611926,7.613434,7.6146154,7.615039,7.6149206,7.6143265,7.613346,7.612457,7.6116023,7.6108418,7.6102743,7.609729,7.6086454,7.606963,7.605075,7.6025414,7.5996246,7.59708,7.594307,7.591413,7.58899,7.5864706,7.583286,7.580124,7.5772533,7.57348,7.5695295,7.566148,7.5622005,7.55827,7.555153,7.551806,7.5484724,7.5458817,7.543462,7.540527,7.53768,7.535123,7.5323534,7.529806,7.5276165,7.525066,7.5224996,7.520467,7.5182104,7.515551,7.513028,7.5105004,7.507206,7.503782,7.500613,7.496398,7.4918537,7.4879827,7.4830194,7.4774814,7.4728146,7.4678445,7.462205,7.457217,7.452676,7.447312,7.4423666,7.4382887,7.4334984,7.4289236,7.425336,7.421029,7.4164777,7.4128075,7.409169,7.40545,7.402369,7.3994446,7.3958955,7.392514,7.3896837,7.386575,7.3839626,7.382227,7.3804803,7.378542,7.37665,7.374612,7.371604,7.36845,7.3657866,7.362767,7.360095,7.3580103,7.3553925,7.352709,7.350586,7.3482647,7.346054,7.3443794,7.3425736,7.3405266,7.3386545,7.3368874,7.3344364,7.331834,7.329681,7.327078,7.324308,7.3219852,7.3197784,7.3171377,7.3149414,7.314144,7.314458
8.081516,8.080855,8.078661,8.074231,8.068966,8.061708,8.050965,8.039562,8.0280075,8.01359,7.9999275,7.9884124,7.9746113,7.962282,7.9537783,7.944209,7.9348574,7.927619,7.920164,7.914213,7.91092,7.907668,7.904078,7.9009023,7.898279,7.895331,7.8905964,7.88438,7.87785,7.8711767,7.8658743,7.8610716,7.8563657,7.8525925,7.849287,7.8449264,7.8403673,7.8364296,7.8314123,7.826173,7.8218594,7.8166447,7.811034,7.806448,7.801806,7.796771,7.7924557,7.7885323,7.7840295,7.779763,7.776063,7.7716284,7.7668734,7.762767,7.7588806,7.755471,7.753093,7.7509995,7.7486987,7.7465506,7.74458,7.7420373,7.7394524,7.7372713,7.73472,7.732156,7.730088,7.7278147,7.7253175,7.7231245,7.720922,7.718268,7.7157536,7.7134824,7.710633,7.7085695,7.707921,7.707691,7.7080717,7.7086296,7.7092996,7.7097206,7.7095613,7.708977,7.7077537,7.7061825,7.7045984,7.702675,7.7009726,7.699825,7.6987777,7.69816,7.697967,7.6978893,7.6977234,7.6972513,7.6964235,7.6947937,7.6927714,7.690941,7.688802,7.6869764,7.685807,7.6847024,7.6835566,7.6823907,7.6808977,7.6786857,7.6762304,7.6736526,7.6704264,7.667579,7.6655617,7.6636505,7.6624517,7.6619387,7.6615267,7.6609964,7.660207,7.6589475,7.6567945,7.654355,7.6520624,7.649342,7.647014,7.6453757,7.643841,7.6425066,7.641327,7.639778,7.637721,7.635662,7.6334257,7.6307597,7.6284056,7.6264725,7.624295,7.622078,7.6199493,7.6170707,7.6135406,7.6102085,7.6061687,7.601303,7.5968914,7.592561,7.58776,7.583867,7.5808935,7.5782413,7.5765095,7.575385,7.574165,7.572815,7.5714846,7.5697856,7.567781,7.566133,7.564817,7.5637693,7.563299,7.563158,7.5632,7.5631833,7.562929,7.5621614,7.5605545,7.558647,7.5565066,7.5541906,7.5525236,7.551342,7.551073,7.551815,7.5527515,7.5540233,7.5551825,7.555892,7.5563364,7.5564747,7.556512,7.556691,7.557333,7.5582833,7.55923,7.5605145,7.5616817,7.5624876,7.5631614,7.563339,7.563115,7.5630193,7.5630994,7.563406,7.5640535,7.5657215,7.56798,7.5702415,7.573018,7.5753794,7.576996,7.577985,7.5779133,7.5772843,7.5760593,7.574558,7.5734997,7.572809,7.572575,7.5726266,7.5725946,7.5718975,7.57007,7.567588,7.5639544,7.559455,7.5553875,7.5509167,7.5463657,7.542762,7.5392637,7.534798,7.5301256,7.525634,7.519431,7.513013,7.507805,7.5034914,7.50002,7.4970436,7.4938726,7.4907546,7.4883738,7.4861736,7.483565,7.481095,7.4789095,7.4766855,7.4747753,7.4731607,7.4713435,7.4695735,7.4681935,7.46664,7.464714,7.4627676,7.4607363,7.457879,7.4546714,7.4515605,7.447268,7.4425025,7.438387,7.4331255,7.427242,7.422269,7.416952,7.4109125,7.4055834,7.4007416,7.395122,7.389971,7.38564,7.380601,7.3758554,7.372172,7.367794,7.36317,7.3594055,7.355612,7.351611,7.3481913,7.3449183,7.3409595,7.337229,7.33414,7.330784,7.327976,7.3260975,7.324198,7.3221283,7.320157,7.318055,7.3150234,7.311905,7.309312,7.306424,7.3039083,7.301957,7.2994766,7.2968764,7.2947702,7.2924256,7.290024,7.2880177,7.2857666,7.2829957,7.280279,7.2776976,7.274067,7.2701216,7.266771,7.262555,7.2579937,7.2541785,7.2503138,7.245921,7.242337,7.240347,7.239483
8.02355,8.023251,8.021491,8.01749,8.012524,8.005468,7.994731,7.9831276,7.9712634,7.956295,7.94194,7.92976,7.9149365,7.9008865,7.8902493,7.87914,7.8685913,7.8603396,7.851824,7.844846,7.840837,7.8370113,7.8330603,7.82993,7.827737,7.8238335,7.8176436,7.810787,7.803401,7.7957735,7.789652,7.7839622,7.7782235,7.7735157,7.7693543,7.763962,7.7584066,7.75361,7.7475276,7.7412014,7.7360134,7.7298326,7.723297,7.718046,7.712815,7.707176,7.702525,7.698671,7.6944833,7.6906376,7.687258,7.6832447,7.6789355,7.6751914,7.6717834,7.6689577,7.667097,7.665491,7.66368,7.6618953,7.660187,7.657898,7.6555257,7.6535316,7.651248,7.6490164,7.64725,7.6453066,7.643078,7.6409755,7.6387377,7.635751,7.632668,7.6298,7.626191,7.623172,7.6214705,7.62002,7.6192007,7.6188517,7.618577,7.617996,7.616975,7.6155486,7.6132708,7.610668,7.608178,7.605188,7.602544,7.6007414,7.5990505,7.5979424,7.59746,7.5971,7.596666,7.5959797,7.5949497,7.593101,7.5909014,7.588934,7.586643,7.584688,7.583428,7.5822597,7.581071,7.579855,7.5782375,7.5757046,7.572756,7.569557,7.565444,7.561718,7.5590124,7.556404,7.554655,7.553771,7.5529375,7.5519686,7.550819,7.5491934,7.5466633,7.543943,7.541438,7.5385613,7.5361967,7.534586,7.5332146,7.5321813,7.531305,7.5300865,7.5282884,7.5263324,7.5241137,7.521372,7.518882,7.5167933,7.5144186,7.5119414,7.5095067,7.5061817,7.5021467,7.4984155,7.4940186,7.488966,7.484581,7.480376,7.475889,7.472417,7.4698434,7.4678063,7.466797,7.466319,7.4658103,7.465033,7.464003,7.4624367,7.460373,7.458574,7.4570985,7.4559364,7.455455,7.455352,7.455453,7.455509,7.455327,7.4546533,7.4531164,7.4512305,7.449085,7.446789,7.445202,7.444145,7.444189,7.4453773,7.4467697,7.4485564,7.4500923,7.450975,7.451458,7.4515038,7.451457,7.4516726,7.4525285,7.453821,7.4551744,7.4569654,7.458623,7.4598584,7.461072,7.461837,7.4621353,7.462673,7.463528,7.4645777,7.4660254,7.46879,7.472223,7.475665,7.479883,7.4835157,7.486066,7.4879,7.4883795,7.4880466,7.487034,7.485738,7.4849463,7.484672,7.485077,7.4858065,7.4863987,7.4864373,7.4852653,7.4832726,7.4802275,7.4763746,7.4728956,7.469138,7.465597,7.463087,7.460828,7.457795,7.4542494,7.450548,7.4448647,7.438472,7.433053,7.4278355,7.4233904,7.420018,7.4165688,7.4131923,7.4105577,7.408166,7.405406,7.402808,7.4004526,7.39791,7.395628,7.3937235,7.3916116,7.389762,7.3885517,7.3873844,7.38573,7.3836613,7.381215,7.3773994,7.3729925,7.3688507,7.363311,7.3573856,7.352418,7.3459854,7.338602,7.3321595,7.325067,7.3169255,7.3097696,7.3033113,7.295697,7.289302,7.2850857,7.280115,7.275428,7.2718263,7.267579,7.2630997,7.259426,7.2556686,7.2516108,7.248062,7.244645,7.240511,7.236635,7.23345,7.229998,7.2270966,7.225131,7.2231355,7.220991,7.2189865,7.2168627,7.213848,7.210783,7.2082567,7.2054586,7.203018,7.2011075,7.1986427,7.196006,7.193833,7.191413,7.1888065,7.1864777,7.183819,7.180396,7.17693,7.1736336,7.1689596,7.163821,7.1594124,7.153718,7.1474586,7.142193,7.1366425,7.1303387,7.1251326,7.1216965,7.1192317
7.919736,7.919446,7.917774,7.913906,7.909012,7.901902,7.8909063,7.8789234,7.866639,7.851019,7.835898,7.822921,7.8076296,7.7930408,7.7814436,7.7692943,7.75741,7.747744,7.7373734,7.728388,7.7228675,7.7178736,7.7121515,7.7068977,7.7027164,7.695751,7.6873693,7.680296,7.672302,7.6639132,7.657074,7.6505456,7.6437516,7.6380353,7.632924,7.626383,7.619731,7.6140127,7.6068096,7.599364,7.5932865,7.586157,7.578742,7.572875,7.567091,7.5609407,7.5560474,7.552294,7.5483503,7.5447893,7.5416355,7.5379167,7.5338974,7.530359,7.527148,7.5244555,7.522622,7.5209503,7.518956,7.516933,7.5149994,7.5124235,7.509779,7.5075827,7.50508,7.5026617,7.5007715,7.4986873,7.4962273,7.493809,7.491167,7.487439,7.4834294,7.479659,7.474945,7.4704256,7.4669285,7.4632735,7.4601564,7.4580107,7.4558787,7.453447,7.4510107,7.44839,7.444845,7.441179,7.437835,7.433819,7.430175,7.427564,7.4249163,7.4227924,7.421464,7.420185,7.418777,7.417323,7.4156504,7.4132214,7.410648,7.408433,7.4058523,7.403575,7.4019995,7.400442,7.3988266,7.397251,7.3952427,7.3921847,7.388632,7.3847427,7.3795986,7.3746767,7.370834,7.366742,7.363326,7.360957,7.3583345,7.3554525,7.3527822,7.349704,7.3457804,7.3420696,7.3387985,7.3351827,7.332274,7.330266,7.328512,7.3272276,7.326234,7.324952,7.3231335,7.3211474,7.318843,7.315873,7.313013,7.310463,7.307414,7.304224,7.3012104,7.297255,7.292775,7.2888803,7.2844605,7.2797556,7.275978,7.272515,7.269042,7.266546,7.264786,7.263653,7.263441,7.263584,7.2637587,7.2635937,7.262988,7.2617474,7.2598505,7.258024,7.256381,7.2548766,7.2539577,7.2534065,7.2529097,7.252399,7.2518225,7.250783,7.2490587,7.2471724,7.2450995,7.242985,7.2415915,7.240702,7.240808,7.241907,7.2431593,7.2446938,7.2459207,7.2465477,7.246723,7.2464123,7.24601,7.245653,7.24584,7.246659,7.247735,7.2493973,7.251169,7.252655,7.2542915,7.2557783,7.2569327,7.2586117,7.2609177,7.263318,7.2661986,7.270561,7.275359,7.2800026,7.285634,7.2905865,7.2942414,7.2972527,7.298751,7.2991524,7.2988787,7.298319,7.2981653,7.298587,7.299925,7.3016496,7.3032255,7.304555,7.304863,7.304342,7.303259,7.3016586,7.3001676,7.2987223,7.297929,7.2979765,7.298362,7.298607,7.298148,7.297133,7.294513,7.290594,7.2867603,7.281909,7.277289,7.274169,7.271084,7.268111,7.2657833,7.263706,7.2613583,7.2591476,7.257103,7.2546997,7.2523327,7.2502785,7.247979,7.24607,7.2449884,7.2441263,7.2427692,7.2407713,7.2382145,7.2339897,7.2290535,7.2245083,7.2185054,7.2122,7.207,7.200165,7.1921635,7.185046,7.1770773,7.167795,7.1595845,7.152163,7.143644,7.137,7.13328,7.1288605,7.1246505,7.121386,7.1175213,7.1134205,7.110038,7.106559,7.1027412,7.099353,7.0960803,7.0921373,7.088459,7.0854387,7.082205,7.0795326,7.077752,7.075985,7.0741153,7.072363,7.070507,7.067746,7.0648494,7.0624437,7.05981,7.0575113,7.0556765,7.053247,7.0505524,7.0482516,7.045562,7.0424337,7.0394564,7.036022,7.031292,7.0262165,7.021311,7.0142393,7.0063367,6.9994493,6.9906254,6.981056,6.9731092,6.9646497,6.9552755,6.947503,6.9415026,6.9362383
7.794265,7.7936373,7.7917175,7.7877026,7.782707,7.775447,7.7641973,7.751895,7.739238,7.723093,7.7074056,7.6937857,7.67865,7.6649103,7.6541066,7.641754,7.6286163,7.617358,7.6047564,7.5930204,7.5851116,7.5781784,7.5691814,7.5599527,7.551952,7.5428696,7.534128,7.526942,7.518648,7.509819,7.502508,7.495379,7.487774,7.4812455,7.475354,7.467862,7.460308,7.4538426,7.445757,7.437453,7.430704,7.4228687,7.4148083,7.408495,7.4023104,7.3958936,7.390836,7.386817,7.3823433,7.3781586,7.374526,7.3702307,7.365634,7.3616247,7.357703,7.3540044,7.3511295,7.348299,7.344882,7.341549,7.3384933,7.3345604,7.3305492,7.327153,7.3231063,7.318989,7.3156652,7.3119793,7.307766,7.3038483,7.2997437,7.2942905,7.288671,7.283492,7.276991,7.270705,7.2658114,7.260433,7.2554865,7.2518387,7.248105,7.2440457,7.240372,7.2367353,7.2321906,7.2277956,7.223959,7.2194276,7.215377,7.212495,7.209547,7.207144,7.2056007,7.204097,7.202472,7.200878,7.1991177,7.196661,7.194108,7.1919174,7.189266,7.1867666,7.184903,7.182903,7.180731,7.178673,7.17618,7.172591,7.168566,7.1642237,7.1584754,7.1528864,7.1484113,7.1434674,7.1390476,7.135751,7.1319895,7.1278443,7.1241255,7.120025,7.115032,7.11044,7.10641,7.101872,7.0980477,7.0952463,7.0925126,7.090254,7.0885143,7.0864835,7.0839972,7.0815563,7.0788794,7.075552,7.0724125,7.0696344,7.0663247,7.0629606,7.0598936,7.0559597,7.0516615,7.048039,7.0439997,7.0398536,7.0366526,7.033785,7.030941,7.0288935,7.0274262,7.0264664,7.0262604,7.026348,7.026453,7.0262403,7.025633,7.024413,7.022546,7.02073,7.0190635,7.0174723,7.016406,7.015685,7.0149307,7.0141406,7.013342,7.0120664,7.0101237,7.0080676,7.0057936,7.003335,7.0014915,7.000085,6.9993224,6.9993906,6.999692,7.0000734,7.00024,7.0001016,6.999564,6.9986653,6.997784,6.996579,6.995796,6.995932,6.9965553,6.997922,6.999627,7.001137,7.002821,7.0044794,7.0059114,7.007942,7.0106816,7.013476,7.016786,7.021512,7.026492,7.031225,7.0370045,7.042234,7.046261,7.0497265,7.0517178,7.052556,7.052808,7.0528836,7.0533495,7.0544853,7.056861,7.0597334,7.062444,7.0651827,7.066984,7.067875,7.0685415,7.0687485,7.06872,7.068975,7.070161,7.072033,7.074301,7.0770054,7.079036,7.0802946,7.0805326,7.0792794,7.0774107,7.074744,7.072105,7.0704174,7.068799,7.0673695,7.0663586,7.065502,7.064579,7.063728,7.0629635,7.0619497,7.060728,7.059482,7.058064,7.056905,7.0563107,7.0559072,7.0552197,7.0540648,7.0524907,7.049675,7.0462008,7.0429134,7.038365,7.0333967,7.0292163,7.023651,7.0171113,7.01131,7.0048237,6.9971075,6.9901514,6.9837904,6.977137,6.972206,6.9690585,6.9654083,6.9619093,6.9591026,6.955721,6.9520783,6.9490585,6.9459715,6.942562,6.939514,6.93657,6.933058,6.929802,6.9271173,6.924334,6.9221644,6.920817,6.91957,6.918282,6.9170227,6.915675,6.9133587,6.910722,6.908495,6.906111,6.904048,6.902361,6.900044,6.8973465,6.8949366,6.8918695,6.8880243,6.8841925,6.8797474,6.873253,6.865941,6.8587465,6.8482475,6.836376,6.825904,6.8127394,6.798702,6.7871685,6.774934,6.7617207,6.7507815,6.7413993,6.7325034
7.6314454,7.630497,7.6283016,7.624215,7.619444,7.6134415,7.60392,7.5924883,7.578973,7.5616093,7.544974,7.5307198,7.5141587,7.4985237,7.4861097,7.4721212,7.4578147,7.445815,7.4312677,7.4155846,7.403211,7.3925242,7.3802767,7.3692217,7.3601704,7.350134,7.340661,7.3328867,7.3237085,7.3137646,7.3054338,7.2971725,7.288232,7.2804995,7.273526,7.2647333,7.255967,7.248515,7.239313,7.2300835,7.222746,7.213856,7.204462,7.197049,7.1900024,7.182828,7.1770754,7.1721478,7.1664157,7.16086,7.1559935,7.150125,7.143895,7.138581,7.133175,7.127808,7.1234503,7.119091,7.1138906,7.1089215,7.1043987,7.0985684,7.0925274,7.0873117,7.080941,7.074335,7.068989,7.0632386,7.0571184,7.051895,7.046734,7.0403757,7.0341396,7.0284386,7.021305,7.0143185,7.008745,7.0024157,6.9963226,6.991652,6.9867463,6.9814434,6.9768167,6.9723864,6.9670744,6.9621162,6.9578643,6.952862,6.948347,6.945058,6.9416895,6.9389477,6.937228,6.935664,6.9341545,6.9327774,6.9312286,6.929097,6.92686,6.924881,6.9224167,6.9199367,6.9179335,6.91551,6.9126596,6.909954,6.9067836,6.902484,6.8979135,6.893164,6.886915,6.880748,6.8756633,6.869892,6.8646097,6.8606486,6.856225,6.8515472,6.847522,6.8431497,6.838052,6.8335276,6.8295865,6.8251467,6.821306,6.818367,6.815116,6.811951,6.8092775,6.8060207,6.80213,6.798501,6.794573,6.789705,6.7851143,6.781039,6.776355,6.7721424,6.7688313,6.7650423,6.761382,6.7585096,6.755253,6.7518735,6.749203,6.746747,6.744159,6.7421055,6.7405224,6.7389836,6.737832,6.7370257,6.7360573,6.734858,6.733612,6.7319,6.7296333,6.7274876,6.725429,6.7233253,6.7218027,6.7207546,6.7197523,6.7188826,6.7181034,6.716817,6.714997,6.713199,6.7112646,6.7091722,6.7075105,6.7061176,6.704754,6.7036657,6.702738,6.701473,6.7000465,6.6987896,6.69715,6.6952715,6.6936846,6.6920185,6.6907234,6.69031,6.6904187,6.69123,6.692506,6.6937275,6.6951275,6.6965547,6.6978073,6.6995707,6.7018013,6.703929,6.706398,6.7097015,6.713045,6.71622,6.7201557,6.723811,6.7266855,6.7294855,6.731515,6.732704,6.7336874,6.734713,6.7358847,6.7374926,6.740154,6.7431498,6.745972,6.749014,6.751405,6.753029,6.754758,6.756317,6.757543,6.759103,6.761238,6.7634706,6.7659345,6.768921,6.771517,6.7735786,6.775475,6.776504,6.776801,6.7768335,6.7768564,6.777108,6.7775326,6.7782235,6.7789555,6.779683,6.7804914,6.7811546,6.7816772,6.782374,6.7829022,6.78306,6.7831373,6.783022,6.782807,6.7825394,6.7819977,6.7812433,6.780365,6.7789564,6.7772284,6.7755013,6.772908,6.769909,6.767332,6.7639565,6.7601404,6.7568903,6.7533064,6.74899,6.7450066,6.7413244,6.7372837,6.733985,6.7315745,6.728798,6.7261586,6.7240567,6.7214956,6.7187552,6.716532,6.714323,6.712057,6.710154,6.7083015,6.706008,6.7038164,6.701997,6.7001915,6.6989236,6.6982594,6.69771,6.69703,6.6961718,6.695145,6.693158,6.690776,6.6887264,6.6863127,6.6839256,6.6817827,6.678879,6.67572,6.6731443,6.6701627,6.66665,6.6632366,6.659353,6.6536665,6.6471786,6.640707,6.6311693,6.620241,6.6104784,6.598457,6.58492,6.5727882,6.559206,6.543556,6.5297775,6.517001,6.503477
7.392252,7.38935,7.3856454,7.3808427,7.3758564,7.369702,7.3589067,7.3452597,7.329546,7.3096085,7.2907057,7.2746906,7.2553024,7.2361784,7.2206154,7.202841,7.184959,7.1706057,7.1543255,7.1365004,7.1218615,7.1091695,7.0954504,7.0839634,7.074991,7.064852,7.0550632,7.046914,7.0371494,7.02644,7.0174103,7.0083876,6.9985847,6.9900837,6.982378,6.972661,6.962989,6.95477,6.9446898,6.934672,6.926778,6.917327,6.9074345,6.8996773,6.8923635,6.884904,6.878789,6.873337,6.8668184,6.8603516,6.8546357,6.847637,6.840164,6.8338056,6.8271675,6.820379,6.8147497,6.8090925,6.8024244,6.7961874,6.790597,6.783514,6.7762957,6.7701235,6.762594,6.754855,6.7486725,6.7421594,6.7355986,6.7303667,6.725412,6.719621,6.7141128,6.7090626,6.702707,6.696375,6.6912136,6.685201,6.679204,6.674465,6.669367,6.663822,6.659049,6.6545544,6.6493206,6.644592,6.640626,6.6360292,6.631941,6.628991,6.626046,6.623768,6.622447,6.6213675,6.6204348,6.619566,6.6184683,6.616828,6.6149597,6.6132073,6.6109066,6.6084204,6.606289,6.603553,6.6002707,6.597228,6.59381,6.58945,6.5850725,6.5807066,6.575054,6.5695105,6.5649314,6.5597353,6.555029,6.551563,6.5477777,6.5438514,6.5404854,6.5367794,6.532421,6.5284944,6.5250025,6.520917,6.517146,6.5140924,6.5101547,6.5058985,6.50228,6.4979434,6.493021,6.4887047,6.484234,6.4789085,6.4740553,6.4698358,6.4651384,6.4611907,6.458334,6.455307,6.4526105,6.4505596,6.44812,6.4454155,6.443098,6.440833,6.4381723,6.435767,6.4337444,6.431327,6.429039,6.427229,6.4251137,6.422923,6.421084,6.418989,6.416581,6.4144645,6.412486,6.4105234,6.4091835,6.4083443,6.4076815,6.4072065,6.40676,6.4058104,6.404295,6.4027176,6.4009438,6.398858,6.3969965,6.395259,6.393055,6.3908052,6.3887568,6.3861203,6.383474,6.3814116,6.3790874,6.376773,6.375007,6.3734417,6.372284,6.3718605,6.3718677,6.3724365,6.3733506,6.3741884,6.37502,6.3756866,6.3761673,6.3769617,6.377863,6.3785896,6.3794594,6.380557,6.381649,6.3827496,6.384248,6.3858457,6.387271,6.3890276,6.390727,6.391987,6.393342,6.3949604,6.396617,6.398596,6.4015055,6.404601,6.4074883,6.4106927,6.4133673,6.415312,6.4174967,6.4196105,6.421316,6.4232855,6.425319,6.4269648,6.4286985,6.430809,6.4328237,6.4346447,6.4369235,6.4391065,6.440798,6.4427595,6.444847,6.4466667,6.4487686,6.4511786,6.453274,6.4552135,6.4572887,6.458979,6.4603066,6.4620147,6.4635153,6.4644175,6.4652147,6.4654574,6.4652004,6.4647164,6.463961,6.463267,6.4627223,6.4623356,6.4621253,6.461896,6.461394,6.4607124,6.4601192,6.459252,6.458288,6.457541,6.4567795,6.4557276,6.4545636,6.453387,6.4517736,6.4501266,6.4487524,6.447135,6.4455376,6.4442205,6.442565,6.440757,6.439306,6.437942,6.4367785,6.4359965,6.4352303,6.4342155,6.4331884,6.4323235,6.4315743,6.431233,6.4312296,6.431378,6.4313464,6.4309435,6.4302588,6.428542,6.426288,6.424219,6.4219265,6.4196787,6.417503,6.4145856,6.4114475,6.408931,6.4061756,6.403323,6.4008846,6.398247,6.3944807,6.3901176,6.3856163,6.3788595,6.3709755,6.3638406,6.355057,6.3448772,6.335375,6.3239937,6.3096685,6.2958884,6.2818503,6.265347
7.1483855,7.1425285,7.1364136,7.1301956,7.1243925,7.1165466,7.1026144,7.085807,7.0685396,7.0469475,7.0264854,7.0092244,6.9883327,6.967494,6.950243,6.9299088,6.9091063,6.892748,6.8762536,6.8594446,6.846058,6.8342915,6.8213916,6.8104477,6.801902,6.7922063,6.7827406,6.774765,6.7651386,6.7545104,6.7455215,6.7365317,6.726769,6.7182903,6.710553,6.7007723,6.691016,6.6827106,6.672533,6.6623697,6.654313,6.6451406,6.635871,6.6287065,6.621853,6.6147456,6.608817,6.6035175,6.5971174,6.5907063,6.5850205,6.577995,6.570401,6.563876,6.5569477,6.5497236,6.543661,6.5375586,6.5304255,6.523882,6.518136,6.511062,6.5041,6.4982986,6.4913163,6.4842935,6.4787965,6.4731092,6.4675093,6.463154,6.459154,6.4545827,6.450294,6.4463825,6.441425,6.4364104,6.4322586,6.4273353,6.4223003,6.418231,6.4137707,6.4088635,6.404649,6.400729,6.3962593,6.3923388,6.3891363,6.3855004,6.3823767,6.38021,6.3781357,6.3766623,6.37591,6.3753757,6.374915,6.374351,6.3735127,6.3720713,6.370283,6.3685536,6.3662024,6.363595,6.3613396,6.358487,6.355179,6.352243,6.349107,6.3453503,6.341786,6.3383656,6.3340387,6.3299,6.326565,6.3228703,6.319644,6.3173485,6.314885,6.312283,6.3099375,6.307235,6.3038235,6.300521,6.2974567,6.293652,6.2899065,6.2867584,6.282407,6.277631,6.2737007,6.269189,6.264378,6.260431,6.256591,6.252308,6.248624,6.2455425,6.242218,6.239497,6.237541,6.235483,6.2335825,6.23203,6.2300787,6.2277207,6.225535,6.2233005,6.220495,6.2177887,6.215412,6.2124796,6.2096376,6.2073727,6.204795,6.2022877,6.200341,6.198311,6.1962147,6.194549,6.193115,6.191866,6.1912017,6.1909323,6.190914,6.190997,6.190947,6.1904345,6.189222,6.1877313,6.1859293,6.183611,6.1813917,6.1792383,6.176496,6.1737633,6.1713486,6.1684093,6.1656466,6.1636014,6.161487,6.159624,6.158354,6.1573067,6.1567054,6.1566954,6.156988,6.1577215,6.158555,6.1591563,6.1595197,6.15942,6.1590567,6.1587467,6.1582623,6.1576962,6.157178,6.1566496,6.1562753,6.156037,6.15599,6.1563325,6.1569424,6.1579494,6.1591744,6.160205,6.161417,6.162996,6.164671,6.1667194,6.1697164,6.1728864,6.175861,6.1791267,6.181758,6.183571,6.1855307,6.187282,6.188588,6.1900563,6.191334,6.192159,6.193062,6.19419,6.195366,6.1965294,6.1982512,6.2002378,6.202012,6.2042437,6.206771,6.2090006,6.211593,6.2145195,6.217,6.219267,6.221635,6.2234793,6.2248597,6.2264767,6.22775,6.2284117,6.2288914,6.228801,6.228304,6.227598,6.2266955,6.225997,6.225544,6.225565,6.2260714,6.226653,6.227392,6.2281895,6.228908,6.2296004,6.2302485,6.2307825,6.231408,6.231864,6.2319436,6.2318115,6.23139,6.230822,6.2303433,6.229722,6.22896,6.2282014,6.227164,6.225934,6.2249136,6.224014,6.223398,6.2231445,6.222904,6.2225637,6.2221856,6.2218485,6.2216654,6.2217817,6.222071,6.222555,6.2229013,6.2228317,6.222459,6.2209883,6.218852,6.216797,6.2148323,6.2131443,6.2114496,6.2091727,6.20662,6.204461,6.202052,6.1998444,6.198323,6.1968203,6.1947865,6.1923504,6.1896496,6.1854715,6.180473,6.1758823,6.1700535,6.163624,6.157982,6.1504965,6.139743,6.127988,6.1144657,6.096904
6.954834,6.9466915,6.9382315,6.9301414,6.923231,6.914406,6.9011903,6.886506,6.8711915,6.8518114,6.8334236,6.818161,6.7998943,6.78188,6.7670565,6.7496405,6.7319145,6.718025,6.703963,6.689508,6.6778455,6.667491,6.6559706,6.6460533,6.6382613,6.629346,6.6205306,6.6130357,6.603915,6.593769,6.5851483,6.5765142,6.567089,6.5588927,6.5514574,6.54214,6.5329266,6.5251245,6.51561,6.506145,6.4986477,6.49007,6.4813337,6.474518,6.4679565,6.461069,6.4552565,6.4500246,6.4438033,6.4376383,6.4321637,6.4253645,6.417983,6.411624,6.4048557,6.3977723,6.391819,6.3858404,6.3788986,6.3726015,6.367132,6.360487,6.354042,6.3487234,6.3423457,6.335968,6.3310046,6.3260202,6.320735,6.3162093,6.3121552,6.307548,6.3034067,6.2999144,6.295658,6.2914324,6.287904,6.283709,6.279396,6.2758856,6.2720175,6.2677236,6.26403,6.2606573,6.2568407,6.2534933,6.25074,6.247559,6.2447405,6.242716,6.240704,6.2391605,6.23827,6.237544,6.236802,6.2359533,6.2348456,6.233086,6.2310257,6.229098,6.2265754,6.223871,6.2215767,6.218727,6.215508,6.2127237,6.2098417,6.2065363,6.203522,6.200704,6.197164,6.1937776,6.1910334,6.1879873,6.1853495,6.1835117,6.181583,6.179554,6.1776857,6.175471,6.1725917,6.169738,6.167061,6.163715,6.160413,6.1576285,6.153997,6.150078,6.1467986,6.1430473,6.139106,6.135931,6.132862,6.1294184,6.1264086,6.123844,6.1210527,6.1187882,6.1172137,6.115629,6.1141872,6.1129694,6.1113696,6.1093063,6.1072903,6.105194,6.1025248,6.0999193,6.0976048,6.0947056,6.091854,6.089558,6.0869746,6.084545,6.0827465,6.080975,6.0792446,6.0779057,6.0767407,6.075735,6.075242,6.0751123,6.0752697,6.0755396,6.075657,6.075344,6.074394,6.0731936,6.071841,6.070133,6.0684834,6.066846,6.064665,6.06242,6.0604215,6.058034,6.0558987,6.054426,6.053022,6.0519085,6.051215,6.050679,6.0504856,6.0506897,6.051098,6.0518956,6.052709,6.0532227,6.0535026,6.0531826,6.0524464,6.0513124,6.049738,6.0482664,6.046791,6.045359,6.044321,6.043413,6.0426126,6.042302,6.042407,6.0428405,6.0435467,6.04421,6.045224,6.0466127,6.0479946,6.049576,6.0518413,6.054287,6.056737,6.0593367,6.061245,6.062387,6.063512,6.064389,6.064987,6.065687,6.0661845,6.0663877,6.0666933,6.0671673,6.0677795,6.0684605,6.069607,6.071048,6.0723834,6.0741377,6.0762367,6.07817,6.0805473,6.083359,6.0857997,6.088048,6.0903373,6.0920143,6.093176,6.094463,6.095412,6.0958633,6.09621,6.0961647,6.095831,6.0953474,6.094778,6.0944242,6.0943155,6.0947304,6.0955806,6.096449,6.097457,6.0984507,6.0993056,6.100434,6.101817,6.103086,6.1044126,6.1056337,6.10636,6.10677,6.1069083,6.106815,6.1067476,6.1066256,6.106337,6.1059294,6.105277,6.1044574,6.103798,6.103287,6.1030803,6.103157,6.1032295,6.1032085,6.1030693,6.102902,6.102845,6.1030025,6.103286,6.1037283,6.1040483,6.1040325,6.103882,6.102809,6.1011457,6.099678,6.09799,6.09633,6.0947933,6.092739,6.090576,6.0889053,6.0872374,6.0859694,6.085326,6.0848446,6.084315,6.083579,6.0825415,6.080792,6.0784807,6.0761795,6.073381,6.0701923,6.0670857,6.0618763,6.052694,6.0412617,6.0268683,6.0069647
6.797856,6.7884398,6.778737,6.769811,6.762579,6.7536783,6.7413664,6.7282724,6.7145357,6.6971765,6.6808467,6.6674995,6.6517353,6.6363897,6.6238413,6.6091604,6.5943317,6.5827804,6.571047,6.558844,6.548805,6.539735,6.529414,6.520305,6.5130363,6.5045986,6.4961333,6.4888897,6.4800243,6.470133,6.4617414,6.453372,6.4442887,6.4364552,6.4293957,6.4207287,6.4123464,6.405346,6.3968544,6.388476,6.381884,6.3742948,6.366479,6.3602943,6.3542676,6.347931,6.342512,6.3374596,6.331255,6.324989,6.3194437,6.312566,6.3051176,6.2987175,6.291919,6.284844,6.278946,6.2730684,6.266331,6.2603235,6.25518,6.249105,6.24336,6.238657,6.233031,6.227421,6.2230663,6.2186937,6.2142525,6.2106495,6.207486,6.20399,6.200879,6.1982107,6.194912,6.191598,6.188822,6.1855106,6.1820745,6.179244,6.1760855,6.1725383,6.1694617,6.166648,6.163478,6.160703,6.158408,6.1557083,6.15323,6.1513715,6.149432,6.147774,6.146656,6.145611,6.144394,6.143055,6.1414757,6.139145,6.1365757,6.1342487,6.131319,6.128299,6.125798,6.1227884,6.1195383,6.1168523,6.114209,6.1114006,6.109028,6.1069164,6.104321,6.1018667,6.0998907,6.097719,6.0958967,6.094684,6.093463,6.0921526,6.0908594,6.0892324,6.0869827,6.0846653,6.0824842,6.079709,6.0769157,6.074519,6.071472,6.0682216,6.0654974,6.0624304,6.0593195,6.0569124,6.054641,6.052085,6.0497894,6.0477567,6.045499,6.043641,6.042347,6.0410585,6.0398645,6.0387974,6.037154,6.0347834,6.032345,6.029783,6.0266743,6.0238442,6.0214877,6.0184855,6.015479,6.0130396,6.0103226,6.0078664,6.006156,6.0045786,6.003154,6.002101,6.0011787,6.000375,5.9999657,5.999837,5.9999313,6.000106,6.0001545,5.999832,5.999014,5.9980407,5.996969,5.995687,5.9944916,5.9932857,5.9916515,5.989953,5.9884357,5.9866815,5.9852333,5.9843554,5.983663,5.983295,5.983181,5.983161,5.98339,5.983821,5.9843383,5.985154,5.9858847,5.9862757,5.986408,5.9859943,5.9852476,5.984167,5.9826875,5.981269,5.979767,5.9780817,5.976638,5.9753437,5.974024,5.9731817,5.9728255,5.972783,5.9731073,5.9735126,5.9741507,5.9750586,5.975967,5.9769745,5.978423,5.9799747,5.9815025,5.9830112,5.9839687,5.9844203,5.9847493,5.984848,5.984812,5.984679,5.9841957,5.9835124,5.9828353,5.982078,5.9815493,5.981273,5.9813304,5.9818306,5.982484,5.98354,5.9850025,5.986433,5.9882917,5.9906015,5.9926724,5.9945955,5.996613,5.9981756,5.9993334,6.0007296,6.0019503,6.0027432,6.0035152,6.0039744,6.004099,6.004103,6.0040627,6.004164,6.004511,6.0054398,6.0067544,6.008034,6.0095377,6.0109844,6.0121694,6.0136056,6.0152607,6.016734,6.0182123,6.0195856,6.020441,6.0209465,6.021163,6.021144,6.021182,6.0211883,6.021039,6.0207586,6.020235,6.0195475,6.018991,6.0185566,6.018337,6.0183163,6.0182924,6.0180726,6.017664,6.0172386,6.01684,6.0166187,6.0165744,6.01664,6.0166144,6.0163937,6.0161266,6.0150576,6.0135365,6.012328,6.010846,6.0093937,6.008173,6.00655,6.00494,6.003819,6.002886,6.0024834,6.0026126,6.0029526,6.003621,6.0042562,6.0045633,6.004833,6.004833,6.0045595,6.0043707,6.003987,6.003147,6.000162,5.992799,5.9820957,5.967367,5.945446
6.715908,6.7066894,6.6970835,6.6881623,6.6809525,6.6723156,6.6606007,6.6483555,6.63577,6.620166,6.6057053,6.5939384,6.5801916,6.5670233,6.5563955,6.5440364,6.531625,6.5219707,6.512125,6.5017843,6.4931083,6.4850674,6.475643,6.467101,6.4602165,6.4521337,6.443952,6.436945,6.428394,6.4188747,6.4108176,6.402815,6.39418,6.3868027,6.380224,6.37227,6.3647165,6.358501,6.351034,6.3436556,6.3377743,6.3308396,6.3235927,6.317821,6.3121386,6.3061523,6.301007,6.2961507,6.2900496,6.283798,6.2782764,6.271429,6.2640142,6.2576523,6.250983,6.24412,6.2384458,6.2328424,6.226465,6.2208314,6.216054,6.2105026,6.205327,6.201104,6.1960382,6.1909733,6.1870317,6.1829815,6.179229,6.176574,6.174264,6.1717997,6.1695547,6.1674404,6.164704,6.1618867,6.159542,6.1567583,6.1538706,6.151481,6.1488004,6.145771,6.143121,6.1406555,6.137882,6.135454,6.1334305,6.130986,6.128633,6.1267757,6.1247334,6.122815,6.1213818,6.1199474,6.118222,6.1164002,6.1143684,6.1115303,6.108536,6.10589,6.1026545,6.099428,6.0968122,6.0937386,6.090528,6.087965,6.0855274,6.083087,6.0811524,6.079501,6.0774965,6.0756054,6.0740805,6.0723953,6.070984,6.070057,6.06915,6.0681486,6.0671005,6.065732,6.0637856,6.0617046,6.059634,6.057014,6.0544252,6.05225,6.04945,6.046451,6.0439496,6.041176,6.0384216,6.036334,6.0343866,6.032196,6.030182,6.0283318,6.0261893,6.024303,6.022889,6.021385,6.0199375,6.0186796,6.016792,6.0141582,6.01152,6.0087814,6.0055614,6.002733,6.00045,5.997547,5.994637,5.9922724,5.989642,5.987294,5.9856944,5.984231,5.982936,5.98199,5.981149,5.980357,5.979844,5.9795384,5.9793215,5.9791484,5.978937,5.978431,5.9776063,5.9767523,5.97581,5.974748,5.973816,5.9728794,5.971656,5.970421,5.969318,5.9680834,5.96713,5.9666166,5.966286,5.966235,5.966338,5.966468,5.9667506,5.967122,5.96751,5.9680886,5.968562,5.9687595,5.9687233,5.968346,5.9678383,5.9673357,5.9666605,5.9659147,5.965053,5.9638376,5.9625983,5.9614887,5.960306,5.9594903,5.9590816,5.9589767,5.9592485,5.9596195,5.9600267,5.9605846,5.961177,5.961852,5.9628186,5.963784,5.9646072,5.9653697,5.9657173,5.9656777,5.9654946,5.9651437,5.9647617,5.9641886,5.963128,5.961828,5.960375,5.958602,5.9571166,5.9560385,5.9551654,5.95485,5.9549146,5.9553356,5.956185,5.957109,5.958393,5.960106,5.9617205,5.9632397,5.9649363,5.966404,5.967619,5.969255,5.970915,5.972195,5.9735365,5.974608,5.9752474,5.9757895,5.976285,5.976806,5.9775553,5.9789033,5.9805603,5.9821253,5.983967,5.9856977,5.987056,5.9884586,5.9898524,5.9910088,5.992113,5.993046,5.9935155,5.99366,5.993457,5.9930964,5.992915,5.9926844,5.992362,5.9919934,5.991367,5.990563,5.989889,5.98929,5.9887695,5.9883795,5.9879913,5.9872456,5.9862585,5.985324,5.984325,5.9835176,5.9830103,5.982567,5.9820576,5.9814863,5.980877,5.979493,5.9777865,5.9764833,5.9750443,5.9738197,5.972907,5.971706,5.9705553,5.969804,5.9692893,5.969269,5.9696455,5.9701967,5.9711323,5.9720783,5.972707,5.9735975,5.9744635,5.9750414,5.9760146,5.9770536,5.977519,5.9759464,5.969884,5.959775,5.944811,5.921227
6.6816297,6.673185,6.6640086,6.6549454,6.6473393,6.6384563,6.626973,6.6155105,6.6041074,6.5902777,6.577603,6.567236,6.5552373,6.544017,6.5352144,6.5250893,6.514952,6.506993,6.4987373,6.4899673,6.4824777,6.475338,6.4667006,6.4587145,6.4523106,6.444766,6.437119,6.43058,6.4226837,6.4139147,6.406468,6.3990517,6.390998,6.384114,6.378069,6.3707294,6.3637476,6.3580313,6.351263,6.344445,6.338767,6.331811,6.3244195,6.3185487,6.3127747,6.3066044,6.3013353,6.296588,6.2908487,6.285097,6.279996,6.2736225,6.266657,6.2606506,6.2544923,6.248214,6.243026,6.237924,6.2320952,6.2269106,6.2225146,6.2173257,6.212422,6.208415,6.203578,6.1987095,6.1948986,6.190957,6.187174,6.18436,6.1818714,6.179149,6.1766605,6.1743755,6.171487,6.1685724,6.1661644,6.163352,6.160493,6.1581626,6.1555853,6.1526957,6.1501684,6.1478157,6.145172,6.1428375,6.1408615,6.138385,6.135872,6.1338015,6.1314373,6.1291237,6.127347,6.125554,6.123454,6.121343,6.1190763,6.116037,6.112944,6.110265,6.107071,6.1039753,6.1015162,6.098647,6.0956817,6.0933223,6.0910687,6.088801,6.0869803,6.085396,6.0834208,6.0814857,6.079867,6.0779886,6.076291,6.0750837,6.07386,6.072541,6.0712566,6.06967,6.067555,6.065295,6.062832,6.0598335,6.0570855,6.054944,6.0522127,6.049281,6.0467997,6.0440407,6.041236,6.0390334,6.03691,6.0344877,6.0322456,6.030178,6.027678,6.0253286,6.0234556,6.0213547,6.0193224,6.017686,6.0157223,6.0134535,6.011427,6.009408,6.0069904,6.0047383,6.0027676,6.0003366,5.9979577,5.99603,5.99387,5.9918976,5.990502,5.9891424,5.987855,5.9868584,5.985943,5.984982,5.984231,5.9836807,5.9831085,5.982586,5.9821362,5.9814563,5.9805946,5.9798083,5.9790154,5.978168,5.9774466,5.976725,5.975829,5.9749537,5.9741697,5.9732947,5.9726095,5.972224,5.9719143,5.9717493,5.971688,5.9715815,5.971509,5.971502,5.971514,5.971635,5.971742,5.971716,5.9715676,5.971264,5.970919,5.9706883,5.9704075,5.970055,5.9696407,5.9690523,5.9684477,5.9678826,5.967338,5.9670525,5.9670024,5.9671845,5.967616,5.968069,5.968569,5.969186,5.9697914,5.9704676,5.9713564,5.9721966,5.9729147,5.9736843,5.973984,5.9736786,5.97324,5.9726915,5.9721985,5.9716697,5.970681,5.969363,5.967795,5.965883,5.964278,5.9630814,5.961999,5.9614115,5.9612203,5.961279,5.9617214,5.962313,5.9632387,5.964606,5.9659734,5.967286,5.9687805,5.970098,5.9712,5.9727554,5.9744263,5.975784,5.9772844,5.9786263,5.9795556,5.980434,5.9812937,5.9820952,5.98308,5.984606,5.9863105,5.9878564,5.989578,5.9910765,5.9921837,5.993249,5.9942245,5.9949913,5.995661,5.996086,5.9961033,5.995824,5.9951305,5.9943695,5.9939175,5.993419,5.992911,5.992444,5.991717,5.9908094,5.990037,5.989329,5.988615,5.987981,5.987342,5.9862223,5.984826,5.983535,5.982118,5.9809146,5.980107,5.9793363,5.9785023,5.977678,5.976827,5.9751935,5.9733043,5.971884,5.970379,5.969199,5.9684057,5.967383,5.9664125,5.965771,5.9653506,5.9652596,5.965409,5.965687,5.966151,5.9665627,5.9666996,5.9670696,5.9675612,5.967927,5.9688435,5.9701214,5.9709735,5.9698324,5.9641247,5.953987,5.938388,5.9133625
6.6525865,6.6443233,6.6352367,6.626128,6.6184273,6.6094685,6.5980077,6.5866885,6.5755005,6.5619974,6.549653,6.5395412,6.5278935,6.5170755,6.508638,6.4989614,6.489298,6.4817095,6.4738064,6.465316,6.458048,6.451253,6.443209,6.435834,6.4298296,6.4227715,6.4156704,6.409649,6.402419,6.3943896,6.387532,6.3806524,6.3731103,6.366602,6.360833,6.3538775,6.3473463,6.3420696,6.335758,6.3294325,6.3242693,6.318629,6.3121767,6.3062906,6.3005643,6.294442,6.2892556,6.2845874,6.2790685,6.273656,6.2688923,6.262989,6.2565007,6.250828,6.244935,6.2389107,6.2339582,6.2290926,6.2235537,6.218644,6.214481,6.209558,6.2049036,6.2011085,6.196539,6.1918936,6.1881866,6.1842613,6.180333,6.177271,6.174469,6.171368,6.1685724,6.166069,6.1629534,6.159856,6.1573153,6.154336,6.1513147,6.14888,6.146243,6.143342,6.140846,6.1385584,6.1359615,6.1336346,6.1316547,6.129199,6.1267266,6.1246905,6.122324,6.1199465,6.118076,6.1161366,6.1139193,6.1117964,6.109597,6.1067257,6.1038485,6.1013675,6.0983734,6.09544,6.093097,6.0903864,6.087576,6.085314,6.0831194,6.0808554,6.078985,6.07732,6.07526,6.07323,6.0714927,6.069413,6.067423,6.065909,6.0642624,6.0624905,6.0608873,6.059058,6.056723,6.0543785,6.052066,6.049212,6.046512,6.044344,6.0416713,6.0389557,6.0367723,6.034402,6.032045,6.0301814,6.0282793,6.025959,6.023693,6.0215745,6.018943,6.0163918,6.0143137,6.0119534,6.009673,6.007872,6.0057936,6.0035057,6.0015583,5.9997025,5.997522,5.99549,5.9936895,5.991481,5.989327,5.9875784,5.9856157,5.9838176,5.9825344,5.9812517,5.9799805,5.978937,5.9779296,5.9768047,5.9758554,5.97511,5.974289,5.9735312,5.972908,5.972023,5.97101,5.9701786,5.969426,5.9687138,5.968158,5.9676056,5.9669504,5.9663315,5.9657793,5.965178,5.964734,5.964514,5.964334,5.9642305,5.964164,5.963991,5.9637756,5.963601,5.963443,5.9633512,5.963277,5.96313,5.962885,5.962571,5.962285,5.9621625,5.96208,5.961949,5.9617667,5.9614697,5.961131,5.960786,5.9604774,5.9603796,5.9604583,5.9607325,5.961193,5.9616394,5.9620943,5.9626207,5.9631224,5.9636784,5.9643807,5.9650183,5.9655476,5.966067,5.966279,5.9661484,5.965978,5.965768,5.965574,5.9653435,5.9649096,5.964332,5.963608,5.9627457,5.96208,5.961651,5.961352,5.9613605,5.9615755,5.9619856,5.962631,5.963297,5.9642,5.9654408,5.9666595,5.9678297,5.969188,5.9704103,5.971428,5.9729424,5.9746003,5.975926,5.9774284,5.9788523,5.9799166,5.9809675,5.9820557,5.9830394,5.984125,5.9855947,5.987089,5.9883986,5.989811,5.991002,5.991869,5.9926834,5.9933805,5.9938946,5.994334,5.994586,5.994559,5.9943485,5.9938507,5.9933124,5.993004,5.9926553,5.992291,5.9919534,5.991403,5.9906855,5.9900484,5.989443,5.9887586,5.9880786,5.987362,5.986193,5.9848104,5.983569,5.9821777,5.9809413,5.9800596,5.979209,5.9783077,5.977455,5.9765973,5.975008,5.9731717,5.9717503,5.970196,5.9689293,5.968052,5.966983,5.9659753,5.9652705,5.964672,5.9642324,5.963937,5.96361,5.9631977,5.9627123,5.9620886,5.9613485,5.960631,5.960017,5.959322,5.9585867,5.957719,5.9550076,5.948105,5.93773,5.923126,5.90096
6.6293974,6.621066,6.61185,6.6025867,6.5947714,6.585677,6.5740604,6.5625954,6.5512486,6.537531,6.524975,6.514692,6.5028386,6.4918017,6.483163,6.4732466,6.463355,6.4556074,6.447555,6.4388523,6.431404,6.424561,6.4166384,6.4094687,6.4035826,6.396722,6.3899155,6.3842134,6.3774137,6.3698883,6.3634577,6.3569937,6.3498936,6.3437457,6.33826,6.331676,6.325535,6.3206005,6.3146434,6.3087344,6.3040266,6.2990456,6.293249,6.287817,6.282734,6.2770658,6.2720227,6.2675056,6.262225,6.257119,6.252658,6.2471714,6.2411137,6.2357473,6.2300587,6.224171,6.219324,6.214569,6.2092285,6.2045503,6.200576,6.1958947,6.1914883,6.1879025,6.1835957,6.1791754,6.1755905,6.1717234,6.167739,6.1645384,6.1615496,6.1582217,6.155246,6.152623,6.1493883,6.1461973,6.1435905,6.140521,6.1374073,6.134906,6.13223,6.129322,6.1268435,6.124596,6.122038,6.1197376,6.1177797,6.1153793,6.112985,6.111018,6.1087093,6.106347,6.1044497,6.1024475,6.10019,6.0980983,6.0959873,6.093279,6.0905895,6.08827,6.085437,6.0826273,6.080369,6.0777645,6.075059,6.072865,6.070711,6.0684557,6.0665636,6.0648594,6.062764,6.060689,6.0588784,6.0566664,6.054472,6.052739,6.050787,6.048679,6.046826,6.0447893,6.0422583,6.0398397,6.037663,6.034945,6.0322895,6.030079,6.027414,6.02479,6.022745,6.0205593,6.018433,6.0167704,6.0150566,6.012912,6.0107565,6.008706,6.0061226,6.0035887,6.0015144,5.999158,5.9969263,5.995218,5.993284,5.9912405,5.9895062,5.9876595,5.985494,5.9835463,5.98186,5.979794,5.9777775,5.976141,5.974311,5.9726458,5.971468,5.970274,5.9690504,5.967994,5.9669266,5.965683,5.964588,5.9637003,5.9627056,5.9617844,5.9610376,5.9600067,5.9588585,5.957938,5.957117,5.956386,5.955864,5.955365,5.9548106,5.954318,5.9538813,5.953417,5.953105,5.9529896,5.952904,5.952853,5.9527874,5.9525604,5.9522324,5.9519253,5.9516277,5.9513626,5.9511294,5.950864,5.950467,5.950019,5.9496536,5.949497,5.9494467,5.949378,5.949256,5.9490366,5.9487677,5.9484763,5.9482164,5.9481497,5.9482546,5.948537,5.948971,5.949374,5.9497566,5.950182,5.9505887,5.951037,5.9515886,5.952075,5.9524775,5.952813,5.952982,5.953041,5.953134,5.953253,5.9533567,5.953409,5.953427,5.9534225,5.953372,5.95335,5.953439,5.953642,5.9540057,5.9545364,5.9551196,5.955854,5.9566946,5.9574356,5.958329,5.9594674,5.9605556,5.961591,5.962803,5.9639044,5.964814,5.9662457,5.9678435,5.969102,5.970543,5.9719534,5.9730473,5.9741497,5.9753137,5.9763513,5.9774446,5.9788036,5.9800873,5.981177,5.982312,5.983227,5.9838743,5.9844522,5.984889,5.9851694,5.9853997,5.9854927,5.9854174,5.985245,5.9848814,5.984503,5.9843035,5.984067,5.983807,5.9835596,5.9831276,5.9825325,5.9819813,5.981443,5.98078,5.980071,5.979306,5.978115,5.9767523,5.975549,5.974179,5.9729137,5.971968,5.9710445,5.9700747,5.9691787,5.9682946,5.966709,5.9648795,5.9634275,5.96179,5.9604073,5.95942,5.958252,5.9571447,5.956333,5.955555,5.9548135,5.954155,5.9533625,5.95225,5.9510117,5.9497223,5.9480095,5.946232,5.94475,5.9427567,5.940504,5.9383955,5.934623,5.926967,5.9164944,5.9026737,5.8825703
6.606283,6.597828,6.5883636,6.5787735,6.5706987,6.561364,6.5495653,6.5380163,6.5266314,6.5128937,6.500329,6.49004,6.478154,6.4670677,6.458387,6.4484253,6.438491,6.430712,6.4226294,6.4138784,6.40635,6.399381,6.3912706,6.3839426,6.37798,6.3710995,6.3643675,6.358782,6.352173,6.3449135,6.33874,6.332575,6.3258505,6.320068,6.314948,6.30879,6.3030176,6.298357,6.292755,6.2872033,6.2827473,6.2773685,6.2716293,6.267032,6.262814,6.2576895,6.2527447,6.2484026,6.2433434,6.2384663,6.234206,6.228962,6.2231493,6.2179756,6.2124605,6.206703,6.2019367,6.197273,6.192091,6.1876016,6.1837926,6.1793284,6.175143,6.1717367,6.167631,6.1633925,6.159935,6.156188,6.1523,6.149157,6.1462145,6.1429286,6.139988,6.1374025,6.1342287,6.13111,6.128566,6.1255846,6.122569,6.120145,6.1175566,6.114746,6.1123486,6.1101685,6.107711,6.105519,6.1036515,6.101337,6.0989895,6.0970335,6.09472,6.092321,6.0903726,6.088313,6.085998,6.083868,6.081732,6.0790195,6.076348,6.074048,6.071265,6.06853,6.0663424,6.063822,6.0612164,6.0591154,6.0570536,6.054908,6.053117,6.0515013,6.049496,6.0474734,6.0456753,6.043441,6.041179,6.0393667,6.037322,6.0351043,6.0331526,6.031005,6.028376,6.0258904,6.0236244,6.0208435,6.018166,6.015952,6.0132794,6.0106044,6.0084686,6.006171,6.0039215,6.0021873,6.000494,5.9984646,5.996455,5.9945126,5.9920397,5.9896116,5.9876394,5.985413,5.9833527,5.9818316,5.9801865,5.9785805,5.9772387,5.9755335,5.9735246,5.971738,5.970147,5.968203,5.9663186,5.9647975,5.963108,5.9615884,5.960526,5.9594364,5.958293,5.957271,5.9562006,5.954909,5.9537306,5.952751,5.9516335,5.95059,5.949754,5.948657,5.9474545,5.9464808,5.945569,5.944749,5.9441786,5.943652,5.943099,5.9426317,5.9422193,5.941778,5.9414897,5.9414005,5.9413247,5.941251,5.9411364,5.940819,5.940343,5.93987,5.939397,5.938911,5.938473,5.938042,5.937436,5.936777,5.9362483,5.935973,5.935849,5.93574,5.9355755,5.935323,5.9350395,5.9347415,5.934474,5.9344044,5.9345117,5.93479,5.9352074,5.935582,5.935925,5.9362993,5.936655,5.9370456,5.937513,5.937921,5.938271,5.9385767,5.9387374,5.9387827,5.938879,5.93905,5.9392385,5.9394045,5.939521,5.939562,5.9395556,5.9395895,5.939743,5.9400167,5.9404564,5.941045,5.9416647,5.9423947,5.943174,5.9438314,5.944602,5.945586,5.946535,5.9474235,5.9484596,5.949404,5.950183,5.9514823,5.9529886,5.9541984,5.9555893,5.9569645,5.958043,5.95913,5.9602656,5.961267,5.9623365,5.963651,5.9648743,5.965904,5.9669414,5.96772,5.968228,5.968622,5.968835,5.9689174,5.9689503,5.968838,5.9685974,5.9682817,5.9677577,5.9672623,5.967003,5.966713,5.9664226,5.9661646,5.9657145,5.9650946,5.9645185,5.9639606,5.9632626,5.9625053,5.961692,5.9604154,5.9589386,5.9576187,5.9561033,5.954685,5.95361,5.952537,5.9514027,5.9503727,5.949362,5.9476366,5.9456906,5.944149,5.9424195,5.9409733,5.9399567,5.9387536,5.9376044,5.936751,5.935956,5.935163,5.934416,5.933555,5.9322624,5.93075,5.929171,5.9270897,5.924974,5.9232435,5.921141,5.9190187,5.9171686,5.9138002,5.9065714,5.8962793,5.8823385,5.8616176
6.57598,6.567357,6.5575795,6.54759,6.539197,6.5296044,6.5176744,6.506143,6.4948387,6.4812636,6.468871,6.458707,6.4469557,6.43598,6.427377,6.417507,6.4076595,6.399944,6.391926,6.3832245,6.375723,6.3687706,6.360694,6.3534403,6.3475833,6.3408985,6.3344545,6.3291626,6.3229475,6.316157,6.3103924,6.3046565,6.2984114,6.2930465,6.2883058,6.2826033,6.277267,6.272977,6.2677937,6.2625723,6.2583017,6.2530255,6.2478447,6.244088,6.2401247,6.2350836,6.2301774,6.225885,6.2208834,6.2160726,6.211888,6.2067385,6.201015,6.1959057,6.190475,6.1848574,6.1802425,6.1757193,6.170635,6.166212,6.1625156,6.1582212,6.154207,6.1509304,6.146967,6.142846,6.1394567,6.1357584,6.131879,6.1287103,6.125731,6.1223946,6.119419,6.1168175,6.113652,6.11057,6.1080675,6.105154,6.102227,6.099888,6.0974035,6.0947275,6.0924625,6.0904155,6.08812,6.086071,6.0843153,6.082117,6.0798526,6.077938,6.07565,6.073248,6.0712786,6.0691967,6.0668745,6.0647683,6.0626764,6.0600576,6.0575104,6.0553274,6.052708,6.0501547,6.048119,6.045786,6.043379,6.0414367,6.039526,6.037527,6.035842,6.0343027,6.0323563,6.0303445,6.0285225,6.026214,6.0238204,6.0218678,6.0196505,6.0172424,6.0151377,6.0128536,6.010105,6.007548,6.0052404,6.002445,5.999769,5.9975357,5.9948664,5.9922233,5.990129,5.987891,5.985729,5.984081,5.9824677,5.9805245,5.978566,5.9766293,5.974102,5.971634,5.9697027,5.9675746,5.9655886,5.9640617,5.962402,5.960766,5.9594946,5.958223,5.9568667,5.9555492,5.954025,5.9521675,5.9503946,5.9489727,5.9474077,5.946023,5.945072,5.944092,5.9430356,5.942051,5.940979,5.939637,5.938368,5.93729,5.936034,5.934849,5.9339037,5.932696,5.9314213,5.9304237,5.9295034,5.9286995,5.928158,5.9276505,5.9271154,5.9266624,5.926266,5.9258385,5.92556,5.925481,5.925392,5.925272,5.92509,5.924661,5.9240055,5.923331,5.9226494,5.9218955,5.921196,5.9205446,5.919681,5.918783,5.9180756,5.917595,5.917306,5.917113,5.9168615,5.9165373,5.9162154,5.9158983,5.9156256,5.915573,5.915714,5.916032,5.9164844,5.916882,5.917226,5.9175587,5.917844,5.9181514,5.9185143,5.9188333,5.919118,5.9193697,5.9195256,5.919606,5.919773,5.920071,5.920409,5.9207664,5.9211483,5.921463,5.9217424,5.922137,5.922636,5.9232197,5.9240093,5.924895,5.925728,5.926642,5.92752,5.928198,5.9289293,5.929811,5.93064,5.931387,5.9322376,5.933001,5.9336233,5.9347453,5.9360995,5.9372005,5.938471,5.9397426,5.9407563,5.9417777,5.94285,5.943801,5.9448233,5.946068,5.947212,5.9481754,5.949122,5.949794,5.950201,5.9504743,5.9505553,5.950533,5.9504805,5.950303,5.950034,5.94973,5.949248,5.948821,5.948646,5.948472,5.948312,5.948169,5.9478583,5.947382,5.9469175,5.9464817,5.9458976,5.945217,5.944469,5.9432483,5.9417953,5.9404755,5.9389334,5.937454,5.9363103,5.935146,5.9339037,5.932784,5.931694,5.9298863,5.9278708,5.9262676,5.924466,5.9229536,5.921887,5.9206243,5.919421,5.9185305,5.917718,5.9168973,5.9161053,5.9152117,5.91378,5.912035,5.9102154,5.9077625,5.905259,5.903242,5.90087,5.898554,5.896607,5.8932867,5.8862033,5.8760595,5.8622875,5.8417273
6.5388,6.529852,6.5195894,6.5090504,6.500248,6.490332,6.478245,6.466745,6.4555545,6.442189,6.430027,6.4200544,6.408525,6.3977547,6.38931,6.379618,6.369935,6.3623333,6.3544197,6.345807,6.338363,6.331456,6.3234587,6.3163385,6.3106456,6.3042374,6.298168,6.2932453,6.2875123,6.281274,6.2759705,6.2707014,6.2649617,6.260027,6.255681,6.2503633,6.2453203,6.241253,6.236479,6.2321134,6.2289534,6.2248588,6.22076,6.217559,6.213269,6.207991,6.2032204,6.198968,6.194155,6.1896286,6.1856766,6.180809,6.1753573,6.1704483,6.1652126,6.1597695,6.1552844,6.150897,6.1459618,6.141666,6.1380863,6.1339273,6.13004,6.1268673,6.1230135,6.118975,6.1156263,6.111947,6.1080503,6.104843,6.1018257,6.0984535,6.095467,6.0928774,6.0897555,6.0867395,6.0842996,6.081463,6.078622,6.076355,6.0739574,6.071394,6.0692444,6.067319,6.065169,6.0632486,6.061593,6.0594897,6.057283,6.05539,6.0530825,6.050622,6.0485992,6.0464687,6.044118,6.042015,6.0399475,6.0373864,6.0349145,6.0327983,6.030269,6.0278187,6.025878,6.023667,6.0213976,6.019568,6.017765,6.0158634,6.0142355,6.012719,6.010804,6.008793,6.006922,6.004513,6.0019655,5.999855,5.997459,5.994872,5.992641,5.990251,5.987423,5.9848304,5.982504,5.9796824,5.9771047,5.9751515,5.9727955,5.970457,5.968606,5.9666386,5.9647646,5.963356,5.9619803,5.960325,5.958643,5.9569597,5.954727,5.9524775,5.950651,5.948576,5.9465933,5.9450617,5.9434013,5.9417806,5.9405794,5.9395447,5.938509,5.9374967,5.9362946,5.9346476,5.932973,5.931663,5.9302344,5.928995,5.9281588,5.927285,5.9263144,5.9253693,5.9243,5.9229107,5.9215527,5.920373,5.9189806,5.9176636,5.9166245,5.9153304,5.914012,5.9130116,5.9120936,5.9113364,5.9108667,5.9104204,5.9099293,5.9094944,5.909116,5.9086976,5.908414,5.9083195,5.9081864,5.9079895,5.9077215,5.907178,5.906349,5.905487,5.9046144,5.903614,5.9026785,5.9018383,5.900779,5.899737,5.8989477,5.8983326,5.8978977,5.8975935,5.897232,5.896803,5.8964133,5.8960505,5.8957376,5.895666,5.8958054,5.896118,5.896558,5.8969364,5.897237,5.8974814,5.897662,5.8978467,5.898059,5.898254,5.8984504,5.8986344,5.8987837,5.898908,5.8991604,5.8996024,5.900098,5.900644,5.9012775,5.9018497,5.9023976,5.9031305,5.9039598,5.9048443,5.905983,5.9071736,5.9082303,5.909329,5.910298,5.9109893,5.911661,5.9124146,5.913102,5.9136877,5.9143357,5.914917,5.9153914,5.9163494,5.9175653,5.918569,5.9197283,5.9209023,5.921852,5.9228106,5.9238234,5.924727,5.9257107,5.9268904,5.9279575,5.928853,5.9296846,5.9302115,5.9304876,5.930594,5.9305015,5.9303493,5.930194,5.9299507,5.9296765,5.929421,5.9290304,5.928718,5.9286566,5.9286184,5.928591,5.9285545,5.9283657,5.9280224,5.9276724,5.9273586,5.926909,5.926339,5.925684,5.924555,5.923157,5.9218597,5.9202995,5.9187565,5.9175396,5.916279,5.9149456,5.9137726,5.912655,5.9108443,5.9088383,5.907234,5.9054184,5.9038744,5.902766,5.9014473,5.9001856,5.8992543,5.898431,5.8976245,5.8968487,5.8959846,5.8944826,5.892555,5.890527,5.887705,5.884779,5.8824263,5.879732,5.8771777,5.8751025,5.8718624,5.8650346,5.855178,5.8417397,5.8215227
6.501912,6.492509,6.4816694,6.4705653,6.461385,6.451186,6.438996,6.4275713,6.4165297,6.4034023,6.3914976,6.3817563,6.3705053,6.3600063,6.351779,6.3423266,6.332859,6.3254013,6.3176174,6.309112,6.3017397,6.294893,6.286998,6.2800303,6.274514,6.2683887,6.2626867,6.25811,6.252817,6.247058,6.242136,6.2372365,6.2318788,6.2272487,6.2231026,6.2182937,6.2139387,6.210431,6.2064085,6.2030315,6.2008877,6.198002,6.1945324,6.191146,6.1865263,6.181162,6.176613,6.1724772,6.167884,6.1636295,6.159911,6.1553273,6.150153,6.1454525,6.1404057,6.1350994,6.1306973,6.1264133,6.1216354,6.1175027,6.1140475,6.1100197,6.106252,6.1031823,6.0994363,6.095483,6.0921807,6.0885344,6.084646,6.0814342,6.078417,6.0750623,6.072116,6.0695825,6.0665483,6.063631,6.0612736,6.0585184,6.055746,6.053529,6.051189,6.048704,6.046638,6.0448065,6.042774,6.0409584,6.039384,6.0373545,6.035186,6.033304,6.0310507,6.028633,6.026611,6.0244637,6.0220895,6.0199866,6.017956,6.0155,6.013178,6.0112066,6.0088577,6.0065756,6.0047507,6.002657,6.00049,5.998732,5.9969897,5.995145,5.993557,5.99206,5.9901752,5.9881835,5.9863043,5.9838667,5.9812565,5.9790726,5.976586,5.9739184,5.971649,5.9692583,5.966501,5.964031,5.961837,5.9591837,5.956827,5.955146,5.9530935,5.951045,5.949422,5.9477067,5.946093,5.9448986,5.943737,5.942349,5.940938,5.939516,5.937616,5.93561,5.9338646,5.9317904,5.9297676,5.9282303,5.9265823,5.9250007,5.9238396,5.922803,5.921735,5.9207478,5.9197335,5.9182024,5.9165716,5.91532,5.9139643,5.9128036,5.9120317,5.911216,5.9102955,5.909376,5.9083147,5.9069023,5.905492,5.904247,5.902769,5.901373,5.90028,5.8989573,5.897648,5.8966765,5.8957815,5.8950567,5.8946123,5.894174,5.8936625,5.8931866,5.8927746,5.8923283,5.892012,5.8918753,5.891674,5.891386,5.891031,5.8903856,5.8894176,5.8884077,5.8873863,5.886196,5.8850875,5.884118,5.8829417,5.881834,5.8810205,5.8803406,5.879799,5.8793855,5.8789134,5.8783693,5.8778915,5.8774624,5.8770776,5.8769445,5.8770366,5.8772883,5.8776565,5.8779664,5.878174,5.878291,5.878341,5.878372,5.878406,5.878458,5.8785477,5.878643,5.8787675,5.878916,5.8792233,5.8797593,5.880353,5.881008,5.881777,5.8824806,5.883169,5.884083,5.8850965,5.886156,5.8875103,5.8888955,5.8900948,5.8913035,5.892311,5.8929873,5.893588,5.8942175,5.894779,5.895234,5.895737,5.896205,5.896599,5.897477,5.898635,5.899602,5.900717,5.9018517,5.902776,5.9037104,5.904701,5.905587,5.906558,5.9077053,5.9087257,5.9095793,5.9103527,5.910799,5.91099,5.910986,5.9107857,5.910568,5.9103727,5.910138,5.9099274,5.9097757,5.9095397,5.909384,5.909451,5.909551,5.9096365,5.909672,5.9095592,5.909297,5.909021,5.9087934,5.908456,5.9079914,5.907424,5.9063787,5.905025,5.903738,5.902131,5.9004874,5.89917,5.8977885,5.896348,5.895122,5.8939877,5.892206,5.8902617,5.888729,5.8869753,5.8854485,5.884321,5.882964,5.881653,5.8806877,5.879864,5.879118,5.878438,5.877691,5.8762627,5.8743153,5.872223,5.8692303,5.8660707,5.863512,5.8606863,5.8581257,5.8561316,5.8531466,5.8467083,5.8371935,5.8240623,5.8040233
6.470848,6.460992,6.4496346,6.4380827,6.4286404,6.418273,6.4060707,6.3947697,6.3838987,6.3710184,6.3593683,6.3498526,6.338874,6.328642,6.320631,6.311413,6.3021526,6.2948327,6.2871723,6.2787676,6.2714615,6.2646737,6.256873,6.2500362,6.244662,6.2387652,6.2333527,6.229042,6.224075,6.2186527,6.2139883,6.2093296,6.2042084,6.199747,6.1955767,6.1915245,6.1884947,6.1861224,6.1832795,6.1804833,6.178236,6.1754503,6.1715765,6.1674995,6.1631355,6.158167,6.1538305,6.149904,6.1454077,6.141163,6.137494,6.1329794,6.127878,6.1232314,6.1182384,6.112996,6.1086597,6.104452,6.0997868,6.09578,6.0924544,6.088594,6.0849876,6.0820427,6.0784383,6.0746083,6.0713887,6.0678186,6.0639915,6.0608234,6.057847,6.054551,6.051673,6.0492134,6.046282,6.0434713,6.0412006,6.0385265,6.035818,6.0336456,6.031358,6.0289454,6.0269613,6.025217,6.0232983,6.0215855,6.020094,6.018144,6.0160284,6.0141735,6.012112,6.009916,6.007994,6.0059004,6.00354,6.001462,5.999511,5.997265,5.995245,5.9935713,5.9916067,5.9896684,5.988062,5.986166,5.984144,5.982473,5.9807944,5.9790235,5.9775124,5.9760966,5.9742727,5.97233,5.9705167,5.968155,5.965606,5.9634542,5.9609785,5.9583178,5.9560785,5.9537706,5.951213,5.949012,5.947096,5.944854,5.9427576,5.9410124,5.938916,5.936848,5.935226,5.933527,5.9319415,5.9307747,5.929636,5.9282713,5.9268713,5.9254446,5.923525,5.9214945,5.919735,5.91765,5.9156103,5.914051,5.912384,5.910781,5.9095984,5.90854,5.907462,5.906402,5.905143,5.903489,5.9018574,5.9005914,5.899224,5.8980603,5.897293,5.896491,5.895586,5.894678,5.893627,5.892215,5.890789,5.8895216,5.88801,5.88658,5.88546,5.88414,5.8828697,5.8819447,5.881094,5.8803587,5.8798428,5.8793116,5.878678,5.878088,5.8775773,5.877057,5.87669,5.8765,5.876234,5.875866,5.875435,5.8747015,5.873615,5.872479,5.8713255,5.869973,5.86872,5.8676443,5.8663607,5.865162,5.864276,5.863512,5.862874,5.8623743,5.861807,5.8611584,5.8605986,5.8601036,5.8596435,5.859441,5.859473,5.8596525,5.8599377,5.8601713,5.860284,5.860276,5.860198,5.86008,5.859948,5.859868,5.8598514,5.85985,5.859926,5.8600683,5.860384,5.860945,5.8615646,5.8622513,5.8630524,5.863784,5.8645043,5.8654675,5.8665404,5.8676615,5.869104,5.870574,5.871829,5.8730803,5.87409,5.874736,5.8752766,5.8758144,5.8762894,5.8766685,5.8771024,5.877531,5.8779044,5.8787756,5.879941,5.8809223,5.882051,5.883198,5.8841314,5.885077,5.886079,5.8869724,5.887949,5.889088,5.890094,5.8909407,5.8917446,5.89223,5.892428,5.892425,5.8922434,5.892068,5.891934,5.8918056,5.8917227,5.891713,5.8916655,5.891684,5.891881,5.8921194,5.892309,5.892403,5.892349,5.892134,5.891899,5.891732,5.8914785,5.8910913,5.8905888,5.889594,5.8882494,5.886941,5.885253,5.883477,5.8820324,5.8805046,5.8789234,5.8776093,5.876413,5.874611,5.8727036,5.8712626,5.8695946,5.868102,5.866971,5.865586,5.8642387,5.8632526,5.862434,5.861765,5.8612127,5.8606277,5.859375,5.8575487,5.8555317,5.8525915,5.849449,5.846882,5.844194,5.841941,5.840288,5.8377175,5.831706,5.8224545,5.809432,5.789215
6.440696,6.430622,6.4190054,6.407252,6.397732,6.3873734,6.3753233,6.364258,6.3536477,6.3410964,6.329751,6.320486,6.309805,6.2998505,6.2920523,6.2830577,6.2739897,6.266792,6.2592335,6.2508965,6.2436256,6.236871,6.2291336,6.2223983,6.217142,6.2114434,6.2062874,6.2022157,6.197541,6.192418,6.187974,6.1835155,6.1785107,6.174307,6.171029,6.1677594,6.165143,6.1630564,6.160532,6.1579638,6.155819,6.1531787,6.1498995,6.146614,6.142455,6.1374536,6.133025,6.1290693,6.124607,6.1204476,6.1168585,6.1124496,6.107459,6.1028967,6.097988,6.092828,6.088563,6.084437,6.079884,6.0759974,6.072787,6.069068,6.0655937,6.0627527,6.0592546,6.0555115,6.052346,6.0488205,6.0450244,6.0418715,6.0389137,6.0356503,6.032822,6.0304184,6.0275726,6.024852,6.02264,6.020191,6.0178556,6.0160336,6.0140452,6.011897,6.0100937,6.0084863,6.006706,6.0051208,6.0037475,6.0019617,6.00004,5.9983673,5.996396,5.9942255,5.992324,5.9902353,5.9878798,5.9858193,5.983905,5.981741,5.9798284,5.9782553,5.9764137,5.9745884,5.973057,5.971235,5.9692764,5.9676485,5.9660044,5.9642625,5.9627705,5.961365,5.9595404,5.957583,5.955757,5.953374,5.9507923,5.9486074,5.946092,5.943405,5.9411674,5.9388876,5.9363995,5.934288,5.9324636,5.9303446,5.9283333,5.9265995,5.9245195,5.922472,5.920871,5.9191933,5.917635,5.916492,5.915373,5.914029,5.9126453,5.911229,5.909316,5.907281,5.905511,5.903404,5.9013433,5.899774,5.8981028,5.89651,5.895363,5.894399,5.893423,5.8925056,5.891506,5.890216,5.888928,5.887895,5.886754,5.885767,5.8851156,5.884454,5.8836293,5.882716,5.881645,5.8801823,5.8786902,5.877354,5.8757644,5.8742757,5.873127,5.871791,5.870534,5.8696384,5.868818,5.868101,5.8675833,5.867043,5.8663864,5.8657637,5.865225,5.864632,5.864173,5.8639164,5.863577,5.863126,5.862614,5.8617864,5.860569,5.859294,5.857997,5.856476,5.855081,5.8539,5.8525057,5.8512216,5.850285,5.849461,5.8487587,5.848203,5.847581,5.8468714,5.846261,5.845728,5.845229,5.8449917,5.8449945,5.8451533,5.8454213,5.8456335,5.8457136,5.8456445,5.845484,5.845251,5.8449755,5.8447666,5.844636,5.844516,5.8445115,5.844614,5.844903,5.845459,5.8460855,5.846781,5.847601,5.8483543,5.849101,5.850114,5.8512526,5.852441,5.8539863,5.855562,5.8568916,5.8582077,5.859247,5.8598866,5.8603897,5.8608627,5.861279,5.8616095,5.8620024,5.8624187,5.8628006,5.8637,5.864915,5.8659506,5.8671427,5.8683558,5.869342,5.870345,5.8714104,5.872357,5.873379,5.874565,5.8756,5.87646,5.877222,5.8776197,5.877736,5.8776193,5.87732,5.8770638,5.876869,5.876719,5.876662,5.8767176,5.876778,5.8769073,5.877185,5.8775015,5.8777413,5.8778563,5.877818,5.8776217,5.8774104,5.8772826,5.8770933,5.876771,5.876321,5.875372,5.8740463,5.872736,5.8710012,5.8691397,5.867614,5.866005,5.864373,5.863056,5.861907,5.860179,5.858323,5.8568935,5.8552175,5.853687,5.8525,5.851034,5.8496237,5.8486185,5.84781,5.847212,5.846762,5.846296,5.845136,5.84332,5.841259,5.8381643,5.8347836,5.8319864,5.829052,5.82658,5.8247824,5.8221292,5.8160944,5.806848,5.793852,5.7735767
6.4169254,6.4070215,6.3956013,6.384081,6.374794,6.3647327,6.353079,6.342396,6.3321486,6.3200016,6.308993,6.299986,6.2895913,6.2798853,6.2722654,6.2634435,6.2544975,6.2473545,6.239813,6.2314367,6.224099,6.217284,6.2094965,6.2027535,6.197521,6.1918983,6.1868706,6.182926,6.1784115,6.1734467,6.1691074,6.16473,6.1597795,6.1556273,6.1525145,6.1490345,6.146103,6.144067,6.1415987,6.139127,6.137105,6.134549,6.1317434,6.1292257,6.1257157,6.121421,6.117541,6.113964,6.1096377,6.1054316,6.1018686,6.097509,6.092576,6.0880594,6.0832186,6.0781403,6.073946,6.069891,6.0654297,6.061636,6.058513,6.0548973,6.0515137,6.0487385,6.0453024,6.041598,6.0384474,6.03493,6.031128,6.027962,6.024996,6.0217338,6.018924,6.01655,6.0137625,6.011112,6.008955,6.0065794,6.0043116,6.002534,6.0005727,5.9984426,5.996652,5.995055,5.993287,5.991714,5.9903383,5.9886265,5.9868493,5.985319,5.9833922,5.981217,5.9793215,5.9772406,5.9748955,5.9728513,5.970962,5.968839,5.966971,5.965436,5.9636364,5.961843,5.960327,5.958515,5.956559,5.954925,5.953263,5.9514885,5.9499598,5.9485197,5.946654,5.9446564,5.942794,5.940365,5.9377346,5.9355087,5.9329495,5.9302335,5.927991,5.925722,5.9232645,5.921191,5.9193983,5.9173107,5.915329,5.9136295,5.9115787,5.909545,5.907949,5.906271,5.904706,5.903554,5.9024196,5.901061,5.8996687,5.898246,5.8963203,5.894269,5.892479,5.8903446,5.888261,5.8866835,5.8850203,5.883466,5.8823786,5.8814898,5.8805933,5.879811,5.87908,5.8781,5.877071,5.876216,5.875245,5.8743916,5.87383,5.8732624,5.872549,5.871746,5.8707914,5.869465,5.868083,5.8668203,5.8652897,5.8638406,5.862723,5.861458,5.8603306,5.8595824,5.858936,5.8584213,5.8580775,5.857688,5.857178,5.856661,5.856204,5.855645,5.8551664,5.854881,5.8545065,5.8540297,5.853518,5.852713,5.851536,5.850299,5.8490314,5.847519,5.8461237,5.8449535,5.8436213,5.8424225,5.8415465,5.840792,5.8401604,5.8396616,5.8390927,5.8384295,5.837844,5.837331,5.836841,5.8366003,5.8365965,5.8367553,5.8370247,5.8372335,5.837305,5.8372054,5.836995,5.8366876,5.836314,5.8360224,5.835822,5.8356347,5.8355927,5.835685,5.8359776,5.8365526,5.8372,5.83791,5.8387394,5.8394985,5.840247,5.8412633,5.842412,5.8436165,5.845195,5.846805,5.848155,5.849478,5.8504996,5.8511047,5.85155,5.851955,5.8523226,5.85262,5.8529987,5.853429,5.853844,5.854801,5.8560905,5.857192,5.8584604,5.8597407,5.86077,5.861812,5.8628974,5.8638425,5.864854,5.8660097,5.866993,5.867795,5.868433,5.8686643,5.868638,5.8683386,5.867846,5.8674455,5.867124,5.8668776,5.866787,5.8668528,5.866954,5.867125,5.867427,5.867746,5.867957,5.8680305,5.867939,5.867691,5.8674536,5.867311,5.867135,5.866843,5.866415,5.865486,5.8641653,5.862851,5.8610787,5.8591566,5.857578,5.855933,5.854315,5.853058,5.8520145,5.8504286,5.8486843,5.847315,5.8456807,5.8441496,5.8429284,5.841401,5.8399115,5.8388395,5.8379555,5.83728,5.8367653,5.8362255,5.834937,5.8329506,5.8307133,5.827331,5.823592,5.8204613,5.8170805,5.81411,5.811895,5.8088274,5.802411,5.792908,5.779745,5.759304
6.4012995,6.391816,6.380892,6.369877,6.361,6.351377,6.340209,6.329941,6.320058,6.3082924,6.2975817,6.2887926,6.2786226,6.2690945,6.261594,6.252877,6.2439804,6.2368298,6.229239,6.220756,6.213295,6.2063646,6.198453,6.191622,6.1863346,6.1806793,6.1756506,6.17172,6.1672297,6.162286,6.1579504,6.1535563,6.148649,6.144346,6.1404448,6.1360173,6.1325364,6.1304827,6.1279583,6.1253943,6.123268,6.120681,6.117733,6.1151342,6.112399,6.1093044,6.106425,6.1035523,6.099588,6.095437,6.0919967,6.0877905,6.0830197,6.078632,6.07389,6.068886,6.064741,6.0607347,6.0563326,6.052595,6.0495224,6.0459642,6.0426254,6.0398755,6.036461,6.0327597,6.029598,6.026065,6.022236,6.019041,6.016051,6.012767,6.0099487,6.0075803,6.00482,6.0022154,6.0001106,5.9976177,5.995051,5.9929485,5.9907017,5.9883204,5.9863663,5.9846597,5.982789,5.981119,5.9796343,5.977843,5.976016,5.9744368,5.972478,5.9702835,5.9683776,5.9662914,5.963953,5.9619265,5.96006,5.9579716,5.9561357,5.9546213,5.9528418,5.9510555,5.9495354,5.94771,5.9457264,5.94406,5.942355,5.9405203,5.9389324,5.937442,5.9355145,5.9334583,5.931547,5.929057,5.9263735,5.9241104,5.9215193,5.918793,5.916563,5.914319,5.911901,5.9098644,5.9080977,5.9060326,5.9040623,5.9023685,5.900311,5.89826,5.8966455,5.894943,5.893344,5.892158,5.890993,5.8896074,5.888199,5.8867645,5.884823,5.8827534,5.8809447,5.878787,5.876679,5.875087,5.873425,5.871906,5.870859,5.8699656,5.869071,5.8683004,5.8675747,5.8665843,5.8655357,5.864666,5.8636823,5.862822,5.8622627,5.86168,5.8610487,5.860423,5.8596725,5.858609,5.8574586,5.8563704,5.8549967,5.853649,5.8525915,5.851438,5.850485,5.849924,5.8495016,5.849253,5.8491354,5.8489456,5.8486366,5.8482733,5.847934,5.847483,5.847062,5.846793,5.846428,5.8459835,5.8455343,5.844844,5.8438387,5.8427734,5.8416653,5.8402987,5.8390083,5.8379297,5.8367696,5.835771,5.835045,5.8344765,5.834052,5.833726,5.8333254,5.8328247,5.8323555,5.83193,5.8315043,5.831289,5.831294,5.8314524,5.8317184,5.831932,5.83202,5.8319364,5.8317323,5.831418,5.831023,5.8307037,5.8304815,5.830287,5.8302655,5.8303957,5.83075,5.831395,5.8320975,5.8328533,5.833706,5.834461,5.8352013,5.8361783,5.837269,5.83842,5.839932,5.841477,5.842774,5.844041,5.84501,5.845573,5.8459725,5.8463287,5.8466606,5.846934,5.847315,5.84778,5.8482494,5.849291,5.8506765,5.851859,5.853211,5.854555,5.8556175,5.8566856,5.857766,5.858675,5.859639,5.8607116,5.861598,5.862317,5.862841,5.862941,5.8627906,5.862343,5.8616967,5.861179,5.8607473,5.8604107,5.8602743,5.860325,5.8604217,5.8605876,5.860871,5.8611445,5.8612804,5.8612795,5.8610973,5.860762,5.860463,5.8602686,5.8600636,5.859767,5.859334,5.8583946,5.8570585,5.8557277,5.853916,5.851941,5.8503213,5.848653,5.8470535,5.84585,5.844884,5.843418,5.841798,5.840543,5.839019,5.8375463,5.836338,5.834801,5.833249,5.8320827,5.8310604,5.8301916,5.829481,5.8287225,5.827162,5.824928,5.8224916,5.8188624,5.814859,5.8114815,5.80775,5.804365,5.8017917,5.7983274,5.7915125,5.781726,5.768361,5.747752
