14.549429,14.54597,14.542748,14.540376,14.539604,14.540508,14.542538,14.54508,14.547802,14.550766,14.553759,14.556709,14.559505,14.561878,14.563621,14.564659,14.56497,14.564552,14.563528,14.562313,14.56139,14.560978,14.560905,14.561094,14.561442,14.561768,14.562218,14.562927,14.563889,14.56494,14.56608,14.567128,14.567907,14.568238,14.568016,14.567211,14.565882,14.564125,14.56205,14.559629,14.557141,14.554903,14.553101,14.551761,14.550775,14.549968,14.549282,14.548517,14.547844,14.54744,14.5473585,14.547642,14.547878,14.548077,14.548056,14.547422,14.545987,14.543948,14.541786,14.539898,14.538839,14.538681,14.539339,14.540485,14.541708,14.54274,14.543523,14.544161,14.544658,14.5450735,14.545343,14.5455475,14.545908,14.546507,14.547411,14.5487385,14.550395,14.552155,14.553774,14.555162,14.5564375,14.557835,14.559697,14.562222,14.5652895,14.568511,14.571513,14.574036,14.575902,14.57748,14.578879,14.58032,14.5821,14.58448,14.587439,14.590743,14.594451,14.598605,14.603195,14.608074,14.613129,14.618238,14.623064,14.627546,14.632032,14.636429,14.640824,14.6454315,14.650351,14.655363,14.660366,14.665411,14.670457,14.675407,14.680241,14.68523,14.690716,14.696475,14.702907,14.709959,14.717045,14.723537,14.729101,14.733826,14.73802,14.742424,14.747406,14.753307,14.760121,14.767573,14.775415,14.783442,14.79187,14.801029,14.810877,14.821528,14.832975,14.844782,14.856058,14.865483,14.871243,14.870535,14.861023,14.842606,14.816851,14.785967,14.752854,14.715587,14.67622,14.638446,14.605317,14.578947,14.5602255,14.548048,14.540796,14.537304,14.53652,14.537097,14.537958,14.538782,14.539959,14.541937,14.54471,14.548153,14.551565,14.554195,14.555483,14.555131,14.553627,14.550979,14.546837,14.540379,14.530514,14.517168,14.501989,14.486747,14.472353,14.460617,14.451191,14.442661,14.433308,14.422266,14.411102,14.399245,14.38678,14.373758,14.360354,14.346579,14.33228,14.31773,14.301239,14.28387,14.266266,14.2493725,14.233598,14.218864,14.205425,14.191849,14.17733,14.1601925,14.142398,14.125742,14.110411,14.096607,14.083513,14.069851,14.05537,14.040692,14.027423,14.017274,14.010817,14.007087,14.005647,14.005125,14.005743,14.007359,14.009587,14.011798,14.012432,14.0116205,14.011046,14.0109215,14.012246,14.015717,14.020532,14.025201,14.029796,14.034279,14.039797,14.045665,14.050505,14.053294,14.053528,14.051682,14.047649,14.043135,14.036542,14.028598,14.02084,14.012415,14.003104,13.991335,13.974527,13.955185,13.931038,13.89592,13.848686,13.796886,13.731108,13.729486,13.870947,13.873253,13.720373,13.743242,13.928812,13.745598,11.765951,9.775256,8.915293,8.877072,8.934948,8.970394,8.983041,9.046379,9.311571,10.253563,11.850248,13.238712,13.631087,13.535555,13.399891,13.350784,13.465975,13.57382,13.578611,13.589161,13.588118,13.547876,13.483458,13.427098,13.400564,13.406532,13.43037,13.448374,13.455798,13.456375,13.451145,13.446591,13.446645,13.449148,13.4501095,13.446294,13.434998,13.414227,13.388659,13.361151,13.332855,13.30533,13.274607,13.240442,13.199915,13.15229,13.099152,13.042511,12.984116,12.927028
14.423645,14.419891,14.416489,14.414072,14.413418,14.414544,14.416817,14.419582,14.422468,14.42556,14.428655,14.431605,14.434252,14.436302,14.4375515,14.438035,14.437819,14.436923,14.435545,14.434115,14.433083,14.43263,14.432587,14.432782,14.433118,14.433382,14.433718,14.434336,14.435303,14.436434,14.437661,14.438795,14.439546,14.439705,14.439206,14.438074,14.436428,14.434425,14.432177,14.429681,14.427242,14.425159,14.423559,14.422424,14.42162,14.420956,14.420424,14.419819,14.41926,14.418885,14.41872,14.41877,14.418669,14.418432,14.417891,14.416729,14.41486,14.412531,14.410209,14.40827,14.407174,14.406977,14.407614,14.408781,14.410114,14.4113865,14.41246,14.413418,14.414218,14.4148445,14.415213,14.415426,14.415731,14.416235,14.417078,14.418386,14.420082,14.421927,14.4236355,14.425083,14.426363,14.427715,14.429458,14.431789,14.434605,14.437532,14.440226,14.442452,14.444033,14.445307,14.446402,14.44753,14.448992,14.451054,14.453703,14.456706,14.460102,14.463963,14.468273,14.472897,14.477728,14.482626,14.487261,14.491552,14.49581,14.49992,14.503942,14.508086,14.512484,14.516966,14.5214815,14.52601,14.530528,14.534953,14.539286,14.543834,14.54899,14.554566,14.560926,14.568003,14.575221,14.581925,14.587719,14.592625,14.596878,14.601131,14.605679,14.610907,14.61689,14.623434,14.6303215,14.637281,14.644306,14.651567,14.659103,14.667269,14.676672,14.68761,14.69952,14.711279,14.721723,14.727777,14.726733,14.7174835,14.700256,14.676409,14.648657,14.615007,14.577177,14.538603,14.502711,14.472357,14.449158,14.432726,14.421589,14.414618,14.41102,14.409521,14.408921,14.408747,14.4093,14.410861,14.413338,14.416535,14.419728,14.422156,14.423246,14.422737,14.421158,14.418446,14.41428,14.407859,14.398211,14.385384,14.37096,14.356639,14.343338,14.332636,14.324093,14.316287,14.307537,14.296999,14.286085,14.274366,14.261932,14.248698,14.23481,14.220248,14.204799,14.188831,14.170847,14.151958,14.133102,14.115457,14.099534,14.085268,14.072817,14.060509,14.047693,14.032602,14.017153,14.003064,13.990346,13.978952,13.967863,13.955716,13.942163,13.927515,13.913347,13.901348,13.892012,13.88494,13.879486,13.874573,13.870792,13.868187,13.86631,13.864569,13.861923,13.859086,13.856428,13.85387,13.852763,13.854387,13.858532,13.863897,13.868138,13.87162,13.876009,13.881018,13.885409,13.888081,13.888325,13.886348,13.881991,13.876894,13.869554,13.860853,13.852504,13.843843,13.834818,13.82395,13.809162,13.792598,13.771948,13.741129,13.698582,13.651123,13.588625,13.579736,13.7189045,13.749841,13.610561,13.593134,13.766884,13.597416,11.680107,9.781896,8.958106,8.9022665,8.95174,8.984858,9.008134,9.086911,9.383652,10.29742,11.780914,13.065107,13.45813,13.408389,13.3020115,13.263868,13.380381,13.465913,13.447454,13.474514,13.482305,13.446894,13.39072,13.343546,13.325247,13.339462,13.37245,13.399079,13.414227,13.421164,13.419677,13.416265,13.4152565,13.415361,13.414206,13.409241,13.396635,13.375396,13.348797,13.319434,13.289257,13.25992,13.228105,13.193657,13.153275,13.105778,13.05245,12.995416,12.937003,12.88105
14.305116,14.301224,14.297802,14.29546,14.294981,14.296331,14.298817,14.301748,14.304755,14.307909,14.311045,14.31395,14.316419,14.318145,14.318947,14.318951,14.318327,14.31708,14.315472,14.3139305,14.312852,14.312399,14.312395,14.312612,14.312934,14.313157,14.313419,14.313995,14.315018,14.316269,14.317615,14.318851,14.319604,14.319622,14.318865,14.317423,14.315477,14.313224,14.310805,14.308231,14.305841,14.303907,14.302509,14.301582,14.300968,14.300472,14.300131,14.299723,14.2993145,14.298994,14.298761,14.298619,14.298241,14.29764,14.296659,14.295066,14.292846,14.290287,14.287863,14.2859,14.284794,14.284572,14.285196,14.286384,14.2878065,14.289278,14.290617,14.291846,14.292921,14.293716,14.2941265,14.294279,14.294449,14.294802,14.295542,14.296794,14.298514,14.300449,14.302273,14.30382,14.305189,14.306573,14.30828,14.310482,14.313101,14.315794,14.318245,14.320237,14.321607,14.322624,14.323444,14.324283,14.325443,14.327185,14.329496,14.33217,14.335233,14.338771,14.342768,14.347109,14.351692,14.356362,14.360782,14.364859,14.368894,14.372742,14.376448,14.380209,14.384148,14.388157,14.3922,14.396244,14.400282,14.404242,14.408153,14.412361,14.417286,14.422742,14.429062,14.436193,14.443559,14.450491,14.456547,14.461667,14.466034,14.470251,14.474539,14.479309,14.484697,14.490578,14.496745,14.502901,14.508894,14.514801,14.520679,14.52695,14.534512,14.544067,14.555292,14.56735,14.57962,14.589216,14.593657,14.591448,14.581957,14.565744,14.544894,14.517337,14.484009,14.447536,14.411276,14.378561,14.351671,14.331162,14.315796,14.304663,14.297396,14.292942,14.290142,14.288452,14.288014,14.288881,14.290911,14.293825,14.296837,14.299175,14.300239,14.299707,14.298168,14.2954445,14.291199,14.28462,14.274902,14.2622795,14.2483225,14.234658,14.222181,14.212294,14.204496,14.197399,14.189383,14.179578,14.169243,14.158041,14.146095,14.133169,14.119371,14.104639,14.088654,14.071805,14.05279,14.032711,14.012772,13.994368,13.978186,13.964266,13.952696,13.941618,13.930518,13.917538,13.904536,13.893122,13.883112,13.874247,13.865293,13.854894,13.842551,13.828329,13.813713,13.80025,13.788296,13.777973,13.76846,13.758987,13.750652,13.743782,13.73805,13.73291,13.727217,13.721434,13.715995,13.712198,13.710997,13.7118225,13.713642,13.71666,13.72149,13.7246275,13.727835,13.731804,13.735664,13.738009,13.73797,13.735582,13.730579,13.724514,13.715927,13.705917,13.69648,13.687202,13.678228,13.668296,13.6558275,13.642612,13.626234,13.600509,13.563227,13.5203705,13.462967,13.448654,13.574753,13.629495,13.516155,13.468644,13.62258,13.463644,11.601923,9.792737,9.003828,8.929588,8.971077,9.002297,9.036839,9.129068,9.437756,10.320917,11.697765,12.876891,13.282057,13.273904,13.19228,13.174537,13.291019,13.350996,13.31271,13.349585,13.357368,13.326719,13.284328,13.247936,13.236644,13.257923,13.29767,13.331092,13.353091,13.366868,13.370083,13.368103,13.366681,13.366364,13.3648815,13.360858,13.348253,13.326891,13.299998,13.269934,13.2387295,13.208421,13.176245,13.142233,13.102833,13.056593,13.004509,12.948633,12.891624,12.8378315
14.193939,14.190049,14.186698,14.184498,14.184196,14.18573,14.188372,14.191405,14.194456,14.197613,14.200726,14.20352,14.205767,14.207155,14.207546,14.207152,14.206202,14.204699,14.202967,14.201401,14.200325,14.199863,14.199865,14.20006,14.200321,14.200475,14.200655,14.2011795,14.202229,14.203569,14.205034,14.206371,14.207083,14.206942,14.205959,14.204254,14.202059,14.199659,14.197128,14.194525,14.192192,14.190399,14.189188,14.188463,14.18803,14.187742,14.1876135,14.187423,14.187175,14.18692,14.186653,14.1863575,14.185755,14.184885,14.183594,14.181707,14.179258,14.1765585,14.174071,14.172113,14.171,14.170748,14.171328,14.172493,14.17396,14.175558,14.177073,14.178486,14.179717,14.180579,14.180954,14.18099,14.1810055,14.181217,14.181852,14.183058,14.184783,14.186777,14.188688,14.190318,14.191744,14.193152,14.194817,14.196887,14.199315,14.2017975,14.204043,14.205864,14.207075,14.20792,14.20857,14.209217,14.210167,14.211683,14.213748,14.216156,14.218942,14.222196,14.225933,14.230043,14.234418,14.238898,14.243141,14.247067,14.250948,14.254615,14.258105,14.261576,14.265133,14.268727,14.272321,14.275883,14.279457,14.282997,14.286562,14.290514,14.295254,14.300592,14.306853,14.313969,14.321379,14.328434,14.334671,14.339977,14.344473,14.348715,14.352863,14.357318,14.362257,14.367571,14.373072,14.378515,14.383684,14.388578,14.393286,14.398161,14.404127,14.412079,14.421932,14.433104,14.445389,14.456444,14.464239,14.467279,14.464514,14.45583,14.442406,14.422239,14.395191,14.362723,14.327856,14.294151,14.264392,14.240236,14.220716,14.205278,14.194132,14.186531,14.181405,14.178138,14.176591,14.176573,14.17791,14.180252,14.182833,14.184895,14.185795,14.185152,14.183527,14.180654,14.176151,14.169248,14.159309,14.146738,14.133139,14.12004,14.10825,14.099079,14.091959,14.085569,14.078375,14.069437,14.05987,14.049358,14.038017,14.0255375,14.01199,13.997303,13.981119,13.963796,13.944172,13.923328,13.9026375,13.883669,13.867292,13.853683,13.84291,13.832957,13.8234215,13.812362,13.801563,13.792525,13.784903,13.778242,13.771192,13.762403,13.751307,13.737814,13.723283,13.709,13.695143,13.682237,13.669334,13.655941,13.643688,13.633199,13.624238,13.616324,13.608311,13.600473,13.593141,13.587453,13.5843725,13.584345,13.586288,13.587878,13.589797,13.591534,13.595204,13.598715,13.601135,13.602896,13.602474,13.599456,13.593528,13.586275,13.576363,13.565095,13.554644,13.544737,13.53578,13.5268135,13.5167055,13.506948,13.495012,13.474518,13.442514,13.404135,13.351057,13.333352,13.443832,13.518135,13.433598,13.362761,13.492472,13.342117,11.529072,9.805212,9.048416,8.954378,8.991413,9.02449,9.064825,9.170694,9.482651,10.338696,11.614309,12.686687,13.1106415,13.114008,13.065893,13.090382,13.180723,13.2111025,13.1893425,13.223278,13.212268,13.196419,13.168285,13.141821,13.137587,13.163891,13.207415,13.245188,13.272692,13.2930975,13.302363,13.304169,13.304113,13.30388,13.302222,13.297947,13.287947,13.268406,13.242428,13.212898,13.181835,13.151669,13.120183,13.087563,13.05014,13.006269,12.956701,12.90329,12.84877,12.797951
14.077206,14.073458,14.070278,14.068259,14.068146,14.069824,14.072529,14.075575,14.07859,14.081671,14.084671,14.087305,14.089301,14.090339,14.090342,14.0896,14.088419,14.086788,14.085057,14.083554,14.082513,14.082037,14.081995,14.082104,14.082226,14.08223,14.08226,14.082677,14.083708,14.085102,14.086608,14.087967,14.088596,14.088268,14.087053,14.085139,14.082787,14.080311,14.077757,14.075196,14.072968,14.071325,14.070293,14.069751,14.069503,14.069403,14.069472,14.069486,14.069399,14.0692215,14.068938,14.068525,14.067764,14.066723,14.065235,14.063196,14.060673,14.057953,14.0555,14.053591,14.052481,14.052156,14.052605,14.0536175,14.054972,14.056527,14.058059,14.059511,14.060767,14.061596,14.061857,14.06173,14.061583,14.061646,14.062206,14.063378,14.065129,14.067192,14.069181,14.07088,14.07233,14.073709,14.075266,14.0771475,14.079343,14.081604,14.083671,14.085362,14.086483,14.087261,14.08786,14.0884695,14.089363,14.090792,14.092727,14.094952,14.097529,14.100557,14.104076,14.107997,14.11219,14.116487,14.1205635,14.124342,14.128063,14.1315775,14.134899,14.138128,14.141345,14.144537,14.147692,14.15077,14.153863,14.156978,14.1602125,14.163927,14.168482,14.173679,14.179804,14.186791,14.194117,14.201181,14.207539,14.2130165,14.217653,14.221951,14.226028,14.230214,14.234669,14.239349,14.244148,14.248897,14.253405,14.257683,14.2617655,14.26582,14.270601,14.276969,14.284953,14.294264,14.305094,14.315815,14.325127,14.331909,14.335047,14.33391,14.3286705,14.317427,14.298847,14.272769,14.241392,14.208169,14.17624,14.148512,14.12449,14.104132,14.08843,14.0770445,14.069072,14.063888,14.060958,14.059786,14.060207,14.061792,14.063804,14.065533,14.066263,14.065489,14.063741,14.0606575,14.055798,14.048466,14.038211,14.025606,14.012272,13.999636,13.988377,13.979732,13.973104,13.967272,13.960803,13.952707,13.94388,13.934031,13.923236,13.911163,13.897896,13.883384,13.867249,13.849781,13.829887,13.808605,13.787411,13.7680435,13.751541,13.738216,13.72818,13.719306,13.7112465,13.70201,13.693265,13.686409,13.680979,13.676367,13.671141,13.663984,13.654331,13.641979,13.628077,13.613587,13.598467,13.583485,13.567654,13.550741,13.534927,13.521185,13.5093975,13.499142,13.489323,13.479965,13.471303,13.464329,13.459822,13.458007,13.457876,13.457624,13.457941,13.4582615,13.459764,13.462843,13.465977,13.467085,13.465546,13.461653,13.454816,13.446476,13.4352,13.4223995,13.410656,13.400122,13.39114,13.383237,13.375683,13.369749,13.362761,13.348062,13.321871,13.288246,13.23945,13.218629,13.312479,13.406166,13.350159,13.254164,13.360748,13.212007,11.450521,9.82006,9.096829,8.980377,9.013931,9.048561,9.094774,9.215618,9.5242195,10.348036,11.523735,12.488333,12.926464,12.962017,12.93547,12.99885,13.065287,13.07133,13.04954,13.0404825,13.045657,13.042955,13.028833,13.013699,13.016484,13.046581,13.092538,13.13259,13.164099,13.189563,13.205893,13.214273,13.217973,13.219397,13.219297,13.216775,13.208765,13.192032,13.168766,13.141197,13.111579,13.082811,13.053125,13.023007,12.988804,12.948738,12.903358,12.854216,12.803839,12.75726
13.957737,13.954265,13.951368,13.949591,13.9496565,13.951424,13.954125,13.957104,13.960016,13.962906,13.965696,13.968051,13.969685,13.970331,13.969963,13.968925,13.967592,13.965933,13.964298,13.962945,13.962006,13.961542,13.961451,13.961453,13.961395,13.961171,13.960943,13.961107,13.961934,13.963184,13.964558,13.965761,13.966194,13.965641,13.964218,13.962155,13.959742,13.957287,13.954809,13.952385,13.950332,13.948889,13.948053,13.947687,13.947586,13.947617,13.9478,13.947903,13.947866,13.947687,13.947355,13.946877,13.946072,13.945021,13.943547,13.941581,13.9391985,13.936653,13.934359,13.932572,13.931509,13.931101,13.931347,13.932095,13.933161,13.93446,13.935804,13.93708,13.938166,13.938803,13.938853,13.93852,13.93819,13.9381275,13.938625,13.939768,13.941533,13.943632,13.945659,13.947374,13.948799,13.950092,13.951482,13.953105,13.9550085,13.957017,13.95891,13.960515,13.9616375,13.962486,13.963213,13.963976,13.96502,13.966567,13.968563,13.970766,13.973273,13.976202,13.979588,13.983364,13.987419,13.991566,13.9955,13.999144,14.002728,14.006135,14.009346,14.012417,14.015398,14.018272,14.021047,14.023697,14.026331,14.029009,14.031879,14.035284,14.039549,14.04446,14.050268,14.056915,14.063919,14.070761,14.077026,14.082502,14.087181,14.0915165,14.095565,14.099552,14.103616,14.107744,14.111902,14.116025,14.120031,14.123936,14.127726,14.131345,14.135273,14.14023,14.146357,14.15362,14.162514,14.1721115,14.181807,14.190917,14.198485,14.203615,14.205635,14.202963,14.193275,14.17489,14.148943,14.118347,14.086264,14.056599,14.0292425,14.004697,13.984638,13.969159,13.957695,13.949787,13.944565,13.941338,13.939975,13.940073,13.940994,13.942062,13.94245,13.941487,13.939572,13.936255,13.931065,13.923398,13.913,13.900564,13.887665,13.875613,13.86489,13.85665,13.850277,13.844686,13.838581,13.830957,13.822561,13.8130455,13.802488,13.790607,13.777544,13.763293,13.74745,13.730179,13.710391,13.689064,13.667683,13.648094,13.631523,13.618446,13.608982,13.6009445,13.593979,13.586063,13.578784,13.573477,13.569611,13.566474,13.562597,13.556665,13.548138,13.536791,13.523602,13.509258,13.493576,13.477438,13.459864,13.440813,13.422909,13.407387,13.394178,13.382896,13.372479,13.362782,13.353952,13.346779,13.341728,13.338509,13.335997,13.333107,13.330641,13.327776,13.327258,13.329519,13.332415,13.333463,13.331592,13.326344,13.318506,13.309214,13.297018,13.283405,13.271021,13.260166,13.251545,13.244792,13.239555,13.236938,13.234171,13.224433,13.203262,13.173689,13.128401,13.104248,13.181658,13.289902,13.259224,13.143259,13.225891,13.07889,11.369394,9.837112,9.14921,9.008049,9.037664,9.074598,9.126518,9.26477,9.5682745,10.347004,11.424641,12.299858,12.75156,12.831112,12.807825,12.904216,12.958733,12.9180155,12.870254,12.85702,12.873493,12.880754,12.878439,12.872883,12.881447,12.913483,12.958517,12.99826,13.031527,13.060017,13.081261,13.095646,13.104814,13.110542,13.114265,13.114889,13.110277,13.098537,13.08053,13.057365,13.031452,13.006054,12.979721,12.9533,12.923256,12.887821,12.847538,12.803689,12.758459,12.716996
13.839317,13.836258,13.83374,13.832238,13.8324585,13.834253,13.836884,13.839735,13.842479,13.845114,13.847595,13.849564,13.850763,13.850992,13.8502865,13.8490305,13.847621,13.8460245,13.844575,13.8434515,13.842684,13.842277,13.84214,13.8420105,13.841732,13.841213,13.840626,13.840372,13.840763,13.841606,13.842602,13.843435,13.843538,13.842713,13.841103,13.838952,13.83655,13.834198,13.831888,13.829697,13.827906,13.826714,13.826099,13.825907,13.825911,13.826016,13.8262,13.826244,13.826103,13.825805,13.825382,13.824873,13.824118,13.823196,13.821932,13.820242,13.818186,13.815968,13.813939,13.812338,13.811338,13.810829,13.810814,13.811175,13.811794,13.812645,13.813592,13.814503,13.815248,13.815576,13.815363,13.8148155,13.814324,13.814177,13.814646,13.815785,13.817568,13.819682,13.821708,13.823393,13.824741,13.8259,13.827082,13.828409,13.829995,13.8317375,13.833472,13.835049,13.836261,13.837305,13.838319,13.839422,13.8408165,13.842673,13.844902,13.847252,13.849837,13.8527775,13.856112,13.859795,13.863735,13.867746,13.871536,13.87505,13.878515,13.881834,13.884981,13.887982,13.890851,13.89354,13.896053,13.898367,13.900591,13.902844,13.905309,13.908319,13.912178,13.916649,13.921948,13.928026,13.934456,13.940809,13.946731,13.952,13.956588,13.960903,13.964939,13.968812,13.972607,13.976313,13.979958,13.983595,13.987272,13.991016,13.99478,13.998301,14.001753,14.005685,14.010375,14.016002,14.023208,14.03163,14.041096,14.051249,14.061405,14.07069,14.077948,14.082142,14.080393,14.06992,14.050785,14.025011,13.995342,13.966179,13.9375725,13.910379,13.886715,13.867084,13.851444,13.839781,13.831135,13.824703,13.82045,13.818137,13.817274,13.817238,13.817076,13.815876,13.813818,13.810373,13.805045,13.797332,13.787132,13.775209,13.763021,13.751703,13.741538,13.733557,13.7271595,13.721402,13.71516,13.7074795,13.699004,13.689331,13.678564,13.66654,13.653521,13.639555,13.624186,13.6074295,13.588118,13.567131,13.545857,13.526228,13.509672,13.496801,13.487703,13.480183,13.473803,13.466526,13.459913,13.455307,13.452177,13.449759,13.446587,13.441288,13.433355,13.422652,13.410025,13.396027,13.380524,13.364336,13.34654,13.327187,13.309134,13.293694,13.280764,13.269961,13.26025,13.251432,13.243641,13.237383,13.2327175,13.228789,13.224239,13.21848,13.212484,13.205661,13.202196,13.202425,13.204092,13.204675,13.202367,13.196933,13.188112,13.178074,13.165606,13.152031,13.139851,13.129405,13.121729,13.116158,13.112755,13.112512,13.112634,13.106358,13.088823,13.062107,13.0193,12.991371,13.054209,13.164799,13.158325,13.046261,13.086025,12.949774,11.29096,9.851737,9.199553,9.036324,9.060526,9.098562,9.158198,9.314964,9.612572,10.342275,11.334517,12.141678,12.599318,12.716994,12.705081,12.820982,12.860823,12.766796,12.685541,12.689121,12.708216,12.7216835,12.72764,12.728619,12.741018,12.77305,12.814185,12.851172,12.883571,12.912441,12.935808,12.953874,12.967662,12.978487,12.987562,12.993641,12.995424,12.991236,12.980885,12.964664,12.944908,12.924986,12.90361,12.882011,12.856884,12.826625,12.791962,12.754049,12.714703,12.678912
13.724141,13.721588,13.719486,13.718246,13.718555,13.7202835,13.722747,13.725402,13.727919,13.730254,13.732353,13.73388,13.734624,13.734449,13.733452,13.732058,13.73065,13.729189,13.727974,13.727119,13.726564,13.72625,13.726088,13.725829,13.725336,13.724521,13.723552,13.7228155,13.722634,13.722888,13.723339,13.72365,13.723337,13.722218,13.720435,13.718238,13.715885,13.713676,13.711582,13.709671,13.708193,13.707289,13.706909,13.70688,13.706959,13.70707,13.707148,13.706995,13.706602,13.70607,13.705502,13.704964,13.704301,13.703579,13.702617,13.701306,13.699661,13.697827,13.696104,13.694703,13.693756,13.693131,13.69282,13.6927395,13.692835,13.693142,13.693583,13.694043,13.694374,13.694361,13.693894,13.693168,13.692568,13.692385,13.692862,13.694044,13.695879,13.698019,13.700046,13.7017,13.702959,13.703971,13.704941,13.705994,13.707289,13.708787,13.710386,13.711973,13.713324,13.714623,13.7160015,13.717535,13.71937,13.721626,13.724173,13.726759,13.729511,13.732524,13.735847,13.739452,13.743252,13.7470875,13.750695,13.754036,13.757346,13.760553,13.763651,13.766647,13.769517,13.772154,13.774542,13.776642,13.778542,13.780424,13.782501,13.785097,13.788513,13.7925005,13.797223,13.8026495,13.80841,13.814161,13.819622,13.824591,13.829013,13.833266,13.8372965,13.8411255,13.844759,13.848181,13.851482,13.85483,13.858355,13.862131,13.86606,13.8696995,13.872971,13.876283,13.88002,13.8845215,13.890459,13.897814,13.906625,13.916743,13.927796,13.939138,13.949524,13.958508,13.963121,13.960033,13.948349,13.929024,13.904066,13.877769,13.850115,13.822071,13.79583,13.772263,13.752016,13.735733,13.722745,13.712187,13.7041645,13.698761,13.695636,13.694199,13.693363,13.691921,13.689806,13.686404,13.681204,13.6737585,13.664069,13.652901,13.641554,13.630967,13.621273,13.6133585,13.606682,13.600427,13.593612,13.585384,13.57634,13.56605,13.554664,13.542192,13.529077,13.515413,13.500653,13.484678,13.466173,13.445829,13.424894,13.405352,13.388819,13.376013,13.366993,13.359621,13.353336,13.3461,13.339502,13.334937,13.331914,13.329668,13.326745,13.321663,13.3139515,13.303573,13.291293,13.277704,13.262865,13.247432,13.230553,13.212296,13.195517,13.181496,13.170085,13.160879,13.152868,13.145906,13.14012,13.135729,13.132324,13.1284275,13.122453,13.11434,13.105209,13.094908,13.087629,13.084703,13.084566,13.084082,13.08066,13.075435,13.066798,13.056684,13.044355,13.031275,13.01973,13.010099,13.003493,12.9990635,12.997007,12.99815,12.999767,12.995377,12.980001,12.954901,12.913588,12.881514,12.931414,13.037681,13.055326,12.961315,12.943949,12.819094,11.214687,9.859623,9.239656,9.060358,9.080843,9.119766,9.189848,9.361778,9.651079,10.335564,11.26161,12.023613,12.483864,12.614574,12.629268,12.741939,12.747159,12.619705,12.529434,12.538542,12.558363,12.574921,12.585549,12.591013,12.60511,12.63458,12.670439,12.70301,12.732331,12.759083,12.782127,12.801359,12.8177,12.832691,12.847181,12.860073,12.869992,12.874644,12.873177,12.865423,12.853447,12.84045,12.825201,12.809329,12.789832,12.765364,12.736905,12.705574,12.672776,12.643045
13.614396,13.612364,13.610664,13.609635,13.609933,13.611479,13.613679,13.61606,13.618307,13.620303,13.621994,13.62306,13.6233425,13.622788,13.621559,13.620067,13.618715,13.617416,13.616438,13.615845,13.615511,13.615311,13.61516,13.614832,13.6142,13.613161,13.611885,13.610727,13.609998,13.609647,13.609533,13.609305,13.608584,13.60719,13.605267,13.603046,13.60075,13.598677,13.596781,13.595136,13.593963,13.59335,13.593202,13.593321,13.59345,13.593498,13.593401,13.592939,13.592187,13.591332,13.590553,13.589971,13.5893955,13.588875,13.588215,13.587276,13.586027,13.584555,13.583107,13.581886,13.580984,13.580248,13.579668,13.579197,13.578816,13.578613,13.578585,13.578608,13.578566,13.5782585,13.577587,13.576736,13.5760765,13.575891,13.576394,13.577639,13.579552,13.581753,13.583801,13.585449,13.586649,13.587549,13.588356,13.589202,13.590265,13.59157,13.593063,13.594652,13.596132,13.597672,13.59939,13.601316,13.603554,13.606179,13.609037,13.611855,13.614786,13.61789,13.621204,13.624704,13.628313,13.6319065,13.635276,13.638369,13.6414585,13.644514,13.647553,13.650581,13.653525,13.656212,13.6585865,13.660588,13.662279,13.663887,13.665655,13.667906,13.670937,13.674503,13.67873,13.683599,13.688787,13.694012,13.699059,13.703747,13.708001,13.712185,13.716213,13.720037,13.7235985,13.72687,13.729992,13.7332115,13.736702,13.74058,13.744692,13.748465,13.751675,13.75465,13.757813,13.761593,13.766623,13.772999,13.780844,13.790161,13.800859,13.812604,13.824356,13.836157,13.845305,13.848453,13.843973,13.831781,13.813057,13.791446,13.766675,13.739618,13.712104,13.685301,13.660603,13.639402,13.621652,13.606544,13.594302,13.585489,13.57991,13.576923,13.575325,13.573617,13.571488,13.568233,13.56333,13.556341,13.547291,13.536896,13.526292,13.516272,13.506848,13.498807,13.491688,13.484762,13.477131,13.46806,13.458157,13.446967,13.434729,13.421649,13.408373,13.395039,13.380983,13.365959,13.3484745,13.328972,13.308537,13.289146,13.272542,13.259565,13.250293,13.242713,13.236119,13.228516,13.221567,13.21672,13.213514,13.211212,13.208353,13.203337,13.195682,13.185392,13.173243,13.15997,13.145875,13.1314745,13.115963,13.099387,13.084455,13.072384,13.0630245,13.055966,13.050202,13.045695,13.04253,13.040681,13.039249,13.036151,13.029579,13.01992,13.008419,12.995348,12.985138,12.97908,12.976527,12.974969,12.97076,12.964447,12.9570465,12.947925,12.936224,12.923829,12.912982,12.904002,12.898091,12.8945465,12.893262,12.894873,12.896749,12.892818,12.87824,12.853674,12.812981,12.777187,12.815329,12.917587,12.952739,12.869317,12.807737,12.6818695,11.13722,9.860638,9.268559,9.077803,9.097778,9.140427,9.22086,9.40098,9.679882,10.323553,11.200227,11.939571,12.405474,12.526065,12.564096,12.656064,12.61495,12.475705,12.403709,12.410636,12.430641,12.447815,12.460194,12.468338,12.481829,12.5064945,12.536841,12.564293,12.589249,12.612233,12.632805,12.651167,12.668528,12.686454,12.705275,12.724005,12.741185,12.75409,12.7612505,12.762062,12.758229,12.752595,12.743938,12.734269,12.720905,12.702766,12.681049,12.656805,12.630983,12.607491
13.512781,13.511244,13.509914,13.509035,13.5092535,13.510558,13.512459,13.514553,13.516521,13.518184,13.519478,13.520084,13.519908,13.518996,13.517568,13.515995,13.514692,13.513538,13.512775,13.512434,13.512323,13.512259,13.512157,13.511801,13.5110855,13.509906,13.508425,13.506952,13.505783,13.504946,13.504322,13.503651,13.502594,13.500992,13.498982,13.496754,13.494496,13.49251,13.490768,13.489343,13.488445,13.488099,13.488157,13.488415,13.488584,13.488561,13.488247,13.487455,13.486303,13.485085,13.484065,13.483401,13.482882,13.482523,13.482107,13.481466,13.480532,13.479361,13.478157,13.477095,13.476236,13.475426,13.474658,13.473895,13.473152,13.472572,13.472174,13.471863,13.471533,13.471022,13.470219,13.469294,13.468605,13.468414,13.468937,13.470234,13.472204,13.474458,13.4765415,13.478188,13.479361,13.480204,13.480925,13.481642,13.48255,13.483713,13.4851265,13.4867115,13.488272,13.489988,13.491958,13.494192,13.496737,13.499637,13.502733,13.505743,13.508827,13.5120125,13.515305,13.518677,13.522074,13.5254,13.528492,13.531307,13.534134,13.53701,13.539989,13.543064,13.546108,13.548892,13.551314,13.55328,13.554856,13.556286,13.557838,13.559843,13.562584,13.565815,13.569654,13.574085,13.578818,13.583626,13.588331,13.5927725,13.596851,13.600958,13.604981,13.608821,13.612368,13.61557,13.618587,13.621713,13.625151,13.629028,13.633175,13.63698,13.640158,13.643009,13.645965,13.64945,13.65402,13.659719,13.666636,13.674807,13.68436,13.6953335,13.706991,13.719816,13.731562,13.739238,13.740828,13.735462,13.723532,13.707714,13.687338,13.662931,13.635642,13.6067915,13.578451,13.552721,13.5303955,13.510796,13.49424,13.481851,13.473602,13.468835,13.466257,13.464104,13.461855,13.458691,13.454085,13.4475765,13.439134,13.429382,13.41933,13.409669,13.400307,13.392002,13.384384,13.376764,13.368296,13.358352,13.347544,13.335422,13.322325,13.308626,13.295177,13.282169,13.268811,13.254755,13.238333,13.219755,13.199907,13.180703,13.16397,13.150671,13.140968,13.132948,13.125809,13.117625,13.110136,13.104834,13.101301,13.098835,13.095945,13.090913,13.08319,13.072823,13.060612,13.047489,13.034027,13.020621,13.006519,12.991734,12.978748,12.968684,12.961405,12.956522,12.9530325,12.951024,12.950537,12.951343,12.952086,12.950165,12.94362,12.933137,12.920057,12.905083,12.892748,12.884527,12.879723,12.876669,12.872905,12.865822,12.857827,12.850349,12.840462,12.82899,12.818872,12.810545,12.805162,12.8019085,12.80057,12.801844,12.803095,12.798582,12.783844,12.759117,12.718456,12.680615,12.709709,12.799086,12.835767,12.764147,12.683344,12.549743,11.060034,9.858155,9.295387,9.09453,9.111284,9.160059,9.247168,9.429778,9.699455,10.30862,11.1476345,11.871887,12.334645,12.448972,12.50297,12.580952,12.509687,12.36124,12.2983055,12.304022,12.326242,12.341893,12.35398,12.360967,12.3715725,12.391873,12.416804,12.439176,12.45934,12.477789,12.494634,12.510765,12.527819,12.547246,12.568991,12.592085,12.615028,12.634794,12.649401,12.657921,12.661712,12.663111,12.660913,12.657356,12.650126,12.638382,12.623436,12.60627,12.587433,12.570034
13.409143,13.408096,13.407149,13.406435,13.406567,13.407596,13.409147,13.410909,13.412568,13.413869,13.414732,13.414862,13.414223,13.412963,13.41135,13.409735,13.408524,13.407537,13.406987,13.406874,13.406944,13.406959,13.406829,13.406377,13.405514,13.404144,13.402437,13.40066,13.39909,13.397795,13.396729,13.395658,13.394343,13.392633,13.39062,13.388455,13.386299,13.384434,13.382872,13.381685,13.381046,13.380947,13.381203,13.381579,13.381766,13.381668,13.381144,13.380012,13.378458,13.376871,13.375597,13.374807,13.374292,13.374021,13.373772,13.373346,13.372658,13.371742,13.37075,13.369847,13.369063,13.368227,13.367329,13.366343,13.365318,13.36444,13.363748,13.363177,13.362645,13.362005,13.361129,13.360161,13.359448,13.359247,13.359766,13.361074,13.363079,13.36537,13.3674755,13.369119,13.370267,13.371077,13.371739,13.372387,13.373216,13.374295,13.375651,13.377246,13.37887,13.380721,13.382899,13.385374,13.388155,13.391281,13.394575,13.3977585,13.400983,13.404243,13.407524,13.410769,13.413935,13.4169655,13.419739,13.4222355,13.424768,13.42743,13.430317,13.433422,13.436571,13.439461,13.441952,13.443942,13.4454775,13.446816,13.448244,13.450075,13.452595,13.455549,13.4590225,13.463043,13.467361,13.471794,13.476194,13.480406,13.484355,13.488388,13.492409,13.496283,13.499851,13.503057,13.506069,13.509176,13.512598,13.516476,13.520596,13.524351,13.527459,13.530192,13.532988,13.536276,13.540464,13.545525,13.551498,13.558449,13.56667,13.5765,13.587533,13.600479,13.613592,13.624374,13.630648,13.6310215,13.625307,13.615238,13.599838,13.579235,13.553806,13.5247965,13.494595,13.465763,13.439867,13.416351,13.395614,13.379316,13.367689,13.360202,13.355656,13.352192,13.349119,13.345488,13.340767,13.334456,13.326389,13.317014,13.307248,13.297714,13.288239,13.279613,13.271577,13.263475,13.2544775,13.244015,13.232683,13.220052,13.20651,13.192524,13.179127,13.166565,13.153954,13.140877,13.12553,13.10784,13.08856,13.069489,13.052509,13.038741,13.028391,13.019648,13.011652,13.002556,12.994179,12.988085,12.983923,12.98106,12.978014,12.973013,12.965418,12.955275,12.943359,12.9307165,12.918146,12.905973,12.893431,12.880531,12.869463,12.861223,12.855745,12.852717,12.85115,12.851299,12.853144,12.8563385,12.859148,12.858564,12.852538,12.841953,12.828224,12.812404,12.799032,12.789684,12.783771,12.779711,12.775309,12.768898,12.760858,12.7533,12.745052,12.735094,12.724833,12.71664,12.711256,12.707713,12.705815,12.7061825,12.70638,12.700995,12.685677,12.660469,12.619623,12.579417,12.5999,12.675676,12.715933,12.662029,12.557945,12.394188,10.981606,9.858072,9.3196335,9.110499,9.122932,9.177706,9.272967,9.454718,9.709871,10.283033,11.086386,11.798582,12.260902,12.361755,12.43972,12.493267,12.396478,12.249693,12.196386,12.204482,12.226078,12.240252,12.250664,12.255886,12.263683,12.279622,12.299466,12.317126,12.332701,12.346794,12.359886,12.37351,12.389697,12.409731,12.433104,12.458952,12.485692,12.510288,12.530502,12.545269,12.555651,12.563461,12.56744,12.569955,12.569071,12.564041,12.556149,12.546282,12.534601,12.523396
13.301683,13.301158,13.300606,13.300079,13.300136,13.300869,13.302021,13.303389,13.30468,13.305559,13.3059435,13.305553,13.30442,13.302792,13.300993,13.299337,13.298209,13.2973995,13.29704,13.297125,13.297346,13.297381,13.297155,13.296545,13.295467,13.293875,13.291942,13.28991,13.288024,13.28636,13.284941,13.283569,13.282106,13.280413,13.278524,13.276529,13.274553,13.27286,13.271496,13.2705555,13.270155,13.270261,13.270672,13.271122,13.27132,13.271122,13.270397,13.268944,13.267001,13.265051,13.263515,13.26259,13.262037,13.261805,13.261658,13.261383,13.260893,13.260208,13.25945,13.258733,13.258083,13.257309,13.256382,13.255278,13.254074,13.2529955,13.252115,13.251375,13.250714,13.250004,13.249104,13.248121,13.247381,13.247141,13.247612,13.248895,13.250876,13.253153,13.255232,13.25683,13.257954,13.258724,13.259356,13.25998,13.260775,13.261808,13.263124,13.26471,13.266368,13.268311,13.270628,13.27326,13.276214,13.279505,13.282952,13.286286,13.289644,13.292997,13.296283,13.299419,13.302353,13.305067,13.30752,13.309694,13.31193,13.314396,13.317212,13.320362,13.323635,13.326651,13.329256,13.331329,13.332899,13.33424,13.3356285,13.337358,13.339693,13.342359,13.345466,13.349061,13.352953,13.357002,13.361088,13.365065,13.368852,13.372774,13.376766,13.380672,13.384313,13.387604,13.390696,13.393852,13.397282,13.401104,13.405065,13.40863,13.411574,13.414164,13.416801,13.41991,13.423746,13.428198,13.433264,13.439032,13.44589,13.454358,13.464336,13.476574,13.489792,13.502108,13.511446,13.516212,13.515872,13.51123,13.501256,13.485622,13.463938,13.437099,13.407359,13.377354,13.349261,13.322639,13.297945,13.277346,13.261447,13.250042,13.242241,13.2362995,13.2314005,13.226447,13.22097,13.214413,13.206388,13.197098,13.187334,13.17771,13.167965,13.159009,13.150684,13.1423645,13.133211,13.122656,13.111246,13.098585,13.085053,13.071136,13.057999,13.045969,13.034112,13.022014,13.007747,12.990976,12.972319,12.95344,12.936234,12.921942,12.910837,12.901199,12.89212,12.881841,12.8723,12.865143,12.8601,12.85664,12.853332,12.848387,12.841099,12.8314495,12.82012,12.808182,12.7966,12.785686,12.774643,12.7634945,12.754112,12.7473545,12.743255,12.741627,12.741535,12.743368,12.74707,12.7522335,12.756861,12.757687,12.752617,12.742641,12.729201,12.713652,12.70045,12.691179,12.685268,12.681086,12.676548,12.670883,12.662817,12.654943,12.646868,12.637895,12.628319,12.61932,12.613307,12.608825,12.605763,12.604734,12.603487,12.596902,12.580715,12.554805,12.513609,12.470692,12.482635,12.546587,12.584192,12.5378475,12.427564,12.2274475,10.898189,9.8536,9.342337,9.128916,9.135266,9.1995325,9.302006,9.479141,9.716579,10.252139,11.01589,11.714973,12.186298,12.268893,12.378778,12.3897,12.2695675,12.137416,12.093557,12.106178,12.126276,12.139032,12.147358,12.150372,12.155207,12.166992,12.182253,12.195768,12.20722,12.217338,12.226839,12.237827,12.252626,12.27224,12.295777,12.322504,12.35072,12.377634,12.401121,12.42017,12.435634,12.448841,12.458357,12.4666,12.471982,12.473745,12.473028,12.470551,12.466078,12.461046
13.194494,13.194475,13.194325,13.194008,13.194023,13.194499,13.195284,13.196279,13.19722,13.197697,13.197603,13.196672,13.195008,13.192977,13.190973,13.189255,13.188194,13.187543,13.187363,13.187603,13.187907,13.187906,13.1875305,13.186705,13.185375,13.183546,13.181406,13.179176,13.177057,13.175116,13.173454,13.171909,13.170426,13.168873,13.1672125,13.16547,13.163736,13.162224,13.161041,13.16029,13.160057,13.16029,13.160787,13.161278,13.161451,13.161171,13.160278,13.158552,13.156286,13.154034,13.152265,13.151213,13.150631,13.150423,13.15036,13.1502075,13.149885,13.149414,13.148886,13.148386,13.147923,13.147276,13.146403,13.145285,13.144016,13.142835,13.141846,13.140997,13.140259,13.139511,13.138601,13.137609,13.136822,13.136506,13.136871,13.13805,13.139938,13.142122,13.144105,13.145617,13.146673,13.1474,13.148016,13.148647,13.149435,13.150433,13.151701,13.153234,13.15486,13.15682,13.159189,13.161898,13.164944,13.168346,13.171922,13.1754055,13.178925,13.182421,13.18578,13.188878,13.191649,13.194117,13.19631,13.19821,13.200216,13.202549,13.205343,13.208582,13.212006,13.215165,13.217911,13.2201,13.221749,13.223139,13.224531,13.226192,13.228357,13.23074,13.233484,13.23666,13.240137,13.243829,13.247629,13.2514,13.255047,13.258881,13.262875,13.266859,13.270634,13.27408,13.277303,13.28053,13.283963,13.287668,13.291397,13.294716,13.297476,13.299932,13.30245,13.305404,13.308905,13.31278,13.316994,13.321642,13.327127,13.334048,13.3425255,13.353265,13.365404,13.377695,13.388391,13.395969,13.39973,13.399764,13.395166,13.385229,13.368932,13.3466015,13.319863,13.29097,13.262465,13.233908,13.205849,13.180834,13.159988,13.143667,13.131462,13.121969,13.114319,13.107201,13.100267,13.092915,13.084513,13.074982,13.064987,13.055153,13.045101,13.035881,13.027426,13.019126,13.010124,12.999836,12.988752,12.97648,12.96335,12.9498205,12.937138,12.925703,12.914604,12.903431,12.890179,12.874298,12.856309,12.837745,12.820463,12.805776,12.794025,12.7835455,12.773392,12.761891,12.751083,12.742697,12.736545,12.732204,12.728352,12.723209,12.716042,12.706789,12.696016,12.684772,12.674102,12.6643,12.654605,12.644992,12.637022,12.631414,12.62827,12.6275215,12.628344,12.631233,12.636122,12.642593,12.648491,12.650452,12.646433,12.63747,12.624978,12.610519,12.598431,12.590199,12.585186,12.58166,12.577538,12.572622,12.564552,12.556221,12.547459,12.538355,12.529329,12.520352,12.5129795,12.506888,12.502123,12.499293,12.496305,12.488338,12.471218,12.444515,12.403139,12.357512,12.361447,12.41501,12.446387,12.402189,12.297434,12.058275,10.810566,9.843853,9.363978,9.152416,9.154295,9.227546,9.334075,9.504177,9.731466,10.228219,10.944817,11.621502,12.08585,12.174068,12.2917385,12.269846,12.141497,12.02746,11.993438,12.009594,12.028294,12.039897,12.046148,12.046957,12.049143,12.057505,12.069167,12.079464,12.087611,12.09446,12.100852,12.109303,12.122422,12.140931,12.163411,12.1893,12.216816,12.243568,12.26778,12.288689,12.307052,12.323799,12.337269,12.349796,12.360107,12.367365,12.372499,12.376099,12.377619,12.377728
13.091105,13.091553,13.091784,13.0917015,13.091742,13.092058,13.092594,13.093336,13.094036,13.094226,13.093746,13.092339,13.090167,13.08773,13.085512,13.083708,13.082699,13.082178,13.082146,13.082492,13.082814,13.08272,13.082153,13.081083,13.079496,13.07745,13.075146,13.072773,13.070493,13.068363,13.066548,13.06492,13.063498,13.062149,13.060776,13.05933,13.057856,13.056527,13.0555,13.054886,13.054755,13.055044,13.0555725,13.056078,13.056212,13.055893,13.054899,13.052998,13.050518,13.048061,13.04613,13.0449915,13.044409,13.044239,13.044258,13.044218,13.044035,13.043745,13.043421,13.043127,13.042856,13.042366,13.041583,13.0405035,13.03924,13.038027,13.036979,13.036077,13.0352955,13.034523,13.033599,13.032576,13.031719,13.031285,13.031493,13.032488,13.034189,13.036184,13.037987,13.039346,13.040286,13.040958,13.041565,13.042232,13.043039,13.044013,13.045219,13.046658,13.048185,13.05007,13.052387,13.055082,13.058155,13.061631,13.065335,13.06898,13.0727,13.076406,13.079926,13.083085,13.085805,13.088135,13.090166,13.091885,13.093777,13.096067,13.098907,13.102276,13.105869,13.109169,13.112032,13.114307,13.116007,13.117407,13.118762,13.120317,13.122293,13.124405,13.126805,13.129597,13.132716,13.136116,13.1397,13.14333,13.146901,13.150705,13.154757,13.158866,13.162817,13.166465,13.169851,13.173159,13.1766,13.180187,13.183699,13.186798,13.189392,13.191713,13.194104,13.196879,13.200048,13.203405,13.206918,13.210668,13.214994,13.220463,13.227324,13.236174,13.246473,13.25754,13.268074,13.276796,13.283019,13.286425,13.286359,13.281921,13.271778,13.255615,13.234032,13.208473,13.181466,13.152416,13.121971,13.09287,13.066882,13.045102,13.027758,13.013931,13.0028,12.992821,12.983803,12.9751215,12.965946,12.95594,12.945618,12.935598,12.9253645,12.916034,12.907619,12.899515,12.890863,12.881078,12.870571,12.858955,12.846475,12.833547,12.821439,12.810622,12.800244,12.789904,12.777559,12.762507,12.745212,12.7271,12.709957,12.695114,12.682968,12.671848,12.6608,12.648217,12.636185,12.6264925,12.619038,12.61348,12.608643,12.6028,12.595271,12.58601,12.575525,12.564805,12.55489,12.546003,12.537458,12.529138,12.52232,12.517559,12.514972,12.5146,12.515732,12.518995,12.524297,12.53125,12.537657,12.540197,12.536972,12.529036,12.517735,12.504732,12.494213,12.4874935,12.48381,12.481286,12.477697,12.473091,12.465544,12.456556,12.446675,12.436541,12.426889,12.417955,12.409647,12.402424,12.395895,12.391073,12.386322,12.377038,12.359031,12.331689,12.290444,12.242633,12.239567,12.283795,12.309812,12.266217,12.160282,11.8912,10.725672,9.832388,9.384005,9.179828,9.180262,9.259362,9.367393,9.531364,9.755188,10.207169,10.868427,11.515821,11.954557,12.079774,12.173168,12.138453,12.018711,11.921299,11.898046,11.91519,11.933163,11.943895,11.948259,11.947079,11.947109,11.952921,11.96206,11.970123,11.975912,11.980273,11.984133,11.990282,12.001556,12.018456,12.039076,12.062923,12.088045,12.112553,12.135137,12.1554165,12.174237,12.19226,12.207573,12.222311,12.235428,12.245961,12.254674,12.262102,12.267532,12.27109
12.993223,12.994023,12.99454,12.994649,12.994738,12.994972,12.9953785,12.996,12.996593,12.99664,12.995922,12.994175,12.991608,12.988831,12.986412,12.984516,12.983521,12.983086,12.983133,12.983526,12.983828,12.983612,12.982845,12.981558,12.979772,12.977587,12.975212,12.972794,12.970447,12.968224,12.966324,12.964654,12.963297,12.962129,12.961006,12.95981,12.958544,12.957364,12.956442,12.95591,12.955814,12.956104,12.956625,12.957115,12.957239,12.956918,12.955913,12.95396,12.951401,12.948854,12.946859,12.94571,12.945159,12.945047,12.945132,12.94515,12.945021,12.944794,12.944565,12.944361,12.944195,12.943814,12.943112,12.942095,12.940891,12.93972,12.938696,12.937826,12.937067,12.936321,12.935413,12.93437,12.933443,12.932887,12.932915,12.933691,12.935149,12.936896,12.93847,12.939638,12.94046,12.941086,12.941708,12.942446,12.943308,12.944273,12.94541,12.946717,12.948088,12.949807,12.95196,12.954541,12.957569,12.961073,12.964891,12.9686985,12.972645,12.976593,12.980333,12.983637,12.986393,12.988685,12.990652,12.992304,12.994182,12.996535,12.999496,13.003023,13.00678,13.010193,13.013126,13.015416,13.017084,13.018408,13.019641,13.0210285,13.022796,13.024654,13.026769,13.029261,13.03212,13.035318,13.038763,13.042318,13.045864,13.049683,13.053816,13.058067,13.06221,13.066078,13.069657,13.073086,13.07658,13.080133,13.08353,13.086513,13.089016,13.091244,13.093519,13.096122,13.099001,13.10198,13.105043,13.10825,13.111831,13.116238,13.121761,13.128845,13.137163,13.146469,13.155901,13.164491,13.171652,13.176904,13.179907,13.179758,13.175186,13.165364,13.149828,13.129034,13.105097,13.077198,13.04599,13.014188,12.984098,12.957514,12.935268,12.916971,12.901975,12.8885565,12.876766,12.8660755,12.855597,12.844828,12.834086,12.82391,12.8136425,12.804348,12.796062,12.788191,12.779888,12.770584,12.760618,12.749632,12.737778,12.725424,12.713847,12.703565,12.693778,12.684134,12.672573,12.658312,12.641771,12.624311,12.607632,12.5930395,12.580965,12.569666,12.558191,12.544958,12.532009,12.521166,12.512402,12.5054245,12.499222,12.492134,12.483641,12.47379,12.463127,12.452612,12.443174,12.434931,12.427235,12.419867,12.4138565,12.409576,12.407127,12.406636,12.407515,12.410496,12.415475,12.422116,12.428289,12.430841,12.428049,12.420959,12.41082,12.399282,12.390356,12.385146,12.382769,12.381208,12.378055,12.373147,12.366264,12.356986,12.345985,12.33452,12.323474,12.313288,12.304642,12.296812,12.289093,12.283144,12.277483,12.267361,12.248739,12.221144,12.180355,12.1311,12.122221,12.158694,12.181462,12.135801,12.014688,11.732988,10.656094,9.826584,9.403763,9.210895,9.211733,9.293835,9.4032,9.563175,9.78328,10.187367,10.785797,11.3982525,11.816368,11.9777565,12.045013,12.007181,11.901657,11.820284,11.807194,11.824056,11.842014,11.852135,11.855009,11.852248,11.850666,11.854724,11.862216,11.868831,11.873068,11.875563,11.877354,11.881469,11.890808,11.905672,11.923941,11.945034,11.966811,11.987837,12.007275,12.025124,12.042397,12.059668,12.074827,12.089748,12.103524,12.1151085,12.125166,12.134211,12.141464,12.146776
12.901166,12.902096,12.902712,12.902862,12.902903,12.903038,12.903358,12.903931,12.904501,12.904498,12.903666,12.901712,12.898888,12.895873,12.893294,12.891314,12.890282,12.889856,12.889913,12.890291,12.890537,12.89022,12.889319,12.887901,12.8860445,12.883858,12.881548,12.879222,12.876927,12.874699,12.872776,12.87109,12.869767,12.868689,12.867662,12.866556,12.86537,12.864204,12.863262,12.862701,12.862532,12.862744,12.86322,12.863689,12.863824,12.863537,12.862581,12.860668,12.858147,12.855631,12.853666,12.852599,12.852138,12.852105,12.852228,12.852199,12.851946,12.851568,12.851187,12.850867,12.850626,12.85022,12.849556,12.848631,12.847559,12.846541,12.845667,12.844946,12.844327,12.843716,12.842918,12.841925,12.840973,12.840343,12.840216,12.840807,12.842049,12.84357,12.844946,12.845984,12.846754,12.847385,12.848085,12.848936,12.8498745,12.850832,12.8518715,12.853008,12.854171,12.855647,12.857554,12.859924,12.862818,12.866283,12.870161,12.874121,12.878277,12.882475,12.886448,12.889919,12.892761,12.895081,12.897066,12.898735,12.900682,12.903164,12.906296,12.910006,12.91391,12.917406,12.920362,12.922617,12.9241905,12.925373,12.9264345,12.927638,12.929219,12.930893,12.932824,12.935152,12.937871,12.940964,12.94434,12.947862,12.951405,12.955261,12.959493,12.963891,12.9682255,12.972306,12.976082,12.979673,12.983288,12.986919,12.990368,12.993421,12.996021,12.998335,13.000664,13.003251,13.006014,13.008823,13.011665,13.014574,13.017703,13.021383,13.025879,13.031555,13.038246,13.045996,13.05428,13.062368,13.069696,13.075749,13.080402,13.082851,13.082118,13.07717,13.066873,13.050926,13.030853,13.005656,12.975892,12.943953,12.912321,12.883108,12.8574505,12.835427,12.816688,12.799419,12.784056,12.770437,12.757885,12.74585,12.734439,12.72401,12.713703,12.704454,12.69623,12.688419,12.680196,12.6710205,12.6612425,12.650509,12.638922,12.626839,12.615552,12.605597,12.596218,12.5871105,12.576199,12.562708,12.547021,12.530487,12.514734,12.501011,12.489726,12.47904,12.467974,12.454883,12.441668,12.430149,12.420357,12.412027,12.404305,12.395573,12.385517,12.374397,12.36293,12.352108,12.342722,12.334711,12.327475,12.320642,12.315016,12.310835,12.308146,12.307111,12.307304,12.309508,12.313629,12.319418,12.324875,12.327068,12.324459,12.318045,12.308941,12.298677,12.291071,12.287049,12.285659,12.284843,12.282068,12.277058,12.269638,12.261019,12.249933,12.237345,12.225272,12.21396,12.203872,12.194209,12.186022,12.180894,12.176006,12.166067,12.1476145,12.120175,12.080225,12.030195,12.016553,12.04681,12.0673065,12.018436,11.879803,11.591884,10.608894,9.832052,9.427039,9.248539,9.250607,9.333422,9.444481,9.600105,9.8173,10.18627,10.717803,11.279997,11.693751,11.855753,11.923374,11.888096,11.794113,11.727094,11.721071,11.738224,11.756561,11.766375,11.768374,11.764727,11.762258,11.765306,11.771799,11.777459,11.780581,11.781551,11.781563,11.783859,11.791321,11.804037,11.81975,11.837818,11.856269,11.873824,11.889971,11.904888,11.919638,11.934851,11.948426,11.961945,11.97468,11.985626,11.995377,12.004412,12.011945,12.017694
12.8090925,12.810011,12.8105755,12.810635,12.810561,12.810588,12.810851,12.811451,12.8120775,12.812123,12.811286,12.809246,12.806274,12.803123,12.800455,12.7984085,12.79734,12.796899,12.79694,12.797287,12.797481,12.797082,12.796091,12.7946205,12.792767,12.790663,12.788498,12.786327,12.784143,12.78195,12.780029,12.778318,12.77697,12.775879,12.77484,12.773707,12.772486,12.771261,12.77024,12.769585,12.769302,12.769413,12.769821,12.770269,12.770428,12.770218,12.769348,12.7675295,12.765122,12.76273,12.760882,12.759941,12.759621,12.759661,12.759789,12.759625,12.75909,12.758355,12.757614,12.756974,12.756468,12.755898,12.755199,12.754359,12.753452,12.752655,12.752018,12.751537,12.751156,12.750755,12.750124,12.749234,12.748314,12.747637,12.74741,12.74784,12.748888,12.750211,12.751427,12.752385,12.753159,12.753858,12.754681,12.755688,12.756729,12.7577,12.758653,12.759609,12.760518,12.76171,12.763319,12.765415,12.768112,12.771501,12.775415,12.779501,12.783859,12.788286,12.792489,12.796137,12.799082,12.801458,12.803482,12.805193,12.807219,12.809835,12.813129,12.81699,12.8210125,12.824559,12.827488,12.8296585,12.831081,12.832077,12.832949,12.833975,12.835411,12.836981,12.838839,12.8411255,12.843836,12.846924,12.850298,12.853841,12.857419,12.861341,12.865682,12.870221,12.874711,12.878958,12.882905,12.886646,12.890413,12.894194,12.897789,12.901027,12.903862,12.90642,12.908944,12.911663,12.914504,12.917366,12.920235,12.923107,12.926049,12.929298,12.933075,12.93772,12.943148,12.949611,12.95683,12.9641905,12.971123,12.977155,12.982277,12.985899,12.987507,12.98613,12.980276,12.969101,12.953475,12.932263,12.905809,12.87598,12.8450575,12.815082,12.787254,12.76209,12.739634,12.718138,12.698495,12.681146,12.665813,12.652021,12.6396885,12.628915,12.618568,12.609392,12.601212,12.593349,12.584991,12.575662,12.565772,12.554989,12.543393,12.531357,12.52016,12.510357,12.501254,12.492552,12.482195,12.46945,12.454687,12.439248,12.4247265,12.4122925,12.402286,12.392754,12.382664,12.37028,12.357265,12.345394,12.334755,12.325041,12.315624,12.304903,12.29282,12.279929,12.267235,12.255812,12.246251,12.238264,12.231297,12.224779,12.219299,12.214985,12.211806,12.2099285,12.209101,12.210136,12.212965,12.217436,12.221731,12.223231,12.220599,12.214703,12.206505,12.197363,12.190847,12.187714,12.186989,12.186656,12.184145,12.179056,12.171278,12.161942,12.151456,12.13928,12.12608,12.113901,12.102804,12.092007,12.08297,12.077118,12.073082,12.065801,12.049513,12.022354,11.98308,11.934025,11.915785,11.93985,11.958843,11.909441,11.761312,11.450166,10.561858,9.840147,9.454119,9.290626,9.293669,9.378675,9.485278,9.635151,9.850998,10.209626,10.689129,11.181242,11.574355,11.731354,11.801115,11.770365,11.687662,11.634338,11.635636,11.653278,11.672249,11.68206,11.683605,11.679474,11.676485,11.678853,11.684559,11.689337,11.691353,11.690819,11.689193,11.689701,11.695141,11.705597,11.718798,11.733946,11.749182,11.763308,11.776026,11.787714,11.799478,11.8119335,11.823109,11.834324,11.844988,11.854243,11.862669,11.8706875,11.877514,11.882872
12.711394,12.712147,12.71253,12.712425,12.712219,12.712159,12.712407,12.71307,12.713788,12.71394,12.713184,12.711189,12.708232,12.705082,12.702407,12.700334,12.699207,12.698713,12.698685,12.698958,12.6990795,12.698601,12.697535,12.696023,12.694202,12.692219,12.690243,12.688275,12.686253,12.68416,12.682265,12.680517,12.679094,12.677893,12.676732,12.675497,12.6741905,12.672891,12.671786,12.671013,12.670594,12.670557,12.670853,12.671276,12.671467,12.671352,12.670621,12.6689625,12.666725,12.664505,12.662836,12.662064,12.661889,12.662019,12.662129,12.661776,12.660861,12.659628,12.65837,12.657253,12.656349,12.65551,12.654716,12.653943,12.653238,12.652721,12.652395,12.652237,12.652179,12.652068,12.651665,12.650922,12.650063,12.649378,12.649065,12.649348,12.650211,12.651342,12.652405,12.653301,12.654119,12.654955,12.655987,12.657227,12.6584635,12.659521,12.66043,12.661246,12.661928,12.662822,12.664121,12.665926,12.668402,12.671692,12.6756315,12.679817,12.68433,12.688948,12.693321,12.697103,12.700132,12.702549,12.704606,12.706345,12.708435,12.711157,12.714561,12.718513,12.722589,12.7261095,12.728975,12.73103,12.732304,12.733137,12.733854,12.734766,12.736147,12.737726,12.739634,12.742021,12.744837,12.748011,12.75145,12.755049,12.758689,12.762684,12.767107,12.771728,12.776303,12.780647,12.784704,12.7885685,12.792471,12.796377,12.8001,12.803486,12.806506,12.809267,12.811971,12.814846,12.8178425,12.820871,12.823934,12.826971,12.829939,12.832987,12.836288,12.84016,12.8445425,12.849806,12.85587,12.862196,12.868198,12.873544,12.878239,12.881975,12.88477,12.885919,12.883925,12.877615,12.86712,12.851292,12.830153,12.804808,12.776973,12.748194,12.719465,12.691742,12.66549,12.639282,12.614576,12.592644,12.573841,12.557802,12.544186,12.532835,12.522274,12.513026,12.504742,12.49666,12.487968,12.478249,12.467964,12.456863,12.445007,12.43281,12.421526,12.411697,12.402688,12.394221,12.384254,12.372185,12.358332,12.344042,12.330906,12.320011,12.311586,12.303566,12.29488,12.283611,12.271147,12.259211,12.247957,12.237052,12.226022,12.213301,12.199072,12.184195,12.170008,12.157717,12.147749,12.139583,12.1326475,12.126215,12.120642,12.115921,12.111946,12.108852,12.106577,12.105916,12.106846,12.109336,12.111839,12.112165,12.109227,12.103686,12.096376,12.0883255,12.082802,12.0803795,12.080067,12.0799465,12.077549,12.072336,12.064291,12.054489,12.043823,12.032174,12.019425,12.006554,11.994845,11.983337,11.973974,11.968138,11.964837,11.959124,11.944899,11.920406,11.882773,11.835489,11.814393,11.832648,11.849045,11.797878,11.638643,11.325308,10.523506,9.851861,9.487393,9.341183,9.345677,9.43144,9.531604,9.672963,9.886038,10.2381935,10.668498,11.0836525,11.44671,11.611845,11.675743,11.64653,11.576851,11.537603,11.544973,11.563035,11.582559,11.592468,11.593704,11.589176,11.585733,11.587484,11.592421,11.596308,11.597143,11.595326,11.592237,11.591067,11.594534,11.60269,11.61336,11.625536,11.6375065,11.648125,11.65725,11.665398,11.673702,11.682844,11.691137,11.699537,11.707659,11.714815,11.721539,11.72816,11.733927,11.738623
12.611676,12.612108,12.612202,12.611869,12.611518,12.611395,12.611657,12.6123905,12.613185,12.613441,12.612802,12.610928,12.608104,12.605078,12.602478,12.600416,12.599234,12.598646,12.598512,12.598695,12.598744,12.5982065,12.597098,12.59558,12.593828,12.592005,12.590265,12.588559,12.58677,12.584848,12.583036,12.581278,12.579767,12.578396,12.577036,12.575632,12.574194,12.572777,12.571558,12.570625,12.57,12.569751,12.569891,12.570251,12.57048,12.570493,12.56995,12.568517,12.566503,12.564497,12.563034,12.562458,12.562437,12.562668,12.5627575,12.562181,12.560837,12.559027,12.557141,12.555443,12.554046,12.552885,12.55198,12.551303,12.550854,12.550686,12.55073,12.550961,12.551275,12.551492,12.55134,12.550759,12.549985,12.5493145,12.54895,12.549139,12.549861,12.550841,12.551803,12.552695,12.553616,12.554657,12.555981,12.55754,12.559049,12.5602665,12.561207,12.561939,12.562458,12.56311,12.564128,12.56566,12.567922,12.571092,12.575015,12.579247,12.583836,12.588533,12.592989,12.596828,12.599889,12.602327,12.604401,12.606143,12.60825,12.611,12.614428,12.618385,12.622448,12.62593,12.628719,12.630684,12.631863,12.632599,12.633245,12.634148,12.635576,12.637261,12.639331,12.641899,12.644884,12.64818,12.651686,12.6553335,12.659018,12.663052,12.66748,12.672067,12.676586,12.680872,12.6849,12.688782,12.692702,12.696634,12.700367,12.703775,12.706863,12.709729,12.7125435,12.71554,12.718666,12.721873,12.725149,12.7283535,12.731348,12.734223,12.737122,12.740394,12.743973,12.748287,12.753362,12.758682,12.763622,12.7679615,12.771637,12.77461,12.777378,12.779697,12.780426,12.778372,12.773081,12.763572,12.749504,12.731043,12.708912,12.683647,12.655703,12.626396,12.596647,12.5655575,12.535271,12.508045,12.48507,12.466209,12.450827,12.438522,12.427418,12.417855,12.409294,12.400835,12.391636,12.381327,12.370399,12.358721,12.3463745,12.333815,12.322266,12.3122425,12.303133,12.294685,12.284904,12.273312,12.260189,12.246898,12.235077,12.225763,12.219015,12.212704,12.205702,12.195885,12.184374,12.1728325,12.161466,12.149879,12.137657,12.123289,12.107144,12.09038,12.074646,12.061314,12.050724,12.042139,12.034974,12.028359,12.022421,12.017021,12.011959,12.007325,12.00327,12.000516,11.999092,11.999111,11.999363,11.99815,11.994649,11.9893055,11.982798,11.975776,11.971127,11.969224,11.96907,11.968914,11.9664955,11.961195,11.953061,11.943211,11.932375,11.921236,11.909487,11.896584,11.8846245,11.872769,11.863491,11.858213,11.855888,11.851494,11.838877,11.816372,11.781738,11.737066,11.714743,11.727924,11.741434,11.688854,11.519521,11.220539,10.495781,9.868378,9.527094,9.399639,9.404465,9.48745,9.585735,9.716328,9.923064,10.25761,10.647642,11.00658,11.321478,11.495089,11.550547,11.521507,11.4669,11.441231,11.451344,11.470303,11.49006,11.499899,11.50095,11.4961605,11.492304,11.49338,11.497353,11.50013,11.499936,11.496946,11.492453,11.489662,11.491211,11.497128,11.505408,11.514828,11.523776,11.531202,11.5370245,11.541809,11.546713,11.552507,11.557906,11.56352,11.569204,11.57445,11.579649,11.584959,11.589676,11.593639
12.513298,12.513364,12.51314,12.512585,12.512129,12.511988,12.512285,12.513071,12.513893,12.514202,12.513638,12.511875,12.509205,12.506329,12.503799,12.501717,12.500438,12.4997015,12.499426,12.499507,12.499491,12.498917,12.497795,12.496287,12.494617,12.492979,12.491497,12.490095,12.488617,12.486954,12.485317,12.483635,12.4821,12.480598,12.479055,12.47748,12.475897,12.474335,12.47295,12.471796,12.470877,12.47033,12.470238,12.470468,12.470689,12.470795,12.470423,12.469204,12.46741,12.465609,12.464334,12.463926,12.464037,12.464359,12.4644375,12.463676,12.461964,12.459656,12.457215,12.455001,12.453161,12.451719,12.450741,12.450179,12.449986,12.450163,12.450552,12.45114,12.451784,12.452255,12.452269,12.4517765,12.451033,12.450352,12.449938,12.450043,12.4506445,12.451484,12.452347,12.453231,12.454241,12.455464,12.457046,12.458895,12.460646,12.462012,12.462999,12.463687,12.464119,12.464632,12.465481,12.466861,12.4690075,12.472116,12.476034,12.480281,12.484882,12.489581,12.494028,12.497844,12.500868,12.503266,12.505291,12.506975,12.5090065,12.511676,12.515026,12.518913,12.522917,12.526369,12.529133,12.531102,12.532314,12.533093,12.533812,12.534834,12.536417,12.538297,12.540609,12.543402,12.546574,12.549981,12.553523,12.557165,12.560835,12.564826,12.5691185,12.573486,12.57773,12.5817375,12.585548,12.589311,12.5931425,12.59701,12.600679,12.60405,12.607148,12.610058,12.612928,12.6159935,12.619237,12.622439,12.62565,12.628797,12.631723,12.634509,12.637276,12.640137,12.643089,12.646695,12.651061,12.655655,12.659798,12.663296,12.665958,12.667952,12.670148,12.672768,12.675129,12.676232,12.6753025,12.671617,12.66462,12.653675,12.638407,12.618216,12.592897,12.563915,12.532438,12.498119,12.46357,12.431812,12.404793,12.382715,12.364863,12.350769,12.338294,12.32778,12.318537,12.309511,12.299771,12.288889,12.277306,12.265018,12.25213,12.239145,12.227259,12.216953,12.207645,12.199108,12.189403,12.178134,12.165521,12.152883,12.141888,12.133564,12.127859,12.122683,12.116887,12.108257,12.097706,12.086826,12.075806,12.064144,12.051365,12.036076,12.018711,12.000633,11.98373,11.969493,11.958214,11.949041,11.941366,11.934248,11.92761,11.921217,11.914803,11.908448,11.902489,11.897539,11.893654,11.891069,11.888898,11.885904,11.881527,11.876054,11.870005,11.863698,11.859605,11.857904,11.857595,11.857114,11.854494,11.849131,11.841069,11.831519,11.821026,11.810406,11.799711,11.788101,11.7763,11.764615,11.755806,11.751463,11.75042,11.747482,11.736272,11.71472,11.682359,11.64114,11.618851,11.627613,11.638712,11.585589,11.407049,11.127481,10.477352,9.892512,9.571312,9.461969,9.469439,9.542661,9.6397915,9.764482,9.965498,10.273748,10.628146,10.952365,11.222184,11.385576,11.432525,11.403631,11.363519,11.349823,11.360544,11.3804035,11.399832,11.409212,11.409782,11.4046135,11.400192,11.400305,11.40307,11.404646,11.403551,11.399551,11.393888,11.389778,11.3897505,11.393787,11.400042,11.407089,11.413433,11.418194,11.421331,11.423449,11.425686,11.428864,11.432089,11.435669,11.439713,11.443837,11.448177,11.452664,11.45665,11.46
12.419533,12.419266,12.418758,12.418029,12.417517,12.4174,12.417746,12.41855,12.419337,12.419613,12.419046,12.417333,12.414764,12.41198,12.409443,12.407251,12.405784,12.404829,12.404366,12.404312,12.404214,12.403598,12.402464,12.400972,12.399376,12.397919,12.396696,12.395613,12.394501,12.393179,12.391811,12.390333,12.388901,12.387382,12.385746,12.384056,12.382341,12.380613,12.379017,12.377571,12.376284,12.375352,12.374943,12.37496,12.375092,12.375202,12.374921,12.373848,12.372217,12.370567,12.369425,12.369123,12.369308,12.36969,12.369774,12.368914,12.366987,12.364376,12.361593,12.359062,12.356958,12.355363,12.354378,12.353935,12.353951,12.354387,12.355044,12.355884,12.356746,12.35734,12.357376,12.35684,12.356026,12.355274,12.35477,12.354765,12.355219,12.355882,12.356588,12.357393,12.358402,12.359699,12.361406,12.363398,12.365261,12.366679,12.367653,12.368298,12.368679,12.369135,12.369947,12.371334,12.373512,12.376661,12.380621,12.384876,12.389458,12.394127,12.39851,12.402245,12.405186,12.407473,12.409374,12.410912,12.412777,12.415274,12.418474,12.422245,12.426178,12.429622,12.432442,12.43453,12.43593,12.436929,12.437874,12.439133,12.440968,12.443104,12.445697,12.44873,12.452061,12.455534,12.45905,12.462603,12.466166,12.469982,12.473961,12.477896,12.481632,12.485146,12.488569,12.4921055,12.495793,12.499575,12.503183,12.506485,12.509512,12.512367,12.515152,12.518126,12.521312,12.524342,12.527317,12.530259,12.53304,12.535743,12.538489,12.541168,12.543798,12.546994,12.55088,12.554937,12.558559,12.561593,12.563816,12.565533,12.567463,12.570133,12.573402,12.5764885,12.578503,12.579025,12.577258,12.572394,12.563511,12.549068,12.528079,12.501848,12.47155,12.43716,12.401232,12.367,12.336861,12.311469,12.2903805,12.273396,12.258368,12.245918,12.235367,12.225529,12.215292,12.204006,12.191956,12.179231,12.165919,12.152575,12.140373,12.129798,12.1202965,12.111673,12.102056,12.091052,12.078759,12.066352,12.055454,12.04712,12.0413475,12.036188,12.030584,12.022379,12.012426,12.002207,11.991802,11.980595,11.967928,11.95257,11.934929,11.916407,11.898998,11.8842325,11.872353,11.862543,11.854139,11.846226,11.838577,11.830903,11.822954,11.814848,11.807064,11.800104,11.793985,11.789015,11.784533,11.779678,11.774138,11.768131,11.76207,11.756008,11.752047,11.750187,11.749418,11.748355,11.745349,11.73991,11.732028,11.723009,11.713199,11.70322,11.693605,11.683897,11.6733265,11.662485,11.6544285,11.651145,11.651326,11.64959,11.63961,11.619124,11.587481,11.550052,11.52855,11.533323,11.54216,11.490356,11.308699,11.042044,10.466775,9.9251585,9.617483,9.521053,9.534395,9.597561,9.689013,9.814884,10.014292,10.296192,10.613641,10.909867,11.151154,11.289831,11.328042,11.301346,11.272133,11.266588,11.277983,11.297966,11.316414,11.324869,11.324465,11.318589,11.313343,11.312229,11.313677,11.314106,11.312124,11.307377,11.30098,11.296112,11.295015,11.297444,11.301838,11.306908,11.311063,11.313631,11.314656,11.314804,11.31517,11.316559,11.318594,11.321236,11.32476,11.32876,11.333006,11.337217,11.340877,11.343889
12.332758,12.332233,12.331516,12.330686,12.330193,12.330141,12.330513,12.331282,12.331968,12.332134,12.331497,12.329763,12.327227,12.324461,12.321838,12.31946,12.317742,12.31651,12.315814,12.315592,12.315378,12.314692,12.313544,12.312065,12.310535,12.309238,12.308252,12.3074875,12.306752,12.305809,12.304762,12.303579,12.302355,12.300932,12.299301,12.29755,12.29571,12.293798,12.291959,12.290165,12.288466,12.287117,12.286348,12.28611,12.286093,12.286136,12.285864,12.284871,12.283347,12.281793,12.280733,12.280487,12.280694,12.281103,12.281193,12.280302,12.278286,12.275531,12.272591,12.269922,12.267736,12.266129,12.2652025,12.264887,12.2650795,12.265706,12.266567,12.267582,12.268571,12.269199,12.269171,12.268515,12.267572,12.26671,12.266092,12.2659645,12.266256,12.266726,12.267254,12.267936,12.268881,12.270156,12.271881,12.273885,12.275735,12.277102,12.277996,12.278563,12.278883,12.279308,12.280144,12.281615,12.283901,12.287134,12.291149,12.295413,12.299951,12.304569,12.3088875,12.312555,12.315419,12.3176,12.319356,12.320726,12.322395,12.324711,12.327756,12.331411,12.335294,12.338776,12.341707,12.3439865,12.345642,12.346916,12.348122,12.349623,12.3516865,12.354038,12.356838,12.360037,12.363447,12.3668995,12.370319,12.373729,12.377098,12.380629,12.384174,12.387535,12.390631,12.393541,12.396494,12.399719,12.403203,12.406891,12.410438,12.413612,12.416464,12.419125,12.421654,12.42432,12.427109,12.430013,12.432977,12.43581,12.438362,12.440712,12.442988,12.445557,12.448242,12.4513855,12.454956,12.458523,12.461718,12.464554,12.466939,12.4692745,12.471449,12.474148,12.477855,12.481953,12.485596,12.488718,12.490064,12.489361,12.485847,12.477327,12.461911,12.440452,12.413851,12.382193,12.347523,12.312767,12.280504,12.251907,12.22712,12.206459,12.187975,12.172754,12.160322,12.149411,12.138647,12.127062,12.114714,12.101709,12.088097,12.074453,12.061966,12.0511265,12.041445,12.032747,12.023245,12.012484,12.000383,11.987922,11.976625,11.9676,11.960969,11.955032,11.948851,11.940456,11.930763,11.921125,11.911456,11.9010105,11.888913,11.874067,11.856855,11.838581,11.8212185,11.806269,11.793951,11.783552,11.774361,11.765526,11.756726,11.747666,11.738171,11.728435,11.719053,11.7104225,11.702488,11.695547,11.689092,11.68254,11.675785,11.669048,11.662678,11.656545,11.652444,11.650213,11.64884,11.647112,11.643665,11.638166,11.630553,11.622154,11.613073,11.603903,11.595108,11.58636,11.578189,11.568729,11.561598,11.559082,11.560014,11.559001,11.549746,11.53018,11.499479,11.465273,11.444732,11.446123,11.452219,11.404795,11.233693,10.967531,10.462383,9.962637,9.6638975,9.572163,9.58844,9.650555,9.73573,9.864158,10.06232,10.319775,10.603258,10.872802,11.086773,11.207488,11.23819,11.217724,11.19551,11.192667,11.204975,11.224497,11.241512,11.24873,11.247246,11.240509,11.234348,11.232067,11.232216,11.231461,11.228651,11.223358,11.216581,11.211313,11.209272,11.209957,11.212351,11.215696,11.217905,11.218551,11.217735,11.2162075,11.215036,11.214997,11.216421,11.21887,11.222707,11.22731,11.232009,11.23633,11.23992,11.2428
12.248579,12.248145,12.247563,12.246979,12.246971,12.247177,12.247403,12.248034,12.248528,12.248482,12.247694,12.245876,12.243298,12.240465,12.237684,12.235062,12.233066,12.23153,12.230603,12.230207,12.229863,12.229095,12.227887,12.226389,12.224897,12.223725,12.222946,12.222456,12.222057,12.221475,12.220747,12.219867,12.218886,12.217609,12.216038,12.214263,12.212318,12.210241,12.208147,12.206026,12.203943,12.202211,12.201105,12.200592,12.2003765,12.200284,12.19994,12.198957,12.197481,12.195986,12.194978,12.194746,12.194943,12.19534,12.195385,12.194433,12.19236,12.189537,12.186525,12.183829,12.181648,12.180109,12.179289,12.1791115,12.1794615,12.180256,12.18128,12.182436,12.18351,12.184138,12.184019,12.183228,12.182164,12.181192,12.180489,12.1802635,12.180431,12.180755,12.181142,12.18171,12.182583,12.183834,12.185539,12.187523,12.189318,12.190586,12.191368,12.191832,12.192088,12.192499,12.19339,12.194979,12.197407,12.200756,12.204839,12.20911,12.213638,12.218267,12.222595,12.226288,12.229183,12.23135,12.23304,12.234331,12.235912,12.238138,12.241133,12.2447815,12.248697,12.252296,12.255419,12.257933,12.259687,12.260962,12.262117,12.263503,12.265429,12.267645,12.2703285,12.273405,12.276691,12.280045,12.283393,12.286739,12.289997,12.2933,12.296449,12.299282,12.301781,12.304121,12.306601,12.309433,12.312571,12.316012,12.319454,12.322733,12.325787,12.3285675,12.331152,12.333766,12.3364725,12.339279,12.342091,12.344702,12.346931,12.348845,12.350637,12.352713,12.354971,12.357818,12.361214,12.36471,12.367911,12.370727,12.373016,12.375097,12.377474,12.38063,12.384638,12.389053,12.39329,12.397549,12.401247,12.403885,12.404404,12.400917,12.391933,12.377587,12.356489,12.329546,12.298128,12.264496,12.231043,12.199488,12.170887,12.146137,12.12373,12.105328,12.090641,12.07838,12.066964,12.055057,12.042485,12.029268,12.015402,12.0014515,11.988593,11.977383,11.967422,11.958596,11.949205,11.938742,11.926913,11.914478,11.902794,11.892919,11.885165,11.878132,11.870986,11.862043,11.8523035,11.843006,11.833879,11.824049,11.812461,11.798178,11.781543,11.763771,11.746743,11.731876,11.719321,11.708458,11.698562,11.688831,11.678892,11.668491,11.657579,11.646444,11.635767,11.62586,11.616526,11.608068,11.600073,11.592125,11.584288,11.576829,11.570023,11.563636,11.559213,11.556474,11.55444,11.552054,11.548197,11.542721,11.535437,11.527652,11.519245,11.5107155,11.502605,11.494579,11.48698,11.479478,11.47435,11.472519,11.473394,11.472596,11.463802,11.444895,11.41507,11.382945,11.363752,11.363178,11.366571,11.323103,11.165239,10.896462,10.459527,10.00081,9.711451,9.6224575,9.632879,9.682903,9.769325,9.904964,10.093965,10.334928,10.598396,10.841522,11.030745,11.135927,11.159834,11.145843,11.128569,11.125811,11.1383705,11.157936,11.17346,11.179542,11.177195,11.169745,11.162759,11.159353,11.1581745,11.156214,11.152632,11.146867,11.140038,11.133953,11.130186,11.129303,11.130532,11.131947,11.131958,11.130491,11.12784,11.124832,11.122631,11.122049,11.123225,11.125605,11.130005,11.135744,11.141574,11.146557,11.150254,11.152634
12.158834,12.158272,12.157587,12.15699,12.157003,12.15751,12.158306,12.159407,12.160286,12.160482,12.159586,12.157616,12.154949,12.151997,12.14901,12.146091,12.1437645,12.14192,12.1407585,12.14019,12.13969,12.138785,12.137472,12.1358795,12.134343,12.1332035,12.132538,12.1322365,12.132097,12.131819,12.131395,12.130836,12.13015,12.129119,12.1277075,12.126004,12.124046,12.121876,12.119612,12.117254,12.114878,12.112846,12.111446,12.110634,12.110174,12.109868,12.109341,12.108255,12.106749,12.105275,12.104307,12.104095,12.104275,12.104668,12.104689,12.103703,12.101602,12.098782,12.095804,12.0931635,12.091074,12.089642,12.088907,12.088802,12.089225,12.090073,12.091164,12.0924015,12.093511,12.094106,12.093883,12.092966,12.09181,12.090773,12.090029,12.089756,12.089821,12.09001,12.090252,12.090683,12.091466,12.092653,12.0942955,12.096209,12.097897,12.09903,12.099667,12.099991,12.100143,12.100527,12.101484,12.103222,12.105838,12.10936,12.113547,12.117878,12.122553,12.127375,12.131943,12.135895,12.13901,12.141313,12.143033,12.144093,12.145209,12.146842,12.14916,12.15211,12.155412,12.15855,12.161386,12.163803,12.165719,12.1672325,12.168571,12.1701145,12.172188,12.174549,12.177385,12.180595,12.183981,12.187389,12.190769,12.19412,12.197319,12.200443,12.203205,12.205475,12.207338,12.209082,12.211081,12.213561,12.216464,12.219807,12.223282,12.226694,12.229904,12.232781,12.235368,12.237895,12.240487,12.243114,12.245675,12.247948,12.249737,12.251106,12.25231,12.253787,12.255539,12.258031,12.261206,12.264597,12.267805,12.270636,12.272892,12.274872,12.277067,12.27997,12.283766,12.288183,12.292738,12.297773,12.302805,12.307779,12.311454,12.312224,12.309187,12.302143,12.290119,12.272087,12.247328,12.216755,12.18291,12.14856,12.115763,12.086184,12.058933,12.036438,12.018734,12.004599,11.992242,11.979887,11.9671135,11.95373,11.939634,11.9253235,11.911943,11.900164,11.889794,11.880775,11.871554,11.861532,11.850186,11.837954,11.825931,11.815113,11.8059845,11.797454,11.788883,11.778862,11.768568,11.759143,11.750141,11.740631,11.729441,11.715704,11.6997795,11.682745,11.666324,11.651788,11.639193,11.628027,11.617514,11.606945,11.59588,11.58416,11.571917,11.559565,11.547824,11.536948,11.526556,11.516924,11.507675,11.498536,11.489717,11.481532,11.47422,11.467447,11.4625635,11.459211,11.456455,11.453386,11.4491005,11.443623,11.436636,11.42935,11.421448,11.413324,11.405594,11.398008,11.390825,11.38375,11.379816,11.379919,11.381371,11.3797865,11.371164,11.35278,11.324022,11.29237,11.27434,11.274709,11.275761,11.23168,11.089295,10.841417,10.463076,10.040224,9.7628765,9.672127,9.67058,9.717777,9.805149,9.940933,10.123974,10.351469,10.593386,10.809549,10.974325,11.064833,11.082122,11.0741005,11.061308,11.057994,11.069916,11.08906,11.102842,11.107754,11.104672,11.096701,11.089014,11.08449,11.081915,11.078701,11.074364,11.068352,11.061365,11.054333,11.049481,11.047846,11.047222,11.046667,11.044676,11.041413,11.037393,11.03347,11.030661,11.029641,11.030565,11.032854,11.037523,11.043828,11.050169,11.055323,11.058865,11.060848
12.0654125,12.064651,12.063786,12.063044,12.062924,12.06344,12.064373,12.065524,12.066408,12.066652,12.0659485,12.064207,12.061733,12.058918,12.056021,12.053209,12.050979,12.048916,12.04752,12.04677,12.046085,12.04497,12.043415,12.041613,12.039908,12.038638,12.037899,12.037588,12.037497,12.037319,12.0370245,12.03665,12.036192,12.035396,12.034198,12.0326605,12.0308,12.028671,12.0264015,12.023979,12.0215,12.019329,12.017748,12.016726,12.016039,12.015485,12.014715,12.0134325,12.011797,12.010252,12.009261,12.00904,12.009216,12.009613,12.009653,12.008708,12.006693,12.004017,12.001205,11.998749,11.996853,11.99557,11.994922,11.994839,11.995238,11.9960575,11.997144,11.998369,11.999453,12.000006,11.999727,11.998772,11.997629,11.996662,11.996018,11.995863,11.996014,11.996243,11.996496,11.996932,11.997745,11.9989605,12.000656,12.002617,12.004324,12.005445,12.006049,12.006348,12.00654,12.007028,12.008209,12.010258,12.013221,12.017067,12.021519,12.026062,12.030268,12.034636,12.038866,12.042567,12.045485,12.047597,12.049107,12.050071,12.051109,12.052603,12.05472,12.057438,12.060533,12.063574,12.066431,12.068985,12.071186,12.073023,12.074648,12.076442,12.078745,12.081319,12.084373,12.087775,12.091303,12.094791,12.098189,12.101496,12.104562,12.1074295,12.109738,12.11136,12.112434,12.113379,12.114679,12.116596,12.11904,12.122049,12.125315,12.128618,12.131748,12.134508,12.136929,12.139215,12.141579,12.144047,12.146444,12.1484585,12.149847,12.150654,12.151178,12.15192,12.153028,12.155022,12.157814,12.160942,12.164014,12.166731,12.168882,12.170702,12.17255,12.174988,12.178389,12.182614,12.187234,12.192671,12.198418,12.204471,12.210033,12.214,12.21557,12.214251,12.209071,12.198931,12.1824875,12.15926,12.12891,12.093409,12.057785,12.0245285,11.993113,11.966608,11.945436,11.928644,11.914484,11.900968,11.887611,11.873861,11.8595085,11.844934,11.831109,11.818741,11.807878,11.798533,11.789301,11.779507,11.768448,11.756306,11.743931,11.732213,11.7217655,11.711775,11.701689,11.690376,11.679197,11.669271,11.66007,11.650655,11.639779,11.626619,11.611504,11.595367,11.579758,11.565779,11.553421,11.542227,11.531424,11.520316,11.508413,11.49568,11.482449,11.469234,11.456791,11.445303,11.434235,11.423808,11.413691,11.403732,11.394255,11.385595,11.3779335,11.370869,11.365589,11.361692,11.3583,11.354643,11.349983,11.344497,11.33777,11.330864,11.323315,11.315424,11.30785,11.300459,11.29344,11.286286,11.282115,11.282511,11.284908,11.283794,11.274612,11.256581,11.227835,11.197617,11.181524,11.183105,11.182957,11.140095,11.013711,10.788906,10.456034,10.072752,9.814995,9.719746,9.703605,9.753148,9.840841,9.974825,10.152437,10.36693,10.586812,10.776823,10.9192705,10.9944,11.007745,11.004182,10.994584,10.99099,11.002218,11.020684,11.0328865,11.036869,11.033467,11.025345,11.0172615,11.011835,11.007933,11.003521,10.998491,10.992395,10.984612,10.976931,10.971859,10.969429,10.967266,10.965118,10.961494,10.956835,10.951857,10.947382,10.944216,10.9428425,10.943403,10.945419,10.949986,10.956337,10.962687,10.96762,10.970703,10.972147
11.970264,11.969305,11.968241,11.96731,11.967024,11.967346,11.96803,11.968892,11.969477,11.969521,11.968876,11.967287,11.96496,11.962303,11.959586,11.956971,11.954943,11.953068,11.951838,11.951205,11.950613,11.949607,11.9481325,11.946086,11.944042,11.942421,11.941362,11.940768,11.940449,11.94012,11.939739,11.939355,11.938988,11.9383545,11.9373665,11.936057,11.934412,11.932472,11.930386,11.928131,11.925791,11.923697,11.922113,11.921009,11.920172,11.91943,11.918428,11.916912,11.9150715,11.913379,11.91231,11.912063,11.912268,11.912706,11.912832,11.912016,11.910205,11.90781,11.9053,11.903135,11.901502,11.900391,11.899801,11.89968,11.899984,11.9007,11.901688,11.902813,11.903818,11.904316,11.904028,11.903135,11.902136,11.901373,11.900995,11.901146,11.901608,11.902122,11.902634,11.903316,11.904368,11.905833,11.907824,11.910105,11.912113,11.913496,11.914307,11.914717,11.914857,11.915355,11.916567,11.918641,11.921564,11.925238,11.929371,11.933546,11.9373665,11.941454,11.945542,11.949236,11.952244,11.954492,11.956133,11.957413,11.958847,11.960705,11.963134,11.96611,11.969415,11.972691,11.975811,11.978678,11.981193,11.983334,11.985247,11.98731,11.989868,11.9927,11.99601,11.999664,12.003399,12.007019,12.010473,12.013752,12.016651,12.019198,12.020964,12.021805,12.021889,12.021742,12.021997,12.022943,12.0245285,12.02677,12.029389,12.032181,12.034874,12.037213,12.039249,12.041126,12.043161,12.04545,12.047712,12.049501,12.050489,12.050705,12.050554,12.050513,12.050868,12.052165,12.054335,12.056949,12.059626,12.062021,12.0639305,12.065454,12.066906,12.068931,12.0720215,12.0760975,12.080704,12.086091,12.091623,12.097665,12.103965,12.109713,12.11409,12.116451,12.115402,12.110661,12.100904,12.084955,12.061535,12.030719,11.995567,11.960668,11.926757,11.897062,11.872326,11.852089,11.835013,11.819319,11.804689,11.790173,11.775452,11.760715,11.746614,11.733761,11.722363,11.712545,11.703009,11.693054,11.681894,11.669588,11.6568365,11.644407,11.632952,11.621832,11.610439,11.597828,11.585527,11.574753,11.56503,11.555456,11.544767,11.532134,11.517782,11.502537,11.487773,11.47447,11.462599,11.451691,11.44099,11.429761,11.417464,11.404181,11.390427,11.376799,11.364052,11.35232,11.340923,11.330065,11.319486,11.309143,11.299422,11.290659,11.28294,11.275795,11.270283,11.266003,11.262152,11.258062,11.253132,11.247622,11.241092,11.234448,11.227147,11.219416,11.21191,11.204571,11.197546,11.190243,11.185217,11.184336,11.186079,11.184942,11.175436,11.157146,11.129104,11.102579,11.088455,11.09064,11.09103,11.051363,10.938325,10.733224,10.433006,10.096386,9.862066,9.759146,9.733795,9.785578,9.872789,10.004719,10.176201,10.37719,10.575501,10.741114,10.863724,10.923899,10.938218,10.936907,10.928158,10.924828,10.935917,10.953537,10.964449,10.967867,10.964649,10.956893,10.948872,10.942898,10.937901,10.932446,10.926865,10.92054,10.9120865,10.904286,10.899229,10.895882,10.89279,10.889604,10.884945,10.879444,10.873964,10.869247,10.865877,10.864194,10.864206,10.865681,10.8697,10.875549,10.881397,10.885697,10.887978,10.88861
11.875587,11.874398,11.873106,11.87196,11.871454,11.871557,11.872009,11.87262,11.8729515,11.872759,11.871876,11.870134,11.867758,11.865143,11.86252,11.859948,11.85795,11.856411,11.85552,11.855141,11.85478,11.854027,11.852797,11.850752,11.848597,11.846815,11.845556,11.844736,11.844152,11.843515,11.842871,11.842314,11.841916,11.841377,11.840565,11.839485,11.838102,11.836447,11.83467,11.832751,11.830732,11.828895,11.8274555,11.826372,11.825479,11.824621,11.823436,11.821683,11.819601,11.817727,11.816561,11.816309,11.816584,11.817142,11.817438,11.816843,11.815332,11.813322,11.811217,11.809413,11.808077,11.807135,11.806561,11.80635,11.806521,11.807086,11.807922,11.8089285,11.809845,11.810301,11.81005,11.809298,11.808529,11.8080635,11.808072,11.808673,11.8096075,11.81053,11.811323,11.812193,11.813406,11.814999,11.817099,11.819501,11.821661,11.823223,11.824236,11.824804,11.824962,11.825533,11.826792,11.828842,11.83164,11.835007,11.838634,11.842253,11.8462305,11.850662,11.855239,11.859565,11.863293,11.866228,11.868383,11.870173,11.872068,11.874336,11.877108,11.88035,11.883865,11.887328,11.890624,11.893709,11.896467,11.898868,11.901037,11.903324,11.906059,11.909054,11.912509,11.916338,11.920248,11.923987,11.927464,11.930649,11.93331,11.935503,11.936775,11.936991,11.936322,11.935321,11.934662,11.934652,11.935083,11.936172,11.937771,11.939695,11.941631,11.943286,11.9447365,11.946083,11.947748,11.949832,11.951971,11.953571,11.954182,11.953827,11.9530525,11.952244,11.951784,11.952223,11.953533,11.955367,11.957381,11.9592495,11.960773,11.961966,11.963114,11.964804,11.967464,11.971039,11.97519,11.979978,11.984646,11.990122,11.996333,12.002557,12.008217,12.012714,12.014698,12.013893,12.008641,11.997591,11.980897,11.95809,11.928213,11.895262,11.860876,11.828886,11.800707,11.776512,11.755609,11.736856,11.720322,11.704618,11.689404,11.674606,11.660458,11.647345,11.635527,11.625196,11.615147,11.6046505,11.592955,11.580102,11.566759,11.553673,11.541447,11.529488,11.517061,11.503294,11.48983,11.478043,11.467624,11.457766,11.447203,11.4350605,11.421438,11.407044,11.39312,11.380564,11.369345,11.358967,11.348661,11.337631,11.325262,11.31176,11.297815,11.284092,11.271332,11.259634,11.248196,11.237217,11.226538,11.216213,11.206642,11.198113,11.190622,11.183615,11.178062,11.173597,11.169476,11.165102,11.159964,11.154353,11.147849,11.141271,11.134058,11.126423,11.119007,11.111771,11.104866,11.097563,11.092087,11.089992,11.089745,11.087095,11.077547,11.059032,11.033017,11.010021,10.997719,10.999361,10.999685,10.96417,10.861577,10.675399,10.401905,10.111631,9.897787,9.787664,9.762047,9.813757,9.899483,10.028278,10.192678,10.379445,10.557049,10.70052,10.805056,10.853724,10.870924,10.870508,10.86125,10.858476,10.870142,10.887073,10.897028,10.900299,10.897749,10.890926,10.883535,10.877529,10.871904,10.865805,10.85998,10.853417,10.845139,10.837693,10.8325,10.82844,10.824726,10.8209,10.815731,10.809847,10.804213,10.799473,10.796013,10.794067,10.793468,10.79423,10.797371,10.802252,10.807118,10.810377,10.811531,10.811108
11.784046,11.78266,11.781173,11.779815,11.779066,11.778912,11.779106,11.779456,11.779551,11.779165,11.778157,11.776409,11.774168,11.771784,11.769414,11.767038,11.765125,11.763569,11.762626,11.762212,11.761821,11.760971,11.759598,11.757818,11.756004,11.75448,11.753368,11.752588,11.751892,11.750958,11.750005,11.749236,11.748777,11.748318,11.747681,11.746828,11.745705,11.744359,11.7429495,11.74143,11.73983,11.7383585,11.737177,11.736248,11.735414,11.734526,11.733244,11.731306,11.729007,11.726941,11.725651,11.7253895,11.725746,11.726462,11.726995,11.726721,11.725615,11.724062,11.722412,11.720984,11.719935,11.719127,11.718555,11.718268,11.718325,11.718771,11.719496,11.720386,11.721197,11.721595,11.721361,11.720708,11.720108,11.71987,11.720173,11.721127,11.722441,11.723666,11.724567,11.725372,11.7264805,11.7278595,11.729628,11.731667,11.733538,11.734951,11.735971,11.736733,11.737344,11.738422,11.74025,11.742886,11.746185,11.749899,11.753733,11.757507,11.761552,11.766144,11.771053,11.775864,11.780185,11.783699,11.786207,11.788394,11.790668,11.793275,11.796328,11.799782,11.803459,11.80705,11.81045,11.813648,11.816554,11.819145,11.821506,11.823908,11.826649,11.82959,11.832949,11.836706,11.840601,11.844309,11.847637,11.850531,11.852814,11.854611,11.855517,11.8554325,11.854502,11.853186,11.852085,11.851486,11.850794,11.850681,11.851174,11.852141,11.853241,11.854166,11.855017,11.85587,11.857228,11.859179,11.861297,11.862852,11.863258,11.862507,11.861204,11.859699,11.858447,11.857981,11.858299,11.859149,11.860283,11.861397,11.862329,11.863108,11.863987,11.865305,11.867228,11.869723,11.872796,11.876658,11.880686,11.885515,11.89109,11.897001,11.902939,11.908392,11.912181,11.914183,11.91288,11.906681,11.894459,11.876747,11.85514,11.828274,11.796109,11.763416,11.732369,11.70406,11.67886,11.656548,11.637704,11.6205,11.60467,11.589892,11.575925,11.562834,11.550815,11.540047,11.529387,11.518031,11.505352,11.491468,11.4771385,11.463211,11.450264,11.43763,11.42446,11.409864,11.395518,11.382912,11.371925,11.3618965,11.351533,11.339951,11.327089,11.313553,11.300486,11.288725,11.27824,11.268492,11.258711,11.247977,11.235617,11.221979,11.207943,11.194235,11.181578,11.170055,11.1587715,11.1479,11.1373825,11.127369,11.118242,11.110182,11.103104,11.096405,11.090984,11.0865,11.082256,11.077686,11.072329,11.066475,11.059747,11.052946,11.045576,11.037928,11.030676,11.02376,11.017314,11.0105,11.005217,11.002692,11.001371,10.997469,10.98731,10.969511,10.945211,10.923056,10.912922,10.91209,10.90893,10.87848,10.785004,10.616916,10.371223,10.117079,9.91966,9.809669,9.788097,9.83827,9.921432,10.045764,10.201853,10.373583,10.531765,10.655882,10.744135,10.785847,10.80274,10.803127,10.794054,10.792003,10.804792,10.821556,10.830986,10.834555,10.833083,10.827675,10.821468,10.816032,10.810432,10.804305,10.798687,10.7924385,10.784939,10.778059,10.772818,10.768364,10.764059,10.75976,10.754308,10.748213,10.742523,10.737837,10.734381,10.732281,10.731214,10.731312,10.733509,10.737226,10.740829,10.742786,10.742596,10.740933
11.696256,11.694986,11.693502,11.692026,11.691046,11.690599,11.69052,11.690662,11.690626,11.690218,11.689306,11.68788,11.686171,11.684448,11.682785,11.68103,11.679333,11.67783,11.67689,11.676497,11.676151,11.675337,11.673948,11.672047,11.670036,11.668234,11.666777,11.665599,11.664555,11.663479,11.662473,11.661656,11.661239,11.6609535,11.660624,11.660138,11.659378,11.658404,11.657402,11.656376,11.655325,11.654404,11.653722,11.65321,11.6526785,11.6520195,11.650858,11.64892,11.646519,11.644266,11.642769,11.642379,11.642693,11.643493,11.644264,11.644369,11.643759,11.642744,11.641537,11.640413,11.639541,11.638796,11.638226,11.637947,11.638036,11.638475,11.63911,11.639807,11.6403265,11.640402,11.639892,11.639023,11.638222,11.637743,11.637783,11.638448,11.639534,11.64073,11.641874,11.643063,11.644468,11.646135,11.648213,11.650587,11.652809,11.654584,11.655988,11.65715,11.658177,11.659754,11.662129,11.665348,11.6689,11.67237,11.675802,11.679164,11.682778,11.686977,11.691614,11.69631,11.700703,11.704561,11.707775,11.71063,11.713563,11.7167425,11.720247,11.724016,11.727879,11.731573,11.735046,11.738297,11.741247,11.743898,11.7463455,11.748854,11.751703,11.7547455,11.758181,11.761973,11.765865,11.76951,11.772703,11.775394,11.77739,11.778794,11.779177,11.778456,11.776776,11.774583,11.772467,11.770789,11.769474,11.768669,11.768446,11.768746,11.769306,11.769869,11.770521,11.771276,11.7726145,11.774548,11.776653,11.7782,11.778552,11.777666,11.776121,11.774209,11.772348,11.771057,11.77038,11.770134,11.7701435,11.770172,11.770098,11.769934,11.769922,11.770515,11.771969,11.774142,11.776827,11.780212,11.783661,11.78776,11.792494,11.797558,11.802801,11.807941,11.812103,11.815441,11.816822,11.814682,11.807518,11.794883,11.77777,11.757237,11.731485,11.702141,11.669706,11.63716,11.607529,11.581396,11.55986,11.540825,11.524145,11.509269,11.495513,11.482552,11.470383,11.459162,11.447758,11.43527,11.421259,11.406015,11.390484,11.375654,11.362106,11.349064,11.335549,11.320596,11.305811,11.292746,11.28145,11.271376,11.261234,11.250172,11.237951,11.225121,11.212781,11.201731,11.1919365,11.1827965,11.173494,11.163019,11.150648,11.136879,11.12277,11.109103,11.096622,11.085324,11.074265,11.063618,11.0534,11.043833,11.035264,11.027777,11.021194,11.0148735,11.009638,11.005169,11.00083,10.996077,10.990456,10.984236,10.977085,10.969859,10.96215,10.954414,10.947409,10.940996,10.935296,10.9293785,10.924846,10.92254,10.920786,10.916195,10.905745,10.888433,10.865551,10.844127,10.835167,10.830654,10.822344,10.793762,10.706226,10.558472,10.340139,10.111263,9.9316025,9.830525,9.810653,9.858807,9.938547,10.057312,10.204052,10.360716,10.501236,10.609153,10.684204,10.720584,10.734713,10.735287,10.726934,10.725981,10.740112,10.756989,10.766244,10.770439,10.770298,10.766604,10.761936,10.757505,10.752479,10.74684,10.741804,10.736586,10.730085,10.723599,10.718414,10.713913,10.708956,10.704233,10.698638,10.692504,10.686892,10.682382,10.679081,10.676978,10.675638,10.67524,10.67658,10.679121,10.681355,10.68186,10.6802025,10.677144
11.602451,11.601046,11.599417,11.597784,11.596608,11.595955,11.595667,11.595591,11.595356,11.5947895,11.593777,11.592369,11.590828,11.589388,11.588041,11.586582,11.585352,11.584319,11.583775,11.583695,11.583623,11.583081,11.581936,11.580229,11.578304,11.57639,11.574603,11.57294,11.571364,11.569816,11.568493,11.567489,11.566998,11.566729,11.566469,11.566097,11.565522,11.564818,11.564169,11.563545,11.562907,11.562332,11.561892,11.56155,11.5611515,11.560598,11.559561,11.557737,11.555442,11.553279,11.551836,11.551491,11.551888,11.552837,11.553846,11.554325,11.554211,11.55371,11.552908,11.552037,11.551258,11.5504465,11.54973,11.549282,11.549187,11.549412,11.549793,11.550231,11.550546,11.550548,11.5501175,11.549444,11.548911,11.548753,11.54911,11.550154,11.5516815,11.553378,11.555026,11.556621,11.558292,11.56009,11.562167,11.56445,11.566572,11.568338,11.569888,11.571361,11.572799,11.574823,11.577557,11.580912,11.584556,11.588194,11.5917,11.595057,11.598658,11.602921,11.607756,11.612803,11.617689,11.622164,11.62608,11.629676,11.633375,11.637257,11.641331,11.645487,11.649555,11.6533375,11.656791,11.659967,11.662798,11.665325,11.66768,11.670123,11.672917,11.675926,11.679284,11.682984,11.686792,11.690352,11.693417,11.695921,11.69771,11.698815,11.69883,11.697654,11.695393,11.692459,11.689463,11.6868305,11.684605,11.682823,11.68169,11.681144,11.680892,11.680729,11.68076,11.68103,11.682027,11.683706,11.685659,11.687052,11.68714,11.685921,11.68397,11.681552,11.679121,11.677149,11.675661,11.674552,11.673729,11.672985,11.672256,11.671518,11.670979,11.671058,11.671993,11.673646,11.67581,11.678571,11.681399,11.68473,11.688574,11.6927595,11.697231,11.701834,11.705999,11.710049,11.713357,11.714455,11.711509,11.703474,11.690704,11.673944,11.6524725,11.627661,11.598853,11.566862,11.534334,11.5043125,11.480053,11.458899,11.440788,11.425055,11.41077,11.397343,11.384576,11.372606,11.3602915,11.346661,11.33149,11.315169,11.298733,11.2833,11.2694645,11.256331,11.242912,11.228125,11.213407,11.20027,11.188869,11.17877,11.168754,11.158006,11.146173,11.133779,11.1219,11.111331,11.102043,11.09337,11.084467,11.07424,11.061932,11.048214,11.034294,11.020943,11.008848,10.997949,10.987235,10.976869,10.966975,10.957861,10.949842,10.942905,10.936781,10.930803,10.925727,10.921282,10.9168825,10.9119835,10.906116,10.899482,10.8918295,10.884077,10.875963,10.868172,10.861564,10.855933,10.851374,10.846886,10.843864,10.84268,10.841388,10.836807,10.826416,10.809509,10.787636,10.766285,10.756468,10.749537,10.735636,10.702637,10.62352,10.494747,10.303742,10.101852,9.941381,9.849846,9.832115,9.8777075,9.952997,10.064558,10.199947,10.340273,10.462585,10.55418,10.616668,10.648687,10.66136,10.660048,10.65348,10.655966,10.671315,10.688204,10.697563,10.702612,10.704047,10.702417,10.699748,10.696894,10.693115,10.6886215,10.684733,10.68058,10.6762705,10.671188,10.666025,10.661795,10.657637,10.652502,10.646724,10.640423,10.634644,10.629999,10.626573,10.62429,10.622629,10.621695,10.622156,10.623455,10.624189,10.623052,10.619703,10.61499
11.504046,11.502523,11.500807,11.4990635,11.497757,11.496981,11.496568,11.496334,11.495956,11.495274,11.494165,11.492768,11.491374,11.4902,11.489171,11.488004,11.487125,11.486441,11.486214,11.486455,11.48674,11.486574,11.485764,11.484322,11.482559,11.480652,11.478706,11.476763,11.47484,11.472928,11.471342,11.470158,11.469579,11.469334,11.469177,11.468962,11.4686,11.468168,11.467842,11.467575,11.467298,11.467026,11.466788,11.466558,11.466215,11.46567,11.464634,11.462805,11.460484,11.458267,11.456786,11.456453,11.456903,11.457962,11.4592,11.460001,11.460264,11.460143,11.45962,11.458921,11.458186,11.457279,11.456379,11.455705,11.455391,11.45546,11.45572,11.456072,11.456351,11.456376,11.456026,11.455491,11.455164,11.455263,11.4559555,11.457421,11.4594555,11.461676,11.463791,11.465778,11.467765,11.469803,11.472063,11.474512,11.476828,11.478867,11.480804,11.482779,11.484783,11.487408,11.490675,11.494409,11.498322,11.502149,11.505699,11.508976,11.512476,11.516693,11.521601,11.526869,11.532135,11.537134,11.54167,11.545981,11.550645,11.555647,11.560786,11.565748,11.570269,11.57419,11.577511,11.58036,11.58276,11.584867,11.586871,11.589047,11.591654,11.594522,11.597784,11.601481,11.605381,11.609058,11.612171,11.614616,11.616262,11.617084,11.616684,11.614937,11.611891,11.607942,11.603764,11.599914,11.596525,11.593757,11.591698,11.590254,11.589171,11.588266,11.58766,11.587423,11.588011,11.5893345,11.590979,11.592041,11.591741,11.590139,11.587834,11.584996,11.582104,11.579563,11.577395,11.575543,11.573973,11.572554,11.57118,11.569879,11.568819,11.568377,11.56875,11.569801,11.571386,11.57358,11.575922,11.578791,11.582165,11.5858135,11.589634,11.593569,11.597345,11.601406,11.605527,11.60841,11.608252,11.603759,11.59469,11.58131,11.563343,11.541534,11.516115,11.488031,11.458341,11.428511,11.402325,11.378472,11.357906,11.340055,11.323921,11.308938,11.294857,11.281641,11.268133,11.253328,11.237217,11.220217,11.203314,11.187675,11.173943,11.161103,11.148308,11.134342,11.120369,11.107731,11.096569,11.086511,11.07651,11.065817,11.054063,11.04179,11.030064,11.019693,11.010681,11.002303,10.993639,10.983585,10.971386,10.957855,10.944327,10.931528,10.920015,10.909634,10.899323,10.889208,10.879544,10.870754,10.863125,10.856543,10.850695,10.844875,10.839796,10.83524,10.83069,10.825602,10.819447,10.812317,10.804028,10.795582,10.786918,10.7789955,10.772833,10.768154,10.765034,10.76248,10.76169,10.7625065,10.762659,10.758919,10.748906,10.732243,10.710912,10.688892,10.67634,10.665535,10.645679,10.608366,10.538588,10.42485,10.260305,10.086369,9.946665,9.866108,9.851192,9.893882,9.963663,10.066319,10.188326,10.310647,10.414414,10.490584,10.541424,10.569569,10.579626,10.5783205,10.575144,10.581337,10.597815,10.614284,10.623973,10.630056,10.63324,10.633957,10.633686,10.632965,10.631168,10.628531,10.626461,10.624046,10.621435,10.618168,10.614521,10.610981,10.606977,10.602154,10.59667,10.590481,10.584747,10.580235,10.5767765,10.573985,10.571911,10.570417,10.570008,10.570057,10.56918,10.566177,10.560865,10.554209
