4.2264853,4.2169237,4.218322,4.244109,4.2911243,4.36662,4.5346336,4.8907433,5.525345,6.78506,8.174675,9.210618,9.513708,9.36462,9.426559,9.412174,9.3591,9.31665,9.275576,9.274509,9.31329,9.3566475,9.371065,9.359997,9.357984,9.356281,9.356323,9.357763,9.358272,9.358557,9.359135,9.360231,9.363354,9.367939,9.372599,9.379513,9.386745,9.392369,9.398855,9.404648,9.408514,9.411554,9.413183,9.413376,9.412844,9.411092,9.408721,9.406506,9.403585,9.4006195,9.398204,9.39549,9.392587,9.390047,9.387736,9.385555,9.383795,9.38196,9.379789,9.377659,9.375631,9.372883,9.36981,9.367044,9.363762,9.360221,9.357248,9.354189,9.351196,9.349134,9.34784,9.346739,9.345886,9.345131,9.343756,9.341764,9.339742,9.337164,9.334318,9.331999,9.329608,9.327179,9.325258,9.323546,9.321505,9.319549,9.317881,9.315866,9.31375,9.311897,9.309685,9.30711,9.304787,9.302431,9.299709,9.29719,9.2948265,9.291822,9.288894,9.286484,9.283842,9.281969,9.2811985,9.280977,9.28199,9.283736,9.285788,9.288194,9.290092,9.291391,9.292712,9.293678,9.29429,9.2947445,9.294437,9.293468,9.291928,9.289528,9.286993,9.284428,9.280932,9.276842,9.272311,9.265896,9.258741,9.252275,9.245279,9.239859,9.237059,9.235054,9.233995,9.23337,9.232185,9.230307,9.22842,9.226843,9.226164,9.227455,9.229976,9.2342,9.239996,9.245424,9.251608,9.258572,9.26448,9.270006,9.275867,9.280363,9.2835655,9.28609,9.287027,9.286953,9.286463,9.285188,9.283667,9.282261,9.2805805,9.279011,9.277581,9.276324,9.27578,9.275734,9.276525,9.2781925,9.279966,9.282255,9.2845545,9.286072,9.287207,9.28772,9.287575,9.287183,9.286736,9.286518,9.286539,9.286952,9.287713,9.288454,9.289192,9.289988,9.290682,9.291367,9.292071,9.292611,9.293085,9.293397,9.293425,9.293317,9.293077,9.292789,9.292559,9.292166,9.29147,9.29067,9.289789,9.288914,9.288399,9.288151,9.288307,9.288824,9.289336,9.2899475,9.290489,9.290817,9.291077,9.291263,9.291397,9.291624,9.291761,9.291793,9.291834,9.292004,9.292389,9.292892,9.293766,9.295044,9.296364,9.298149,9.300535,9.302873,9.305248,9.308243,9.311105,9.3135195,9.316463,9.319471,9.322069,9.325106,9.328308,9.330956,9.333725,9.336586,9.338931,9.341088,9.343586,9.345921,9.347977,9.350449,9.352772,9.354528,9.356492,9.3584385,9.359945,9.361318,9.362703,9.363796,9.364634,9.365502,9.366268,9.366964,9.367723,9.368544,9.369349,9.370412,9.372034,9.373884,9.376137,9.379132,9.381996,9.384541,9.387292,9.389441,9.390919,9.392104,9.392399,9.391985,9.390922,9.389085,9.387138,9.3850155,9.38228,9.379644,9.377384,9.374542,9.371779,9.369529,9.367067,9.365186,9.364256,9.363934,9.364687,9.366135,9.367899,9.370813,9.374151,9.377251,9.381216,9.385078,9.388132,9.391134,9.393404,9.394682,9.395503,9.395654,9.395292,9.3946905,9.393703,9.392769,9.3922,9.391664,9.391482,9.391642,9.392049,9.392484,9.392723,9.393064,9.393068,9.392603
4.290471,4.2578373,4.2238264,4.203888,4.2052894,4.2200966,4.235589,4.3151712,4.4937525,5.1749086,6.3118114,7.5630317,8.734209,9.319094,9.340133,9.329332,9.288695,9.279347,9.229609,9.191206,9.192789,9.218972,9.245094,9.25741,9.259481,9.258914,9.255879,9.253053,9.249453,9.246363,9.244707,9.242094,9.241721,9.244527,9.248495,9.254736,9.261402,9.266617,9.2729,9.278775,9.2828455,9.28614,9.288038,9.288239,9.286985,9.28406,9.2804985,9.277189,9.273078,9.269289,9.2665205,9.263483,9.260599,9.258368,9.256299,9.254444,9.253004,9.251396,9.249426,9.247446,9.245554,9.243046,9.240259,9.237732,9.234713,9.231568,9.2290745,9.226633,9.224485,9.223274,9.222831,9.222814,9.223028,9.223211,9.22299,9.222137,9.22102,9.21949,9.217741,9.216333,9.21493,9.213652,9.212791,9.212087,9.211294,9.210548,9.209899,9.209126,9.208258,9.207424,9.206381,9.205067,9.203831,9.202633,9.2012825,9.20005,9.198912,9.197403,9.195869,9.194576,9.193187,9.192446,9.192514,9.193243,9.195308,9.198008,9.201104,9.204894,9.208225,9.210896,9.214029,9.216862,9.219063,9.22134,9.222756,9.223095,9.222952,9.221989,9.2206545,9.219318,9.217272,9.214462,9.210991,9.2057,9.199442,9.193594,9.187142,9.181931,9.179022,9.176685,9.1748085,9.173147,9.170877,9.167761,9.16488,9.162571,9.161235,9.162058,9.164222,9.167932,9.173159,9.178145,9.183933,9.190678,9.196645,9.20245,9.20887,9.21406,9.217927,9.221336,9.223193,9.223871,9.224239,9.223786,9.222853,9.221926,9.220608,9.219242,9.217964,9.216835,9.216387,9.216442,9.217337,9.219069,9.220862,9.223168,9.225473,9.22698,9.228081,9.22854,9.22835,9.227917,9.227485,9.227391,9.22761,9.2283535,9.22957,9.230755,9.2320385,9.233466,9.234724,9.236001,9.237385,9.238533,9.239559,9.240509,9.241127,9.241512,9.241865,9.242163,9.2423935,9.24246,9.242165,9.241623,9.240936,9.240244,9.239897,9.239832,9.240263,9.24111,9.241943,9.242922,9.243818,9.244421,9.244958,9.245368,9.245627,9.245956,9.246147,9.246178,9.246216,9.24637,9.246726,9.2472,9.248017,9.249205,9.250423,9.252084,9.254302,9.256489,9.258759,9.261667,9.26449,9.266901,9.2698345,9.272802,9.275344,9.278313,9.281412,9.283951,9.286609,9.289352,9.291603,9.293692,9.296124,9.298429,9.300486,9.302992,9.305379,9.307205,9.3092785,9.311373,9.313028,9.314577,9.316192,9.3175125,9.318579,9.319759,9.320848,9.321835,9.322926,9.32405,9.32508,9.326391,9.328231,9.330227,9.332645,9.335801,9.338802,9.34151,9.344471,9.346855,9.348576,9.350073,9.35062,9.350324,9.349342,9.347536,9.345591,9.34345,9.34076,9.338208,9.335966,9.333099,9.330248,9.327879,9.325221,9.323088,9.321934,9.321358,9.32173,9.322718,9.323898,9.325998,9.3284855,9.330768,9.333764,9.336769,9.339195,9.341616,9.3435,9.34461,9.345444,9.345905,9.346022,9.345997,9.34573,9.345428,9.345365,9.345337,9.345563,9.346026,9.34688,9.347851,9.348558,9.349467,9.350077,9.350092
4.336153,4.311975,4.279605,4.240965,4.210783,4.189276,4.1949778,4.2269464,4.236185,4.3495007,4.8084106,5.605936,7.0630264,8.360889,8.828537,9.142554,9.209303,9.162827,9.158321,9.134087,9.10209,9.0912,9.104347,9.125044,9.127554,9.129709,9.126608,9.118958,9.110591,9.102886,9.097874,9.091608,9.087815,9.088343,9.090565,9.094702,9.099123,9.102175,9.106117,9.110081,9.112999,9.115339,9.116627,9.116499,9.114801,9.1113205,9.107229,9.10345,9.098827,9.094664,9.091692,9.088511,9.085894,9.0842495,9.082688,9.081258,9.080067,9.078662,9.076872,9.075032,9.073271,9.07098,9.068487,9.066257,9.06354,9.060788,9.058735,9.056833,9.055367,9.054802,9.054974,9.055738,9.056757,9.057674,9.058451,9.058722,9.058599,9.05831,9.0579605,9.057774,9.057705,9.057985,9.058546,9.059184,9.060068,9.060958,9.061701,9.062639,9.063512,9.064117,9.0647545,9.065295,9.065682,9.066242,9.067013,9.0678005,9.068584,9.069458,9.070204,9.070797,9.0715885,9.07288,9.074472,9.076865,9.080627,9.084734,9.089293,9.094879,9.09997,9.104295,9.109548,9.114508,9.118504,9.122879,9.126342,9.128288,9.129911,9.130823,9.131079,9.131331,9.13113,9.129993,9.127981,9.124336,9.119524,9.1147995,9.109465,9.104984,9.102341,9.100069,9.09788,9.095736,9.093055,9.089586,9.086539,9.084196,9.082878,9.083633,9.085587,9.088845,9.093419,9.097811,9.102982,9.109213,9.11496,9.120753,9.127428,9.133097,9.1374855,9.14167,9.144409,9.145844,9.147091,9.147532,9.147291,9.146978,9.146236,9.145308,9.1444,9.14365,9.143503,9.143796,9.144899,9.146748,9.148581,9.150927,9.153274,9.154829,9.156,9.156574,9.156518,9.156218,9.155994,9.156183,9.156702,9.157871,9.159616,9.16131,9.163235,9.165434,9.167388,9.169397,9.171627,9.173529,9.1752205,9.176935,9.178253,9.179215,9.180265,9.1812725,9.182074,9.182758,9.183061,9.182964,9.182671,9.182375,9.182364,9.182608,9.183427,9.184684,9.185884,9.187288,9.188595,9.189514,9.190388,9.191086,9.19152,9.191995,9.192287,9.192366,9.192446,9.192631,9.192995,9.1934595,9.194237,9.195339,9.196458,9.197981,9.200023,9.202055,9.204204,9.206996,9.20974,9.21211,9.214994,9.217907,9.220388,9.223295,9.226313,9.228752,9.231302,9.233947,9.2361555,9.238256,9.240753,9.243158,9.245333,9.247998,9.250586,9.252613,9.254951,9.257347,9.259263,9.261116,9.263079,9.264708,9.266062,9.267603,9.269049,9.270348,9.2718,9.273251,9.274513,9.276065,9.278096,9.280205,9.282749,9.286024,9.289134,9.291983,9.29513,9.297727,9.29966,9.30145,9.302265,9.302125,9.301281,9.299559,9.297655,9.295544,9.292992,9.290644,9.288559,9.285881,9.283197,9.280949,9.278406,9.276346,9.275221,9.274658,9.274917,9.275662,9.276489,9.278019,9.279854,9.281496,9.283695,9.285929,9.287734,9.2895355,9.290926,9.291732,9.292414,9.292961,9.293345,9.293715,9.293983,9.294178,9.2945,9.294888,9.295464,9.296182,9.297406,9.298852,9.3000145,9.301462,9.302709,9.303303
4.3138866,4.317733,4.316139,4.2904367,4.2487745,4.2064533,4.1752195,4.175132,4.1975746,4.2592134,4.4145937,4.6175623,5.3583736,6.611569,7.8514657,8.742285,9.06381,8.976498,9.032509,9.0598135,9.040424,9.023851,9.011988,9.007323,9.002764,9.005369,9.004373,8.993456,8.980994,8.967944,8.958315,8.948526,8.94231,8.94134,8.94137,8.942803,8.944291,8.944399,8.944954,8.945912,8.946857,8.947431,8.947419,8.946768,8.945404,8.942652,8.939302,8.936212,8.9323845,8.928766,8.92597,8.923044,8.920631,8.919081,8.917617,8.916235,8.91503,8.913565,8.911638,8.909632,8.90772,8.90526,8.902665,8.900417,8.897799,8.895254,8.893408,8.891743,8.890544,8.890198,8.890549,8.891546,8.892844,8.8940525,8.895325,8.896282,8.896859,8.897499,8.898281,8.89912,8.900181,8.901787,8.903566,8.905355,8.907683,8.909994,8.911962,8.914424,8.916863,8.918773,8.920961,8.923232,8.925142,8.92737,8.930171,8.932898,8.935535,8.93871,8.941687,8.944149,8.947121,8.950454,8.953576,8.957598,8.96294,8.968288,8.9741,8.981167,8.987666,8.993303,9.000221,9.006852,9.012257,9.018312,9.023467,9.026775,9.029919,9.03248,9.034147,9.035799,9.037226,9.037614,9.03701,9.035046,9.031847,9.028469,9.024576,9.0212555,9.019288,9.017579,9.015761,9.013857,9.0115385,9.008625,9.00618,9.004398,9.003635,9.004631,9.006507,9.00942,9.01337,9.0171385,9.0216055,9.027146,9.032449,9.037949,9.044512,9.050308,9.054925,9.05954,9.062855,9.0648155,9.066683,9.067794,9.068115,9.068335,9.068161,9.0677185,9.067244,9.066962,9.06719,9.0677595,9.069088,9.071049,9.072925,9.075312,9.077727,9.079389,9.080731,9.081575,9.081821,9.081821,9.081994,9.082598,9.0835,9.085147,9.087435,9.089634,9.092207,9.09519,9.097859,9.100624,9.103731,9.106413,9.108789,9.111294,9.113338,9.114899,9.116682,9.118446,9.119881,9.121283,9.122339,9.122852,9.12314,9.123461,9.123966,9.124652,9.12599,9.127737,9.129345,9.131217,9.132979,9.1342535,9.135514,9.1365795,9.137274,9.137985,9.138513,9.138775,9.139019,9.139391,9.139923,9.140514,9.14142,9.142618,9.143789,9.145344,9.147406,9.14946,9.151643,9.15448,9.157276,9.159702,9.1626625,9.165649,9.168191,9.171178,9.174264,9.176739,9.179314,9.182018,9.184335,9.186605,9.18935,9.192025,9.194443,9.197405,9.200317,9.202654,9.205367,9.2081585,9.210393,9.212606,9.214963,9.216915,9.21855,9.220413,9.222158,9.22371,9.225447,9.2271385,9.228562,9.23026,9.232386,9.234533,9.237114,9.240428,9.243586,9.246502,9.249771,9.252518,9.25459,9.256592,9.257626,9.257639,9.256944,9.255335,9.253496,9.251457,9.249098,9.247023,9.245194,9.242851,9.240515,9.238565,9.236376,9.234647,9.233761,9.233433,9.233836,9.234592,9.235352,9.236658,9.238173,9.239482,9.241212,9.242927,9.24427,9.2455635,9.246481,9.24695,9.2473755,9.247797,9.248204,9.248701,9.2492,9.249631,9.250137,9.250746,9.251531,9.252411,9.2538595,9.255627,9.257135,9.258978,9.260741,9.261861
4.2809916,4.2848425,4.2876277,4.284479,4.273243,4.2432327,4.1967335,4.1614275,4.151447,4.16613,4.223768,4.2928123,4.544958,5.232871,6.1916075,7.4944673,8.511208,8.811456,8.887567,8.90733,8.951956,8.951195,8.934011,8.911817,8.895498,8.891732,8.8881035,8.87378,8.855784,8.833699,8.815083,8.799235,8.790688,8.790226,8.789566,8.788864,8.787264,8.784613,8.78199,8.780137,8.779247,8.778235,8.77715,8.776022,8.774428,8.771582,8.76821,8.765101,8.761262,8.757618,8.754774,8.751778,8.749252,8.747583,8.746077,8.744629,8.743307,8.741696,8.739548,8.737295,8.735138,8.732485,8.72982,8.727578,8.725042,8.722645,8.720938,8.719414,8.718267,8.71785,8.718048,8.71883,8.719954,8.721065,8.722373,8.7235985,8.724552,8.725734,8.727203,8.728668,8.730408,8.732815,8.735336,8.737839,8.741088,8.744347,8.747161,8.7507305,8.754368,8.757295,8.760708,8.76432,8.767363,8.77076,8.774927,8.77893,8.782766,8.787422,8.791899,8.795731,8.800322,8.805166,8.809398,8.814629,8.821099,8.827259,8.833866,8.841851,8.849238,8.8557415,8.863819,8.871677,8.87817,8.885595,8.89221,8.896735,8.901242,8.905266,8.908158,8.910982,8.913807,8.915585,8.916348,8.916176,8.914875,8.913183,8.911217,8.909658,8.908929,8.90843,8.907777,8.906849,8.905607,8.904009,8.902744,8.901932,8.902042,8.903418,8.905246,8.907757,8.910946,8.913951,8.917499,8.922056,8.92663,8.931557,8.9376545,8.943247,8.947823,8.952551,8.9561405,8.958406,8.96066,8.962263,8.963057,8.96377,8.9642105,8.964358,8.964429,8.964756,8.965475,8.966391,8.967989,8.970083,8.972028,8.974495,8.977073,8.978973,8.980671,8.9820595,8.982897,8.98349,8.984415,8.985769,8.987316,8.98975,8.992878,8.995817,8.999316,9.003386,9.007029,9.010818,9.015127,9.018892,9.022224,9.025843,9.028928,9.031362,9.034216,9.037115,9.039514,9.042042,9.044344,9.045915,9.047251,9.048735,9.050239,9.051767,9.054075,9.056698,9.058994,9.061659,9.064188,9.066066,9.067993,9.069744,9.070988,9.072229,9.073345,9.074139,9.074862,9.075818,9.076923,9.078005,9.079481,9.081253,9.082878,9.084923,9.087516,9.090027,9.092665,9.096029,9.099301,9.10214,9.105598,9.109072,9.112007,9.115464,9.119019,9.121859,9.124823,9.127986,9.130751,9.133489,9.136827,9.140075,9.142977,9.146507,9.149982,9.152786,9.156042,9.159384,9.162049,9.164708,9.167534,9.169855,9.17178,9.173956,9.175959,9.177698,9.179628,9.181442,9.182911,9.18462,9.186682,9.18873,9.191203,9.194403,9.197485,9.200357,9.203629,9.206425,9.2085495,9.210655,9.211798,9.211873,9.211235,9.209643,9.207798,9.205776,9.203552,9.201714,9.200134,9.198134,9.196172,9.194567,9.192789,9.191476,9.190912,9.190914,9.191601,9.192509,9.193353,9.194605,9.195934,9.197044,9.198444,9.199753,9.200726,9.201572,9.202051,9.2022,9.202337,9.202567,9.202927,9.20347,9.204111,9.204705,9.205321,9.206078,9.207016,9.208017,9.209629,9.211649,9.213444,9.215593,9.217796,9.219407
4.2492533,4.249956,4.2521896,4.259759,4.267791,4.262681,4.236407,4.2011943,4.170088,4.150973,4.1617517,4.1920652,4.2107525,4.415734,4.834727,5.8552866,7.1592937,8.077,8.548218,8.748552,8.785324,8.833019,8.84492,8.822237,8.797222,8.781273,8.77126,8.759592,8.727098,8.689049,8.664172,8.641855,8.629549,8.628063,8.625723,8.622213,8.617238,8.611584,8.605465,8.600428,8.597357,8.59436,8.591773,8.589815,8.587614,8.58428,8.580574,8.577181,8.573011,8.569031,8.56588,8.562454,8.559385,8.557133,8.554311,8.55114,8.548355,8.545361,8.541607,8.5379505,8.53475,8.530416,8.525917,8.522308,8.518129,8.51398,8.510796,8.507681,8.504806,8.502939,8.501846,8.501217,8.501156,8.50132,8.501598,8.501995,8.50242,8.503227,8.504713,8.506498,8.508744,8.511953,8.515333,8.518679,8.523048,8.527432,8.5311985,8.535837,8.540489,8.54425,8.548693,8.553681,8.558203,8.563509,8.570255,8.576835,8.5831375,8.590929,8.59815,8.603764,8.610273,8.616737,8.622076,8.627942,8.634646,8.640875,8.647501,8.655483,8.662922,8.669546,8.6779175,8.686228,8.693193,8.701347,8.708865,8.714203,8.719643,8.72471,8.728495,8.732134,8.735983,8.738926,8.74098,8.742695,8.743615,8.744015,8.744594,8.745551,8.74671,8.748161,8.749572,8.75044,8.751032,8.75155,8.752104,8.752784,8.754181,8.756121,8.757971,8.760125,8.762524,8.764679,8.7671585,8.770403,8.773796,8.777576,8.782471,8.787119,8.790953,8.794897,8.797907,8.799847,8.801865,8.803488,8.804502,8.805572,8.80662,8.807436,8.808151,8.809225,8.810552,8.811888,8.81381,8.816079,8.818129,8.820754,8.823648,8.825991,8.828321,8.83066,8.832519,8.834135,8.836355,8.838966,8.841566,8.845263,8.849691,8.853746,8.858622,8.8642845,8.869345,8.874626,8.880688,8.886042,8.890783,8.896078,8.900776,8.904575,8.909128,8.913853,8.917826,8.922233,8.926672,8.93011,8.933341,8.936979,8.940357,8.943468,8.947579,8.951816,8.95537,8.959487,8.963438,8.966442,8.969629,8.972728,8.975105,8.977457,8.979876,8.981895,8.983727,8.986071,8.988583,8.990854,8.993786,8.997089,8.999977,9.003422,9.007577,9.011457,9.015412,9.020298,9.02494,9.028936,9.033782,9.0385895,9.042597,9.04732,9.05216,9.056016,9.0600605,9.064449,9.068337,9.072187,9.076866,9.081341,9.085239,9.089918,9.094474,9.098133,9.102343,9.106607,9.10997,9.113322,9.116828,9.119644,9.121937,9.12447,9.126711,9.128578,9.13059,9.13237,9.133722,9.135236,9.136997,9.138742,9.140893,9.143751,9.146557,9.149178,9.1522045,9.154829,9.156834,9.158824,9.159878,9.159889,9.159159,9.157429,9.155439,9.153305,9.15106,9.149329,9.147917,9.146185,9.1445675,9.143312,9.141958,9.141093,9.140903,9.141306,9.1423855,9.143583,9.144675,9.146076,9.147423,9.148525,9.149799,9.150873,9.151604,9.152099,9.152177,9.151997,9.1517725,9.15168,9.151859,9.152301,9.152949,9.153629,9.154314,9.155191,9.1562805,9.157424,9.159191,9.161427,9.163466,9.165857,9.1684065,9.170408
4.2298193,4.230815,4.232738,4.235966,4.2400703,4.24974,4.2543488,4.244683,4.218842,4.1822186,4.158833,4.1566534,4.1861873,4.2581797,4.3519754,4.714699,5.6777353,6.863987,7.848139,8.44824,8.570775,8.670584,8.729641,8.73592,8.716772,8.694086,8.676855,8.669088,8.632555,8.585029,8.551176,8.523226,8.505262,8.499248,8.494259,8.488034,8.480613,8.472835,8.464234,8.456816,8.451957,8.447193,8.443056,8.440081,8.4371,8.433113,8.428963,8.425213,8.420626,8.416193,8.412598,8.408546,8.404688,8.40164,8.397358,8.392344,8.388002,8.383538,8.378086,8.37294,8.368624,8.362459,8.3557205,8.350123,8.34363,8.336988,8.331635,8.325973,8.32028,8.316087,8.312907,8.309954,8.307856,8.306328,8.304613,8.3031435,8.302132,8.301485,8.3018465,8.30302,8.304812,8.307743,8.311009,8.314281,8.31864,8.323041,8.326799,8.33128,8.335659,8.33918,8.343397,8.348437,8.353357,8.359489,8.367588,8.375622,8.383332,8.3929405,8.401659,8.40807,8.41535,8.422346,8.427962,8.433628,8.43975,8.445375,8.451332,8.458508,8.465249,8.471316,8.479137,8.487112,8.493929,8.502119,8.509926,8.515644,8.521601,8.527265,8.531523,8.535543,8.539876,8.543484,8.546404,8.549639,8.552626,8.555114,8.558495,8.562511,8.566135,8.570236,8.574586,8.578077,8.58131,8.584931,8.588061,8.590571,8.593525,8.596082,8.597831,8.599222,8.600168,8.6008415,8.601564,8.602913,8.60483,8.607349,8.610814,8.614275,8.617308,8.620407,8.622772,8.624314,8.625909,8.627203,8.628051,8.629059,8.630276,8.631418,8.632486,8.633994,8.63567,8.637224,8.639278,8.641578,8.643635,8.646323,8.6494465,8.652155,8.655045,8.658249,8.661055,8.663633,8.667067,8.670845,8.674408,8.679244,8.684833,8.689865,8.6959505,8.703007,8.709301,8.715891,8.7234955,8.730264,8.736269,8.743113,8.749332,8.754438,8.760639,8.767157,8.772687,8.77899,8.785643,8.791062,8.7963505,8.802378,8.807869,8.812779,8.818962,8.825075,8.830103,8.835953,8.841636,8.846035,8.850797,8.85562,8.859482,8.863295,8.867462,8.87114,8.874456,8.878671,8.88309,8.886974,8.891902,8.897342,8.902015,8.907454,8.913853,8.919703,8.92554,8.932608,8.939226,8.944893,8.951738,8.958475,8.964032,8.970585,8.977295,8.98266,8.988321,8.994543,9.000088,9.005539,9.012135,9.018354,9.023672,9.030003,9.036119,9.041012,9.046604,9.052219,9.05662,9.061016,9.065575,9.069206,9.072161,9.07539,9.078157,9.080361,9.082683,9.084615,9.085977,9.087426,9.089014,9.090553,9.092464,9.095059,9.09764,9.100021,9.102795,9.105211,9.1070595,9.10886,9.109762,9.109688,9.108849,9.106979,9.104872,9.102642,9.100367,9.098699,9.097413,9.0959015,9.094566,9.093594,9.092553,9.091997,9.09206,9.092726,9.09408,9.095509,9.096822,9.098415,9.099886,9.101107,9.102438,9.103494,9.104189,9.104565,9.10446,9.104112,9.103662,9.103327,9.103335,9.103639,9.104233,9.10495,9.105671,9.106623,9.107825,9.109081,9.110947,9.1133,9.115465,9.117945,9.120619,9.122778
4.214075,4.2165327,4.2186027,4.220375,4.2223806,4.2283897,4.2361984,4.2403045,4.2409954,4.2210417,4.1886044,4.1607437,4.1548705,4.191698,4.2552967,4.3835735,4.8620677,5.6309624,6.8018856,7.906358,8.413815,8.506504,8.583415,8.643289,8.642961,8.624605,8.600632,8.589443,8.579431,8.539938,8.4827,8.448898,8.424247,8.411297,8.404226,8.396269,8.387567,8.378901,8.369276,8.36075,8.354877,8.348986,8.3436775,8.339815,8.336127,8.331543,8.327013,8.322979,8.318066,8.313276,8.309328,8.304729,8.300163,8.296539,8.292419,8.287836,8.283766,8.279513,8.2742405,8.269145,8.26473,8.258671,8.251575,8.244855,8.237372,8.229697,8.22327,8.215809,8.207848,8.201643,8.196455,8.191046,8.18663,8.183134,8.179117,8.175471,8.172734,8.170066,8.168286,8.167673,8.167629,8.168459,8.169798,8.17125,8.173392,8.175705,8.177735,8.180135,8.182463,8.18433,8.186644,8.189608,8.192705,8.196817,8.202457,8.208152,8.213625,8.220378,8.226716,8.231806,8.2377,8.2434635,8.248116,8.253252,8.258936,8.264032,8.269388,8.2758255,8.281906,8.287423,8.294634,8.302187,8.308838,8.316996,8.325105,8.33133,8.338062,8.344546,8.349339,8.353786,8.358522,8.362585,8.366093,8.370567,8.375462,8.37999,8.386406,8.394049,8.400784,8.4082985,8.416527,8.423544,8.43041,8.438507,8.445273,8.449875,8.454622,8.457754,8.459055,8.458729,8.456787,8.454708,8.452358,8.450977,8.451429,8.453272,8.455949,8.458894,8.462116,8.465723,8.468761,8.47087,8.472793,8.474011,8.474529,8.475096,8.475932,8.476915,8.477889,8.47933,8.4809475,8.482422,8.484312,8.486405,8.488298,8.490809,8.493832,8.496555,8.499577,8.503078,8.506264,8.509256,8.513218,8.517491,8.521446,8.526733,8.5327635,8.538164,8.5447235,8.552338,8.559132,8.56625,8.574503,8.581894,8.588474,8.596058,8.603049,8.608834,8.615923,8.623421,8.629801,8.637196,8.645209,8.651939,8.658697,8.666526,8.673669,8.680008,8.687877,8.6955595,8.701847,8.709213,8.716465,8.7221575,8.728385,8.734848,8.740145,8.745371,8.75123,8.756504,8.76123,8.767216,8.773435,8.778847,8.785663,8.79314,8.79953,8.806892,8.815456,8.823197,8.830843,8.840021,8.848562,8.855869,8.864685,8.873336,8.880438,8.888809,8.8974085,8.904328,8.911678,8.919835,8.927125,8.934238,8.942839,8.950918,8.957766,8.965918,8.973803,8.980114,8.987331,8.994593,9.000296,9.006028,9.012029,9.016865,9.020871,9.025286,9.029058,9.032009,9.035116,9.037664,9.039408,9.041222,9.043079,9.044764,9.046772,9.049452,9.052092,9.054492,9.057281,9.059701,9.06154,9.063307,9.064198,9.064156,9.063343,9.061522,9.059478,9.057343,9.055222,9.053748,9.052694,9.051486,9.050447,9.049719,9.048912,9.048523,9.048677,9.0494,9.050798,9.052269,9.053629,9.055266,9.056778,9.058076,9.059473,9.060586,9.061353,9.0617695,9.061691,9.061373,9.060917,9.060547,9.060514,9.060774,9.061362,9.062103,9.062824,9.063789,9.0650215,9.06631,9.068174,9.070525,9.072702,9.075127,9.077747,9.079903
4.196336,4.197854,4.200639,4.204484,4.2079887,4.2113857,4.21925,4.228911,4.237568,4.2374945,4.220101,4.1891747,4.156032,4.148577,4.171666,4.2002907,4.3633327,4.716211,5.5071836,6.715048,7.7269382,8.217344,8.454249,8.478498,8.528411,8.545806,8.529695,8.50956,8.51272,8.487135,8.430492,8.390481,8.353882,8.330621,8.318819,8.308876,8.300475,8.2918415,8.282263,8.273428,8.266867,8.259979,8.253393,8.248438,8.243845,8.238508,8.233543,8.229204,8.223953,8.218788,8.214453,8.209261,8.203888,8.199498,8.194725,8.189455,8.184744,8.179855,8.173819,8.167983,8.162821,8.15626,8.14929,8.143135,8.13619,8.129086,8.1231575,8.116278,8.108184,8.101116,8.095087,8.088494,8.082823,8.078231,8.072483,8.066921,8.062707,8.058333,8.054715,8.052382,8.049601,8.047158,8.045753,8.044676,8.043859,8.043367,8.042915,8.042392,8.041851,8.041373,8.04093,8.040857,8.041304,8.042545,8.044773,8.047284,8.049756,8.052822,8.05576,8.05822,8.061076,8.063913,8.066243,8.068923,8.0720825,8.075068,8.078289,8.082363,8.086464,8.09034,8.09596,8.10248,8.10858,8.116539,8.124409,8.130045,8.135832,8.141132,8.144913,8.148281,8.151899,8.155304,8.158616,8.163473,8.169452,8.175285,8.183476,8.193097,8.201434,8.210619,8.220546,8.228922,8.237032,8.246513,8.25465,8.260754,8.267041,8.271093,8.272659,8.272113,8.269173,8.265728,8.2613325,8.256938,8.254291,8.25296,8.252142,8.252163,8.252971,8.253749,8.254192,8.254341,8.2542305,8.253693,8.253031,8.252618,8.252615,8.252995,8.253483,8.25432,8.255289,8.256136,8.257311,8.258852,8.260452,8.262884,8.266249,8.269585,8.273426,8.278104,8.282515,8.286734,8.292247,8.298062,8.303353,8.310299,8.31805,8.324891,8.333259,8.342913,8.351461,8.360432,8.370934,8.380438,8.388904,8.398834,8.408179,8.415989,8.425667,8.436127,8.4452,8.455639,8.46689,8.476105,8.4846,8.493959,8.502308,8.509749,8.518934,8.527867,8.535177,8.543801,8.552401,8.559248,8.566804,8.574768,8.581434,8.588189,8.595954,8.60305,8.6094,8.617411,8.625689,8.632848,8.641842,8.651704,8.66013,8.669775,8.680914,8.690912,8.700729,8.712458,8.723347,8.732668,8.743925,8.754959,8.763998,8.77465,8.785652,8.794588,8.804157,8.81488,8.824493,8.8338,8.845047,8.855601,8.864517,8.875166,8.885509,8.893808,8.903326,8.912949,8.9205475,8.928249,8.936415,8.943118,8.948809,8.955161,8.960622,8.964867,8.969376,8.973087,8.975615,8.978229,8.980755,8.982868,8.98524,8.988253,8.991129,8.9936905,8.996623,8.999131,9.001009,9.002779,9.0036955,9.003741,9.00304,9.001402,8.999573,8.997686,8.995884,8.994741,8.99403,8.993245,8.99258,8.992117,8.99151,8.991165,8.991257,8.991838,8.993038,8.994352,8.995597,8.997153,8.998671,9.00005,9.001604,9.002956,9.003998,9.004749,9.005051,9.005064,9.004934,9.004871,9.005061,9.005493,9.006294,9.007219,9.008057,9.0091505,9.010487,9.011843,9.0137415,9.016075,9.018196,9.020458,9.022839,9.024801
4.1851377,4.1844826,4.1864176,4.191333,4.1965466,4.200269,4.205844,4.212227,4.2175007,4.226125,4.226668,4.213132,4.178668,4.1464863,4.1382036,4.155715,4.2081637,4.3188295,4.581025,5.424971,6.544072,7.503106,8.132916,8.304061,8.389779,8.454918,8.467827,8.449714,8.449993,8.438157,8.407307,8.364416,8.31518,8.280085,8.258888,8.243576,8.234921,8.227055,8.218246,8.209738,8.202901,8.195347,8.187651,8.181644,8.176181,8.170159,8.164867,8.16036,8.154953,8.149595,8.145018,8.139385,8.133329,8.128214,8.122483,8.116064,8.110356,8.104519,8.097391,8.090576,8.084534,8.077166,8.0701065,8.06457,8.058123,8.051529,8.046127,8.040179,8.032438,8.024907,8.018421,8.011156,8.004805,7.9996605,7.9932604,7.987075,7.9823637,7.9773593,7.972723,7.9691734,7.9649706,7.9604917,7.956991,7.9540386,7.9509974,7.9484034,7.946133,7.9434576,7.9408,7.9386034,7.9361506,7.93383,7.9322605,7.9312434,7.9306927,7.9305477,7.9304934,7.9305334,7.9306107,7.930684,7.9304495,7.930155,7.930073,7.93001,7.930331,7.931019,7.931924,7.933405,7.9352455,7.937153,7.940607,7.9453173,7.950074,7.956711,7.963361,7.967928,7.972369,7.9761333,7.9785833,7.980545,7.9826527,7.984948,7.9875374,7.991929,7.9978905,8.003942,8.012339,8.022089,8.030453,8.039591,8.049349,8.05747,8.065278,8.0738735,8.081137,8.087164,8.093408,8.097451,8.09904,8.098733,8.096021,8.092543,8.087702,8.08186,8.077073,8.073122,8.069252,8.066469,8.064622,8.062111,8.059355,8.056993,8.054279,8.051504,8.049358,8.047649,8.046419,8.045806,8.045429,8.045226,8.04517,8.045083,8.045185,8.045788,8.046745,8.0486145,8.051705,8.055059,8.05904,8.064035,8.068828,8.0734415,8.079443,8.085734,8.091442,8.098909,8.107191,8.11446,8.123411,8.133701,8.142782,8.152441,8.16386,8.174234,8.183413,8.19425,8.204401,8.212734,8.223063,8.234346,8.244274,8.255772,8.268347,8.278772,8.28836,8.29895,8.308487,8.317114,8.32785,8.338419,8.347155,8.357599,8.36819,8.37673,8.386221,8.396475,8.405104,8.413264,8.4224415,8.430712,8.438,8.447172,8.456625,8.464778,8.475019,8.486268,8.495897,8.506895,8.519562,8.530909,8.542021,8.555303,8.567663,8.578272,8.5911255,8.603758,8.614113,8.626384,8.639181,8.649677,8.661007,8.673822,8.685356,8.6964655,8.709902,8.722572,8.733337,8.7462845,8.758957,8.769175,8.780956,8.792966,8.802538,8.812331,8.822882,8.831736,8.839439,8.848205,8.855873,8.861883,8.868412,8.8739605,8.87785,8.881972,8.88596,8.889173,8.892606,8.896738,8.900545,8.903896,8.907721,8.911015,8.913515,8.9159975,8.917681,8.918438,8.918596,8.917987,8.917103,8.916185,8.915494,8.91534,8.915515,8.915794,8.916079,8.916311,8.916386,8.916521,8.916859,8.917633,8.9189825,8.920439,8.921879,8.923766,8.925704,8.927532,8.929717,8.931792,8.933501,8.935087,8.936306,8.937101,8.937806,8.938593,8.939442,8.940453,8.941908,8.943407,8.944698,8.946328,8.948158,8.94989,8.952196,8.954876,8.957211,8.959604,8.962013,8.963953
4.182831,4.1807957,4.180011,4.182168,4.1862516,4.1921735,4.196223,4.1977882,4.20222,4.2052383,4.2064323,4.209914,4.193895,4.165025,4.1421914,4.132416,4.1633224,4.2363043,4.3181005,4.6898947,5.413247,6.4975624,7.569604,8.135305,8.249181,8.362043,8.412807,8.412047,8.405518,8.401081,8.39867,8.359774,8.304416,8.259268,8.227042,8.203118,8.191677,8.184204,8.175858,8.167681,8.160761,8.152819,8.1443615,8.1375885,8.1315155,8.125061,8.11964,8.115153,8.109836,8.104541,8.099938,8.094128,8.087675,8.082094,8.075798,8.0687065,8.062412,8.056033,8.048294,8.040939,8.034451,8.026501,8.018776,8.012599,8.005426,7.998033,7.9919224,7.985261,7.9767065,7.968404,7.9611015,7.9528923,7.945785,7.9400754,7.933693,7.92793,7.9234834,7.9186635,7.9136877,7.90954,7.905959,7.9017715,7.8977966,7.894458,7.8908525,7.887738,7.8851614,7.882068,7.87899,7.876481,7.8736935,7.870954,7.8689184,7.867239,7.8656936,7.864478,7.863373,7.8620796,7.8609123,7.860062,7.8583307,7.856434,7.855218,7.8539643,7.853114,7.852847,7.8527517,7.8530073,7.8536186,7.8543262,7.8560915,7.8589478,7.8620644,7.866609,7.8716383,7.8755717,7.879658,7.883171,7.885293,7.88684,7.88838,7.8900833,7.8920803,7.8957567,7.9010277,7.9065094,7.914138,7.9230127,7.9306297,7.93896,7.94796,7.9555607,7.9630556,7.9707255,7.9766335,7.9814606,7.9863086,7.9892297,7.990145,7.989505,7.98695,7.9838543,7.9795823,7.974373,7.969969,7.9661865,7.9621553,7.958873,7.9564166,7.9530663,7.9493675,7.946164,7.942403,7.9385095,7.9354486,7.9327583,7.9304385,7.928874,7.9275985,7.9263873,7.925432,7.9245825,7.9237366,7.923342,7.92344,7.9242115,7.926056,7.928332,7.931165,7.9348307,7.938397,7.941842,7.9463453,7.9511204,7.955509,7.961321,7.967843,7.973611,7.980774,7.9890146,7.9963083,8.004278,8.013803,8.022427,8.029947,8.038778,8.0468,8.053049,8.060717,8.069096,8.076559,8.085512,8.095852,8.105059,8.114513,8.12573,8.136259,8.14591,8.158057,8.170193,8.1803665,8.192707,8.20542,8.215778,8.227346,8.240122,8.250808,8.259851,8.26955,8.278036,8.28533,8.294476,8.303878,8.311975,8.322131,8.333285,8.342848,8.353769,8.366355,8.377645,8.388721,8.402018,8.41447,8.4252205,8.438318,8.451275,8.461945,8.474604,8.487904,8.498919,8.510904,8.524609,8.5370245,8.548964,8.563491,8.577269,8.588993,8.60319,8.617202,8.628564,8.641746,8.655306,8.66622,8.677483,8.689799,8.700336,8.709683,8.720509,8.730167,8.737833,8.746363,8.753876,8.759319,8.76526,8.7711525,8.7759075,8.780888,8.786742,8.792063,8.796757,8.80217,8.806953,8.8106785,8.814641,8.817892,8.820013,8.8218,8.823051,8.823799,8.824528,8.8256855,8.827143,8.828715,8.830671,8.832495,8.8339,8.835267,8.836529,8.837648,8.839235,8.84141,8.8435755,8.845761,8.848608,8.851507,8.8542185,8.85751,8.860691,8.863335,8.866055,8.868477,8.870279,8.872091,8.87403,8.875801,8.877657,8.880079,8.882453,8.884487,8.887022,8.889729,8.892163,8.89529,8.898773,8.901714,8.90471,8.907671,8.910011
4.1799936,4.176879,4.17397,4.173174,4.174699,4.178507,4.182839,4.185858,4.1885204,4.192401,4.196448,4.200052,4.202238,4.1900167,4.1644793,4.137167,4.1297073,4.152774,4.1858735,4.3187475,4.683613,5.3764687,6.595149,7.653721,8.018413,8.273635,8.3536215,8.360459,8.361303,8.36264,8.369676,8.358633,8.31126,8.250431,8.208899,8.173043,8.1534,8.144524,8.136385,8.129084,8.122055,8.113752,8.104521,8.096936,8.090258,8.08341,8.077957,8.073637,8.068656,8.063694,8.059267,8.053482,8.046821,8.040924,8.034233,8.026653,8.019928,8.013164,8.004988,7.997245,7.99043,7.9821024,7.974019,7.96756,7.9600797,7.9521427,7.9452686,7.937086,7.927759,7.919809,7.912592,7.9044595,7.8973365,7.891514,7.884729,7.8783383,7.873315,7.8678885,7.862425,7.858002,7.8540373,7.8500075,7.8466673,7.8437967,7.8406982,7.838025,7.835825,7.8332014,7.830571,7.828387,7.8259087,7.8234053,7.821492,7.8198566,7.8183393,7.817127,7.8161054,7.8139143,7.8112106,7.8091307,7.806464,7.8040657,7.8025713,7.8011527,7.8003125,7.800132,7.8000793,7.800209,7.8005114,7.8008413,7.8019557,7.803997,7.8063383,7.809973,7.8141437,7.817462,7.8210506,7.8242984,7.8263674,7.827899,7.8293104,7.8305945,7.831929,7.834141,7.837144,7.840209,7.844476,7.849471,7.853796,7.858526,7.863823,7.8685546,7.8734336,7.878958,7.883673,7.8875813,7.8916645,7.894326,7.895362,7.895358,7.894,7.8921537,7.889415,7.885916,7.8828163,7.880002,7.876743,7.8737674,7.871266,7.8678083,7.863927,7.8605156,7.8565264,7.8524528,7.8492794,7.846414,7.843471,7.8408957,7.838397,7.8357024,7.833417,7.831481,7.829366,7.827704,7.82672,7.826131,7.8263855,7.82722,7.8284063,7.830085,7.8317947,7.833483,7.8358006,7.8384695,7.8411083,7.844777,7.849056,7.8528996,7.857771,7.863406,7.8683515,7.8736534,7.879964,7.885667,7.890614,7.8963203,7.901515,7.9056773,7.91088,7.9167595,7.9221473,7.9288254,7.936743,7.9439173,7.9514165,7.960408,7.968911,7.9767933,7.986378,7.9958806,8.004065,8.014288,8.025379,8.034855,8.0455885,8.057478,8.067428,8.07609,8.085777,8.094543,8.102129,8.111492,8.1209545,8.129033,8.138987,8.149788,8.159016,8.169445,8.181494,8.19244,8.203367,8.216667,8.229367,8.240559,8.254488,8.2685995,8.280419,8.293309,8.306384,8.3174,8.329634,8.344014,8.357373,8.370362,8.386747,8.402095,8.414101,8.428633,8.44306,8.454872,8.468641,8.482933,8.494543,8.506609,8.519993,8.531652,8.542186,8.55456,8.565779,8.574805,8.585049,8.594378,8.601379,8.609423,8.617666,8.6243515,8.631334,8.639572,8.647118,8.653837,8.661705,8.668836,8.674519,8.68089,8.686699,8.69102,8.695405,8.699591,8.7028885,8.706171,8.710197,8.714165,8.717913,8.722464,8.726687,8.729979,8.733515,8.7368,8.739426,8.742611,8.746453,8.75004,8.753679,8.758285,8.762842,8.767017,8.772081,8.776952,8.780931,8.785265,8.789379,8.792587,8.795959,8.799534,8.802624,8.805723,8.809557,8.813207,8.816338,8.820211,8.824234,8.827744,8.832147,8.836929,8.840897,8.844984,8.849047,8.852255
4.1771564,4.1735244,4.1697903,4.1670837,4.166068,4.166665,4.169818,4.1737785,4.1761065,4.1804748,4.1852207,4.18781,4.19613,4.1986084,4.189217,4.1633463,4.1340685,4.1230426,4.1385307,4.1752644,4.3087564,4.5565014,5.48577,6.7012033,7.570512,8.083655,8.226111,8.2876835,8.312799,8.310661,8.312449,8.325331,8.299702,8.242983,8.197277,8.151888,8.122705,8.108796,8.097017,8.088747,8.082258,8.07407,8.064597,8.056583,8.0496645,8.042799,8.037584,8.033604,8.029177,8.024762,8.020683,8.015134,8.008464,8.002405,7.9954805,7.9875765,7.9805536,7.973519,7.965044,7.957038,7.949998,7.9413986,7.933036,7.926319,7.9187393,7.9106836,7.9035616,7.8948975,7.885351,7.877559,7.870436,7.8623943,7.8552585,7.8492928,7.8423223,7.835852,7.830901,7.8251505,7.819272,7.8146305,7.8102503,7.8061676,7.8031654,7.8005185,7.7976503,7.795146,7.793051,7.7905493,7.7880125,7.7858753,7.7834024,7.7808704,7.778926,7.777253,7.7757215,7.774536,7.773566,7.7714577,7.7687826,7.76661,7.7640924,7.7619524,7.760607,7.7593727,7.7587194,7.7586746,7.758754,7.7589483,7.759175,7.7593307,7.760023,7.7613764,7.762948,7.7655153,7.7684755,7.770791,7.773428,7.7760096,7.777831,7.7793036,7.7807093,7.7818317,7.782811,7.784051,7.785362,7.7865114,7.788043,7.7898035,7.791354,7.7931156,7.79539,7.797753,7.8003726,7.803822,7.807108,7.8098087,7.8126926,7.814721,7.8157024,7.8161387,7.8157744,7.8150024,7.8136063,7.811603,7.8096676,7.8078136,7.805517,7.8032646,7.801263,7.798458,7.795236,7.7923403,7.7888985,7.785307,7.782442,7.7797103,7.7767572,7.774091,7.771476,7.7686014,7.76614,7.764085,7.761799,7.7598867,7.7586207,7.75754,7.756978,7.7568903,7.7569623,7.757204,7.75752,7.7578635,7.7585096,7.759548,7.760807,7.7627735,7.7653065,7.7676964,7.7705965,7.773799,7.7765007,7.779381,7.7828045,7.785879,7.7885036,7.7913847,7.7939243,7.79599,7.798529,7.8014555,7.80421,7.8074346,7.8112826,7.814867,7.8186064,7.8230968,7.827433,7.8316183,7.836857,7.8422875,7.8471446,7.8534784,7.860721,7.8671465,7.874584,7.8830204,7.8903236,7.8972206,7.9052753,7.912697,7.9191165,7.926979,7.934812,7.941416,7.9494066,7.9580116,7.965394,7.9738293,7.9836297,7.9926147,8.001782,8.0131,8.023951,8.033446,8.045094,8.056919,8.067006,8.078091,8.089571,8.099459,8.1106205,8.12402,8.13665,8.148972,8.164595,8.179335,8.190975,8.205046,8.219097,8.230717,8.244477,8.259033,8.271068,8.2838745,8.298379,8.311291,8.323217,8.337631,8.351179,8.362397,8.375647,8.388247,8.397934,8.408348,8.419094,8.428164,8.437416,8.447796,8.456987,8.465331,8.475224,8.484361,8.49176,8.500309,8.508518,8.514959,8.521954,8.529179,8.535156,8.541136,8.548202,8.554915,8.561227,8.568911,8.576134,8.581873,8.588352,8.59458,8.599526,8.605272,8.611877,8.617844,8.623884,8.631313,8.638432,8.64481,8.652461,8.659704,8.665527,8.67206,8.678452,8.683546,8.6890335,8.6948595,8.69981,8.704692,8.710599,8.716169,8.720989,8.726966,8.733118,8.738413,8.744976,8.752062,8.757959,8.764198,8.770609,8.775792
4.174138,4.1706142,4.167161,4.1640635,4.1618147,4.160232,4.1606855,4.1631203,4.1662245,4.170087,4.174364,4.1792235,4.1830797,4.188899,4.1969995,4.1869354,4.160235,4.1353445,4.120726,4.145772,4.2265644,4.290514,4.7402086,5.680503,6.880454,7.7107983,8.055973,8.182562,8.250673,8.254208,8.248043,8.265654,8.26112,8.226906,8.185441,8.137506,8.101273,8.08115,8.063717,8.052761,8.046421,8.03829,8.028928,8.02091,8.0141115,8.007361,8.00233,7.9987464,7.994899,7.991046,7.9873586,7.982155,7.9756527,7.9695935,7.962617,7.954582,7.9474144,7.940237,7.9316034,7.923455,7.916277,7.907579,7.899202,7.892513,7.885159,7.87732,7.870283,7.862197,7.852907,7.844864,7.837619,7.829488,7.822361,7.81646,7.8097925,7.8038826,7.7995324,7.793792,7.7876563,7.782895,7.778426,7.7741747,7.7709484,7.7680955,7.7649603,7.762167,7.759792,7.756925,7.7540107,7.7515726,7.748749,7.7458744,7.743685,7.741792,7.7400303,7.738678,7.7375126,7.7360287,7.7344656,7.7330475,7.7312174,7.7295074,7.7283583,7.7272587,7.7266006,7.7264647,7.726467,7.726574,7.726665,7.7266054,7.7268476,7.7274885,7.728259,7.72962,7.7312036,7.7324133,7.7339396,7.7355967,7.7368956,7.738067,7.7393017,7.740321,7.7411747,7.742124,7.742902,7.7434044,7.743968,7.744541,7.745057,7.7457805,7.747046,7.748598,7.7503786,7.7526903,7.7548146,7.756487,7.758213,7.759445,7.7601395,7.760532,7.760436,7.760023,7.759115,7.7576585,7.7561665,7.754757,7.7530622,7.7514915,7.7501755,7.7483244,7.746129,7.7440863,7.741542,7.738693,7.736264,7.733774,7.7312107,7.7291512,7.727295,7.7253017,7.723605,7.7222013,7.72062,7.719291,7.718417,7.717643,7.7171125,7.716822,7.716584,7.7163334,7.716116,7.715924,7.715891,7.7162485,7.716902,7.7181,7.7198563,7.7216287,7.723556,7.7254868,7.727029,7.7287774,7.7308855,7.732749,7.734291,7.735856,7.737029,7.737827,7.738613,7.7394032,7.740141,7.7405734,7.7410274,7.741589,7.742177,7.7429132,7.7437983,7.74491,7.746707,7.748952,7.7510867,7.7540445,7.7575316,7.760638,7.7644005,7.7690525,7.7734756,7.77807,7.7835035,7.788398,7.7925234,7.7975135,7.80237,7.8063736,7.8110228,7.8159027,7.8201017,7.82507,7.8309355,7.836413,7.8422318,7.849618,7.856722,7.862802,7.8699756,7.8771853,7.8834715,7.8913116,7.9002056,7.9080915,7.917125,7.9281096,7.9384804,7.9485245,7.9609385,7.9729185,7.9832573,7.9957685,8.008318,8.018762,8.031153,8.044413,8.055569,8.067743,8.0817995,8.094506,8.1063595,8.121037,8.135263,8.147322,8.161997,8.176438,8.187794,8.199463,8.211668,8.222355,8.23316,8.244993,8.255325,8.264903,8.276533,8.287598,8.296745,8.307622,8.318421,8.327095,8.336779,8.347091,8.355801,8.364624,8.374955,8.384403,8.392727,8.402824,8.412447,8.420243,8.429317,8.438303,8.445543,8.453897,8.463398,8.471886,8.480457,8.490831,8.500578,8.509182,8.51938,8.52891,8.536501,8.545128,8.553678,8.560564,8.568081,8.576101,8.582903,8.589584,8.597625,8.605217,8.611845,8.620117,8.628647,8.635973,8.645019,8.654843,8.663124,8.672096,8.681633,8.689547
4.1708245,4.167593,4.16393,4.160372,4.157662,4.1548557,4.1531563,4.1537957,4.15647,4.1612244,4.1671915,4.1733627,4.179473,4.1847587,4.188982,4.1943274,4.1836643,4.158555,4.1271534,4.119002,4.158923,4.2106247,4.409485,5.001526,5.9705667,7.1716814,7.95438,8.045679,8.164196,8.206411,8.202466,8.2157955,8.218969,8.202162,8.169869,8.122738,8.080919,8.057158,8.036806,8.023659,8.01556,8.006538,7.9969263,7.9888954,7.9821486,7.9750214,7.969634,7.9665008,7.9632535,7.9599237,7.9565835,7.9517245,7.9454427,7.939456,7.932515,7.924451,7.9172177,7.909969,7.901244,7.892996,7.8856664,7.877043,7.869105,7.863031,7.8563123,7.8484883,7.840873,7.83265,7.8233557,7.815314,7.8080378,7.800031,7.7933683,7.7883005,7.782283,7.776601,7.7722206,7.7660484,7.7596292,7.755041,7.7506895,7.7465954,7.743517,7.740797,7.737809,7.735132,7.732833,7.7300553,7.7272377,7.724889,7.722167,7.7194195,7.7173595,7.715625,7.714077,7.712941,7.711997,7.710742,7.7093515,7.708062,7.7063837,7.7048235,7.7037983,7.702857,7.702385,7.702406,7.7025394,7.7027006,7.70271,7.7024846,7.70234,7.7024136,7.7026124,7.7031655,7.703846,7.704324,7.7050953,7.7060614,7.7068863,7.7076826,7.7085295,7.709158,7.709591,7.7098746,7.709799,7.7094564,7.708905,7.7082644,7.7078,7.7074914,7.7077236,7.7084694,7.709505,7.7110705,7.712654,7.7139473,7.7153563,7.7164474,7.717124,7.717573,7.717621,7.717371,7.7166967,7.715596,7.7145004,7.713519,7.7124305,7.711529,7.7108583,7.7098846,7.7086163,7.7073298,7.7056165,7.7035007,7.7015457,7.699435,7.697122,7.6951694,7.693389,7.691455,7.689802,7.688439,7.6868925,7.6855345,7.6845684,7.683595,7.682724,7.682051,7.6813145,7.680401,7.679531,7.678711,7.6779013,7.677517,7.6775656,7.6780157,7.678954,7.6800027,7.6812572,7.682666,7.6838636,7.685136,7.6866007,7.687857,7.688911,7.68989,7.6905293,7.6909275,7.6912723,7.6915793,7.691862,7.692089,7.692273,7.692398,7.692442,7.692515,7.6927185,7.6931725,7.693247,7.6931686,7.693388,7.693946,7.694898,7.6959343,7.6974535,7.699748,7.7021995,7.7048445,7.708,7.7107506,7.7129397,7.7152376,7.7171397,7.7185993,7.7198186,7.7205696,7.72097,7.721401,7.722089,7.723124,7.7247305,7.727307,7.7303205,7.733266,7.7372675,7.741729,7.745701,7.750705,7.756772,7.7625437,7.769428,7.778084,7.786367,7.79434,7.8041945,7.8136487,7.821699,7.831503,7.8413982,7.849658,7.8587503,7.868161,7.876137,7.8848915,7.895165,7.9045134,7.9130344,7.923646,7.9340687,7.942986,7.953971,7.965328,7.97486,7.986003,7.998459,8.009439,8.020996,8.03473,8.047646,8.059755,8.07506,8.090253,8.103128,8.118862,8.134807,8.147669,8.162006,8.177314,8.190327,8.203743,8.219411,8.2327175,8.242394,8.253801,8.264726,8.273746,8.284455,8.295285,8.304115,8.314327,8.32592,8.336222,8.346548,8.359149,8.371061,8.381525,8.393814,8.405195,8.414213,8.424528,8.434824,8.443165,8.452345,8.462188,8.470544,8.478756,8.48863,8.497985,8.50621,8.516539,8.52724,8.536444,8.547798,8.560228,8.570835,8.582529,8.595273,8.606045
4.1666193,4.1639533,4.160581,4.1569552,4.1539555,4.150605,4.1476784,4.146861,4.1482224,4.1523886,4.158411,4.1642766,4.171812,4.1773853,4.1792355,4.1865454,4.18692,4.1748657,4.1463447,4.1163387,4.115169,4.1435757,4.210437,4.513568,5.0708356,6.274036,7.406336,7.8238993,8.068985,8.135036,8.142421,8.145334,8.152218,8.158545,8.147768,8.108711,8.061233,8.032425,8.007468,7.991274,7.981779,7.971839,7.961879,7.9538393,7.947297,7.94042,7.9350204,7.9314594,7.9279613,7.9248996,7.922208,7.91797,7.9121494,7.9064045,7.899663,7.891719,7.8845205,7.877266,7.8684473,7.8601694,7.8530293,7.8446975,7.837023,7.831094,7.8244743,7.816972,7.809829,7.8015184,7.7921023,7.784134,7.7768373,7.7693253,7.763375,7.758638,7.752928,7.7474194,7.743092,7.7374525,7.7314405,7.7268095,7.722588,7.7186975,7.7158146,7.7132616,7.710451,7.707904,7.7056885,7.7030044,7.7002783,7.6980085,7.6953707,7.692718,7.6907434,7.689115,7.687702,7.686704,7.6859093,7.6848106,7.6835375,7.682328,7.6807203,7.6792,7.67819,7.6772604,7.676788,7.676791,7.676879,7.6768994,7.676663,7.676121,7.6754036,7.674722,7.6741905,7.673724,7.6732664,7.672811,7.672598,7.672635,7.672812,7.67309,7.673455,7.6736913,7.6737638,7.673534,7.672845,7.671912,7.6705866,7.669115,7.667981,7.6669674,7.6664553,7.666575,7.666998,7.6679,7.6689625,7.6698713,7.670939,7.6718445,7.672457,7.6728954,7.673005,7.6728473,7.672332,7.6715,7.6707153,7.6700716,7.6694565,7.6690845,7.6689262,7.668665,7.668174,7.6675434,7.6665564,7.665101,7.6635914,7.6618433,7.6598015,7.658016,7.656393,7.654645,7.6531725,7.651974,7.650621,7.6493998,7.6484785,7.6474743,7.646452,7.645561,7.6445026,7.6431303,7.6417894,7.640498,7.6390953,7.6381397,7.6377153,7.6375713,7.637841,7.638277,7.6388206,7.6394606,7.640008,7.6405687,7.64118,7.6416593,7.642049,7.642223,7.6420803,7.641819,7.6413355,7.6407166,7.640168,7.6394835,7.638586,7.63768,7.6366234,7.63541,7.634469,7.63389,7.633052,7.632298,7.631912,7.631631,7.6315827,7.631707,7.632075,7.6329155,7.633995,7.6352797,7.6368113,7.638087,7.6390457,7.6399546,7.640416,7.6405077,7.639306,7.6371765,7.6353083,7.633247,7.6313457,7.6303034,7.6299877,7.630295,7.63121,7.6323915,7.634287,7.6365995,7.638688,7.6415663,7.644747,7.647388,7.6509533,7.6557474,7.660472,7.6649456,7.6704106,7.6755548,7.6798654,7.6848383,7.6896663,7.693695,7.6981115,7.702798,7.706969,7.7118683,7.7180223,7.723959,7.729595,7.736907,7.744446,7.75118,7.75957,7.768553,7.776397,7.7861385,7.7973504,7.8072705,7.8178377,7.830683,7.842861,7.8540754,7.868062,7.8819847,7.893979,7.909156,7.92494,7.9377794,7.9522705,7.967988,7.981534,7.995665,8.012188,8.026578,8.037937,8.051688,8.06517,8.07649,8.090242,8.104708,8.1169195,8.131037,8.147303,8.161982,8.1772995,8.193794,8.207264,8.218576,8.231791,8.24404,8.253759,8.2649555,8.276268,8.285545,8.295831,8.306919,8.316351,8.32563,8.336784,8.347374,8.356738,8.368532,8.380764,8.391281,8.404228,8.418475,8.43078,8.444778,8.46056,8.474253
4.1615515,4.1598225,4.1573925,4.1543903,4.151566,4.148242,4.1448865,4.1430845,4.142803,4.144925,4.1491666,4.153577,4.160553,4.166939,4.170101,4.1733255,4.177245,4.1783857,4.1655354,4.1364174,4.1137366,4.111252,4.1472244,4.292977,4.5011606,5.338246,6.5178986,7.4140377,7.873337,8.023518,8.0673485,8.080497,8.088883,8.103815,8.114708,8.093033,8.049155,8.0149765,7.9830904,7.961688,7.9509087,7.939741,7.92919,7.921101,7.914806,7.908489,7.903408,7.899452,7.895545,7.892372,7.889861,7.8860035,7.880707,7.8754034,7.8690414,7.861392,7.85435,7.84717,7.8383803,7.8301897,7.8233104,7.8151855,7.8075323,7.8014865,7.7946844,7.787606,7.7814455,7.773805,7.764693,7.7567244,7.7495155,7.7423964,7.736866,7.7321787,7.726596,7.7212667,7.7170925,7.7123246,7.70734,7.703245,7.699325,7.695599,7.6928196,7.6903763,7.687685,7.6852283,7.6830635,7.6804233,7.677725,7.6754704,7.672826,7.67013,7.6680956,7.6663933,7.6648736,7.6637697,7.6628847,7.661673,7.660273,7.658938,7.65714,7.6553683,7.65411,7.6528606,7.6519985,7.651643,7.651347,7.6508827,7.6501465,7.649106,7.6476674,7.646157,7.644863,7.643365,7.6417675,7.6403666,7.6391215,7.6381407,7.6375723,7.6372404,7.637068,7.636954,7.636788,7.636325,7.6354613,7.6344132,7.6329556,7.631376,7.6301756,7.6290855,7.6284237,7.62833,7.6284795,7.6290007,7.62969,7.630292,7.6310377,7.6317053,7.6321697,7.632475,7.632496,7.6322966,7.6317883,7.6310244,7.6303353,7.629792,7.6293116,7.6290855,7.6290717,7.6290445,7.628849,7.628493,7.6278286,7.62669,7.625409,7.623847,7.6219788,7.620349,7.6188927,7.6173825,7.6161704,7.6152086,7.614153,7.613201,7.612459,7.61162,7.6107087,7.609864,7.608797,7.607362,7.6059246,7.604508,7.602933,7.6017942,7.601204,7.600826,7.6007853,7.600897,7.600959,7.6009583,7.6009064,7.6008663,7.6008043,7.6006985,7.6005764,7.600154,7.5994368,7.5986767,7.597558,7.596246,7.5950947,7.593605,7.5917654,7.590049,7.5881763,7.586055,7.584384,7.5831923,7.5822926,7.5819044,7.581749,7.58162,7.58154,7.581484,7.581464,7.5816126,7.581938,7.582477,7.5831137,7.5836163,7.583991,7.584402,7.5845146,7.584304,7.582719,7.580333,7.578436,7.576438,7.57471,7.573848,7.5736837,7.574084,7.5749354,7.5759463,7.577356,7.5788794,7.580161,7.5820312,7.5836563,7.5844784,7.585737,7.587392,7.5889416,7.5902815,7.591694,7.592793,7.5936213,7.5941095,7.594309,7.5945497,7.5951467,7.5962534,7.597626,7.599754,7.6029353,7.6064076,7.6100736,7.6150885,7.6204767,7.62543,7.631622,7.6382666,7.644067,7.6512127,7.659297,7.666284,7.673484,7.681917,7.689636,7.6965675,7.7049294,7.7132254,7.7205706,7.7302985,7.7407494,7.749358,7.759409,7.770819,7.7810307,7.791892,7.8048434,7.816907,7.827907,7.841609,7.855281,7.866907,7.881089,7.89624,7.9092484,7.924355,7.9421735,7.958644,7.976174,7.9946547,8.009231,8.021295,8.035363,8.048404,8.058743,8.070875,8.083202,8.093255,8.104519,8.116735,8.127144,8.137382,8.149642,8.161238,8.171451,8.1843815,8.197895,8.209578,8.224062,8.240404,8.254805,8.270569,8.288295,8.303806
4.1564226,4.1557302,4.1544533,4.152443,4.1501517,4.1469264,4.143262,4.140765,4.139376,4.1393833,4.141461,4.1446137,4.1497107,4.156458,4.16284,4.1677094,4.171879,4.174216,4.1722155,4.1573668,4.135708,4.1099405,4.119939,4.200042,4.2978106,4.737118,5.716844,6.875467,7.574397,7.89647,7.990134,8.04027,8.0519705,8.055271,8.075424,8.073755,8.043873,8.006106,7.9669805,7.9389935,7.9265003,7.913768,7.902459,7.894263,7.888097,7.8820767,7.8773355,7.8737907,7.870078,7.866661,7.8636284,7.8596735,7.854723,7.8498735,7.843896,7.836569,7.8297176,7.8226385,7.813991,7.805921,7.799055,7.790851,7.7831287,7.777116,7.7703238,7.763482,7.757842,7.7515144,7.7432666,7.73528,7.728283,7.721109,7.7154484,7.71095,7.7056074,7.700515,7.696523,7.6920986,7.6880865,7.6852293,7.681799,7.6782312,7.6754894,7.6731086,7.6704745,7.6680527,7.665906,7.663268,7.66055,7.6582656,7.6555505,7.6527205,7.650531,7.648633,7.646847,7.6454754,7.6443367,7.642811,7.6410933,7.6394725,7.6373053,7.6350985,7.633434,7.631674,7.630212,7.629318,7.6284647,7.6273546,7.626031,7.624467,7.62236,7.62016,7.6182632,7.6159797,7.613527,7.611408,7.609356,7.607539,7.6063313,7.6054544,7.6048017,7.6044044,7.604086,7.6035547,7.602771,7.601882,7.600667,7.5994005,7.598485,7.597686,7.5972342,7.5972004,7.5973234,7.597692,7.59816,7.59855,7.5990314,7.599448,7.599719,7.5998187,7.59966,7.5993376,7.598735,7.5978985,7.597151,7.5965357,7.5959406,7.595578,7.595431,7.595269,7.5949802,7.594571,7.593878,7.592744,7.5914817,7.589931,7.588107,7.5865526,7.5851893,7.5838423,7.5828266,7.5820465,7.581231,7.580518,7.579954,7.5793133,7.5786057,7.5779285,7.5770183,7.5757484,7.5744452,7.57313,7.571663,7.5706005,7.570055,7.569692,7.5695925,7.5695963,7.5694776,7.5692225,7.5689306,7.5686474,7.568331,7.5680265,7.5677404,7.5671635,7.5663433,7.5655127,7.564348,7.5630293,7.561889,7.560397,7.558557,7.556855,7.555022,7.5530205,7.551527,7.5505476,7.549797,7.5494323,7.549245,7.5489635,7.5485497,7.548101,7.5475883,7.547117,7.5468664,7.546838,7.5468273,7.5467563,7.5466423,7.5463943,7.545998,7.545582,7.54479,7.543687,7.542671,7.5415163,7.5404863,7.54003,7.540125,7.5408015,7.541926,7.5431933,7.544853,7.5464773,7.5477066,7.5491323,7.550648,7.5518894,7.552985,7.553755,7.55403,7.554082,7.5536966,7.552914,7.5520735,7.550646,7.54912,7.5480804,7.5471945,7.546875,7.5471787,7.5481687,7.549979,7.552096,7.5544176,7.5575924,7.560875,7.5637207,7.567278,7.5711164,7.5744886,7.578717,7.583233,7.586743,7.589914,7.593127,7.5958347,7.5983305,7.60143,7.6047482,7.6079407,7.6123257,7.6171694,7.6212187,7.626295,7.6327,7.6389575,7.6458945,7.6546793,7.6633043,7.6714315,7.681548,7.691702,7.7004766,7.711009,7.7221045,7.73159,7.742771,7.7564735,7.7696066,7.7834244,7.8000674,7.8153133,7.828459,7.843798,7.8579283,7.8690696,7.882464,7.8960533,7.906923,7.9192324,7.932624,7.944029,7.955224,7.968565,7.9810724,7.9919567,8.005835,8.020506,8.033308,8.049395,8.068196,8.085108,8.102126,8.120623,8.13666
4.1501327,4.15035,4.150285,4.1493773,4.1477222,4.1451907,4.141981,4.139359,4.137314,4.1357784,4.135748,4.1368213,4.1397533,4.1449623,4.1506596,4.157982,4.1631756,4.16459,4.1696506,4.16411,4.1463933,4.120728,4.1066675,4.1360154,4.1895394,4.363494,5.037046,6.077117,7.167118,7.8303757,7.894496,7.9791017,8.001447,7.995519,8.017336,8.037352,8.029861,7.993084,7.949542,7.9143305,7.8976164,7.88282,7.870784,7.862274,7.8560896,7.8502855,7.8458304,7.8425307,7.8390307,7.8357887,7.832935,7.8292456,7.8245177,7.819758,7.8138685,7.8067007,7.8000298,7.7930646,7.784377,7.776166,7.769224,7.7609334,7.7531757,7.7471914,7.7404747,7.7337866,7.7283654,7.722489,7.715548,7.7089787,7.702281,7.6948175,7.688767,7.6843166,7.6792994,7.6746387,7.6709185,7.6668425,7.6632137,7.6607447,7.6581616,7.65576,7.6539526,7.652128,7.6496983,7.647193,7.645027,7.6424103,7.6397533,7.6375337,7.634863,7.632034,7.6298056,7.6278367,7.6259327,7.6244345,7.6231785,7.621501,7.619626,7.617867,7.6155033,7.613033,7.6110916,7.6089573,7.6070137,7.6056647,7.6043386,7.602674,7.6008577,7.5988684,7.596241,7.5935307,7.5912,7.58836,7.5853047,7.5826797,7.58006,7.5776553,7.5759907,7.5747175,7.5737133,7.5731125,7.57269,7.572123,7.571416,7.5706615,7.569647,7.568617,7.567892,7.5672693,7.56689,7.566793,7.56678,7.5668793,7.5670204,7.567112,7.56723,7.5673018,7.5673056,7.567116,7.5667057,7.5662203,7.5654936,7.5645676,7.563755,7.563073,7.562366,7.561863,7.561567,7.5612307,7.560792,7.560281,7.5595093,7.558344,7.557086,7.5555487,7.553775,7.5522985,7.5510163,7.5497923,7.548913,7.548257,7.5475864,7.5470047,7.5465336,7.545994,7.5453963,7.544819,7.5440044,7.542835,7.5416093,7.5403504,7.538932,7.5378895,7.537339,7.5369406,7.536747,7.536624,7.53632,7.535829,7.535326,7.534828,7.534288,7.5338063,7.533371,7.532645,7.5317225,7.5308304,7.5296407,7.5283475,7.527257,7.5258245,7.524062,7.5224404,7.520709,7.5188866,7.517617,7.516871,7.516391,7.5162477,7.516206,7.5159984,7.5155115,7.5148964,7.514144,7.5133123,7.512688,7.512288,7.5118427,7.511389,7.5109634,7.5103626,7.509671,7.509054,7.508151,7.506998,7.505928,7.5047054,7.503597,7.503063,7.5030766,7.5036182,7.5045567,7.505616,7.5069146,7.50803,7.5087347,7.509425,7.5100627,7.5105634,7.5110145,7.511204,7.5110493,7.5106945,7.509943,7.5089626,7.5080457,7.506621,7.505049,7.5038366,7.502555,7.5015907,7.5012197,7.5013976,7.501976,7.502764,7.5038786,7.5054884,7.5071507,7.5085473,7.5102477,7.5120506,7.51363,7.515583,7.517502,7.5187798,7.519703,7.5201435,7.520155,7.5201597,7.520299,7.5208364,7.521723,7.523117,7.5248075,7.5262365,7.527363,7.52857,7.5300064,7.5322213,7.535655,7.539551,7.5435815,7.548712,7.554076,7.5589266,7.5649834,7.571819,7.578001,7.585374,7.5946655,7.6037865,7.613538,7.62562,7.6369133,7.6466446,7.658001,7.668535,7.676924,7.687379,7.698741,7.708428,7.7194195,7.7311125,7.7407875,7.7504177,7.7618294,7.7723846,7.7814426,7.792899,7.804848,7.8151274,7.828294,7.8440533,7.858675,7.874963,7.8941984,7.9115515
4.14221,4.143241,4.1443768,4.1447453,4.1440315,4.142706,4.1405735,4.1383305,4.1360865,4.133367,4.1312656,4.1300545,4.1302094,4.133001,4.1372566,4.1451283,4.1525455,4.156299,4.162483,4.1647787,4.157299,4.1379194,4.110761,4.109067,4.140185,4.188714,4.568484,5.271924,6.5625453,7.5694776,7.768386,7.909543,7.949335,7.942149,7.952001,7.9826527,7.999508,7.976317,7.9328136,7.8884277,7.8652062,7.8467493,7.833272,7.824518,7.8181896,7.812501,7.808273,7.805132,7.801786,7.7987423,7.7961626,7.7927723,7.788268,7.7836046,7.777776,7.7707443,7.764249,7.757387,7.748661,7.740224,7.732917,7.72442,7.716666,7.710737,7.7041464,7.697644,7.6924076,7.6867657,7.6806192,7.675178,7.6695557,7.6628466,7.65693,7.652319,7.6472216,7.6427736,7.6395006,7.635876,7.6325827,7.6303244,7.6283402,7.626754,7.62566,7.624469,7.6227903,7.621002,7.6194825,7.617407,7.6150327,7.6129227,7.6103797,7.607668,7.605527,7.603635,7.601781,7.600296,7.599047,7.5973663,7.5954776,7.593704,7.591297,7.5887065,7.586596,7.584192,7.5818434,7.580085,7.5783186,7.57615,7.573909,7.571576,7.568574,7.5655384,7.562953,7.5598116,7.5564466,7.553563,7.5506525,7.5479317,7.546001,7.5444746,7.543216,7.5424323,7.5418854,7.5412254,7.5405006,7.5397835,7.5388412,7.5378857,7.5371923,7.536557,7.536045,7.53572,7.5354285,7.5351143,7.5348206,7.5345225,7.534172,7.5338078,7.533478,7.5329447,7.53226,7.5316143,7.5307817,7.5297976,7.5289516,7.528232,7.527441,7.5267982,7.526329,7.5257573,7.52508,7.5243883,7.5234537,7.522194,7.520914,7.5193853,7.517659,7.516239,7.5150023,7.5138144,7.512953,7.5123034,7.5116234,7.5110073,7.510498,7.5099134,7.5092835,7.5086923,7.5078716,7.5067015,7.5054684,7.504191,7.50273,7.501615,7.5009737,7.5004416,7.500065,7.499755,7.499219,7.4984636,7.4977336,7.4970026,7.496205,7.4955063,7.494876,7.493947,7.492875,7.491885,7.490648,7.489387,7.4883647,7.4870453,7.4854426,7.483984,7.482443,7.480892,7.4799104,7.479434,7.479268,7.479393,7.4795437,7.4795055,7.4790926,7.478468,7.477663,7.4766903,7.4758854,7.4752884,7.4746037,7.473943,7.473357,7.4726124,7.4718204,7.471134,7.4701033,7.4688277,7.4676976,7.4664392,7.4653416,7.4648438,7.4648905,7.4654055,7.4662185,7.467098,7.468068,7.468739,7.4690113,7.469165,7.4690976,7.468915,7.468788,7.4684916,7.46802,7.4673843,7.466423,7.4653864,7.464506,7.4631906,7.4617033,7.460473,7.459033,7.4577265,7.456951,7.4566154,7.456546,7.456716,7.45722,7.4579983,7.4587975,7.4594603,7.460232,7.460992,7.4616113,7.462318,7.4628415,7.4629965,7.4629235,7.462269,7.4612303,7.460188,7.458909,7.4578648,7.457261,7.456562,7.4559135,7.4553776,7.453919,7.4518447,7.4501753,7.4492073,7.4488573,7.449182,7.449878,7.4508476,7.4517555,7.4523544,7.453496,7.4552717,7.4571514,7.459479,7.4627533,7.4662848,7.470389,7.4754896,7.4801683,7.484135,7.488863,7.4934597,7.497284,7.5026193,7.509326,7.5156693,7.52307,7.531027,7.5375943,7.5442743,7.552182,7.55937,7.5654006,7.572833,7.580206,7.586215,7.5939035,7.603282,7.612376,7.62383,7.6384954,7.6523285
4.134142,4.135785,4.1378503,4.139426,4.1398315,4.1397953,4.1389236,4.1373854,4.135412,4.132202,4.12882,4.1261406,4.1240196,4.1247625,4.12803,4.1341376,4.143297,4.1514554,4.155883,4.1622834,4.163762,4.1502285,4.1239257,4.1070347,4.1085653,4.1433034,4.3646555,4.7671547,5.913596,7.091325,7.617264,7.8334928,7.8992066,7.9054093,7.899298,7.9245014,7.9549904,7.9537325,7.9164915,7.8656855,7.835828,7.8127785,7.7969522,7.7878275,7.7811956,7.775488,7.771386,7.768326,7.7650194,7.762033,7.7595844,7.756391,7.7521276,7.7476826,7.7421584,7.735422,7.7290835,7.722279,7.713544,7.7049303,7.697203,7.6883593,7.680459,7.674508,7.6680098,7.6617284,7.6567264,7.6513376,7.645258,7.639998,7.635563,7.6302547,7.6251435,7.6206627,7.615411,7.6108866,7.6078997,7.604554,7.6015873,7.599619,7.5977993,7.5962753,7.5952926,7.5944633,7.593646,7.592936,7.5923204,7.5910864,7.5892944,7.5875397,7.585458,7.583169,7.581294,7.5796404,7.5780144,7.5767064,7.575609,7.5741034,7.5723696,7.5707254,7.568452,7.5659356,7.5638256,7.561347,7.55881,7.556822,7.5547924,7.552326,7.5498514,7.5473504,7.544199,7.541071,7.538433,7.5352564,7.5318766,7.528982,7.526058,7.523302,7.5213127,7.519701,7.5183125,7.5173893,7.516712,7.5159006,7.5150523,7.5142536,7.5132227,7.5121546,7.5113354,7.5105247,7.509739,7.5091133,7.508504,7.50778,7.507091,7.506449,7.505694,7.504967,7.5043697,7.503585,7.5027328,7.502015,7.5011683,7.5002146,7.499406,7.4987116,7.49792,7.497217,7.496641,7.495905,7.495051,7.494224,7.493175,7.4918714,7.490612,7.4891396,7.4874973,7.4861383,7.4849315,7.4837275,7.4828033,7.4820814,7.481287,7.4805307,7.4798927,7.479167,7.4783955,7.4776955,7.476779,7.475512,7.4741936,7.4728327,7.471258,7.470004,7.4692183,7.4684906,7.467888,7.467375,7.4666104,7.4656096,7.46467,7.463724,7.462676,7.4617515,7.4609156,7.459764,7.4585133,7.4573946,7.4560666,7.454782,7.4537773,7.4525146,7.451014,7.449663,7.448246,7.4468575,7.446026,7.445671,7.445632,7.4458485,7.4460535,7.446068,7.4456863,7.4450684,7.444254,7.4432335,7.442357,7.441669,7.440874,7.4401264,7.439476,7.438696,7.4379225,7.437277,7.43635,7.4352446,7.4342933,7.4332523,7.4324083,7.4321117,7.432308,7.432914,7.433713,7.434513,7.435322,7.435775,7.435854,7.435772,7.435443,7.4350166,7.43454,7.4337564,7.432806,7.4317255,7.430228,7.4286966,7.4274015,7.4256096,7.423702,7.4221745,7.420406,7.41876,7.417693,7.416998,7.4166794,7.4167337,7.417022,7.4174566,7.4178753,7.418214,7.4186277,7.419015,7.419285,7.4195714,7.419629,7.419402,7.4189925,7.418067,7.4168196,7.4155235,7.4136906,7.4117727,7.410202,7.4080715,7.405741,7.4037905,7.4013395,7.3986425,7.3965464,7.3949385,7.3936925,7.393002,7.3925858,7.3920884,7.3910923,7.3895187,7.3876753,7.3858128,7.3843217,7.3826814,7.3812113,7.3803473,7.3799257,7.3795996,7.3792768,7.378896,7.3784466,7.378266,7.3784113,7.3795238,7.3819017,7.3846216,7.3881474,7.3923397,7.396061,7.3999624,7.404642,7.408824,7.4122076,7.4161634,7.419634,7.4220443,7.4248524,7.4283514,7.4320726,7.437146,7.444071,7.4510403
4.126274,4.1284485,4.131304,4.134059,4.135683,4.1368294,4.13719,4.1365547,4.1352057,4.132272,4.1285977,4.1253414,4.1221747,4.12135,4.122998,4.1278486,4.135744,4.1431265,4.1498227,4.155241,4.1570187,4.1581,4.140766,4.115536,4.0970783,4.113484,4.238434,4.4671607,5.315296,6.5429983,7.455405,7.7386494,7.8328733,7.8693886,7.854762,7.8683157,7.901682,7.921581,7.8958535,7.844644,7.809243,7.781685,7.7628365,7.752872,7.7457447,7.7399006,7.7358713,7.732896,7.7296257,7.726703,7.7244134,7.721441,7.7173557,7.7130194,7.7082076,7.7021313,7.6959724,7.689206,7.6803827,7.671624,7.6638184,7.65446,7.6459727,7.639802,7.633384,7.6273575,7.622536,7.617379,7.6115713,7.6065373,7.602195,7.597392,7.593238,7.589953,7.5853224,7.580695,7.5774155,7.573764,7.570843,7.569273,7.5677137,7.5664277,7.5656323,7.564966,7.5643363,7.5638094,7.5633183,7.5626206,7.561776,7.5609922,7.560132,7.558846,7.5574107,7.556055,7.5546813,7.5536156,7.55278,7.551583,7.550132,7.5487204,7.546715,7.544426,7.5424547,7.5400815,7.5375714,7.535542,7.533452,7.5309076,7.5283804,7.5258617,7.5227284,7.519656,7.5170803,7.5140038,7.5107403,7.50794,7.505123,7.502459,7.500515,7.4989076,7.4974747,7.496473,7.495706,7.494773,7.4938,7.4929075,7.4917636,7.4905605,7.48961,7.4886327,7.4876223,7.48677,7.4859314,7.4849253,7.483975,7.483109,7.482099,7.4811563,7.4804087,7.4795084,7.478615,7.477913,7.477133,7.47628,7.4755554,7.474929,7.474193,7.4735074,7.4729156,7.472142,7.471257,7.4704256,7.4694057,7.468186,7.4670353,7.465703,7.4642158,7.4629645,7.4618177,7.460633,7.459676,7.4589014,7.4580164,7.4571447,7.456402,7.45555,7.454648,7.4538455,7.452833,7.4514723,7.4500775,7.44865,7.446988,7.445629,7.4447327,7.4438543,7.4430857,7.44243,7.44151,7.4403467,7.439274,7.4381857,7.4369698,7.435891,7.434916,7.4336104,7.4322357,7.431033,7.429639,7.428324,7.427315,7.4260626,7.4245853,7.423252,7.42185,7.420464,7.419606,7.4191957,7.419057,7.4191437,7.419224,7.419095,7.418578,7.41786,7.4169397,7.415808,7.4148383,7.414053,7.41316,7.412344,7.41164,7.4108353,7.410079,7.409467,7.4086113,7.407622,7.406784,7.4058743,7.4051476,7.4049044,7.405087,7.405595,7.4062138,7.4067926,7.407302,7.407447,7.407283,7.406927,7.406314,7.405647,7.404892,7.4038005,7.4025946,7.401289,7.3995695,7.397874,7.396454,7.3945527,7.392567,7.3909783,7.3891125,7.3873067,7.3860393,7.3850217,7.384204,7.3836994,7.383375,7.383004,7.382622,7.382278,7.381879,7.3814564,7.3810635,7.3805695,7.379818,7.3789463,7.377875,7.3762236,7.374334,7.3724427,7.369848,7.367157,7.3649216,7.361931,7.35861,7.355773,7.352661,7.3496313,7.3474503,7.34568,7.344213,7.34333,7.34278,7.342209,7.341525,7.340767,7.338486,7.3354797,7.333192,7.330618,7.3279867,7.3259764,7.324285,7.322562,7.320899,7.3190975,7.316164,7.3132024,7.3112664,7.3099146,7.309734,7.310302,7.3112607,7.3125596,7.3138,7.315317,7.317228,7.3188605,7.320029,7.321151,7.3216105,7.321379,7.3208227,7.320451,7.320728,7.321904,7.3242655,7.327099
4.1172323,4.119964,4.123623,4.1277413,4.1308966,4.1334105,4.135269,4.1358643,4.1354427,4.133176,4.1295586,4.125978,4.1218452,4.119276,4.1190157,4.121463,4.127516,4.1346607,4.1436386,4.150711,4.1538,4.1586876,4.154218,4.136468,4.1097693,4.1019735,4.154026,4.270631,4.763581,5.8943233,7.0889482,7.5710073,7.7779756,7.8208084,7.8170757,7.8145437,7.833622,7.8727036,7.8677044,7.8236766,7.7788625,7.7460384,7.7229786,7.71037,7.7022905,7.6962037,7.6922684,7.689452,7.6862926,7.683482,7.6813827,7.678547,7.6750216,7.6716137,7.6674843,7.6618204,7.6557603,7.6489744,7.639972,7.6309547,7.622934,7.61319,7.6042347,7.5976715,7.5907187,7.5845165,7.5799894,7.575066,7.5695057,7.5646605,7.560429,7.555887,7.552202,7.549501,7.5458364,7.5418477,7.5384684,7.5348606,7.5318327,7.530034,7.5286474,7.527697,7.527186,7.526746,7.5263777,7.526106,7.525835,7.525585,7.525386,7.52523,7.5251026,7.524768,7.5242925,7.5239735,7.523821,7.523696,7.5233016,7.5225906,7.521643,7.520689,7.5192432,7.517491,7.5159144,7.5139384,7.511768,7.509963,7.508072,7.5057364,7.5034056,7.5010805,7.4982023,7.495394,7.4930477,7.4902654,7.4873147,7.484768,7.4822435,7.479864,7.478113,7.476644,7.475293,7.474291,7.4734764,7.4724483,7.4713535,7.4703484,7.469063,7.4676957,7.466593,7.465435,7.464213,7.463176,7.4621634,7.4609647,7.4598503,7.4588547,7.4577055,7.4566603,7.4558544,7.454954,7.4541273,7.453517,7.4528737,7.452179,7.451572,7.4510403,7.450396,7.4497766,7.4492235,7.448495,7.4476843,7.4469543,7.4460993,7.4451275,7.444233,7.4431944,7.442018,7.4409933,7.4400115,7.438938,7.438011,7.4372363,7.4363008,7.4353294,7.4344835,7.4334946,7.432427,7.4314823,7.430327,7.4288073,7.4272766,7.425737,7.423931,7.4224253,7.4213963,7.4203534,7.419422,7.418641,7.417596,7.4163218,7.415168,7.413995,7.412673,7.4114904,7.4104223,7.4090085,7.407535,7.406247,7.404765,7.403358,7.40226,7.4008994,7.3992777,7.397794,7.396207,7.3945303,7.3933268,7.3925514,7.391923,7.391507,7.3911676,7.3905735,7.389646,7.388646,7.387453,7.38608,7.384938,7.383993,7.382948,7.3820143,7.3812065,7.380305,7.3794875,7.3788404,7.377967,7.3769784,7.3761415,7.3752046,7.3743668,7.3739276,7.373824,7.373882,7.3739824,7.37405,7.3739257,7.3734703,7.3728533,7.3720083,7.370936,7.369917,7.3687854,7.3673096,7.365807,7.3642426,7.362279,7.3604097,7.3588543,7.3568344,7.3547525,7.353076,7.3510513,7.348962,7.347338,7.345789,7.344185,7.3428345,7.3416286,7.34015,7.33871,7.3374853,7.336071,7.334705,7.3335924,7.3323154,7.330867,7.3295364,7.3280425,7.326068,7.3240204,7.322021,7.3193536,7.316639,7.314398,7.31142,7.3080835,7.3051853,7.302031,7.2989492,7.29668,7.294711,7.2929287,7.2917147,7.2908616,7.289906,7.2890644,7.288475,7.286888,7.284752,7.283003,7.280941,7.2786756,7.2767973,7.275074,7.2731295,7.2712154,7.2693615,7.2659726,7.262302,7.2598186,7.257579,7.25614,7.2554374,7.254816,7.25434,7.254094,7.254145,7.254326,7.254384,7.254241,7.2537384,7.252527,7.250866,7.2484818,7.2457128,7.2434897,7.2413287,7.2395267,7.2385507
4.1082563,4.1114893,4.115785,4.1209297,4.125292,4.1291313,4.1325073,4.134391,4.135114,4.134013,4.131112,4.1278143,4.123395,4.1196585,4.117859,4.117794,4.1215706,4.1278896,4.1369705,4.1465373,4.152234,4.154649,4.1579227,4.1520343,4.131294,4.107357,4.122821,4.194356,4.423909,5.3190074,6.517537,7.2956657,7.7060685,7.7477236,7.7821226,7.7773085,7.773198,7.8125353,7.827593,7.8004904,7.751436,7.7126083,7.6831455,7.667563,7.658273,7.651787,7.6478806,7.645218,7.642112,7.6393604,7.637456,7.635087,7.632369,7.629774,7.6260386,7.6205425,7.6145363,7.607728,7.5985746,7.5893273,7.5810795,7.5711527,7.5619993,7.5551662,7.547724,7.5411325,7.5365353,7.53164,7.5262346,7.5215645,7.517461,7.5129814,7.509305,7.506568,7.5035896,7.5004606,7.497403,7.4940863,7.490991,7.48886,7.487337,7.486453,7.4861536,7.4859314,7.485817,7.4857874,7.485745,7.4857616,7.485831,7.485903,7.486018,7.486261,7.486621,7.4872813,7.4882965,7.48913,7.489423,7.489563,7.4893794,7.4889336,7.488078,7.4869003,7.4857893,7.484309,7.4826164,7.4811754,7.479627,7.477669,7.4756756,7.473663,7.471158,7.468704,7.46665,7.4642243,7.4616394,7.459392,7.457211,7.4551773,7.4536743,7.4524055,7.451209,7.450271,7.4494658,7.4484153,7.4472685,7.446204,7.4448414,7.4433823,7.442194,7.440933,7.4396095,7.4385023,7.4374313,7.436186,7.435049,7.434044,7.4328976,7.4318786,7.4311104,7.4303064,7.4296274,7.4291544,7.4286766,7.428156,7.427678,7.42725,7.426726,7.4262266,7.4257793,7.425193,7.4245634,7.4240217,7.423424,7.4227777,7.422188,7.421486,7.420658,7.41989,7.419111,7.418201,7.4173617,7.416643,7.415745,7.414775,7.4139113,7.41289,7.4117684,7.4107685,7.409561,7.4079914,7.406425,7.404867,7.4030266,7.401467,7.400377,7.399249,7.3982277,7.3973775,7.3962703,7.39495,7.393769,7.392571,7.3912153,7.3899975,7.3889065,7.387479,7.385996,7.384697,7.3831987,7.38175,7.3805895,7.379141,7.377389,7.375756,7.373975,7.3719764,7.370369,7.3691626,7.3679514,7.366938,7.3660984,7.364957,7.363556,7.362239,7.36075,7.3591366,7.3578405,7.356768,7.355613,7.354605,7.3537245,7.352757,7.3518953,7.351219,7.350319,7.3492985,7.3484173,7.347386,7.3463354,7.3455873,7.3450794,7.3445525,7.3440256,7.343505,7.3426704,7.341563,7.3404665,7.339109,7.3375664,7.3361974,7.334707,7.332882,7.3311176,7.329329,7.327155,7.3251324,7.323453,7.321314,7.3191214,7.317337,7.3151245,7.3127003,7.3106656,7.3085265,7.3060875,7.303878,7.301794,7.2992406,7.2967978,7.2947445,7.2923827,7.2901487,7.288389,7.286449,7.284466,7.282836,7.281105,7.2790704,7.277152,7.275333,7.2729897,7.2706795,7.2688093,7.266361,7.2636213,7.2612133,7.25846,7.255569,7.2532706,7.251169,7.249119,7.2475824,7.2463984,7.244975,7.243679,7.242708,7.241789,7.2408156,7.239788,7.238448,7.236821,7.2353573,7.233921,7.232067,7.230195,7.228596,7.2258606,7.2229567,7.220982,7.2190847,7.217649,7.2167253,7.215767,7.214885,7.214307,7.213992,7.2137737,7.2135563,7.2132797,7.212721,7.211564,7.21,7.2077007,7.2047644,7.2020893,7.199015,7.1959085,7.1936665
4.1004925,4.1041403,4.108865,4.114476,4.1193714,4.124281,4.128913,4.131838,4.133662,4.1339283,4.1321745,4.129628,4.1256595,4.1215973,4.1189365,4.117389,4.1188574,4.1229553,4.1298876,4.139903,4.148161,4.152522,4.1547074,4.1501846,4.1393685,4.1153803,4.1148577,4.1585774,4.272992,4.922419,5.929125,6.969704,7.597853,7.660795,7.7432933,7.7553864,7.7356086,7.756507,7.781517,7.774416,7.730961,7.6862144,7.649131,7.63193,7.621563,7.614594,7.6106253,7.608032,7.604845,7.602058,7.600341,7.5988455,7.596779,7.5940485,7.5904427,7.5851135,7.579198,7.572425,7.5632434,7.5539207,7.545592,7.5355687,7.526372,7.5195665,7.512295,7.5055275,7.5003767,7.4952807,7.489936,7.4854326,7.4814067,7.4769764,7.4733043,7.4705257,7.4676075,7.464823,7.4623156,7.4591875,7.456217,7.454264,7.4523754,7.4511747,7.4508924,7.450783,7.4508,7.450881,7.450943,7.451103,7.451346,7.451585,7.451931,7.452423,7.452971,7.4538145,7.454975,7.456094,7.457141,7.4583178,7.458948,7.458861,7.458359,7.4575047,7.456687,7.455526,7.4541583,7.452977,7.451681,7.450005,7.4482703,7.446492,7.4442663,7.44207,7.440214,7.4380264,7.435681,7.433629,7.431669,7.429861,7.428528,7.4273977,7.426315,7.425441,7.42467,7.423652,7.422531,7.42149,7.4201527,7.418712,7.417535,7.416274,7.4149585,7.413871,7.4128175,7.411607,7.4105115,7.409544,7.4084473,7.407487,7.406777,7.4060698,7.4055195,7.405164,7.404813,7.4044256,7.404056,7.403718,7.403314,7.402948,7.402631,7.402219,7.401788,7.401432,7.401058,7.4006596,7.400285,7.3998165,7.399222,7.3986235,7.397984,7.3972015,7.396452,7.395804,7.3950024,7.3941326,7.393348,7.392425,7.3914084,7.3904963,7.389393,7.3879614,7.3865356,7.3851147,7.38342,7.381957,7.380912,7.3798094,7.378776,7.3778977,7.3767705,7.3754315,7.374233,7.373022,7.3716507,7.370428,7.369352,7.3679705,7.366561,7.3653374,7.363928,7.362561,7.361454,7.3600636,7.358363,7.356754,7.354974,7.3529053,7.3511477,7.349743,7.3482323,7.34688,7.345743,7.344278,7.342603,7.34111,7.339469,7.3377466,7.3363986,7.335294,7.334138,7.333153,7.332294,7.3313694,7.3305645,7.329938,7.3290944,7.3281193,7.327258,7.3262177,7.3250647,7.3241277,7.3233566,7.3224416,7.321499,7.320586,7.319287,7.3177633,7.3163643,7.314683,7.312835,7.3112307,7.3095045,7.307448,7.3055115,7.3035774,7.3012624,7.2991295,7.2973566,7.2951174,7.2928233,7.290942,7.288575,7.2858877,7.28354,7.280958,7.277912,7.27509,7.2723885,7.269085,7.2659397,7.2633033,7.260254,7.257359,7.255082,7.252598,7.2501354,7.248184,7.246166,7.243936,7.2419577,7.2401276,7.237841,7.2356515,7.2339125,7.2317076,7.229293,7.227174,7.2247105,7.2220306,7.2198153,7.2177324,7.215621,7.213972,7.2126617,7.2110806,7.2096086,7.2084627,7.207202,7.205841,7.2045436,7.2028804,7.2008696,7.1990366,7.1971893,7.194818,7.1924314,7.190237,7.1874804,7.184968,7.1831913,7.1814823,7.180194,7.179366,7.1784735,7.177578,7.1769295,7.1765366,7.1763277,7.1762743,7.1762466,7.176144,7.1755953,7.174611,7.172989,7.170903,7.1691113,7.167247,7.1655912,7.1645527
4.092165,4.096356,4.1014814,4.1074142,4.1126556,4.118143,4.123813,4.1279373,4.1308846,4.132601,4.1321306,4.1304617,4.1271257,4.1229243,4.1195283,4.1164174,4.1155367,4.1174455,4.121707,4.131743,4.1425877,4.1489935,4.151828,4.149374,4.145133,4.1267414,4.114607,4.12729,4.1672096,4.588867,5.3648605,6.56489,7.408036,7.5725822,7.699131,7.732309,7.70465,7.703514,7.7307234,7.7399907,7.70652,7.6573434,7.6127305,7.5934362,7.5815506,7.5739803,7.5701437,7.5676804,7.56441,7.5617714,7.56077,7.5594883,7.5573244,7.5545487,7.5510397,7.545891,7.5401306,7.533475,7.524384,7.5151014,7.5067816,7.496763,7.487586,7.4808283,7.4736505,7.466963,7.4618025,7.4564395,7.4507,7.4459467,7.4419603,7.437544,7.4338036,7.4309454,7.427917,7.4252844,7.4232473,7.4205484,7.417819,7.415881,7.4140263,7.4126062,7.4119577,7.411599,7.411558,7.411728,7.4118123,7.412012,7.4123306,7.4126644,7.4131603,7.413851,7.4145827,7.41563,7.4170074,7.4183316,7.419632,7.4210625,7.422105,7.422717,7.422905,7.42252,7.421917,7.42105,7.4199967,7.419071,7.4180284,7.416646,7.4151793,7.4136467,7.411707,7.409766,7.4081106,7.4061556,7.4040394,7.402169,7.400424,7.39884,7.3976784,7.396696,7.395754,7.3949847,7.3942995,7.3933954,7.3923984,7.391467,7.3902617,7.3889513,7.38787,7.386696,7.385467,7.3844576,7.383485,7.3823686,7.38136,7.3804727,7.379461,7.3785768,7.3779316,7.377318,7.3768797,7.3766174,7.376359,7.3760633,7.375765,7.375492,7.3751955,7.3749676,7.374797,7.3745794,7.374362,7.374193,7.3740253,7.3738422,7.3736477,7.373371,7.3729725,7.372526,7.37202,7.3713818,7.370764,7.3702316,7.3695974,7.3689227,7.368312,7.367601,7.366825,7.366129,7.365268,7.3641396,7.363,7.361841,7.360432,7.3591766,7.3582473,7.357226,7.3562098,7.3553133,7.3541636,7.352797,7.351578,7.350351,7.348975,7.3477745,7.3467474,7.345478,7.344221,7.3431425,7.3419223,7.3407516,7.339793,7.33857,7.3370433,7.3355684,7.333904,7.33189,7.330082,7.328556,7.3268194,7.325179,7.3237734,7.3220086,7.3200774,7.318424,7.3166423,7.3148303,7.3134494,7.3123455,7.3112335,7.3103166,7.3095217,7.308695,7.3079977,7.307459,7.3067174,7.305826,7.305005,7.303959,7.3026876,7.3015366,7.3004665,7.299115,7.2977066,7.2963557,7.2945347,7.292534,7.290779,7.288701,7.286466,7.28456,7.282527,7.280163,7.2779837,7.275834,7.273288,7.270953,7.269003,7.266556,7.2640452,7.2619686,7.259322,7.25623,7.253441,7.2502966,7.2465158,7.242979,7.239586,7.2354655,7.2315683,7.2283,7.224499,7.2208595,7.217981,7.214848,7.2117696,7.2093644,7.2068987,7.2042594,7.202012,7.199972,7.197494,7.195186,7.193381,7.1912065,7.1889396,7.1869965,7.1847234,7.18219,7.1800194,7.177909,7.175684,7.173872,7.172386,7.1705985,7.168936,7.167632,7.16622,7.164789,7.1635075,7.1618915,7.159978,7.158244,7.156464,7.154156,7.151822,7.149655,7.1470585,7.144749,7.1430836,7.1414337,7.1400967,7.1391506,7.138025,7.13678,7.1357923,7.1350594,7.1345096,7.134249,7.134128,7.1340494,7.133671,7.132901,7.1315327,7.129698,7.128083,7.1263647,7.1247873,7.1237574
4.0826883,4.0872774,4.092779,4.0989428,4.1043024,4.1100006,4.1162777,4.121317,4.1252623,4.128433,4.129402,4.1288176,4.126502,4.122756,4.119252,4.115488,4.1132374,4.1135545,4.1154776,4.123827,4.134839,4.1430454,4.147025,4.144758,4.1403303,4.1312227,4.1183662,4.110175,4.1213293,4.3570185,4.8807025,6.0126147,7.0645113,7.507764,7.6360736,7.6858253,7.676973,7.6556997,7.675313,7.694744,7.679025,7.6314907,7.5799656,7.5543985,7.5401106,7.5315156,7.527473,7.524803,7.521719,7.519414,7.5185127,7.5168705,7.5142345,7.5112906,7.5077677,7.502762,7.4971848,7.490691,7.4817705,7.472615,7.464388,7.4544697,7.4453955,7.438736,7.4316854,7.4251823,7.4201903,7.41479,7.4086785,7.403473,7.3993435,7.3948083,7.390939,7.3879356,7.3847065,7.3820176,7.3801317,7.377973,7.3756227,7.3736076,7.371824,7.370285,7.369317,7.368609,7.368246,7.368261,7.368314,7.3684826,7.368808,7.3691883,7.3697824,7.3706236,7.3714995,7.3727036,7.3742566,7.375705,7.3770676,7.378507,7.379703,7.3807364,7.381468,7.381501,7.3810577,7.3804197,7.3796177,7.378901,7.378069,7.3769426,7.3757253,7.374427,7.3727684,7.3710885,7.3696394,7.367921,7.3660297,7.364332,7.3627777,7.3613853,7.360369,7.359516,7.3587103,7.3580685,7.3575077,7.356783,7.3559904,7.3552446,7.354263,7.3531685,7.3522434,7.35122,7.350136,7.349244,7.348389,7.3474073,7.3465204,7.34574,7.3448353,7.3440332,7.343445,7.3429008,7.342527,7.34231,7.342094,7.3418374,7.3415785,7.341357,7.341166,7.3410864,7.341073,7.341053,7.34103,7.3410134,7.340994,7.3409386,7.340841,7.3406715,7.340391,7.3400517,7.339651,7.3391523,7.3386817,7.338287,7.337858,7.337429,7.337038,7.3365974,7.336136,7.335724,7.3351917,7.334473,7.333721,7.33293,7.3319154,7.330948,7.330187,7.329287,7.3283043,7.327393,7.3262205,7.324827,7.3235946,7.322366,7.3210106,7.319864,7.3189216,7.3178144,7.316766,7.3158784,7.314906,7.313995,7.313245,7.312268,7.31102,7.3097878,7.308365,7.306566,7.304857,7.3033347,7.3015137,7.299714,7.2981434,7.296196,7.2941275,7.292411,7.2905893,7.2887883,7.287456,7.286421,7.2854166,7.2846146,7.283923,7.28323,7.2826643,7.2822304,7.2816157,7.280843,7.2800946,7.2790895,7.2777715,7.2764816,7.27519,7.2735033,7.271732,7.2700424,7.2678304,7.265489,7.2634974,7.261154,7.258666,7.256564,7.2543373,7.251776,7.2494354,7.2471423,7.2444296,7.241934,7.239834,7.237211,7.234523,7.23229,7.229428,7.2260265,7.2228994,7.219327,7.2149944,7.2109356,7.207052,7.202384,7.198009,7.194355,7.1900835,7.1859713,7.182702,7.179143,7.175627,7.172864,7.1700287,7.166997,7.1644244,7.1621013,7.159297,7.156708,7.154683,7.152334,7.1499987,7.148057,7.1457872,7.143218,7.1409554,7.1386867,7.136202,7.134099,7.132325,7.130197,7.128225,7.1266747,7.1250095,7.1234336,7.1221375,7.1205587,7.1187725,7.1171956,7.11555,7.1134043,7.1112347,7.1092386,7.1068044,7.1045914,7.102975,7.1013026,7.0998287,7.0986843,7.0972233,7.0955105,7.0940766,7.0928903,7.091835,7.09118,7.090785,7.090497,7.090053,7.089308,7.087985,7.0861645,7.0844946,7.0826077,7.080719,7.079363
4.0734835,4.078297,4.0840626,4.090368,4.095743,4.101521,4.108051,4.1135626,4.1182046,4.1225224,4.1247535,4.1252203,4.1240625,4.121151,4.118014,4.114381,4.111768,4.1113534,4.1121874,4.11784,4.126544,4.135722,4.140895,4.137945,4.1299586,4.1264067,4.118602,4.1058135,4.111346,4.2395706,4.5783834,5.462121,6.6415205,7.429058,7.550597,7.623565,7.652077,7.6229696,7.628543,7.647748,7.651575,7.6125855,7.5579605,7.52353,7.5059586,7.4955893,7.490876,7.4877243,7.4849157,7.48282,7.48118,7.478892,7.4757614,7.4725266,7.4688644,7.463895,7.458441,7.452071,7.443297,7.4342713,7.4261546,7.4163637,7.4074144,7.4008574,7.393942,7.3875785,7.3826942,7.377495,7.3713326,7.365812,7.3613715,7.356597,7.3525877,7.3494096,7.346011,7.343172,7.341145,7.339312,7.3372827,7.3352375,7.33339,7.331785,7.330735,7.3298078,7.3290415,7.328712,7.3286724,7.328776,7.3290944,7.329504,7.330173,7.3311324,7.332121,7.333439,7.335108,7.3366423,7.3380685,7.3395863,7.340827,7.3418374,7.342657,7.3428416,7.3425093,7.3419933,7.3413205,7.3407116,7.3399878,7.339011,7.3379574,7.3368225,7.3353834,7.3339205,7.3326454,7.331128,7.329422,7.3278584,7.326436,7.32516,7.3242273,7.3234468,7.3227215,7.3221717,7.32172,7.321161,7.3205633,7.319996,7.319229,7.318338,7.3175545,7.3166685,7.31571,7.3149147,7.3141556,7.313287,7.3125014,7.311808,7.310991,7.3102455,7.3096857,7.309164,7.308794,7.308571,7.3083477,7.30809,7.307852,7.3076725,7.30758,7.307636,7.3077583,7.3078957,7.3080025,7.3080673,7.3080997,7.308057,7.307953,7.307784,7.3075194,7.307211,7.306855,7.3064337,7.306059,7.305757,7.3054724,7.305219,7.304985,7.304742,7.304516,7.3043256,7.304064,7.303697,7.3032894,7.3028336,7.302183,7.301477,7.300866,7.3000693,7.299106,7.298171,7.2969723,7.2955575,7.294321,7.2930994,7.2917733,7.29068,7.289812,7.2888393,7.287961,7.287229,7.286454,7.2857504,7.2851725,7.2844152,7.2834425,7.2824726,7.281331,7.2798314,7.27833,7.276922,7.2751665,7.273368,7.2717705,7.2698135,7.2677794,7.2661295,7.264401,7.2627296,7.2615266,7.2606153,7.259753,7.259078,7.2584963,7.257925,7.257469,7.2571216,7.2566175,7.255966,7.2553167,7.25441,7.2531595,7.251874,7.2505264,7.248728,7.246828,7.245019,7.242694,7.240295,7.2382956,7.2359595,7.233492,7.2314095,7.2292104,7.226673,7.2243476,7.2220707,7.2193594,7.2168417,7.2147074,7.2120504,7.209338,7.2070913,7.204214,7.2007723,7.1975813,7.193901,7.1894217,7.185231,7.181241,7.1764917,7.172094,7.1684484,7.1641827,7.1600657,7.1567845,7.153208,7.1496353,7.14678,7.143833,7.1406236,7.137841,7.135303,7.1322026,7.129304,7.1270123,7.1243753,7.1217933,7.1196833,7.1172113,7.1143928,7.1118746,7.109302,7.1064157,7.1039085,7.101755,7.099168,7.0967627,7.09486,7.092787,7.0908813,7.089404,7.087668,7.085782,7.084158,7.08245,7.080238,7.0780253,7.0760202,7.073585,7.071354,7.0696945,7.0678983,7.0662045,7.0648165,7.0629992,7.060812,7.0589237,7.057267,7.0556593,7.05453,7.0537663,7.053115,7.052426,7.05155,7.0500984,7.048149,7.0463505,7.0442715,7.042097,7.0404415
4.0646505,4.0699077,4.0757604,4.0820103,4.087446,4.093397,4.1003094,4.106352,4.1116223,4.1168804,4.1201863,4.121682,4.121685,4.119485,4.116429,4.112274,4.1087317,4.1075344,4.107975,4.1114,4.117727,4.1277933,4.1340585,4.132612,4.127335,4.1216755,4.114227,4.1072702,4.107975,4.172969,4.3894415,5.0032196,6.2055674,7.254072,7.4297996,7.5620413,7.6310644,7.605646,7.5921345,7.60028,7.62138,7.59478,7.542137,7.5003204,7.4785395,7.465316,7.4596806,7.4561033,7.453106,7.450697,7.4483476,7.445324,7.4415693,7.437945,7.434023,7.4289665,7.4235516,7.4172435,7.408563,7.399638,7.3916245,7.3819456,7.3730974,7.3666224,7.3598137,7.3535686,7.3487806,7.3436756,7.3375845,7.3320045,7.3272,7.3221264,7.3179674,7.3146067,7.3109984,7.3080044,7.3059063,7.303993,7.3020563,7.3002186,7.2983065,7.2965174,7.295294,7.294218,7.293171,7.292524,7.292248,7.2922173,7.292522,7.292947,7.293672,7.2947206,7.295792,7.2971926,7.2989373,7.300518,7.301973,7.303511,7.3047857,7.305876,7.3065195,7.306531,7.306267,7.305788,7.3051395,7.3045435,7.303838,7.3029037,7.301924,7.300885,7.2995906,7.2982855,7.297142,7.2957773,7.2942057,7.2927294,7.2913857,7.290166,7.28926,7.2884965,7.287796,7.2872896,7.2869053,7.2864676,7.286025,7.2856007,7.2850084,7.284281,7.283609,7.2828236,7.2819495,7.281213,7.2805166,7.279722,7.2790055,7.278367,7.277602,7.276885,7.27633,7.275798,7.275403,7.275154,7.2749057,7.274645,7.274437,7.274318,7.274347,7.2745533,7.2748227,7.2751217,7.275343,7.2754593,7.2754974,7.2754035,7.2752323,7.2749977,7.2746677,7.2743187,7.273946,7.273526,7.2731776,7.2729063,7.2726827,7.272517,7.2723684,7.272244,7.272175,7.2721453,7.2720976,7.2720346,7.2719393,7.2717824,7.271471,7.271018,7.270542,7.269831,7.268873,7.2679067,7.266679,7.2652435,7.2640014,7.2627697,7.2614517,7.2603884,7.2595515,7.258658,7.2578974,7.2572813,7.2566524,7.2561097,7.25568,7.2551184,7.254421,7.2537374,7.2529106,7.2517796,7.250578,7.249386,7.2478237,7.2461543,7.244644,7.24282,7.240964,7.23949,7.2379684,7.2365274,7.2355194,7.234784,7.2341137,7.233599,7.2331486,7.232725,7.2324,7.2321544,7.231783,7.231285,7.2307777,7.230036,7.228954,7.227787,7.226516,7.224782,7.2229347,7.2211714,7.2189507,7.2167144,7.214886,7.212757,7.2105136,7.2086153,7.2065935,7.2042375,7.2020564,7.199912,7.197325,7.194891,7.192814,7.1902323,7.1876087,7.18545,7.1826963,7.1793995,7.176331,7.172763,7.168401,7.1643276,7.160471,7.1559362,7.1517944,7.1483955,7.1444273,7.140587,7.1375027,7.134132,7.130707,7.1279087,7.1249866,7.121702,7.118753,7.1160088,7.112579,7.1092987,7.1066694,7.1036205,7.1006293,7.0981984,7.095341,7.0920854,7.089175,7.0861664,7.082748,7.0797367,7.0771127,7.073946,7.0709753,7.0685997,7.0659533,7.0635233,7.061693,7.0596075,7.057408,7.055547,7.0535984,7.0511165,7.048676,7.046487,7.0438404,7.041393,7.0395308,7.037425,7.035326,7.0335484,7.0312204,7.0283957,7.0259113,7.0236444,7.0212927,7.0194855,7.0181627,7.0168967,7.015703,7.0144863,7.012674,7.010379,7.008294,7.0058837,7.003291,7.001229
4.0529957,4.058624,4.064579,4.0708494,4.0763893,4.082519,4.0897923,4.0963116,4.102039,4.1083922,4.113081,4.115649,4.116967,4.1159377,4.1136236,4.1097155,4.1057844,4.103892,4.1035886,4.105008,4.109043,4.1177363,4.1249866,4.1262193,4.1231885,4.1159773,4.110369,4.1108894,4.107041,4.1320357,4.256216,4.5922136,5.6793013,6.879711,7.2952466,7.5368714,7.588461,7.5776596,7.5468817,7.540468,7.5763855,7.5682096,7.523651,7.474737,7.4456353,7.427513,7.4213905,7.4179263,7.414883,7.412055,7.409115,7.405439,7.4010916,7.3970704,7.392863,7.3876815,7.382281,7.3760242,7.367429,7.3586,7.3506923,7.341138,7.3324013,7.326011,7.319307,7.313177,7.308483,7.303464,7.2974396,7.2917843,7.2865343,7.281108,7.27678,7.2731943,7.269341,7.2661796,7.26402,7.2620325,7.260174,7.2585125,7.256508,7.2545033,7.2530756,7.2518253,7.250551,7.2496676,7.249158,7.249031,7.249378,7.249864,7.2507,7.251895,7.253088,7.254605,7.25646,7.2581215,7.259639,7.261262,7.2625837,7.263663,7.26412,7.2640104,7.263851,7.263447,7.2628565,7.2622976,7.261635,7.26078,7.2599106,7.2590027,7.2578983,7.2567964,7.2558203,7.254649,7.2532444,7.251876,7.250615,7.249445,7.248559,7.2478027,7.247113,7.246643,7.2463255,7.246003,7.2457075,7.2454247,7.244997,7.244424,7.2438602,7.2431746,7.2423925,7.2417297,7.241111,7.2404194,7.2398033,7.239251,7.23857,7.2379003,7.237357,7.236807,7.2363567,7.2360444,7.2357216,7.23539,7.2351475,7.2350245,7.23509,7.235361,7.2356977,7.2360597,7.2362933,7.236369,7.236312,7.236068,7.235752,7.2353764,7.234912,7.234474,7.2340393,7.2335687,7.233185,7.2328854,7.2326307,7.2324386,7.232274,7.232132,7.2320666,7.2320714,7.2321043,7.232195,7.2322817,7.232316,7.232219,7.23191,7.23149,7.2307777,7.2297554,7.2287116,7.227417,7.225939,7.224682,7.2234383,7.2221246,7.221076,7.2202463,7.219374,7.218646,7.2180634,7.217462,7.2169466,7.216548,7.2160506,7.215493,7.2149863,7.214377,7.213514,7.212529,7.211483,7.2100472,7.208459,7.2070026,7.2052784,7.203574,7.202257,7.2009096,7.1996574,7.198798,7.198186,7.1976175,7.1971655,7.1967626,7.196368,7.196052,7.1958084,7.195462,7.195024,7.194593,7.193964,7.1930256,7.1919756,7.190795,7.189161,7.1874104,7.1857376,7.183677,7.1816654,7.1800613,7.178198,7.176239,7.174574,7.172779,7.170645,7.1686335,7.1666355,7.164181,7.1618357,7.1598177,7.157319,7.154812,7.152776,7.1502037,7.1471376,7.1442776,7.1409183,7.1367965,7.1329575,7.1293445,7.125159,7.121414,7.118395,7.1148815,7.111491,7.108769,7.1057987,7.1027336,7.100171,7.097471,7.0943346,7.0914063,7.0886188,7.0850554,7.081583,7.07877,7.0754747,7.072213,7.0695524,7.066392,7.062769,7.0595145,7.056113,7.052208,7.0487423,7.0457034,7.042037,7.0385947,7.0358386,7.03273,7.029871,7.027751,7.025383,7.0229106,7.020823,7.018638,7.015871,7.0131683,7.010764,7.007856,7.005127,7.003004,7.000517,6.9979477,6.995741,6.9928875,6.989438,6.986389,6.983556,6.980525,6.9781,6.97626,6.974412,6.9727077,6.9711137,6.9688816,6.966154,6.9636936,6.960864,6.9577513,6.9551907
4.040697,4.0464764,4.052637,4.0591106,4.0647707,4.0710673,4.078613,4.085508,4.091689,4.099068,4.1050415,4.1086473,4.1112194,4.1113873,4.1099663,4.1068544,4.1030746,4.1006384,4.099303,4.099372,4.101823,4.107397,4.1152334,4.1197767,4.1186037,4.1129804,4.108716,4.11016,4.104864,4.1161475,4.190364,4.340016,5.2039995,6.37674,7.1304436,7.514723,7.5243444,7.5408807,7.507104,7.487323,7.5245,7.532496,7.5003633,7.448971,7.4121885,7.388142,7.381365,7.3784666,7.3757753,7.3728743,7.369768,7.3658195,7.361128,7.35682,7.352375,7.347043,7.3415985,7.335335,7.326766,7.317999,7.310181,7.3007464,7.2921286,7.2858295,7.279236,7.273223,7.2686205,7.263691,7.257724,7.2520022,7.24642,7.2406406,7.2360744,7.232294,7.2282333,7.2249346,7.2227273,7.220703,7.2188845,7.2172966,7.215185,7.212985,7.211376,7.209961,7.2085447,7.207548,7.206893,7.2067595,7.2072186,7.2078085,7.2087936,7.2101555,7.211474,7.213102,7.2150664,7.216816,7.2184095,7.220166,7.221533,7.22246,7.2228527,7.222808,7.222769,7.222475,7.221986,7.2215066,7.220932,7.220208,7.219488,7.218733,7.217842,7.216959,7.21616,7.215191,7.2139597,7.212697,7.211512,7.21038,7.2095075,7.208748,7.2080584,7.207612,7.207343,7.2071,7.206907,7.206725,7.206414,7.2059546,7.205481,7.2048883,7.2042084,7.203641,7.203126,7.202574,7.202092,7.2016573,7.2010956,7.2005014,7.199989,7.199428,7.1989126,7.1985188,7.1980877,7.1976304,7.1972866,7.1970806,7.1970687,7.197282,7.19757,7.1978602,7.1979856,7.197937,7.1977077,7.197259,7.1967707,7.196225,7.195607,7.1950674,7.1945515,7.193993,7.1935215,7.1931334,7.1927447,7.1923943,7.192091,7.1917715,7.1915207,7.1913896,7.191315,7.1913357,7.1914005,7.1914434,7.1913576,7.1910353,7.19057,7.1897745,7.1886473,7.18752,7.18616,7.184655,7.183404,7.1821747,7.1808834,7.179847,7.1790113,7.178103,7.177306,7.176652,7.175929,7.1752644,7.1747446,7.174136,7.1735106,7.172998,7.1724234,7.171628,7.170703,7.1696815,7.168254,7.166663,7.165205,7.163512,7.1618814,7.160651,7.1593895,7.158219,7.1574063,7.1568117,7.1562095,7.1556826,7.155208,7.15469,7.154229,7.1538677,7.15341,7.1528983,7.152444,7.1518393,7.150976,7.150015,7.1489215,7.1474066,7.1457877,7.144245,7.142381,7.1406116,7.1392384,7.137641,7.13596,7.1345196,7.1329465,7.1310186,7.1291504,7.127268,7.1249037,7.1226006,7.120606,7.118153,7.115729,7.113796,7.11139,7.108554,7.1059103,7.1027856,7.0989447,7.095378,7.0920353,7.0882187,7.084877,7.082239,7.079184,7.0762625,7.073937,7.0714197,7.068801,7.0665693,7.0642095,7.061386,7.0586567,7.0559993,7.0525446,7.049135,7.046361,7.043081,7.03979,7.0370746,7.033805,7.030013,7.0265865,7.0229793,7.018812,7.0151052,7.0118647,7.0079756,7.0043454,7.0014515,6.9981728,6.9951544,6.9929237,6.9904537,6.987856,6.985629,6.983289,6.980301,6.9773717,6.974772,6.971611,6.968605,6.9662275,6.9633846,6.9604015,6.957839,6.9545918,6.950715,6.9473085,6.9441404,6.9407287,6.93796,6.9358273,6.9336276,6.9315777,6.9296923,6.9271135,6.923994,6.921176,6.917953,6.914356,6.911333
4.030319,4.0360985,4.0425577,4.0493417,4.0550985,4.0615554,4.0693116,4.076544,4.083377,4.0915446,4.098375,4.1029663,4.106609,4.107541,4.1064615,4.1038933,4.1002417,4.097332,4.095083,4.094269,4.0957212,4.0985947,4.106681,4.1142397,4.115645,4.1138163,4.108408,4.10291,4.100106,4.1068964,4.150768,4.2132688,4.865458,5.9201317,6.93301,7.4517326,7.457527,7.5061555,7.4829025,7.4531865,7.4787292,7.494727,7.4742365,7.4253397,7.3835545,7.3543367,7.3461456,7.3437357,7.3416624,7.3391476,7.336209,7.3323,7.327482,7.323,7.3183775,7.312886,7.3073473,7.3010187,7.2924204,7.283682,7.275936,7.266611,7.258116,7.251918,7.2454476,7.239559,7.235054,7.2302246,7.2243314,7.2185965,7.2128816,7.206788,7.201909,7.1980076,7.1938086,7.1904116,7.188161,7.1860905,7.184267,7.182697,7.1804876,7.17813,7.176385,7.1748505,7.173331,7.1722646,7.171541,7.1714497,7.172036,7.1727343,7.1738524,7.1753426,7.176745,7.1784406,7.180472,7.182279,7.1839237,7.1857967,7.187187,7.1879044,7.188345,7.188484,7.1885395,7.1883492,7.1879654,7.1875763,7.187106,7.1865244,7.185953,7.185337,7.184635,7.183941,7.1832886,7.182491,7.181402,7.180223,7.179098,7.1779947,7.1771255,7.176355,7.175661,7.17523,7.1749845,7.1747875,7.174655,7.174529,7.1742907,7.173913,7.1735086,7.173004,7.1724315,7.1719675,7.17157,7.1711664,7.1708255,7.1705103,7.1700754,7.16957,7.169098,7.168538,7.167974,7.167514,7.1669855,7.166407,7.1659565,7.1656485,7.1655207,7.1656294,7.165829,7.1659994,7.165988,7.1658163,7.1654253,7.1648035,7.1641808,7.1635017,7.1627693,7.162156,7.1615744,7.1609373,7.1603727,7.1598825,7.1593304,7.158781,7.1583014,7.1577578,7.1572604,7.156932,7.1566734,7.156525,7.156477,7.156439,7.15627,7.1558704,7.155333,7.1544495,7.153248,7.1520753,7.150693,7.1492033,7.147992,7.1468067,7.145562,7.1445503,7.143716,7.142763,7.141872,7.1411095,7.140212,7.1393404,7.1386476,7.137864,7.1370883,7.136483,7.135849,7.1350203,7.134078,7.1330376,7.1315756,7.1299534,7.1284847,7.1267977,7.125202,7.1240177,7.1227946,7.121644,7.1208215,7.1201935,7.119503,7.1188564,7.1182675,7.1175785,7.116934,7.1164246,7.1158133,7.1151857,7.1146708,7.114052,7.1132298,7.112344,7.1113367,7.1099524,7.1084847,7.1070914,7.1054344,7.103898,7.1027327,7.1013746,7.0999336,7.09868,7.0972967,7.095538,7.093778,7.091981,7.089665,7.087365,7.0853615,7.0829144,7.0805264,7.0786495,7.076353,7.073681,7.0712013,7.068268,7.064661,7.0613194,7.0582027,7.054677,7.0516405,7.049284,7.04657,7.0439987,7.041969,7.0397935,7.0375233,7.0355654,7.033491,7.0309477,7.0284195,7.0259175,7.022626,7.0193543,7.0166903,7.013522,7.0103035,7.0076103,7.0043287,7.0004907,6.997011,6.993336,6.9890823,6.985304,6.982026,6.9781175,6.974493,6.971616,6.968351,6.9653416,6.963113,6.9606466,6.9580145,6.955716,6.9532766,6.9501305,6.947024,6.944261,6.9408836,6.9376445,6.9350605,6.931938,6.9286447,6.925828,6.9223204,6.918195,6.9146094,6.911295,6.9077344,6.9048367,6.902584,6.900223,6.8979797,6.8959103,6.8930945,6.889689,6.8866053,6.88309,6.879135,6.8757668
