19.154076,19.699581,19.964926,19.884207,19.720585,19.352455,18.825218,18.335318,17.701164,16.865623,16.022821,15.152426,13.89162,12.738054,12.052581,11.427649,11.021332,10.790237,10.503307,10.235258,10.053659,9.898357,9.760548,9.6657295,9.597641,9.547529,9.527439,9.521608,9.519564,9.501429,9.461901,9.379549,9.2384615,9.088625,8.93696,8.775835,8.646643,8.529931,8.432941,8.406193,8.431606,8.517742,8.665066,8.813068,8.983202,9.134768,9.21394,9.243719,9.19552,9.115172,9.080145,9.042486,9.015242,9.003006,9.00136,9.007614,9.01205,9.012836,9.013212,9.014679,9.01691,9.013693,9.005089,8.994915,8.991192,8.993513,8.995061,8.995791,8.995687,8.996815,9.012102,9.040352,9.071232,9.105417,9.148716,9.192087,9.232561,9.289461,9.352932,9.408074,9.47874,9.5604925,9.634131,9.723326,9.825554,9.915328,10.003086,10.118394,10.228407,10.313313,10.406857,10.490856,10.556442,10.627701,10.684496,10.718472,10.771992,10.82855,10.860661,10.87075,10.837409,10.768866,10.701384,10.617815,10.54205,10.49147,10.4342375,10.391647,10.372601,10.354547,10.3213825,10.276982,10.230544,10.179048,10.134475,10.09746,10.055756,10.001505,9.940479,9.86523,9.790557,9.734173,9.661723,9.569276,9.4812975,9.404239,9.291751,9.188074,9.130471,9.04945,8.943489,8.832872,8.663946,8.357368,7.99306,7.5881567,7.1712413,6.9041543,6.7541676,6.698568,6.9360533,7.326127,9.559053,14.5456295,20.069695,21.951406,22.001465,21.792421,21.778704,21.593868,21.413671,21.521252,21.63251,21.728449,21.824074,21.828316,21.765522,21.710587,21.698517,21.64381,21.53994,21.439138,21.299717,21.153997,21.026173,20.854065,20.664127,20.497437,20.293818,20.074642,19.893787,19.705624,19.501694,19.329685,19.1772,19.003513,18.856922,18.751453,18.63139,18.521164,18.43658,18.343472,18.249477,18.173088,18.097656,18.007057,17.919075,17.832567,17.7449,17.680141,17.635395,17.56876,17.4954,17.43724,17.372326,17.30534,17.250637,17.194855,17.131725,17.07668,17.029747,16.977242,16.931515,16.89591,16.856033,16.816357,16.782701,16.745756,16.708261,16.679039,16.65186,16.624855,16.605513,16.592747,16.580353,16.569672,16.560163,16.547348,16.533041,16.52097,16.507206,16.493053,16.481564,16.468365,16.4559,16.448683,16.444677,16.44376,16.446583,16.450348,16.457775,16.469265,16.48146,16.499298,16.52571,16.554462,16.586454,16.62924,16.673988,16.71595,16.771448,16.832882,16.888237,16.955708,17.026531,17.08312,17.14228,17.199528,17.240402,17.273254,17.30466,17.329395,17.35002,17.379406,17.416107,17.45197,17.499846,17.555698,17.603643,17.653406,17.709356,17.757214,17.796925,17.843037,17.884567,17.917984,17.949478,17.972773,17.9888,18.012117,18.037155,18.055735,18.073532,18.087553,18.093555,18.09541,18.09351,18.089737,18.087002,18.089584,18.097755,18.106888,18.122463,18.140491,18.153305,18.16185,18.17128,18.181112,18.18811,18.213614,18.252415,18.287071,18.331781,18.382416,18.426895,18.474804,18.525595,18.5686,18.612179,18.663015,18.711128,18.756119,18.816711,18.880207,18.933327,18.996784,19.05957,19.10771
23.547005,23.948074,24.225193,24.29316,24.26715,24.183804,24.115461,24.093046,23.901155,23.57582,23.205341,22.78433,21.99239,21.1328,20.551714,19.918648,19.405825,19.074806,18.757215,18.517294,18.36044,18.12421,17.870668,17.691708,17.557741,17.465847,17.442698,17.450073,17.470455,17.483397,17.474106,17.425539,17.311275,17.158123,16.939638,16.559198,16.181278,15.945908,15.810242,15.826472,15.905187,16.073519,16.304735,16.505823,16.70385,16.82903,16.8416,16.781216,16.638165,16.404308,16.031382,15.666946,15.439587,15.318907,15.198285,15.120213,15.086515,15.048882,14.984459,14.89307,14.771942,14.570568,14.335661,14.11644,13.79435,13.4531355,13.184912,12.891079,12.620535,12.414392,12.14663,11.854981,11.638899,11.482881,11.368961,11.327879,11.325157,11.361732,11.4353,11.510967,11.617754,11.747176,11.865011,12.018316,12.215109,12.403532,12.587203,12.816617,13.053089,13.280338,13.562519,13.882889,14.191636,14.59312,15.061825,15.4555,15.77573,16.047758,16.226757,16.351665,16.491074,16.62782,16.755285,16.885183,16.9777,17.026802,17.098473,17.142733,17.145767,17.171057,17.19986,17.171043,17.053349,16.716675,16.200489,15.669054,15.04702,14.427,13.920413,13.353637,12.782104,12.34199,11.9369135,11.533958,11.213791,10.932934,10.618523,10.399139,10.312111,10.2620945,10.212288,10.105888,9.59837,8.86538,8.246969,7.6176767,7.0344763,6.7011104,6.5407605,6.4426365,6.50878,6.6425724,7.5775676,11.909185,18.328491,21.823746,22.711248,22.06486,21.883785,21.642944,21.506498,21.615614,21.752491,21.86671,21.944927,21.942919,21.87977,21.82382,21.80397,21.742878,21.63237,21.505451,21.343758,21.188858,21.05503,20.879452,20.689194,20.523056,20.320396,20.103539,19.925894,19.743011,19.54382,19.374584,19.22579,19.05656,18.91371,18.810942,18.692663,18.583017,18.498617,18.40538,18.31236,18.237219,18.158855,18.056889,17.958906,17.878637,17.799973,17.735556,17.6787,17.599758,17.518028,17.456375,17.387787,17.319569,17.265928,17.210651,17.148628,17.094872,17.048828,16.996815,16.9508,16.914492,16.87252,16.830715,16.796268,16.759142,16.722012,16.69308,16.66535,16.638176,16.619316,16.607033,16.595518,16.586063,16.577837,16.56634,16.553078,16.541634,16.528496,16.514671,16.50319,16.490078,16.477407,16.469578,16.464775,16.462204,16.46276,16.464392,16.469036,16.477434,16.487041,16.502033,16.525587,16.5522,16.582344,16.623072,16.666334,16.70766,16.763214,16.824028,16.877295,16.941769,17.010292,17.06639,17.125624,17.183598,17.225727,17.260733,17.295418,17.323093,17.345541,17.375502,17.411322,17.445988,17.491201,17.543905,17.589382,17.635197,17.684599,17.72768,17.768818,17.82134,17.871178,17.910637,17.9504,17.981186,18.001629,18.028885,18.059948,18.087204,18.119345,18.15446,18.17677,18.181105,18.183784,18.18588,18.186996,18.189423,18.192875,18.196182,18.202345,18.208527,18.210672,18.207338,18.19533,18.18583,18.188107,18.21833,18.266167,18.30547,18.351547,18.402517,18.449024,18.50037,18.551344,18.590626,18.63099,18.67789,18.722572,18.765049,18.822483,18.88286,18.93349,18.993603,19.052937,19.098454
24.94171,24.945372,25.033863,25.173859,25.284828,25.492893,25.821163,26.15523,26.43599,26.801374,27.192394,27.587711,27.964619,28.12445,28.078747,27.863401,27.55687,27.32189,27.216019,27.24226,27.2869,27.155125,26.96229,26.812435,26.680607,26.58197,26.553535,26.561607,26.593891,26.647484,26.698423,26.75259,26.792347,26.784271,26.685934,26.338055,25.932137,25.727612,25.665367,25.75954,25.881138,26.099918,26.358799,26.554874,26.71092,26.76587,26.724447,26.649368,26.552078,26.328415,25.791359,25.280869,24.983295,24.833256,24.671097,24.577047,24.561869,24.54062,24.474281,24.355011,24.185974,23.899975,23.56666,23.262135,22.78255,22.245472,21.80814,21.328459,20.88462,20.54301,20.079605,19.546211,19.115093,18.751297,18.41166,18.18998,18.049713,17.956188,17.940653,17.961565,18.020206,18.133514,18.262066,18.421951,18.621893,18.81065,18.99329,19.256596,19.551067,19.825735,20.156925,20.547981,20.949865,21.484905,22.180012,22.824436,23.354807,23.812984,24.143677,24.448153,24.867237,25.299175,25.657864,26.04425,26.32785,26.471325,26.650585,26.753286,26.759916,26.812607,26.898506,26.904224,26.760008,26.224125,25.34048,24.409267,23.261066,22.129662,21.26297,20.245659,19.162045,18.283022,17.465784,16.56493,15.820503,15.261103,14.764597,14.481301,14.352093,14.311136,14.09494,13.593611,12.42167,10.693162,9.183737,8.036641,7.1379385,6.704733,6.5309057,6.4130692,6.415599,6.476879,6.5979033,10.105995,16.465816,21.703772,23.581558,22.293617,22.008968,21.747288,21.616943,21.69809,21.844236,21.979946,22.05106,22.043314,21.982876,21.935966,21.905046,21.83251,21.716118,21.569977,21.389656,21.225756,21.089245,20.91151,20.720867,20.555843,20.35487,20.140778,19.96616,19.78677,19.591421,19.425495,19.280014,19.115967,18.977854,18.877459,18.760754,18.651505,18.567036,18.47352,18.3802,18.303389,18.212212,18.101366,18.006233,17.936604,17.861027,17.786505,17.712559,17.627632,17.54684,17.48344,17.413074,17.344893,17.293121,17.23949,17.17965,17.12741,17.081284,17.028584,16.981262,16.943394,16.89817,16.852953,16.81662,16.777554,16.73817,16.707336,16.678955,16.65158,16.632792,16.620731,16.60985,16.601467,16.594448,16.584303,16.572441,16.562206,16.550402,16.537937,16.52751,16.515453,16.503408,16.495352,16.489868,16.485485,16.48339,16.482538,16.483936,16.488743,16.495354,16.506943,16.52686,16.550531,16.578,16.61582,16.656517,16.695396,16.749615,16.809473,16.860943,16.923931,16.991642,17.047466,17.105356,17.163742,17.208488,17.246475,17.285309,17.31632,17.34032,17.370514,17.404697,17.437027,17.478157,17.526451,17.568932,17.611256,17.656513,17.695251,17.730927,17.77639,17.819895,17.854126,17.895746,17.933147,17.958382,17.989418,18.027477,18.065903,18.116343,18.180386,18.22937,18.24947,18.26448,18.272324,18.275581,18.277481,18.27723,18.276081,18.27581,18.271454,18.260221,18.236156,18.192783,18.15957,18.159714,18.192562,18.248615,18.3003,18.352657,18.405449,18.453838,18.509192,18.562592,18.601473,18.64214,18.689022,18.732857,18.77356,18.828762,18.88705,18.93608,18.994131,19.051128,19.094563
24.377592,24.657845,24.969223,25.381973,25.89418,26.359043,26.679548,26.836374,27.001545,27.190855,27.36964,27.538174,27.703289,27.781254,27.765099,27.721964,27.667683,27.628317,27.665203,27.787907,27.923323,28.024973,28.105347,28.131214,28.091873,28.014156,27.937984,27.886501,27.876593,27.934494,28.024792,28.182247,28.432302,28.693756,28.9836,29.251587,29.40757,29.49442,29.610924,29.746578,29.867414,30.091108,30.352896,30.547497,30.701687,30.802055,30.872093,31.023848,31.198383,31.313345,31.355999,31.44833,31.576704,31.691212,31.818548,31.951115,32.065998,32.166237,32.25264,32.316612,32.38,32.447613,32.512093,32.58831,32.656677,32.656235,32.58754,32.5109,32.42348,32.342407,32.24749,32.10012,31.902729,31.610235,31.190708,30.77832,30.434149,30.100231,29.871243,29.737402,29.623352,29.616772,29.691343,29.721642,29.656796,29.520496,29.36676,29.309612,29.290655,29.158215,28.911251,28.627098,28.415913,28.160957,28.058475,28.168516,28.420675,28.721231,29.000343,29.408747,29.978348,30.466654,30.733284,31.039967,31.27565,31.394337,31.487545,31.520506,31.512901,31.51964,31.525997,31.501637,31.439688,31.208012,30.808775,30.38146,29.682724,29.003866,28.61112,27.967632,27.138638,26.366423,25.539886,24.302166,23.153507,22.513895,22.151709,22.041422,21.91563,21.815075,20.90823,19.196177,17.192675,13.919334,10.575628,8.66231,7.372146,6.798829,6.5451355,6.4076166,6.38908,6.37223,6.2686796,8.977003,14.371049,21.616077,24.676804,22.470865,22.15892,21.909573,21.728844,21.752203,21.889507,22.05338,22.139923,22.12626,22.067413,22.041065,22.00025,21.907326,21.776775,21.621748,21.432491,21.262447,21.123665,20.944525,20.754375,20.591087,20.392832,20.182405,20.010948,19.832878,19.64109,19.480293,19.337925,19.178171,19.043938,18.945652,18.830318,18.721273,18.636475,18.54333,18.447666,18.364836,18.258217,18.14476,18.061249,17.999794,17.914473,17.824411,17.751165,17.664528,17.581688,17.517979,17.450184,17.38337,17.329962,17.275188,17.21436,17.16161,17.115303,17.061985,17.013355,16.973858,16.925888,16.877678,16.83926,16.798128,16.75644,16.72368,16.694473,16.666632,16.647726,16.63586,16.625631,16.6184,16.612682,16.604046,16.59387,16.585186,16.575184,16.564785,16.556137,16.545874,16.535276,16.52762,16.52187,16.516033,16.511524,16.508354,16.50661,16.507866,16.511478,16.519558,16.535503,16.555786,16.580128,16.614508,16.65232,16.688982,16.74007,16.797523,16.848331,16.909084,16.97459,17.029636,17.087822,17.148024,17.1954,17.236353,17.27909,17.313696,17.340511,17.372978,17.406898,17.436779,17.47446,17.51828,17.556725,17.594946,17.635792,17.671093,17.704437,17.747173,17.788158,17.8205,17.85965,17.894722,17.9184,17.948177,17.986414,18.0265,18.077984,18.15189,18.225159,18.290752,18.33741,18.351974,18.355202,18.35634,18.354126,18.350698,18.346115,18.330421,18.30267,18.252642,18.194996,18.16281,18.159761,18.185452,18.23836,18.296856,18.348055,18.395546,18.440948,18.493359,18.550507,18.598675,18.647758,18.702583,18.749554,18.787819,18.84076,18.89777,18.94591,19.00271,19.058376,19.100739
24.61471,25.04877,25.489826,25.956211,26.465172,26.913986,27.193996,27.30524,27.438194,27.573458,27.679852,27.761368,27.851212,27.92293,27.96405,28.031532,28.12164,28.20963,28.339537,28.50688,28.660494,28.825851,28.994108,29.107903,29.171566,29.214806,29.249329,29.293697,29.395224,29.559479,29.73346,29.986996,30.33977,30.693003,31.090725,31.550144,31.917892,32.1744,32.41592,32.606846,32.76705,32.989124,33.22428,33.406376,33.588375,33.76895,33.930626,34.144962,34.4063,34.649414,34.886208,35.150852,35.383347,35.569153,35.784554,35.99083,36.147293,36.29489,36.439873,36.565216,36.6968,36.868,37.051086,37.23659,37.486893,37.727154,37.90844,37.880608,37.709007,37.565777,37.417206,37.17983,36.88091,36.51557,36.045277,35.61203,35.254234,34.904034,34.631508,34.424957,34.237614,34.21012,34.32619,34.431664,34.48635,34.492367,34.537876,34.71623,34.918907,35.005905,35.008945,34.88643,34.712234,34.46535,34.17404,33.945164,33.792095,33.657948,33.595905,33.67538,33.840103,34.000122,34.08829,34.207157,34.30136,34.337975,34.330673,34.280823,34.22813,34.175774,34.17588,34.215458,34.23724,34.178226,33.998314,33.760612,33.359886,32.915367,32.585083,32.038784,31.343166,30.699574,29.954529,28.804554,27.721222,27.091373,26.761665,26.621964,26.336912,26.269093,25.612616,24.184643,22.33497,18.546246,14.06547,10.400171,7.82387,6.9522133,6.575591,6.427271,6.429488,6.371972,6.1444483,8.019119,12.2216835,20.979414,25.266232,22.706738,22.45389,22.11731,21.776943,21.80154,21.955921,22.12666,22.196117,22.199268,22.167864,22.151875,22.107044,21.99303,21.838947,21.67205,21.475136,21.302128,21.161839,20.981977,20.792883,20.631826,20.43731,20.230984,20.062431,19.887922,19.700623,19.544373,19.407051,19.253525,19.124327,19.029057,18.915888,18.807539,18.722694,18.630266,18.523182,18.421432,18.313599,18.209597,18.132462,18.059341,17.963459,17.8693,17.794508,17.707792,17.626434,17.564352,17.49718,17.429827,17.375378,17.319801,17.258362,17.20536,17.159077,17.10532,17.05538,17.014023,16.963419,16.912241,16.871372,16.82763,16.783234,16.748386,16.717651,16.688438,16.66864,16.656303,16.645985,16.639305,16.634518,16.627071,16.618507,16.61153,16.603645,16.595913,16.589745,16.582008,16.573685,16.567114,16.561653,16.55497,16.548527,16.543354,16.53872,16.536522,16.537102,16.541386,16.55278,16.568985,16.589405,16.61925,16.653034,16.68644,16.73317,16.786575,16.834736,16.89285,16.95559,17.008278,17.065536,17.126743,17.176609,17.220726,17.268173,17.307293,17.337303,17.372948,17.40866,17.438854,17.475452,17.516842,17.552832,17.588387,17.626118,17.658417,17.688488,17.726942,17.76367,17.792385,17.826721,17.858852,17.882769,17.913918,17.953772,17.99504,18.04866,18.131577,18.220577,18.304081,18.386929,18.434166,18.446503,18.45216,18.448622,18.442184,18.429472,18.395374,18.347294,18.285597,18.22147,18.185955,18.177284,18.192577,18.237387,18.295343,18.351017,18.399977,18.439466,18.486897,18.542496,18.593136,18.645208,18.705906,18.761086,18.81036,18.867619,18.921898,18.967255,19.021812,19.075954,19.117332
25.372849,25.850967,26.387676,26.834946,27.130182,27.421474,27.67688,27.867813,28.024502,28.179111,28.30857,28.410213,28.520756,28.619005,28.700691,28.804417,28.92291,29.035175,29.176264,29.325882,29.440742,29.542404,29.645798,29.736643,29.822361,29.94066,30.081066,30.224024,30.425695,30.66436,30.881073,31.154747,31.481106,31.773197,32.067764,32.395855,32.67553,32.91637,33.152725,33.345165,33.513847,33.712353,33.91297,34.080196,34.28018,34.506844,34.703064,34.889008,35.125076,35.354713,35.55217,35.76101,35.9367,36.077126,36.23262,36.37268,36.474342,36.577248,36.687042,36.78808,36.8956,37.041847,37.20002,37.354523,37.56289,37.793003,38.01451,37.97496,37.76693,37.600883,37.408577,37.159348,36.905415,36.622833,36.303917,36.050163,35.86383,35.69741,35.56241,35.43548,35.31991,35.318493,35.426712,35.564003,35.72315,35.87899,36.09957,36.4229,36.756454,37.045143,37.3257,37.484024,37.5206,37.493317,37.271027,36.928753,36.529476,36.082165,35.731804,35.445858,35.174175,35.024117,34.99144,34.993332,35.02003,35.038017,35.034786,35.012207,34.990154,34.987617,34.99857,35.00957,35.01825,34.975834,34.838463,34.6329,34.39514,34.100685,33.78586,33.295948,32.683174,32.14069,31.560974,30.805744,30.092205,29.505451,28.986591,28.537968,28.020363,27.738014,27.460966,26.955261,25.720736,22.69878,18.588026,13.036779,8.6554165,7.17892,6.6363688,6.464308,6.508381,6.453111,6.2046576,7.43058,10.563633,19.770018,24.985933,22.913404,22.803919,22.347736,21.82267,21.847786,22.01646,22.176273,22.194828,22.221695,22.23468,22.226185,22.16872,22.037306,21.875706,21.70536,21.507244,21.33461,21.194668,21.015837,20.828987,20.670826,20.480986,20.278833,20.112442,19.942173,19.76019,19.609003,19.477726,19.331299,19.207666,19.115902,19.005371,18.898907,18.815865,18.712337,18.588465,18.47734,18.378292,18.279284,18.194176,18.10624,18.00373,17.912064,17.83805,17.753601,17.674976,17.614582,17.547354,17.479408,17.424976,17.369495,17.308334,17.255701,17.209885,17.156202,17.105492,17.062822,17.010403,16.956972,16.913977,16.867573,16.820717,16.78416,16.750992,16.718967,16.696926,16.682865,16.670904,16.663338,16.658371,16.650997,16.643219,16.637482,16.631332,16.62614,16.622566,16.6175,16.611927,16.607254,16.602982,16.596916,16.590271,16.584599,16.57882,16.57483,16.573551,16.575006,16.58247,16.59476,16.611109,16.635895,16.664864,16.694132,16.735462,16.783337,16.826996,16.881096,16.940067,16.989544,17.04435,17.105085,17.1567,17.20366,17.255999,17.300386,17.33458,17.374687,17.414093,17.446884,17.484718,17.525555,17.5602,17.594486,17.630558,17.66087,17.688248,17.723003,17.75605,17.781689,17.812424,17.84239,17.866203,17.897858,17.940193,17.984955,18.041313,18.129864,18.225555,18.310585,18.413769,18.490297,18.52173,18.53672,18.533176,18.525234,18.500427,18.449566,18.39106,18.329748,18.265722,18.225819,18.210922,18.2153,18.247673,18.295044,18.349443,18.402111,18.442532,18.490564,18.544926,18.593468,18.644854,18.707174,18.767866,18.82737,18.892689,18.950605,18.99789,19.053436,19.107147,19.147522
25.916672,26.472137,27.156433,27.682032,27.892635,28.117748,28.396263,28.68478,28.867668,29.035732,29.186817,29.319286,29.457031,29.568003,29.654371,29.765327,29.875542,29.96032,30.071749,30.188942,30.273338,30.325974,30.368013,30.403591,30.431189,30.504192,30.620077,30.741226,30.911695,31.112293,31.293056,31.513449,31.764977,31.97934,32.178123,32.380493,32.54196,32.676964,32.826405,32.965473,33.087147,33.251522,33.43551,33.593338,33.775024,33.978577,34.157997,34.342155,34.572075,34.79445,34.995834,35.23011,35.42246,35.546448,35.65294,35.71709,35.749985,35.787308,35.854248,35.947132,36.065063,36.240803,36.429646,36.605927,36.810307,36.98817,37.117416,37.242615,37.339455,37.40286,37.461563,37.5839,37.717224,37.74215,37.720055,37.689545,37.68479,37.696335,37.719772,37.74045,37.75032,37.74975,37.745296,37.735428,37.713707,37.69149,37.681107,37.682022,37.692856,37.708996,37.690918,37.632404,37.56526,37.378384,37.042767,36.68365,36.30771,35.895477,35.55188,35.229485,34.95333,34.831593,34.813885,34.861603,34.968563,35.0727,35.184807,35.30252,35.404263,35.563072,35.56922,35.42707,35.343086,35.26045,35.168518,35.05053,34.913647,34.794964,34.70931,34.413017,33.896828,33.37902,32.937225,32.474808,32.003326,31.421955,30.61775,29.801184,29.137264,28.421394,28.003101,27.894531,26.905231,25.000473,22.165413,15.674051,9.793409,7.4151745,6.706209,6.4950514,6.5669203,6.5266414,6.2759323,7.133136,9.622269,18.578957,24.292053,23.02418,23.059877,22.544613,21.914082,21.892355,22.051796,22.198626,22.155663,22.193268,22.245155,22.247852,22.168995,22.028278,21.882648,21.719818,21.526121,21.354847,21.216572,21.039999,20.856083,20.701002,20.515455,20.316904,20.15232,19.985146,19.80835,19.662891,19.536798,19.396408,19.277618,19.188923,19.080988,18.976326,18.894505,18.770277,18.634342,18.533426,18.439327,18.330482,18.22892,18.139523,18.036163,17.94513,17.875248,17.793724,17.716223,17.656067,17.589615,17.5226,17.468899,17.414263,17.35408,17.302296,17.25728,17.204107,17.153309,17.11022,17.056942,17.002213,16.957916,16.909477,16.86079,16.822992,16.787266,16.751858,16.726805,16.710245,16.695585,16.686012,16.679897,16.671558,16.663591,16.658333,16.653088,16.649591,16.647964,16.644926,16.641777,16.639206,16.636597,16.632265,16.626991,16.622297,16.617226,16.613373,16.611752,16.611935,16.61699,16.626446,16.63954,16.659988,16.68456,16.70986,16.746027,16.788465,16.8275,16.876701,16.931454,16.978157,17.030077,17.089474,17.142012,17.191044,17.24749,17.296871,17.335682,17.38055,17.423756,17.45916,17.498684,17.53941,17.572868,17.606356,17.641397,17.670574,17.69675,17.729855,17.76141,17.78606,17.816534,17.846008,17.868435,17.898302,17.942783,17.993004,18.051975,18.143112,18.241972,18.332071,18.434135,18.513628,18.563456,18.5873,18.584793,18.577171,18.541737,18.484028,18.4291,18.369762,18.306587,18.264746,18.24545,18.241848,18.262405,18.295925,18.338842,18.39063,18.43912,18.49346,18.550924,18.599092,18.650959,18.713486,18.773941,18.832022,18.902824,18.97045,19.02486,19.084778,19.139332,19.179012
25.683191,26.811392,27.822193,28.41473,28.682407,28.926746,29.21324,29.529121,29.766863,29.970753,30.12257,30.261347,30.411306,30.533556,30.622309,30.739008,30.857548,30.950018,31.068548,31.19703,31.298725,31.387644,31.482767,31.568222,31.642672,31.742224,31.859018,31.978123,32.154305,32.34001,32.477,32.62879,32.783432,32.906715,33.020714,33.13434,33.227314,33.30475,33.451138,33.6232,33.75466,33.91844,34.08471,34.217064,34.365604,34.52404,34.657753,34.791534,34.951336,35.102524,35.240517,35.40715,35.555138,35.661217,35.774452,35.875465,35.95273,36.043022,36.188835,36.355377,36.511734,36.686546,36.836365,36.963783,37.097855,37.19172,37.236454,37.326828,37.41768,37.467125,37.500496,37.56321,37.64805,37.71563,37.806915,37.877228,37.894974,37.87861,37.857227,37.864975,37.885292,37.91092,37.929615,37.957024,37.982914,38.01478,38.081783,38.242012,38.39061,38.412483,38.477036,38.510258,38.46525,38.31357,37.976326,37.56602,37.068348,36.55614,36.19037,35.868393,35.597992,35.47589,35.44821,35.49134,35.611877,35.743744,35.895435,36.073624,36.249977,36.54078,36.75007,36.782097,36.77664,36.73186,36.642128,36.52775,36.37923,36.185173,35.98096,35.736404,35.19837,34.524837,34.04883,33.46588,32.864357,32.33642,31.57463,30.776337,30.116367,29.70966,29.946457,30.505508,29.377298,27.767017,25.755768,19.42594,11.975723,7.608068,6.7387857,6.5239897,6.627,6.5929394,6.3394036,6.9398274,8.997283,18.089474,24.141647,23.084385,23.247023,22.732882,22.01515,21.937668,22.09547,22.224293,22.079227,22.122564,22.221317,22.234518,22.157696,22.021929,21.886768,21.731058,21.542284,21.373215,21.236956,21.063023,20.882711,20.731731,20.548574,20.353252,20.19328,20.030052,19.85902,19.71989,19.599352,19.465313,19.351566,19.26606,19.16273,19.054277,18.958458,18.826847,18.693235,18.59781,18.490627,18.367916,18.261726,18.171158,18.070435,17.982979,17.913784,17.83329,17.757067,17.698143,17.633036,17.56735,17.514694,17.46124,17.402405,17.351791,17.307858,17.2556,17.205147,17.162014,17.108349,17.05275,17.007412,16.957233,16.90588,16.865503,16.828087,16.789398,16.760254,16.740429,16.7221,16.709572,16.701544,16.69142,16.682602,16.67742,16.672718,16.670689,16.670944,16.669918,16.669392,16.669342,16.668869,16.667082,16.664154,16.661264,16.6579,16.655195,16.654009,16.653748,16.657135,16.664207,16.674263,16.690432,16.710457,16.731499,16.7621,16.798668,16.832693,16.87652,16.926163,16.96912,17.018467,17.076792,17.129925,17.180525,17.241096,17.29592,17.33952,17.389484,17.436708,17.47469,17.515804,17.55685,17.589954,17.622862,17.65691,17.684921,17.709755,17.740997,17.770817,17.794216,17.8237,17.853365,17.87699,17.909527,17.955929,18.00663,18.069393,18.163311,18.262983,18.35546,18.45797,18.536919,18.587543,18.616352,18.616615,18.605907,18.571808,18.518005,18.466793,18.410992,18.350212,18.307499,18.284315,18.272297,18.281712,18.305033,18.335644,18.37601,18.416897,18.4657,18.525776,18.58276,18.641792,18.717857,18.789772,18.84741,18.916397,18.982862,19.037664,19.097359,19.152563,19.19403
25.159904,26.81929,28.303858,29.139889,29.482243,29.804367,30.109282,30.398705,30.667141,30.909916,31.079395,31.225769,31.373415,31.489891,31.579426,31.698465,31.822428,31.922098,32.049934,32.1949,32.31893,32.44578,32.594513,32.733185,32.861675,33.01764,33.180058,33.336983,33.55798,33.77746,33.92923,34.105797,34.25624,34.343254,34.420547,34.49873,34.577133,34.666462,34.819588,34.988945,35.117153,35.277573,35.432716,35.54663,35.674908,35.806484,35.911392,36.00947,36.12243,36.228115,36.32483,36.440063,36.54604,36.628773,36.72738,36.825867,36.90587,36.993828,37.187485,37.437263,37.651733,37.87619,38.032722,38.114983,38.1623,38.153084,38.114594,38.08603,38.050217,38.007206,37.971336,37.96016,37.987442,38.05011,38.202194,38.356667,38.419495,38.449547,38.46699,38.504402,38.559998,38.61441,38.65158,38.707077,38.84974,39.048965,39.256313,39.516045,39.70752,39.773426,39.85485,39.891987,39.864758,39.730057,39.41825,39.024773,38.471382,37.792526,37.249527,36.861774,36.54979,36.40452,36.35519,36.384247,36.51483,36.675255,36.880936,37.156715,37.425762,37.710686,37.93771,38.027924,38.059944,38.03227,37.93767,37.818672,37.65043,37.417732,37.174137,36.96467,36.578568,36.04519,35.40558,34.612686,33.90828,33.338478,32.594776,31.82528,31.134499,30.68281,31.281353,32.5784,31.857456,30.18064,28.025753,23.09282,14.7323065,7.9743023,6.811129,6.5431542,6.6958313,6.66641,6.4113255,6.819235,8.543244,17.586395,23.874586,23.10913,23.311962,22.836983,22.148016,22.00361,22.12776,22.224712,22.003134,22.05237,22.177921,22.18354,22.131683,22.01955,21.89093,21.743446,21.560524,21.394056,21.26015,21.08947,20.912735,20.764793,20.586315,20.39656,20.241379,20.084082,19.920536,19.788296,19.673819,19.546574,19.43816,19.355927,19.259262,19.145714,19.029194,18.897556,18.76815,18.667503,18.54203,18.407608,18.30302,18.213234,18.11436,18.028555,17.959751,17.880445,17.80616,17.749176,17.6861,17.622372,17.571215,17.51939,17.462324,17.413174,17.370548,17.31953,17.269821,17.227032,17.173534,17.117634,17.071629,17.019958,16.965721,16.922112,16.882011,16.839136,16.80518,16.781025,16.757559,16.740553,16.729343,16.7161,16.705368,16.69963,16.69489,16.693914,16.695866,16.696754,16.699024,16.701975,16.704243,16.706135,16.706974,16.707134,16.707058,16.707157,16.70771,16.708378,16.711454,16.717077,16.7247,16.736916,16.752256,16.768593,16.792831,16.822498,16.850574,16.887363,16.930563,16.969345,17.014767,17.07087,17.124287,17.176432,17.241383,17.30207,17.350899,17.406563,17.45839,17.499321,17.5425,17.58449,17.617882,17.650795,17.684578,17.712133,17.736252,17.766388,17.795158,17.81784,17.846893,17.877413,17.902962,17.938536,17.987688,18.03945,18.102287,18.194656,18.291931,18.382652,18.480864,18.554306,18.600224,18.629274,18.63195,18.621727,18.594067,18.54896,18.503979,18.454285,18.398468,18.356579,18.330036,18.311615,18.311543,18.324085,18.340755,18.36677,18.396992,18.437233,18.49647,18.559166,18.623213,18.706238,18.785473,18.850182,18.928032,18.99923,19.052223,19.110737,19.166418,19.209888
24.755297,26.537018,28.412346,29.598816,29.978092,30.354813,30.675539,30.948381,31.222729,31.493458,31.696205,31.863049,32.014233,32.125053,32.219917,32.346558,32.477238,32.580456,32.714394,32.86897,33.00351,33.14172,33.306572,33.465694,33.61898,33.824696,34.048225,34.2573,34.529198,34.80225,35.010418,35.269505,35.49427,35.6184,35.72492,35.83114,35.940086,36.08051,36.235775,36.37034,36.483253,36.63221,36.782257,36.894573,37.024574,37.15868,37.263527,37.35765,37.464363,37.56535,37.66111,37.774757,37.871353,37.936405,38.002945,38.05506,38.09048,38.13102,38.31638,38.601616,38.8606,39.131126,39.301884,39.360886,39.357296,39.291073,39.215714,39.10802,38.984917,38.89007,38.835793,38.84078,38.8945,38.963623,39.131294,39.328537,39.461315,39.609123,39.7425,39.847607,39.967426,40.072647,40.144405,40.222126,40.41939,40.680496,40.90634,41.069477,41.13984,41.210335,41.203186,41.137188,41.0869,40.91362,40.609604,40.271057,39.785522,39.010033,38.252457,37.740456,37.338238,37.15395,37.081947,37.10241,37.25195,37.44704,37.724,38.096497,38.420532,38.598957,38.669876,38.664024,38.66447,38.623116,38.53243,38.424564,38.270042,38.09458,37.947144,37.774235,37.61677,37.413574,36.72548,35.86653,35.14676,34.462883,33.646965,32.81813,32.020172,31.200558,31.656792,33.283875,33.34603,31.648983,28.853428,25.468712,16.935997,8.475651,6.931054,6.549991,6.7607794,6.7341685,6.487013,6.762734,8.219822,16.807259,23.328766,23.299046,23.351692,22.832363,22.275202,22.083172,22.154175,22.211191,21.961124,22.012747,22.14071,22.131264,22.114103,22.03103,21.902752,21.761278,21.58238,21.41718,21.28447,21.11559,20.941132,20.79535,20.623009,20.43964,20.287973,20.13696,19.980663,19.854118,19.744696,19.62296,19.518871,19.439938,19.343536,19.223354,19.096016,18.968975,18.836542,18.718536,18.583845,18.44717,18.345259,18.256475,18.157139,18.070663,18.002853,17.925297,17.853325,17.798428,17.73756,17.675941,17.626387,17.576271,17.521019,17.47334,17.431993,17.382332,17.333637,17.291473,17.238688,17.183165,17.13705,17.084517,17.028152,16.981798,16.938326,16.891296,16.853039,16.823849,16.794537,16.772594,16.757889,16.741146,16.728077,16.721394,16.71619,16.715681,16.718693,16.720825,16.725224,16.730762,16.735558,16.74112,16.745958,16.749441,16.753193,16.756874,16.759926,16.762615,16.7668,16.772274,16.778717,16.788334,16.800062,16.812473,16.831177,16.854622,16.877245,16.907114,16.944122,16.97923,17.020397,17.073668,17.126865,17.180103,17.248432,17.31374,17.36681,17.427233,17.482998,17.526476,17.571999,17.615482,17.649494,17.682957,17.717196,17.744987,17.769043,17.798916,17.82743,17.849987,17.879303,17.910923,17.938076,17.975304,18.027098,18.081036,18.141533,18.228199,18.319118,18.404318,18.494677,18.56107,18.60292,18.62931,18.63341,18.627563,18.606499,18.569515,18.531227,18.48832,18.438469,18.39902,18.371826,18.350979,18.344807,18.348106,18.353596,18.369053,18.392048,18.425697,18.480843,18.542368,18.606224,18.686527,18.765266,18.83852,18.92845,19.007814,19.061495,19.122564,19.181559,19.22774
24.541458,26.150913,28.21305,29.694403,30.110558,30.451134,30.760706,31.104275,31.413248,31.712086,31.942219,32.14575,32.333855,32.4675,32.572773,32.717964,32.866295,32.977974,33.118362,33.277885,33.41767,33.565063,33.745594,33.923134,34.096294,34.325787,34.569305,34.792595,35.073807,35.35849,35.584816,35.849598,36.104553,36.284912,36.452724,36.613632,36.74958,36.89933,37.06732,37.21676,37.343006,37.487164,37.630844,37.751053,37.88822,38.024998,38.12604,38.21453,38.297966,38.369022,38.445312,38.554516,38.65216,38.706116,38.762054,38.80901,38.84739,38.926727,39.139626,39.42011,39.69674,39.90087,39.964657,39.983284,39.96571,39.912823,39.85444,39.77493,39.69327,39.63674,39.593327,39.576065,39.594704,39.649094,39.767426,39.912453,40.0403,40.19449,40.325493,40.405895,40.549927,40.784954,41.034523,41.266922,41.404472,41.431988,41.48287,41.541542,41.595863,41.65239,41.659363,41.595203,41.504837,41.3106,40.989048,40.645298,40.276955,39.590927,38.81405,38.222534,37.756912,37.55287,37.47083,37.49321,37.663017,37.88614,38.222515,38.608097,38.88092,39.015984,39.07758,39.09628,39.11362,39.081482,38.994553,38.894943,38.755547,38.59523,38.45611,38.28956,38.138767,37.982746,37.59085,36.819878,35.938015,35.192303,34.35926,33.49986,32.583588,31.88683,32.33778,33.669193,34.030922,32.641727,29.904655,27.032623,18.254349,8.9717,7.0636344,6.5539217,6.816891,6.7908497,6.5711,6.751281,7.961455,15.862909,22.744984,23.857418,23.547237,22.795013,22.36911,22.161552,22.197342,22.215256,21.937683,21.983063,22.11548,22.107906,22.12024,22.055622,21.92231,21.783543,21.606232,21.44074,21.307842,21.138123,20.964792,20.822987,20.655426,20.476685,20.328346,20.182333,20.031675,19.909523,19.803879,19.685959,19.585335,19.511618,19.401928,19.269482,19.14917,19.030266,18.887325,18.744705,18.613335,18.482285,18.379276,18.28952,18.189766,18.103947,18.037262,17.961487,17.891691,17.838692,17.779886,17.720268,17.672245,17.623775,17.570309,17.524107,17.484055,17.435867,17.3884,17.347048,17.295305,17.240578,17.194736,17.141876,17.08411,17.03567,16.989134,16.939034,16.89735,16.862103,16.826405,16.799873,16.782326,16.762726,16.747757,16.740292,16.73481,16.734615,16.738188,16.74084,16.74647,16.753819,16.760492,16.768948,16.77708,16.783367,16.79049,16.797508,16.803043,16.808043,16.8139,16.819868,16.825872,16.833878,16.843027,16.852512,16.866972,16.885494,16.903683,16.927965,16.959747,16.99152,17.029575,17.080536,17.132965,17.186565,17.256975,17.32546,17.381538,17.445444,17.5041,17.54938,17.5974,17.64272,17.677269,17.711346,17.746067,17.77404,17.797974,17.82758,17.855858,17.878273,17.907885,17.940567,17.969149,18.007818,18.061033,18.11586,18.177486,18.258049,18.3385,18.417591,18.500471,18.560644,18.598927,18.623857,18.629719,18.627071,18.611536,18.581526,18.548958,18.51161,18.466524,18.430065,18.406254,18.385262,18.374203,18.371014,18.36856,18.376163,18.39339,18.42175,18.473366,18.533672,18.597008,18.678326,18.757767,18.829166,18.914196,18.992409,19.052532,19.12362,19.192886,19.24516
24.40071,25.863203,27.947765,29.544605,29.998625,30.359695,30.676537,31.026196,31.333447,31.622166,31.844307,32.05094,32.26849,32.445,32.581726,32.75892,32.952873,33.12433,33.35846,33.615654,33.819523,34.031662,34.267143,34.475334,34.667847,34.907227,35.148216,35.364185,35.63186,35.900536,36.114433,36.35274,36.59586,36.791527,36.98518,37.203583,37.401924,37.587547,37.79657,37.978653,38.124126,38.265472,38.379753,38.463882,38.556572,38.64425,38.707844,38.765736,38.829685,38.898148,38.977806,39.1047,39.250534,39.374916,39.552948,39.711044,39.79473,39.88671,40.07427,40.31566,40.551453,40.71623,40.747814,40.72075,40.705963,40.694424,40.666008,40.621773,40.571404,40.53511,40.51509,40.5262,40.56785,40.633434,40.745323,40.88524,41.037834,41.203865,41.352116,41.472984,41.621147,41.789497,41.93329,42.04817,42.086517,42.064125,42.072716,42.101173,42.14106,42.183968,42.196358,42.12823,42.00411,41.79071,41.453194,41.098175,40.765778,40.118866,39.340504,38.689457,38.18136,37.97133,37.888565,37.923172,38.12075,38.375126,38.75981,39.14611,39.367744,39.479862,39.54454,39.579056,39.59265,39.56225,39.48507,39.396515,39.27131,39.128384,39.0065,38.864117,38.730244,38.60962,38.439835,37.79687,36.88546,36.146294,35.287178,34.409058,33.53917,32.65148,32.782063,33.914135,34.715046,33.79828,31.231827,29.04067,19.886375,9.494144,7.203678,6.5658464,6.8844566,6.8583627,6.670803,6.7946877,7.77428,14.2270565,21.36291,24.350458,23.764267,22.775692,22.485065,22.271492,22.275225,22.244656,21.92247,21.951675,22.095829,22.10661,22.136639,22.089731,21.966959,21.829409,21.649433,21.479393,21.341042,21.168911,20.997536,20.859245,20.694557,20.519772,20.376198,20.235298,20.09015,19.972435,19.870491,19.758797,19.660767,19.58191,19.45583,19.315773,19.208078,19.078007,18.919268,18.772766,18.645037,18.516926,18.412876,18.322681,18.223145,18.13849,18.073362,17.99982,17.932598,17.88181,17.825432,17.768177,17.721952,17.675432,17.62408,17.57965,17.541119,17.494904,17.449118,17.408669,17.358433,17.305115,17.25996,17.20718,17.148312,17.097952,17.049427,16.993395,16.944115,16.90369,16.86198,16.83006,16.808434,16.784632,16.766506,16.757328,16.750332,16.749449,16.753288,16.756775,16.764256,16.774067,16.783234,16.79546,16.807716,16.817337,16.828299,16.838964,16.847164,16.854773,16.862839,16.870008,16.876541,16.884146,16.891556,16.89832,16.90874,16.922398,16.936054,16.954628,16.980469,17.007877,17.042938,17.09171,17.142921,17.195997,17.267399,17.33818,17.396656,17.463419,17.524582,17.571548,17.622421,17.670427,17.706318,17.741116,17.776295,17.804482,17.82818,17.857449,17.885494,17.907751,17.93777,17.971607,18.001549,18.04139,18.095287,18.149963,18.210701,18.286427,18.357372,18.421635,18.491856,18.546154,18.58177,18.606691,18.615993,18.61782,18.609016,18.586735,18.560759,18.532887,18.49823,18.46817,18.44631,18.424297,18.409672,18.402855,18.395851,18.3981,18.410337,18.43303,18.478088,18.53284,18.591595,18.67038,18.748993,18.81843,18.900434,18.97746,19.039677,19.111622,19.181927,19.236324
24.350601,25.697325,27.688435,29.2719,29.773874,30.171444,30.486404,30.799519,31.065996,31.335945,31.56696,31.772554,32.006386,32.211708,32.37259,32.57144,32.793686,33.003098,33.290855,33.610626,33.86641,34.13515,34.42569,34.672672,34.894936,35.180317,35.46497,35.706234,35.978966,36.221306,36.39566,36.587402,36.788574,36.962486,37.146698,37.37988,37.60582,37.80911,38.040733,38.2416,38.39706,38.546227,38.6494,38.705223,38.759422,38.80256,38.83284,38.86434,38.922558,39.008526,39.11068,39.272655,39.481304,39.69182,39.999786,40.294693,40.471706,40.634033,40.83498,41.039776,41.208954,41.367172,41.453735,41.460526,41.491936,41.529762,41.543335,41.546196,41.534664,41.521057,41.52574,41.55813,41.60682,41.65692,41.74096,41.85598,41.99315,42.14707,42.29889,42.439255,42.54576,42.573624,42.541,42.486763,42.45662,42.474335,42.50607,42.544098,42.576584,42.611282,42.617638,42.53965,42.39915,42.17343,41.83039,41.472458,41.12848,40.40471,39.54114,38.914124,38.428772,38.227722,38.16101,38.217514,38.438374,38.711384,39.11316,39.513702,39.74505,39.864395,39.93634,39.97335,39.97644,39.945595,39.879494,39.801735,39.688736,39.56138,39.456734,39.33927,39.230003,39.129738,38.994057,38.43687,37.62913,36.96836,36.14705,35.30375,34.540115,33.49882,33.244854,34.02845,34.903347,34.73884,33.029793,30.87048,21.01188,9.798804,7.301648,6.6035585,6.9531794,6.9266853,6.7675886,6.8616734,7.661807,12.679866,19.902607,24.56694,23.905785,22.800604,22.608963,22.404293,22.38556,22.30888,21.943567,21.953796,22.108564,22.139938,22.171677,22.138393,22.037502,21.898819,21.710842,21.531746,21.385319,21.20912,21.038263,20.901272,20.737133,20.56487,20.425714,20.288654,20.14758,20.033463,19.9362,19.82523,19.72019,19.62791,19.495224,19.357822,19.255722,19.102598,18.930454,18.797201,18.672146,18.544231,18.440006,18.350147,18.251534,18.16838,18.104942,18.033634,17.968842,17.92009,17.866013,17.811035,17.766582,17.721996,17.672825,17.630299,17.593456,17.549328,17.50545,17.466368,17.418253,17.367016,17.323105,17.271057,17.211987,17.160393,17.109253,17.046883,16.990654,16.946632,16.900131,16.863173,16.837456,16.808743,16.785706,16.77273,16.762123,16.758663,16.761608,16.765121,16.774029,16.786304,16.798191,16.813816,16.829304,16.84141,16.855366,16.86905,16.879631,16.889936,16.900692,16.909702,16.917511,16.925861,16.93301,16.938784,16.947426,16.958529,16.969524,16.98449,17.005672,17.02882,17.060623,17.107117,17.157288,17.209768,17.281189,17.352676,17.412102,17.480293,17.542995,17.591146,17.643925,17.694466,17.73262,17.769531,17.805717,17.833591,17.856777,17.885523,17.913338,17.935543,17.966137,18.001156,18.032284,18.072937,18.126587,18.179905,18.237911,18.309322,18.373426,18.424957,18.48307,18.5309,18.563828,18.589592,18.603064,18.609194,18.607182,18.593193,18.574432,18.555256,18.530073,18.505913,18.485352,18.463768,18.448702,18.440998,18.432522,18.432009,18.440819,18.458979,18.49736,18.545298,18.597675,18.669903,18.743753,18.809841,18.889883,18.966139,19.027388,19.096348,19.16382,19.217627
24.329426,25.576094,27.495413,29.08765,29.65525,30.056213,30.341965,30.633049,30.856068,31.131893,31.414085,31.640919,31.881596,32.081974,32.23958,32.436256,32.64369,32.823544,33.049263,33.316174,33.559536,33.82619,34.134468,34.414516,34.67463,35.04648,35.432503,35.7474,36.067413,36.303185,36.439415,36.59339,36.759598,36.910545,37.07883,37.27871,37.464237,37.641735,37.85089,38.039936,38.190247,38.354805,38.48459,38.55883,38.626747,38.6768,38.708817,38.741356,38.805153,38.904976,39.028748,39.224434,39.46974,39.710342,40.038055,40.388412,40.66268,40.96692,41.2613,41.463886,41.59788,41.758766,41.91446,42.030838,42.131145,42.19834,42.250427,42.303093,42.345448,42.372337,42.39195,42.396423,42.389442,42.379486,42.382095,42.41473,42.471947,42.582848,42.705452,42.78944,42.83445,42.8312,42.807625,42.776665,42.745872,42.733,42.73815,42.761436,42.792297,42.82312,42.81952,42.731636,42.58744,42.356277,42.017754,41.667805,41.307556,40.44246,39.43165,38.89441,38.47971,38.292763,38.24646,38.323433,38.55571,38.83026,39.22416,39.658432,39.95758,40.103996,40.18165,40.214317,40.21818,40.190773,40.130886,40.060215,39.95717,39.840164,39.743263,39.635277,39.543106,39.44803,39.215363,38.664215,37.979614,37.409195,36.69926,35.936962,35.196663,34.332264,33.917427,34.109314,34.556015,35.266293,34.997547,32.062717,21.290928,9.820974,7.34068,6.662141,7.0107956,6.984068,6.844582,6.903448,7.5697966,11.885891,19.131538,24.588085,23.962387,22.852833,22.716473,22.532047,22.49979,22.387833,21.997465,21.996311,22.154293,22.19247,22.21937,22.195091,22.112713,21.97176,21.774097,21.58506,21.432594,21.25195,21.079151,20.941267,20.776762,20.605892,20.469202,20.334335,20.195526,20.083271,19.989845,19.87136,19.751598,19.6483,19.52223,19.392574,19.28204,19.113047,18.936527,18.814716,18.691132,18.563187,18.459686,18.37054,18.27304,18.191273,18.129213,18.059658,17.996681,17.949413,17.897064,17.843872,17.800869,17.757862,17.71057,17.669788,17.634575,17.592134,17.54993,17.512638,17.46685,17.41782,17.375353,17.324368,17.265797,17.213558,17.158379,17.092098,17.033564,16.986977,16.936874,16.896069,16.867157,16.833937,16.80542,16.787537,16.772371,16.765255,16.766235,16.76849,16.77755,16.791405,16.80539,16.82307,16.8401,16.85336,16.86902,16.884851,16.897427,16.910229,16.923624,16.934486,16.943512,16.95276,16.960495,16.966928,16.976044,16.987045,16.997517,17.011341,17.030148,17.050447,17.079082,17.123293,17.17287,17.225311,17.29654,17.367718,17.427025,17.495567,17.559029,17.607885,17.661278,17.713346,17.753838,17.793953,17.831795,17.859077,17.881596,17.909668,17.937227,17.959524,17.990765,18.026913,18.059105,18.10043,18.153557,18.205223,18.260517,18.32725,18.386713,18.435799,18.487717,18.528896,18.558739,18.58506,18.60186,18.610874,18.61422,18.607777,18.595465,18.580153,18.557938,18.535881,18.517185,18.498238,18.48479,18.476692,18.46717,18.464651,18.4712,18.48656,18.52105,18.564857,18.612787,18.677814,18.74453,18.80596,18.883259,18.958977,19.019953,19.090141,19.159016,19.21298
24.251486,25.45183,27.255692,28.838787,29.589664,30.020338,30.25838,30.524364,30.755116,31.03104,31.294697,31.50652,31.731228,31.919804,32.069794,32.258812,32.458874,32.631752,32.85722,33.136677,33.398346,33.677406,33.998535,34.291782,34.569675,34.944504,35.340225,35.69566,36.10952,36.400955,36.501175,36.614883,36.749092,36.88642,37.021164,37.18055,37.334167,37.48532,37.66982,37.845985,37.994057,38.16052,38.294373,38.3706,38.43773,38.48443,38.513504,38.545128,38.615303,38.7323,38.8806,39.127113,39.43905,39.740795,40.12449,40.51853,40.824043,41.16014,41.473953,41.68299,41.8376,41.999386,42.137276,42.242626,42.338684,42.407127,42.457687,42.535328,42.623833,42.6921,42.737545,42.762497,42.769955,42.76693,42.759575,42.763245,42.781654,42.844982,42.94329,43.036,43.134018,43.184013,43.172043,43.13131,43.074593,43.037834,43.027378,43.030807,43.040985,43.053505,43.030083,42.927105,42.774277,42.541134,42.23941,41.90799,41.16301,40.208904,39.47928,38.989376,38.627445,38.467716,38.37621,38.45508,38.70953,38.982758,39.355488,39.782516,40.11266,40.36863,40.49547,40.4925,40.49013,40.46008,40.4013,40.332977,40.234425,40.1232,40.03157,39.94671,39.857998,39.722702,39.345306,38.797115,38.266144,37.782867,37.182217,36.518185,35.838562,35.249912,34.62812,34.004513,34.103207,35.80611,37.01615,33.601913,21.761576,9.647453,7.3310947,6.7449255,7.0741158,7.047137,6.929368,6.948248,7.466139,10.983693,18.447292,25.029425,24.192635,22.884455,22.819637,22.698448,22.658764,22.492588,22.073555,22.077278,22.246632,22.277615,22.298203,22.280956,22.212399,22.067947,21.85869,21.657433,21.49754,21.311075,21.13446,20.993183,20.827177,20.656635,20.520987,20.389275,20.25302,20.136906,20.025274,19.893398,19.772816,19.673899,19.559914,19.424194,19.281097,19.113945,18.9496,18.82967,18.708115,18.582012,18.48008,18.392357,18.296612,18.216576,18.156038,18.088276,18.027073,17.98125,17.930634,17.879313,17.837887,17.796612,17.751526,17.71292,17.679863,17.639072,17.598423,17.563496,17.520477,17.473938,17.433107,17.383411,17.325298,17.272263,17.213669,17.143738,17.08266,17.033451,16.980877,16.935535,16.898945,16.858088,16.823555,16.801949,16.78249,16.77106,16.768826,16.768372,16.775513,16.788929,16.803135,16.822931,16.843369,16.859577,16.878952,16.899261,16.915916,16.931938,16.94796,16.960571,16.970993,16.981266,16.989414,16.996029,17.00504,17.015396,17.02491,17.037289,17.054983,17.075064,17.10434,17.147102,17.193502,17.244064,17.313646,17.383923,17.442919,17.511381,17.575188,17.624641,17.679415,17.733063,17.77462,17.815762,17.856588,17.886784,17.90828,17.934845,17.961716,17.984175,18.016342,18.05408,18.087776,18.130295,18.18337,18.233696,18.286709,18.34936,18.404514,18.450186,18.498928,18.538729,18.568811,18.5971,18.61763,18.63044,18.637665,18.635113,18.625656,18.611944,18.591358,18.571009,18.554102,18.536512,18.523544,18.515545,18.50576,18.501957,18.506536,18.519192,18.549282,18.588284,18.631607,18.691387,18.753422,18.810593,18.883331,18.956356,19.016886,19.088017,19.15823,19.212593
24.10994,25.276691,27.0118,28.619976,29.539986,30.009796,30.21667,30.464462,30.697826,30.963402,31.20134,31.39508,31.604204,31.783802,31.928452,32.111996,32.30815,32.47897,32.709236,32.99678,33.26436,33.549866,33.87967,34.181232,34.468422,34.83286,35.216793,35.582542,36.0485,36.409855,36.55599,36.65888,36.749214,36.8503,36.949978,37.06817,37.187798,37.317688,37.483566,37.639065,37.758034,37.90036,38.02368,38.1002,38.170616,38.222984,38.25657,38.291374,38.368317,38.497906,38.663033,38.941,39.305603,39.672993,40.136642,40.594772,40.928757,41.26953,41.57671,41.784264,41.948715,42.098526,42.203552,42.277275,42.35231,42.41108,42.45125,42.515762,42.59161,42.651817,42.69611,42.728943,42.74752,42.75432,42.74855,42.738594,42.733772,42.748203,42.803185,42.884056,42.9932,43.08982,43.138165,43.173218,43.19629,43.213654,43.24144,43.26503,43.2706,43.267853,43.224533,43.106686,42.948784,42.75026,42.360092,41.81953,40.912224,40.027145,39.51609,39.073647,38.777878,38.680634,38.60663,38.680176,38.92337,39.200928,39.55064,39.942516,40.258507,40.57107,40.77352,40.808,40.794632,40.749172,40.681305,40.607857,40.506767,40.40113,40.32029,40.260895,40.058,39.721893,39.31774,38.86116,38.461887,38.06315,37.57094,37.016777,36.434864,35.883827,35.127197,34.266563,34.24203,36.45055,38.420914,34.912643,22.235157,9.360907,7.300769,6.8472795,7.1446857,7.1174283,7.020872,6.9994445,7.371643,10.105819,17.908104,25.741634,24.543009,22.927633,22.945107,22.902113,22.862158,22.637417,22.182444,22.176077,22.354242,22.392334,22.40844,22.389187,22.324753,22.182892,21.964172,21.74709,21.578272,21.384727,21.202984,21.056705,20.887852,20.717438,20.582691,20.44778,20.29974,20.169289,20.048515,19.914625,19.799746,19.709484,19.589237,19.436474,19.279823,19.12084,18.967943,18.84828,18.728996,18.60532,18.505249,18.41914,18.325222,18.246824,18.187622,18.121284,18.061367,18.016567,17.967272,17.917484,17.87746,17.837921,17.794647,17.757462,17.725677,17.686956,17.649029,17.616901,17.577148,17.533684,17.49509,17.44778,17.389673,17.334318,17.273567,17.201777,17.139322,17.088676,17.031166,16.978926,16.936775,16.889954,16.850136,16.824646,16.80041,16.783566,16.776775,16.772182,16.775566,16.786755,16.799614,16.819454,16.841301,16.858974,16.880531,16.903824,16.923473,16.943308,16.963753,16.97998,16.993454,17.006613,17.016457,17.02364,17.033112,17.043488,17.05262,17.064236,17.08111,17.100712,17.12952,17.172565,17.219198,17.267914,17.334724,17.40274,17.460545,17.528286,17.592392,17.642776,17.69962,17.755535,17.798397,17.840332,17.882465,17.914463,17.938135,17.965134,17.991228,18.01385,18.047003,18.086426,18.121698,18.165468,18.218327,18.266994,18.317547,18.376085,18.427094,18.469513,18.51629,18.556274,18.587427,18.618267,18.642475,18.658545,18.668613,18.668434,18.66053,18.64764,18.62809,18.609118,18.593828,18.577694,18.565826,18.558914,18.550144,18.546368,18.54993,18.560637,18.58666,18.62081,18.659458,18.714039,18.77162,18.824825,18.893831,18.964497,19.023743,19.094467,19.165247,19.220322
23.99172,25.118263,26.834545,28.485907,29.496843,30.00742,30.213602,30.448488,30.663422,30.914661,31.148544,31.337488,31.544209,31.72459,31.871016,32.056458,32.253403,32.423676,32.64836,32.923088,33.177277,33.457703,33.787827,34.0915,34.378338,34.743206,35.12324,35.476276,35.926125,36.32363,36.561016,36.69094,36.746246,36.79122,36.84922,36.923504,37.013527,37.137688,37.304955,37.45344,37.546844,37.66935,37.7844,37.86079,37.933235,37.99002,38.027992,38.06675,38.153328,38.299156,38.48561,38.7901,39.183956,39.579796,40.10257,40.627052,41.00264,41.36158,41.664177,41.856445,41.999798,42.12857,42.22088,42.28646,42.352543,42.404243,42.441338,42.476784,42.50476,42.524178,42.54557,42.56286,42.569687,42.56868,42.55532,42.53591,42.51951,42.50531,42.516945,42.554947,42.606644,42.689865,42.78512,42.903572,43.03091,43.125946,43.20727,43.27632,43.308838,43.32064,43.29345,43.187202,43.034447,42.839493,42.275063,41.47348,40.75864,40.045647,39.524784,39.13434,38.90303,38.87516,38.88793,38.964245,39.16954,39.446465,39.776634,40.123802,40.38981,40.651413,40.888767,41.00642,40.99646,40.951797,40.887177,40.814384,40.71241,40.602226,40.512016,40.388832,40.01346,39.511627,39.210957,38.8897,38.557518,38.219994,37.80804,37.344227,36.866447,36.085327,35.332073,34.959694,35.01535,37.101704,38.989822,35.755806,22.677128,9.13163,7.28281,6.9381657,7.2092524,7.1817403,7.1012344,7.0477285,7.3087864,9.472441,17.578217,26.390968,24.8706,22.990955,23.076931,23.099102,23.056313,22.779873,22.295042,22.262926,22.441002,22.499273,22.516329,22.490467,22.42213,22.288294,22.064512,21.832151,21.655167,21.454481,21.267597,21.117233,20.94588,20.774178,20.637127,20.49083,20.32442,20.182281,20.069216,19.944828,19.834782,19.748243,19.605164,19.435179,19.293362,19.13993,18.989044,18.87112,18.75354,18.631493,18.532639,18.447548,18.354534,18.276695,18.217857,18.15185,18.092209,18.04766,17.998829,17.949734,17.910444,17.87191,17.82959,17.793076,17.761742,17.725258,17.690598,17.661,17.624372,17.583788,17.547113,17.501806,17.443546,17.386345,17.325514,17.254028,17.191254,17.139538,17.076653,17.018814,16.975616,16.926687,16.883564,16.854465,16.825829,16.803661,16.79215,16.783142,16.78213,16.790144,16.800709,16.81828,16.838491,16.85513,16.876032,16.899254,16.919348,16.941803,16.966444,16.986504,17.003313,17.019955,17.032282,17.040833,17.051807,17.06332,17.073063,17.08508,17.101627,17.120337,17.147236,17.190948,17.240135,17.2887,17.35374,17.4194,17.475414,17.54216,17.606733,17.658352,17.71754,17.776318,17.821209,17.864574,17.906288,17.93766,17.964443,17.993946,18.020771,18.043522,18.077429,18.118143,18.154648,18.19934,18.251743,18.298706,18.347052,18.402122,18.449726,18.489552,18.534489,18.574062,18.605453,18.637985,18.664501,18.682121,18.693745,18.695122,18.688446,18.676468,18.658012,18.640287,18.626316,18.611992,18.602118,18.59705,18.590336,18.587883,18.591663,18.601738,18.625149,18.655643,18.690582,18.740479,18.793919,18.84396,18.911018,18.98066,19.038418,19.107996,19.178715,19.234562
23.991718,25.064316,26.712646,28.368908,29.480076,30.030142,30.232426,30.454748,30.657312,30.901423,31.135525,31.3228,31.530212,31.713776,31.863693,32.052776,32.25225,32.423744,32.646202,32.91358,33.158337,33.427895,33.743073,34.03154,34.302803,34.65686,35.029236,35.36925,35.805584,36.21025,36.477,36.65645,36.71743,36.706146,36.678635,36.67273,36.732548,36.863914,37.052135,37.23029,37.35665,37.51274,37.64521,37.71998,37.779068,37.81588,37.841705,37.878853,37.985687,38.17476,38.420654,38.807255,39.234253,39.579018,40.098705,40.657112,41.066154,41.455936,41.762966,41.934776,42.063755,42.177464,42.258545,42.316288,42.375397,42.42258,42.456795,42.48976,42.51545,42.532585,42.550766,42.565224,42.570686,42.568924,42.554916,42.53454,42.516884,42.50071,42.498856,42.51082,42.53962,42.580116,42.614716,42.6456,42.697975,42.764183,42.83074,42.91982,43.010483,43.09577,43.168617,43.137283,43.006683,42.659042,41.98521,41.255035,40.68363,40.07805,39.580704,39.240295,39.05134,39.05961,39.12653,39.223495,39.411106,39.661926,39.964565,40.26777,40.47895,40.652077,40.83824,40.97511,41.01142,41.03181,41.0187,40.971077,40.88375,40.744827,40.58596,40.170208,39.68833,39.378983,39.144684,38.873154,38.58335,38.28727,37.93466,37.54741,37.166286,36.19397,35.52285,35.7069,35.78308,37.70101,39.551437,36.67729,23.245083,8.99601,7.2795477,7.011257,7.2668295,7.239094,7.1709614,7.0891666,7.2630415,9.078436,17.388453,26.82074,25.109106,23.066967,23.200712,23.293762,23.232775,22.893341,22.395767,22.347664,22.521317,22.587212,22.608236,22.581646,22.510555,22.38243,22.153862,21.90897,21.725393,21.517101,21.32473,21.172184,21.000229,20.82432,20.678139,20.514244,20.342342,20.209482,20.100714,19.979473,19.870258,19.784418,19.625519,19.444847,19.314,19.163715,19.013378,18.896591,18.779839,18.658623,18.56046,18.475998,18.382874,18.304165,18.244358,18.177423,18.11715,18.07227,18.023308,17.974417,17.935463,17.896961,17.855396,17.820316,17.790375,17.756046,17.723917,17.69664,17.663153,17.62482,17.588604,17.542484,17.484535,17.429316,17.37004,17.2997,17.236202,17.180733,17.116367,17.058693,17.014458,16.96388,16.918102,16.886019,16.853552,16.826492,16.810463,16.797161,16.791618,16.796085,16.803892,16.818735,16.836891,16.852087,16.8717,16.894176,16.914087,16.93697,16.962635,16.983885,17.002073,17.020336,17.034487,17.045376,17.058937,17.072561,17.083725,17.097103,17.11499,17.134777,17.162056,17.20383,17.250772,17.301386,17.367737,17.432455,17.486286,17.552036,17.617249,17.670053,17.73164,17.793476,17.840706,17.88589,17.92855,17.959686,17.984646,18.016754,18.04766,18.070107,18.104488,18.146345,18.183956,18.229473,18.281506,18.32705,18.373684,18.425997,18.47081,18.508526,18.551743,18.590483,18.621471,18.65442,18.681805,18.69997,18.71214,18.714317,18.70853,18.697186,18.679718,18.66328,18.650728,18.638355,18.630678,18.627708,18.623466,18.622967,18.62763,18.637983,18.65994,18.687845,18.720076,18.766317,18.816282,18.863388,18.928131,18.996708,19.053984,19.12385,19.195267,19.251595
23.979294,25.057415,26.616453,28.215996,29.406876,30.119986,30.362968,30.45205,30.649445,30.914337,31.15355,31.340816,31.551647,31.742762,31.900759,32.098377,32.303802,32.47799,32.698658,32.95965,33.196854,33.456608,33.75554,34.025146,34.277397,34.608627,34.956116,35.269455,35.67038,36.042862,36.290012,36.45643,36.48772,36.430305,36.34655,36.309864,36.37601,36.51306,36.72896,36.95877,37.14886,37.33033,37.441055,37.47963,37.508987,37.5256,37.545036,37.583748,37.70363,37.919502,38.19888,38.682167,39.2532,39.744392,40.24965,40.756668,41.206886,41.619183,41.93895,42.11093,42.222435,42.31717,42.386734,42.434376,42.483494,42.52424,42.55551,42.58689,42.610443,42.62388,42.637833,42.6482,42.651085,42.64743,42.632084,42.610775,42.59237,42.57279,42.558846,42.55153,42.558853,42.574944,42.587204,42.59603,42.6136,42.639786,42.669373,42.71589,42.767414,42.816216,42.861847,42.809486,42.654697,42.272743,41.706715,41.19438,40.691795,40.142296,39.714363,39.428352,39.281845,39.32334,39.43817,39.554916,39.718853,39.927246,40.18972,40.4369,40.58445,40.691315,40.760735,40.794357,40.823093,40.856323,40.86649,40.84784,40.761837,40.572563,40.339645,39.920113,39.51198,39.29516,39.10537,38.87011,38.61329,38.349014,38.049988,37.730583,37.41723,36.422318,35.93873,36.548225,36.41733,38.128807,40.10605,37.498486,23.730268,8.892707,7.2951384,7.094292,7.3356943,7.3076844,7.252836,7.1409035,7.221017,8.645115,17.205418,27.361214,25.41787,23.183327,23.353304,23.450844,23.371593,23.010313,22.512268,22.44923,22.607784,22.67098,22.70597,22.68748,22.612774,22.494057,22.260826,22.000492,21.809309,21.592068,21.392986,21.237505,21.067682,20.88094,20.711672,20.542511,20.374886,20.248186,20.142048,20.025116,19.912853,19.808458,19.644505,19.469816,19.343422,19.195158,19.045918,18.930449,18.815002,18.693779,18.59431,18.508545,18.414095,18.334435,18.273964,18.206184,18.145405,18.100544,18.051115,18.000889,17.960365,17.920954,17.879684,17.846025,17.8177,17.78592,17.756584,17.731644,17.700676,17.664906,17.63099,17.5876,17.532318,17.47881,17.420483,17.350294,17.28653,17.23106,17.167637,17.110786,17.066212,17.014694,16.966648,16.93158,16.895096,16.862514,16.841099,16.822578,16.81123,16.810818,16.814663,16.825314,16.840065,16.852823,16.870045,16.890755,16.909698,16.93208,16.95783,16.979666,16.998873,17.018858,17.035107,17.048214,17.064245,17.079891,17.092392,17.106956,17.125626,17.145857,17.173885,17.216675,17.263956,17.312786,17.377728,17.442596,17.497772,17.562756,17.62748,17.682236,17.747036,17.81303,17.863644,17.911575,17.955956,17.987247,18.010986,18.04273,18.075571,18.101944,18.137817,18.17995,18.218801,18.265232,18.317043,18.361355,18.406517,18.456474,18.498928,18.534924,18.576548,18.614197,18.644375,18.67698,18.704224,18.722067,18.733976,18.736353,18.73117,18.720392,18.70405,18.689255,18.678616,18.668968,18.664402,18.664375,18.663656,18.66616,18.672508,18.68385,18.70479,18.730175,18.759659,18.801758,18.847408,18.890759,18.952106,19.018654,19.074844,19.14469,19.217154,19.274706
23.890404,24.992374,26.482956,28.020355,29.255093,30.110619,30.4393,30.477388,30.641514,30.88271,31.120392,31.324224,31.552261,31.755903,31.927591,32.14108,32.364067,32.555428,32.791805,33.058235,33.290577,33.54612,33.834595,34.08921,34.3258,34.631775,34.94775,35.230034,35.58733,35.909332,36.11205,36.227486,36.22125,36.153103,36.08019,36.05143,36.10392,36.202187,36.390938,36.62269,36.832565,37.01245,37.09817,37.107025,37.10934,37.109177,37.126976,37.172935,37.313675,37.56601,37.89574,38.4584,39.17011,39.86279,40.47969,40.998795,41.42865,41.84275,42.174217,42.35456,42.4591,42.536133,42.58998,42.634254,42.67865,42.71176,42.733864,42.751442,42.765778,42.77904,42.792076,42.800995,42.801216,42.7928,42.770573,42.742397,42.717995,42.691494,42.67315,42.66507,42.668297,42.6867,42.71003,42.74056,42.760185,42.760246,42.7582,42.745377,42.71857,42.68476,42.634827,42.5131,42.329277,42.02114,41.617996,41.248848,40.76601,40.257957,39.913986,39.67741,39.567257,39.632042,39.775093,39.907898,40.0514,40.21279,40.42988,40.622093,40.714085,40.764862,40.728912,40.65409,40.635803,40.625782,40.612602,40.59469,40.514313,40.31838,40.067078,39.795067,39.516563,39.30461,39.134323,38.920815,38.687225,38.447166,38.206085,37.88995,37.44831,36.676643,36.50071,37.183655,36.857254,38.44452,40.52322,38.037132,24.02921,8.832975,7.3269825,7.1753936,7.405468,7.3771963,7.334272,7.196839,7.1932054,8.279688,16.836168,27.366302,25.552269,23.36213,23.517086,23.603529,23.496475,23.115105,22.623474,22.545052,22.681725,22.735966,22.790943,22.787474,22.709904,22.59742,22.362608,22.09305,21.894375,21.668392,21.463135,21.30552,21.127071,20.925575,20.743729,20.578304,20.41806,20.294338,20.18958,20.074287,19.955505,19.8283,19.66867,19.508904,19.382027,19.235111,19.086903,18.971554,18.8561,18.733868,18.632687,18.545124,18.449036,18.368404,18.307354,18.238918,18.176765,18.129894,18.078468,18.026321,17.984505,17.944458,17.903502,17.870975,17.843983,17.814342,17.787437,17.764574,17.735771,17.70293,17.672428,17.631992,17.578838,17.52653,17.469807,17.401108,17.33897,17.286472,17.225601,17.169958,17.125824,17.074331,17.02501,16.987736,16.94807,16.910656,16.884197,16.860668,16.843395,16.83768,16.837055,16.842743,16.853262,16.862915,16.876978,16.895107,16.912384,16.933392,16.95828,16.979963,16.999607,17.020924,17.038944,17.053654,17.071396,17.088371,17.101696,17.116974,17.135876,17.15599,17.18435,17.228027,17.275517,17.321701,17.384014,17.448048,17.503765,17.57003,17.636642,17.693224,17.761826,17.832838,17.88757,17.939137,17.986206,18.018425,18.04205,18.07183,18.104141,18.13444,18.172821,18.21593,18.255384,18.30238,18.35411,18.39777,18.44226,18.491226,18.532776,18.568325,18.609371,18.646257,18.675587,18.707195,18.733227,18.749844,18.760626,18.762487,18.757532,18.747189,18.73195,18.718845,18.710278,18.703613,18.702457,18.70562,18.708746,18.714653,18.72306,18.735779,18.756098,18.77924,18.806122,18.843828,18.884533,18.923412,18.98014,19.043419,19.09771,19.166939,19.240597,19.300114
23.72765,24.812645,26.273024,27.797562,29.054928,29.9156,30.33936,30.531073,30.631676,30.778358,30.999886,31.2317,31.48771,31.70697,31.894724,32.128227,32.37872,32.601654,32.87345,33.159134,33.38926,33.645844,33.93112,34.17821,34.40586,34.696037,34.990852,35.251114,35.577568,35.867165,36.04512,36.132996,36.119263,36.06893,36.043148,36.009224,35.9905,36.007153,36.10735,36.26984,36.426033,36.586456,36.683224,36.70321,36.69718,36.683544,36.69863,36.75453,36.931496,37.246685,37.669373,38.2828,39.024437,39.775547,40.644417,41.327106,41.66694,42.068996,42.401733,42.57826,42.68983,42.755997,42.792103,42.84247,42.890305,42.915997,42.922417,42.9136,42.91229,42.93065,42.946915,42.95807,42.956825,42.94186,42.908047,42.86754,42.83216,42.79818,42.78354,42.787872,42.804726,42.83363,42.860542,42.88681,42.900116,42.89534,42.886406,42.857513,42.808884,42.755524,42.667534,42.522125,42.348766,42.10121,41.706055,41.273598,40.83387,40.400425,40.10965,39.912804,39.831078,39.90909,40.063126,40.20994,40.34397,40.46838,40.645313,40.79442,40.847816,40.8303,40.763187,40.69388,40.64306,40.586227,40.53149,40.482445,40.425217,40.28759,40.07891,39.81883,39.553635,39.368156,39.212013,39.01452,38.80079,38.584858,38.40941,38.035828,37.28957,36.832993,36.986942,37.503685,37.21886,38.803047,40.78918,38.356094,24.202385,8.792549,7.3588657,7.2440853,7.4649525,7.4364777,7.4024734,7.2482176,7.182691,8.0409,16.255095,26.649185,25.416931,23.57188,23.664452,23.787903,23.641867,23.20133,22.712112,22.617031,22.734894,22.783371,22.85538,22.866087,22.787365,22.673897,22.440798,22.171848,21.966896,21.733639,21.523678,21.365116,21.164154,20.950478,20.780739,20.616348,20.45779,20.337667,20.234806,20.116413,19.990643,19.85607,19.700508,19.548674,19.422588,19.277267,19.12933,19.0127,18.895378,18.771908,18.670532,18.582531,18.485636,18.403988,18.342035,18.272823,18.208094,18.156807,18.10213,18.04898,18.008018,17.9685,17.92831,17.896626,17.87045,17.842115,17.816889,17.7957,17.769184,17.739187,17.711239,17.670397,17.616642,17.56556,17.511894,17.447208,17.388294,17.338129,17.279362,17.224983,17.181515,17.130482,17.080662,17.042099,17.000412,16.959597,16.929375,16.901993,16.879946,16.86975,16.865265,16.86656,16.87322,16.879978,16.891066,16.906673,16.922222,16.941702,16.96544,16.986637,17.006329,17.028366,17.047504,17.063293,17.082088,17.099768,17.113482,17.129173,17.148342,17.168459,17.19642,17.23779,17.282547,17.328932,17.389986,17.451015,17.502922,17.572319,17.644491,17.702255,17.774548,17.850441,17.909077,17.964344,18.014439,18.04804,18.071934,18.101027,18.132462,18.162403,18.203287,18.248943,18.288242,18.33537,18.387043,18.430511,18.475021,18.524137,18.565998,18.602154,18.643635,18.68039,18.709206,18.739826,18.764406,18.77962,18.789051,18.790173,18.785278,18.775284,18.76096,18.749245,18.742414,18.738256,18.739944,18.745739,18.752068,18.760826,18.770967,18.784843,18.804644,18.82586,18.850422,18.88405,18.92001,18.954485,19.006353,19.065956,19.118114,19.186438,19.261131,19.322662
23.40092,24.474964,25.824028,27.23183,28.472157,29.54644,30.176632,30.387852,30.581846,30.731396,30.852045,30.976952,31.222794,31.511425,31.729063,31.994217,32.27733,32.53218,32.864338,33.207687,33.46421,33.733887,34.0247,34.273495,34.50068,34.78425,35.06576,35.310555,35.613266,35.875847,36.0322,36.09963,36.105812,36.09343,36.013092,35.88697,35.8022,35.79979,35.885597,36.036552,36.18287,36.334694,36.425293,36.440765,36.427567,36.40948,36.426544,36.490055,36.68555,37.026756,37.468254,38.183037,39.037903,39.816444,40.84807,41.678185,42.030224,42.411537,42.715828,42.886475,42.99121,43.07704,43.145245,43.210526,43.253834,43.258125,43.244583,43.21427,43.18622,43.177494,43.171585,43.168606,43.161987,43.14093,43.10324,43.06234,43.028133,42.994858,42.979393,42.981754,42.99799,43.02929,43.059906,43.08587,43.094288,43.081074,43.06082,43.012657,42.942993,42.874657,42.755424,42.56466,42.346863,42.05786,41.67202,41.296936,40.919693,40.552376,40.309647,40.155357,40.099384,40.177547,40.319973,40.4871,40.62584,40.707695,40.81305,40.89272,40.911026,40.859535,40.77575,40.7062,40.64998,40.585556,40.524803,40.473183,40.418266,40.283455,40.07435,39.834133,39.595848,39.42945,39.296265,39.118187,38.918095,38.72111,38.584698,38.179436,37.263245,37.02894,37.37797,37.7406,37.44643,39.080746,41.08036,38.493652,24.183947,8.7415695,7.398432,7.3232927,7.5318336,7.5031333,7.4706025,7.329089,7.2573624,7.7943196,15.419321,25.507355,25.16098,23.841156,23.815151,23.954165,23.769535,23.281027,22.792606,22.681538,22.782078,22.826138,22.92011,22.949497,22.870865,22.755884,22.525211,22.258125,22.046684,21.804407,21.583889,21.415382,21.199795,20.979458,20.814907,20.655357,20.501135,20.384201,20.291016,20.158009,20.013836,19.892479,19.7441,19.593536,19.468283,19.323593,19.176285,19.060314,18.94318,18.81954,18.717735,18.629103,18.531378,18.448662,18.38562,18.311699,18.2425,18.190464,18.134874,18.081455,18.040785,18.001583,17.961906,17.930883,17.905468,17.8788,17.85486,17.833456,17.807205,17.777103,17.748442,17.708725,17.658096,17.6107,17.560844,17.500301,17.444641,17.397074,17.340782,17.288126,17.245777,17.195751,17.145996,17.106564,17.063316,17.019484,16.985685,16.954613,16.927797,16.912964,16.90442,16.90101,16.903448,16.907013,16.914766,16.927452,16.94091,16.958439,16.980597,17.00098,17.020432,17.042955,17.063057,17.079762,17.099379,17.117506,17.13139,17.147217,17.166435,17.18649,17.214111,17.253723,17.295582,17.338669,17.394905,17.452026,17.502234,17.572752,17.65005,17.714417,17.790648,17.870457,17.933704,17.992807,18.046068,18.081276,18.10561,18.134262,18.16482,18.194038,18.235802,18.28334,18.32401,18.372261,18.42443,18.467909,18.512823,18.562462,18.604889,18.64196,18.684135,18.72097,18.74951,18.779198,18.802216,18.815887,18.823807,18.823997,18.819023,18.80931,18.795813,18.785427,18.780369,18.77884,18.78357,18.792217,18.802029,18.813992,18.826214,18.84164,18.861382,18.8811,18.90375,18.93362,18.964949,18.995045,19.041813,19.097376,19.147137,19.214336,19.29,19.353643
22.969215,23.945549,25.17406,26.477617,27.653332,28.828876,29.635035,29.956673,30.240208,30.44207,30.57637,30.71693,30.94365,31.213596,31.460445,31.791765,32.141376,32.42636,32.79969,33.201622,33.5138,33.79859,34.098915,34.36178,34.600636,34.891228,35.17074,35.408833,35.696953,35.936485,36.06977,36.146603,36.16608,36.137314,35.961906,35.74895,35.640205,35.643513,35.742504,35.90548,36.060112,36.214767,36.303787,36.318153,36.306847,36.29496,36.321182,36.40054,36.609486,36.96216,37.416042,38.21398,39.17218,39.996872,41.12348,42.05429,42.462605,42.83528,43.113457,43.2803,43.3865,43.490074,43.55976,43.56862,43.567955,43.5652,43.56804,43.546936,43.51045,43.480564,43.45646,43.435303,43.41541,43.38604,43.342712,43.29937,43.26414,43.22827,43.208447,43.206177,43.215454,43.228012,43.232903,43.238297,43.228455,43.20195,43.170692,43.106934,43.016685,42.9252,42.768387,42.53442,42.281578,41.959282,41.597397,41.296856,40.985313,40.688805,40.50152,40.39045,40.362717,40.438732,40.55497,40.73877,40.893394,40.948803,40.991837,40.997322,40.969757,40.895718,40.805107,40.738117,40.685123,40.630955,40.58035,40.53311,40.45163,40.295982,40.100864,39.885338,39.674168,39.52572,39.417313,39.25999,39.072723,38.892822,38.772797,38.374302,37.45103,37.3,37.681267,37.95307,37.64353,39.332756,41.342857,38.38566,23.94347,8.683713,7.446927,7.412156,7.60545,7.5765085,7.542775,7.4242125,7.3661017,7.520934,14.625497,24.551178,24.929039,24.084396,24.011383,24.12244,23.884712,23.356804,22.867226,22.734715,22.816769,22.862312,22.983877,23.034887,22.95583,22.839794,22.609241,22.340878,22.12236,21.873926,21.640186,21.449173,21.226463,21.009083,20.848242,20.695915,20.549833,20.435482,20.335297,20.191124,20.044756,19.937931,19.796497,19.64676,19.523216,19.379923,19.233929,19.119144,19.002953,18.879688,18.77761,18.688538,18.590244,18.505602,18.438622,18.360329,18.288696,18.236773,18.18105,18.127625,18.08705,18.047997,18.00866,17.977802,17.952095,17.92401,17.898281,17.87584,17.848602,17.817883,17.789097,17.751614,17.705168,17.66184,17.615822,17.559399,17.50705,17.462097,17.408463,17.357939,17.31723,17.268929,17.22015,17.180746,17.136951,17.091173,17.054646,17.020634,16.989658,16.97047,16.958004,16.949848,16.947876,16.948057,16.952204,16.961582,16.972565,16.987694,17.007774,17.026949,17.045813,17.06845,17.089176,17.106472,17.126453,17.144543,17.1582,17.173777,17.192791,17.212683,17.239948,17.277922,17.31674,17.355522,17.405346,17.456638,17.503191,17.570276,17.649384,17.720985,17.807652,17.895401,17.96074,18.023558,18.080168,18.117073,18.142132,18.170748,18.200693,18.229269,18.27084,18.319452,18.362045,18.410942,18.463064,18.506557,18.551828,18.60267,18.64701,18.686495,18.731258,18.769554,18.79832,18.82762,18.8495,18.861904,18.868435,18.867641,18.862421,18.85278,18.83966,18.830088,18.826414,18.827084,18.834549,18.845901,18.85906,18.874279,18.888828,18.906153,18.926537,18.945621,18.967314,18.994576,19.02227,19.048847,19.091217,19.14313,19.190754,19.256954,19.333609,19.39938
22.60417,23.426523,24.586966,25.854828,26.936657,28.025928,28.875748,29.34657,29.641872,29.897388,30.159266,30.448618,30.706997,30.933765,31.222164,31.631039,32.055187,32.37565,32.76014,33.18888,33.55118,33.856068,34.163857,34.431458,34.6829,34.987114,35.273777,35.512535,35.79371,36.01906,36.13886,36.245308,36.242954,36.127346,35.889626,35.656784,35.566666,35.576443,35.68703,35.863716,36.02944,36.195526,36.294792,36.317444,36.31649,36.3183,36.3579,36.450024,36.66771,37.035137,37.529167,38.36705,39.37272,40.264404,41.425823,42.38591,42.83747,43.217873,43.490303,43.65638,43.773888,43.86436,43.881485,43.802406,43.746937,43.75072,43.78863,43.800697,43.777863,43.73996,43.710854,43.678185,43.644363,43.606583,43.55383,43.501244,43.457787,43.411385,43.38007,43.367462,43.36199,43.343506,43.30916,43.281593,43.246696,43.207695,43.16918,43.09497,42.985123,42.863495,42.669453,42.415806,42.169117,41.871483,41.551315,41.291206,41.02852,40.792274,40.653458,40.570503,40.56448,40.641632,40.735672,40.91431,41.076202,41.1354,41.160698,41.12339,41.052002,40.957253,40.854637,40.78088,40.721615,40.67139,40.627686,40.57965,40.46786,40.301197,40.14141,39.9517,39.76306,39.63189,39.54129,39.402332,39.230156,39.065094,38.942112,38.58899,37.8126,37.591286,37.85695,38.147568,37.81881,39.543793,41.562023,38.16426,23.61983,8.634824,7.4941826,7.492879,7.6720076,7.642851,7.60886,7.5060964,7.4535127,7.2733583,14.107967,24.102795,24.845156,24.26918,24.208797,24.260803,23.969818,23.418577,22.926304,22.766932,22.83284,22.891357,23.035635,23.10362,23.0261,22.91017,22.67714,22.404102,22.179968,21.923346,21.67529,21.465405,21.242775,21.034067,20.877632,20.732647,20.59246,20.475906,20.356445,20.213783,20.084286,19.981518,19.844395,19.698147,19.576946,19.436047,19.291801,19.17789,19.06258,18.939892,18.837925,18.74901,18.649723,18.562212,18.490803,18.411228,18.340103,18.287708,18.231659,18.178043,18.137379,18.09828,18.05859,18.02665,17.999012,17.966913,17.937603,17.91424,17.885975,17.855507,17.828299,17.79298,17.749348,17.708601,17.665337,17.612083,17.562412,17.519577,17.468262,17.419842,17.380919,17.33461,17.287405,17.248806,17.205452,17.159105,17.121208,17.08558,17.051888,17.029518,17.014057,17.00207,16.996357,16.993603,16.994507,17.000767,17.009315,17.022034,17.039934,17.057755,17.075863,17.09832,17.11932,17.136908,17.156925,17.174711,17.187954,17.203123,17.221846,17.241558,17.268549,17.305222,17.34164,17.37728,17.421818,17.467072,17.508217,17.569141,17.646015,17.720383,17.818733,17.917221,17.984951,18.05083,18.110004,18.148407,18.174324,18.203285,18.233164,18.26175,18.303022,18.351929,18.39569,18.444603,18.496193,18.539368,18.58453,18.636494,18.683136,18.725471,18.773659,18.814404,18.8442,18.873898,18.89539,18.907185,18.912888,18.911415,18.90598,18.896313,18.883217,18.873928,18.871086,18.87321,18.882637,18.896023,18.911753,18.929628,18.946218,18.96536,18.986902,19.006311,19.028172,19.054543,19.080462,19.105196,19.144945,19.194525,19.240826,19.306408,19.383839,19.451256
22.328566,23.048223,24.170269,25.389797,26.340929,27.400322,28.212812,28.597786,28.92812,29.246712,29.54943,29.872038,30.286854,30.709957,31.102116,31.547934,31.992596,32.382336,32.79612,33.23483,33.612476,33.97312,34.286057,34.51096,34.76509,35.080505,35.37495,35.612694,35.884354,36.10799,36.242287,36.381844,36.326286,36.089737,35.83717,35.619034,35.543373,35.567142,35.693592,35.88317,36.05785,36.23367,36.343796,36.37734,36.388294,36.40989,36.4663,36.54049,36.749542,37.14258,37.693848,38.588516,39.636803,40.565567,41.73604,42.699844,43.170807,43.55537,43.825493,43.988922,44.111076,44.149643,44.103416,44.037952,43.982292,43.97128,43.996143,44.034767,44.020126,43.94426,43.900177,43.862404,43.82652,43.783703,43.722157,43.660294,43.611282,43.553032,43.494526,43.443413,43.4003,43.359665,43.320595,43.275528,43.229603,43.190403,43.148495,43.063652,42.935112,42.789455,42.573723,42.32024,42.094784,41.825874,41.550446,41.33732,41.119545,40.91958,40.795486,40.709553,40.70701,40.7865,40.869366,41.005157,41.147026,41.240696,41.288124,41.245388,41.146698,41.032524,40.8991,40.793167,40.711792,40.6504,40.606407,40.556545,40.451866,40.302315,40.161316,39.992485,39.825294,39.710186,39.630707,39.51047,39.358643,39.205986,39.063713,38.781876,38.262894,37.8742,37.916843,38.279068,37.90088,39.69538,41.820183,37.98463,23.320736,8.596673,7.5389657,7.5660663,7.7328997,7.703547,7.66932,7.5806,7.5329227,7.0705605,13.593384,23.563492,24.819973,24.523897,24.361166,24.355871,24.0279,23.467289,22.971807,22.7796,22.833538,22.92051,23.073862,23.151997,23.08531,22.969196,22.734097,22.458916,22.234432,21.95177,21.680685,21.477684,21.258936,21.055767,20.90609,20.771751,20.627432,20.49619,20.374697,20.23985,20.121065,20.021982,19.889023,19.74625,19.627304,19.488647,19.346119,19.233187,19.118883,18.996956,18.895481,18.808018,18.70557,18.613699,18.54256,18.462887,18.3914,18.33865,18.28223,18.228233,18.187288,18.148447,18.107353,18.072212,18.040592,18.005472,17.974815,17.95042,17.921711,17.89161,17.865093,17.83103,17.789246,17.750378,17.709383,17.658783,17.611382,17.57045,17.521336,17.475014,17.43792,17.393661,17.34821,17.3107,17.26822,17.222017,17.18354,17.147068,17.111534,17.086739,17.06891,17.05368,17.044624,17.03919,17.03701,17.040173,17.04625,17.05645,17.072048,17.08842,17.105686,17.127838,17.149017,17.166874,17.18695,17.204512,17.217438,17.232296,17.250801,17.270397,17.29718,17.332783,17.367218,17.400238,17.440432,17.48081,17.517689,17.574148,17.647646,17.720007,17.820465,17.92878,18.0084,18.076584,18.136585,18.176815,18.203674,18.233234,18.263357,18.292135,18.333672,18.382702,18.4264,18.47637,18.528286,18.570522,18.615292,18.667572,18.715305,18.75915,18.809433,18.852467,18.884556,18.915152,18.93635,18.94785,18.953064,18.951176,18.945633,18.936104,18.923166,18.914206,18.912163,18.915657,18.926846,18.941975,18.959953,18.980156,18.998545,19.019398,19.042324,19.06253,19.085058,19.111423,19.136555,19.160278,19.19827,19.246132,19.291435,19.35645,19.434357,19.503002
22.110603,22.707697,23.81935,25.059135,25.94349,26.99371,27.780724,28.098671,28.403805,28.684193,28.942648,29.2379,29.729515,30.303734,30.817379,31.431541,32.014526,32.4634,32.908936,33.337566,33.691853,34.063675,34.39191,34.61318,34.829323,35.148186,35.48306,35.750393,36.023144,36.246925,36.404503,36.469757,36.32104,36.05014,35.813305,35.596466,35.49675,35.508377,35.647255,35.873154,36.086323,36.305798,36.446518,36.49105,36.52533,36.559082,36.611423,36.68702,36.914337,37.34361,37.94056,38.89866,39.997215,40.946808,42.10938,43.066658,43.555702,43.938595,44.20096,44.35752,44.465435,44.475567,44.406456,44.345222,44.284065,44.257965,44.268433,44.304176,44.287357,44.200752,44.132355,44.069916,44.02205,43.97386,43.910767,43.839943,43.764145,43.674797,43.591335,43.52515,43.460594,43.402603,43.355835,43.300262,43.234802,43.17611,43.130684,43.036125,42.89086,42.72683,42.507668,42.26631,42.05448,41.817528,41.56481,41.35386,41.162033,41.010128,40.93244,40.87992,40.872726,40.922794,40.995644,41.097027,41.202927,41.28322,41.334427,41.322212,41.258747,41.15161,41.002968,40.87272,40.773876,40.684128,40.614098,40.55116,40.449154,40.31639,40.191895,40.042793,39.897873,39.800888,39.735672,39.63159,39.496292,39.363567,39.202988,38.97932,38.69523,38.112843,37.94948,38.444664,38.040207,39.933784,42.197495,37.904945,23.072632,8.570509,7.5947623,7.6512012,7.806003,7.776419,7.7419157,7.665013,7.6214275,6.934243,13.129021,22.997429,24.835777,24.819527,24.496387,24.446337,24.09433,23.52694,23.021385,22.788,22.833899,22.965294,23.132536,23.216848,23.154669,23.038834,22.803257,22.522354,22.283352,21.977142,21.691673,21.493298,21.2776,21.083687,20.945702,20.806913,20.650658,20.513025,20.3997,20.275017,20.163189,20.068691,19.940918,19.802567,19.686596,19.55096,19.410994,19.299831,19.187313,19.067482,18.96711,18.878422,18.773678,18.680351,18.60975,18.530087,18.458073,18.404709,18.347616,18.293192,18.251762,18.210548,18.16484,18.125105,18.090683,18.053387,18.021385,17.995766,17.966156,17.93573,17.909267,17.875767,17.835434,17.798435,17.759655,17.71191,17.66723,17.628723,17.582607,17.539284,17.504757,17.46334,17.420353,17.384457,17.34335,17.297798,17.259155,17.22221,17.185108,17.157928,17.137665,17.11884,17.105843,17.097134,17.091,17.090027,17.092743,17.099476,17.111841,17.126156,17.142204,17.163908,17.185411,17.20383,17.22438,17.242153,17.255117,17.270008,17.288546,17.308136,17.334793,17.369362,17.401817,17.432297,17.46818,17.503593,17.536049,17.587576,17.656841,17.726221,17.824604,17.938847,18.030096,18.106155,18.169876,18.21019,18.238344,18.269135,18.300102,18.329552,18.371975,18.421734,18.465778,18.516096,18.567924,18.609589,18.653166,18.704576,18.752481,18.797184,18.849045,18.894129,18.928387,18.960464,18.982162,18.993702,18.99889,18.997116,18.99197,18.983131,18.971025,18.963003,18.962269,18.967722,18.981157,18.99832,19.018929,19.04189,19.062443,19.085472,19.110533,19.13242,19.156542,19.184095,19.209545,19.233168,19.270199,19.316738,19.361189,19.425497,19.503555,19.573156
22.061401,22.574392,23.6838,24.975323,25.884583,26.970367,27.779465,28.087605,28.317047,28.47945,28.646832,28.899261,29.390062,30.012108,30.590458,31.332466,32.047462,32.569557,33.04365,33.460266,33.795334,34.149338,34.48465,34.720707,34.90447,35.20137,35.550217,35.856823,36.1831,36.425552,36.54944,36.500893,36.28583,36.047806,35.80588,35.561188,35.431625,35.432465,35.58341,35.84322,36.09306,36.356846,36.534454,36.599167,36.657364,36.701344,36.753666,36.855095,37.12317,37.591225,38.217743,39.22986,40.3703,41.32116,42.465397,43.406868,43.900463,44.277184,44.52942,44.675735,44.760296,44.773483,44.722393,44.651215,44.577797,44.540215,44.540726,44.553215,44.52896,44.45813,44.3705,44.281113,44.217323,44.154762,44.072044,43.977154,43.873314,43.75332,43.652733,43.586475,43.514404,43.444237,43.38662,43.325447,43.243843,43.16381,43.109932,43.005947,42.854652,42.69127,42.48523,42.25595,42.04249,41.801994,41.54494,41.335205,41.16597,41.06327,41.03967,41.038036,41.037254,41.05623,41.11119,41.188934,41.26158,41.3051,41.338863,41.34915,41.33075,41.25586,41.133446,41.01163,40.90152,40.784985,40.687035,40.607635,40.49586,40.365402,40.24962,40.112156,39.98336,39.901733,39.85161,39.76013,39.634552,39.518703,39.3501,39.142555,38.953087,38.223236,37.96604,38.615517,38.18952,40.17955,42.604607,37.990032,22.992996,8.59449,7.65828,7.729423,7.878351,7.848543,7.8137703,7.744155,7.7030454,6.893808,12.800623,22.501093,24.8951,25.109842,24.59005,24.517393,24.157303,23.58638,23.069439,22.802565,22.844929,23.016054,23.197456,23.286037,23.224428,23.108646,22.873932,22.58543,22.32108,21.998882,21.710068,21.511707,21.301048,21.115234,20.98135,20.827187,20.66226,20.532192,20.428747,20.31142,20.2031,20.113071,19.990389,19.856504,19.743694,19.611332,19.47441,19.365597,19.255585,19.138327,19.038853,18.947475,18.842394,18.75077,18.680702,18.601204,18.528822,18.474876,18.416893,18.360744,18.31691,18.271519,18.220905,18.17791,18.142277,18.103619,18.070187,18.043331,18.012354,17.980856,17.953842,17.920277,17.880781,17.845167,17.808052,17.762695,17.72054,17.684383,17.64133,17.601131,17.569246,17.530735,17.490307,17.456173,17.416668,17.372221,17.33398,17.297144,17.259209,17.230337,17.208214,17.186375,17.169834,17.158092,17.148087,17.14286,17.142021,17.144981,17.153702,17.16558,17.18008,17.200962,17.222542,17.241417,17.26244,17.28055,17.293716,17.308792,17.327425,17.34699,17.37347,17.4071,17.437914,17.466433,17.498993,17.53051,17.55943,17.606682,17.671963,17.738398,17.832851,17.947079,18.043365,18.129406,18.201054,18.243406,18.272953,18.305054,18.337204,18.367697,18.411537,18.462423,18.506887,18.556768,18.60804,18.649387,18.691113,18.740566,18.787634,18.832302,18.884903,18.931358,18.967035,19.000916,19.024021,19.036125,19.04195,19.040977,19.036724,19.029095,19.018438,19.011845,19.012716,19.020391,19.036076,19.055016,19.07795,19.10326,19.125576,19.150412,19.177505,19.201252,19.227196,19.256592,19.283257,19.307579,19.344563,19.390446,19.434338,19.497913,19.575684,19.645687
22.148975,22.645348,23.733778,25.03717,26.000725,27.15385,28.017231,28.337513,28.500648,28.565538,28.67456,28.923965,29.428267,30.056095,30.622482,31.298824,32.005177,32.633003,33.13151,33.553772,33.913113,34.26911,34.59061,34.814316,35.01588,35.2702,35.567184,35.89054,36.319286,36.601414,36.619312,36.52987,36.317413,36.087036,35.78664,35.499752,35.376797,35.398293,35.56576,35.83168,36.08416,36.356476,36.55753,36.653973,36.72532,36.78733,36.86838,36.99971,37.303772,37.804283,38.45845,39.509445,40.673775,41.619286,42.747612,43.66927,44.15084,44.52258,44.768467,44.904755,44.97571,44.99706,44.963326,44.88544,44.80258,44.755585,44.747993,44.74622,44.719776,44.662018,44.570076,44.472816,44.40004,44.31285,44.18098,44.043457,43.93302,43.803032,43.6892,43.61048,43.52563,43.44382,43.377735,43.30969,43.226013,43.144714,43.077095,42.962852,42.81548,42.66856,42.475655,42.24733,42.025337,41.73885,41.47267,41.31427,41.185608,41.119644,41.121872,41.148582,41.174377,41.195335,41.22261,41.274227,41.330376,41.36651,41.383484,41.371872,41.34268,41.300133,41.232445,41.145195,41.02407,40.899433,40.798393,40.710392,40.58275,40.44139,40.32709,40.19344,40.073486,40.002373,39.964653,39.88521,39.766846,39.656315,39.487793,39.26729,39.056366,38.242622,37.981995,38.75364,38.281517,40.33874,42.930695,38.157784,23.048187,8.665542,7.720998,7.7888107,7.9386578,7.908662,7.8736634,7.8087482,7.769211,6.891073,12.562244,22.094173,24.968918,25.366207,24.65561,24.569845,24.206402,23.634314,23.111765,22.82752,22.867298,23.058062,23.24767,23.34237,23.285069,23.168531,22.934414,22.640034,22.353363,22.01847,21.72809,21.52969,21.328035,21.14486,21.001083,20.836018,20.673653,20.556572,20.45528,20.340647,20.236073,20.14936,20.030653,19.90046,19.79036,19.66085,19.526714,19.420145,19.312717,19.197182,19.097767,19.005116,18.900745,18.811062,18.741692,18.66261,18.59018,18.535952,18.477114,18.417702,18.369385,18.320599,18.26804,18.224499,18.187836,18.147774,18.112934,18.08496,18.052593,18.019928,17.99231,17.958649,17.919662,17.884861,17.848843,17.805157,17.764835,17.730434,17.689716,17.651917,17.622044,17.585756,17.547352,17.514692,17.476608,17.433372,17.395851,17.359472,17.321327,17.291538,17.268309,17.244457,17.22541,17.21149,17.198551,17.189922,17.18613,17.185871,17.191338,17.2009,17.213797,17.23354,17.254704,17.273579,17.29461,17.312717,17.325878,17.340923,17.359455,17.378845,17.404991,17.43773,17.467264,17.49437,17.524666,17.553555,17.580042,17.62421,17.686382,17.750324,17.842379,17.954166,18.049427,18.14184,18.223057,18.27179,18.302605,18.33555,18.368717,18.400223,18.445478,18.497263,18.541656,18.59107,18.641758,18.682575,18.722485,18.76992,18.815874,18.860094,18.912992,18.960384,18.996983,19.032513,19.057245,19.070229,19.077032,19.077085,19.073793,19.067421,19.05822,19.052982,19.055286,19.064877,19.08234,19.10247,19.126987,19.153755,19.176983,19.202744,19.231005,19.255962,19.283077,19.313908,19.341753,19.366795,19.404009,19.44959,19.493118,19.556057,19.633373,19.703396
22.262308,22.817509,23.888508,25.172098,26.196625,27.46269,28.441238,28.818134,29.000156,29.029507,29.082718,29.30143,29.806473,30.422491,30.907955,31.51142,32.169067,32.76596,33.290005,33.721764,34.039333,34.359676,34.666824,34.90258,35.121674,35.38768,35.672836,35.95928,36.381805,36.68041,36.709694,36.6216,36.393013,36.135212,35.787025,35.485313,35.385624,35.41947,35.595695,35.864834,36.118652,36.395653,36.60868,36.721268,36.8111,36.89959,37.009308,37.171497,37.513527,38.04847,38.730755,39.820484,41.006866,41.94348,43.05754,43.946907,44.388992,44.76345,45.00779,45.124847,45.19777,45.22458,45.18982,45.10127,45.00577,44.947853,44.93213,44.91951,44.886635,44.829735,44.745903,44.63852,44.536434,44.421616,44.261456,44.10457,43.98254,43.837543,43.707947,43.61596,43.516884,43.422638,43.348602,43.275806,43.192547,43.113853,43.04264,42.93444,42.80214,42.673454,42.4623,42.19239,41.940582,41.64552,41.41674,41.31919,41.23152,41.201477,41.22891,41.270264,41.323013,41.359543,41.369675,41.39463,41.42414,41.44368,41.451706,41.435677,41.403496,41.36148,41.30777,41.246483,41.16432,41.04109,40.910713,40.80564,40.663033,40.5129,40.39524,40.26915,40.169437,40.11979,40.096733,40.029915,39.919323,39.813732,39.641632,39.408348,39.184143,38.327293,38.042114,38.83319,38.335075,40.463013,43.19954,38.47483,23.296478,8.794938,7.800803,7.8512774,8.0080185,7.977809,7.942554,7.882039,7.843951,6.903383,12.340506,21.695023,25.026428,25.61414,24.73921,24.637184,24.264942,23.690783,23.168362,22.87276,22.906525,23.105293,23.30368,23.411331,23.363743,23.24484,23.011837,22.711727,22.39618,22.044668,21.754372,21.56082,21.367321,21.177118,21.012863,20.851694,20.69759,20.583405,20.484137,20.372334,20.271141,20.18766,20.073124,19.947105,19.840227,19.714256,19.583698,19.480162,19.37743,19.262085,19.159811,19.069466,18.968134,18.88062,18.812445,18.734398,18.661957,18.606712,18.54471,18.481117,18.429804,18.379025,18.324799,18.279953,18.242088,18.200521,18.16417,18.134869,18.101158,18.06754,18.039467,18.005726,17.967205,17.93318,17.898178,17.856112,17.8176,17.784908,17.74646,17.710995,17.683075,17.648994,17.612686,17.581617,17.545176,17.503529,17.467136,17.43156,17.39362,17.363297,17.339262,17.31371,17.292408,17.2765,17.260656,17.248444,17.241405,17.237396,17.238848,17.245342,17.255856,17.273508,17.293436,17.311655,17.332031,17.349659,17.362532,17.377247,17.39539,17.414366,17.439875,17.471424,17.499477,17.525055,17.55307,17.579393,17.603558,17.644659,17.703566,17.764778,17.853992,17.963776,18.058632,18.152517,18.23948,18.296078,18.334322,18.373657,18.409563,18.441238,18.487082,18.539288,18.583557,18.63243,18.681992,18.721542,18.760147,18.805439,18.849417,18.892859,18.945835,18.994213,19.031979,19.069607,19.096571,19.111,19.119408,19.12096,19.118809,19.113815,19.106224,19.102463,19.106182,19.11774,19.13692,19.157955,19.18369,19.211353,19.234856,19.260769,19.289356,19.314829,19.342335,19.373867,19.40241,19.427828,19.464909,19.509872,19.552765,19.614748,19.69123,19.760927
22.69388,23.325016,24.341743,25.580698,26.713135,28.109001,29.251114,29.7727,30.063347,30.128445,30.127216,30.21452,30.604485,31.14792,31.548111,32.074646,32.65944,33.179596,33.655624,34.04738,34.32367,34.609535,34.89859,35.136806,35.36427,35.65493,35.950333,36.206093,36.61367,36.912643,36.944294,36.864887,36.603767,36.28293,35.914375,35.618706,35.53402,35.569653,35.742516,36.004738,36.251713,36.522793,36.735382,36.852936,36.95703,37.06923,37.2031,37.391678,37.765366,38.326496,39.026917,40.136658,41.32482,42.238697,43.332214,44.176903,44.55652,44.919476,45.159683,45.26503,45.35559,45.392616,45.35019,45.249763,45.14243,45.076767,45.056984,45.034668,44.992256,44.931328,44.85057,44.73166,44.604008,44.46855,44.290382,44.120293,43.983932,43.821655,43.677414,43.576275,43.46727,43.36389,43.283417,43.20765,43.1241,43.045982,42.974052,42.86702,42.732735,42.594185,42.36993,42.075268,41.788826,41.525303,41.38041,41.360134,41.315193,41.316208,41.364063,41.413,41.480324,41.53279,41.552643,41.56138,41.562088,41.565056,41.564716,41.547432,41.515167,41.46669,41.408466,41.35813,41.32022,41.20957,41.05599,40.929176,40.768272,40.610397,40.49395,40.380844,40.306396,40.280785,40.272865,40.218113,40.11436,40.01252,39.83432,39.58485,39.342323,38.47581,38.16696,38.918335,38.432556,40.579258,43.373955,39.056103,23.874538,9.002612,7.896597,7.909907,8.082766,8.052327,8.016795,7.9596024,7.9225693,6.9218626,12.227484,21.514355,25.123507,25.81866,24.836449,24.719017,24.3366,23.762424,23.24774,22.944626,22.967052,23.16314,23.366028,23.489416,23.456596,23.334726,23.094233,22.78125,22.442223,22.080523,21.793287,21.60308,21.412285,21.21276,21.031853,20.87792,20.731304,20.61611,20.517902,20.407993,20.309258,20.22829,20.11736,19.995281,19.891594,19.769173,19.6431,19.543419,19.44051,19.324383,19.223278,19.136982,19.039766,18.954865,18.88837,18.81217,18.739319,18.68119,18.615744,18.548922,18.495756,18.443726,18.388039,18.341621,18.302326,18.259146,18.221365,18.190895,18.15598,18.121452,18.092875,18.058876,18.020554,17.987072,17.952877,17.912212,17.875332,17.844181,17.80775,17.774326,17.748083,17.715935,17.68156,17.652065,17.617355,17.577602,17.542717,17.50829,17.47107,17.44078,17.416492,17.390007,17.367268,17.350048,17.33194,17.316563,17.306438,17.298588,17.295605,17.298435,17.30579,17.32027,17.337856,17.354446,17.3731,17.389393,17.401432,17.415234,17.432476,17.450657,17.475119,17.50518,17.53171,17.55587,17.58202,17.606358,17.628704,17.667118,17.722782,17.78104,17.866852,17.974073,18.06805,18.161442,18.251402,18.314037,18.35934,18.406322,18.448086,18.484205,18.532711,18.585217,18.628963,18.676144,18.7229,18.760025,18.797623,18.842209,18.885319,18.92728,18.979496,19.028444,19.067316,19.107784,19.138111,19.154728,19.165508,19.169212,19.168577,19.165184,19.15937,19.15718,19.162315,19.175755,19.196392,19.217937,19.244402,19.272251,19.295214,19.32039,19.348278,19.37334,19.400225,19.43154,19.460236,19.485638,19.522343,19.566565,19.608688,19.669464,19.744701,19.813606
23.543652,24.132776,25.057743,26.289734,27.564377,29.027664,30.26524,30.934605,31.36964,31.537024,31.5284,31.482565,31.66497,32.04214,32.37587,32.830048,33.342087,33.7953,34.17065,34.49826,34.77659,35.062294,35.349537,35.586765,35.825527,36.14421,36.462723,36.718513,37.116325,37.37516,37.346394,37.250744,36.949905,36.562046,36.192715,35.901855,35.808346,35.835056,35.994354,36.241737,36.47593,36.733826,36.938766,37.05545,37.163563,37.28633,37.432755,37.636063,38.02618,38.59705,39.299156,40.401844,41.56788,42.449203,43.51718,44.31916,44.639503,44.97048,45.199615,45.309418,45.424202,45.474472,45.426918,45.322376,45.21095,45.143353,45.124046,45.0934,45.04282,44.9805,44.89167,44.761833,44.62461,44.479126,44.28532,44.0982,43.947952,43.767323,43.60092,43.477276,43.34893,43.235542,43.15422,43.08309,43.00232,42.92202,42.850006,42.73724,42.58861,42.42663,42.204594,41.92369,41.63697,41.430023,41.37684,41.42885,41.420555,41.44368,41.50509,41.561935,41.629208,41.684967,41.72651,41.732635,41.715576,41.708145,41.698433,41.676926,41.645573,41.599392,41.53826,41.485218,41.45835,41.36473,41.215042,41.069485,40.890167,40.726143,40.617172,40.518845,40.46444,40.454742,40.459335,40.41426,40.314674,40.214462,40.029053,39.764305,39.505196,38.63865,38.31764,39.03511,38.586792,40.649147,43.37629,39.80298,24.694775,9.235125,7.9865746,7.955192,8.149039,8.118399,8.082623,8.027377,7.990923,6.9371943,12.231061,21.572552,25.246078,25.947903,24.925098,24.798622,24.41008,23.837852,23.33221,23.023296,23.035654,23.228813,23.428877,23.561642,23.54253,23.418491,23.161089,22.828499,22.480545,22.119232,21.836565,21.64595,21.451134,21.246819,21.06406,20.911964,20.767063,20.65179,20.553835,20.444592,20.346977,20.267284,20.158482,20.038975,19.937477,19.817776,19.69471,19.596748,19.489532,19.373665,19.278383,19.19538,19.101559,19.019264,18.954626,18.87982,18.805897,18.74464,18.677433,18.609432,18.555271,18.502163,18.445038,18.397142,18.356462,18.311844,18.272978,18.241766,18.20594,18.170574,18.141434,18.107018,18.068617,18.035404,18.001755,17.962152,17.926546,17.896603,17.861696,17.829742,17.804668,17.773886,17.740957,17.712738,17.679531,17.641537,17.608128,17.574863,17.538563,17.508688,17.484566,17.45792,17.4347,17.416985,17.397648,17.380169,17.367767,17.35685,17.35007,17.34955,17.353794,17.364874,17.379665,17.394112,17.410416,17.424822,17.43565,17.448154,17.464182,17.481377,17.5046,17.533186,17.558432,17.581524,17.606506,17.629707,17.650969,17.687431,17.740345,17.795855,17.878197,17.982399,18.074993,18.168446,18.26007,18.325314,18.373547,18.425425,18.473509,18.516605,18.569427,18.622372,18.664896,18.709505,18.752644,18.787012,18.8236,18.868633,18.912457,18.953661,19.005657,19.055256,19.094864,19.138058,19.172115,19.19155,19.205204,19.211388,19.21239,19.210575,19.206379,19.20554,19.211868,19.226795,19.248474,19.270256,19.297104,19.324753,19.346828,19.370934,19.39765,19.421776,19.447495,19.478039,19.506535,19.531706,19.56805,19.611734,19.653238,19.71294,19.78688,19.854755
24.868258,25.130493,25.94289,27.31799,28.789513,30.203644,31.329454,32.018112,32.64862,33.06994,33.216175,33.28326,33.22329,33.194435,33.357506,33.69409,34.097336,34.399223,34.71823,35.05073,35.339134,35.635155,35.944527,36.22078,36.52275,36.951607,37.338615,37.56742,37.81163,37.91301,37.846954,37.74048,37.413097,36.97174,36.579643,36.270477,36.15972,36.170975,36.311283,36.540707,36.76039,37.003166,37.197823,37.31047,37.41766,37.544113,37.696217,37.90656,38.303017,38.873108,39.566364,40.646057,41.779037,42.628174,43.67543,44.440926,44.704346,44.992863,45.205585,45.32698,45.475243,45.538055,45.483128,45.392017,45.288055,45.22094,45.2026,45.16484,45.10816,45.046875,44.954185,44.8142,44.66394,44.50525,44.292557,44.08857,43.93067,43.73928,43.52188,43.30336,43.095745,42.95008,42.881554,42.83929,42.778633,42.698757,42.63307,42.537582,42.414883,42.286034,42.031868,41.73777,41.52533,41.390793,41.413166,41.52414,41.547935,41.589546,41.66181,41.7296,41.801254,41.85307,41.888023,41.893536,41.87452,41.858177,41.842846,41.818733,41.78669,41.739628,41.677696,41.621986,41.582447,41.50968,41.383003,41.21695,41.019913,40.84916,40.74401,40.658817,40.618946,40.617397,40.633713,40.597748,40.4999,40.3974,40.20253,39.92428,39.65307,38.78804,38.465256,39.166912,38.74749,40.577255,43.103195,40.69707,25.769974,9.47501,8.070454,7.994607,8.212046,8.181215,8.14521,8.09128,8.055186,6.9616585,12.258072,21.650627,25.338215,26.036308,25.0033,24.877068,24.486204,23.91296,23.411156,23.099333,23.112549,23.312977,23.501549,23.63311,23.625328,23.499287,23.220657,22.86558,22.51669,22.158997,21.880928,21.691751,21.489088,21.281254,21.105188,20.954544,20.809658,20.694242,20.596199,20.486961,20.389582,20.310268,20.202374,20.084124,19.98375,19.8676,19.743294,19.639366,19.533772,19.421875,19.329866,19.249851,19.159325,19.07988,19.01789,18.94232,18.866295,18.804714,18.736593,18.667645,18.612804,18.55862,18.499702,18.449966,18.407967,18.36202,18.322155,18.290268,18.253616,18.217503,18.187862,18.153044,18.114534,18.081553,18.048443,18.009888,17.975498,17.94666,17.913086,17.882349,17.858192,17.82852,17.79684,17.769775,17.738043,17.701809,17.669888,17.637804,17.602486,17.57312,17.549229,17.522663,17.499317,17.481415,17.461296,17.442238,17.427984,17.414387,17.404175,17.40054,17.401735,17.409315,17.42109,17.433136,17.446762,17.45898,17.468412,17.479445,17.494127,17.51027,17.532158,17.559238,17.58329,17.605469,17.629591,17.65202,17.672525,17.70737,17.757702,17.810448,17.889137,17.989927,18.080711,18.173687,18.266933,18.335312,18.387411,18.4434,18.494375,18.539219,18.59468,18.64806,18.68787,18.729904,18.770172,18.802189,18.83726,18.88127,18.925575,18.969774,19.02577,19.077854,19.11733,19.161995,19.199818,19.223824,19.241503,19.250515,19.252853,19.252531,19.249733,19.249922,19.257158,19.273369,19.29603,19.318066,19.345364,19.372923,19.394234,19.417366,19.442911,19.466,19.490437,19.520031,19.548172,19.57306,19.609108,19.652397,19.693413,19.752178,19.824787,19.891407
