5.9849358,5.918435,5.873372,5.84366,5.8213077,5.7935376,5.7513857,5.6942058,5.6273003,5.5598125,5.489933,5.40221,5.2584376,5.0472155,4.8008537,4.5466337,4.2729406,3.9757469,3.696679,3.4285393,3.1975327,3.0170107,2.8697124,2.7334037,2.610332,2.5130484,2.4308615,2.360991,2.3065438,2.2682087,2.242223,2.223824,2.2108998,2.2024472,2.1980417,2.1975584,2.201389,2.2095199,2.2213197,2.2361436,2.2536197,2.2729306,2.2932243,2.3139906,2.334271,2.3540342,2.37391,2.395124,2.418717,2.443904,2.4717603,2.5035295,2.5393562,2.5793543,2.622815,2.6681256,2.7132914,2.7562268,2.7977705,2.838188,2.8727152,2.9007702,2.9234083,2.941498,2.9560647,2.9677663,2.9787903,2.990255,3.0022526,3.015039,3.028878,3.0439339,3.0602036,3.077396,3.0959587,3.1162064,3.13728,3.1581879,3.1774457,3.193688,3.2063465,3.2154193,3.2214794,3.2261128,3.2308981,3.237846,3.248859,3.2645473,3.2839775,3.3057694,3.3292725,3.3555808,3.386993,3.4253173,3.4753022,3.545155,3.6422875,3.7693062,3.9368453,4.129963,4.358162,4.628807,4.927995,5.2058496,5.424085,5.604889,5.7134748,5.7753906,5.814889,5.8387356,5.8480873,5.8473744,5.840824,5.828974,5.8139224,5.794858,5.7733164,5.749969,5.7255163,5.70067,5.676345,5.654012,5.633349,5.6106825,5.5872808,5.564644,5.537236,5.5036182,5.4721985,5.4492145,5.4303555,5.409623,5.3865256,5.357252,5.320013,5.275259,5.2244673,5.171173,5.120181,5.066764,5.0106726,4.956781,4.9009557,4.8325095,4.757161,4.7004004,4.660083,4.6363354,4.609474,4.582153,4.557387,4.5344267,4.513665,4.495928,4.4795194,4.461336,4.439929,4.41652,4.3930197,4.370698,4.350351,4.332528,4.3163986,4.3011312,4.2875853,4.276703,4.2684727,4.262967,4.260798,4.261579,4.2622747,4.2583227,4.2456036,4.2294064,4.2137423,4.1961,4.1739783,4.1539993,4.150951,4.1396904,4.166786,4.0422955,3.4656773,2.786367,2.5101125,2.4439433,2.4635558,2.616953,3.1702926,3.7102132,3.926705,3.9343073,3.936974,3.914999,3.8843899,3.8585107,3.8494458,3.8501384,3.8511026,3.8464136,3.8347085,3.8215604,3.8198109,3.8195052,3.821169,3.8239303,3.8139658,3.786236,3.7386825,3.6748266,3.6449473,3.6394708,3.676951,3.7253766,3.7844503,3.8373597,3.8597574,3.8611658,3.848878,3.8384726,3.828813,3.8228712,3.8193192,3.8146434,3.8068526,3.7981787,3.7952516,3.792275,3.790884,3.79031,3.7903333,3.787438,3.7799475,3.771285,3.7616916,3.7503738,3.739682,3.7294073,3.7192323,3.7098863,3.7023907,3.6971965,3.6945968,3.6941545,3.6923351,3.6887383,3.6840723,3.6776018,3.6678944,3.6547577,3.6387482,3.6190462,3.5981765,3.5785599,3.5610056,3.5458095,3.5319848,3.51777,3.5034592,3.4883022,3.4687386,3.4517426,3.4401593,3.4337275,3.431097,3.4305754,3.43077,3.4280694,3.4228911,3.4161077,3.4072669,3.3973477,3.3876796,3.37798,3.367742,3.3577445,3.3484368,3.3404884,3.3351035,3.3332214,3.3344903,3.337466,3.340885,3.3446534,3.3475409,3.3480093,3.345954,3.3419547,3.337994,3.3370037,3.3402371,3.3465507,3.3554287,3.363573,3.36801,3.3676171,3.3629475,3.3549194,3.3442397,3.3323255,3.317248,3.2997675
6.1162796,6.066835,6.035319,6.0190744,6.0015106,5.97577,5.9408817,5.8944263,5.837224,5.7761264,5.7151575,5.651735,5.579177,5.463634,5.2606874,4.9886637,4.7208977,4.4400215,4.1035695,3.790852,3.4944963,3.245195,3.0603623,2.909923,2.767698,2.6432996,2.5434802,2.459161,2.3923693,2.3442514,2.3114505,2.288947,2.2742863,2.2663379,2.2623332,2.2622418,2.2664127,2.2744894,2.2863133,2.3017945,2.3201125,2.3401537,2.361606,2.38374,2.405329,2.4262805,2.4473271,2.46946,2.493331,2.5185926,2.5462623,2.5774734,2.6129622,2.6530747,2.6966357,2.7416024,2.786075,2.8279958,2.8681636,2.9055269,2.9373622,2.9636836,2.9847088,3.0009437,3.0140572,3.0249767,3.035181,3.0456681,3.0565894,3.0682368,3.0808582,3.0946226,3.109572,3.1254497,3.1427178,3.1616883,3.181582,3.2014844,3.2199965,3.2358043,3.2483,3.257348,3.263373,3.2678528,3.2722874,3.278708,3.289132,3.304276,3.3233266,3.3451695,3.3696353,3.3981717,3.4322624,3.4710283,3.5201297,3.5923042,3.6965852,3.8314908,4.010502,4.210019,4.4532986,4.734618,5.0409517,5.3259706,5.541649,5.7108536,5.799861,5.855336,5.890062,5.9090633,5.91451,5.9097834,5.8990426,5.8853016,5.868771,5.8493714,5.8279147,5.8047867,5.7806697,5.7561255,5.7324667,5.712056,5.691348,5.66876,5.645244,5.622509,5.594693,5.560742,5.529918,5.507977,5.4909654,5.4712744,5.4491596,5.420847,5.383739,5.338189,5.286849,5.2340183,5.1829023,5.1297874,5.076178,5.021573,4.961458,4.887779,4.806489,4.742557,4.693441,4.6702747,4.6453342,4.619922,4.5956254,4.571637,4.5500994,4.5319023,4.5153065,4.4970465,4.475546,4.4518976,4.4279985,4.4052024,4.384422,4.366313,4.349951,4.33447,4.320753,4.3096867,4.3012433,4.2955027,4.2931023,4.2936687,4.294034,4.2898874,4.277211,4.2613597,4.2455683,4.2283835,4.2081285,4.1894817,4.1882367,4.1796656,4.207613,4.076563,3.4859657,2.801036,2.5330076,2.4694002,2.4882379,2.636251,3.1740727,3.7194915,3.9480107,3.9592192,3.9617858,3.9342136,3.903613,3.8751361,3.8506541,3.8112612,3.7536106,3.6953993,3.6504302,3.6175456,3.603169,3.5992293,3.6091318,3.6316266,3.6537123,3.6635857,3.655726,3.632434,3.6138086,3.6219327,3.6647792,3.7349324,3.803721,3.848095,3.8681512,3.8759203,3.8764646,3.874621,3.8695016,3.8662927,3.8642678,3.8598394,3.8518767,3.8418894,3.8313355,3.8183532,3.807086,3.797484,3.789613,3.781901,3.7730641,3.7643142,3.7565646,3.749765,3.7428265,3.735219,3.7264717,3.717788,3.710907,3.7065058,3.7050714,3.7074246,3.7109118,3.7124417,3.7099986,3.7026134,3.690628,3.6754277,3.6571765,3.6249251,3.5916424,3.563754,3.5411448,3.5222707,3.5081558,3.4989893,3.4900308,3.480506,3.470701,3.4618979,3.455049,3.4502354,3.446609,3.4433599,3.4405026,3.4351442,3.4278808,3.4200494,3.4114351,3.4031734,3.3961983,3.389359,3.381662,3.3732104,3.3655558,3.3593426,3.3552618,3.35388,3.355028,3.3574054,3.3592477,3.3605237,3.36137,3.361467,3.3596177,3.3556633,3.3512306,3.3487396,3.3496923,3.3529434,3.3607845,3.3642216,3.3635478,3.3597841,3.3529677,3.3437612,3.3323042,3.3208003,3.3081326,3.2940757
6.251769,6.2198434,6.200817,6.181956,6.1640882,6.1430926,6.113506,6.073174,6.0226393,5.968542,5.9148045,5.8582335,5.801593,5.7394404,5.630435,5.4455013,5.211094,4.9396544,4.591813,4.228806,3.8908296,3.5686388,3.293073,3.098167,2.944014,2.8062048,2.677363,2.57339,2.4919705,2.4325845,2.3924565,2.3656964,2.3492322,2.340196,2.3370557,2.3385522,2.342887,2.3506083,2.3623385,2.377698,2.396151,2.4165182,2.438479,2.4613166,2.4838238,2.5056832,2.5276403,2.550795,2.5756783,2.6019416,2.6304262,2.6619887,2.6968307,2.7355688,2.7776618,2.821475,2.8652005,2.9065702,2.9437757,2.9760685,3.0043993,3.0288193,3.0489414,3.0650015,3.0777917,3.0882573,3.0978363,3.107493,3.1174078,3.1278918,3.1391945,3.1515145,3.1649575,3.1793172,3.1950703,3.2125378,3.2310257,3.2497225,3.2673204,3.2825751,3.2948723,3.3039284,3.31002,3.3145068,3.3187804,3.3248434,3.3348038,3.3493767,3.3682122,3.3914623,3.4170766,3.4466915,3.4804611,3.520204,3.5707464,3.645086,3.755423,3.8981981,4.0906105,4.2969627,4.5583706,4.8574705,5.168292,5.4488454,5.654486,5.797865,5.878832,5.9301243,5.960184,5.9743834,5.9753656,5.9667635,5.95348,5.938095,5.920388,5.901645,5.8804417,5.8575983,5.8340282,5.8105464,5.788465,5.768424,5.7479,5.7253428,5.701558,5.6785936,5.6503887,5.615985,5.58531,5.5642495,5.549118,5.5303764,5.509159,5.481521,5.444347,5.3983274,5.346928,5.2943277,5.242693,5.1889386,5.13717,5.0812674,5.0175543,4.940281,4.8537693,4.78277,4.7244873,4.7015553,4.6752615,4.648633,4.626665,4.6049943,4.582177,4.563384,4.546659,4.5285983,4.5074096,4.4839993,4.460191,4.4373703,4.416539,4.398408,4.3819513,4.3662677,4.3522286,4.340699,4.3317184,4.325457,4.3225956,4.3227816,4.3228083,4.318509,4.305821,4.2915373,4.275997,4.258766,4.2408423,4.2236786,4.2241025,4.219128,4.2454057,4.106864,3.4983644,2.8072248,2.554937,2.49442,2.5121043,2.6496706,3.162734,3.715397,3.9633386,3.9800086,3.9808612,3.948719,3.9141874,3.873771,3.7992597,3.6628957,3.4539275,3.245297,3.1098402,3.0314615,3.0107684,3.0235407,3.06917,3.1356068,3.233144,3.3304439,3.3949277,3.4479272,3.4823554,3.5393124,3.6128824,3.7049403,3.7832024,3.8293781,3.8547726,3.870741,3.8812551,3.887145,3.8918648,3.898872,3.905663,3.9078858,3.9040616,3.895513,3.8843222,3.87292,3.8619254,3.851891,3.8440146,3.8374944,3.8311157,3.8249726,3.8178248,3.8108644,3.8041039,3.7974758,3.7902188,3.782937,3.7766876,3.771594,3.7681217,3.7662392,3.7635775,3.7601883,3.752386,3.736294,3.7136784,3.686947,3.6501272,3.6088834,3.5690618,3.5376515,3.5168798,3.5065336,3.5037732,3.5043507,3.50703,3.50818,3.5079489,3.506671,3.5047297,3.5017269,3.496379,3.4881957,3.4785266,3.4636066,3.4451625,3.4263842,3.4085555,3.3938596,3.3836918,3.376894,3.3721185,3.3671427,3.363486,3.360508,3.3581853,3.3570204,3.3565774,3.3575795,3.3636246,3.3700829,3.3755577,3.3785627,3.3787687,3.3768926,3.3747888,3.3745117,3.376404,3.378477,3.3809004,3.384496,3.383263,3.375592,3.3640256,3.350371,3.336429,3.3240638,3.311411,3.296462
6.384592,6.3672214,6.351345,6.33123,6.3116913,6.291463,6.2664227,6.232891,6.188352,6.139748,6.0926604,6.0461044,6.0007076,5.953631,5.891878,5.802146,5.667968,5.438491,5.16123,4.7676544,4.3655586,4.0052576,3.662859,3.3551364,3.1452334,2.9904604,2.8483405,2.7165308,2.6135712,2.5405612,2.4905753,2.4590166,2.4407644,2.4315858,2.428882,2.4304025,2.4349074,2.4426775,2.454206,2.469411,2.4878092,2.508342,2.5306602,2.5540147,2.5771565,2.5997121,2.622293,2.6459007,2.671123,2.697699,2.7264323,2.758132,2.7930045,2.8313484,2.8733006,2.9167676,2.9571128,2.9909315,3.0231898,3.053812,3.0816376,3.1058822,3.1261349,3.1424365,3.155338,3.1657476,3.1750097,3.1840024,3.1929314,3.2021358,3.2120728,3.2231443,3.2353797,3.248359,3.2625468,3.2781444,3.2945023,3.3110404,3.327192,3.3418941,3.3539271,3.3630338,3.3692682,3.3738818,3.3781314,3.3839417,3.393279,3.4076383,3.427219,3.4503303,3.4763265,3.5072627,3.540809,3.5813055,3.6339679,3.7113805,3.8276684,3.979538,4.1813173,4.402552,4.675144,5.0010967,5.3182745,5.57655,5.769635,5.8801417,5.9524283,5.9995723,6.0253344,6.0343847,6.030443,6.0185366,6.003908,5.9874945,5.968828,5.95028,5.930992,5.9112806,5.8894672,5.8666463,5.846132,5.8263483,5.8060083,5.7834535,5.7594514,5.7356195,5.707398,5.6734915,5.642253,5.621623,5.608258,5.5902424,5.569763,5.542225,5.504734,5.458697,5.4073534,5.3542356,5.3020406,5.2474785,5.196067,5.1385365,5.072316,4.9923334,4.899865,4.820127,4.7601247,4.7357025,4.7069836,4.6771975,4.6514654,4.6284065,4.6087217,4.593592,4.5793514,4.561446,4.5407276,4.5179515,4.494535,4.4718866,4.4510965,4.432893,4.416156,4.3999195,4.3850536,4.37241,4.362066,4.354693,4.3511915,4.350638,4.3502846,4.345791,4.3329773,4.3209,4.305764,4.288263,4.2729516,4.2569213,4.2590847,4.2558355,4.2797613,4.1332655,3.5034943,2.8070455,2.577594,2.519744,2.5362358,2.6578355,3.1412308,3.6953855,3.96264,3.9902635,3.993484,3.9582531,3.917583,3.8451526,3.6871376,3.3508358,2.9860668,2.7433093,2.6147823,2.552463,2.539894,2.5520923,2.5865383,2.6443388,2.732462,2.8509302,2.979939,3.096568,3.2094834,3.3064528,3.4031544,3.5085258,3.594613,3.6488793,3.686981,3.7221353,3.764668,3.815669,3.856144,3.8751276,3.8851526,3.8944993,3.8988512,3.8962631,3.8894544,3.8816042,3.8731015,3.8646743,3.8576226,3.851676,3.8460262,3.8406873,3.834742,3.8287072,3.8219333,3.8140254,3.8042412,3.7935317,3.7833812,3.7742436,3.7668226,3.7601635,3.7572603,3.7473993,3.7173939,3.6676106,3.6091843,3.5522053,3.5033998,3.4600995,3.4229722,3.397191,3.3847857,3.3863816,3.3991902,3.4189534,3.446219,3.4756968,3.5058112,3.5335722,3.545538,3.5444798,3.5412273,3.5345678,3.518623,3.4920583,3.4631402,3.4374895,3.4173896,3.4054127,3.4016244,3.4023013,3.4050894,3.407843,3.4103537,3.4119804,3.412414,3.412351,3.4122696,3.4124994,3.414553,3.4187894,3.4232576,3.4244118,3.4225047,3.4184358,3.4134686,3.409886,3.408588,3.404903,3.3984108,3.389091,3.3745456,3.3561258,3.337596,3.320929,3.306602,3.2956662,3.2858605,3.2752256
6.5139017,6.5059814,6.4899917,6.4685555,6.4472017,6.425823,6.4023323,6.3760757,6.3446875,6.301816,6.259733,6.2230687,6.1891055,6.151288,6.1033106,6.034232,5.9309387,5.7972064,5.633227,5.3476353,4.944495,4.5089703,4.1125364,3.751807,3.4182153,3.205227,3.0349712,2.8846235,2.763479,2.674179,2.612433,2.5735157,2.5521574,2.541935,2.539095,2.539706,2.5437088,2.551313,2.5624948,2.5772882,2.5955029,2.6161065,2.638673,2.6625443,2.6863985,2.7095895,2.7324939,2.7561011,2.7811277,2.8073907,2.835978,2.8677976,2.9034536,2.9392247,2.974582,3.0110362,3.0466542,3.0790982,3.1099262,3.1398468,3.1673627,3.1917315,3.2124784,3.2293358,3.242488,3.252386,3.2610092,3.269248,3.2772956,3.2854557,3.294338,3.3042448,3.3148594,3.325985,3.3381581,3.3516006,3.3659978,3.380949,3.3958266,3.4099443,3.4224613,3.4322054,3.4392247,3.4445362,3.4489546,3.454435,3.4637449,3.478537,3.4983501,3.5217543,3.5482678,3.5778584,3.612591,3.6535156,3.7084658,3.7914872,3.9138298,4.077463,4.288457,4.5270596,4.826214,5.1631184,5.4719925,5.709446,5.8725224,5.9636793,6.0260644,6.064182,6.0831766,6.0877113,6.080555,6.066909,6.0523734,6.0362225,6.018154,6.0003014,5.9822745,5.9642696,5.945115,5.9250617,5.9056892,5.8860545,5.865777,5.843181,5.818898,5.7943525,5.766978,5.734194,5.70177,5.681089,5.668785,5.6510906,5.631078,5.6032085,5.5650687,5.5187855,5.467161,5.413479,5.3606067,5.305356,5.2531433,5.1938314,5.1263437,5.0446463,4.9473343,4.8622513,4.8027973,4.7750864,4.7432756,4.7094316,4.6789875,4.651236,4.6285505,4.6160555,4.6070743,4.5964546,4.5773,4.5546284,4.531789,4.509392,4.488647,4.470271,4.4530354,4.435917,4.4196897,4.405325,4.3943753,4.3861847,4.38029,4.3786907,4.3779087,4.373226,4.3603067,4.350398,4.335822,4.318125,4.3050857,4.2899666,4.293946,4.2910237,4.312503,4.1514072,3.5000837,2.8055215,2.6014917,2.5471294,2.56217,2.6659026,3.109477,3.6683717,3.9560933,3.9893947,3.9966989,3.958916,3.905007,3.782948,3.4956646,3.0424757,2.663118,2.4803345,2.408473,2.383264,2.3878002,2.4024715,2.4234395,2.452198,2.501202,2.5802922,2.6865568,2.8039494,2.9071858,3.0029173,3.0892808,3.173613,3.2411907,3.289905,3.3345227,3.3839648,3.4480014,3.5349689,3.6364431,3.7201157,3.7830079,3.817711,3.8257818,3.83214,3.8316875,3.8280756,3.8224819,3.8181107,3.8153524,3.812993,3.8103626,3.807242,3.8029256,3.79876,3.7933517,3.7858999,3.776011,3.7637815,3.7502875,3.735797,3.7172823,3.6965828,3.6434045,3.5787063,3.511306,3.441217,3.3695223,3.300149,3.2396557,3.192915,3.1567273,3.1357327,3.1322093,3.1494827,3.1912866,3.250248,3.3033361,3.3545873,3.4069185,3.4576,3.4937072,3.510104,3.5083432,3.490011,3.462164,3.4270325,3.3926442,3.3650389,3.3469143,3.3404467,3.3443756,3.3539877,3.3670154,3.380029,3.3917084,3.4004228,3.4045525,3.4048471,3.4027069,3.39915,3.396564,3.396913,3.398912,3.4002671,3.3992362,3.3943648,3.385582,3.3743489,3.3616924,3.3464913,3.3265958,3.3037539,3.279688,3.256178,3.2359703,3.2209163,3.209866,3.2030916,3.1980984,3.1937807
6.6349425,6.6323624,6.6164823,6.592537,6.5676613,6.54458,6.5231137,6.502582,6.4802628,6.449984,6.418166,6.391431,6.3680124,6.3343267,6.2844434,6.2177258,6.1313434,6.041971,5.9256306,5.7663803,5.4957685,5.1055336,4.655254,4.220525,3.8422046,3.5053556,3.2705712,3.0906692,2.9395223,2.8290262,2.7605681,2.7161658,2.689691,2.67657,2.6710043,2.67032,2.6734402,2.68004,2.690106,2.7038536,2.721383,2.7417803,2.7645817,2.7890317,2.813748,2.8375962,2.8606203,2.8832777,2.9057314,2.9287558,2.953126,2.9798913,3.0100367,3.0426412,3.07631,3.1103733,3.1441374,3.1760187,3.2060595,3.235433,3.2629447,3.2868457,3.3066328,3.3227472,3.3353872,3.345005,3.3531754,3.3607574,3.3680139,3.3752565,3.3828387,3.3909907,3.3998678,3.409759,3.4205003,3.4323807,3.445271,3.458922,3.4731529,3.4874418,3.500546,3.5110753,3.518918,3.5251591,3.5306082,3.536981,3.5469215,3.5619457,3.581486,3.6044698,3.6305597,3.660584,3.6978002,3.739192,3.797418,3.8883276,4.0190706,4.198345,4.414646,4.6811905,4.992608,5.328176,5.6295943,5.8436966,5.9693365,6.0413914,6.091488,6.1259155,6.138513,6.1372604,6.1272564,6.1127334,6.0993032,6.0846777,6.0688944,6.0526295,6.036066,6.019362,6.0018272,5.9837065,5.9657693,5.9469013,5.926591,5.903899,5.87924,5.8543787,5.8269506,5.79525,5.7644734,5.7427554,5.730483,5.7131305,5.690633,5.6627984,5.625636,5.578548,5.5262294,5.4718676,5.4181805,5.362302,5.3083544,5.2473745,5.178242,5.095825,4.999252,4.913427,4.8530846,4.8219604,4.7857647,4.747116,4.7128515,4.6817408,4.6553135,4.641453,4.6351714,4.628839,4.6158757,4.5954714,4.5724177,4.55024,4.5294127,4.5106745,4.4927125,4.4744577,4.4565935,4.4401402,4.42699,4.4171104,4.4102583,4.407937,4.4065747,4.401586,4.388528,4.3799953,4.3661156,4.3488054,4.3372808,4.3227005,4.3299623,4.325467,4.3442135,4.1652694,3.499014,2.8117175,2.6249592,2.5756497,2.5889893,2.6763103,3.06915,3.6271453,3.9404263,3.9830086,3.992298,3.952715,3.87701,3.7034163,3.304843,2.8336039,2.5220017,2.4077826,2.3786588,2.3801932,2.392208,2.4048338,2.4189963,2.4385068,2.4695501,2.5123897,2.5676594,2.6361322,2.69859,2.7604656,2.8138065,2.8595808,2.893578,2.919938,2.9484146,2.9829154,3.0287285,3.0982563,3.1947174,3.318595,3.4338884,3.5108528,3.5566297,3.5908475,3.6106215,3.6227562,3.6281726,3.6315944,3.6360521,3.6419835,3.649024,3.656148,3.6601896,3.6588535,3.650293,3.6349664,3.6115499,3.5810475,3.5467541,3.5100183,3.4695177,3.425302,3.3543074,3.2695336,3.1770651,3.094203,3.0301752,2.973588,2.9261909,2.8935661,2.8696997,2.8568594,2.8570325,2.874887,2.9171731,2.981689,3.0504084,3.1224828,3.205821,3.274405,3.318521,3.3400736,3.3397112,3.319061,3.2893367,3.2540183,3.2157845,3.18682,3.1711214,3.1704712,3.1834753,3.2029169,3.2215538,3.2389677,3.2543423,3.2655816,3.2707937,3.2708712,3.2673442,3.261588,3.2570195,3.2550945,3.255197,3.2562118,3.2557821,3.2516057,3.2424939,3.2281706,3.208911,3.1866221,3.157042,3.1209087,3.0777206,3.039445,3.0154827,3.0020144,2.994987,2.9929101,2.9930854,2.994697
6.738948,6.7365265,6.720342,6.694884,6.667172,6.641233,6.621583,6.6076384,6.5909986,6.5737257,6.554653,6.5350513,6.51112,6.4802647,6.4393244,6.387433,6.3278265,6.258084,6.164638,6.051291,5.893765,5.625189,5.2275352,4.7643943,4.317771,3.9358385,3.5939586,3.346612,3.1617057,3.0198984,2.9259925,2.8737912,2.8413844,2.8251083,2.8167243,2.8137183,2.8139784,2.8173661,2.8247585,2.8365092,2.8520498,2.8702636,2.8908632,2.9132137,2.9359326,2.9578009,2.9785671,2.9992776,3.0209355,3.0426345,3.065478,3.0903645,3.117857,3.1489868,3.1825652,3.21635,3.2492237,3.2798915,3.3091311,3.3368638,3.3627784,3.385655,3.4049096,3.420692,3.433092,3.4427247,3.4506783,3.4577703,3.4643962,3.4709187,3.4775105,3.484379,3.4918962,3.5003104,3.5096507,3.5202873,3.532291,3.5455723,3.559814,3.5742412,3.5876112,3.5987377,3.6072536,3.6143227,3.6207576,3.6280613,3.6383288,3.652986,3.6721523,3.6953163,3.7220151,3.7546806,3.7897925,3.833903,3.8998847,3.998828,4.141366,4.3363934,4.5554314,4.8428946,5.168022,5.5009117,5.7836924,5.967071,6.0623055,6.120708,6.1541476,6.183875,6.1919537,6.186179,6.1739273,6.158645,6.145115,6.132281,6.120657,6.1071773,6.092841,6.077851,6.061659,6.0444326,6.0267186,6.007909,5.9877005,5.964928,5.9399424,5.914427,5.887443,5.8580446,5.829649,5.8080015,5.7934117,5.772926,5.7477875,5.719742,5.6848087,5.6389246,5.584922,5.529621,5.474866,5.41833,5.361604,5.298833,5.228341,5.147319,5.05674,4.973424,4.912335,4.8759995,4.8349123,4.792713,4.755552,4.7220078,4.6937256,4.678136,4.6707215,4.664297,4.655697,4.638811,4.616468,4.5940084,4.572929,4.5536757,4.5349007,4.5154715,4.4959774,4.4775715,4.461853,4.4500427,4.4427404,4.439569,4.437417,4.431823,4.4183736,4.4101152,4.3967648,4.3802733,4.3696127,4.355265,4.365847,4.3590503,4.375269,4.176798,3.4992578,2.8227477,2.6492364,2.6046634,2.6162052,2.6883092,3.032909,3.574216,3.9122605,3.975397,3.9828935,3.942223,3.843042,3.626778,3.1738806,2.7213964,2.471644,2.4012504,2.3888273,2.3926315,2.4039955,2.4161649,2.4309711,2.4528184,2.477181,2.498821,2.5225825,2.5555212,2.588712,2.6162524,2.63758,2.6527557,2.6627629,2.6705823,2.6800263,2.6932578,2.7109857,2.7428894,2.7942533,2.8788247,2.9715338,3.048678,3.1114178,3.1636994,3.1963732,3.2197776,3.2337403,3.244297,3.256515,3.2713914,3.2881265,3.3051639,3.3177109,3.3213117,3.3148508,3.2974331,3.2690036,3.232056,3.1891735,3.140542,3.0869992,3.0358388,2.9794896,2.9161596,2.8476732,2.7898636,2.7506711,2.720558,2.7000022,2.6874065,2.678747,2.6740448,2.6740384,2.682569,2.7046375,2.7426844,2.795273,2.8564892,2.9318144,2.9975314,3.0463905,3.0744228,3.0749693,3.0510437,3.0202374,2.9883175,2.9547365,2.9299588,2.917808,2.9196305,2.933694,2.9536304,2.9732637,2.9915066,3.0085516,3.0218487,3.0271478,3.0245306,3.0183425,3.0121846,3.0068817,3.0048332,3.0057156,3.0077732,3.0083735,3.0043564,2.9931507,2.9755583,2.955899,2.9325466,2.9031157,2.8690314,2.831266,2.8000715,2.7823954,2.7740517,2.7710328,2.771641,2.7745328,2.779039
6.8202486,6.8154593,6.7993517,6.773138,6.7438483,6.715479,6.6947985,6.684786,6.6768036,6.667661,6.6597366,6.6448383,6.618844,6.5891056,6.559594,6.5270734,6.489697,6.443964,6.380879,6.2830696,6.1598263,5.964713,5.670585,5.272972,4.7910337,4.3875484,3.9972463,3.6636858,3.4243975,3.2508636,3.123836,3.046784,3.0034573,2.9812238,2.9688878,2.96156,2.957376,2.9563007,2.9589791,2.9656663,2.9761593,2.9902415,3.0071473,3.026758,3.0478475,3.069142,3.0898974,3.1108682,3.1331053,3.154982,3.1781688,3.2034445,3.2313147,3.2615664,3.293414,3.325893,3.3575444,3.3861704,3.4136696,3.4389663,3.462513,3.4842005,3.5033517,3.5193233,3.5318756,3.5414505,3.549202,3.5560317,3.5624585,3.5688784,3.5754719,3.582337,3.5895214,3.5969725,3.6053648,3.6151004,3.6264367,3.639496,3.6535687,3.6676967,3.6810932,3.6925812,3.7016382,3.7094126,3.7166,3.7246933,3.7355995,3.7504277,3.7694044,3.792672,3.8192623,3.8504732,3.8863335,3.937248,4.0113425,4.118183,4.27199,4.4752,4.7062683,5.000806,5.3403134,5.6677713,5.920496,6.0739856,6.154333,6.204635,6.2231865,6.241876,6.246833,6.240465,6.2267966,6.210578,6.1971045,6.183647,6.171588,6.16164,6.151059,6.139065,6.123592,6.105216,6.08691,6.067889,6.0478067,6.0250263,5.999879,5.973654,5.947439,5.920766,5.8945956,5.8731494,5.8536735,5.829735,5.803582,5.7745814,5.7420015,5.6990356,5.642635,5.585863,5.529736,5.4722643,5.4130936,5.348384,5.2771873,5.1982937,5.114178,5.0378,4.9776163,4.934787,4.889847,4.8449025,4.8047924,4.7690353,4.739568,4.7232385,4.714114,4.704842,4.695463,4.6813745,4.6607246,4.6373186,4.6156363,4.5957947,4.576305,4.555958,4.5352516,4.5155005,4.498348,4.4852767,4.477013,4.4727764,4.469597,4.463007,4.4487457,4.4399357,4.426564,4.41059,4.4005194,4.38667,4.398849,4.3898005,4.404173,4.179575,3.4925084,2.8354306,2.6751747,2.633535,2.6432028,2.7009516,3.0054688,3.5124006,3.872941,3.9709125,3.972352,3.928204,3.802672,3.5625713,3.1049707,2.6715088,2.4515615,2.4019494,2.392806,2.3910737,2.4011946,2.4136744,2.4315734,2.451086,2.4694598,2.484665,2.5000956,2.5209208,2.5367584,2.5450468,2.5481353,2.5488691,2.5509262,2.5551968,2.5609536,2.5682263,2.5758796,2.5871696,2.6068811,2.634951,2.671606,2.7105446,2.7474787,2.7831254,2.8064547,2.824793,2.8378456,2.8497837,2.863459,2.8788812,2.8953643,2.9116945,2.9236627,2.929019,2.9273927,2.9169736,2.899047,2.8757405,2.8476262,2.8142626,2.7768435,2.743657,2.7089713,2.6749225,2.6477842,2.6284704,2.6140404,2.60434,2.60015,2.5975137,2.5958834,2.594988,2.5947568,2.596861,2.6034749,2.6165001,2.6383212,2.667894,2.7058928,2.7475781,2.7878885,2.8146715,2.8161833,2.7957873,2.7711189,2.7486029,2.728475,2.713965,2.7071345,2.708727,2.7169623,2.7288308,2.743062,2.7566543,2.7701602,2.7807786,2.7841945,2.780345,2.7739038,2.7688017,2.7649047,2.7637782,2.7653522,2.7679858,2.7693923,2.7665882,2.7569914,2.7420702,2.7275414,2.7108371,2.691473,2.67227,2.656846,2.6461449,2.6398463,2.6374927,2.6372256,2.6383216,2.6407301,2.6443624
6.881248,6.8772755,6.860939,6.8334827,6.803484,6.775326,6.7527733,6.740918,6.738986,6.73621,6.7336707,6.723741,6.7058487,6.6792545,6.650235,6.6245127,6.5971985,6.5666094,6.521473,6.455636,6.355778,6.186145,5.934577,5.61245,5.221328,4.769413,4.3921194,4.0110617,3.705955,3.4987803,3.3538141,3.2482793,3.1856408,3.1514454,3.131283,3.1185436,3.1104772,3.1055279,3.1027083,3.102364,3.1064258,3.1163979,3.1304579,3.1489367,3.1707006,3.194049,3.2175908,3.2402592,3.2614322,3.2816975,3.3026912,3.3253055,3.3506522,3.3789396,3.4086213,3.4379458,3.4658604,3.490727,3.5148697,3.5382028,3.5607338,3.5818253,3.6006527,3.6165562,3.6291146,3.6385999,3.6462011,3.6529655,3.6595144,3.6662946,3.6734505,3.680937,3.6886222,3.6963818,3.7047715,3.7141519,3.7248082,3.7370682,3.750471,3.7642102,3.7775397,3.78925,3.7987523,3.807275,3.8154767,3.8244748,3.8361654,3.8514786,3.870092,3.8922577,3.9172063,3.9473639,3.9907494,4.048686,4.1279054,4.24316,4.404526,4.607753,4.857418,5.1548176,5.4954634,5.8118,6.03617,6.166586,6.2443733,6.2861595,6.2966185,6.304714,6.3067417,6.300147,6.284543,6.2675467,6.255498,6.2398486,6.22357,6.2148085,6.2085657,6.200077,6.18468,6.1643476,6.145141,6.1265116,6.1063824,6.0836186,6.058522,6.0321307,6.005732,5.980028,5.9555197,5.932922,5.909671,5.885358,5.858799,5.8286123,5.7964573,5.755167,5.6985254,5.6397657,5.5820513,5.5232306,5.4632807,5.3974013,5.3252096,5.246637,5.1671314,5.101942,5.043228,4.996801,4.950326,4.902216,4.8583574,4.8206997,4.7898693,4.7719955,4.7616863,4.7480755,4.7352724,4.7206106,4.700842,4.677506,4.6548176,4.634196,4.614183,4.593314,4.5720325,4.5516734,4.533924,4.520182,4.511076,4.5058503,4.5014243,4.4935093,4.478078,4.468062,4.4540634,4.438109,4.4284515,4.4155803,4.4274797,4.4161644,4.4286127,4.1717987,3.4787922,2.8498516,2.7011695,2.6614742,2.6691718,2.714327,2.9814882,3.4492435,3.828936,3.9662664,3.9641457,3.9104996,3.7619581,3.5129719,3.0697093,2.654416,2.4477177,2.4033823,2.3931224,2.3920546,2.399546,2.4111228,2.4304347,2.4490843,2.4691308,2.4891493,2.5033646,2.5123436,2.5160532,2.5147438,2.5109055,2.5078924,2.5091228,2.5152826,2.5239646,2.532433,2.5400615,2.545908,2.5534282,2.5647483,2.5779212,2.590859,2.6027124,2.6127586,2.6215441,2.6300983,2.6386263,2.6472874,2.6560645,2.665007,2.6743312,2.6832209,2.6888185,2.691012,2.689446,2.6842568,2.6757069,2.664657,2.6521559,2.6392372,2.6274562,2.6147442,2.6007073,2.5873313,2.5769742,2.5702538,2.5659056,2.5628095,2.5612822,2.5601413,2.5593433,2.5589514,2.558968,2.5594,2.5608125,2.564235,2.5703545,2.5819006,2.5985003,2.6172004,2.6339378,2.6448355,2.647279,2.6418154,2.6330092,2.6241,2.6164753,2.611106,2.608823,2.609901,2.6134927,2.6182256,2.6233945,2.6284804,2.633131,2.635707,2.6356678,2.6338298,2.6310723,2.6283138,2.627244,2.6270864,2.627853,2.6291149,2.6302016,2.6301317,2.6277857,2.6227438,2.616014,2.6094565,2.6017504,2.5938087,2.5874243,2.583219,2.5810266,2.580533,2.5808444,2.581493,2.5823555,2.5837264
6.928005,6.9272337,6.9096055,6.8827286,6.853972,6.827121,6.804118,6.7877955,6.7805023,6.7806745,6.7758284,6.7708015,6.7610006,6.746517,6.72535,6.696273,6.6673145,6.6458874,6.6136427,6.5607586,6.4835033,6.3445163,6.10746,5.8058825,5.4957666,5.10177,4.692395,4.318329,3.982699,3.7312942,3.5704417,3.4588175,3.3799572,3.332343,3.303319,3.2859578,3.2749677,3.266933,3.2601845,3.2554035,3.2553735,3.2616844,3.2728279,3.289284,3.309811,3.3324575,3.3553448,3.3769999,3.3967073,3.4149063,3.433126,3.4529753,3.475411,3.5004473,3.5257678,3.5489116,3.570132,3.5913267,3.612392,3.6342494,3.656479,3.677872,3.6971378,3.7133033,3.7259588,3.7357233,3.7435017,3.750391,3.757112,3.7642303,3.7719111,3.7800164,3.7882648,3.7963967,3.8049207,3.8141646,3.8244662,3.8362408,3.849104,3.862304,3.875153,3.8865511,3.8960629,3.904987,3.9138868,3.9232225,3.9347682,3.9496622,3.9677405,3.9899564,4.016493,4.0539994,4.1016555,4.163003,4.2480173,4.370289,4.5357285,4.7365775,4.996954,5.294466,5.6312637,5.9332843,6.1334515,6.246996,6.3237753,6.361027,6.3673277,6.371558,6.3694677,6.3576727,6.3385925,6.3212643,6.3096933,6.2946196,6.2790327,6.267595,6.264394,6.258181,6.2437696,6.224408,6.2038236,6.1849003,6.1647606,6.1419687,6.116624,6.089958,6.063155,6.0368614,6.011652,5.988122,5.964866,5.939933,5.9132457,5.8822117,5.847331,5.8056574,5.7522564,5.691465,5.6320643,5.571697,5.511894,5.44613,5.372625,5.293268,5.217675,5.1617737,5.1076307,5.0628586,5.0173235,4.9673862,4.9190416,4.877552,4.8449216,4.824668,4.8116856,4.7947407,4.7768626,4.7568226,4.7356095,4.713549,4.6906347,4.66963,4.6491547,4.6279936,4.6065097,4.5860567,4.56818,4.554072,4.5442686,4.538029,4.532269,4.5228853,4.5060678,4.4953156,4.480318,4.463196,4.4535866,4.4415894,4.4520974,4.4386044,4.448038,4.159267,3.4636242,2.8645825,2.7254546,2.6876633,2.6934135,2.729066,2.9609947,3.3984303,3.7886636,3.9549704,3.9580178,3.8932805,3.7380605,3.4776993,3.0435083,2.6433077,2.445296,2.4031491,2.3930066,2.3911395,2.3946738,2.4098754,2.431631,2.4569397,2.4817333,2.5001261,2.508913,2.51019,2.5063639,2.5002527,2.494894,2.492865,2.494341,2.4987838,2.5051084,2.5114133,2.5170774,2.5220351,2.527501,2.533193,2.5390348,2.5451531,2.5515687,2.557962,2.5636597,2.569496,2.5751243,2.5808353,2.5865026,2.5921032,2.5975027,2.6018758,2.6042244,2.604723,2.6033134,2.5999932,2.5950046,2.5891695,2.58306,2.5765078,2.5696611,2.5635061,2.557711,2.552197,2.5470014,2.543193,2.5408285,2.538559,2.536755,2.535379,2.5343285,2.5336251,2.533193,2.5332346,2.5342674,2.5364733,2.5393348,2.5441837,2.550446,2.5594807,2.5686088,2.5748289,2.57698,2.5755854,2.5727758,2.569995,2.5681684,2.5667605,2.5661392,2.566425,2.567279,2.5684664,2.5698788,2.57186,2.5729437,2.5731452,2.5724325,2.5712028,2.5699558,2.5689502,2.5684958,2.5689397,2.5700872,2.5713468,2.5727386,2.573752,2.5735419,2.571814,2.5689974,2.5663218,2.563452,2.5600724,2.5578704,2.5570502,2.5568106,2.5569344,2.5572186,2.5574365,2.557762,2.5582533
6.96385,6.960623,6.9469557,6.924337,6.897047,6.8690376,6.841802,6.817853,6.8017387,6.792102,6.785528,6.7825785,6.7732286,6.767891,6.7701206,6.76046,6.727029,6.69674,6.672682,6.631286,6.5693474,6.4324512,6.1960926,5.9099264,5.624876,5.3182282,4.919129,4.5500784,4.2022,3.9261322,3.7456486,3.628015,3.55195,3.4982767,3.4641876,3.442867,3.428998,3.4187632,3.4101489,3.4032364,3.3999405,3.4018013,3.4092565,3.422999,3.4421384,3.4645057,3.487381,3.5083883,3.526366,3.54164,3.554915,3.5699735,3.588007,3.6078029,3.6284242,3.6496544,3.6706982,3.6906247,3.7102408,3.7307339,3.7524986,3.773788,3.7928414,3.8087447,3.8212757,3.831593,3.8398657,3.8473272,3.854743,3.8627152,3.871406,3.880578,3.889767,3.8985476,3.907435,3.9167283,3.926786,3.938078,3.9503322,3.962648,3.974082,3.9838793,3.9922378,4.000391,4.009056,4.019052,4.0316987,4.0474215,4.0666156,4.0919495,4.123976,4.1634736,4.2148094,4.281723,4.3718715,4.4968443,4.6607313,4.8562317,5.1271563,5.4183035,5.742516,6.022595,6.2072334,6.3179007,6.3902864,6.4285254,6.436001,6.4401817,6.4319763,6.41193,6.388685,6.3707914,6.3591156,6.3469725,6.3315735,6.318483,6.318282,6.3146486,6.301129,6.283382,6.263997,6.243811,6.2238283,6.20098,6.174286,6.146495,6.1192904,6.092639,6.066825,6.042597,6.018717,5.992997,5.966176,5.934619,5.8972588,5.8544655,5.803093,5.7405424,5.679493,5.617632,5.5576696,5.4920835,5.418237,5.3397365,5.2666903,5.2132115,5.1727476,5.1334076,5.0904093,5.041545,4.9887056,4.939927,4.9036164,4.8801336,4.8635855,4.8432293,4.8194475,4.793479,4.767246,4.7430377,4.7218475,4.702125,4.6813173,4.6600976,4.638739,4.618472,4.6005707,4.586143,4.5757656,4.5686007,4.561628,4.5508423,4.5328617,4.5240855,4.50774,4.486399,4.4762836,4.464572,4.473161,4.457706,4.463999,4.141486,3.4453125,2.8791142,2.7476673,2.7110386,2.714948,2.7457323,2.951032,3.3610327,3.7569232,3.9447021,3.952009,3.8864398,3.7285728,3.4525392,3.0192084,2.6288395,2.4395356,2.4019036,2.3924809,2.3892539,2.3945966,2.4104476,2.4368744,2.46559,2.490346,2.5052214,2.508471,2.5055518,2.4996293,2.4939291,2.4905338,2.489112,2.4893544,2.4920216,2.496904,2.5021873,2.5076227,2.5137677,2.5196748,2.525013,2.5297434,2.5339952,2.5379725,2.541824,2.5455604,2.549872,2.5542705,2.5587435,2.5628881,2.5662756,2.5687487,2.570354,2.571237,2.571169,2.5697412,2.5669925,2.563278,2.5596075,2.5563211,2.5527148,2.5489414,2.544959,2.5405502,2.5362015,2.5320349,2.5282965,2.5252168,2.5227485,2.5209565,2.5196624,2.518701,2.5180564,2.5176892,2.5177455,2.5185447,2.5203424,2.5231104,2.5265808,2.5311167,2.5362954,2.5409908,2.5445056,2.5466654,2.547392,2.5469582,2.5461195,2.545322,2.5445895,2.5442996,2.5445065,2.5451217,2.5460758,2.5468783,2.5471997,2.547235,2.546896,2.5462976,2.5457597,2.5454578,2.5453749,2.54558,2.5460281,2.546864,2.5478067,2.549046,2.5500565,2.5502467,2.5498855,2.5494783,2.5488405,2.547868,2.5469441,2.546498,2.5465941,2.54711,2.547877,2.5485892,2.5491538,2.5497546,2.5505588
6.992527,6.984434,6.974746,6.9545536,6.9279356,6.8957157,6.8617373,6.8328276,6.8098288,6.791071,6.7768984,6.766301,6.762334,6.767009,6.7761526,6.784513,6.7843313,6.74848,6.712186,6.6700745,6.618323,6.479457,6.2360024,5.9625826,5.7061605,5.4326477,5.0571113,4.697518,4.356417,4.0811625,3.8969805,3.7754197,3.6920655,3.6405523,3.605239,3.5810037,3.56482,3.5532503,3.543642,3.5356941,3.531191,3.5317452,3.5376863,3.5498705,3.567822,3.5883636,3.6079087,3.6247692,3.6390004,3.6508222,3.6616423,3.672659,3.6856956,3.7034173,3.7246435,3.7463632,3.7677274,3.7880297,3.8082142,3.8297493,3.8514197,3.8719683,3.8908534,3.9072495,3.91999,3.929487,3.9371972,3.945015,3.9535542,3.9628787,3.9729633,3.9834845,3.9935403,4.0023565,4.011021,4.0197587,4.028969,4.039185,4.0500116,4.0607615,4.071108,4.080412,4.0885544,4.096938,4.1063075,4.116742,4.1305437,4.149436,4.1727653,4.2009006,4.234681,4.2781005,4.33519,4.4078407,4.5030837,4.628795,4.7864885,4.977518,5.249568,5.5268617,5.837581,6.0978794,6.2680206,6.3765965,6.4469547,6.488038,6.505439,6.5061636,6.490593,6.4632516,6.435213,6.416552,6.4070177,6.3976483,6.3826914,6.3672905,6.3685665,6.3680706,6.3561506,6.338953,6.3203745,6.3002315,6.2797384,6.256857,6.2303886,6.2008624,6.172161,6.145565,6.11928,6.0943613,6.069889,6.0434656,6.016141,5.984126,5.9454613,5.901827,5.850977,5.787077,5.724799,5.6618247,5.601104,5.536067,5.462578,5.3849773,5.315077,5.2650695,5.233382,5.2045317,5.1679015,5.1200714,5.0655804,5.0115914,4.966098,4.9361916,4.9158697,4.891483,4.862237,4.830923,4.8004293,4.7727346,4.7489166,4.728587,4.7098,4.6902905,4.671218,4.6517754,4.632364,4.616349,4.6057663,4.5977793,4.589805,4.57763,4.5612698,4.5523195,4.533794,4.509815,4.4975796,4.485374,4.4895267,4.4737277,4.47931,4.127364,3.428959,2.8907323,2.7671487,2.7318273,2.7339058,2.7617145,2.95159,3.3369746,3.7327662,3.9381309,3.9516351,3.890152,3.7330039,3.4431581,3.0016952,2.6170454,2.4378586,2.4053352,2.396627,2.3932796,2.3993354,2.4155757,2.4424586,2.4707608,2.4931939,2.5045984,2.504889,2.5009394,2.498347,2.494469,2.4905827,2.4876857,2.4868557,2.4893095,2.494699,2.5008745,2.5068982,2.5139542,2.5206876,2.5260854,2.5297709,2.531804,2.532984,2.5346417,2.537263,2.5403972,2.543654,2.5469365,2.5498247,2.5519814,2.5533333,2.5538185,2.5533204,2.5522125,2.5503733,2.5482588,2.545932,2.5435495,2.5411663,2.538508,2.5356154,2.5324492,2.5289164,2.525299,2.521663,2.5182981,2.5154777,2.5131807,2.5114942,2.5102673,2.5093637,2.509064,2.509105,2.5091324,2.5093155,2.5101953,2.5119758,2.514625,2.5179107,2.5214505,2.5247412,2.5273302,2.5289657,2.5296206,2.5295024,2.5290484,2.5285454,2.5281658,2.5281787,2.5285804,2.52913,2.5296454,2.5300393,2.530057,2.5299134,2.529602,2.5292459,2.5290837,2.5291996,2.5295124,2.5300274,2.5306976,2.5316534,2.5327892,2.5341487,2.535362,2.5361276,2.5366263,2.5370636,2.537711,2.537878,2.5378141,2.5381649,2.539108,2.5403943,2.5417097,2.5427494,2.543575,2.5443707,2.545308
7.0235987,7.0123386,6.997627,6.977174,6.951178,6.9180975,6.88113,6.8471847,6.818975,6.795621,6.777093,6.7653217,6.760375,6.7655077,6.7834105,6.8034544,6.8077984,6.802561,6.774524,6.738142,6.681275,6.5130715,6.256119,6.007467,5.762004,5.4884663,5.143735,4.803564,4.477893,4.207284,4.0223746,3.906106,3.8244865,3.766235,3.7270021,3.7016416,3.6846797,3.672102,3.6615672,3.65273,3.6472745,3.6464887,3.65058,3.6607559,3.6756527,3.6931849,3.710857,3.7260303,3.7374635,3.7466803,3.7549295,3.7637749,3.7747426,3.791724,3.8129103,3.834343,3.8562095,3.8776877,3.899694,3.9231515,3.9468622,3.9695761,3.9902253,4.0082345,4.0231147,4.033837,4.0426674,4.0506277,4.059266,4.0696883,4.0815234,4.0936832,4.105278,4.115474,4.124628,4.132848,4.140774,4.1492033,4.15817,4.1674027,4.1767235,4.185508,4.1935816,4.202414,4.2129183,4.2256947,4.2420435,4.262938,4.288492,4.319219,4.356356,4.407134,4.4713807,4.5511737,4.6496024,4.771058,4.9222918,5.111308,5.3681192,5.631802,5.9223595,6.165806,6.3234215,6.4233794,6.494985,6.5422826,6.5713034,6.5701656,6.5480123,6.5131793,6.4806347,6.4614005,6.4518104,6.442763,6.4354124,6.421049,6.4184566,6.420054,6.4115562,6.3937883,6.3756557,6.3559523,6.3348117,6.31152,6.284894,6.2546396,6.2246456,6.1970887,6.1704493,6.144965,6.12006,6.093273,6.0647097,6.0328,5.994363,5.950392,5.8997307,5.83492,5.771728,5.7081556,5.6470056,5.5825663,5.5087795,5.4313707,5.364959,5.318465,5.2903357,5.2668295,5.236401,5.1972055,5.1472626,5.0897875,5.037486,5.001398,4.9749994,4.9433136,4.9063864,4.8692794,4.835047,4.8048887,4.7797604,4.7590885,4.7403126,4.721078,4.7025213,4.6856775,4.6671343,4.6493015,4.6376085,4.6291127,4.6204586,4.607415,4.590934,4.579747,4.560293,4.535736,4.520714,4.5075426,4.505615,4.4877195,4.4937162,4.116347,3.415607,2.9014935,2.784555,2.7513776,2.7520678,2.7778082,2.9578075,3.3272095,3.7216408,3.9399748,3.9630995,3.9070616,3.75384,3.450346,2.9922047,2.6094236,2.4401846,2.4120212,2.404224,2.401886,2.408794,2.4234684,2.4472961,2.4732292,2.4928558,2.5018244,2.5032263,2.5033956,2.5021925,2.4987154,2.4934936,2.4889266,2.4873447,2.4896975,2.4947479,2.500856,2.5091403,2.5169792,2.5231967,2.5274415,2.5300045,2.531032,2.5308404,2.5306153,2.5318558,2.5339758,2.5360398,2.5383015,2.5401993,2.5412984,2.5417204,2.5415196,2.5404854,2.5389185,2.5370247,2.535165,2.533413,2.5317588,2.530097,2.528202,2.5260398,2.5235229,2.520563,2.5173564,2.5140321,2.5108895,2.508172,2.5058913,2.5041418,2.502768,2.5021026,2.502143,2.502326,2.5023856,2.5026202,2.503385,2.5046768,2.5064297,2.5085897,2.5108378,2.5130706,2.5149207,2.5160232,2.516397,2.516233,2.5158222,2.5153766,2.5150175,2.5149267,2.5150936,2.515335,2.5155473,2.5157428,2.515623,2.5154488,2.5153255,2.5153227,2.5155702,2.516058,2.516632,2.5172896,2.5181334,2.5191169,2.5201445,2.5212207,2.5222673,2.5232813,2.5243087,2.5252285,2.5265608,2.5275545,2.528493,2.5296803,2.5311677,2.5328083,2.534444,2.5359654,2.537199,2.5383215,2.5394769
7.055853,7.0409737,7.0229435,6.9999495,6.971387,6.937895,6.9027414,6.8699517,6.8413334,6.8170657,6.796509,6.781869,6.7758837,6.778219,6.7907324,6.8108673,6.825922,6.828436,6.81362,6.7794294,6.6971436,6.5214844,6.280053,6.035039,5.7900696,5.531763,5.208977,4.887238,4.5813913,4.319364,4.1337204,4.0208445,3.9435554,3.8854437,3.8429937,3.812376,3.7913938,3.777,3.7661695,3.7578628,3.7532377,3.752952,3.7566423,3.765014,3.7775488,3.792315,3.8070312,3.8197803,3.8295803,3.8370724,3.8434143,3.8496041,3.8594863,3.874499,3.8940506,3.9162207,3.9388328,3.961693,3.9857035,4.0117455,4.038628,4.063204,4.084628,4.1038465,4.1205835,4.1342335,4.1461782,4.157259,4.168136,4.180654,4.1950684,4.209853,4.2235074,4.235182,4.245175,4.25398,4.262089,4.270255,4.27855,4.2868,4.2950234,4.30284,4.3103666,4.319152,4.330327,4.344556,4.362689,4.385484,4.4135733,4.448206,4.4936147,4.5519924,4.6254463,4.711865,4.8089933,4.9242945,5.073001,5.2621202,5.495142,5.742732,6.0125103,6.2301035,6.372115,6.4720516,6.5483446,6.600931,6.6299644,6.632615,6.6046433,6.5646477,6.5303497,6.507648,6.494776,6.4869623,6.483281,6.473855,6.4664087,6.4668303,6.4625497,6.4468155,6.4286046,6.409086,6.387968,6.3644876,6.3375854,6.3069034,6.2759657,6.2475157,6.22071,6.1948633,6.1696973,6.142705,6.1133375,6.0815325,6.04365,5.9994173,5.948354,5.8842907,5.820667,5.756797,5.6953506,5.631643,5.5568,5.4781713,5.41485,5.3727093,5.348193,5.3291144,5.300944,5.2641244,5.2197,5.1660767,5.1098213,5.065965,5.032423,4.9935575,4.949498,4.907176,4.8697143,4.837651,4.8117194,4.7908506,4.7723455,4.753889,4.7337885,4.7160997,4.7004313,4.6849957,4.6717525,4.6629143,4.653869,4.640545,4.6215487,4.605834,4.5860853,4.56332,4.5465164,4.531433,4.5236645,4.5043616,4.505929,4.1081066,3.4070635,2.9117756,2.8004203,2.7695959,2.7687278,2.792704,2.9661274,3.3250997,3.7191315,3.9484472,3.9822147,3.9332159,3.7856326,3.4768229,2.9931774,2.6043618,2.442935,2.418795,2.4125037,2.411871,2.4196796,2.4344296,2.4528487,2.475213,2.4941978,2.504156,2.507855,2.5098143,2.5082486,2.5038316,2.497539,2.4924958,2.490718,2.4927385,2.4976916,2.504293,2.5127594,2.5205617,2.5262904,2.5298362,2.5317252,2.532176,2.5314593,2.5305653,2.530642,2.532238,2.5336857,2.535119,2.536202,2.5366044,2.5363343,2.5354414,2.5339432,2.5320518,2.5300772,2.5283372,2.5269885,2.52623,2.5257196,2.5246506,2.5230398,2.5208757,2.518127,2.5150228,2.511684,2.5083551,2.5053399,2.502832,2.500971,2.4994612,2.498497,2.498012,2.498023,2.49832,2.4988394,2.4998026,2.5010507,2.5024967,2.5041294,2.505612,2.5070724,2.5083032,2.508948,2.5090222,2.5087044,2.5082095,2.5076923,2.5072021,2.5069892,2.507021,2.5070586,2.5070317,2.5069914,2.506793,2.5066562,2.5066648,2.5068946,2.5074306,2.5081797,2.5089319,2.5096412,2.510316,2.5109847,2.511766,2.5127053,2.5137715,2.5149527,2.5162067,2.517377,2.5186267,2.520059,2.5217128,2.5236263,2.5257568,2.5280008,2.530112,2.5317435,2.5331168,2.5344806,2.535777
7.090565,7.071781,7.050197,7.0250864,6.9969788,6.9667687,6.936452,6.908219,6.8828154,6.8598747,6.838272,6.818289,6.8077,6.8064094,6.8115134,6.82129,6.830177,6.8276677,6.809931,6.7724833,6.68233,6.5110927,6.286377,6.05649,5.8274407,5.585313,5.2681026,4.965067,4.678406,4.426976,4.242012,4.1257696,4.050266,3.9967735,3.9539077,3.919616,3.8943331,3.8759627,3.8633351,3.8559406,3.8521369,3.8519979,3.8547604,3.861422,3.871447,3.883277,3.8951406,3.9055073,3.9134502,3.9192042,3.9251266,3.9317923,3.9415398,3.9543958,3.9711285,3.9921355,4.015337,4.039321,4.0657206,4.0934896,4.1215825,4.147873,4.1716413,4.1933813,4.213011,4.2303333,4.246377,4.2620406,4.2773805,4.293377,4.310884,4.328906,4.345208,4.3589973,4.370598,4.3803434,4.389435,4.398407,4.4069867,4.4149876,4.4225655,4.4296675,4.436802,4.445591,4.4573107,4.4724226,4.4919944,4.5175095,4.5503793,4.5921745,4.645336,4.7135954,4.79338,4.8773313,4.9735327,5.092267,5.2406864,5.4327917,5.6296587,5.862315,6.112266,6.2996225,6.424629,6.5255346,6.6012087,6.6559362,6.6866555,6.6920447,6.6635675,6.6244106,6.587851,6.558482,6.542327,6.533551,6.529511,6.5252953,6.513713,6.508652,6.5084515,6.499032,6.479123,6.4598904,6.439105,6.415585,6.3882837,6.3570886,6.325266,6.29605,6.2692623,6.2432637,6.2180185,6.1909914,6.1615076,6.130062,6.09298,6.0488915,5.9977016,5.935549,5.8719473,5.8080826,5.7466106,5.6832547,5.6056614,5.524351,5.464532,5.427401,5.4067564,5.3928404,5.367038,5.3295126,5.284261,5.2318544,5.1756144,5.125143,5.084115,5.0380793,4.989573,4.9435873,4.903802,4.87055,4.843642,4.823703,4.8055687,4.7871194,4.766427,4.749012,4.7348404,4.7208223,4.7078586,4.6986647,4.689433,4.675962,4.655685,4.6334867,4.612707,4.5939064,4.5753527,4.556024,4.544412,4.524084,4.5201807,4.106944,3.4055586,2.922873,2.814891,2.7856119,2.7838426,2.806437,2.9747639,3.326758,3.7218988,3.9597392,4.0005207,3.9579186,3.822871,3.511919,2.9997065,2.6023378,2.447153,2.4260364,2.4213595,2.421978,2.431973,2.4464836,2.4626966,2.4830663,2.5012698,2.5120685,2.5169134,2.517931,2.5151286,2.5095549,2.5028837,2.4981482,2.4960823,2.4973664,2.502316,2.5092463,2.5165899,2.5236907,2.52856,2.5317519,2.5331624,2.5332026,2.53266,2.5318398,2.5316043,2.5331788,2.534502,2.5356026,2.5362742,2.5362659,2.5355363,2.5341544,2.5323102,2.5301967,2.528166,2.5265102,2.5255136,2.5254204,2.525671,2.5251954,2.5240126,2.522089,2.5194373,2.516317,2.512867,2.5093336,2.5061626,2.5036662,2.5017142,2.500107,2.4989984,2.498194,2.4978065,2.4978552,2.4983494,2.499388,2.50073,2.5021014,2.5034766,2.5047054,2.5057454,2.5064635,2.5067272,2.5065565,2.5060961,2.5055037,2.5048687,2.5042114,2.503697,2.503357,2.5030487,2.5026984,2.5023937,2.5021086,2.5020218,2.5021844,2.5026288,2.5033927,2.5043325,2.5051897,2.5059066,2.5065222,2.507061,2.5077143,2.508583,2.5096457,2.5108814,2.5122468,2.5135512,2.5148287,2.5162406,2.5181026,2.5204268,2.5230184,2.5257158,2.5282264,2.5300403,2.531403,2.532845,2.534119
7.1281443,7.1037364,7.0774603,7.0502295,7.024052,6.9996357,6.9774323,6.957117,6.936933,6.9164248,6.8934917,6.867427,6.8508835,6.843588,6.8410835,6.8409276,6.837059,6.8239555,6.795572,6.7541804,6.667532,6.5055637,6.301572,6.0992756,5.8854203,5.6542006,5.337569,5.0520935,4.7790003,4.534068,4.3508987,4.231373,4.153676,4.101532,4.0619583,4.02742,3.9977198,3.974176,3.9580116,3.948436,3.9431412,3.9419212,3.9434836,3.9485705,3.956348,3.965814,3.975603,3.9841208,3.9905295,3.995357,4.0007243,4.007585,4.0169334,4.0288334,4.0440035,4.063484,4.0870037,4.112965,4.1397386,4.167873,4.1962924,4.224077,4.2504797,4.275166,4.298133,4.319188,4.3394914,4.360059,4.3805437,4.4008865,4.422139,4.443894,4.4636106,4.4804516,4.494711,4.506605,4.51733,4.52744,4.536686,4.5448637,4.5521784,4.5588923,4.5658884,4.574958,4.5879145,4.605364,4.6280956,4.657649,4.695981,4.7444243,4.8019094,4.871234,4.9488826,5.036414,5.1401706,5.2661066,5.4206123,5.606143,5.769527,5.985963,6.2083006,6.36819,6.479041,6.575001,6.648614,6.7047205,6.7394485,6.749353,6.7289534,6.6917505,6.6507845,6.616993,6.5975003,6.58587,6.579978,6.577525,6.564591,6.5521426,6.5484614,6.544082,6.5288334,6.5092077,6.4887257,6.4651637,6.4373817,6.4055414,6.3730135,6.34336,6.3166327,6.290617,6.2654257,6.2385283,6.2092943,6.1786094,6.142654,6.0992703,6.0489583,5.9895973,5.925743,5.861763,5.80059,5.7370014,5.65532,5.5707827,5.515026,5.483079,5.4658155,5.4574347,5.4345517,5.397059,5.3474045,5.2913218,5.2351694,5.1783967,5.1298075,5.0785103,5.027156,4.979164,4.9346666,4.8964906,4.869476,4.852173,4.837222,4.81989,4.8009806,4.7852645,4.771017,4.7566195,4.744444,4.734963,4.725641,4.7119923,4.691561,4.6654987,4.643262,4.626211,4.605625,4.581031,4.567945,4.5467243,4.5378456,4.1170197,3.4139826,2.934783,2.8282256,2.7991643,2.7974815,2.8188717,2.982123,3.328906,3.7259836,3.97124,4.0178766,3.980721,3.8580098,3.5409613,3.0030506,2.6010723,2.4529858,2.4341936,2.4310794,2.4328942,2.4442067,2.4575732,2.474856,2.494555,2.511424,2.5217814,2.5259604,2.5254884,2.5209131,2.514536,2.5077024,2.5027614,2.5005088,2.502358,2.508099,2.5145588,2.5211504,2.5272748,2.5311084,2.5337682,2.5348997,2.5347345,2.5343852,2.5341985,2.5342572,2.5355122,2.5369627,2.5382218,2.5388732,2.538727,2.5378065,2.5362024,2.5341756,2.5319471,2.5298948,2.5282917,2.5274749,2.5277069,2.5283499,2.5282419,2.527391,2.5256686,2.523108,2.5199735,2.5164354,2.5127983,2.5096169,2.5072274,2.5052826,2.5036294,2.5025609,2.5017629,2.5012064,2.501052,2.5014389,2.5023632,2.5035763,2.5048418,2.5060241,2.5069456,2.5075712,2.5078876,2.5078723,2.5075405,2.5069942,2.50631,2.5056076,2.5048652,2.5041168,2.5033846,2.5026543,2.5019603,2.5014048,2.5010254,2.5009427,2.5011988,2.5017793,2.5026689,2.5036817,2.5045753,2.5053701,2.5060713,2.506666,2.507347,2.5082326,2.5092874,2.5104957,2.5118394,2.513114,2.5143998,2.5159445,2.5179267,2.5203204,2.5229511,2.5256853,2.5282521,2.5301332,2.5314975,2.532648,2.5338073
7.162317,7.131401,7.099142,7.073479,7.0518293,7.0324717,7.015187,6.999653,6.985138,6.9672785,6.9421935,6.916272,6.8963366,6.8812675,6.871021,6.865352,6.856204,6.836464,6.805028,6.7638655,6.6828165,6.529234,6.3416085,6.161834,5.9612837,5.7451515,5.427822,5.1523566,4.887481,4.645701,4.4628134,4.341081,4.260738,4.2069936,4.1690927,4.135505,4.10433,4.077919,4.057467,4.042988,4.0350485,4.0319147,4.031852,4.0349307,4.0403953,4.0474086,4.0545974,4.0605316,4.0648823,4.068443,4.072407,4.078149,4.087241,4.0997972,4.1154838,4.1346216,4.157385,4.1822853,4.2089095,4.237739,4.267288,4.296092,4.32351,4.3498716,4.3755345,4.399957,4.424164,4.4494658,4.4748425,4.5001135,4.526067,4.5521736,4.5762405,4.5973783,4.615736,4.6315227,4.6453075,4.6576595,4.6683044,4.6774225,4.6859493,4.693817,4.7016,4.711385,4.725243,4.744071,4.768889,4.801688,4.8443403,4.896408,4.955103,5.021178,5.098865,5.192884,5.303762,5.4376936,5.5979877,5.762396,5.912884,6.1037955,6.2953463,6.433852,6.5318594,6.617362,6.685259,6.7416353,6.78113,6.801016,6.794142,6.7609234,6.7180214,6.6822066,6.658049,6.6455,6.6378603,6.6328773,6.6189976,6.6005483,6.5886106,6.584374,6.576681,6.5570865,6.5365777,6.512832,6.4845247,6.452102,6.4196453,6.39039,6.36362,6.337716,6.312667,6.285976,6.256998,6.2272,6.192456,6.14989,6.1011677,6.045885,5.981751,5.9173636,5.85608,5.792157,5.7071457,5.6188197,5.564953,5.539508,5.525924,5.5217953,5.50219,5.46552,5.411746,5.3500366,5.290755,5.22865,5.172453,5.1186953,5.064624,5.0131426,4.9628854,4.9197645,4.8927584,4.8773746,4.8662844,4.8515954,4.835454,4.820655,4.805681,4.790659,4.7783985,4.7685995,4.759058,4.745129,4.7243733,4.697839,4.674696,4.6566358,4.6351147,4.608775,4.592868,4.571041,4.5573187,4.1408534,3.435733,2.9477348,2.8405356,2.810783,2.8096008,2.8296337,2.986833,3.3282187,3.728178,3.9824595,4.036088,4.002275,3.883103,3.5571668,2.9967525,2.5963283,2.458902,2.4424853,2.4405355,2.4435205,2.4552126,2.4675117,2.4858599,2.5051327,2.520824,2.530105,2.532778,2.5311322,2.5254185,2.5191839,2.5119061,2.50639,2.505018,2.5086212,2.515131,2.5213246,2.5277715,2.5330434,2.5358872,2.5377417,2.5386763,2.538711,2.5387337,2.539299,2.539919,2.5408456,2.5419302,2.5428452,2.5435054,2.5435824,2.5427122,2.5410237,2.5389023,2.5365999,2.534596,2.5330021,2.5324845,2.5331738,2.5341377,2.5343518,2.5337477,2.5321445,2.5295763,2.526366,2.5227852,2.519174,2.5159445,2.5133195,2.5111942,2.5095496,2.5085063,2.5078359,2.5074964,2.5075417,2.5080118,2.5088582,2.5098333,2.5108306,2.5116973,2.5121908,2.5124128,2.5124288,2.5121894,2.5117164,2.5111575,2.5105762,2.5099368,2.5091681,2.5083013,2.50732,2.506258,2.5052805,2.5044885,2.5039706,2.5039122,2.5043576,2.5051346,2.5060945,2.5069897,2.5076375,2.5082896,2.509056,2.5096624,2.5102797,2.5110006,2.511922,2.51327,2.51503,2.5166392,2.5180998,2.5197468,2.52164,2.5237503,2.5259986,2.5283456,2.5305634,2.532171,2.533444,2.534199,2.5348892
7.188816,7.1508274,7.1188374,7.0978613,7.0811987,7.064249,7.0461264,7.028861,7.015032,6.998214,6.9743032,6.9526615,6.930955,6.911964,6.899289,6.890766,6.8803787,6.861913,6.833829,6.79363,6.7263684,6.586729,6.4037704,6.230276,6.0453625,5.8480673,5.5363274,5.265521,5.005061,4.765977,4.580427,4.4525013,4.3701277,4.315196,4.2754507,4.242868,4.2138224,4.187992,4.165511,4.147852,4.137462,4.131687,4.129097,4.129183,4.131198,4.134474,4.1378574,4.1401024,4.141047,4.141723,4.143532,4.1482573,4.1572466,4.1704154,4.1867857,4.205762,4.2268643,4.248473,4.275177,4.3048763,4.335917,4.3657227,4.393508,4.4205933,4.4478846,4.47461,4.5016584,4.5306597,4.5602045,4.5902042,4.620883,4.6516027,4.680955,4.707545,4.7312007,4.752001,4.7701645,4.7861595,4.80034,4.8130565,4.8245106,4.834491,4.843643,4.854291,4.868335,4.886902,4.9119425,4.9468145,4.9927797,5.0455856,5.103944,5.173092,5.2563853,5.3512573,5.465708,5.608479,5.7651515,5.905036,6.0499687,6.2100067,6.373361,6.497068,6.5839796,6.655799,6.7131057,6.7648463,6.8107805,6.8420467,6.848404,6.826687,6.7885604,6.751072,6.7244825,6.7107296,6.70216,6.6920094,6.6747417,6.6528745,6.6345363,6.625121,6.6189723,6.6033344,6.582116,6.55799,6.529392,6.497132,6.4655294,6.4370112,6.4102526,6.3846188,6.3598166,6.333399,6.3046775,6.2756615,6.2420483,6.2003045,6.15287,6.1010375,6.039201,5.9746146,5.9122787,5.848648,5.7620783,5.6690598,5.6140366,5.596496,5.587594,5.5868244,5.570285,5.53405,5.477166,5.409962,5.3452573,5.279498,5.215753,5.160598,5.103715,5.046322,4.9920197,4.947934,4.9198503,4.9039755,4.8937564,4.8812118,4.8670673,4.852247,4.8363285,4.820694,4.8079,4.7976103,4.7876105,4.7731915,4.751711,4.7261724,4.7027946,4.6828604,4.6617193,4.637434,4.6172037,4.5956354,4.5773325,4.17659,3.4692655,2.961165,2.8518662,2.8214626,2.8206015,2.83927,2.9894078,3.3238144,3.7274323,3.9927096,4.05315,4.0207043,3.901128,3.564106,2.985488,2.590167,2.464777,2.4508603,2.44905,2.4526088,2.4650311,2.4766352,2.494812,2.5137904,2.528669,2.5367928,2.538242,2.5356798,2.5300193,2.523986,2.5157678,2.510551,2.5109882,2.5160346,2.5229254,2.5294862,2.5357428,2.5403738,2.5424576,2.5432568,2.5438433,2.5444803,2.5452654,2.546391,2.5475612,2.5485864,2.5490446,2.5492682,2.5495443,2.5495656,2.548927,2.5476403,2.5457401,2.5435615,2.541626,2.5400515,2.5400448,2.5412998,2.5424252,2.5428903,2.5424752,2.5409834,2.538428,2.53519,2.5316133,2.5280623,2.5247755,2.5218368,2.519465,2.517786,2.5167594,2.5161858,2.5159717,2.516121,2.5166526,2.517485,2.5183372,2.5190096,2.5194755,2.5196192,2.5195231,2.5192628,2.5188293,2.5182528,2.517707,2.5172453,2.5166388,2.5158057,2.5148048,2.51365,2.5124102,2.5112848,2.5103877,2.5098367,2.509898,2.5106008,2.5115879,2.5125911,2.5133357,2.5136683,2.5139976,2.51468,2.5152388,2.5158207,2.5164697,2.5173855,2.5189812,2.5211952,2.5231123,2.5247061,2.5259547,2.5273142,2.5288544,2.5304828,2.5321949,2.5338345,2.5349708,2.5358834,2.5364885,2.536504
7.2089987,7.165509,7.1418405,7.121729,7.1042256,7.08772,7.0706143,7.052967,7.034771,7.0175047,6.9992704,6.977123,6.954404,6.937188,6.926567,6.917988,6.9067955,6.889941,6.8641405,6.821089,6.7661457,6.6615477,6.497451,6.311219,6.1267805,5.933751,5.6547847,5.391101,5.13056,4.8935747,4.7046633,4.5673494,4.4800363,4.423667,4.38308,4.3512964,4.323496,4.299395,4.2788424,4.2614756,4.2486215,4.239889,4.2345037,4.2308774,4.228363,4.2267866,4.2253046,4.2232513,4.2210445,4.218746,4.2176332,4.2201962,4.227446,4.239413,4.2551384,4.2732525,4.2931714,4.315502,4.34065,4.369699,4.4010453,4.4318047,4.4606986,4.488594,4.516449,4.544047,4.572419,4.60328,4.635389,4.6684337,4.7023497,4.737072,4.7718334,4.8039846,4.833091,4.859244,4.882266,4.9029174,4.9227633,4.941037,4.955162,4.965992,4.975733,4.986911,5.0019035,5.022256,5.0488853,5.085065,5.132851,5.186354,5.247221,5.3211565,5.40596,5.507078,5.631652,5.776467,5.9215994,6.0436697,6.170634,6.306405,6.43839,6.54912,6.631098,6.691972,6.7427735,6.7866397,6.835246,6.873417,6.890976,6.88559,6.858218,6.823377,6.798711,6.780122,6.76952,6.7534876,6.7318444,6.707634,6.6834326,6.6652136,6.6564937,6.6473007,6.6261063,6.6016064,6.573068,6.5416813,6.510852,6.4825583,6.4560895,6.4308815,6.406451,6.3804226,6.352129,6.323807,6.2913423,6.2508,6.2039967,6.153019,6.0970526,6.0327187,5.9689045,5.9062514,5.818037,5.7196484,5.6641364,5.6543455,5.6502457,5.652099,5.636214,5.600499,5.5430813,5.4720325,5.4016275,5.332088,5.261065,5.2035093,5.1440954,5.0819364,5.0240126,4.978492,4.9487066,4.931223,4.9199915,4.9076834,4.8941708,4.879772,4.8634515,4.8470078,4.8337097,4.8229017,4.812403,4.7973757,4.7747817,4.7517557,4.7283516,4.705255,4.684263,4.661598,4.6399026,4.6198955,4.5976996,4.216248,3.5060463,2.9736652,2.8620322,2.831998,2.8311644,2.8488321,2.9916615,3.3177567,3.7247643,4.001226,4.0674944,4.0367455,3.9208312,3.5688434,2.9796124,2.5894444,2.4723368,2.4600425,2.457327,2.4608989,2.4736066,2.4844244,2.5028934,2.5220015,2.5362697,2.5433216,2.5437255,2.5406134,2.5349407,2.5271306,2.5182204,2.5142262,2.516224,2.522447,2.5302014,2.5366879,2.5424898,2.546488,2.5482774,2.5481894,2.548346,2.5494447,2.5509052,2.5527203,2.5544171,2.555706,2.5564117,2.556735,2.5563679,2.5555959,2.5549498,2.5541868,2.5528064,2.5508847,2.548781,2.5473003,2.547555,2.5488796,2.5499504,2.5505106,2.550274,2.54903,2.5467634,2.5438006,2.5403702,2.5368762,2.5336878,2.5309215,2.5287476,2.527009,2.5260277,2.5253644,2.5249143,2.524818,2.5251403,2.525751,2.5263872,2.5267777,2.5268934,2.5265794,2.526022,2.5254316,2.5248623,2.5242987,2.5237703,2.5231605,2.5224552,2.5215611,2.520504,2.5192914,2.5180182,2.51691,2.5160964,2.5157132,2.515881,2.5165677,2.5174727,2.5183892,2.5191004,2.519466,2.519774,2.5202894,2.5208728,2.521739,2.5228705,2.5242114,2.5258412,2.527639,2.529045,2.530158,2.530954,2.5317929,2.532745,2.5337377,2.5348024,2.5358481,2.536485,2.5369353,2.5373795,2.536976
7.2217817,7.182992,7.155529,7.135808,7.1183558,7.103203,7.090223,7.07716,7.063735,7.048623,7.029655,7.0081296,6.9878836,6.9693375,6.955737,6.9469814,6.935317,6.924262,6.9022474,6.8605833,6.7982903,6.731236,6.609686,6.4107046,6.211898,6.0004168,5.7729177,5.514965,5.253974,5.0232277,4.8347654,4.6905746,4.5962605,4.5385094,4.496287,4.4635534,4.4371247,4.4150524,4.395733,4.378873,4.3655224,4.3549986,4.3463836,4.338595,4.331073,4.323713,4.3153944,4.3072624,4.302249,4.2972326,4.293974,4.294029,4.2986712,4.309028,4.3235917,4.3402324,4.3592834,4.381713,4.4075003,4.4365616,4.466226,4.4963665,4.5259485,4.5541735,4.5822983,4.6101675,4.6388693,4.669867,4.7025633,4.736828,4.7726936,4.8103313,4.8490667,4.8860006,4.9202614,4.9515295,4.9802594,5.007462,5.032079,5.0523834,5.068205,5.08026,5.0907154,5.10234,5.1181927,5.140086,5.1664624,5.199589,5.246293,5.3067636,5.377742,5.455403,5.5478506,5.6600666,5.791131,5.928922,6.055541,6.165232,6.282723,6.3971286,6.499599,6.5898724,6.667801,6.730586,6.778838,6.8199835,6.862308,6.90298,6.9304676,6.937414,6.9245777,6.900202,6.875192,6.856241,6.8382196,6.8157477,6.7894773,6.76157,6.732578,6.708747,6.696421,6.6872406,6.6701736,6.64559,6.616747,6.5852556,6.5546374,6.5268583,6.5007014,6.4758663,6.451909,6.426461,6.3987365,6.3709526,6.339553,6.300297,6.2543464,6.204946,6.153593,6.0897083,6.02474,5.9628177,5.8708363,5.7664204,5.7133875,5.7114573,5.712122,5.711667,5.694544,5.6609936,5.6067457,5.534439,5.458194,5.3852215,5.307236,5.2455435,5.184226,5.1194625,5.0584393,5.010292,4.9779754,4.9581833,4.9449787,4.9305468,4.9160185,4.9026356,4.8870363,4.8700805,4.85637,4.8451753,4.8344116,4.818918,4.7953215,4.7749214,4.7513113,4.7247562,4.703797,4.682715,4.660614,4.6427,4.617731,4.2507467,3.5380387,2.985578,2.8704886,2.8424182,2.8412838,2.8581781,2.9940243,3.3116746,3.721529,4.0090513,4.0816135,4.0523443,3.9381902,3.5756288,2.9796233,2.593857,2.4817524,2.4691167,2.4653084,2.4684715,2.4806921,2.4910557,2.5121827,2.5322053,2.545597,2.5512161,2.549923,2.5458665,2.539441,2.5286913,2.5208097,2.5175858,2.5208216,2.5284486,2.5360165,2.5419807,2.5471373,2.5504618,2.5520225,2.552383,2.5524368,2.5534344,2.5557327,2.5584292,2.5612116,2.563294,2.564487,2.5646474,2.5640926,2.5631094,2.561575,2.5595367,2.5578806,2.5555367,2.5528984,2.551444,2.5515902,2.5525908,2.553604,2.5542586,2.5542421,2.5533378,2.5514858,2.5489855,2.5460553,2.543054,2.5402966,2.5378838,2.5359807,2.5344696,2.53366,2.533087,2.532612,2.5323431,2.5323155,2.5324175,2.532481,2.5322628,2.5317364,2.5308151,2.5297685,2.5288484,2.5281143,2.5275407,2.5271244,2.5266674,2.5260985,2.525288,2.5242755,2.523075,2.521793,2.5206757,2.519843,2.519413,2.5195084,2.5200968,2.520849,2.521573,2.522104,2.5223489,2.5226438,2.5232687,2.524012,2.5250006,2.5261707,2.527481,2.529109,2.5310059,2.5325208,2.5336804,2.5344563,2.5351183,2.5356984,2.5361674,2.5366378,2.5371203,2.5373504,2.5376415,2.5376318,2.5366564
7.23872,7.20279,7.183666,7.1703434,7.1520233,7.1356554,7.1278353,7.1237583,7.1170273,7.1020384,7.0814047,7.054067,7.026373,7.0006447,6.9826794,6.9742756,6.965318,6.954524,6.940337,6.9098787,6.850007,6.7686424,6.675827,6.5278854,6.2855983,6.08289,5.854683,5.608103,5.360384,5.139443,4.95846,4.8180113,4.7209034,4.6588793,4.6153326,4.582444,4.556215,4.5349407,4.516735,4.50051,4.4871254,4.475763,4.464013,4.4517403,4.4394293,4.427302,4.4149504,4.4022427,4.389678,4.377445,4.372265,4.3709517,4.374435,4.3832145,4.3955507,4.410543,4.4296074,4.452113,4.4781876,4.507825,4.538286,4.5669355,4.594393,4.6222777,4.6502237,4.6776943,4.7060466,4.736014,4.768461,4.803467,4.84101,4.8811417,4.923094,4.964818,5.004056,5.041225,5.0762277,5.108062,5.135954,5.1592436,5.1772933,5.190911,5.202444,5.2127857,5.2257204,5.2436056,5.2691975,5.305744,5.355773,5.4201674,5.497819,5.5823507,5.685538,5.805032,5.9402604,6.071706,6.1780267,6.287039,6.3978887,6.494719,6.5776234,6.6520176,6.719657,6.779216,6.8294315,6.8694,6.9082994,6.9518986,6.982442,6.991761,6.987207,6.9758263,6.958206,6.938695,6.914175,6.8807306,6.8475184,6.8149695,6.784066,6.75731,6.736776,6.7243834,6.713316,6.6884804,6.65915,6.627841,6.597416,6.5699806,6.5440025,6.5181284,6.4948196,6.471131,6.4442725,6.41698,6.3866253,6.3486023,6.303693,6.255911,6.2050047,6.1444182,6.079675,6.017208,5.9210596,5.8121614,5.761593,5.7644577,5.773387,5.770112,5.753478,5.7205973,5.6693115,5.5981503,5.5157733,5.4391923,5.3541374,5.287525,5.2231817,5.156748,5.093128,5.0412707,5.0063677,4.9852285,4.968421,4.951492,4.934929,4.9194164,4.9051204,4.890793,4.876636,4.8652816,4.854555,4.8387976,4.815423,4.7948976,4.769332,4.7413206,4.7215633,4.7013187,4.6792607,4.663291,4.6360617,4.2810335,3.5650935,2.9951406,2.8782272,2.8525658,2.8509417,2.867179,2.9967616,3.3066826,3.7160568,4.0132036,4.096339,4.0683355,3.9544826,3.5859342,2.9842925,2.6005628,2.4913979,2.4782639,2.4735851,2.4757326,2.4865053,2.498507,2.5243912,2.545529,2.5576744,2.5623386,2.559688,2.5537014,2.546114,2.5348437,2.5262957,2.5233614,2.5273938,2.5348496,2.5412204,2.5462303,2.5503454,2.5528257,2.5542314,2.5551867,2.5565054,2.5588598,2.562234,2.5658073,2.5686176,2.5702324,2.5707743,2.5704353,2.5696647,2.568676,2.5671148,2.5645852,2.561504,2.558577,2.555459,2.5533905,2.5529149,2.5535064,2.5543914,2.5551436,2.5553975,2.5549226,2.5536032,2.5516932,2.5493822,2.5469704,2.5447197,2.5427256,2.5411644,2.5399249,2.5393424,2.5388846,2.5383787,2.5379176,2.5375285,2.5371256,2.5366294,2.535821,2.534673,2.5331664,2.5316427,2.5303888,2.5294642,2.5288286,2.5284462,2.5280533,2.527563,2.5268245,2.525888,2.5247502,2.5235066,2.5224237,2.5216186,2.5211833,2.5212345,2.5217273,2.522315,2.5228317,2.5231528,2.5232093,2.5233612,2.523877,2.5245311,2.5254245,2.5264907,2.5277007,2.5292802,2.531219,2.532808,2.5340188,2.5348384,2.535449,2.5358596,2.5360641,2.5362158,2.5363874,2.5364003,2.536615,2.5367522,2.5359597
7.2671075,7.2449875,7.2318335,7.221285,7.208726,7.1958265,7.1881294,7.1851954,7.1786013,7.164598,7.1432257,7.115753,7.08247,7.053398,7.031375,7.0147457,7.0072355,6.998521,6.99349,6.969996,6.9140496,6.829666,6.7263575,6.586182,6.383832,6.1644363,5.933419,5.6831775,5.4465485,5.2482214,5.088231,4.956395,4.85364,4.791484,4.7477903,4.7172203,4.6930995,4.671704,4.6533957,4.638749,4.6256237,4.611102,4.593321,4.575493,4.557783,4.540866,4.5247297,4.5089927,4.493972,4.479594,4.4670906,4.462491,4.4640846,4.470612,4.4811397,4.4952793,4.5136805,4.536004,4.5621214,4.591972,4.62255,4.6510506,4.6765857,4.7013597,4.7278166,4.7540627,4.7809687,4.8096666,4.8401995,4.8743157,4.9128675,4.955125,4.9999084,5.0455656,5.089734,5.133029,5.172841,5.2084074,5.2401123,5.2658234,5.28296,5.294965,5.304441,5.3140016,5.327071,5.3453236,5.3716373,5.4108396,5.466634,5.537859,5.617321,5.710838,5.819604,5.949029,6.081809,6.1987896,6.3070555,6.421263,6.5271044,6.613438,6.6897535,6.7540936,6.8106375,6.860607,6.899394,6.9355974,6.9738784,7.012449,7.0452676,7.0582933,7.058328,7.055794,7.0477066,7.033041,7.0034614,6.9649377,6.917063,6.8738523,6.8389244,6.80719,6.7812257,6.768383,6.755703,6.7342925,6.7058253,6.6742716,6.6439815,6.61514,6.586445,6.561002,6.5390997,6.5175524,6.491539,6.464637,6.435211,6.398348,6.354543,6.3083715,6.258064,6.2005577,6.136319,6.0730085,5.972704,5.8603506,5.813509,5.8216157,5.8326125,5.83194,5.8183317,5.786878,5.738907,5.6687746,5.5789657,5.4948816,5.4053555,5.332735,5.2621336,5.1929007,5.1256933,5.0677834,5.0292487,5.008271,4.992592,4.97232,4.953103,4.935889,4.9220657,4.9101567,4.897688,4.8862286,4.8759813,4.8604193,4.837219,4.8170257,4.790677,4.761098,4.739997,4.7183275,4.698125,4.683499,4.6546154,4.3049493,3.5846162,3.0032206,2.8863544,2.8636968,2.8620968,2.8769717,3.0006406,3.3039927,3.7117388,4.0176396,4.113134,4.0865498,3.975286,3.60248,2.9954908,2.6113238,2.5026212,2.4885025,2.483488,2.484754,2.4925044,2.509294,2.538393,2.5605707,2.571962,2.5749195,2.5709848,2.5648592,2.5577264,2.5450907,2.53582,2.532691,2.5367637,2.5429258,2.546719,2.5502667,2.5528514,2.554228,2.555393,2.5570498,2.5597658,2.563644,2.5681248,2.5721555,2.5746944,2.5756712,2.5754967,2.5746245,2.5737822,2.5730386,2.5716066,2.5688105,2.564962,2.5607445,2.5565968,2.5533607,2.55184,2.551791,2.5524094,2.5532122,2.5537634,2.5537896,2.5531,2.5518825,2.5502787,2.5485198,2.5468128,2.5452623,2.5440745,2.5431514,2.5428448,2.5425534,2.5420592,2.5414398,2.5407333,2.539894,2.538908,2.5375795,2.5358832,2.53386,2.5319161,2.5303583,2.5292354,2.5284917,2.528063,2.5276546,2.5271769,2.5264654,2.5255685,2.5244606,2.5232248,2.5221524,2.5213683,2.5209448,2.520976,2.5213826,2.5218034,2.5220907,2.5221539,2.5219584,2.5218706,2.5221267,2.5225322,2.5231733,2.5240214,2.5250812,2.5266092,2.5286014,2.5302875,2.5315745,2.5325065,2.5331905,2.5336218,2.5338035,2.5338917,2.5339818,2.5339453,2.534193,2.5345085,2.5340755
7.30976,7.299409,7.293521,7.2878237,7.2801886,7.2706223,7.2620983,7.255508,7.246883,7.235296,7.2137012,7.186105,7.1549425,7.1254263,7.1014395,7.08235,7.0675983,7.063401,7.0625086,7.042331,6.9869947,6.8977356,6.7827415,6.6373515,6.4523993,6.24849,6.018775,5.7525706,5.5269327,5.356681,5.217452,5.099654,5.0077085,4.9398165,4.897787,4.873084,4.859951,4.858744,4.8614187,4.8564796,4.84103,4.8116274,4.7745714,4.7319684,4.6955776,4.6675406,4.6445913,4.624998,4.6080575,4.591698,4.5760555,4.5667534,4.5655074,4.5704813,4.57967,4.5928884,4.6107025,4.6326723,4.6584864,4.6878853,4.7180023,4.7459497,4.770502,4.792515,4.8144217,4.838971,4.8640914,4.891245,4.9206347,4.953837,4.99255,5.0368185,5.084928,5.1346493,5.184142,5.232629,5.276825,5.316771,5.349208,5.3721704,5.3891344,5.401915,5.411774,5.421727,5.435342,5.4542,5.4825706,5.526247,5.586982,5.660508,5.740596,5.8379774,5.95471,6.0922074,6.220624,6.331443,6.45212,6.574685,6.6797466,6.7721367,6.8374844,6.885315,6.926292,6.9622116,6.9940634,7.025235,7.050645,7.0876894,7.1198287,7.1328483,7.137704,7.143663,7.1414733,7.126746,7.0958195,7.0557084,7.0072308,6.9530783,6.903005,6.8631153,6.8332105,6.8155456,6.802371,6.785392,6.7575283,6.7258577,6.6933346,6.6609335,6.6324234,6.6080513,6.587163,6.5660896,6.5404363,6.5139856,6.485326,6.449481,6.4067826,6.36189,6.312178,6.258045,6.194673,6.1308775,6.028205,5.9146748,5.871891,5.884256,5.8945074,5.8974767,5.8881607,5.8593802,5.812782,5.742567,5.648987,5.5571523,5.4637036,5.382339,5.304744,5.2278166,5.152177,5.089521,5.050001,5.026477,5.0137706,4.9931335,4.9716196,4.9527664,4.938712,4.9281945,4.9182835,4.9084635,4.899042,4.884203,4.861529,4.8416576,4.814696,4.7835817,4.7605658,4.7370453,4.7178316,4.7032003,4.672836,4.3231335,3.5978694,3.0106006,2.8954377,2.875615,2.8742704,2.8871887,3.0048885,3.304307,3.7104654,4.0236425,4.1325016,4.107189,3.9999309,3.6249032,3.0144348,2.6272194,2.5163484,2.5011907,2.4956267,2.495368,2.5011466,2.5234318,2.5545444,2.57731,2.588853,2.591312,2.5866554,2.5799243,2.5722623,2.5599365,2.5502715,2.5470877,2.548889,2.5517206,2.5536554,2.5551834,2.5559237,2.5560212,2.5568266,2.5590887,2.5630724,2.5682635,2.5736032,2.5778713,2.579867,2.580048,2.5791943,2.578026,2.5773118,2.5770254,2.5760517,2.5732496,2.5688205,2.5635037,2.5580308,2.5533154,2.5504916,2.549553,2.549707,2.5504174,2.5511713,2.5516443,2.5515516,2.5510101,2.550101,2.5489745,2.5477853,2.546657,2.545835,2.5452337,2.5452223,2.5451171,2.544651,2.5438986,2.5429268,2.5417356,2.5403545,2.5386105,2.5364773,2.5340457,2.5317771,2.5299835,2.528687,2.5278118,2.5272787,2.5267854,2.526257,2.525517,2.5246072,2.5234737,2.5221958,2.5210996,2.5203223,2.5199265,2.5199685,2.5203135,2.5205932,2.5206683,2.5204773,2.5200205,2.5196645,2.519598,2.519692,2.5200248,2.5206218,2.521533,2.5230331,2.5251014,2.526898,2.5282845,2.5293546,2.5301685,2.5307229,2.531017,2.531198,2.531362,2.5313983,2.5317616,2.5322971,2.5322375
7.3661194,7.3671446,7.3693786,7.370226,7.367696,7.3618135,7.354571,7.34635,7.334986,7.3213415,7.301922,7.277402,7.2501483,7.2226543,7.1971393,7.1731834,7.1523623,7.1506834,7.146983,7.1254454,7.0685287,6.9746904,6.85209,6.699668,6.518798,6.3497524,6.093164,5.8259516,5.6197023,5.473071,5.356477,5.2575674,5.17645,5.1176147,5.087284,5.0831633,5.110924,5.1575775,5.198942,5.214972,5.199211,5.1609154,5.0974674,5.015435,4.927668,4.8529906,4.799265,4.762518,4.737176,4.71665,4.698287,4.6852894,4.680045,4.682274,4.68978,4.701618,4.7185984,4.7397747,4.764738,4.793068,4.822024,4.848736,4.8721213,4.892618,4.911481,4.931156,4.954762,4.980317,5.008827,5.0420794,5.0814037,5.127829,5.1805105,5.234468,5.2896833,5.3428717,5.3907995,5.431077,5.4618053,5.485075,5.504612,5.5183926,5.5293674,5.5399256,5.553623,5.572934,5.6029425,5.650072,5.7130547,5.7805514,5.863808,5.9659557,6.0898714,6.2277346,6.3556776,6.4767494,6.613496,6.7442474,6.851204,6.9332128,6.9890738,7.02742,7.054159,7.075332,7.0984416,7.1229343,7.146376,7.1793175,7.2035174,7.2164335,7.227905,7.239036,7.23792,7.2184377,7.188488,7.150149,7.1031065,7.047241,6.9868135,6.93336,6.896186,6.8715744,6.8554397,6.8393974,6.8120947,6.7794037,6.744749,6.710773,6.6824694,6.658883,6.63869,6.616618,6.590621,6.56464,6.5366306,6.501485,6.459627,6.4154596,6.3664904,6.3171864,6.2548056,6.1907864,6.089202,5.9780984,5.9388647,5.954145,5.9592867,5.965603,5.960436,5.9332867,5.887725,5.819521,5.7256484,5.6281724,5.532981,5.4388328,5.346051,5.2587204,5.1822367,5.121011,5.0768285,5.048588,5.0329504,5.0146933,4.9917154,4.971093,4.9568577,4.947486,4.939889,4.932142,4.923649,4.9100056,4.88756,4.8679533,4.8407507,4.8082967,4.7833624,4.7580137,4.7383966,4.722805,4.691079,4.3372393,3.606072,3.0166907,2.9048839,2.8878713,2.886673,2.8984246,3.009478,3.3058639,3.712481,4.032566,4.1528444,4.130117,4.0279913,3.6538506,3.0426912,2.6498823,2.5336113,2.516828,2.5106285,2.5086963,2.5130033,2.5404792,2.5738482,2.5961993,2.6074753,2.610077,2.6049013,2.5975266,2.5893178,2.579082,2.5701494,2.5650969,2.5629275,2.5624037,2.5625968,2.561964,2.5608263,2.5596368,2.5599763,2.5625625,2.5673494,2.5733624,2.5790658,2.5829847,2.5841365,2.583376,2.5820062,2.5809293,2.5808911,2.5814836,2.581211,2.5787659,2.5740192,2.5678434,2.5610664,2.5547614,2.5504317,2.5483427,2.5477757,2.5481768,2.5489528,2.5497236,2.5500965,2.5501156,2.549799,2.5492134,2.5484598,2.5476885,2.5471861,2.5468743,2.5471334,2.5471914,2.5467372,2.5458555,2.5446618,2.543209,2.5415456,2.5395122,2.5370874,2.5343928,2.5319319,2.530006,2.5285954,2.5276012,2.5269322,2.526308,2.5256748,2.524847,2.5238533,2.5226157,2.52122,2.5200446,2.5192513,2.5188906,2.5189729,2.5192926,2.5194745,2.5193813,2.518979,2.5183127,2.5177379,2.5173926,2.5172353,2.5173235,2.5177324,2.518556,2.5200806,2.522255,2.524168,2.5256681,2.5268726,2.5278144,2.5285022,2.5289354,2.5292568,2.5295644,2.5297375,2.5302684,2.5310473,2.5313625
7.4279656,7.4412756,7.4575586,7.4729123,7.4851546,7.4897213,7.4848795,7.4765716,7.470465,7.4564943,7.434581,7.4060974,7.3730383,7.3420696,7.3109407,7.2791915,7.259967,7.2533827,7.244299,7.2186713,7.1611595,7.0661907,6.9413624,6.78812,6.6109543,6.464378,6.181843,5.9257917,5.73965,5.6164,5.5275164,5.4508886,5.386339,5.3462267,5.340357,5.376898,5.44599,5.5440636,5.6526155,5.7296762,5.7450647,5.7157726,5.612635,5.4603662,5.30513,5.1739798,5.0636473,4.968711,4.8992167,4.8589325,4.8306594,4.8118515,4.801735,4.798869,4.80248,4.812586,4.828695,4.8490343,4.872949,4.8999405,4.9278555,4.953576,4.975822,4.99532,5.012817,5.0287943,5.048463,5.0725,5.100428,5.1340737,5.174527,5.2226534,5.2782297,5.335664,5.394634,5.450412,5.4995003,5.534813,5.560874,5.5863676,5.6109195,5.6314106,5.6446924,5.6562023,5.6697235,5.6895404,5.720945,5.769047,5.8317776,5.898059,5.983506,6.09307,6.2222214,6.3573728,6.488737,6.627043,6.779788,6.914954,7.0133257,7.0866265,7.1424265,7.1834497,7.2088118,7.2235804,7.236395,7.2481604,7.2633123,7.281737,7.2968693,7.310881,7.3248954,7.3349104,7.332797,7.310972,7.2814245,7.2431097,7.197792,7.1442003,7.081335,7.0192375,6.9717054,6.938448,6.9172664,6.897544,6.8689303,6.8352327,6.800095,6.765874,6.7365103,6.71321,6.693224,6.668905,6.6417856,6.6162624,6.5888715,6.5539765,6.5125227,6.4688563,6.421049,6.3741407,6.315048,6.253024,6.1565127,6.052018,6.0140743,6.0275397,6.0274057,6.0368137,6.036273,6.010001,5.9638615,5.8999424,5.811899,5.710037,5.611817,5.5015745,5.3930073,5.2946653,5.2151146,5.1551228,5.1090364,5.0754104,5.053175,5.0380197,5.0136957,4.991248,4.9770603,4.9689503,4.96346,4.9574537,4.9499216,4.9376593,4.915641,4.8960934,4.8684645,4.834801,4.808178,4.781065,4.7598543,4.742508,4.709696,4.348855,3.6112385,3.0223627,2.914559,2.900113,2.8987064,2.9097788,3.0140438,3.3070412,3.7162104,4.043818,4.1726875,4.1531734,4.055761,3.6866198,3.079159,2.6786747,2.5536213,2.534397,2.5274932,2.5247936,2.5288594,2.5600436,2.5963292,2.6188622,2.6285691,2.630002,2.6245441,2.6166596,2.608028,2.5982127,2.589253,2.5822215,2.577234,2.5743804,2.5726094,2.5699737,2.5671659,2.5648255,2.5645864,2.567042,2.5718894,2.577852,2.583107,2.586111,2.5862622,2.584687,2.5831037,2.582554,2.5837111,2.5857208,2.5865989,2.584857,2.5803053,2.573696,2.5659695,2.5582483,2.552398,2.5490036,2.5474844,2.547336,2.547904,2.54877,2.5494246,2.5498462,2.5499868,2.549826,2.549413,2.5489223,2.5486774,2.5486002,2.5490701,2.5492296,2.5487309,2.547686,2.5462842,2.5446367,2.5427895,2.5405862,2.5380156,2.5352108,2.532699,2.5307572,2.5293145,2.5282426,2.5274472,2.526689,2.5259423,2.525013,2.5239115,2.5225382,2.520997,2.5197182,2.5188894,2.518547,2.5186515,2.518921,2.5189843,2.5186958,2.5180516,2.5171611,2.5163584,2.5157328,2.5153522,2.5152283,2.5154705,2.5162182,2.5177724,2.5200572,2.5221045,2.523762,2.5251498,2.5262625,2.5271263,2.5277438,2.5282607,2.528778,2.5291474,2.5298858,2.5309186,2.5316133
7.485068,7.5092506,7.5378666,7.571024,7.602959,7.6222906,7.624406,7.6183233,7.6138163,7.6011047,7.580786,7.5508194,7.5079317,7.46612,7.426202,7.387815,7.368477,7.354107,7.33902,7.314068,7.261777,7.1754136,7.061151,6.9142523,6.7357974,6.59511,6.3168306,6.0760956,5.908599,5.803626,5.7335806,5.6791396,5.6411357,5.6239467,5.661769,5.7559614,5.896368,6.071862,6.2555294,6.3849883,6.410344,6.3788033,6.264729,6.0920563,5.9016705,5.685363,5.463836,5.2832313,5.150175,5.049267,4.9839697,4.9461217,4.9260273,4.915781,4.913371,4.919271,4.9324813,4.9512234,4.974777,5.0013003,5.0287323,5.054024,5.0759134,5.095064,5.1121025,5.1274195,5.1432114,5.1647134,5.1917787,5.2253675,5.2662334,5.314618,5.369812,5.428149,5.487143,5.5425396,5.590316,5.6210346,5.6435814,5.670307,5.6983285,5.7252803,5.745413,5.7586546,5.774243,5.796178,5.830036,5.878577,5.9383345,6.008629,6.09451,6.212227,6.3489566,6.482709,6.618847,6.774929,6.9382725,7.0672216,7.1576757,7.234598,7.300576,7.3490667,7.3765535,7.3878174,7.3902245,7.388442,7.3879757,7.390671,7.3974724,7.4083114,7.4198303,7.426399,7.420514,7.395773,7.3636427,7.3257723,7.2836,7.2343597,7.1745706,7.109907,7.0534234,7.012208,6.985078,6.959193,6.927677,6.8933535,6.858366,6.8238883,6.793647,6.770252,6.747747,6.721328,6.6935115,6.66812,6.640903,6.6060095,6.5646477,6.5215425,6.4749517,6.428264,6.3743715,6.316726,6.2288647,6.1345015,6.095217,6.0998106,6.0992937,6.1119275,6.1154947,6.0901318,6.0423994,5.9814005,5.9007845,5.79869,5.696085,5.5761824,5.451855,5.339279,5.250415,5.1868973,5.1404085,5.1019917,5.0742354,5.0592566,5.035682,5.012676,4.9980545,4.9913855,4.9884377,4.9839325,4.9771457,4.9660263,4.9451246,4.9236097,4.8946633,4.861264,4.8333044,4.8042297,4.7808995,4.761198,4.727462,4.3568587,3.6133323,3.0281663,2.9240675,2.9116807,2.910212,2.9201174,3.0171785,3.3058996,3.7180943,4.053266,4.1892104,4.17337,4.0783744,3.7175608,3.1193633,2.7111244,2.5755022,2.55391,2.5463018,2.5431585,2.5493267,2.5823917,2.6204994,2.6434784,2.6509342,2.650066,2.6443572,2.6359076,2.6266181,2.6155717,2.605575,2.5973883,2.5908933,2.586227,2.582575,2.5782762,2.5741572,2.5708761,2.5699272,2.5716853,2.5756974,2.5805168,2.584333,2.585935,2.5850198,2.5828621,2.5813775,2.5817013,2.584352,2.58814,2.590701,2.590265,2.5865297,2.5802174,2.5722098,2.5635505,2.5564165,2.551731,2.549129,2.5482426,2.548381,2.5491173,2.5498505,2.5505016,2.5509577,2.5511081,2.5509453,2.550661,2.5506058,2.5506887,2.5512795,2.5514336,2.5507793,2.5494816,2.5478227,2.5459816,2.543993,2.5416884,2.539072,2.5362828,2.5338504,2.5320158,2.5306466,2.5295825,2.528743,2.5279214,2.5271354,2.52618,2.5250428,2.5236027,2.521978,2.5206413,2.5197926,2.5194573,2.5195436,2.5197108,2.5196023,2.519072,2.5181425,2.5169797,2.5158916,2.5149307,2.5142655,2.5138612,2.5138555,2.5144315,2.5159144,2.518227,2.5203736,2.5222049,2.523817,2.5251617,2.5262668,2.5271358,2.5279188,2.5287197,2.5293517,2.5303419,2.5316434,2.532718
7.536013,7.5649137,7.5980773,7.6393948,7.682312,7.715065,7.730937,7.7317276,7.723117,7.7110424,7.6977367,7.6743517,7.6272,7.575365,7.527193,7.4840555,7.462673,7.439911,7.425188,7.408835,7.3677864,7.2983108,7.2050533,7.074827,6.9038467,6.7588806,6.4942684,6.2729645,6.126211,6.0413384,5.9915333,5.9623847,5.959977,5.9861426,6.081065,6.2515054,6.4876013,6.7251973,6.9073486,7.002659,7.002782,6.961629,6.880829,6.76001,6.5859513,6.309312,5.9957542,5.7309113,5.49634,5.3161526,5.1792383,5.095572,5.0529337,5.032076,5.022336,5.0222154,5.0314116,5.047464,5.069397,5.094731,5.121734,5.1470776,5.16933,5.1891294,5.2068067,5.2224956,5.2378407,5.255974,5.2810526,5.3138905,5.3540993,5.401269,5.4540405,5.5098305,5.5657835,5.618738,5.6647015,5.6959696,5.7193937,5.7453575,5.772941,5.8009334,5.828452,5.847971,5.869758,5.8946533,5.929903,5.979242,6.0375104,6.109826,6.1958766,6.321416,6.4655423,6.600424,6.7438774,6.9155407,7.082407,7.1978564,7.2912035,7.37462,7.447589,7.497564,7.521595,7.526861,7.520503,7.510002,7.50177,7.4971547,7.4965243,7.500486,7.5077724,7.5106955,7.4983034,7.467929,7.4328485,7.396616,7.357355,7.3140016,7.259363,7.1946673,7.1341877,7.087311,7.0535865,7.0213776,6.987006,6.95183,6.9163837,6.88204,6.8520756,6.82679,6.8002176,6.7725425,6.744849,6.7191358,6.691517,6.6566696,6.615362,6.5726824,6.5271387,6.4813223,6.432804,6.3797503,6.3012295,6.2187977,6.1793194,6.1722546,6.1751127,6.191963,6.196865,6.172264,6.1243887,6.062722,5.985529,5.891513,5.784912,5.6635895,5.5199394,5.3894415,5.290372,5.2195864,5.1678686,5.1250806,5.0940084,5.0739384,5.056056,5.0351744,5.0190344,5.0135317,5.01306,5.0101166,5.004067,4.993673,4.9741435,4.948561,4.91765,4.8859773,4.8564973,4.8247557,4.7997217,4.7772865,4.741985,4.3601255,3.6127567,3.034394,2.9331489,2.9222636,2.9213352,2.9295506,3.018459,3.3013248,3.714982,4.056678,4.199463,4.1877174,4.093354,3.7431502,3.1596432,2.7458057,2.5993533,2.5754323,2.5670383,2.5628529,2.5716367,2.6061172,2.6443233,2.666738,2.6724246,2.6695597,2.66297,2.6539268,2.643898,2.6319957,2.6210299,2.6116226,2.6035213,2.597129,2.59201,2.5865703,2.5816498,2.5777497,2.5760853,2.5767646,2.5792859,2.5822105,2.583956,2.5838428,2.5818934,2.5793047,2.5780501,2.5792692,2.5833054,2.5887184,2.5930295,2.5943313,2.5918145,2.5863962,2.578702,2.569599,2.5614944,2.5556488,2.551975,2.550299,2.5499103,2.5503764,2.5510526,2.5518103,2.5524743,2.552844,2.552855,2.5527124,2.5527813,2.5529494,2.5535705,2.5536132,2.5526967,2.5510507,2.5490608,2.5469823,2.544837,2.5424418,2.5398202,2.537118,2.5348554,2.5332234,2.5320244,2.5310707,2.5302997,2.5295248,2.5288157,2.5279555,2.5269084,2.5255275,2.5239367,2.522633,2.5218105,2.5214868,2.521527,2.5215583,2.5212488,2.5204704,2.5192652,2.5178168,2.5164063,2.5150747,2.5140433,2.5132654,2.5129042,2.5131793,2.5144439,2.5166435,2.5187955,2.520745,2.5225496,2.524128,2.5254903,2.5266309,2.5277092,2.5288303,2.5297651,2.5310364,2.5326264,2.5340786
7.586397,7.613453,7.649375,7.68736,7.732518,7.7767553,7.805805,7.816036,7.8147182,7.8068895,7.792336,7.768859,7.720701,7.664624,7.610073,7.564584,7.5471945,7.5165367,7.517148,7.5099516,7.484299,7.4344106,7.359285,7.2530417,7.1103625,6.959304,6.709505,6.500145,6.3756022,6.3314676,6.3284225,6.338394,6.3772254,6.4704137,6.6109877,6.857463,7.1180434,7.302847,7.3833494,7.3991213,7.402372,7.377453,7.3199534,7.225808,7.0907893,6.8789988,6.600002,6.2699986,5.905286,5.647107,5.4264536,5.2690134,5.185585,5.14763,5.1288767,5.1236877,5.130573,5.143997,5.161784,5.1833477,5.2082515,5.233305,5.256251,5.277033,5.295858,5.312611,5.328843,5.34536,5.3673286,5.3980513,5.4370713,5.4823675,5.531973,5.582896,5.633858,5.683317,5.7272844,5.761099,5.7874,5.8125963,5.839634,5.868971,5.8977056,5.927961,5.957391,5.9852023,6.0203247,6.0696726,6.1315184,6.206932,6.2930937,6.425107,6.5695405,6.709276,6.8640275,7.0423956,7.2069397,7.3168097,7.411111,7.5007863,7.5677786,7.611997,7.6348963,7.638111,7.628293,7.611599,7.5982466,7.5897865,7.5862274,7.587024,7.5888557,7.5851026,7.5684357,7.536665,7.502493,7.4643245,7.42713,7.3848524,7.3325834,7.272182,7.2112045,7.1597204,7.120468,7.0827847,7.045573,7.0091963,6.973391,6.939555,6.909152,6.879877,6.851668,6.8226595,6.7945876,6.768363,6.740322,6.705676,6.664617,6.6219225,6.577552,6.5327616,6.4897394,6.4400187,6.3688693,6.298918,6.263462,6.2486854,6.25539,6.275497,6.2779493,6.2543344,6.2093716,6.146699,6.0703497,5.9866743,5.878625,5.753559,5.5932646,5.4452186,5.3332987,5.2520323,5.19188,5.144414,5.1116447,5.0848713,5.0734887,5.057626,5.0411596,5.035488,5.0361786,5.0346503,5.0299225,5.0200205,5.0010896,4.9717355,4.9392843,4.908736,4.876859,4.8423476,4.8160954,4.7901654,4.7522006,4.3600407,3.6119478,3.0420651,2.9424248,2.9324336,2.9322448,2.9388576,3.019028,3.2939236,3.7056878,4.052289,4.20273,4.194852,4.101525,3.7639804,3.197632,2.78124,2.6246514,2.5972376,2.5878358,2.582334,2.5917282,2.6280122,2.665992,2.6873767,2.6919937,2.6877031,2.6796803,2.670121,2.659501,2.6468062,2.6348028,2.6240816,2.6145465,2.6069226,2.6009707,2.595025,2.5898364,2.5857954,2.5836554,2.5832665,2.584148,2.5850687,2.584794,2.5830827,2.5802796,2.577345,2.5761201,2.5777345,2.5824547,2.5887733,2.5942516,2.596944,2.5956645,2.591257,2.5840707,2.57478,2.5659416,2.559113,2.5545092,2.552155,2.5513082,2.551517,2.552119,2.5529418,2.5537534,2.5542762,2.554399,2.55434,2.554473,2.554666,2.5552578,2.5551412,2.5539267,2.5519028,2.5495543,2.5472102,2.5448833,2.5423872,2.5397663,2.5371766,2.5351207,2.5337343,2.5327597,2.5319834,2.5313587,2.5307152,2.530168,2.5295012,2.5286536,2.5274515,2.5260124,2.5248318,2.5240812,2.5237713,2.5237489,2.5236292,2.5231242,2.5221317,2.5206954,2.5189886,2.5172608,2.5155597,2.514131,2.5129337,2.5121593,2.5120516,2.5129876,2.5149522,2.5170012,2.5189662,2.5208697,2.5226102,2.5241747,2.5255451,2.5268917,2.5283167,2.529549,2.5311022,2.5329914,2.534824
7.636885,7.6636906,7.6974654,7.731312,7.779525,7.829075,7.8636074,7.882107,7.8863773,7.8829,7.8707175,7.8479996,7.802665,7.74416,7.6869783,7.6432915,7.6216726,7.6002274,7.616509,7.6168585,7.6186504,7.600888,7.540436,7.439874,7.31052,7.178232,6.9856486,6.7745485,6.680273,6.6798964,6.7207985,6.78331,6.8496256,6.989196,7.1525397,7.406829,7.6103144,7.6939173,7.713065,7.7238927,7.713351,7.6875463,7.635939,7.563734,7.464342,7.3255258,7.089478,6.7580724,6.4118757,6.0212584,5.7228327,5.481014,5.3361373,5.268903,5.2381463,5.2249775,5.2267,5.2373085,5.2535486,5.2728863,5.292551,5.3146043,5.338003,5.3597946,5.379996,5.3982544,5.415574,5.4333,5.451901,5.4783335,5.5147986,5.557887,5.604337,5.650212,5.6947813,5.740268,5.7802267,5.8126707,5.8428297,5.874588,5.905308,5.9328723,5.963216,5.99684,6.031054,6.0663667,6.107098,6.1572013,6.219819,6.2992887,6.389716,6.525339,6.6689844,6.8146896,6.9799166,7.155927,7.306776,7.4218035,7.517329,7.6008573,7.6652503,7.7076974,7.728364,7.730623,7.7201557,7.702243,7.6845055,7.6729593,7.66714,7.6657104,7.6619577,7.652174,7.6351953,7.60456,7.5722075,7.5343046,7.4955,7.451168,7.4006243,7.3430605,7.2803907,7.2272396,7.1845617,7.142833,7.102868,7.0651093,7.030083,6.996116,6.9619293,6.9307594,6.901373,6.8712583,6.8421316,6.8151784,6.7868776,6.752594,6.712117,6.6692553,6.6258497,6.582298,6.5438027,6.4964194,6.432794,6.3750134,6.3437386,6.3269205,6.3387995,6.355487,6.352889,6.331528,6.2931113,6.233912,6.1569004,6.0727825,5.973179,5.842786,5.671891,5.506179,5.3779793,5.284156,5.2120895,5.1606016,5.126489,5.0986223,5.0848284,5.0759754,5.0651264,5.0581656,5.0588713,5.0576754,5.054446,5.0449924,5.024792,4.992097,4.95898,4.928832,4.8946476,4.8593264,4.83101,4.8003125,4.7596226,4.358482,3.6121364,3.0518944,2.9526072,2.94283,2.9430847,2.9483852,3.0195704,3.284266,3.6895788,4.0393696,4.200428,4.1974,4.105504,3.7815905,3.2296233,2.813476,2.6493545,2.6177747,2.6075668,2.6006207,2.6101809,2.6469927,2.6841922,2.7043984,2.707901,2.7026086,2.6938236,2.6837344,2.6725483,2.6591647,2.646278,2.6344824,2.6240134,2.6159072,2.6098776,2.6039991,2.5989246,2.5952344,2.592951,2.5916862,2.5910425,2.5901766,2.588281,2.5853553,2.5818486,2.578517,2.57685,2.5779505,2.5822997,2.5885458,2.594355,2.597848,2.5975714,2.5940878,2.587437,2.5781212,2.568787,2.5612378,2.5559309,2.5530276,2.5517905,2.5517879,2.552319,2.553172,2.5540674,2.5546703,2.5548363,2.554791,2.5549226,2.5550885,2.5556095,2.555321,2.5538232,2.5514464,2.5487564,2.5461526,2.543641,2.5410423,2.538425,2.535962,2.5341277,2.533006,2.5322855,2.531728,2.5313122,2.5308619,2.5305395,2.5301394,2.5295756,2.5286474,2.5274572,2.5264764,2.5258374,2.5255523,2.5254726,2.5252275,2.524589,2.5234818,2.5219278,2.5200567,2.5180836,2.5160704,2.514264,2.5126457,2.5114388,2.5108972,2.511417,2.5130324,2.5148458,2.5166855,2.5185375,2.5203118,2.5219707,2.5234814,2.5250244,2.5266962,2.5281863,2.5300026,2.5321856,2.5344062
7.6880436,7.7139616,7.7474403,7.7884283,7.8317504,7.8788757,7.919603,7.9414396,7.9507523,7.951379,7.9422274,7.9218082,7.880846,7.8276277,7.7706966,7.72389,7.7076654,7.700444,7.6978645,7.7359514,7.7866096,7.809062,7.768051,7.6677804,7.549815,7.4178743,7.255797,7.1176214,7.0730925,7.1086802,7.188986,7.292156,7.3959074,7.506884,7.685892,7.851658,7.9285545,7.953993,7.9719877,7.9761505,7.9602203,7.9351573,7.8982778,7.845565,7.754588,7.6372495,7.476389,7.2254505,6.876812,6.4799013,6.0855484,5.756283,5.530961,5.410731,5.3573217,5.3324394,5.325797,5.3312306,5.343851,5.3605804,5.3793716,5.397299,5.416766,5.4394965,5.461569,5.4820533,5.501402,5.5206623,5.5408883,5.563639,5.59501,5.6362505,5.680217,5.7243347,5.7660847,5.8063807,5.8395762,5.868467,5.898313,5.930703,5.9642515,5.9978414,6.0321364,6.0701857,6.110861,6.1511683,6.1949525,6.248369,6.3139753,6.3946056,6.4952536,6.635183,6.777574,6.9268036,7.1023006,7.2742767,7.4007072,7.515072,7.6110544,7.6872888,7.747968,7.785482,7.801509,7.8045077,7.797105,7.7806244,7.7628007,7.749652,7.7426486,7.736871,7.727936,7.715554,7.69764,7.6680737,7.6365614,7.6001434,7.5601006,7.51445,7.4641333,7.407528,7.3453245,7.2908783,7.2456923,7.2021723,7.159995,7.1223993,7.085782,7.047768,7.012026,6.9796405,6.9490976,6.9179955,6.8874793,6.8596406,6.8311195,6.7970724,6.757394,6.7155414,6.6724367,6.630209,6.5936365,6.549796,6.492197,6.439085,6.4110246,6.4036474,6.4161944,6.4289436,6.4283895,6.4096427,6.3719687,6.31615,6.244151,6.1598177,6.0705333,5.9361515,5.758447,5.5721493,5.4239035,5.3166227,5.230419,5.1747694,5.1392,5.1120996,5.09315,5.089507,5.087308,5.082123,5.081931,5.0804777,5.078092,5.069099,5.0457025,5.011251,4.9759007,4.943818,4.910882,4.875289,4.844056,4.808894,4.765581,4.359218,3.6170917,3.0649638,2.96421,2.9539165,2.954342,2.9585752,3.0225236,3.2725096,3.6663632,4.0207787,4.1968813,4.199952,4.1080294,3.798543,3.2603421,2.84446,2.6732411,2.6376462,2.6268535,2.6185775,2.627586,2.6639767,2.6998734,2.7186046,2.7207077,2.714576,2.7055297,2.694851,2.6832142,2.6693933,2.6559443,2.6437662,2.6329997,2.624582,2.618456,2.613048,2.6091778,2.6061506,2.6039834,2.6021776,2.6004639,2.5983865,2.5954876,2.5918534,2.5879045,2.5841782,2.5820057,2.58184,2.5846353,2.5896585,2.5948033,2.5982885,2.5985155,2.5955982,2.5892956,2.5799356,2.5703354,2.5625534,2.556898,2.5532563,2.5513144,2.5511537,2.5516267,2.5524888,2.553432,2.5540752,2.5542505,2.5541902,2.5542922,2.5544055,2.55485,2.5544147,2.5526915,2.5500364,2.5470724,2.5442507,2.54158,2.5388951,2.5362844,2.5339408,2.5323086,2.5314274,2.5309467,2.5306172,2.5304413,2.5302253,2.5301666,2.530079,2.5298455,2.5292401,2.5283473,2.5275986,2.527085,2.526835,2.5267136,2.526391,2.525704,2.524603,2.5230742,2.521181,2.5190897,2.516883,2.5147786,2.512793,2.5111885,2.5102224,2.5102973,2.511498,2.5129778,2.5145712,2.5162344,2.5179234,2.5195746,2.5211263,2.5227613,2.5245748,2.5262234,2.5282347,2.530663,2.5332355
7.7420816,7.7682624,7.801998,7.844734,7.889699,7.9359474,7.977683,8.00518,8.018373,8.023085,8.017925,8.001207,7.967246,7.9247885,7.869458,7.81174,7.7918253,7.7907095,7.8209705,7.8795824,7.968231,8.018533,7.9907904,7.9073205,7.801013,7.721586,7.619549,7.525772,7.512535,7.5611296,7.627369,7.7049694,7.804895,7.9329586,8.077897,8.128588,8.145071,8.166528,8.180309,8.172372,8.152963,8.128605,8.097585,8.056192,7.9901114,7.8908525,7.7612753,7.587621,7.3331976,6.985525,6.5380816,6.140073,5.8091264,5.596647,5.498912,5.4566393,5.437442,5.4342413,5.4408765,5.4534616,5.4696913,5.4863744,5.5029373,5.5222626,5.5455904,5.5682125,5.5898776,5.611346,5.633275,5.6573267,5.6866174,5.7248096,5.769596,5.8086257,5.8428106,5.8757434,5.907373,5.937362,5.968231,6.001939,6.0372114,6.0733495,6.110651,6.152132,6.198373,6.241325,6.2870407,6.344603,6.415474,6.50808,6.617377,6.7651606,6.905554,7.0632305,7.232263,7.3785486,7.4991117,7.6060314,7.6962156,7.764871,7.8178797,7.8488708,7.861381,7.863845,7.8576717,7.845378,7.830987,7.8193016,7.810811,7.801819,7.788907,7.7715235,7.750556,7.726104,7.6959925,7.660575,7.619314,7.573231,7.5233936,7.4677925,7.407944,7.354875,7.3086863,7.2640495,7.2207108,7.178709,7.1377535,7.0981846,7.0612087,7.027519,6.995607,6.963485,6.9315243,6.902627,6.8736954,6.8396196,6.8004313,6.759819,6.717937,6.6771574,6.6419544,6.601264,6.546774,6.49693,6.4744987,6.472695,6.4907236,6.503005,6.5047407,6.4889555,6.452858,6.398129,6.3282776,6.246863,6.1551104,6.0253453,5.847456,5.6409554,5.468786,5.3461256,5.248125,5.187639,5.148924,5.1220427,5.1045876,5.096703,5.1008425,5.1068707,5.104621,5.102333,5.1003494,5.0915537,5.065072,5.0282826,4.991535,4.958363,4.925549,4.8895397,4.8521156,4.8178215,4.7688675,4.363985,3.630681,3.0823903,2.9778728,2.96599,2.9663134,2.969958,3.0263445,3.26318,3.642372,3.9946077,4.1857157,4.202154,4.1123705,3.819128,3.2952082,2.8770576,2.6966014,2.656999,2.6459465,2.6362681,2.6443236,2.679852,2.7139773,2.730719,2.731463,2.7246222,2.7150235,2.7038012,2.6919012,2.6779997,2.6645322,2.6524417,2.6416173,2.6334891,2.628499,2.6244998,2.6217747,2.6196795,2.6179156,2.6159992,2.613831,2.6113315,2.6082973,2.6046944,2.600718,2.5964336,2.5926795,2.5907118,2.591321,2.593964,2.5972724,2.5997958,2.5999327,2.5971107,2.5908697,2.5812373,2.571793,2.5641441,2.5580568,2.5540853,2.5515957,2.5503864,2.5506573,2.55157,2.5525608,2.5532522,2.553465,2.5534167,2.5535114,2.5535936,2.5540018,2.5534863,2.5516286,2.5487938,2.545637,2.5426526,2.539856,2.5371013,2.5344968,2.5322604,2.5308025,2.5301251,2.5298562,2.5297399,2.5297966,2.5298252,2.530047,2.5302958,2.530406,2.53013,2.5295348,2.5290008,2.5285769,2.5283234,2.528136,2.5277529,2.5270863,2.5261354,2.5248294,2.5231085,2.52108,2.5188403,2.516584,2.514349,2.5124416,2.5111122,2.5107532,2.5114937,2.5125635,2.513812,2.5151763,2.5166712,2.5182114,2.5197017,2.5213118,2.5231385,2.5248384,2.5269516,2.5295625,2.5324473
7.798609,7.8253994,7.859545,7.9075336,7.9545126,8.0016575,8.045238,8.073898,8.090248,8.099058,8.099379,8.088528,8.061997,8.027653,7.9824257,7.9301515,7.902772,7.9126635,7.9629307,8.0418,8.142537,8.1879425,8.162076,8.104244,8.0207815,7.9594884,7.903127,7.8640695,7.862571,7.899661,7.9655104,8.052167,8.159101,8.293457,8.328353,8.331339,8.335766,8.347067,8.348854,8.332281,8.307602,8.281497,8.254814,8.222395,8.174427,8.098677,7.990265,7.852722,7.6789618,7.434733,7.0675097,6.6053715,6.203225,5.8919477,5.690357,5.602907,5.5648527,5.550426,5.5480666,5.5546503,5.567193,5.581917,5.597512,5.615225,5.636215,5.66006,5.683556,5.7075605,5.73286,5.759304,5.7853804,5.8147926,5.8519745,5.8878803,5.9199805,5.951253,5.9828577,6.0150623,6.0482383,6.083249,6.1204653,6.1590123,6.1988297,6.2490444,6.2990103,6.346077,6.3950653,6.456178,6.5385513,6.6407886,6.765039,6.9049554,7.0528617,7.2018814,7.342449,7.4749846,7.600237,7.6965175,7.7759123,7.8367157,7.88055,7.9052057,7.9153085,7.916976,7.911398,7.9014044,7.890528,7.8808494,7.8726077,7.861478,7.8452244,7.823745,7.798531,7.773986,7.747711,7.7159414,7.6751294,7.629632,7.579918,7.52513,7.469504,7.418568,7.3730617,7.326362,7.2787266,7.2329807,7.1899796,7.1486473,7.109453,7.0748,7.0426188,7.0093503,6.9759836,6.945923,6.9162893,6.881999,6.843195,6.803688,6.7629347,6.7235193,6.6898623,6.649565,6.596648,6.552125,6.5369797,6.540474,6.5612316,6.578376,6.577219,6.563917,6.5347157,6.4834805,6.415042,6.335766,6.2411947,6.120503,5.9338007,5.709182,5.516986,5.377533,5.270155,5.202923,5.1607614,5.132351,5.116171,5.1078844,5.110506,5.121674,5.128462,5.1240053,5.122142,5.11246,5.0841136,5.0445375,5.004279,4.9711475,4.9419775,4.9042606,4.860825,4.8295336,4.769449,4.370031,3.649387,3.1021683,2.9925685,2.9781604,2.9784346,2.9815521,3.0265574,3.2513967,3.6212883,3.9701362,4.169611,4.2020254,4.119419,3.8425627,3.3345768,2.9107485,2.718626,2.675825,2.6642628,2.6532972,2.6610174,2.6953688,2.7273083,2.7414947,2.740869,2.7332077,2.7223492,2.7105572,2.6985216,2.6848876,2.6719346,2.6603289,2.6503158,2.6433694,2.6396563,2.6370053,2.6354744,2.634362,2.6331024,2.6313133,2.6290917,2.626689,2.624075,2.6209807,2.6172724,2.612614,2.6073978,2.6030867,2.6007266,2.6003418,2.6012812,2.6024313,2.6020284,2.5990348,2.5926628,2.5833774,2.5740879,2.5661435,2.5597186,2.5554907,2.5527186,2.551196,2.5504575,2.55094,2.5519238,2.552617,2.5528278,2.5527618,2.5528278,2.5528677,2.5532475,2.5527008,2.550799,2.5478992,2.544662,2.5416021,2.5387459,2.5359669,2.5333939,2.5312672,2.529951,2.5294154,2.5292826,2.5292978,2.529507,2.5297031,2.5301166,2.53061,2.530973,2.5309396,2.5305705,2.5301871,2.529794,2.529492,2.5292077,2.528771,2.5281804,2.5274928,2.5265696,2.5251875,2.523378,2.5212488,2.51896,2.516574,2.5144336,2.5127883,2.512011,2.5122743,2.5129046,2.5137687,2.5148053,2.5160918,2.517521,2.5189404,2.5204835,2.5222425,2.5238993,2.5260186,2.5287285,2.5318496
