32.90484,33.404335,33.845123,34.38619,34.954247,35.42069,35.85502,36.233814,36.503864,36.767067,37.026154,37.20459,37.31913,37.40132,37.435673,37.452583,37.462223,37.45211,37.430748,37.41871,37.41011,37.39686,37.366455,37.312897,37.198257,36.98758,36.747787,36.609604,36.602627,36.70801,36.84275,36.843193,37.0028,34.05539,28.401684,21.674652,17.64143,17.384338,17.264305,17.16992,17.110338,17.07708,17.113008,17.14418,17.114155,17.04557,16.964127,16.917122,16.901545,16.929615,16.993187,17.058708,17.12875,17.179075,17.203259,17.21449,17.212938,17.208439,17.203701,17.201984,17.20472,17.208866,17.214943,17.22054,17.224197,17.228138,17.232018,17.235497,17.240084,17.245892,17.251734,17.259241,17.268953,17.27848,17.28777,17.299358,17.311169,17.321756,17.33502,17.348783,17.35991,17.371517,17.383337,17.392925,17.401823,17.411669,17.420135,17.427063,17.435097,17.44194,17.446617,17.451683,17.455933,17.458796,17.462187,17.465668,17.468342,17.470657,17.473373,17.47602,17.47843,17.481506,17.48568,17.49047,17.498238,17.508797,17.518871,17.530584,17.544102,17.556023,17.56746,17.582184,17.595625,17.606033,17.61282,17.607918,17.593994,17.566051,17.531078,17.506176,17.492722,17.507824,17.550148,17.609383,17.689138,17.755432,17.795073,17.811459,17.811497,17.817085,17.780437,17.83382,18.037971,18.35627,19.557537,21.165787,22.35485,23.111925,23.321186,23.474562,23.5239,23.451283,23.3526,23.274021,23.227163,23.218134,23.235147,23.285755,23.3403,23.374035,23.39582,23.391102,23.367676,23.33348,23.299095,23.276718,23.258167,23.243826,23.23381,23.224663,23.214293,23.204546,23.195679,23.185507,23.175377,23.166018,23.153488,23.13853,23.124691,23.107693,23.088,23.070782,23.053482,23.033499,23.016003,23.001404,22.985771,22.974472,22.968475,22.964912,22.96645,22.970478,22.972618,22.964077,22.942745,22.909615,22.852287,22.79385,22.750074,22.729809,22.758926,22.817678,22.922674,23.030815,23.084164,23.067617,22.967352,22.84341,22.710398,22.734762,23.042763,23.436031,24.714275,27.574478,31.275646,33.543133,34.167545,33.915985,33.859062,33.893803,33.960354,33.88591,33.646103,33.419693,33.38506,33.405876,33.44934,33.461483,33.46808,33.457817,33.438847,33.427185,33.429337,33.445007,33.463917,33.48948,33.51474,33.535446,33.561417,33.587765,33.608204,33.621788,33.62558,33.62191,33.61421,33.600487,33.586613,33.57643,33.565243,33.55512,33.54669,33.53673,33.526733,33.51879,33.51242,33.508644,33.507713,33.508522,33.510918,33.514755,33.52009,33.528263,33.537838,33.546494,33.556293,33.56778,33.578857,33.589523,33.599308,33.60589,33.610336,33.614845,33.618393,33.62066,33.622684,33.619774,33.61166,33.595345,33.570724,33.546265,33.517212,33.480774,33.447453,33.417217,33.38845,33.378517,33.38694,33.426666,33.498344,33.573685,33.681015,33.796104,33.87848,33.945988,34.007492,34.045692,34.06671,33.993984,33.8535,33.722935,33.684013,33.69667,33.674255,33.69326,33.76361,33.22548,28.75481,23.540922,20.679817,19.70285,19.190811,19.024044,18.965328,18.93082,18.86774,18.74923,18.562416,18.301968
32.907364,33.39839,33.827187,34.351875,34.87759,35.282085,35.648808,35.96021,36.17679,36.374,36.55234,36.660385,36.71936,36.745537,36.73759,36.724827,36.71962,36.707977,36.68663,36.67074,36.66012,36.647705,36.612198,36.56494,36.48137,36.332874,36.109314,35.959686,35.96454,36.03359,36.120857,36.106567,36.284534,33.414562,27.911808,21.51278,17.671776,17.406483,17.28246,17.178246,17.111893,17.080421,17.124512,17.158207,17.12063,17.047737,16.963474,16.915318,16.8989,16.926556,16.98981,17.05452,17.123827,17.174038,17.1987,17.210842,17.210459,17.20683,17.20261,17.201101,17.203793,17.20783,17.213783,17.219309,17.222961,17.226765,17.230282,17.23328,17.237137,17.241898,17.246693,17.253033,17.261406,17.269821,17.27819,17.289038,17.30065,17.311436,17.325188,17.339725,17.351624,17.36441,17.37756,17.388065,17.397564,17.407341,17.415245,17.42181,17.429195,17.435078,17.43869,17.442455,17.445328,17.447052,17.449265,17.451828,17.454172,17.456554,17.45982,17.463379,17.466938,17.470509,17.474382,17.478722,17.486376,17.496876,17.506714,17.518055,17.531214,17.542912,17.554108,17.568516,17.581753,17.592104,17.599438,17.595715,17.583061,17.55658,17.522736,17.498068,17.482746,17.495537,17.537132,17.597357,17.6808,17.75139,17.793377,17.812563,17.812096,17.813198,17.781536,17.82629,18.002869,18.291344,19.420938,20.967999,22.190952,23.00127,23.241304,23.389795,23.451996,23.392208,23.290112,23.213512,23.17096,23.166054,23.1888,23.245735,23.305061,23.342651,23.367561,23.36816,23.35453,23.330727,23.305424,23.289555,23.277351,23.267994,23.260775,23.25384,23.245052,23.235779,23.226618,23.214886,23.20195,23.189522,23.173244,23.154663,23.138212,23.118729,23.096886,23.078148,23.059465,23.03786,23.018784,23.002724,22.985067,22.971489,22.963417,22.95726,22.955986,22.957708,22.957684,22.947777,22.92618,22.893278,22.836359,22.777372,22.731792,22.706287,22.727558,22.77893,22.876335,22.981926,23.039207,23.033426,22.951965,22.844328,22.719683,22.735962,23.01725,23.383282,24.611921,27.211567,30.442327,32.83496,33.691223,33.393044,33.34227,33.407627,33.48171,33.300343,33.019836,32.823364,32.79207,32.80661,32.839363,32.845573,32.84555,32.832096,32.81347,32.798668,32.79683,32.810234,32.829254,32.85501,32.880028,32.90024,32.92514,32.949715,32.96826,32.979805,32.981728,32.97675,32.96771,32.952267,32.936478,32.924118,32.910397,32.898357,32.88886,32.878258,32.868416,32.861088,32.855724,32.853683,32.854797,32.85804,32.863914,32.87137,32.879955,32.89209,32.905525,32.91741,32.931297,32.94687,32.960995,32.975246,32.989365,33.000046,33.00851,33.018093,33.02688,33.03409,33.043365,33.048058,33.0457,33.037525,33.022705,33.00702,32.987823,32.962395,32.938026,32.9151,32.892963,32.88567,32.892822,32.92552,32.994835,33.07902,33.171867,33.27236,33.35675,33.428726,33.491547,33.530422,33.56411,33.51478,33.389908,33.254124,33.20468,33.209244,33.186512,33.196526,33.22885,32.666107,28.362587,23.37693,20.654436,19.705816,19.212421,19.051558,18.975964,18.934116,18.867817,18.742523,18.553413,18.298649
32.917007,33.39073,33.799767,34.299965,34.78289,35.133087,35.43936,35.687687,35.853275,35.99529,36.10987,36.16456,36.182705,36.168846,36.132645,36.10245,36.077576,36.060463,36.049843,36.049416,36.046997,36.029015,35.97999,35.92053,35.85399,35.773785,35.56524,35.39801,35.411972,35.429512,35.473896,35.47489,35.66751,32.943085,27.666061,21.45624,17.698112,17.411205,17.290886,17.181812,17.112442,17.08892,17.136456,17.167896,17.125252,17.049114,16.962528,16.913153,16.895794,16.922974,16.985739,17.049152,17.117435,17.167358,17.192265,17.204918,17.205296,17.202269,17.1982,17.196499,17.198849,17.202553,17.208166,17.213455,17.216972,17.22057,17.223711,17.226242,17.229408,17.23324,17.23714,17.242508,17.249794,17.257343,17.264988,17.275505,17.287388,17.298767,17.312267,17.325703,17.336483,17.349861,17.364565,17.376402,17.38723,17.397041,17.403877,17.409815,17.416653,17.422098,17.425304,17.428192,17.429932,17.430733,17.432014,17.433933,17.43607,17.438396,17.441803,17.445738,17.44965,17.455761,17.462849,17.468857,17.477749,17.488384,17.497541,17.507393,17.519276,17.530643,17.54175,17.556053,17.56918,17.579388,17.587746,17.585825,17.57465,17.549473,17.516281,17.491535,17.475273,17.486898,17.528292,17.590067,17.675175,17.747192,17.790968,17.81234,17.811783,17.809982,17.781914,17.816574,17.968443,18.24601,19.329132,20.823565,22.054161,22.897839,23.165968,23.312141,23.388527,23.341467,23.235416,23.160519,23.122202,23.121365,23.14928,23.211502,23.274612,23.315395,23.343811,23.347998,23.337807,23.32224,23.304958,23.292255,23.282614,23.276516,23.273132,23.26955,23.263878,23.256897,23.249966,23.240713,23.227863,23.212357,23.192429,23.17059,23.152185,23.130745,23.10711,23.08702,23.067028,23.043785,23.023037,23.00542,22.985687,22.969896,22.959904,22.951439,22.94778,22.947605,22.945839,22.935015,22.913565,22.881298,22.825455,22.766792,22.720392,22.691036,22.705612,22.750134,22.839645,22.940796,22.999292,23.001106,22.933802,22.8394,22.724873,22.740639,23.005043,23.351917,24.510792,26.910742,29.850075,32.240753,33.207306,32.937546,32.89802,32.958427,33.00859,32.75768,32.469696,32.3094,32.27289,32.282295,32.31122,32.31519,32.310944,32.292377,32.27034,32.256035,32.25568,32.269676,32.288513,32.313828,32.33824,32.357803,32.38165,32.40473,32.421745,32.431717,32.432137,32.42603,32.415817,32.398884,32.38147,32.367294,32.35131,32.33731,32.326492,32.314575,32.303825,32.29606,32.29046,32.288544,32.2901,32.29412,32.301342,32.31034,32.32037,32.33432,32.34966,32.36322,32.37943,32.39749,32.4136,32.430107,32.446846,32.459938,32.470802,32.483376,32.49517,32.505203,32.518158,32.528,32.531704,32.53206,32.527275,32.520115,32.510063,32.493385,32.47509,32.4573,32.43937,32.43386,32.44137,32.471336,32.536804,32.61903,32.717873,32.814148,32.88029,32.937553,32.992012,33.037155,33.094887,33.089737,32.996685,32.858044,32.78517,32.767418,32.74394,32.761745,32.76084,32.158363,28.036884,23.262869,20.640146,19.720299,19.235338,19.071943,18.994846,18.940903,18.864021,18.7398,18.550041,18.300858
32.92624,33.37054,33.744072,34.199104,34.619766,34.90332,35.13981,35.31713,35.42565,35.5091,35.55954,35.56334,35.543945,35.49472,35.43467,35.39003,35.34989,35.324627,35.3143,35.318237,35.32022,35.302467,35.24842,35.186863,35.14196,35.126083,34.93251,34.748573,34.769035,34.72063,34.712982,34.73734,34.964996,32.463665,27.49089,21.435215,17.72371,17.408428,17.295055,17.182434,17.112179,17.102032,17.15018,17.17579,17.129253,17.050224,16.961733,16.911484,16.893446,16.919203,16.980034,17.041601,17.10828,17.157452,17.1823,17.195047,17.195866,17.193283,17.18897,17.186544,17.188087,17.191093,17.196007,17.20082,17.204067,17.20736,17.210075,17.212091,17.214521,17.217388,17.220379,17.224766,17.231106,17.238144,17.246033,17.255001,17.264273,17.273739,17.287252,17.30236,17.314785,17.330236,17.345383,17.355997,17.366753,17.37715,17.384571,17.390404,17.396662,17.401312,17.403923,17.40609,17.407177,17.407558,17.40838,17.409801,17.411533,17.413553,17.416763,17.42064,17.424475,17.43091,17.438833,17.44583,17.455597,17.468048,17.479843,17.492697,17.507202,17.519835,17.531425,17.545929,17.55922,17.569687,17.578554,17.578094,17.569212,17.545654,17.513596,17.489574,17.473043,17.483149,17.522919,17.584244,17.670284,17.742123,17.781893,17.80028,17.801338,17.805029,17.78254,17.806149,17.933357,18.202572,19.244038,20.686096,21.911034,22.77129,23.063395,23.221706,23.324476,23.293602,23.179657,23.105694,23.07154,23.074062,23.105614,23.171886,23.238455,23.282309,23.314709,23.323063,23.316471,23.306519,23.295444,23.28746,23.28224,23.280468,23.280792,23.281029,23.28,23.27635,23.270061,23.260868,23.248516,23.234589,23.216705,23.194605,23.173248,23.149483,23.123863,23.102314,23.080631,23.055132,23.032045,23.012236,22.98967,22.970982,22.95856,22.947289,22.940876,22.938633,22.935045,22.923502,22.902657,22.871714,22.818045,22.760809,22.71446,22.681604,22.688663,22.724766,22.803614,22.896854,22.95393,22.961798,22.90887,22.830618,22.7346,22.753145,23.00048,23.33425,24.42677,26.61159,29.226683,31.409252,32.437004,32.40044,32.471413,32.46541,32.36616,32.104362,31.846035,31.713835,31.669899,31.673319,31.698334,31.699554,31.692324,31.672554,31.651558,31.639744,31.641724,31.656437,31.67506,31.699625,31.722973,31.741465,31.763807,31.785004,31.80025,31.808565,31.807608,31.800562,31.78941,31.771317,31.752563,31.73676,31.718592,31.70245,31.689966,31.676151,31.663616,31.65449,31.647472,31.644192,31.644745,31.647976,31.654613,31.66333,31.673111,31.686897,31.70231,31.71611,31.733044,31.752197,31.769321,31.787266,31.805965,31.820992,31.833878,31.848942,31.863247,31.875751,31.891907,31.905893,31.914131,31.921124,31.924469,31.92453,31.922848,31.915718,31.905388,31.894688,31.881868,31.877487,31.884254,31.910233,31.969353,32.04584,32.144012,32.24434,32.31374,32.36213,32.403397,32.441357,32.48889,32.55314,32.539696,32.386948,32.281136,32.235733,32.209114,32.23891,32.189278,31.524958,27.661657,23.156467,20.628252,19.727695,19.251532,19.094494,19.020576,18.952625,18.861763,18.739792,18.55085,18.304749
32.91265,33.31449,33.643845,34.037796,34.387203,34.608925,34.78469,34.900455,34.958107,34.993332,34.994686,34.962505,34.918083,34.846905,34.773247,34.720436,34.673203,34.641773,34.62589,34.6251,34.626434,34.612137,34.56182,34.506004,34.47805,34.502632,34.321735,34.129173,34.150192,34.061974,34.021484,34.058113,34.318546,32.030716,27.345547,21.425528,17.751127,17.406242,17.29261,17.176641,17.109398,17.112762,17.160309,17.180256,17.132286,17.052288,16.963459,16.912952,16.894022,16.917488,16.975471,17.034836,17.099426,17.147297,17.171581,17.18412,17.18489,17.18206,17.176992,17.173336,17.17368,17.1757,17.179676,17.18391,17.186882,17.189968,17.192486,17.194225,17.196234,17.198538,17.201023,17.20505,17.210777,17.216743,17.222904,17.229843,17.237505,17.24582,17.259796,17.27715,17.291992,17.307816,17.322136,17.331995,17.34235,17.353458,17.362019,17.368044,17.373953,17.377972,17.380161,17.382027,17.383076,17.38359,17.384552,17.385996,17.38763,17.389595,17.392782,17.396622,17.400372,17.406025,17.41322,17.420311,17.430267,17.44387,17.4576,17.47317,17.490253,17.504292,17.51683,17.532219,17.546352,17.557724,17.567997,17.569452,17.562553,17.542809,17.514666,17.492672,17.47679,17.485641,17.523197,17.58283,17.66541,17.73288,17.768707,17.78366,17.785578,17.794212,17.778658,17.796387,17.905651,18.170858,19.178867,20.576527,21.796864,22.66529,22.974358,23.151188,23.288296,23.277573,23.153725,23.076765,23.042305,23.045355,23.0774,23.143435,23.209818,23.255203,23.290596,23.302582,23.299221,23.292364,23.284878,23.280872,23.279537,23.281021,23.283463,23.286074,23.288143,23.286995,23.281681,23.273098,23.262718,23.25299,23.238857,23.21899,23.198353,23.174961,23.14852,23.125332,23.101845,23.073917,23.048313,23.026081,23.000437,22.978683,22.963749,22.949642,22.940613,22.93652,22.931332,22.919376,22.89949,22.870312,22.819595,22.764782,22.719536,22.684572,22.685179,22.71326,22.780983,22.86437,22.91742,22.928036,22.886547,22.824005,22.749203,22.776825,23.016567,23.347824,24.390644,26.393902,28.731209,30.592802,31.608425,31.869602,32.038403,31.933773,31.67839,31.461082,31.252983,31.13467,31.087961,31.088886,31.112423,31.113195,31.106752,31.090914,31.075352,31.068151,31.073631,31.089703,31.108696,31.132942,31.155426,31.173,31.194057,31.213734,31.22763,31.234947,31.23347,31.226326,31.215164,31.197084,31.178112,31.161682,31.14242,31.124924,31.11118,31.095722,31.081293,31.070454,31.061398,31.055737,31.054167,31.05531,31.059593,31.0662,31.074074,31.085627,31.09909,31.11147,31.127106,31.145329,31.161896,31.179646,31.198622,31.214188,31.227772,31.243721,31.25898,31.272518,31.290031,31.305649,31.315525,31.325361,31.332605,31.336403,31.339407,31.338348,31.333616,31.327917,31.319397,31.316336,31.32206,31.343384,31.39389,31.46096,31.550308,31.650084,31.726086,31.774345,31.815369,31.85153,31.875565,31.984783,32.043594,31.90572,31.78093,31.708057,31.67841,31.721348,31.623688,30.898441,27.30431,23.067924,20.621357,19.729298,19.26153,19.114872,19.038265,18.960155,18.861307,18.74096,18.553497,18.30825
32.871857,33.228172,33.518524,33.853596,34.140877,34.31843,34.453148,34.526413,34.54695,34.54959,34.51994,34.466774,34.408638,34.326683,34.247417,34.19146,34.141678,34.108776,34.091938,34.088593,34.08809,34.07458,34.028503,33.975777,33.95398,33.99624,33.82717,33.63509,33.65091,33.564056,33.52005,33.54933,33.820473,31.664608,27.176926,21.400414,17.782204,17.411255,17.286507,17.166454,17.104645,17.116499,17.164734,17.18263,17.134937,17.055864,16.968044,16.917566,16.89723,16.918367,16.973915,17.031185,17.093708,17.140104,17.163551,17.175951,17.176437,17.172743,17.166723,17.161783,17.160934,17.161999,17.165106,17.168867,17.171688,17.174774,17.177387,17.179176,17.18118,17.183409,17.185818,17.190039,17.195274,17.19926,17.200937,17.206707,17.216663,17.227085,17.241714,17.258987,17.274082,17.287045,17.300385,17.312473,17.323488,17.334888,17.343504,17.349508,17.355349,17.359304,17.361479,17.363377,17.364594,17.365368,17.366678,17.368586,17.370668,17.373089,17.37677,17.381002,17.38506,17.391022,17.398329,17.405317,17.415142,17.427528,17.439163,17.452667,17.468388,17.482378,17.495779,17.512432,17.527838,17.540369,17.553429,17.557644,17.551737,17.537725,17.51591,17.496681,17.482025,17.490475,17.526573,17.58491,17.659956,17.7202,17.757723,17.773762,17.773972,17.778572,17.769323,17.787777,17.88675,18.15178,19.131485,20.49282,21.722126,22.605864,22.92848,23.116432,23.284704,23.295313,23.1633,23.079481,23.03952,23.040537,23.071001,23.13313,23.195463,23.240744,23.277485,23.2918,23.290836,23.286915,23.281971,23.279457,23.279402,23.281828,23.284836,23.287851,23.289875,23.289377,23.28696,23.282042,23.274818,23.267372,23.253239,23.235413,23.220383,23.200708,23.175129,23.150448,23.125586,23.095713,23.068033,23.043743,23.0155,22.991177,22.974148,22.957708,22.946598,22.941113,22.934704,22.922516,22.903551,22.875996,22.82806,22.775745,22.731972,22.696169,22.692364,22.714437,22.773226,22.847885,22.896442,22.90746,22.873692,22.823406,22.764645,22.805407,23.048817,23.383957,24.392578,26.27031,28.421055,30.039501,31.00244,31.422806,31.575966,31.400454,31.108452,30.938663,30.7679,30.657167,30.614574,30.617775,30.642975,30.646572,30.64399,30.633753,30.62381,30.621746,30.631401,30.649532,30.669575,30.694262,30.71655,30.733782,30.754238,30.77317,30.786469,30.793598,30.792492,30.786007,30.775673,30.758625,30.74041,30.72433,30.705162,30.68739,30.673206,30.65698,30.641392,30.62935,30.618702,30.610983,30.607454,30.60659,30.608398,30.61263,30.618364,30.62729,30.638298,30.648802,30.66241,30.67877,30.693958,30.710464,30.728422,30.743357,30.756458,30.771912,30.786755,30.799984,30.817085,30.832428,30.842278,30.852634,30.860994,30.865969,30.870289,30.87055,30.866783,30.86173,30.855495,30.854448,30.859913,30.877272,30.91917,30.976234,31.055338,31.141693,31.205614,31.256254,31.31464,31.367935,31.389626,31.493626,31.570044,31.490952,31.371223,31.275154,31.245052,31.299023,31.169554,30.405422,27.018171,22.993578,20.618145,19.732311,19.271336,19.12999,19.040775,18.95839,18.861004,18.740845,18.554192,18.30986
32.78383,33.08912,33.330215,33.595062,33.81546,33.95224,34.048195,34.08645,34.080074,34.05708,34.00009,33.925915,33.85308,33.7604,33.681355,33.63438,33.5838,33.545784,33.526855,33.521217,33.5191,33.505615,33.461952,33.412064,33.391014,33.426113,33.29922,33.137848,33.11637,33.01762,32.964752,32.980614,33.260033,31.243534,26.971184,21.37236,17.82305,17.416344,17.27855,17.153814,17.097952,17.118645,17.168488,17.185635,17.139397,17.063223,16.977158,16.925991,16.904144,16.922586,16.975163,17.029938,17.089943,17.134468,17.156778,17.168842,17.168823,17.163986,17.156706,17.150112,17.147749,17.147614,17.14962,17.152786,17.155415,17.158518,17.16152,17.163887,17.16672,17.16958,17.171593,17.172497,17.173754,17.176327,17.180325,17.187954,17.198685,17.209858,17.225454,17.241276,17.252563,17.26534,17.279716,17.292212,17.303497,17.315079,17.32374,17.329678,17.335402,17.339315,17.34157,17.343714,17.345419,17.346752,17.348745,17.35143,17.35415,17.357151,17.361406,17.366018,17.370312,17.376387,17.383596,17.390383,17.399887,17.411713,17.42271,17.435633,17.450977,17.464924,17.4785,17.49543,17.511162,17.524044,17.537373,17.543718,17.542177,17.530476,17.512188,17.498348,17.48946,17.50058,17.533869,17.584091,17.653097,17.711622,17.747921,17.762743,17.760408,17.761082,17.756815,17.776379,17.867737,18.136223,19.081823,20.39907,21.647839,22.559217,22.901009,23.097343,23.311531,23.354107,23.203884,23.104837,23.053452,23.050243,23.076616,23.13165,23.187286,23.23145,23.26886,23.285221,23.28661,23.285519,23.28307,23.28212,23.283394,23.28666,23.290024,23.293331,23.295471,23.294992,23.292706,23.287912,23.280779,23.27326,23.261353,23.24729,23.23554,23.220829,23.2005,23.179115,23.156391,23.125214,23.09377,23.066643,23.03489,23.00742,22.988222,22.969337,22.956112,22.949284,22.941895,22.929855,22.912209,22.886766,22.842436,22.793428,22.751606,22.715382,22.70722,22.723042,22.77201,22.836447,22.879103,22.889233,22.862709,22.825365,22.784084,22.839779,23.091278,23.440685,24.414162,26.15545,28.10944,29.529488,30.387226,30.813068,30.936508,30.75781,30.494814,30.354752,30.216759,30.127163,30.092335,30.100143,30.128483,30.136745,30.140074,30.137293,30.134142,30.138271,30.152994,30.173729,30.195187,30.22058,30.242825,30.25983,30.279842,30.298244,30.31118,30.318516,30.318325,30.313057,30.304234,30.289051,30.272385,30.25742,30.239246,30.222015,30.20803,30.191788,30.175713,30.16291,30.151176,30.14183,30.13659,30.133924,30.133408,30.135311,30.138885,30.145111,30.15347,30.161821,30.172981,30.1869,30.200123,30.214626,30.230679,30.24419,30.255966,30.269987,30.283567,30.29567,30.31131,30.325266,30.334103,30.34378,30.35191,30.356913,30.361378,30.361984,30.358566,30.353743,30.34745,30.345535,30.34941,30.364107,30.399204,30.445906,30.512676,30.586342,30.641357,30.687998,30.745422,30.803799,30.847057,30.95198,31.043392,31.047606,30.931376,30.800747,30.77396,30.839884,30.679169,29.87835,26.706238,22.907541,20.614159,19.735523,19.275248,19.135792,19.042677,18.957409,18.859095,18.739288,18.553352,18.309711
32.61445,32.858913,33.042297,33.231125,33.37745,33.46367,33.51705,33.52339,33.497078,33.455833,33.383064,33.300823,33.22552,33.13758,33.068092,33.028557,32.9925,32.96818,32.954742,32.947227,32.941826,32.928764,32.889217,32.83982,32.812347,32.828648,32.758057,32.638855,32.55934,32.446907,32.37616,32.356354,32.663334,30.802217,26.743748,21.337215,17.867199,17.423315,17.263172,17.140434,17.09882,17.121601,17.173008,17.192455,17.149729,17.077675,16.993607,16.941265,16.917387,16.932491,16.981579,17.033543,17.09084,17.133427,17.154552,17.166672,17.166489,17.160492,17.15195,17.143631,17.139635,17.13816,17.13887,17.141434,17.144182,17.148003,17.151108,17.15237,17.15367,17.154583,17.155148,17.155659,17.157452,17.161526,17.168343,17.177809,17.187914,17.19684,17.210865,17.2253,17.235085,17.248302,17.263256,17.275448,17.286621,17.298021,17.30645,17.312136,17.317585,17.321396,17.323742,17.326216,17.328543,17.330559,17.333378,17.336952,17.340363,17.343971,17.348743,17.353617,17.35804,17.364054,17.370962,17.377365,17.386307,17.39751,17.408041,17.420513,17.435452,17.449135,17.462513,17.479288,17.494984,17.50792,17.521109,17.528748,17.530312,17.5224,17.509018,17.4998,17.49493,17.50826,17.54052,17.585907,17.650608,17.706467,17.73967,17.751331,17.745155,17.741352,17.736801,17.757206,17.84776,18.122646,19.029907,20.300068,21.585175,22.531582,22.89332,23.11213,23.336746,23.39458,23.274292,23.161499,23.085762,23.07523,23.094265,23.13898,23.185764,23.2281,23.265789,23.284254,23.288353,23.2905,23.290903,23.291706,23.294384,23.29832,23.301725,23.304935,23.306705,23.305515,23.302094,23.295887,23.287529,23.279057,23.26818,23.25588,23.244968,23.232037,23.214798,23.196678,23.17686,23.148104,23.117325,23.0891,23.056625,23.02808,23.006691,22.985806,22.97118,22.963707,22.956102,22.945034,22.92938,22.906628,22.866554,22.821606,22.78269,22.74718,22.735325,22.744864,22.783268,22.835747,22.870527,22.877434,22.856361,22.83139,22.806997,22.879707,23.143654,23.512238,24.448727,26.052551,27.816574,29.064436,29.78994,30.143185,30.226456,30.066381,29.854324,29.743803,29.63792,29.569798,29.540794,29.55418,29.58815,29.602388,29.612919,29.618465,29.622461,29.63302,29.65298,29.67643,29.69938,29.725563,29.747826,29.764637,29.784256,29.802258,29.815014,29.82283,29.824005,29.820473,29.813774,29.801277,29.787071,29.774231,29.75877,29.743923,29.731453,29.716684,29.701538,29.689068,29.677364,29.667484,29.661354,29.657558,29.655365,29.655403,29.657116,29.660822,29.666494,29.672527,29.680813,29.691603,29.702145,29.713758,29.726952,29.738316,29.74814,29.759983,29.771564,29.781872,29.795204,29.806866,29.81388,29.82178,29.82838,29.832254,29.835596,29.83522,29.831078,29.825567,29.817791,29.813509,29.814713,29.825161,29.85346,29.892109,29.947607,30.00927,30.055805,30.096195,30.146164,30.201195,30.253864,30.368555,30.495249,30.588837,30.48294,30.318386,30.288279,30.370958,30.160149,29.285934,26.34623,22.803658,20.607784,19.737423,19.277424,19.139973,19.043236,18.955097,18.855728,18.736258,18.550838,18.307394
32.391724,32.578747,32.71074,32.83702,32.919586,32.95575,32.969543,32.94849,32.907486,32.85514,32.77816,32.70021,32.633095,32.56015,32.503456,32.466675,32.453552,32.45699,32.457745,32.45608,32.451904,32.43888,32.39747,32.34184,32.30803,32.318233,32.28811,32.195908,32.076332,31.957134,31.863964,31.80053,32.146755,30.428051,26.54499,21.300457,17.902235,17.430506,17.24426,17.129585,17.107666,17.126902,17.179714,17.203716,17.165722,17.09729,17.014536,16.960863,16.934671,16.946335,16.992119,17.041553,17.096565,17.137825,17.158422,17.170984,17.171007,17.164286,17.154915,17.145327,17.140043,17.13746,17.137157,17.138947,17.140926,17.14447,17.14679,17.146307,17.145178,17.143564,17.143143,17.146534,17.152374,17.15873,17.165604,17.175167,17.184328,17.190525,17.201738,17.215708,17.227493,17.24057,17.254747,17.266548,17.277308,17.288214,17.296194,17.301498,17.30656,17.310188,17.312572,17.315289,17.318108,17.32065,17.324106,17.328339,17.33221,17.336208,17.341225,17.34612,17.350487,17.356258,17.362728,17.368668,17.376968,17.387417,17.397285,17.409067,17.423368,17.436646,17.449743,17.466318,17.481976,17.494984,17.508635,17.516882,17.518768,17.515757,17.508133,17.50153,17.497856,17.512009,17.545006,17.59111,17.652636,17.703274,17.733501,17.742075,17.73224,17.724272,17.715275,17.735115,17.828564,18.108562,18.983028,20.216808,21.545322,22.525131,22.89988,23.141232,23.33845,23.392078,23.33664,23.224913,23.126846,23.106052,23.116547,23.151348,23.190536,23.23087,23.268665,23.28921,23.296013,23.301373,23.304588,23.30712,23.31113,23.315578,23.318792,23.321606,23.322542,23.320251,23.31557,23.30783,23.29821,23.28899,23.276983,23.263458,23.251562,23.236473,23.217518,23.199265,23.179993,23.154688,23.12818,23.101671,23.071655,23.044611,23.022701,23.001957,22.988108,22.981625,22.975393,22.966373,22.953037,22.933033,22.896881,22.85566,22.819729,22.78555,22.77108,22.775408,22.804424,22.845566,22.8722,22.874435,22.856117,22.840494,22.82928,22.916615,23.19178,23.57592,24.47871,25.968157,27.57988,28.691532,29.305416,29.588802,29.642574,29.4961,29.318123,29.233353,29.151001,29.095383,29.070282,29.086975,29.124416,29.142889,29.159039,29.171192,29.180649,29.195995,29.219574,29.244652,29.268475,29.295002,29.317064,29.33353,29.352608,29.370108,29.382637,29.390778,29.393145,29.391237,29.386559,29.376804,29.365082,29.35411,29.340042,29.326084,29.31459,29.301044,29.287075,29.27544,29.264553,29.255322,29.249527,29.245853,29.243515,29.243145,29.244324,29.247147,29.251778,29.256908,29.264019,29.273449,29.282772,29.29313,29.304672,29.31431,29.322412,29.332237,29.341944,29.350569,29.361752,29.37127,29.376554,29.382605,29.38743,29.389881,29.391716,29.389849,29.384525,29.377907,29.368534,29.36198,29.36045,29.365522,29.387379,29.421078,29.468933,29.521685,29.561255,29.596655,29.640665,29.689093,29.730541,29.85339,30.017477,30.167984,30.096018,29.928879,29.879963,29.970749,29.697586,28.73375,26.002462,22.699924,20.600048,19.737915,19.280186,19.145805,19.04311,18.951561,18.8516,18.732359,18.547188,18.303436
32.14161,32.278088,32.366276,32.440834,32.475037,32.47673,32.458797,32.4134,32.359203,32.298534,32.218407,32.14238,32.078896,32.0103,31.962057,31.938513,31.93908,31.96064,31.981863,32.008343,32.02272,32.006058,31.938726,31.863152,31.832762,31.863518,31.842342,31.752357,31.641926,31.526363,31.413528,31.321125,31.693949,30.09049,26.359842,21.261778,17.930279,17.435131,17.226635,17.118826,17.114859,17.133549,17.188805,17.217838,17.185246,17.119907,17.037817,16.982634,16.953964,16.96214,17.004744,17.05186,17.104797,17.145351,17.16645,17.179268,17.17925,17.172207,17.162266,17.151878,17.145874,17.142696,17.142427,17.142744,17.140118,17.138325,17.138203,17.139168,17.14074,17.14312,17.145569,17.148428,17.15104,17.154343,17.161064,17.170341,17.180077,17.188608,17.200428,17.213806,17.225182,17.237724,17.251268,17.262512,17.27272,17.283012,17.29048,17.29538,17.300056,17.303505,17.305914,17.308834,17.31205,17.315006,17.318954,17.32366,17.32781,17.33199,17.337025,17.341766,17.345911,17.351278,17.357216,17.362646,17.370304,17.380001,17.389214,17.400293,17.413927,17.42675,17.439503,17.455801,17.471367,17.484404,17.498394,17.5075,17.510494,17.508884,17.504456,17.502224,17.504074,17.521276,17.552969,17.595898,17.651821,17.697884,17.72711,17.734703,17.72229,17.710026,17.697811,17.716278,17.80949,18.091064,18.940884,20.151245,21.521204,22.535542,22.915178,23.146198,23.330647,23.3899,23.361511,23.271465,23.17539,23.13936,23.14097,23.167334,23.200886,23.238605,23.276129,23.298752,23.308098,23.316488,23.322342,23.326479,23.331768,23.33664,23.339514,23.34177,23.341618,23.33795,23.331764,23.322187,23.311008,23.300755,23.2877,23.273186,23.260391,23.243914,23.222828,23.202326,23.180483,23.153141,23.127163,23.104534,23.07671,23.051117,23.032162,23.015192,23.005497,23.002453,23.000084,22.994408,22.983181,22.965515,22.932323,22.89386,22.86039,22.827278,22.810627,22.810684,22.8312,22.861603,22.880205,22.877153,22.859882,22.851578,22.852097,22.950935,23.23434,23.63246,24.50732,25.897612,27.375095,28.375977,28.88808,29.092434,29.12716,29.01361,28.879108,28.802473,28.726995,28.680264,28.665426,28.681465,28.714033,28.733727,28.753647,28.77121,28.784904,28.803967,28.82972,28.855213,28.8796,28.906334,28.928144,28.944214,28.962805,28.979908,28.992252,29.0005,29.00438,29.005157,29.004051,28.99937,28.99139,28.981617,28.962368,28.94094,28.9263,28.91032,28.895248,28.883287,28.872618,28.86428,28.859562,28.85703,28.855991,28.856773,28.858969,28.863325,28.870102,28.877623,28.887974,28.901182,28.913801,28.928204,28.941776,28.950443,28.956593,28.963722,28.970713,28.976444,28.984257,28.991196,28.995174,28.999619,29.00283,29.003986,29.00436,29.000992,28.994452,28.986664,28.975672,28.967003,28.96304,28.964079,28.980059,29.00742,29.047657,29.092735,29.126713,29.157825,29.195953,29.238811,29.280785,29.38636,29.54137,29.717178,29.73083,29.616205,29.525158,29.599916,29.269127,28.244175,25.691591,22.59991,20.591969,19.738285,19.28246,19.150238,19.042221,18.947514,18.846865,18.72773,18.542583,18.29821
31.778822,31.860817,31.904085,31.928013,31.917759,31.88966,31.846237,31.784012,31.722904,31.659193,31.581104,31.510704,31.453289,31.39145,31.35037,31.3345,31.341066,31.368893,31.397425,31.434895,31.456955,31.439526,31.363909,31.277225,31.247608,31.295815,31.330841,31.276802,31.137989,31.020477,30.89884,30.782549,31.156221,29.677385,26.145908,21.217018,17.96635,17.449306,17.21233,17.108585,17.124245,17.145172,17.205364,17.241125,17.214615,17.152695,17.07095,17.013527,16.981598,16.985434,17.024231,17.068623,17.11892,17.158691,17.18091,17.193583,17.193148,17.18604,17.176094,17.164185,17.155384,17.149384,17.14558,17.143536,17.14053,17.138836,17.139725,17.142036,17.141928,17.141773,17.143154,17.14608,17.149792,17.154255,17.161217,17.170586,17.180801,17.190521,17.202686,17.215633,17.226479,17.238392,17.251167,17.26173,17.27129,17.280888,17.287834,17.29238,17.296772,17.300179,17.302738,17.306011,17.30975,17.313189,17.317688,17.32287,17.32726,17.33156,17.336529,17.341011,17.34485,17.349718,17.355028,17.35987,17.366756,17.375544,17.38393,17.394098,17.4068,17.418934,17.431145,17.446966,17.462328,17.475365,17.48977,17.49997,17.504387,17.504799,17.503513,17.50467,17.510319,17.529667,17.560696,17.601633,17.653791,17.695663,17.721104,17.729109,17.715578,17.696384,17.681393,17.696026,17.782778,18.062382,18.880396,20.06462,21.493908,22.557537,22.943062,23.154903,23.326874,23.39857,23.402275,23.336273,23.23989,23.18422,23.175583,23.194489,23.223955,23.258509,23.295544,23.320343,23.332005,23.342945,23.350727,23.355778,23.361526,23.365992,23.367928,23.369099,23.367262,23.361618,23.353333,23.341124,23.327549,23.315563,23.300629,23.284286,23.26992,23.251217,23.227009,23.203392,23.17838,23.14803,23.12088,23.09898,23.073662,23.052614,23.038937,23.027534,23.022785,23.023277,23.024824,23.024075,23.018076,23.00652,22.981968,22.949757,22.916924,22.882946,22.862598,22.857222,22.867924,22.886127,22.89542,22.886131,22.869755,22.869305,22.882372,22.99253,23.281048,23.688192,24.514952,25.789146,27.13436,28.020134,28.433714,28.569843,28.580662,28.488766,28.389378,28.317951,28.249084,28.216011,28.2217,28.241152,28.266756,28.28495,28.306675,28.32845,28.345676,28.366835,28.392557,28.416517,28.439842,28.465527,28.486294,28.501244,28.517239,28.531145,28.541191,28.549429,28.550488,28.544353,28.53376,28.517582,28.500786,28.484997,28.463718,28.443405,28.428837,28.41317,28.399048,28.388496,28.380138,28.37508,28.37367,28.374996,28.378735,28.384087,28.390718,28.399876,28.409426,28.417187,28.427975,28.44151,28.45429,28.46858,28.482819,28.493294,28.502256,28.514006,28.527178,28.540897,28.556507,28.565605,28.565842,28.566788,28.567308,28.567074,28.565624,28.56032,28.55221,28.542957,28.53004,28.51904,28.512535,28.509512,28.519646,28.540672,28.57294,28.60957,28.63694,28.660904,28.693233,28.73257,28.772387,28.860203,28.997864,29.170254,29.272486,29.235237,29.118603,29.144173,28.740877,27.687693,25.32996,22.476025,20.585644,19.742302,19.286304,19.153732,19.038565,18.939713,18.83828,18.719292,18.534237,18.289213
31.353903,31.39098,31.399624,31.387154,31.348125,31.302868,31.24701,31.18034,31.121168,31.06166,30.991688,30.929966,30.879385,30.824741,30.788021,30.773209,30.778805,30.802864,30.826878,30.85899,30.877865,30.861967,30.794544,30.70964,30.677036,30.722258,30.814152,30.815865,30.666748,30.544678,30.412798,30.283634,30.637836,29.27153,25.945002,21.175005,18.002602,17.468922,17.204865,17.101719,17.134125,17.16007,17.22741,17.270332,17.248646,17.189655,17.107845,17.047852,17.012531,17.012058,17.04717,17.088886,17.136814,17.175884,17.198858,17.21144,17.210148,17.201935,17.19094,17.176994,17.165565,17.156986,17.149635,17.14581,17.144384,17.143902,17.144915,17.146412,17.14401,17.140903,17.140587,17.144142,17.15083,17.15823,17.165611,17.175335,17.185747,17.195301,17.20734,17.220024,17.230461,17.241804,17.253862,17.263802,17.272812,17.281881,17.288502,17.292912,17.297302,17.300915,17.303776,17.307533,17.311842,17.315727,17.320705,17.32625,17.330772,17.335087,17.339886,17.344048,17.347544,17.35191,17.35664,17.36095,17.367142,17.37508,17.382679,17.391953,17.403677,17.415047,17.426632,17.441875,17.456959,17.469957,17.484776,17.496101,17.50197,17.50481,17.506365,17.509628,17.517025,17.537453,17.568565,17.608917,17.65944,17.698269,17.719181,17.725471,17.71038,17.686981,17.669514,17.677279,17.753109,18.026817,18.81107,19.97063,21.463692,22.581978,22.976852,23.170404,23.332153,23.420454,23.460724,23.407133,23.304863,23.238668,23.222187,23.236397,23.264309,23.295166,23.331562,23.358528,23.37175,23.383944,23.392052,23.396683,23.40147,23.404335,23.404648,23.404217,23.400286,23.392399,23.381802,23.366621,23.35022,23.336082,23.318764,23.300123,23.28386,23.26263,23.23518,23.208576,23.180805,23.147785,23.118954,23.095741,23.072311,23.055994,23.04691,23.040508,23.040354,23.044224,23.049412,23.053898,23.054012,23.049648,23.034237,23.00906,22.979712,22.946482,22.922306,22.91082,22.911999,22.919106,22.920212,22.905447,22.890186,22.897007,22.92087,23.042225,23.332962,23.738293,24.502815,25.662457,26.897194,27.687084,28.023548,28.109617,28.101524,28.016949,27.933464,27.866213,27.81012,27.795277,27.81607,27.845104,27.872284,27.888859,27.910345,27.93292,27.951069,27.971645,27.996647,28.017946,28.033035,28.046864,28.057068,28.065422,28.074356,28.082289,28.088123,28.092754,28.087547,28.072752,28.051365,28.02227,27.996342,27.976395,27.95786,27.943953,27.932495,27.920181,27.909382,27.901783,27.896978,27.895973,27.89811,27.903034,27.910908,27.91996,27.929955,27.942623,27.954205,27.962284,27.973177,27.986427,27.998804,28.012297,28.027811,28.041477,28.052933,28.06889,28.088245,28.109858,28.13514,28.151377,28.154423,28.158928,28.160229,28.157646,28.154171,28.14666,28.136782,28.126059,28.11142,28.098534,28.090055,28.083942,28.089684,28.105999,28.131939,28.161415,28.182793,28.199352,28.225021,28.259878,28.295532,28.371838,28.491875,28.638327,28.798054,28.829014,28.7091,28.657536,28.191982,27.172304,24.992344,22.357727,20.588043,19.750423,19.287975,19.151918,19.031767,18.929153,18.826397,18.707626,18.522911,18.27769
30.961246,30.967583,30.954037,30.920002,30.866226,30.8138,30.753733,30.688522,30.634691,30.582344,30.522282,30.468998,30.423494,30.373388,30.339123,30.325119,30.329712,30.351124,30.372587,30.402195,30.419424,30.404116,30.341587,30.26175,30.22565,30.250774,30.345783,30.387375,30.296068,30.173798,30.017483,29.882954,30.221785,28.945799,25.784143,21.140781,18.030708,17.484566,17.201136,17.09783,17.14251,17.173904,17.248539,17.297607,17.278847,17.221945,17.139877,17.07761,17.039455,17.035465,17.067589,17.10706,17.153513,17.192081,17.214842,17.22779,17.225494,17.214703,17.200848,17.185047,17.173458,17.165007,17.158056,17.153946,17.151224,17.14666,17.142754,17.141388,17.141335,17.142641,17.14468,17.148584,17.154953,17.162191,17.169699,17.1796,17.190134,17.199745,17.211712,17.224138,17.234253,17.24514,17.256634,17.26611,17.27475,17.283524,17.290035,17.29449,17.299084,17.303036,17.306252,17.310497,17.315298,17.319525,17.32483,17.33059,17.335152,17.339401,17.343975,17.347826,17.350994,17.354925,17.359192,17.363104,17.368788,17.376106,17.383114,17.39171,17.40266,17.41339,17.42445,17.439188,17.454004,17.466957,17.482117,17.494385,17.501465,17.506292,17.510284,17.515522,17.524733,17.546299,17.577444,17.617182,17.666126,17.702673,17.721375,17.722088,17.703293,17.68153,17.661404,17.661219,17.727325,17.993984,18.749773,19.889874,21.434198,22.59917,23.00589,23.188122,23.34212,23.445274,23.519897,23.465788,23.356422,23.29438,23.273985,23.28548,23.313133,23.340183,23.375946,23.404976,23.419144,23.431644,23.439026,23.442436,23.445484,23.446198,23.44468,23.442535,23.436577,23.42666,23.414036,23.396215,23.377264,23.361155,23.341673,23.321,23.303112,23.279842,23.249878,23.221018,23.191166,23.156368,23.126823,23.10376,23.08128,23.06667,23.059353,23.0559,23.059608,23.066975,23.075855,23.084469,23.088385,23.088379,23.076515,23.055523,23.035011,23.006607,22.980139,22.963024,22.956228,22.954746,22.950026,22.931404,22.917511,22.9304,22.962397,23.09526,23.388248,23.784328,24.491,25.553799,26.698135,27.41805,27.696066,27.737236,27.721817,27.643211,27.564552,27.501987,27.46465,27.468014,27.48743,27.528343,27.568298,27.585821,27.606789,27.627514,27.644287,27.66295,27.688526,27.707478,27.707565,27.698242,27.687626,27.683762,27.682678,27.684412,27.686094,27.682995,27.67231,27.657455,27.638256,27.613068,27.591595,27.577488,27.563026,27.551281,27.542479,27.53368,27.526531,27.521706,27.519619,27.521074,27.524755,27.530195,27.537893,27.546152,27.55474,27.566181,27.578661,27.589905,27.604137,27.620796,27.636097,27.653175,27.672596,27.688095,27.696426,27.708061,27.72379,27.741161,27.76587,27.789684,27.805744,27.823996,27.83126,27.825348,27.820024,27.810478,27.798979,27.787064,27.771214,27.75713,27.747383,27.739286,27.742159,27.755337,27.777021,27.801586,27.818718,27.83057,27.848223,27.87497,27.907726,27.97715,28.083302,28.205769,28.391657,28.460938,28.342253,28.213562,27.711935,26.763117,24.72849,22.268515,20.598537,19.759445,19.285381,19.144827,19.024029,18.919031,18.814388,18.695847,18.511673,18.266785
30.492462,30.471508,30.439533,30.388529,30.324303,30.267628,30.206268,30.14467,30.097054,30.051926,30.001606,29.95799,29.921768,29.87957,29.848192,29.8333,29.835215,29.85225,29.86967,29.89513,29.90934,29.893951,29.836216,29.760351,29.720154,29.728226,29.81985,29.898775,29.878305,29.757555,29.574156,29.435032,29.761366,28.58833,25.608706,21.10498,18.063671,17.503998,17.199526,17.09527,17.153107,17.191721,17.273804,17.328835,17.313404,17.25867,17.176235,17.111496,17.070303,17.062527,17.09131,17.127956,17.173819,17.212452,17.233791,17.244041,17.240005,17.22925,17.213905,17.19548,17.181171,17.170374,17.160559,17.15419,17.150187,17.14618,17.143726,17.143019,17.143852,17.146017,17.148552,17.152533,17.158838,17.166035,17.17352,17.18341,17.193905,17.203434,17.215187,17.227238,17.236938,17.247265,17.258114,17.267088,17.275341,17.283867,17.290379,17.295006,17.300014,17.304543,17.308289,17.313206,17.318642,17.323288,17.328968,17.334959,17.339539,17.343658,17.347921,17.351366,17.354118,17.357536,17.36132,17.364866,17.370089,17.376886,17.38342,17.391445,17.401728,17.411892,17.422482,17.43674,17.451286,17.464182,17.479687,17.49292,17.50124,17.508106,17.514553,17.521694,17.53256,17.555058,17.586094,17.62515,17.672657,17.707243,17.724026,17.720432,17.69696,17.672518,17.65268,17.646349,17.699087,17.955334,18.682995,19.805643,21.395582,22.612312,23.040203,23.21019,23.359625,23.470394,23.558552,23.515108,23.428127,23.392029,23.368431,23.374777,23.404554,23.434364,23.468103,23.491652,23.501896,23.512894,23.519909,23.521976,23.522213,23.519327,23.51491,23.51007,23.501064,23.488293,23.47293,23.45161,23.429321,23.41064,23.388329,23.365108,23.345345,23.319824,23.28747,23.256798,23.225533,23.189714,23.160057,23.137585,23.116608,23.104218,23.099087,23.098402,23.10491,23.11433,23.12509,23.135036,23.139433,23.138838,23.12844,23.11173,23.096912,23.075207,23.052687,23.035746,23.023705,23.01306,23.000927,22.978226,22.966034,22.985703,23.026253,23.18165,23.479095,23.836329,24.473322,25.433498,26.469442,27.110357,27.333427,27.338917,27.317717,27.241344,27.163605,27.109406,27.085808,27.101461,27.127954,27.16867,27.207756,27.230625,27.25478,27.275595,27.290836,27.316292,27.325506,27.312416,27.296198,27.276863,27.262667,27.255363,27.250656,27.249222,27.248516,27.242683,27.230507,27.216003,27.197788,27.17561,27.157753,27.145964,27.134127,27.12505,27.118738,27.113834,27.110851,27.10897,27.109627,27.113316,27.118336,27.124569,27.132965,27.141674,27.15036,27.16167,27.174004,27.185339,27.199333,27.215454,27.230215,27.246712,27.265528,27.281475,27.293633,27.310318,27.329716,27.349892,27.369865,27.385609,27.39785,27.41309,27.422527,27.42301,27.424091,27.42267,27.417397,27.406765,27.3894,27.37211,27.358994,27.348808,27.349854,27.360088,27.377777,27.397636,27.410633,27.417664,27.427605,27.446148,27.473038,27.534323,27.628067,27.732695,27.901073,27.981949,27.904678,27.727705,27.195662,26.311949,24.491035,22.225914,20.615082,19.771667,19.284653,19.13774,19.015343,18.90672,18.799446,18.681194,18.497963,18.25425
29.9678,29.928055,29.885117,29.825613,29.758419,29.702517,29.644352,29.589363,29.549122,29.511608,29.470615,29.435608,29.407154,29.371788,29.34391,29.33033,29.328848,29.339077,29.350668,29.370045,29.379978,29.363419,29.30592,29.230995,29.188091,29.184998,29.269905,29.371103,29.402084,29.303246,29.117874,28.973774,29.28981,28.216934,25.416275,21.061861,18.098213,17.527239,17.199774,17.095333,17.167423,17.211784,17.299683,17.359638,17.347534,17.295137,17.212557,17.145498,17.101562,17.0903,17.116081,17.150509,17.19564,17.233696,17.253166,17.25985,17.252213,17.239536,17.222563,17.202358,17.186321,17.173885,17.16206,17.15424,17.149635,17.146984,17.146759,17.147251,17.148315,17.150185,17.152538,17.156404,17.162548,17.16955,17.176832,17.186497,17.196754,17.206015,17.21735,17.228836,17.237986,17.247612,17.257702,17.266113,17.273937,17.282227,17.288807,17.29367,17.299206,17.30441,17.308743,17.314373,17.320454,17.32552,17.331564,17.337757,17.342327,17.346289,17.350182,17.353142,17.355402,17.358234,17.361502,17.364693,17.369524,17.375942,17.382164,17.389801,17.39962,17.409374,17.419594,17.433435,17.447704,17.46049,17.47622,17.490217,17.499561,17.508137,17.51656,17.525131,17.537064,17.559948,17.590664,17.629057,17.67569,17.709396,17.72548,17.719666,17.69181,17.66222,17.646023,17.635765,17.67257,17.914022,18.62194,19.735174,21.340273,22.607944,23.077654,23.236088,23.384521,23.500214,23.590878,23.57323,23.523985,23.514954,23.502937,23.51265,23.54415,23.582283,23.620071,23.640987,23.646862,23.650938,23.648344,23.641005,23.633461,23.623762,23.614025,23.604172,23.590181,23.573612,23.555225,23.530617,23.505726,23.485344,23.461771,23.438278,23.418911,23.394455,23.3629,23.332127,23.300192,23.26395,23.23474,23.213333,23.194292,23.184057,23.180534,23.181236,23.18835,23.197624,23.207785,23.215961,23.217762,23.213352,23.199957,23.182129,23.16624,23.146564,23.128176,23.114521,23.103344,23.091507,23.078274,23.056797,23.048721,23.07483,23.126942,23.290138,23.575293,23.901669,24.466091,25.30957,26.222208,26.781017,26.961401,26.947361,26.91996,26.843662,26.768929,26.729073,26.706554,26.713207,26.738487,26.779442,26.818047,26.838272,26.860205,26.881462,26.8978,26.915672,26.90601,26.874779,26.854023,26.834316,26.821682,26.814743,26.80951,26.806787,26.804892,26.798595,26.786718,26.773026,26.756245,26.737316,26.722887,26.712563,26.703007,26.696684,26.692762,26.690916,26.690907,26.69113,26.693672,26.69875,26.70449,26.711187,26.719936,26.728807,26.737469,26.74849,26.759949,26.769993,26.7822,26.796093,26.80879,26.822994,26.83921,26.853817,26.868046,26.887783,26.909565,26.931566,26.952599,26.968079,26.979572,26.987446,26.991104,26.992653,26.993324,26.991997,26.987997,26.979902,26.967373,26.956682,26.952223,26.941036,26.936003,26.94474,26.959568,26.97575,26.985323,26.988222,26.99143,27.001854,27.019276,27.073406,27.1571,27.241718,27.37424,27.45483,27.43002,27.220568,26.690731,25.905716,24.294975,22.209885,20.648502,19.795673,19.291199,19.134523,19.007755,18.893211,18.782253,18.664139,18.482273,18.240967
29.498308,29.44994,29.403416,29.342772,29.277973,29.225769,29.172726,29.12453,29.09061,29.059296,29.02526,28.99554,28.970097,28.937447,28.91195,28.901028,28.897331,28.90139,28.90711,28.920193,28.925201,28.906149,28.845312,28.769056,28.725689,28.719288,28.798542,28.903316,28.950485,28.891449,28.73336,28.58463,28.88763,27.889542,25.234001,21.013454,18.123507,17.545918,17.198765,17.096157,17.181286,17.227993,17.319782,17.38375,17.374384,17.323265,17.24028,17.171658,17.125807,17.111988,17.135834,17.169632,17.21335,17.249454,17.267174,17.271177,17.259546,17.243149,17.224503,17.204077,17.188602,17.17654,17.165207,17.157787,17.153404,17.150665,17.150211,17.150644,17.151773,17.153694,17.155983,17.159721,17.165651,17.17241,17.179438,17.188791,17.1987,17.2076,17.218395,17.22922,17.237757,17.246649,17.255953,17.26378,17.271141,17.279133,17.285683,17.290668,17.296543,17.302204,17.306925,17.313019,17.319527,17.324875,17.331161,17.33749,17.342043,17.345863,17.349415,17.351906,17.353668,17.3559,17.358635,17.361446,17.365913,17.37204,17.378063,17.385471,17.395016,17.404507,17.414473,17.427967,17.441938,17.454536,17.470266,17.484623,17.494524,17.504074,17.513546,17.522747,17.534908,17.55753,17.587736,17.62559,17.672096,17.706276,17.723148,17.717651,17.68766,17.65381,17.643064,17.631763,17.655474,17.88232,18.580551,19.691078,21.281776,22.589844,23.111755,23.263084,23.41167,23.531363,23.624615,23.640747,23.619907,23.615026,23.62709,23.656261,23.694893,23.742474,23.789282,23.813646,23.817871,23.812607,23.794144,23.772064,23.751987,23.731506,23.713936,23.697454,23.67757,23.657066,23.635876,23.608644,23.58216,23.561062,23.537743,23.515972,23.498941,23.478241,23.450607,23.422245,23.391884,23.357357,23.329678,23.309296,23.291702,23.282658,23.279625,23.280283,23.286564,23.294641,23.30275,23.307545,23.305563,23.297167,23.278248,23.254612,23.233,23.20927,23.190441,23.178421,23.170506,23.16357,23.15512,23.139576,23.138218,23.16996,23.231808,23.382057,23.64074,23.960007,24.467766,25.203794,26.003796,26.493103,26.646704,26.62672,26.59244,26.517635,26.450085,26.418976,26.3815,26.362823,26.37954,26.427769,26.474121,26.487278,26.502876,26.520544,26.534277,26.529736,26.511467,26.491484,26.478237,26.462494,26.45006,26.443872,26.438812,26.435585,26.43303,26.426403,26.414837,26.402122,26.387411,26.371304,26.359211,26.350355,26.342613,26.338139,26.335817,26.33522,26.336056,26.33693,26.34002,26.345402,26.351164,26.357758,26.366112,26.37436,26.382313,26.392447,26.402832,26.411701,26.422333,26.434364,26.445402,26.457878,26.472126,26.48471,26.496132,26.512482,26.53174,26.551315,26.578741,26.605381,26.624289,26.631134,26.62798,26.623596,26.616764,26.605705,26.5951,26.588053,26.582958,26.584473,26.59525,26.589119,26.580687,26.587578,26.599741,26.612803,26.619734,26.619661,26.61823,26.622679,26.631859,26.68057,26.754753,26.81636,26.923426,27.005007,27.011463,26.78799,26.2938,25.618374,24.16233,22.210659,20.694136,19.831291,19.308418,19.139309,19.005154,18.882925,18.76766,18.649174,18.468464,18.229996
29.061138,29.009743,28.963232,28.90464,28.843967,28.795912,28.747677,28.704927,28.67564,28.648731,28.619545,28.593548,28.570599,28.538866,28.51189,28.498337,28.49487,28.497284,28.497532,28.504667,28.502565,28.478413,28.417202,28.341467,28.297867,28.29145,28.35696,28.456282,28.521915,28.50869,28.385782,28.235788,28.506632,27.566723,25.053057,20.956718,18.13662,17.55563,17.191998,17.093163,17.191235,17.239325,17.336395,17.406227,17.399776,17.346405,17.261269,17.19252,17.145134,17.128971,17.151577,17.186726,17.22828,17.260403,17.275654,17.275917,17.26197,17.245695,17.226917,17.206558,17.191257,17.179361,17.16821,17.160925,17.156609,17.153965,17.153597,17.154076,17.155256,17.157185,17.159422,17.163063,17.168829,17.175373,17.18216,17.191177,17.200668,17.209126,17.219296,17.229355,17.237202,17.245281,17.253712,17.260868,17.267668,17.275192,17.281515,17.286428,17.292355,17.298178,17.303059,17.309359,17.316063,17.321537,17.32795,17.33434,17.338846,17.342518,17.345701,17.347668,17.348852,17.350342,17.35239,17.35471,17.358685,17.364433,17.370228,17.3774,17.386677,17.395912,17.405617,17.418724,17.432312,17.444622,17.460161,17.474586,17.48472,17.494751,17.504639,17.51389,17.525665,17.547504,17.576979,17.614273,17.661125,17.696749,17.715574,17.71197,17.681984,17.646217,17.642979,17.633518,17.647343,17.862328,18.550245,19.65502,21.23066,22.574804,23.146164,23.295555,23.442375,23.562878,23.660738,23.716522,23.707977,23.676323,23.713753,23.78976,23.86267,23.917294,23.965332,23.986546,23.986216,23.972801,23.943775,23.91211,23.874498,23.834896,23.805336,23.781849,23.756897,23.732891,23.708675,23.678196,23.649218,23.626534,23.602016,23.580193,23.564041,23.544937,23.521427,23.498907,23.476238,23.44992,23.426584,23.405884,23.387768,23.37853,23.375546,23.376509,23.383636,23.392517,23.398705,23.398968,23.392113,23.379707,23.356205,23.328358,23.303036,23.27515,23.252605,23.23772,23.225967,23.2168,23.209202,23.198603,23.207922,23.248373,23.309204,23.448147,23.687296,23.988342,24.45254,25.10463,25.801928,26.228685,26.35875,26.334291,26.293636,26.225065,26.166122,26.124664,26.052675,26.005325,26.028059,26.08755,26.148876,26.175156,26.195156,26.19637,26.183245,26.16406,26.142017,26.12659,26.116339,26.107578,26.10257,26.10022,26.097633,26.094769,26.091694,26.085081,26.074923,26.064728,26.053555,26.040733,26.030195,26.021854,26.014294,26.009794,26.007477,26.00703,26.007973,26.008772,26.011621,26.016518,26.021692,26.027538,26.034979,26.042309,26.049322,26.057852,26.066261,26.073368,26.081646,26.091423,26.10099,26.111998,26.12476,26.136034,26.14616,26.160183,26.176636,26.193785,26.218035,26.2415,26.257648,26.270016,26.276283,26.27811,26.277496,26.267574,26.25283,26.241388,26.230995,26.229322,26.237526,26.25571,26.267483,26.26214,26.266827,26.274696,26.278252,26.275131,26.269821,26.270834,26.280243,26.323112,26.379913,26.414139,26.494793,26.573334,26.600822,26.402893,25.957584,25.356441,24.083324,22.259241,20.747326,19.876745,19.337076,19.15257,19.008547,18.876886,18.756353,18.63674,18.456541,18.220753
28.556885,28.50677,28.463318,28.409763,28.355288,28.312399,28.269583,28.232126,28.20683,28.183537,28.158268,28.135227,28.11417,28.08273,28.053474,28.036325,28.028685,28.026928,28.023657,28.023323,28.01287,27.984352,27.924345,27.850677,27.807858,27.802732,27.852987,27.947952,28.039774,28.063358,27.963707,27.812077,28.06921,27.195148,24.819683,20.876812,18.136587,17.547554,17.18443,17.09277,17.198593,17.24797,17.353786,17.4319,17.427238,17.373322,17.28405,17.210663,17.161694,17.144253,17.165241,17.19785,17.239693,17.270441,17.279858,17.277569,17.263357,17.247486,17.228996,17.209055,17.194168,17.182632,17.171848,17.164803,17.160591,17.158028,17.157686,17.158173,17.159367,17.1613,17.163528,17.167145,17.172832,17.17924,17.185837,17.194519,17.203518,17.211441,17.22079,17.229845,17.23679,17.24379,17.251053,17.257275,17.26323,17.269936,17.275684,17.280214,17.28582,17.29145,17.296213,17.302412,17.309082,17.314583,17.321054,17.327496,17.331985,17.33555,17.338343,17.339664,17.340115,17.340591,17.341633,17.34319,17.346386,17.351522,17.356937,17.363731,17.372606,17.381454,17.390728,17.403198,17.416122,17.42787,17.442856,17.456955,17.466984,17.477024,17.48673,17.495485,17.506227,17.526676,17.555168,17.591927,17.639862,17.678448,17.701054,17.701822,17.674393,17.638666,17.63969,17.634686,17.648342,17.85204,18.526102,19.620205,21.171661,22.558203,23.19529,23.352312,23.493252,23.60654,23.7097,23.797014,23.801212,23.75226,23.80516,23.903124,23.995033,24.075842,24.150682,24.191677,24.206842,24.199335,24.160294,24.11113,24.054775,23.996458,23.953045,23.915287,23.87756,23.845654,23.815819,23.778458,23.743124,23.715763,23.687721,23.665356,23.650875,23.634766,23.61678,23.60061,23.584927,23.566515,23.549793,23.535316,23.519478,23.507967,23.502028,23.499556,23.5027,23.50806,23.512196,23.510101,23.499615,23.480677,23.450598,23.418514,23.390104,23.358562,23.332523,23.314842,23.299438,23.287575,23.27949,23.270992,23.285568,23.32986,23.38855,23.519363,23.739605,24.01307,24.42805,24.986317,25.562378,25.927752,26.03786,26.003952,25.96204,25.906353,25.84805,25.745998,25.641628,25.601128,25.627357,25.686888,25.7491,25.78024,25.797276,25.788082,25.76456,25.742155,25.721792,25.71008,25.702286,25.697044,25.695229,25.694687,25.693605,25.691347,25.68824,25.682083,25.673368,25.6652,25.656399,25.646105,25.637348,25.630203,25.623783,25.620132,25.618488,25.617931,25.618238,25.618547,25.620716,25.624788,25.62927,25.634487,25.641388,25.648384,25.65514,25.66323,25.671158,25.677929,25.685555,25.693764,25.701221,25.710026,25.72023,25.729261,25.737488,25.749699,25.764145,25.77848,25.798143,25.816816,25.829512,25.84256,25.85154,25.854963,25.856506,25.85186,25.8441,25.839348,25.835718,25.836275,25.839462,25.862816,25.88984,25.900373,25.903563,25.902832,25.90311,25.897808,25.891352,25.889683,25.890707,25.920036,25.962591,25.986351,26.040337,26.094364,26.11631,25.968266,25.604164,25.081266,23.981236,22.295208,20.815615,19.94987,19.391113,19.179802,19.020565,18.874882,18.74633,18.624157,18.443663,18.21096
28.083553,28.038048,27.999462,27.952297,27.904419,27.866508,27.828592,27.795332,27.772772,27.751797,27.728947,27.707653,27.687584,27.656082,27.624851,27.604689,27.590425,27.582249,27.575989,27.569656,27.55357,27.52308,27.465118,27.394217,27.352695,27.348528,27.388632,27.478966,27.584345,27.635979,27.555262,27.401638,27.65927,26.838438,24.569016,20.782831,18.123169,17.526495,17.179214,17.093937,17.201143,17.256485,17.369669,17.449816,17.441328,17.390865,17.300957,17.222015,17.170958,17.152084,17.17193,17.202915,17.244246,17.273247,17.278591,17.276012,17.262989,17.24754,17.22966,17.210487,17.19627,17.185276,17.174994,17.168224,17.164106,17.161533,17.161102,17.16151,17.162643,17.164566,17.166832,17.17051,17.176277,17.182718,17.1893,17.197823,17.206465,17.213936,17.22255,17.230644,17.236706,17.242657,17.248755,17.25401,17.259048,17.264782,17.269749,17.273655,17.278597,17.28368,17.288033,17.293808,17.300201,17.305609,17.312092,17.318644,17.323233,17.326841,17.32941,17.330196,17.329983,17.329464,17.329433,17.330128,17.33242,17.336802,17.341711,17.34799,17.356308,17.364616,17.373276,17.38488,17.396893,17.407843,17.421946,17.43534,17.444946,17.454556,17.463648,17.471619,17.481113,17.500132,17.527813,17.564346,17.613949,17.656319,17.68359,17.690006,17.666779,17.632717,17.63328,17.634274,17.657795,17.852123,18.510921,19.591156,21.112448,22.535252,23.23955,23.41641,23.55433,23.656872,23.763233,23.853855,23.869158,23.8339,23.8868,23.982069,24.077332,24.17154,24.264156,24.323608,24.356712,24.367298,24.338745,24.291191,24.23242,24.164635,24.108904,24.057293,24.004936,23.962132,23.9236,23.87775,23.836012,23.803791,23.77187,23.748644,23.73576,23.723278,23.71093,23.700024,23.688972,23.675453,23.663517,23.655146,23.64287,23.63033,23.621243,23.613358,23.609524,23.609253,23.611185,23.608543,23.596855,23.573635,23.537886,23.501879,23.472343,23.439764,23.412714,23.394024,23.377136,23.363754,23.354694,23.345818,23.359426,23.401508,23.457474,23.581303,23.782312,24.023806,24.388042,24.85537,25.314844,25.637302,25.743732,25.702435,25.66165,25.591272,25.50003,25.351486,25.24496,25.231396,25.257084,25.307667,25.358788,25.384937,25.39537,25.385872,25.368692,25.351307,25.33511,25.325855,25.320827,25.316605,25.31409,25.31305,25.311678,25.309288,25.306046,25.300022,25.291729,25.28403,25.27555,25.2659,25.257965,25.251524,25.24578,25.242529,25.241087,25.240059,25.239494,25.239143,25.240494,25.24369,25.247532,25.252258,25.25887,25.265884,25.272827,25.281376,25.290005,25.297544,25.305565,25.313225,25.319504,25.326918,25.335304,25.342619,25.349249,25.359743,25.372433,25.384708,25.401394,25.41706,25.427608,25.437164,25.44223,25.442917,25.442268,25.441475,25.442509,25.44628,25.452717,25.460442,25.466892,25.485336,25.51715,25.551895,25.564793,25.563046,25.560175,25.55381,25.546726,25.541924,25.532482,25.547728,25.582628,25.61167,25.649809,25.676695,25.68104,25.581217,25.294315,24.835869,23.871357,22.313902,20.89048,20.042898,19.465134,19.218166,19.040813,18.878582,18.740238,18.614193,18.43243,18.2026
27.698326,27.657724,27.623638,27.582104,27.539783,27.505981,27.472042,27.442022,27.421423,27.40206,27.380781,27.360527,27.34098,27.30933,27.276657,27.25428,27.2359,27.221962,27.210598,27.201551,27.183834,27.152678,27.09631,27.027473,26.98678,26.982468,27.01823,27.099583,27.193876,27.279106,27.231503,27.07581,27.324242,26.532724,24.342915,20.691586,18.106844,17.509022,17.176414,17.092865,17.200285,17.267845,17.38338,17.455334,17.437077,17.392595,17.308586,17.22843,17.174662,17.152712,17.17252,17.208437,17.244911,17.267714,17.274998,17.273207,17.260866,17.246115,17.22902,17.210754,17.197283,17.18687,17.177088,17.170551,17.166464,17.1638,17.163193,17.163458,17.16446,17.166332,17.168653,17.17243,17.178358,17.184958,17.191666,17.200218,17.208698,17.2159,17.224022,17.231415,17.236805,17.241955,17.24715,17.251629,17.255924,17.260834,17.265083,17.268387,17.272615,17.277058,17.280926,17.286198,17.292233,17.297499,17.303997,17.310726,17.31552,17.319305,17.321856,17.322334,17.321663,17.3204,17.319504,17.319454,17.320955,17.324623,17.32903,17.334766,17.342464,17.350174,17.358173,17.368862,17.37994,17.39005,17.403214,17.415833,17.424938,17.434042,17.442547,17.449883,17.458454,17.47652,17.5038,17.540424,17.591728,17.637493,17.66884,17.680162,17.660692,17.628323,17.627218,17.633883,17.668566,17.854757,18.500092,19.567348,21.05858,22.504389,23.263195,23.4652,23.608265,23.704552,23.811375,23.882826,23.904808,23.904488,23.951794,24.051746,24.15674,24.22464,24.29121,24.338612,24.36808,24.395744,24.404333,24.393265,24.352367,24.282986,24.216759,24.159538,24.098804,24.046078,23.997437,23.944958,23.901089,23.867252,23.83344,23.809267,23.796795,23.78696,23.779186,23.772617,23.765675,23.755266,23.743797,23.733217,23.722523,23.712908,23.703934,23.69252,23.683825,23.680733,23.680265,23.676277,23.66447,23.642513,23.604105,23.564129,23.535145,23.503712,23.47757,23.459051,23.441833,23.427847,23.418388,23.409748,23.422447,23.46154,23.513416,23.62657,23.806152,24.018375,24.335485,24.724062,25.087666,25.386875,25.506508,25.466814,25.42409,25.295197,25.135792,25.015045,24.93659,24.930134,24.955843,25.001024,25.044971,25.067532,25.0775,25.069939,25.05473,25.038944,25.024342,25.01709,25.015888,25.014977,25.013645,25.01242,25.01023,25.006672,25.002563,24.995777,24.986849,24.978687,24.969788,24.959572,24.950905,24.94357,24.936459,24.931622,24.928656,24.92677,24.925745,24.924828,24.925526,24.927982,24.931194,24.935287,24.941305,24.947975,24.954744,24.963264,24.97205,24.979855,24.987253,24.994612,25.001583,25.009466,25.018248,25.025599,25.031713,25.039703,25.049501,25.060846,25.076653,25.091236,25.100426,25.108555,25.112543,25.112694,25.111618,25.10944,25.10807,25.108067,25.11191,25.12424,25.14509,25.174126,25.208761,25.24202,25.270885,25.28142,25.27478,25.26752,25.257057,25.24777,25.236889,25.245989,25.275259,25.306793,25.341202,25.362047,25.364326,25.291618,25.046108,24.63023,23.783546,22.338583,20.9624,20.134966,19.539747,19.257269,19.062954,18.885166,18.737362,18.607204,18.423819,18.196321
27.259884,27.225433,27.19659,27.16135,27.125076,27.095703,27.066074,27.039494,27.020847,27.003006,26.98309,26.963661,26.94444,26.91254,26.878454,26.85393,26.831516,26.812294,26.796448,26.782974,26.762377,26.731003,26.676239,26.611877,26.574184,26.567078,26.602669,26.673315,26.74008,26.84202,26.830807,26.69534,26.941027,26.174818,24.063963,20.576118,18.081482,17.481895,17.172184,17.104368,17.21962,17.294308,17.39987,17.459717,17.440235,17.394531,17.315199,17.240189,17.179428,17.154585,17.175442,17.208933,17.240541,17.260212,17.268616,17.26765,17.256351,17.24261,17.226631,17.209621,17.19716,17.187542,17.17842,17.17216,17.16809,17.165266,17.16438,17.16442,17.165192,17.166952,17.16931,17.173199,17.17934,17.186169,17.193092,17.201767,17.210169,17.217165,17.224838,17.23156,17.236301,17.240685,17.245,17.248713,17.252254,17.25629,17.259743,17.262333,17.2657,17.26934,17.272596,17.277218,17.282812,17.287926,17.294462,17.301483,17.306633,17.310764,17.313454,17.313726,17.31267,17.310707,17.308945,17.308132,17.308784,17.311657,17.315454,17.320526,17.327427,17.334345,17.341488,17.351002,17.360893,17.369995,17.38203,17.393753,17.402304,17.410906,17.418879,17.425648,17.43338,17.450634,17.477673,17.514568,17.567898,17.617504,17.653402,17.670174,17.65482,17.624256,17.621529,17.635288,17.682964,17.857643,18.484116,19.537031,21.00764,22.473099,23.280806,23.52068,23.673393,23.758606,23.858995,23.911568,23.940872,23.973038,24.020672,24.097734,24.175352,24.230701,24.287563,24.32957,24.355452,24.382528,24.400597,24.406261,24.384123,24.336971,24.287489,24.23347,24.167355,24.106724,24.053602,23.993328,23.941772,23.903767,23.868183,23.844942,23.83425,23.828539,23.829489,23.83323,23.83641,23.835743,23.829704,23.82098,23.808983,23.796148,23.785053,23.77046,23.75679,23.74812,23.740715,23.728474,23.711618,23.692017,23.659718,23.624191,23.593939,23.56571,23.544249,23.527126,23.510689,23.496704,23.487003,23.478523,23.488478,23.521852,23.56887,23.666533,23.81646,23.991642,24.251928,24.551828,24.811363,25.039715,25.137697,25.104877,25.035027,24.887943,24.738468,24.646034,24.592392,24.592716,24.613516,24.651268,24.688337,24.707296,24.715443,24.708271,24.6949,24.683903,24.676205,24.674042,24.674208,24.673931,24.672573,24.670952,24.668076,24.66371,24.658989,24.65176,24.642536,24.63417,24.625076,24.614517,24.605309,24.597242,24.588907,24.582573,24.578218,24.57476,24.572145,24.569878,24.56905,24.569849,24.57164,24.574333,24.578773,24.584084,24.589718,24.59693,24.604546,24.611412,24.618773,24.626842,24.634518,24.643145,24.652784,24.660889,24.667683,24.67646,24.685822,24.694351,24.707838,24.721119,24.72937,24.736618,24.740173,24.740349,24.739536,24.737793,24.736774,24.737125,24.740501,24.75261,24.774422,24.808731,24.85198,24.893158,24.930683,24.952053,24.954762,24.94526,24.92949,24.917244,24.904469,24.906898,24.92979,24.9622,24.99263,25.007656,25.00718,24.949434,24.746014,24.3919,23.674355,22.363342,21.056152,20.254105,19.636341,19.30907,19.093836,18.896456,18.736305,18.600513,18.414719,18.189915
26.810963,26.782112,26.757921,26.728199,26.697273,26.671978,26.646523,26.6235,26.607016,26.59082,26.572296,26.553648,26.534733,26.50279,26.467846,26.44187,26.416538,26.393559,26.37461,26.35733,26.334328,26.303234,26.250427,26.190344,26.155466,26.147396,26.1758,26.226418,26.263325,26.376324,26.409191,26.312777,26.544056,25.789642,23.76046,20.453644,18.061216,17.462574,17.180416,17.134243,17.258316,17.334488,17.422268,17.467281,17.450186,17.39989,17.320059,17.248665,17.187038,17.16123,17.178959,17.204575,17.231874,17.251228,17.260107,17.259804,17.24958,17.236958,17.222214,17.206604,17.195278,17.186554,17.178185,17.172264,17.168247,17.165283,17.1641,17.163876,17.164335,17.16586,17.168133,17.171995,17.1782,17.185143,17.192205,17.200958,17.209284,17.216118,17.223434,17.22964,17.233877,17.237686,17.24134,17.244469,17.247427,17.250757,17.25354,17.255531,17.258133,17.261047,17.263737,17.267757,17.272964,17.277971,17.28461,17.292027,17.29767,17.302303,17.305374,17.305733,17.304588,17.302326,17.30009,17.298828,17.29898,17.301342,17.30471,17.309269,17.31548,17.321655,17.327976,17.336353,17.345108,17.35326,17.364286,17.375282,17.383455,17.391829,17.399632,17.406168,17.413462,17.430294,17.457336,17.494623,17.549887,17.60299,17.64301,17.664593,17.652699,17.623425,17.619133,17.637936,17.69497,17.858273,18.464579,19.503258,20.96618,22.448841,23.29222,23.56506,23.731632,23.80576,23.887087,23.924603,23.950375,23.987494,24.031769,24.084858,24.133492,24.18158,24.232498,24.268812,24.28933,24.307835,24.32022,24.32702,24.322575,24.299324,24.265804,24.22551,24.167282,24.107172,24.05331,23.988762,23.931934,23.890972,23.853838,23.831905,23.824371,23.824635,23.835167,23.848778,23.862076,23.871706,23.872236,23.866932,23.854555,23.837967,23.823223,23.80627,23.789322,23.775946,23.76368,23.74826,23.731972,23.716713,23.693726,23.666641,23.638773,23.61237,23.593151,23.579304,23.564837,23.551485,23.541676,23.532867,23.538391,23.563557,23.602352,23.682135,23.80062,23.93563,24.131329,24.342838,24.5121,24.65743,24.712952,24.679073,24.590433,24.45959,24.35429,24.288185,24.251696,24.254015,24.269627,24.297949,24.325386,24.338894,24.344528,24.339252,24.330122,24.32462,24.322803,24.323917,24.324265,24.323713,24.322102,24.32032,24.317303,24.312864,24.308128,24.301073,24.29213,24.283981,24.27506,24.264553,24.255157,24.2467,24.23756,24.230145,24.224762,24.219824,24.215553,24.211952,24.209606,24.20873,24.209072,24.210312,24.21302,24.21671,24.220901,24.226341,24.232246,24.237679,24.244377,24.25223,24.259575,24.26786,24.277191,24.285126,24.29187,24.300964,24.310127,24.31702,24.327862,24.339521,24.348286,24.356213,24.360973,24.362541,24.363506,24.364016,24.365063,24.367624,24.372288,24.382149,24.396988,24.42885,24.475283,24.52092,24.567123,24.600348,24.613106,24.61198,24.600266,24.58692,24.571693,24.568233,24.584272,24.611786,24.636889,24.647232,24.643412,24.596157,24.43484,24.146284,23.537743,22.360687,21.147102,20.39021,19.75224,19.370565,19.133663,18.914368,18.739353,18.59665,18.407814,18.185986
26.428482,26.40377,26.38284,26.357225,26.33073,26.30917,26.287619,26.26801,26.253647,26.23914,26.222008,26.20414,26.185572,26.153858,26.118696,26.092136,26.065369,26.040514,26.020119,26.00117,25.977245,25.946636,25.895912,25.837822,25.803844,25.798578,25.811146,25.836403,25.856277,25.974058,26.046257,25.996172,26.19641,25.443012,23.496578,20.35381,18.056719,17.462204,17.204037,17.175167,17.301895,17.371891,17.445705,17.480482,17.46355,17.409754,17.324692,17.250776,17.195702,17.170296,17.181055,17.199596,17.224113,17.243992,17.25275,17.252663,17.243107,17.231304,17.217512,17.203022,17.192625,17.18464,17.176933,17.171368,17.16747,17.164478,17.163113,17.162678,17.162844,17.164055,17.166103,17.169744,17.17575,17.182575,17.18957,17.198215,17.206379,17.213043,17.2201,17.225979,17.229923,17.233425,17.236738,17.239561,17.24222,17.245186,17.24762,17.249308,17.25151,17.25402,17.256393,17.260084,17.265097,17.270088,17.27687,17.284658,17.290756,17.295883,17.299435,17.300098,17.299166,17.297047,17.294857,17.293585,17.29374,17.296062,17.29935,17.303736,17.309603,17.315342,17.32114,17.328785,17.336823,17.344387,17.354872,17.365593,17.373737,17.382288,17.390354,17.39703,17.404297,17.421028,17.448116,17.485645,17.542156,17.597569,17.64035,17.66509,17.655245,17.626446,17.621029,17.640547,17.699509,17.855476,18.446095,19.473103,20.939465,22.43558,23.29654,23.584576,23.761318,23.82699,23.885563,23.91417,23.925953,23.941956,23.976051,24.021679,24.063644,24.103765,24.145187,24.173449,24.188309,24.20166,24.209333,24.212261,24.21822,24.20241,24.167877,24.141705,24.100046,24.048473,23.994888,23.93104,23.875309,23.834621,23.796719,23.77539,23.770824,23.776478,23.79308,23.811028,23.828926,23.843279,23.847103,23.843864,23.833485,23.817009,23.800161,23.782585,23.7655,23.75182,23.741234,23.732708,23.72547,23.716068,23.700382,23.68073,23.66015,23.634325,23.613127,23.601854,23.58863,23.575184,23.564558,23.554882,23.556086,23.573292,23.602005,23.665667,23.75875,23.860277,23.999027,24.141247,24.251024,24.34096,24.360783,24.316402,24.2355,24.130463,24.051476,24.00116,23.971657,23.971888,23.985268,24.005165,24.022385,24.029984,24.033339,24.031115,24.027092,24.024673,24.02385,24.024445,24.025171,24.024994,24.02367,24.022188,24.019646,24.0158,24.011604,24.005257,23.997063,23.989471,23.98106,23.97099,23.961803,23.953386,23.94405,23.936203,23.930365,23.92473,23.919676,23.915443,23.912338,23.91058,23.91011,23.910505,23.912142,23.914753,23.91793,23.922104,23.926739,23.931103,23.936289,23.94244,23.948376,23.955051,23.962593,23.96898,23.974224,23.981308,23.989101,23.996418,24.005503,24.01537,24.024738,24.03387,24.040524,24.043947,24.047146,24.050215,24.053307,24.057508,24.063984,24.072895,24.082232,24.10684,24.146809,24.188307,24.242655,24.285683,24.30198,24.317366,24.31886,24.307684,24.293242,24.287062,24.296448,24.314745,24.334229,24.341927,24.335312,24.299149,24.173595,23.935585,23.399874,22.330671,21.210823,20.508587,19.859892,19.429129,19.174362,18.93534,18.745947,18.596512,18.404652,18.185484
26.053503,26.035084,26.017887,25.998032,25.978666,25.963488,25.947613,25.93179,25.918863,25.905413,25.888947,25.871326,25.852812,25.821285,25.785767,25.758062,25.728268,25.700817,25.67996,25.660099,25.635893,25.606045,25.557457,25.49992,25.466072,25.4665,25.464882,25.465452,25.47032,25.55574,25.651854,25.679138,25.8354,25.083782,23.241861,20.262226,18.06023,17.472273,17.23843,17.230286,17.35339,17.396767,17.464737,17.501175,17.481308,17.423405,17.332798,17.25507,17.201155,17.173523,17.179884,17.196568,17.219458,17.2384,17.246738,17.246517,17.237316,17.22612,17.213125,17.199623,17.190058,17.182745,17.17569,17.170534,17.166828,17.163914,17.162436,17.161812,17.161684,17.162498,17.164194,17.167463,17.173084,17.179604,17.186348,17.194681,17.202555,17.208992,17.21577,17.221382,17.225128,17.228441,17.231579,17.234264,17.236782,17.23958,17.241867,17.243433,17.245468,17.2478,17.250015,17.253548,17.25848,17.263508,17.270454,17.278591,17.2851,17.290693,17.294779,17.295876,17.295277,17.293533,17.291672,17.29065,17.291101,17.293678,17.297081,17.301495,17.307228,17.312712,17.318195,17.325367,17.332947,17.340168,17.350424,17.361206,17.369606,17.378643,17.387249,17.394241,17.401648,17.418324,17.44534,17.482885,17.540154,17.597198,17.64204,17.669119,17.660633,17.631868,17.625624,17.642612,17.697998,17.8494,18.425919,19.442022,20.92448,22.428867,23.291435,23.591177,23.764963,23.816677,23.863665,23.881824,23.880474,23.882729,23.905296,23.937788,23.967869,23.998182,24.029005,24.04887,24.057972,24.066044,24.07059,24.072378,24.07772,24.066572,24.039745,24.015408,23.984211,23.945858,23.894062,23.83184,23.777885,23.73854,23.70228,23.682789,23.679955,23.688143,23.708519,23.729908,23.749722,23.764317,23.767311,23.763817,23.753199,23.73841,23.725624,23.710781,23.697426,23.689037,23.684761,23.685057,23.687109,23.687489,23.6843,23.67621,23.665281,23.646793,23.626514,23.61156,23.595089,23.577433,23.562515,23.551617,23.549036,23.558239,23.576992,23.620674,23.685143,23.75605,23.847061,23.932068,23.99121,24.036638,24.031418,23.98352,23.914387,23.830984,23.769016,23.727299,23.701668,23.700357,23.710384,23.725172,23.73747,23.742165,23.743538,23.740822,23.73722,23.735268,23.734926,23.73584,23.736889,23.737099,23.736237,23.735283,23.73352,23.730595,23.727192,23.721796,23.714586,23.707737,23.700012,23.690582,23.681803,23.673637,23.664389,23.656406,23.650366,23.644356,23.638824,23.63419,23.630573,23.628164,23.627056,23.626743,23.627403,23.628967,23.631123,23.634018,23.63734,23.640549,23.644327,23.648983,23.653645,23.658867,23.66478,23.669765,23.673687,23.67921,23.6856,23.691795,23.69986,23.707502,23.712955,23.721226,23.728657,23.732403,23.7362,23.740112,23.743956,23.748823,23.755703,23.764206,23.772999,23.790173,23.821163,23.859068,23.907272,23.953207,23.981838,24.00503,24.015745,24.015385,24.017714,24.013916,24.011482,24.019478,24.037945,24.049313,24.042343,24.008823,23.90892,23.719097,23.261929,22.30277,21.272125,20.619041,19.963375,19.49128,19.218956,18.95998,18.75558,18.599009,18.403843,18.18721
25.58914,25.578526,25.567104,25.55384,25.541882,25.53379,25.52597,25.516712,25.50738,25.498608,25.486311,25.470844,25.453384,25.42175,25.387054,25.362452,25.341602,25.318943,25.29401,25.273851,25.250523,25.221611,25.173843,25.12144,25.090382,25.083908,25.065899,25.048717,25.044218,25.087181,25.181023,25.260687,25.37465,24.635319,22.91486,20.153225,18.079983,17.497524,17.286057,17.289993,17.404402,17.426767,17.490858,17.528248,17.503948,17.440624,17.34541,17.26556,17.210274,17.179874,17.183254,17.198498,17.219486,17.236708,17.243979,17.242933,17.23345,17.22241,17.209835,17.197037,17.188168,17.181456,17.175081,17.170446,17.167055,17.164383,17.162949,17.162216,17.161829,17.162193,17.163403,17.166096,17.171028,17.176939,17.183144,17.190868,17.198236,17.204311,17.210752,17.216135,17.21976,17.223026,17.2262,17.228954,17.23154,17.234451,17.236874,17.238594,17.240799,17.243277,17.2456,17.249256,17.254332,17.259502,17.266644,17.275085,17.28193,17.287867,17.292362,17.293839,17.29358,17.29228,17.290886,17.29026,17.29118,17.294144,17.29776,17.302294,17.307983,17.31333,17.318668,17.325676,17.333218,17.340557,17.351244,17.36279,17.372002,17.382107,17.391598,17.398937,17.40625,17.422234,17.448353,17.485043,17.542133,17.600239,17.646942,17.676645,17.67023,17.642193,17.635872,17.648758,17.69729,17.843735,18.404495,19.406504,20.904615,22.403889,23.251532,23.558731,23.727177,23.76295,23.794998,23.798975,23.783688,23.773918,23.782532,23.797962,23.813168,23.832003,23.850918,23.861841,23.86516,23.868294,23.870525,23.87207,23.877354,23.869083,23.846846,23.824165,23.799807,23.770458,23.722496,23.66415,23.613354,23.576351,23.540901,23.52037,23.515892,23.52171,23.539238,23.55845,23.576551,23.590525,23.594557,23.592922,23.586266,23.576326,23.56731,23.557226,23.550953,23.550585,23.554995,23.565704,23.57769,23.588482,23.598248,23.602,23.600773,23.591787,23.575363,23.558342,23.540577,23.520771,23.502934,23.489029,23.482246,23.485092,23.49371,23.516653,23.551277,23.589432,23.63417,23.669636,23.688908,23.696901,23.673042,23.6275,23.5704,23.503895,23.453197,23.416973,23.393227,23.38953,23.39533,23.40469,23.41223,23.414146,23.413427,23.409763,23.40604,23.404202,23.40422,23.40556,23.407043,23.407896,23.407833,23.407696,23.407087,23.40547,23.403175,23.399048,23.393127,23.387257,23.38047,23.371964,23.363863,23.356228,23.347387,23.339565,23.33356,23.327427,23.321636,23.316746,23.312746,23.309772,23.308046,23.307016,23.306631,23.307032,23.308027,23.309418,23.311167,23.313015,23.315144,23.318058,23.321274,23.324831,23.328886,23.332283,23.334713,23.338524,23.343365,23.348194,23.355038,23.360958,23.363892,23.368896,23.37459,23.378933,23.383415,23.388186,23.39265,23.398052,23.405138,23.41317,23.421547,23.433136,23.454866,23.484737,23.524582,23.568,23.600525,23.626366,23.646378,23.659843,23.675358,23.686703,23.690907,23.692528,23.704071,23.715199,23.715668,23.688175,23.608028,23.458082,23.096685,22.263863,21.324425,20.712637,20.070673,19.58226,19.283285,18.996681,18.771957,18.604908,18.40398,18.189245
25.136414,25.129505,25.121504,25.111332,25.102816,25.098629,25.096958,25.095066,25.091726,25.089005,25.081432,25.067854,25.050959,25.019157,24.987648,24.970875,24.965752,24.95761,24.937881,24.91831,24.894646,24.867489,24.822887,24.774822,24.743212,24.727196,24.696463,24.668846,24.659676,24.670017,24.746056,24.840012,24.916105,24.183918,22.56704,20.042849,18.11116,17.529987,17.333145,17.335314,17.438671,17.45654,17.51786,17.551968,17.523155,17.45552,17.358267,17.27846,17.221436,17.18956,17.191921,17.205837,17.224964,17.240221,17.245968,17.243511,17.233038,17.221565,17.208843,17.196226,17.187717,17.181389,17.17556,17.171463,17.168476,17.166225,17.165058,17.164402,17.16395,17.164005,17.164768,17.166862,17.17098,17.17611,17.181604,17.188538,17.195267,17.200897,17.206978,17.212196,17.215807,17.219173,17.222597,17.22564,17.228533,17.231876,17.234772,17.236958,17.23973,17.24274,17.245493,17.249615,17.255074,17.260479,17.267807,17.276402,17.283352,17.289358,17.29393,17.29551,17.295403,17.294376,17.29333,17.293028,17.294308,17.29757,17.30135,17.30596,17.311634,17.316948,17.322332,17.329556,17.337566,17.34554,17.357367,17.370365,17.380888,17.392498,17.40303,17.410557,17.417362,17.431787,17.455986,17.49076,17.546488,17.60485,17.653015,17.685675,17.682556,17.656685,17.651733,17.661037,17.702396,17.845005,18.392477,19.3778,20.873928,22.350576,23.170708,23.47208,23.636105,23.662264,23.678051,23.66765,23.639921,23.620838,23.618727,23.6199,23.621914,23.631155,23.640587,23.644997,23.644615,23.645044,23.646793,23.649261,23.656315,23.648766,23.626053,23.606094,23.581022,23.549679,23.505878,23.452085,23.404415,23.36942,23.334137,23.311216,23.303362,23.30417,23.314972,23.328495,23.34265,23.355482,23.361406,23.362282,23.359673,23.353868,23.347572,23.343231,23.344812,23.351387,23.362896,23.381197,23.39976,23.417,23.434566,23.44545,23.450066,23.447817,23.436304,23.421364,23.406063,23.387989,23.370638,23.355892,23.3471,23.34616,23.347584,23.355385,23.368057,23.38161,23.39466,23.400358,23.398804,23.385952,23.35345,23.312551,23.26241,23.204319,23.159046,23.12584,23.102556,23.096188,23.09801,23.102337,23.105556,23.105034,23.102575,23.098316,23.09474,23.093151,23.093567,23.09533,23.097292,23.098915,23.099798,23.100561,23.101147,23.100826,23.099615,23.096699,23.092003,23.087105,23.08126,23.073738,23.066433,23.059477,23.051281,23.0439,23.038174,23.0322,23.026432,23.021507,23.017342,23.014006,23.011826,23.010235,23.008984,23.008377,23.00835,23.008385,23.008718,23.009357,23.010025,23.011429,23.013405,23.015549,23.018044,23.020119,23.021313,23.023708,23.027306,23.031105,23.036758,23.041872,23.04463,23.046852,23.049915,23.053936,23.058376,23.063723,23.06892,23.074806,23.082108,23.089655,23.097057,23.106443,23.12222,23.14314,23.175928,23.213428,23.241581,23.26595,23.290054,23.310452,23.328325,23.356941,23.380966,23.386257,23.396626,23.407679,23.414059,23.395832,23.329926,23.204987,22.931133,22.217293,21.361029,20.7734,20.15975,19.682621,19.358322,19.042582,18.794052,18.614067,18.404827,18.190006
24.773233,24.763273,24.753021,24.740765,24.731092,24.726782,24.726658,24.730606,24.734398,24.735214,24.7286,24.713907,24.695421,24.663755,24.637426,24.629894,24.633846,24.644196,24.648373,24.628862,24.600925,24.576977,24.541704,24.490261,24.448957,24.438614,24.401377,24.360806,24.345356,24.335262,24.40446,24.510609,24.54085,23.793564,22.25335,19.944187,18.141104,17.55821,17.37061,17.365538,17.458485,17.47932,17.538536,17.56782,17.535103,17.46587,17.367962,17.287876,17.23093,17.19917,17.201294,17.21457,17.232384,17.245907,17.250154,17.2462,17.23452,17.222374,17.209242,17.19651,17.18814,17.182034,17.176609,17.17299,17.170425,17.168667,17.1679,17.167454,17.16711,17.167046,17.167501,17.169119,17.172518,17.176907,17.181736,17.18791,17.194016,17.19923,17.204971,17.210068,17.21372,17.217243,17.220997,17.224419,17.227716,17.231632,17.235142,17.237919,17.241444,17.245174,17.2485,17.253227,17.259161,17.264816,17.272314,17.280941,17.287823,17.293732,17.298157,17.29964,17.299519,17.298573,17.297691,17.29755,17.299,17.30239,17.306229,17.310839,17.316475,17.3218,17.327312,17.334923,17.343601,17.352386,17.365566,17.380192,17.39212,17.405258,17.416735,17.42429,17.430374,17.442883,17.464752,17.49722,17.551079,17.609264,17.658604,17.694279,17.695091,17.672283,17.669682,17.676693,17.712337,17.853405,18.392101,19.360332,20.83619,22.28246,23.074123,23.356495,23.517155,23.542488,23.545574,23.523659,23.484278,23.456059,23.448935,23.44219,23.434826,23.437511,23.44073,23.441528,23.439892,23.439934,23.442734,23.446777,23.454487,23.446396,23.422731,23.404732,23.372665,23.331545,23.290234,23.239538,23.193624,23.159302,23.125116,23.102148,23.092697,23.09068,23.097565,23.107695,23.118916,23.129894,23.135454,23.136475,23.131927,23.125786,23.123419,23.125154,23.133259,23.144249,23.160015,23.182156,23.203491,23.223213,23.243671,23.257315,23.264404,23.26476,23.256397,23.24522,23.233547,23.218279,23.202785,23.192444,23.185032,23.180664,23.177872,23.17582,23.174929,23.17527,23.171982,23.1628,23.150959,23.130003,23.094395,23.054525,23.007458,22.954247,22.912884,22.881865,22.858654,22.849922,22.848576,22.849014,22.848972,22.846642,22.842876,22.83817,22.834694,22.833258,22.833954,22.836067,22.838448,22.840763,22.842491,22.844059,22.845642,22.84635,22.845982,22.844002,22.840286,22.836193,22.831139,22.82449,22.817924,22.811605,22.804096,22.79726,22.791914,22.786274,22.780708,22.77589,22.771729,22.768232,22.765787,22.763855,22.761997,22.760635,22.759842,22.758867,22.758158,22.757885,22.75748,22.757782,22.758842,22.759972,22.761364,22.762499,22.762821,22.764225,22.76695,22.770044,22.774906,22.779425,22.781872,22.7846,22.786842,22.78836,22.791203,22.796436,22.802597,22.80893,22.81645,22.823677,22.830303,22.838642,22.851212,22.866787,22.892582,22.92487,22.951515,22.974403,22.99548,23.012634,23.028513,23.063301,23.099903,23.11642,23.143316,23.16173,23.160606,23.149927,23.098728,22.993153,22.782877,22.169998,21.393017,20.820374,20.22997,19.768227,19.429304,19.089424,18.81715,18.624163,18.405796,18.189327
24.356758,24.345184,24.334373,24.321712,24.31193,24.30762,24.307343,24.310844,24.313778,24.312653,24.303701,24.287384,24.26778,24.236698,24.213448,24.209679,24.225166,24.260185,24.293121,24.297855,24.280233,24.25256,24.214783,24.16114,24.116444,24.098072,24.05513,24.009819,23.987648,23.969688,24.03215,24.133652,24.146366,23.38676,21.898335,19.830763,18.173428,17.587006,17.408592,17.39933,17.483524,17.504196,17.55807,17.580177,17.54274,17.470474,17.371918,17.293148,17.238026,17.20819,17.211266,17.224583,17.241394,17.252987,17.25536,17.249462,17.236088,17.2229,17.20908,17.196047,17.187737,17.181816,17.17682,17.173775,17.17176,17.170698,17.170572,17.170551,17.17055,17.170553,17.1708,17.171993,17.174633,17.17817,17.182173,17.18734,17.192566,17.197145,17.202328,17.207125,17.210716,17.214357,17.21851,17.222458,17.226362,17.23113,17.235552,17.239216,17.243849,17.248623,17.252735,17.258305,17.264858,17.270802,17.278408,17.286884,17.29346,17.298965,17.302883,17.303932,17.303492,17.302269,17.301224,17.300993,17.30228,17.305431,17.309023,17.313328,17.318653,17.323833,17.329418,17.337498,17.347109,17.35705,17.372194,17.389212,17.403227,17.418621,17.43151,17.439154,17.444206,17.453897,17.472267,17.501158,17.55188,17.609398,17.660128,17.700348,17.707832,17.690811,17.693222,17.699162,17.728914,17.870518,18.39927,19.34367,20.787848,22.19037,22.938103,23.180622,23.329418,23.353827,23.341698,23.311651,23.263287,23.224361,23.210312,23.20185,23.195324,23.193823,23.1944,23.19218,23.183613,23.177773,23.181282,23.191532,23.19536,23.17852,23.147846,23.122969,23.088099,23.050152,23.014927,22.971413,22.931255,22.900774,22.869959,22.848125,22.83775,22.833067,22.835846,22.841434,22.845123,22.847008,22.845953,22.84324,22.837366,22.832823,22.83282,22.83806,22.849255,22.861633,22.878685,22.9013,22.922258,22.941235,22.96084,22.974037,22.98072,22.983664,22.981129,22.976318,22.970402,22.962666,22.955292,22.949316,22.943077,22.937122,22.931322,22.921932,22.910522,22.899933,22.8832,22.861935,22.84188,22.814709,22.777845,22.740692,22.6984,22.651716,22.615494,22.587717,22.565807,22.55577,22.552032,22.549435,22.546879,22.54327,22.53875,22.534077,22.53104,22.530067,22.531342,22.53401,22.536966,22.540112,22.542744,22.545101,22.547634,22.549301,22.549713,22.548645,22.545921,22.542662,22.538452,22.532772,22.527067,22.521523,22.51487,22.508732,22.503891,22.49871,22.493448,22.488775,22.48466,22.481028,22.478333,22.476042,22.473602,22.471558,22.470055,22.468166,22.466526,22.465477,22.464165,22.463547,22.46386,22.464172,22.464695,22.465122,22.464806,22.4655,22.467611,22.470203,22.474504,22.478626,22.480896,22.483772,22.486076,22.487278,22.489553,22.493298,22.497917,22.50409,22.511951,22.5193,22.52539,22.532465,22.54258,22.555141,22.573496,22.598804,22.622982,22.644524,22.66405,22.678577,22.690683,22.716618,22.75211,22.786121,22.82452,22.856777,22.87757,22.87279,22.829815,22.749756,22.602749,22.106709,21.432236,20.880348,20.308096,19.861057,19.527672,19.163136,18.855373,18.64477,18.412643,18.191416
23.942871,23.93005,23.91902,23.906475,23.896732,23.89198,23.890203,23.890217,23.889074,23.884499,23.872353,23.854519,23.835075,23.805767,23.784184,23.779858,23.803207,23.854588,23.905388,23.941647,23.944721,23.915554,23.870417,23.81792,23.777397,23.748175,23.702625,23.659605,23.635399,23.619682,23.660875,23.723248,23.745644,23.007326,21.574108,19.726696,18.203663,17.616123,17.443098,17.432106,17.509987,17.52634,17.571182,17.583508,17.540379,17.464617,17.366375,17.290852,17.239553,17.213799,17.219408,17.233837,17.250488,17.2605,17.261051,17.253166,17.237947,17.223564,17.20892,17.195454,17.187103,17.181305,17.176685,17.174232,17.172836,17.17263,17.173388,17.174032,17.174686,17.175089,17.175364,17.17633,17.178373,17.181118,17.184284,17.188364,17.192558,17.196344,17.200768,17.205082,17.208487,17.21217,17.21673,17.221287,17.225937,17.23177,17.23732,17.242065,17.248035,17.254044,17.259085,17.265636,17.2729,17.27916,17.286844,17.295042,17.30114,17.306042,17.309185,17.309559,17.308598,17.306868,17.305424,17.304901,17.305798,17.30846,17.311584,17.315365,17.32019,17.325132,17.330738,17.339314,17.349974,17.36124,17.378668,17.398523,17.415066,17.433254,17.448013,17.455948,17.459957,17.46641,17.480602,17.505104,17.551786,17.608208,17.66043,17.706434,17.723053,17.71447,17.72445,17.732445,17.75948,17.90578,18.424797,19.336765,20.728277,22.065182,22.757275,22.958912,23.077755,23.086548,23.064194,23.031324,22.98499,22.946815,22.926685,22.917076,22.91315,22.905952,22.90004,22.89339,22.882143,22.87732,22.87748,22.876762,22.86605,22.840881,22.811829,22.786623,22.758726,22.732727,22.707127,22.674671,22.643637,22.619312,22.593319,22.572693,22.560781,22.552929,22.550335,22.55,22.546309,22.53932,22.531403,22.52435,22.516851,22.512878,22.512959,22.517769,22.527298,22.537209,22.55053,22.568478,22.585606,22.60152,22.61827,22.629997,22.636393,22.64159,22.643932,22.644356,22.643703,22.64289,22.642658,22.640491,22.636349,22.631075,22.624695,22.612526,22.596363,22.580292,22.556934,22.529926,22.50617,22.476768,22.44118,22.407803,22.37093,22.331154,22.300499,22.2767,22.257408,22.24768,22.243046,22.239157,22.235594,22.23169,22.227325,22.22337,22.221191,22.221046,22.223196,22.226597,22.230232,22.23424,22.237682,22.240656,22.243893,22.24622,22.247166,22.246773,22.244831,22.242264,22.238796,22.233994,22.229107,22.224327,22.218561,22.213198,22.208925,22.204296,22.19942,22.194954,22.190956,22.187286,22.184443,22.181932,22.17913,22.176666,22.174734,22.17234,22.17022,22.168783,22.167042,22.166008,22.165993,22.165955,22.16613,22.16631,22.165827,22.166368,22.16836,22.170853,22.175041,22.179134,22.181469,22.184534,22.187458,22.18948,22.19215,22.195206,22.198524,22.20398,22.2112,22.217937,22.223312,22.229315,22.238054,22.249275,22.263481,22.282665,22.301922,22.32206,22.34119,22.354015,22.362652,22.37563,22.398918,22.432713,22.476847,22.528324,22.576618,22.591805,22.565208,22.505362,22.407803,22.021471,21.45525,20.934124,20.383541,19.951473,19.630535,19.25145,18.912231,18.678558,18.427946,18.197643
23.605215,23.591337,23.579727,23.566925,23.556812,23.551277,23.548111,23.546173,23.543388,23.53794,23.524723,23.50655,23.488487,23.462002,23.442291,23.43723,23.461159,23.513165,23.565025,23.618896,23.640453,23.61761,23.569881,23.519548,23.484705,23.45509,23.410976,23.371067,23.349941,23.337786,23.346922,23.353706,23.390266,22.700676,21.338528,19.65247,18.229,17.644115,17.471807,17.460361,17.53447,17.544216,17.579033,17.58123,17.532265,17.453495,17.356207,17.28434,17.237204,17.215992,17.224684,17.240788,17.258007,17.267183,17.266483,17.257175,17.24057,17.225273,17.21001,17.196213,17.187832,17.182114,17.177782,17.17581,17.17495,17.175526,17.177164,17.178513,17.17992,17.180897,17.181385,17.182331,17.184036,17.186216,17.188728,17.191902,17.195177,17.198212,17.201866,17.205637,17.208786,17.212414,17.217274,17.22234,17.227634,17.234417,17.240967,17.246662,17.253773,17.260818,17.266651,17.274044,17.281925,17.288464,17.29624,17.304226,17.309937,17.314365,17.316898,17.316751,17.315422,17.31335,17.311657,17.310934,17.311577,17.3139,17.316677,17.320065,17.324532,17.329323,17.334972,17.34397,17.355492,17.367834,17.387146,17.409422,17.428188,17.448952,17.465645,17.474174,17.477661,17.481674,17.492455,17.513254,17.5564,17.611782,17.66526,17.71658,17.741928,17.741676,17.759096,17.771751,17.800642,17.954428,18.46566,19.342247,20.665455,21.927876,22.570116,22.74604,22.827099,22.809761,22.785244,22.752508,22.715237,22.68809,22.665718,22.652225,22.645508,22.631523,22.615866,22.60395,22.595737,22.597076,22.588781,22.562687,22.534985,22.509502,22.493366,22.47942,22.464031,22.448517,22.432291,22.410572,22.38832,22.369795,22.348267,22.328697,22.315357,22.304867,22.297127,22.291496,22.284752,22.275166,22.265274,22.256557,22.247166,22.241444,22.240154,22.242237,22.247917,22.254082,22.261744,22.273388,22.286114,22.299149,22.313679,22.324892,22.33258,22.339031,22.34262,22.344467,22.346214,22.347591,22.348536,22.348948,22.347523,22.343853,22.338512,22.326702,22.309961,22.29277,22.268103,22.240093,22.215841,22.186777,22.153418,22.123428,22.091026,22.056826,22.030823,22.010643,21.994244,21.985746,21.981321,21.977497,21.974083,21.97057,21.966908,21.963978,21.962757,21.963509,21.96654,21.970613,21.974842,21.979519,21.983513,21.986858,21.990479,21.993137,21.994339,21.994335,21.992872,21.990747,21.987797,21.983618,21.979326,21.975113,21.970045,21.965324,21.961536,21.95739,21.952879,21.948631,21.94478,21.941154,21.93827,21.935707,21.932789,21.930172,21.92811,21.92562,21.923462,21.921991,21.920254,21.91925,21.919262,21.919258,21.919497,21.919777,21.919464,21.920244,21.922455,21.925121,21.929516,21.93383,21.936378,21.939796,21.943205,21.945698,21.949022,21.953129,21.957163,21.962006,21.967884,21.973286,21.977818,21.983139,21.990982,22.000889,22.014572,22.030508,22.044312,22.062593,22.081436,22.09388,22.101349,22.1095,22.121048,22.134377,22.177887,22.243038,22.300892,22.34859,22.351189,22.303047,22.234066,21.92645,21.448906,20.966396,20.444094,20.0247,19.707027,19.327724,18.97477,18.717417,18.448093,18.206802
23.273418,23.260433,23.248959,23.235838,23.224796,23.218132,23.21353,23.209232,23.204151,23.197554,23.184843,23.168701,23.15281,23.131107,23.116058,23.113174,23.130234,23.175358,23.228737,23.293163,23.329838,23.31689,23.27195,23.213379,23.174652,23.166403,23.129662,23.086735,23.067781,23.061932,23.047155,23.006012,23.043732,22.386938,21.092247,19.57771,18.260279,17.676493,17.501839,17.492437,17.566185,17.567905,17.5913,17.581944,17.526129,17.443306,17.346073,17.277388,17.234215,17.217567,17.229576,17.247639,17.265835,17.274572,17.272905,17.262486,17.244808,17.228851,17.213203,17.199306,17.191051,17.185507,17.181509,17.180016,17.17968,17.181044,17.183582,17.185684,17.187906,17.189526,17.190285,17.191265,17.192663,17.19428,17.196136,17.198355,17.200617,17.202803,17.205526,17.208559,17.211308,17.214733,17.219753,17.225227,17.23108,17.238697,17.246134,17.252647,17.260746,17.268692,17.275202,17.283323,17.29174,17.298527,17.306404,17.314281,17.319763,17.323921,17.326159,17.325844,17.324474,17.32247,17.320919,17.320324,17.321062,17.323391,17.326103,17.32943,17.333862,17.338718,17.344574,17.354065,17.366388,17.379667,17.400642,17.42517,17.446133,17.469646,17.488815,17.498674,17.50262,17.505379,17.513702,17.531559,17.57174,17.626205,17.680725,17.736961,17.77071,17.778717,17.803324,17.823048,17.858213,18.022411,18.528015,19.361631,20.580463,21.757122,22.35686,22.49504,22.546661,22.517742,22.492855,22.458405,22.419003,22.390457,22.372494,22.362007,22.355743,22.344997,22.335901,22.323784,22.303406,22.278397,22.250465,22.225506,22.200882,22.181347,22.17065,22.162224,22.153904,22.145561,22.136225,22.12305,22.108566,22.095762,22.07928,22.06448,22.05562,22.047165,22.038862,22.031422,22.023096,22.01186,22.000685,21.990967,21.980116,21.972303,21.968641,21.96738,21.969604,21.973335,21.978989,21.988064,21.997736,22.00706,22.017326,22.025238,22.030672,22.03512,22.037779,22.039568,22.042028,22.04494,22.047485,22.049938,22.05067,22.048561,22.044544,22.03402,22.018082,22.001207,21.976934,21.949383,21.925566,21.897589,21.866684,21.839886,21.81161,21.782547,21.760902,21.744171,21.73067,21.723629,21.719734,21.71635,21.713417,21.710522,21.70774,21.705898,21.705612,21.707209,21.711018,21.715649,21.720364,21.725563,21.729954,21.733543,21.737408,21.74028,21.741657,21.741962,21.74091,21.739164,21.736656,21.733013,21.729229,21.725494,21.721046,21.716908,21.713566,21.709904,21.705774,21.701748,21.698078,21.694529,21.691643,21.68906,21.686104,21.683455,21.681353,21.678902,21.676857,21.675499,21.673935,21.673126,21.673283,21.673439,21.67387,21.674347,21.674316,21.675434,21.677942,21.680859,21.685545,21.690174,21.693024,21.696854,21.700771,21.70374,21.707598,21.712276,21.716742,21.721903,21.728073,21.73357,21.738037,21.742569,21.748688,21.756573,21.767242,21.781036,21.79411,21.807583,21.824253,21.8382,21.84551,21.850689,21.85535,21.859528,21.886978,21.942905,22.005928,22.08781,22.132957,22.109823,22.049797,21.804,21.419563,20.995085,20.507397,20.092905,19.772118,19.408134,19.055271,18.766006,18.474981,18.220749
