10.730563,10.799658,10.86981,10.925439,10.9864855,11.055391,11.115919,11.171844,11.235242,11.29099,11.336635,11.390345,11.442561,11.485543,11.5334215,11.580213,11.616543,11.654301,11.694324,11.7275,11.756916,11.7905035,11.820429,11.844524,11.873486,11.902769,11.927364,11.9574375,11.991507,12.021005,12.050459,12.083193,12.112205,12.13887,12.1706085,12.200592,12.225929,12.256459,12.287304,12.312519,12.339233,12.365548,12.385456,12.401701,12.415516,12.423632,12.427467,12.430994,12.4345665,12.43829,12.443846,12.452669,12.462945,12.477257,12.497877,12.51886,12.540016,12.563917,12.5843525,12.601575,12.62014,12.635513,12.646925,12.657368,12.664466,12.668392,12.672551,12.676395,12.67993,12.684675,12.694042,12.70803,12.724688,12.748905,12.777161,12.803139,12.835411,12.869621,12.897707,12.931362,12.966948,12.9944935,13.019141,13.04249,13.06277,13.084997,13.113863,13.145889,13.175192,13.212029,13.253408,13.289131,13.328745,13.3724785,13.410834,13.448921,13.4981785,13.545219,13.582344,13.626274,13.664669,13.690281,13.718407,13.742007,13.757179,13.774956,13.798019,13.822098,13.846537,13.880683,13.917629,13.950507,13.994528,14.042454,14.082705,14.127819,14.173237,14.207885,14.238552,14.267929,14.289387,14.305003,14.320728,14.333048,14.341941,14.352594,14.364063,14.374435,14.387575,14.404617,14.4218025,14.442118,14.46657,14.488288,14.506861,14.529175,14.548029,14.559702,14.576668,14.594997,14.609261,14.623738,14.643197,14.665083,14.689932,14.723318,14.756229,14.785457,14.813572,14.836899,14.857465,14.887833,14.917435,14.936045,14.956249,14.978069,14.996128,15.010838,15.024447,15.034138,15.042074,15.0480385,15.049959,15.049575,15.050051,15.050763,15.051722,15.057442,15.061882,15.062313,15.063194,15.061586,15.05897,15.057842,15.061473,15.065546,15.065296,15.063193,15.0604725,15.058959,15.05434,15.061956,15.0859165,15.118362,15.175232,15.244389,15.310492,15.375743,15.425531,15.458253,15.473064,15.474188,15.472698,15.470481,15.464395,15.45661,15.449271,15.444085,15.442328,15.441465,15.439081,15.438999,15.442661,15.447735,15.45367,15.457775,15.460221,15.457283,15.448908,15.438901,15.423161,15.404484,15.387275,15.365021,15.340696,15.320108,15.296549,15.271572,15.251665,15.233709,15.215055,15.200107,15.187799,15.176986,15.172176,15.172105,15.174572,15.178918,15.182493,15.1859665,15.187513,15.186833,15.185493,15.185478,15.190315,15.200025,15.219093,15.245142,15.269999,15.298788,15.330136,15.357077,15.383163,15.407522,15.423806,15.436091,15.437122,15.421239,15.395777,15.359444,15.314243,15.269838,15.199181,15.105884,15.018501,14.918523,14.791835,14.674474,14.579121,14.453821,14.329149,14.22105,14.177101,14.175026,14.15524,14.151318,14.156184,14.158928,14.157532,14.142393,14.128747,14.139875,14.169697,14.217538,14.271706,14.356022,14.462252,14.560696,14.699842,14.861971,14.990816,15.093256,15.193841,15.267929,15.304922,15.371748,15.477545,15.598307,15.762427,15.952787,16.119965,16.295675,16.484245,16.649502,16.822393,17.024734,17.201706,17.347252,17.499107,17.620737,17.707619,17.825768,18.000114,18.199257,18.482042,18.84383,19.193642,19.58881,20.16145
10.7104645,10.786102,10.863239,10.924721,10.992643,11.068226,11.133712,11.194855,11.264999,11.327372,11.378662,11.438738,11.496708,11.54411,11.600233,11.654545,11.694248,11.735751,11.779597,11.815818,11.847748,11.883839,11.915553,11.940781,11.970938,12.000874,12.025473,12.055109,12.087768,12.115503,12.143732,12.174985,12.202389,12.227461,12.2568865,12.284534,12.308079,12.3370495,12.367268,12.392609,12.418783,12.443745,12.46184,12.475428,12.485814,12.490946,12.492499,12.493382,12.493857,12.494095,12.495167,12.499868,12.507542,12.519024,12.536938,12.555779,12.574346,12.595835,12.614887,12.631235,12.649691,12.666154,12.679226,12.692215,12.702526,12.709146,12.714306,12.71696,12.718548,12.722952,12.732067,12.745638,12.761887,12.785355,12.8127365,12.838064,12.868996,12.901652,12.928474,12.959055,12.991411,13.017032,13.039995,13.061834,13.081326,13.103411,13.132065,13.163698,13.192486,13.228479,13.268425,13.302649,13.340881,13.386101,13.428704,13.471586,13.526783,13.578489,13.618183,13.664839,13.704578,13.729881,13.75639,13.779211,13.795347,13.81319,13.836744,13.861996,13.887776,13.924774,13.96547,14.0017,14.050528,14.104225,14.149769,14.201928,14.255951,14.298342,14.336824,14.375441,14.404991,14.42681,14.449618,14.4683,14.482177,14.498665,14.515715,14.530378,14.548286,14.569811,14.590195,14.613945,14.640833,14.662901,14.680369,14.702219,14.721682,14.734127,14.754849,14.779446,14.799458,14.817537,14.841473,14.869707,14.903741,14.950027,14.996797,15.039,15.091888,15.145214,15.189922,15.251123,15.310698,15.350019,15.388193,15.427625,15.462191,15.4966345,15.532921,15.5618,15.584679,15.6131525,15.639624,15.658561,15.683071,15.709402,15.731546,15.761767,15.793827,15.81549,15.829415,15.836581,15.837116,15.83756,15.838274,15.830437,15.813023,15.789814,15.762207,15.738936,15.714438,15.698565,15.698051,15.702825,15.727739,15.767361,15.804266,15.860149,15.917807,15.957342,15.963481,15.949193,15.936625,15.923451,15.899312,15.871485,15.849283,15.823059,15.79743,15.774141,15.750239,15.7337475,15.726378,15.719952,15.717134,15.7170515,15.716738,15.713579,15.707441,15.7006,15.689354,15.675282,15.661858,15.643099,15.62332,15.608209,15.590178,15.569274,15.550144,15.529867,15.503851,15.477879,15.451757,15.433517,15.427628,15.425398,15.427815,15.44338,15.467369,15.497307,15.53352,15.566091,15.598461,15.642763,15.690983,15.736397,15.799823,15.877666,15.955175,16.053154,16.152739,16.225285,16.288128,16.335125,16.364006,16.397738,16.437756,16.469053,16.486118,16.50673,16.519966,16.52149,16.517931,16.535572,16.582214,16.658197,16.821823,17.042366,17.283676,17.653473,18.052898,18.4,18.686993,18.884983,19.044834,19.220512,19.416618,19.599308,19.801079,20.053816,20.278313,20.437134,20.634327,20.840778,21.028652,21.259008,21.499393,21.701736,21.906376,22.09808,22.236814,22.341183,22.433315,22.521206,22.627918,22.815617,23.063519,23.310204,23.633045,23.953379,24.185514,24.441196,24.724434,24.981537,25.257408,25.588535,25.8849,26.133333,26.395195,26.605179,26.753698,26.94664,27.220327,27.527351,27.94365,28.463608,28.963825,29.536835,30.371124
10.712944,10.795151,10.879429,10.946871,11.020142,11.100992,11.171225,11.237932,11.3149,11.383501,11.439864,11.506488,11.570657,11.62244,11.682804,11.741103,11.784069,11.828491,11.874615,11.911779,11.94364,11.979089,12.009717,12.033684,12.062103,12.089688,12.111765,12.138054,12.166527,12.190393,12.2145405,12.241116,12.26436,12.285578,12.311001,12.335114,12.355364,12.38019,12.406317,12.428578,12.4522505,12.474326,12.489725,12.502672,12.513189,12.51784,12.517006,12.516117,12.515281,12.513561,12.511937,12.513557,12.5186205,12.52753,12.543295,12.560719,12.577503,12.597755,12.616686,12.633427,12.652692,12.670191,12.684179,12.698795,12.711748,12.72123,12.729355,12.734789,12.738075,12.743263,12.752472,12.765245,12.780015,12.801079,12.825542,12.848232,12.875334,12.90411,12.928171,12.954233,12.983459,13.008606,13.031034,13.052511,13.072117,13.094885,13.124383,13.156897,13.186468,13.223932,13.265621,13.301458,13.341875,13.397467,13.454697,13.507224,13.573278,13.634504,13.681544,13.734844,13.779315,13.8079815,13.838284,13.86467,13.882751,13.898163,13.918413,13.942375,13.968181,14.0079975,14.053816,14.095201,14.150696,14.210688,14.260538,14.318363,14.377966,14.424192,14.465881,14.509222,14.544228,14.570955,14.600483,14.626075,14.645665,14.668276,14.690641,14.709174,14.7317,14.758907,14.783859,14.809135,14.833485,14.849899,14.860078,14.878773,14.904148,14.927938,14.9670105,15.019136,15.067705,15.116198,15.16519,15.2086525,15.262138,15.33526,15.410661,15.480504,15.567101,15.65506,15.730815,15.828416,15.934501,16.021845,16.113632,16.205828,16.281311,16.364227,16.45044,16.514732,16.5606,16.62384,16.689243,16.739803,16.80538,16.874273,16.928272,16.988016,17.047443,17.087467,17.111814,17.125156,17.127018,17.127281,17.123169,17.114658,17.105768,17.091166,17.070885,17.051838,17.031773,17.018744,17.014336,17.005835,16.998093,16.990597,16.980001,16.971197,16.95897,16.941467,16.908573,16.86854,16.835892,16.799845,16.737932,16.668865,16.616093,16.547308,16.479183,16.42461,16.36375,16.314316,16.2848,16.257769,16.240705,16.234274,16.22806,16.228168,16.23516,16.244722,16.256327,16.266235,16.273449,16.277504,16.279654,16.281921,16.279205,16.270285,16.258068,16.241737,16.21774,16.194218,16.172022,16.173508,16.195457,16.213537,16.242218,16.294767,16.359406,16.440176,16.53987,16.63229,16.725363,16.84982,16.973236,17.073433,17.20528,17.364826,17.526546,17.743683,17.959595,18.104258,18.226395,18.310682,18.364138,18.446865,18.559372,18.680355,18.80015,18.953556,19.103449,19.217415,19.328789,19.524067,19.805717,20.219463,21.00388,21.9789,22.963076,24.434275,26.00336,27.370811,28.315102,28.856335,29.3749,29.891594,30.449566,30.981804,31.584766,32.38627,33.097282,33.52317,34.006805,34.47117,34.86702,35.30151,35.69952,36.00383,36.17242,36.223377,36.230965,36.252304,36.252823,36.31584,36.558952,36.91638,37.26602,37.526924,37.83095,38.014805,38.030853,38.081146,38.159214,38.251575,38.363625,38.521885,38.681656,38.82293,38.973095,39.09572,39.186394,39.29377,39.417145,39.53148,39.62272,39.70426,39.777916,39.870865,40.001396
10.724148,10.813832,10.906185,10.980294,11.060588,11.148919,11.225414,11.297885,11.381477,11.456415,11.518789,11.592236,11.662302,11.718233,11.783191,11.844919,11.889423,11.93516,11.982239,12.019622,12.050733,12.084652,12.113418,12.135658,12.162035,12.187233,12.206899,12.230015,12.254349,12.274389,12.294943,12.320031,12.344908,12.36968,12.399462,12.42726,12.45031,12.477917,12.506527,12.530901,12.557066,12.582141,12.599558,12.611313,12.617315,12.614659,12.604484,12.587807,12.570139,12.556057,12.543213,12.537258,12.537987,12.542601,12.554956,12.570755,12.588714,12.608345,12.623786,12.635214,12.6553955,12.678724,12.69696,12.715211,12.729901,12.739819,12.752166,12.763682,12.771332,12.777857,12.788258,12.80224,12.817694,12.839367,12.863692,12.885258,12.916393,12.954009,12.987079,13.023766,13.058514,13.082203,13.103392,13.121216,13.136902,13.157918,13.186668,13.219197,13.248552,13.288904,13.332382,13.366611,13.405561,13.4578,13.511886,13.564434,13.633689,13.700072,13.751864,13.810066,13.857687,13.887469,13.918679,13.942733,13.956196,13.968855,13.986531,14.008331,14.0324955,14.070261,14.113806,14.152849,14.206057,14.264736,14.314367,14.374329,14.439731,14.493207,14.543249,14.595446,14.638479,14.675333,14.715347,14.750294,14.778959,14.81358,14.8482485,14.876178,14.909445,14.948229,14.9835415,15.018406,15.069158,15.124417,15.175024,15.232379,15.284085,15.325729,15.381475,15.444538,15.49939,15.563177,15.641163,15.718025,15.8038435,15.917866,16.039034,16.15821,16.323986,16.515045,16.693409,16.917418,17.17163,17.406202,17.76191,18.202187,18.588451,18.964354,19.395416,19.783895,20.119677,20.536072,20.940084,21.25763,21.588297,21.910122,22.165451,22.359058,22.472794,22.493654,22.472466,22.387695,22.230911,22.022299,21.776745,21.589827,21.501389,21.436285,21.459476,21.559338,21.734913,22.006554,22.2635,22.478214,22.579006,22.482437,22.285397,21.94699,21.545105,21.221596,20.93179,20.665401,20.440605,20.202389,19.900162,19.610086,19.346306,19.109756,19.004745,19.002827,19.080444,19.257555,19.457752,19.72015,20.001492,20.20813,20.38921,20.545424,20.64201,20.706903,20.77404,20.837364,20.893948,21.003086,21.128445,21.223583,21.393726,21.662418,21.979033,22.396023,23.067345,23.854805,24.661318,25.566418,26.428253,27.20784,28.040485,28.640955,28.905516,29.167429,29.376009,29.526577,29.702751,29.961334,30.230782,30.448662,30.7663,31.01019,31.070208,31.166557,31.214924,31.1947,31.161152,31.213211,31.347332,31.46313,31.635675,31.799427,31.905493,31.960117,32.002975,32.086792,32.197044,32.34421,32.49154,32.63444,32.936073,33.34607,33.743694,34.37616,35.069572,35.651466,36.159386,36.57404,36.956963,37.356934,37.743744,38.056335,38.42241,38.839417,39.16179,39.354706,39.568535,39.763245,39.915947,40.085613,40.2539,40.3976,40.49939,40.576332,40.648743,40.77086,40.898663,41.009678,41.157204,41.326843,41.459534,41.542355,41.63002,41.65811,41.621704,41.600555,41.586334,41.579483,41.56703,41.592888,41.643673,41.67637,41.69632,41.697323,41.691906,41.677467,41.657944,41.640816,41.601257,41.54774,41.504093,41.47307,41.441467
10.749218,10.843276,10.9403925,11.018707,11.104035,11.197953,11.278925,11.355148,11.442344,11.520302,11.585897,11.661522,11.732187,11.788108,11.852003,11.913126,11.95826,12.004414,12.05183,12.090068,12.123605,12.1618595,12.195169,12.220626,12.250685,12.279086,12.300951,12.32662,12.354296,12.37793,12.402769,12.433773,12.464673,12.495191,12.531166,12.564119,12.591312,12.623354,12.655983,12.683521,12.713136,12.741138,12.759689,12.769859,12.771488,12.761335,12.73994,12.705313,12.667646,12.636824,12.602993,12.580915,12.575515,12.580162,12.596666,12.61515,12.632108,12.645945,12.652876,12.655901,12.666826,12.686375,12.707754,12.730057,12.750753,12.767275,12.790465,12.8107395,12.820631,12.826805,12.834681,12.845764,12.859087,12.879978,12.907394,12.935228,12.967758,13.007509,13.046692,13.092448,13.134942,13.162544,13.190182,13.210089,13.222966,13.241829,13.26545,13.292839,13.320086,13.355099,13.39722,13.436505,13.48297,13.542834,13.602818,13.663757,13.744608,13.822793,13.884925,13.954969,14.012361,14.048153,14.083339,14.1081085,14.120739,14.1343775,14.154615,14.180218,14.209391,14.254599,14.307833,14.357895,14.424984,14.498395,14.5605545,14.635574,14.719218,14.790311,14.860912,14.938707,15.005844,15.064381,15.133032,15.196473,15.248014,15.308531,15.368034,15.415787,15.470936,15.534283,15.593133,15.655364,15.749612,15.861107,15.969936,16.154308,16.384365,16.59673,16.867016,17.154427,17.388355,17.635,17.888283,18.104397,18.336473,18.65359,18.992313,19.315891,19.726318,20.13684,20.473892,20.90567,21.386314,21.809189,22.376278,23.034079,23.579102,24.068165,24.598003,25.046265,25.410263,25.854586,26.279133,26.608982,26.95263,27.28768,27.555069,27.760746,27.897053,27.950571,27.972937,27.945372,27.836937,27.655708,27.456154,27.335377,27.316147,27.350275,27.515236,27.756401,28.064835,28.45692,28.801735,29.107494,29.313381,29.312164,29.195415,28.951944,28.65118,28.419754,28.253288,28.12072,27.99981,27.868593,27.663174,27.42471,27.17389,26.93987,26.84126,26.858303,26.967175,27.194117,27.451363,27.808262,28.226849,28.561422,28.836159,29.099552,29.309284,29.494774,29.703854,29.894619,30.050888,30.276196,30.504574,30.670307,30.936314,31.325397,31.752968,32.287853,33.033386,33.826523,34.62682,35.482903,36.270393,36.988853,37.77471,38.343765,38.58564,38.828102,39.04596,39.2277,39.42983,39.694572,39.94749,40.150482,40.42479,40.583134,40.53885,40.476997,40.35253,40.208805,40.078644,40.02994,40.066994,40.083946,40.179005,40.29786,40.35669,40.347958,40.32827,40.36621,40.42672,40.468307,40.455997,40.362965,40.22888,40.118317,40.021973,39.9319,39.8582,39.76523,39.827972,40.017742,40.189045,40.39569,40.544815,40.584583,40.602028,40.548344,40.46152,40.402122,40.391068,40.41156,40.408062,40.397686,40.40872,40.45026,40.549866,40.71168,40.878838,41.07744,41.292343,41.44156,41.521225,41.61217,41.681698,41.710747,41.7377,41.76623,41.797432,41.829872,41.851707,41.85376,41.833557,41.825935,41.82747,41.80883,41.763214,41.698864,41.638924,41.55903,41.471893,41.401672,41.333565,41.26745,41.21735,41.178146,41.14331
10.781624,10.8765545,10.974688,11.054262,11.141648,11.237852,11.3204,11.3979,11.485394,11.562725,11.627882,11.702,11.770635,11.82505,11.8858185,11.945648,11.992512,12.040251,12.089259,12.129593,12.167515,12.212959,12.253761,12.28491,12.321691,12.35637,12.382978,12.414413,12.44963,12.480907,12.514242,12.553291,12.588646,12.620729,12.656827,12.688927,12.715385,12.746813,12.77903,12.806293,12.835982,12.863508,12.880831,12.8893175,12.8895035,12.877222,12.850901,12.808951,12.762446,12.72267,12.676264,12.644107,12.635483,12.645773,12.674132,12.701567,12.719368,12.7298565,12.731968,12.731215,12.731054,12.740664,12.761357,12.785999,12.813987,12.8393755,12.872711,12.898439,12.906908,12.910542,12.913265,12.9194565,12.93,12.951462,12.986056,13.025593,13.059376,13.094442,13.1307535,13.173406,13.217898,13.253136,13.291409,13.322338,13.342721,13.367332,13.393431,13.421186,13.449978,13.483057,13.530988,13.586067,13.653803,13.742497,13.830312,13.918301,14.030663,14.137125,14.222828,14.319175,14.398596,14.449045,14.496332,14.530245,14.549593,14.568911,14.597961,14.63591,14.68009,14.749696,14.834141,14.916481,15.025682,15.142638,15.239395,15.355624,15.483065,15.590816,15.70232,15.831196,15.947341,16.048882,16.181297,16.312511,16.418022,16.538532,16.654404,16.746792,16.853222,16.980492,17.104073,17.242538,17.421732,17.608337,17.780266,18.117872,18.568466,18.988174,19.516819,20.081568,20.546057,21.024483,21.490055,21.863468,22.255043,22.793076,23.359768,23.881762,24.500595,25.063892,25.48885,26.030724,26.616486,27.104275,27.63885,28.1801,28.57873,28.8889,29.171606,29.354317,29.456102,29.57599,29.6856,29.765106,29.86583,29.974094,30.064486,30.165152,30.295567,30.429398,30.569603,30.733593,30.870758,30.965168,31.101578,31.273643,31.44233,31.670584,31.979504,32.27894,32.55255,32.805492,32.99578,33.184864,33.39895,33.59668,33.77176,33.994213,34.234413,34.444035,34.70701,34.997192,35.229507,35.43828,35.59401,35.650875,35.65123,35.621117,35.59687,35.604176,35.642235,35.734184,35.852356,36.03321,36.300335,36.55777,36.75046,36.984665,37.241257,37.511086,37.855217,38.176964,38.41931,38.687492,38.914318,39.06471,39.25257,39.474907,39.672142,39.87579,39.97467,39.93311,39.86847,39.7461,39.599327,39.474403,39.389465,39.370464,39.392895,39.438084,39.562992,39.7248,39.874832,40.01461,40.10537,40.175945,40.218018,40.204308,40.160065,40.057457,39.917,39.800407,39.704247,39.547356,39.37186,39.243412,39.19078,39.218533,39.248566,39.28968,39.329178,39.356647,39.37513,39.366364,39.335594,39.285393,39.22236,39.194157,39.228043,39.34223,39.493877,39.618652,39.755013,39.898468,40.036713,40.204887,40.319855,40.331688,40.262165,40.154892,40.07563,40.008636,40.052437,40.174816,40.26123,40.339714,40.42871,40.534225,40.69455,40.907936,41.10235,41.282223,41.464447,41.61483,41.747482,41.96845,42.193214,42.33304,42.492905,42.641396,42.753376,42.87021,42.97525,43.04438,43.097282,43.134575,43.146774,43.14537,43.12489,43.089607,43.056152,43.01042,42.959305,42.91736,42.87497,42.833656,42.802574,42.777397,42.748833
10.820265,10.917262,11.017852,11.099831,11.190128,11.288893,11.372671,11.450825,11.537418,11.612913,11.676396,11.752115,11.82592,11.886044,11.953872,12.021781,12.075577,12.130423,12.186087,12.230238,12.269341,12.314156,12.353706,12.384588,12.421985,12.456966,12.482689,12.513154,12.546788,12.576239,12.608118,12.643896,12.673397,12.697084,12.719407,12.736396,12.750488,12.768689,12.7894535,12.808395,12.830084,12.852689,12.868326,12.873037,12.870997,12.860403,12.839081,12.803179,12.764288,12.733313,12.711911,12.702452,12.699121,12.715821,12.755344,12.796982,12.828527,12.853851,12.866914,12.87278,12.880672,12.893879,12.910973,12.936098,12.965225,12.989502,13.021073,13.046726,13.056471,13.058367,13.059544,13.06612,13.078322,13.105085,13.144901,13.185682,13.226412,13.260686,13.284185,13.306742,13.338676,13.375578,13.413969,13.460102,13.50639,13.553745,13.606571,13.655488,13.695521,13.757603,13.832882,13.898762,13.977544,14.07633,14.173524,14.273729,14.404815,14.537337,14.654951,14.793274,14.913964,14.994828,15.073988,15.133305,15.16721,15.19999,15.244909,15.300442,15.364292,15.463469,15.584394,15.703505,15.871166,16.054445,16.204126,16.398909,16.614292,16.792217,16.981003,17.2016,17.408638,17.602802,17.882679,18.180964,18.428066,18.71348,18.98661,19.20026,19.449215,19.75998,20.071915,20.427822,20.853508,21.231068,21.537083,21.98925,22.478554,22.873667,23.326935,23.80809,24.233238,24.694544,25.169348,25.550495,25.904785,26.371313,26.83302,27.213772,27.623363,27.989754,28.297419,28.631912,28.967438,29.249634,29.546381,29.832909,30.033358,30.178568,30.316727,30.42522,30.510412,30.61686,30.7252,30.815538,30.933273,31.06879,31.18882,31.325447,31.499405,31.669868,31.835707,32.02907,32.21324,32.38241,32.60371,32.841465,33.04574,33.293495,33.588062,33.854076,34.090534,34.339016,34.550632,34.73903,34.90389,35.045918,35.213608,35.456776,35.737587,35.980408,36.244007,36.56903,36.86357,37.021584,37.110565,37.1652,37.239044,37.34919,37.479744,37.600967,37.81646,38.099342,38.352066,38.553284,38.73133,38.880157,39.016182,39.18039,39.346733,39.490425,39.80594,40.164337,40.39556,40.620907,40.772797,40.844696,40.900253,40.943794,40.981823,41.028908,41.050514,41.03986,41.024216,41.030968,41.05541,41.073025,41.115406,41.183342,41.25201,41.323814,41.41727,41.508934,41.590927,41.667484,41.72397,41.776417,41.83087,41.861794,41.867004,41.823963,41.729057,41.623375,41.471695,41.249207,41.05414,40.962936,40.89994,40.873604,40.872223,40.89112,40.897972,40.87122,40.848923,40.79815,40.71746,40.580627,40.400993,40.2546,40.129494,40.153877,40.327553,40.5046,40.759033,41.007534,41.17134,41.341637,41.463425,41.511135,41.522102,41.500046,41.472004,41.454994,41.469078,41.50525,41.52904,41.584213,41.68348,41.79811,41.962288,42.17881,42.38043,42.58242,42.794693,42.965595,43.11268,43.28049,43.41778,43.505997,43.612984,43.715763,43.792778,43.87094,43.93783,43.979027,44.01013,44.025894,44.025826,44.02215,44.025124,44.044006,44.074684,44.106228,44.131355,44.146782,44.165237,44.20127,44.25383,44.331757,44.427925
10.855534,10.957733,11.061755,11.143829,11.235151,11.336384,11.424283,11.508518,11.605731,11.6926365,11.764822,11.849443,11.930082,11.994706,12.063692,12.128912,12.178741,12.228523,12.279568,12.321107,12.358406,12.398937,12.43222,12.45695,12.486315,12.516087,12.541477,12.570236,12.603981,12.636141,12.672659,12.714015,12.74824,12.776739,12.805074,12.827163,12.844234,12.86785,12.894852,12.9186,12.948961,12.982483,13.006534,13.015036,13.019815,13.017969,13.003354,12.970261,12.931873,12.903622,12.886211,12.885313,12.893736,12.925475,12.986326,13.0499115,13.104584,13.155092,13.187426,13.207203,13.22752,13.246867,13.264813,13.291166,13.318165,13.336351,13.352351,13.357572,13.351515,13.338881,13.33437,13.351344,13.384119,13.450365,13.532807,13.601078,13.681236,13.761314,13.823238,13.882864,13.943663,13.997521,14.055687,14.125874,14.200497,14.280981,14.392057,14.498996,14.571832,14.656588,14.790191,14.95929,15.201494,15.552996,15.917322,16.28173,16.73561,17.129467,17.402122,17.659466,17.822891,17.900259,17.962362,17.990005,17.995613,17.998531,18.03782,18.127222,18.247437,18.482113,18.77693,19.041397,19.373878,19.710108,19.976673,20.265656,20.571718,20.835632,21.11013,21.418491,21.686813,21.922298,22.201714,22.455376,22.651691,22.872017,23.08342,23.255833,23.469301,23.753578,24.045584,24.373528,24.74057,25.043224,25.286854,25.61399,25.953682,26.234077,26.561031,26.87737,27.121979,27.400314,27.709785,27.979353,28.237135,28.564247,28.875257,29.127644,29.40709,29.66134,29.872347,30.083715,30.27852,30.436363,30.599754,30.757664,30.8733,30.965717,31.072393,31.183205,31.295364,31.439583,31.59236,31.725418,31.896164,32.09298,32.26754,32.462868,32.69154,32.899242,33.09793,33.32821,33.548027,33.752663,34.00682,34.26036,34.464844,34.700737,34.944016,35.135696,35.29723,35.454185,35.59121,35.731186,35.898758,36.095207,36.321594,36.658813,37.023193,37.302994,37.60744,37.967247,38.284203,38.438927,38.614204,38.818367,38.994,39.2295,39.475395,39.684006,39.96849,40.28044,40.536648,40.76335,40.93372,41.054214,41.252518,41.53327,41.8023,42.008583,42.320717,42.625195,42.81824,42.99237,43.096077,43.136623,43.15053,43.144485,43.140762,43.140934,43.18383,43.263557,43.34352,43.463783,43.588905,43.68313,43.783813,43.860672,43.90095,43.93628,43.954765,43.959766,43.968998,43.998405,44.03795,44.071533,44.089943,44.074417,44.038708,43.954136,43.79384,43.60476,43.324554,43.045334,42.89353,42.835968,42.83233,42.83275,42.77649,42.74816,42.731697,42.697693,42.659676,42.574295,42.4522,42.280006,42.11996,42.0565,42.062607,42.1891,42.38115,42.526863,42.767853,43.024376,43.20169,43.380722,43.518806,43.593224,43.65334,43.68162,43.67788,43.66857,43.645218,43.621414,43.606575,43.631638,43.718983,43.833393,44.001236,44.2318,44.453445,44.680435,44.92816,45.13272,45.30919,45.482677,45.611145,45.704063,45.80654,45.894665,45.955254,46.01973,46.074627,46.10721,46.131794,46.14285,46.13843,46.12834,46.115524,46.10909,46.112366,46.110672,46.10403,46.096718,46.089664,46.095177,46.117672,46.16046,46.21788
10.884991,10.991103,11.100988,11.1896305,11.290843,11.405153,11.505325,11.602833,11.709344,11.798302,11.870279,11.951892,12.028685,12.091372,12.154426,12.209845,12.249741,12.287933,12.327341,12.361414,12.394394,12.432094,12.464947,12.490598,12.5223875,12.559672,12.596449,12.639715,12.693231,12.746193,12.809006,12.88675,12.958879,13.026035,13.099073,13.160151,13.207411,13.268318,13.332781,13.386492,13.452847,13.526606,13.584,13.622288,13.648804,13.653256,13.6385975,13.58502,13.505209,13.431221,13.348904,13.300917,13.301044,13.337679,13.41523,13.496152,13.573861,13.646602,13.692787,13.723476,13.751312,13.7723,13.789452,13.809076,13.821626,13.823008,13.813026,13.789195,13.764765,13.745283,13.743837,13.780518,13.846193,13.978693,14.191483,14.432609,14.725561,14.998472,15.17416,15.315897,15.416864,15.482353,15.561035,15.664078,15.7828045,15.913605,16.09546,16.273533,16.398024,16.549477,16.806408,17.136421,17.58268,18.228317,18.89685,19.565544,20.320667,20.89587,21.244085,21.537306,21.683884,21.727192,21.750246,21.741238,21.724209,21.70541,21.741476,21.85126,21.999619,22.302933,22.687096,23.028954,23.430454,23.81842,24.124039,24.431698,24.752317,25.034187,25.316711,25.62438,25.875374,26.078167,26.261894,26.375576,26.44067,26.504517,26.56776,26.631039,26.724937,26.86433,27.008446,27.159771,27.306553,27.412823,27.504116,27.623068,27.768234,27.922188,28.131443,28.315548,28.415546,28.544172,28.70918,28.879156,29.075035,29.320084,29.553701,29.763824,30.03312,30.285175,30.46574,30.672691,30.871758,31.025326,31.19249,31.366676,31.50877,31.641361,31.79364,31.938707,32.074097,32.248215,32.43418,32.597923,32.794952,33.009407,33.193554,33.39739,33.63483,33.857246,34.087578,34.3696,34.638546,34.875267,35.14568,35.39071,35.575897,35.78788,36.012543,36.194424,36.33252,36.417274,36.478645,36.604744,36.827564,37.117836,37.412727,37.842865,38.30111,38.651207,39.06735,39.523148,39.88063,40.05136,40.322266,40.671844,40.94451,41.251137,41.532944,41.775337,42.050385,42.317642,42.53485,42.76088,42.95838,43.11274,43.34955,43.743214,44.156258,44.48145,44.792862,45.015526,45.174484,45.317047,45.409187,45.458366,45.5083,45.55001,45.58024,45.608036,45.676334,45.771637,45.86165,45.967316,46.051357,46.099823,46.14959,46.1718,46.161293,46.115158,46.040504,45.975246,45.922516,45.90278,45.909317,45.906414,45.865112,45.780304,45.686844,45.53826,45.34812,45.177437,44.968586,44.799873,44.731007,44.6877,44.71811,44.748817,44.670685,44.615913,44.59498,44.58423,44.567467,44.52469,44.460247,44.348473,44.259712,44.27104,44.394188,44.564583,44.70212,44.775986,44.917892,45.10103,45.259808,45.425972,45.555805,45.620277,45.66597,45.678543,45.657364,45.617256,45.562473,45.520264,45.499516,45.506134,45.576347,45.687057,45.861755,46.105186,46.3369,46.572453,46.83628,47.062023,47.25839,47.46424,47.6279,47.74873,47.869545,47.962334,48.021667,48.09002,48.15108,48.188877,48.21813,48.235054,48.23191,48.216587,48.17678,48.118954,48.06379,47.992043,47.918076,47.86199,47.80426,47.74713,47.70398,47.67032,47.63556
10.913655,11.019382,11.137624,11.243465,11.367425,11.507677,11.626743,11.740177,11.84213,11.908046,11.958252,12.015718,12.075573,12.131241,12.188114,12.238834,12.2749,12.308468,12.341782,12.370771,12.400242,12.440939,12.485632,12.527016,12.583134,12.649084,12.710501,12.788136,12.882437,12.97212,13.079519,13.2199955,13.357791,13.489573,13.63202,13.750528,13.843589,13.959169,14.078043,14.17592,14.291101,14.421881,14.531207,14.621319,14.677167,14.677509,14.653425,14.55315,14.386787,14.2148075,14.009172,13.864236,13.824749,13.844255,13.921969,14.007209,14.099066,14.181509,14.228189,14.259677,14.286617,14.302483,14.311514,14.314022,14.300634,14.277008,14.242475,14.200844,14.173702,14.170109,14.186858,14.244232,14.337666,14.532953,14.940577,15.497364,16.172047,16.75832,17.07719,17.288445,17.395773,17.449686,17.527416,17.664856,17.845924,18.03797,18.273903,18.500837,18.676796,18.957067,19.382492,19.840382,20.373276,21.098038,21.83292,22.575489,23.272633,23.678864,23.877352,24.028576,24.090874,24.104305,24.119202,24.132671,24.147892,24.165613,24.226185,24.324291,24.429588,24.610058,24.837217,25.060787,25.307781,25.540257,25.728745,25.957031,26.208618,26.418316,26.616083,26.83208,27.014076,27.162174,27.314177,27.423409,27.487,27.55485,27.623444,27.68741,27.771717,27.875298,27.968218,28.058758,28.153872,28.229662,28.289265,28.364555,28.452095,28.540985,28.663162,28.803928,28.928257,29.102993,29.319809,29.520657,29.739681,30.01324,30.269098,30.485481,30.750042,30.993967,31.173758,31.38353,31.591328,31.756174,31.939795,32.132675,32.289516,32.43824,32.600754,32.743343,32.86753,33.02914,33.208923,33.37487,33.54847,33.713585,33.845333,33.987274,34.173706,34.381954,34.62809,34.95883,35.291252,35.586895,35.895565,36.14361,36.314972,36.510056,36.78022,37.061802,37.274357,37.413795,37.516876,37.72843,38.001842,38.28765,38.566196,38.97396,39.45413,39.87899,40.41149,41.00428,41.445183,41.57023,41.74441,42.044605,42.36552,42.6967,42.97855,43.237045,43.558117,43.905872,44.204567,44.409523,44.585236,44.748894,44.864964,45.15249,45.525414,45.801636,46.06993,46.26935,46.418327,46.550194,46.632843,46.6756,46.740273,46.789864,46.809547,46.835533,46.866123,46.89501,46.919357,46.972824,47.0243,47.041885,47.073875,47.109627,47.126503,47.03453,46.897663,46.793655,46.693504,46.60833,46.55442,46.505108,46.450462,46.389652,46.3256,46.210968,46.163074,46.23225,46.396667,46.523006,46.529434,46.49894,46.46872,46.446037,46.408722,46.37316,46.351784,46.343018,46.361603,46.44212,46.537354,46.52983,46.409775,46.253418,46.1372,46.058094,46.057625,46.10389,46.206554,46.347584,46.472607,46.599384,46.68898,46.72187,46.735977,46.71689,46.67209,46.61412,46.539112,46.48203,46.454765,46.456898,46.525913,46.637047,46.818092,47.05626,47.270317,47.49585,47.75253,47.972225,48.15966,48.348705,48.49041,48.590183,48.686867,48.757515,48.80097,48.853745,48.9014,48.930325,48.95218,48.963165,48.957634,48.94224,48.907555,48.860737,48.818233,48.76298,48.70703,48.666157,48.629417,48.59854,48.582314,48.58776,48.593567
10.921373,11.05818,11.211236,11.342802,11.48045,11.626929,11.749125,11.865198,11.979471,12.062728,12.1252775,12.197165,12.263786,12.315769,12.377567,12.4360485,12.4773,12.519314,12.563519,12.607054,12.660416,12.74348,12.842007,12.937021,13.06078,13.202009,13.3322525,13.489117,13.665167,13.821152,13.988321,14.252808,14.580078,14.9488945,15.411631,15.836092,16.165718,16.529697,16.807697,16.955572,17.125134,17.338577,17.539936,17.68095,17.763351,17.728582,17.619469,17.117613,16.407644,15.861936,15.200011,14.706945,14.523896,14.453766,14.490372,14.550236,14.61545,14.68682,14.737253,14.768795,14.793528,14.803951,14.806246,14.798027,14.769104,14.729403,14.673445,14.609491,14.56909,14.558367,14.592187,14.696513,14.840521,15.195467,15.871267,16.715263,17.583729,18.195608,18.438688,18.638443,18.754505,18.815624,18.894299,19.023048,19.186083,19.35639,19.56698,19.780962,19.96071,20.25271,20.699846,21.193253,21.86631,22.774235,23.572002,24.127018,24.55809,24.770031,24.88023,24.986443,25.054363,25.08477,25.110783,25.143082,25.183748,25.228992,25.307228,25.41133,25.53822,25.696823,25.869823,26.053478,26.26266,26.470821,26.648064,26.865948,27.117485,27.334099,27.530037,27.737465,27.908022,28.043617,28.190071,28.303783,28.37456,28.457642,28.538792,28.604183,28.680275,28.762577,28.830566,28.893608,28.96534,29.03202,29.092594,29.172821,29.251163,29.311743,29.35022,29.41404,29.522793,29.722095,29.98713,30.224365,30.467318,30.75476,31.012646,31.226809,31.487984,31.738037,31.935951,32.179512,32.39907,32.537415,32.662186,32.8033,32.940163,33.064323,33.19425,33.304394,33.401855,33.529175,33.673008,33.807785,33.96096,34.12025,34.254784,34.405533,34.601383,34.814873,35.065685,35.40444,35.75223,36.068222,36.42697,36.7528,37.00215,37.31289,37.73629,38.15924,38.504276,38.778137,38.95697,39.142097,39.377914,39.67356,40.01969,40.506584,41.09194,41.634933,42.27372,42.884563,43.298256,43.653725,43.983658,44.202225,44.2949,44.403297,44.601433,44.897728,45.27307,45.65339,45.946625,46.247246,46.57617,46.846054,47.008087,47.004402,46.920635,46.937077,47.103416,47.335606,47.490185,47.62729,47.718956,47.773445,47.841393,47.904694,47.949528,47.989098,48.087112,48.217453,48.327034,48.449062,48.53457,48.570423,48.605793,48.61492,48.596973,48.51912,48.560646,48.72945,48.853237,48.998184,49.12807,49.24538,49.274494,49.220165,49.169334,49.086983,49.022736,49.009796,49.028435,48.99814,48.90721,48.8088,48.703224,48.62945,48.58381,48.55484,48.54277,48.531982,48.51736,48.502907,48.48282,48.41108,48.22197,47.983486,47.763504,47.598858,47.548325,47.54594,47.592422,47.68456,47.776215,47.85775,47.90275,47.90406,47.87533,47.831085,47.80033,47.790688,47.774902,47.75795,47.74713,47.747257,47.802155,47.903076,48.028267,48.2296,48.460953,48.734077,49.00244,49.185043,49.33731,49.4913,49.606396,49.684822,49.755882,49.798946,49.81782,49.84046,49.853725,49.853058,49.84516,49.824375,49.79564,49.76561,49.721527,49.679626,49.652596,49.629124,49.62752,49.64119,49.60431,49.560204,49.544895,49.549995,49.566265
10.956607,11.14983,11.36235,11.54106,11.721992,11.949344,12.173647,12.3808975,12.61088,12.802341,12.949139,13.108914,13.272136,13.427563,13.629953,13.860168,14.0601015,14.290979,14.592429,14.884548,15.147574,15.436871,15.676256,15.856687,16.061262,16.262783,16.435207,16.620188,16.823177,17.011658,17.219782,17.53629,17.902199,18.278336,18.76726,19.218975,19.551674,19.896091,20.127579,20.222847,20.312004,20.437756,20.578947,20.673887,20.729252,20.668274,20.516617,19.82828,18.76048,17.792328,16.613005,15.677463,15.250524,15.044547,15.022997,15.049025,15.087996,15.149439,15.202261,15.232306,15.2527685,15.256493,15.25214,15.234343,15.191473,15.136593,15.059153,14.971111,14.914493,14.8923855,14.939331,15.088972,15.287454,15.791314,16.662844,17.665247,18.544876,19.077526,19.267738,19.428627,19.535248,19.606152,19.67722,19.778599,19.902815,20.037254,20.208286,20.387901,20.541891,20.796757,21.223698,21.730705,22.476444,23.466606,24.27541,24.72845,24.998886,25.092045,25.176445,25.24981,25.284687,25.289267,25.302872,25.339783,25.392868,25.451702,25.544098,25.659542,25.80334,25.959322,26.101799,26.239998,26.42722,26.65279,26.867735,27.158756,27.50404,27.799217,28.093576,28.368958,28.557045,28.708609,28.867905,28.98921,29.066536,29.136858,29.192932,29.238556,29.289629,29.355682,29.421057,29.481972,29.537392,29.571785,29.601543,29.58292,29.52264,29.463634,29.44917,29.518925,29.64146,29.8687,30.185343,30.478195,30.771019,31.109636,31.407509,31.65421,31.949701,32.230156,32.454002,32.722767,32.953716,33.088367,33.20388,33.32865,33.44731,33.548073,33.65229,33.74328,33.827644,33.93938,34.066864,34.186325,34.33892,34.513657,34.66825,34.84567,35.06617,35.291794,35.54753,35.88749,36.236874,36.55619,36.94239,37.318527,37.618645,37.99626,38.477875,38.939888,39.376926,39.79689,40.10369,40.34753,40.628864,40.957382,41.32611,41.914738,42.634445,43.270016,44.121075,44.86376,45.259014,45.703896,46.131226,46.386013,46.44646,46.548088,46.776577,47.10713,47.52135,47.9125,48.184227,48.50743,48.858,49.13176,49.35546,49.324013,49.134155,49.088974,49.211662,49.412437,49.521957,49.656723,49.776268,49.851814,49.92245,49.984398,50.03035,50.05889,50.151794,50.29113,50.41796,50.559875,50.676197,50.757996,50.800632,50.783405,50.740334,50.684685,50.76802,50.968094,51.118584,51.283447,51.423973,51.553246,51.585594,51.53141,51.487106,51.427643,51.33123,51.216873,51.064125,50.877316,50.719063,50.58593,50.453995,50.36355,50.30854,50.285316,50.282322,50.268837,50.25383,50.166912,50.010323,49.768257,49.485634,49.23417,48.902348,48.656395,48.578075,48.54742,48.549667,48.60556,48.685127,48.731712,48.73655,48.71264,48.666824,48.62056,48.57673,48.503555,48.356182,48.210182,48.13642,48.10048,48.17935,48.3421,48.573055,48.94233,49.327347,49.665634,49.94407,50.110268,50.261883,50.407734,50.504227,50.55999,50.601257,50.611206,50.602028,50.59414,50.578873,50.558693,50.533783,50.498573,50.46156,50.424767,50.389145,50.365482,50.351475,50.336555,50.341026,50.360752,50.323578,50.279995,50.267853,50.27098,50.29178
11.092081,11.397344,11.770863,12.1123085,12.4962635,12.967922,13.401739,13.785885,14.197113,14.532074,14.789867,15.076222,15.385538,15.693909,16.082947,16.522823,16.906815,17.345896,17.927107,18.485126,18.959845,19.43711,19.777916,19.996933,20.218372,20.402393,20.542131,20.665565,20.80238,20.949722,21.134872,21.368275,21.56249,21.679472,21.836197,21.973116,22.04295,22.083967,22.081959,22.06082,21.990532,21.913273,21.87516,21.858557,21.85379,21.802525,21.701294,21.231087,20.288437,19.138042,17.663794,16.40146,15.750168,15.437038,15.377434,15.382839,15.421495,15.487095,15.540073,15.568466,15.584732,15.582626,15.57312,15.546931,15.491014,15.421877,15.3264065,15.219513,15.151497,15.125919,15.1798115,15.352549,15.588335,16.158134,17.083189,18.098763,18.905033,19.402752,19.656275,19.803186,19.884125,19.946835,20.006653,20.091297,20.200113,20.326252,20.487047,20.651695,20.787254,21.023205,21.455029,21.984234,22.705685,23.637714,24.428581,25.012138,25.377052,25.477789,25.55347,25.575771,25.539368,25.493443,25.48607,25.523754,25.580627,25.64384,25.745232,25.861172,25.979702,26.097422,26.188457,26.259262,26.401196,26.62094,26.852938,27.21281,27.647532,28.012455,28.416653,28.780254,29.003216,29.184357,29.36559,29.488914,29.554924,29.578693,29.580046,29.59673,29.618086,29.670832,29.740152,29.809126,29.847443,29.82888,29.792255,29.620068,29.377775,29.183,29.16806,29.317982,29.486343,29.7419,30.095032,30.43563,30.7802,31.183224,31.53836,31.830492,32.16956,32.47496,32.70655,32.96483,33.194458,33.353977,33.527092,33.694008,33.815853,33.919357,34.031532,34.13533,34.230824,34.359276,34.506363,34.64335,34.81299,35.000927,35.16337,35.347702,35.575256,35.808205,36.073463,36.42614,36.784775,37.10733,37.489548,37.848816,38.1254,38.456673,38.854996,39.23784,39.672897,40.162605,40.58056,40.969963,41.376526,41.736656,42.05384,42.671356,43.45643,44.122124,45.173267,46.142727,46.6311,46.999626,47.397163,47.776253,48.072403,48.42314,48.78097,49.1164,49.530296,49.93395,50.23503,50.500504,50.71521,50.87514,51.081604,51.30684,51.48539,51.637764,51.79707,51.903526,51.943962,52.060715,52.1974,52.282906,52.35647,52.40393,52.421074,52.42101,52.419037,52.43154,52.45968,52.52471,52.62087,52.721664,52.75817,52.73819,52.70808,52.649742,52.560593,52.471333,52.37995,52.278885,52.1957,52.128254,52.057827,52.002045,51.963783,51.9143,51.848206,51.777794,51.68515,51.55957,51.44085,51.33773,51.235207,51.165405,51.122208,51.106426,51.105083,51.09111,51.11114,51.05587,50.888306,50.53648,50.177105,49.899483,49.432877,49.069553,48.953392,48.933277,48.940292,49.002472,49.094994,49.12828,49.10745,49.06785,49.03327,48.97736,48.85293,48.6009,48.17302,47.783222,47.58875,47.489677,47.606323,47.860046,48.300217,48.943607,49.524937,49.932423,50.2664,50.498344,50.71192,50.89524,50.990623,51.0316,51.049484,51.03232,51.00225,50.975468,50.94948,50.92853,50.906807,50.880287,50.852104,50.81791,50.797234,50.786137,50.768578,50.727676,50.679924,50.648422,50.617474,50.599735,50.601814,50.61769,50.649925
11.275712,11.718013,12.51147,13.446591,14.604168,15.7415695,16.491646,17.128979,17.732807,18.175331,18.510647,18.951262,19.394367,19.736458,20.115414,20.450024,20.670118,20.867968,21.09549,21.311935,21.50198,21.696907,21.837337,21.926247,22.006733,22.059244,22.08953,22.102583,22.117254,22.145706,22.190556,22.243732,22.28418,22.310925,22.35221,22.391651,22.4144,22.418926,22.405008,22.38756,22.324633,22.239769,22.177946,22.13535,22.12386,22.109257,22.079882,21.778538,21.022535,20.001453,18.367163,16.829947,16.052254,15.691944,15.619802,15.608114,15.649017,15.720118,15.7746,15.802353,15.815918,15.810274,15.798336,15.768383,15.706153,15.629494,15.523262,15.404024,15.327961,15.298912,15.36073,15.555742,15.821993,16.44522,17.41237,18.435316,19.21003,19.667397,19.907385,20.062126,20.113155,20.121119,20.184685,20.267204,20.35582,20.454975,20.593822,20.759224,20.91501,21.159134,21.571495,22.065228,22.766947,23.67815,24.481998,25.188618,25.678585,25.785782,25.72134,25.690487,25.711594,25.754383,25.814476,25.89899,25.983213,26.073593,26.183548,26.276764,26.34692,26.367416,26.36129,26.380562,26.493406,26.68496,26.868202,27.127613,27.460178,27.777895,28.16795,28.600533,28.929192,29.16918,29.401196,29.52851,29.547249,29.525164,29.512363,29.548824,29.586842,29.651321,29.729313,29.833221,29.8959,29.875599,29.811264,29.71722,29.637268,29.590069,29.641212,29.80658,30.00113,30.281055,30.653927,31.005945,31.359512,31.764622,32.11117,32.38793,32.69996,32.973175,33.177467,33.404774,33.608234,33.7526,33.915558,34.079765,34.204918,34.31417,34.43636,34.551144,34.655983,34.795975,34.95233,35.094036,35.268795,35.459972,35.62332,35.80845,36.03668,36.27153,36.542984,36.900978,37.260765,37.581467,37.963814,38.322502,38.595703,38.919647,39.298187,39.655724,40.068085,40.562134,41.003937,41.404045,41.79722,42.12938,42.435997,42.95125,43.65571,44.350044,45.26482,46.25892,47.02523,47.780552,48.37229,48.6806,48.94993,49.233665,49.516434,49.807457,50.16693,50.60312,51.033012,51.43853,51.742546,51.901505,52.04921,52.23226,52.40957,52.55126,52.691933,52.79697,52.87002,52.969345,53.065205,53.12915,53.187607,53.2337,53.261,53.277992,53.29441,53.31246,53.332966,53.364258,53.401253,53.436615,53.449646,53.434902,53.407642,53.35316,53.26478,53.171844,53.077316,52.962646,52.86025,52.77724,52.692642,52.642975,52.632133,52.616455,52.60186,52.583946,52.511192,52.368267,52.215065,52.085403,51.98085,51.92961,51.898773,51.891037,51.891838,51.87879,51.821236,51.667946,51.46325,51.23688,50.83384,50.34105,49.800568,49.365807,49.219788,49.23209,49.337013,49.48998,49.60037,49.622063,49.572372,49.512814,49.479134,49.317066,49.018055,48.64617,48.144966,47.724266,47.484848,47.3338,47.39878,47.610165,48.01429,48.63395,49.235455,49.81141,50.42111,50.88322,51.209656,51.446884,51.53856,51.57141,51.573925,51.53791,51.49321,51.446915,51.400074,51.3623,51.321335,51.269203,51.215157,51.159702,51.096024,51.03716,50.98796,50.92616,50.87267,50.84308,50.819855,50.81784,50.837784,50.87252,50.93071
12.196397,13.895771,15.741845,16.820444,17.991428,19.08805,19.811821,20.276894,20.688776,20.999956,21.247326,21.569248,21.87973,22.104742,22.323425,22.479603,22.554287,22.598907,22.620098,22.631388,22.647064,22.665714,22.68372,22.701344,22.715738,22.717213,22.707912,22.683475,22.655499,22.638937,22.626749,22.611038,22.598808,22.600765,22.605488,22.613976,22.628075,22.636227,22.633347,22.622074,22.548372,22.441883,22.361404,22.29969,22.278711,22.287277,22.32252,22.140697,21.497774,20.54135,18.800098,17.104656,16.273283,15.889206,15.803726,15.775835,15.819111,15.895441,15.951401,15.978713,15.989878,15.981596,15.968778,15.937315,15.871527,15.7897625,15.675402,15.54571,15.462454,15.434267,15.493734,15.693134,15.982141,16.661865,17.672081,18.68842,19.436943,19.859684,20.07841,20.219921,20.275888,20.295567,20.350094,20.418121,20.492678,20.577993,20.704412,20.851078,20.97929,21.179546,21.552391,22.029987,22.723503,23.6781,24.531527,25.172709,25.691938,25.909882,25.914322,25.956726,26.032536,26.105618,26.196974,26.2925,26.365646,26.439217,26.517508,26.576336,26.615246,26.621475,26.620691,26.648197,26.753517,26.918285,27.069185,27.269028,27.53413,27.80422,28.140152,28.549355,28.894947,29.158895,29.42677,29.595211,29.653261,29.685287,29.715166,29.767185,29.82369,29.89508,29.966324,30.055046,30.111912,30.104847,30.059853,30.023628,30.028675,30.063286,30.152203,30.313332,30.498775,30.812737,31.225763,31.594975,31.959467,32.361855,32.69047,32.942745,33.216972,33.449215,33.620735,33.813454,33.98975,34.119205,34.27243,34.436516,34.56878,34.6868,34.822296,34.949203,35.060753,35.211277,35.379917,35.532066,35.716232,35.913055,36.078033,36.263073,36.488434,36.719093,36.98539,37.341972,37.70384,38.025215,38.409748,38.772026,39.04879,39.37383,39.741386,40.077396,40.457497,40.90953,41.31366,41.677628,42.04284,42.362778,42.666195,43.13952,43.796165,44.474205,45.362183,46.38755,47.247078,48.1287,48.856743,49.243904,49.527225,49.820816,50.115562,50.418247,50.78399,51.237206,51.699715,52.157963,52.500996,52.66632,52.822548,52.995308,53.150867,53.279266,53.41294,53.526623,53.62209,53.718987,53.799606,53.85619,53.90922,53.95469,53.985313,54.006775,54.02845,54.046585,54.060318,54.069477,54.07154,54.070984,54.06967,54.056797,54.031937,53.982388,53.904778,53.823647,53.731133,53.64534,53.587166,53.537582,53.453415,53.365437,53.30793,53.242344,53.179657,53.126007,53.024734,52.866367,52.716553,52.614185,52.521774,52.46267,52.4281,52.412704,52.401863,52.376846,52.287373,52.12181,51.92799,51.645782,51.091267,50.457302,49.928448,49.513565,49.377914,49.408813,49.553986,49.74917,49.88234,49.93882,49.903763,49.82033,49.705627,49.420975,49.02899,48.626236,48.12654,47.73059,47.51726,47.35366,47.37571,47.546993,47.850212,48.327713,48.833786,49.457466,50.17125,50.72441,51.124744,51.44712,51.602947,51.66816,51.689903,51.651237,51.593277,51.52646,51.45353,51.394405,51.33469,51.26731,51.203106,51.137928,51.052444,50.965927,50.894547,50.80861,50.731995,50.683838,50.639217,50.621445,50.63819,50.677834,50.756165
14.570311,17.133545,19.288069,20.077065,20.677973,21.207008,21.626545,21.760303,21.86341,21.972588,22.08609,22.195215,22.28901,22.372662,22.440514,22.493496,22.535831,22.589218,22.639763,22.672352,22.700077,22.725195,22.747868,22.774618,22.808239,22.836208,22.850994,22.85518,22.85436,22.855734,22.855865,22.861038,22.873516,22.892845,22.917076,22.939144,22.958279,22.967943,22.954693,22.924007,22.815132,22.670485,22.571259,22.526112,22.510345,22.512337,22.567575,22.409626,21.774122,20.808556,18.973637,17.206795,16.400532,15.998279,15.900663,15.882229,15.927116,16.00428,16.060257,16.086052,16.094051,16.083197,16.070126,16.038593,15.971815,15.887777,15.768947,15.632151,15.5415745,15.506714,15.551828,15.743589,16.041185,16.789402,17.86136,18.867733,19.60281,19.995373,20.178967,20.299078,20.372076,20.424423,20.462715,20.516418,20.591827,20.685097,20.807793,20.922796,21.000494,21.143562,21.487974,21.974743,22.658936,23.669151,24.581491,25.095448,25.589428,25.939579,26.122375,26.287245,26.38579,26.43068,26.504042,26.576488,26.622663,26.663834,26.704865,26.741112,26.776491,26.825119,26.884142,26.944187,27.05012,27.195377,27.336132,27.530302,27.786537,28.038261,28.329714,28.675266,28.97543,29.229288,29.50954,29.728151,29.864752,29.989536,30.079206,30.140049,30.20918,30.282383,30.341587,30.39315,30.427626,30.432808,30.422405,30.394192,30.380684,30.399952,30.473545,30.62101,30.799274,31.157768,31.618254,32.00226,32.376495,32.774067,33.083424,33.311836,33.551365,33.748146,33.89276,34.05803,34.215584,34.33777,34.4877,34.65588,34.796608,34.923904,35.07146,35.208717,35.32656,35.486923,35.66881,35.83457,36.030937,36.23574,36.403923,36.590042,36.812958,37.03824,37.294537,37.646706,38.01295,38.34091,38.73609,39.112503,39.403194,39.74018,40.10756,40.43004,40.78511,41.18232,41.52298,41.83365,42.16779,42.482704,42.77919,43.2712,43.939323,44.598106,45.559658,46.611305,47.39296,48.15573,48.901634,49.429047,49.77559,50.156372,50.536728,50.896873,51.33754,51.8159,52.23514,52.61949,52.914337,53.092,53.29033,53.493774,53.65367,53.7909,53.938244,54.06429,54.16527,54.276154,54.37323,54.44052,54.50103,54.548004,54.57457,54.587875,54.595325,54.598377,54.599545,54.59528,54.59001,54.58981,54.583923,54.56726,54.543236,54.49697,54.41855,54.335186,54.252693,54.191994,54.15018,54.08854,53.968952,53.81826,53.689285,53.5457,53.399395,53.2765,53.131805,52.975437,52.859646,52.79149,52.70317,52.618454,52.56344,52.523438,52.48986,52.447746,52.36762,52.22792,52.035492,51.58941,50.91587,50.30915,49.860626,49.523407,49.41603,49.44076,49.550907,49.71034,49.835884,49.912796,49.890465,49.78353,49.582714,49.2469,48.88013,48.525238,48.08812,47.72973,47.519547,47.294495,47.231743,47.355774,47.58631,48.00349,48.475956,49.023766,49.64467,50.146873,50.559628,50.94231,51.17176,51.282433,51.339966,51.313385,51.25063,51.171936,51.079704,51.003918,50.932762,50.859535,50.795357,50.731003,50.64768,50.559807,50.48195,50.379242,50.27522,50.199345,50.1212,50.070705,50.067,50.09307,50.167152
18.041105,19.623482,20.41579,21.016499,21.358725,21.605478,21.812347,21.953823,22.076363,22.180845,22.300343,22.419434,22.51626,22.591347,22.667912,22.74305,22.807232,22.88044,22.956257,23.012274,23.056131,23.096012,23.12733,23.157444,23.191742,23.218353,23.232338,23.244205,23.243895,23.230999,23.199795,23.172985,23.173088,23.198645,23.236332,23.267567,23.286915,23.279041,23.228706,23.159027,23.029442,22.868973,22.764755,22.787586,22.808449,22.789125,22.827255,22.646055,22.009323,21.086395,19.124844,17.247047,16.48875,16.053885,15.950103,15.973471,16.020304,16.094036,16.148468,16.171211,16.174683,16.160313,16.146221,16.114262,16.047127,15.962105,15.840752,15.699123,15.599991,15.543076,15.570883,15.761745,16.059376,16.889484,18.04501,19.048203,19.780045,20.136759,20.265383,20.383778,20.44395,20.463192,20.493912,20.550934,20.637476,20.746979,20.862648,20.955067,21.017387,21.15337,21.502556,21.995937,22.650764,23.655258,24.600254,25.147438,25.6843,26.076277,26.297798,26.493458,26.602446,26.64381,26.698818,26.75784,26.8078,26.854109,26.898626,26.935133,26.97322,27.019531,27.070091,27.120296,27.211212,27.338333,27.46304,27.636131,27.877777,28.126255,28.411737,28.754944,29.0564,29.308052,29.597813,29.834883,29.987192,30.130821,30.23933,30.314938,30.396004,30.475494,30.536034,30.589714,30.625355,30.631298,30.621952,30.605125,30.601034,30.616426,30.656734,30.79371,31.009762,31.418072,31.910854,32.294254,32.668427,33.054535,33.342796,33.547848,33.755474,33.921707,34.0446,34.188477,34.332428,34.44982,34.594032,34.76265,34.91004,35.045494,35.201797,35.347427,35.475605,35.64747,35.84066,36.016815,36.223194,36.434998,36.60638,36.79486,37.01879,37.243595,37.497227,37.84847,38.21971,38.557716,38.971703,39.371574,39.68207,40.037247,40.411987,40.72943,41.071423,41.439156,41.742825,42.01436,42.30832,42.595837,42.874935,43.358948,44.043297,44.733894,45.70089,46.73578,47.495712,48.23755,48.966858,49.500237,49.888504,50.31576,50.73697,51.13511,51.655155,52.19644,52.61866,52.90838,53.139484,53.343735,53.532585,53.737198,53.913124,54.06369,54.229427,54.374023,54.48967,54.616016,54.726612,54.803658,54.87242,54.924294,54.951748,54.963943,54.96512,54.95821,54.94923,54.93024,54.911407,54.903145,54.889328,54.86815,54.8433,54.797935,54.71419,54.62954,54.594696,54.53663,54.42349,54.25286,54.0427,53.851913,53.713745,53.562126,53.414665,53.294304,53.14573,53.00337,52.90451,52.805477,52.691074,52.593002,52.517467,52.450527,52.395973,52.34568,52.24926,52.05419,51.78746,51.30287,50.68293,50.185074,49.80847,49.516293,49.41119,49.42178,49.493332,49.59668,49.672062,49.694904,49.627792,49.5,49.30336,49.003548,48.685608,48.37027,48.011215,47.67112,47.353966,46.94886,46.713585,46.752342,46.985336,47.54801,48.185417,48.66929,49.204243,49.685936,50.09859,50.481342,50.715805,50.841724,50.915863,50.901226,50.842945,50.763176,50.663486,50.578693,50.50003,50.41324,50.33571,50.266464,50.177887,50.084526,50.001465,49.89348,49.78287,49.69933,49.60782,49.540535,49.521503,49.529514,49.579224
20.0965,20.960476,21.356926,21.667185,21.87285,22.029858,22.15997,22.281467,22.422575,22.561695,22.69946,22.844685,22.963896,23.04934,23.137348,23.220188,23.286398,23.3557,23.42725,23.479435,23.513393,23.538986,23.545498,23.534754,23.54491,23.55442,23.542927,23.524952,23.499657,23.472614,23.423615,23.36409,23.32954,23.334713,23.35609,23.38056,23.400013,23.391233,23.349884,23.299988,23.199932,23.06012,22.945042,22.8763,22.86235,22.88197,22.92347,22.7566,22.16024,21.306854,19.277372,17.31136,16.562107,16.108593,16.013695,16.071184,16.114952,16.181736,16.233559,16.252111,16.250557,16.233294,16.219341,16.189219,16.124872,16.041674,15.920969,15.774188,15.664551,15.591412,15.605787,15.798241,16.110176,16.985249,18.174164,19.164852,19.906137,20.236732,20.298515,20.39793,20.44682,20.448883,20.462849,20.512577,20.601578,20.712349,20.823513,20.908466,20.966099,21.093935,21.439993,21.935928,22.572987,23.576557,24.554424,25.172573,25.732178,26.11039,26.355038,26.576757,26.679777,26.678183,26.698013,26.754618,26.833633,26.915071,26.989777,27.03852,27.08139,27.132656,27.187359,27.24071,27.323376,27.417393,27.494858,27.62608,27.835882,28.07288,28.386288,28.745085,29.038794,29.29376,29.58836,29.8362,30.006731,30.174746,30.307661,30.400467,30.496769,30.586777,30.652454,30.70984,30.751694,30.766907,30.76926,30.763155,30.769535,30.79697,30.864,31.047153,31.309067,31.699734,32.17313,32.563038,32.924446,33.28888,33.553116,33.733307,33.90882,34.045998,34.149315,34.275803,34.408882,34.521767,34.66677,34.84187,34.997807,35.142883,35.310856,35.46676,35.603256,35.784042,35.98451,36.165718,36.376015,36.58943,36.760696,36.94814,37.16992,37.392467,37.642944,37.99551,38.375908,38.727547,39.165565,39.597054,39.937046,40.325638,40.72322,41.045235,41.383358,41.728127,41.998528,42.2354,42.50135,42.77681,43.04902,43.550663,44.247223,44.920654,45.86427,46.870697,47.60739,48.324745,49.03418,49.565067,49.97091,50.42755,50.870792,51.274803,51.772194,52.264374,52.64068,52.947056,53.217068,53.44354,53.658264,53.891884,54.091576,54.259743,54.45192,54.625748,54.76556,54.91766,55.050957,55.14444,55.228638,55.291893,55.324493,55.339283,55.3362,55.318596,55.296814,55.261536,55.224075,55.19647,55.16756,55.13573,55.10279,55.05152,54.95845,54.85399,54.771324,54.66286,54.500534,54.25718,53.985153,53.75866,53.598534,53.42878,53.274673,53.156227,53.00669,52.87361,52.777878,52.639156,52.45125,52.272297,52.123966,52.011475,51.945824,51.893173,51.78887,51.572052,51.285736,50.849407,50.327526,49.921368,49.60524,49.356773,49.259136,49.253304,49.28076,49.321335,49.341927,49.31279,49.211414,49.075188,48.891365,48.633415,48.371964,48.132233,47.776546,47.377262,47.019974,46.577324,46.289833,46.260433,46.410362,46.86531,47.42877,47.994972,48.63301,49.146126,49.52646,49.880672,50.106834,50.233036,50.31462,50.31241,50.26443,50.196213,50.10724,50.029083,49.954155,49.870804,49.795967,49.728638,49.637993,49.536224,49.44153,49.31948,49.184113,49.06989,48.952854,48.86169,48.823036,48.811714,48.8366
21.025278,21.514454,21.870998,22.011429,22.196068,22.393816,22.554893,22.688116,22.83362,22.970818,23.104176,23.25046,23.375412,23.466022,23.559233,23.645962,23.713612,23.782185,23.846184,23.886612,23.910828,23.919003,23.901108,23.86348,23.842813,23.819653,23.777813,23.723667,23.668026,23.625877,23.569216,23.500832,23.451992,23.435352,23.43436,23.447416,23.46553,23.465183,23.448246,23.429552,23.373314,23.267632,23.149475,23.004686,22.902084,22.882538,22.931059,22.805347,22.27643,21.498264,19.466608,17.443157,16.648876,16.16669,16.071507,16.145473,16.19098,16.25325,16.298355,16.311466,16.30503,16.286657,16.275064,16.250362,16.193281,16.11575,15.999422,15.851277,15.734613,15.650579,15.65445,15.846218,16.172762,17.041424,18.20546,19.172398,19.949017,20.286427,20.287676,20.360435,20.39765,20.395458,20.403223,20.450514,20.539352,20.64642,20.755177,20.839039,20.89558,21.026836,21.334774,21.763128,22.401821,23.43111,24.452244,25.195671,25.79504,26.132368,26.37658,26.601763,26.682842,26.62862,26.626278,26.690693,26.790302,26.894629,26.996683,27.068703,27.13181,27.205292,27.275187,27.335724,27.411318,27.480665,27.529076,27.629128,27.80402,28.014212,28.319061,28.688843,28.998,29.250216,29.544289,29.799461,29.982494,30.169891,30.324879,30.43502,30.548508,30.653828,30.73039,30.797625,30.853336,30.884228,30.90211,30.911694,30.935701,30.983688,31.100021,31.330599,31.60786,31.967972,32.41011,32.79281,33.129868,33.463867,33.701504,33.857857,34.00656,34.123272,34.2153,34.330833,34.45778,34.57,34.72049,34.904938,35.069397,35.223568,35.40194,35.565964,35.707756,35.89347,36.095825,36.275955,36.48403,36.693085,36.859398,37.04158,37.258965,37.479843,37.729515,38.08857,38.484695,38.856033,39.325676,39.797287,40.174873,40.608818,41.038055,41.366863,41.703335,42.03541,42.288795,42.507454,42.75544,43.022903,43.297867,43.801468,44.490265,45.146065,46.04801,47.01008,47.721733,48.412636,49.1027,49.6213,50.00702,50.43788,50.860703,51.258057,51.70067,52.124718,52.46756,52.817963,53.15023,53.40292,53.640305,53.904266,54.13916,54.344353,54.575256,54.78132,54.947975,55.130054,55.290703,55.40425,55.508022,55.587654,55.629707,55.650208,55.644516,55.615562,55.57807,55.528595,55.47535,55.4262,55.37673,55.32699,55.279396,55.20614,55.076088,54.92816,54.802475,54.610046,54.35833,54.062527,53.744564,53.486153,53.301804,53.112835,52.934017,52.78717,52.63498,52.498672,52.38159,52.20253,51.926826,51.65447,51.451576,51.29612,51.209366,51.147278,51.040154,50.839848,50.590534,50.255875,49.856945,49.53578,49.280228,49.074837,48.98359,48.959724,48.947243,48.93537,48.912334,48.842583,48.718243,48.581886,48.41503,48.20175,47.988556,47.780754,47.4252,47.01049,46.658356,46.242046,45.956425,45.882,45.93831,46.2151,46.6119,47.184376,47.871956,48.402374,48.754272,49.10694,49.34694,49.464375,49.549232,49.56353,49.534145,49.470818,49.372154,49.279083,49.193214,49.100883,49.018867,48.942482,48.836716,48.715454,48.60176,48.454674,48.2927,48.157913,48.024586,47.917183,47.862144,47.83231,47.827805
21.482498,21.907207,22.12122,22.288984,22.489925,22.724483,22.924234,23.082802,23.20855,23.297882,23.404272,23.51951,23.617542,23.689617,23.768547,23.849773,23.91861,23.992386,24.054955,24.088032,24.1124,24.11496,24.093842,24.068691,24.032156,23.981148,23.92649,23.860611,23.792559,23.739923,23.680885,23.626978,23.595257,23.573774,23.564621,23.572128,23.587742,23.593422,23.585136,23.570215,23.532887,23.44664,23.337643,23.225681,23.05017,22.908293,22.93839,22.848963,22.388031,21.66521,19.669409,17.617933,16.750496,16.227386,16.113525,16.184444,16.237936,16.300486,16.336452,16.344364,16.334309,16.316643,16.308874,16.291544,16.243933,16.173992,16.063725,15.919065,15.802071,15.712769,15.70956,15.896826,16.228275,17.05521,18.163311,19.107359,19.916492,20.28035,20.259096,20.317171,20.346619,20.346886,20.36475,20.420109,20.510672,20.617687,20.724945,20.80526,20.85738,21.001038,21.25129,21.565144,22.205921,23.274376,24.347647,25.22551,25.885328,26.196293,26.43175,26.639729,26.696333,26.61848,26.620771,26.693874,26.787712,26.882082,26.986671,27.07787,27.167145,27.26947,27.357418,27.424513,27.496712,27.56517,27.624205,27.71962,27.872398,28.051586,28.297901,28.654675,28.993591,29.240475,29.53316,29.793945,29.982937,30.18156,30.351494,30.474998,30.603546,30.724617,30.81395,30.893719,30.96547,31.0121,31.042793,31.072231,31.118095,31.183384,31.32801,31.567131,31.824585,32.182148,32.61345,32.9728,33.285263,33.590942,33.80561,33.944427,34.076866,34.184174,34.27273,34.382797,34.508003,34.623703,34.77978,34.97127,35.141605,35.301918,35.48621,35.654095,35.7986,35.986183,36.187325,36.363712,36.56733,36.769928,36.929436,37.104984,37.31808,37.538925,37.79029,38.158363,38.57151,38.96293,39.46303,39.971657,40.383068,40.858307,41.312653,41.641487,41.9742,42.30158,42.552383,42.76706,43.00549,43.265396,43.544434,44.024906,44.692375,45.354103,46.221817,47.139194,47.82508,48.491234,49.164337,49.667294,50.0177,50.39267,50.775757,51.174347,51.598274,52.00915,52.36158,52.71653,53.06752,53.346954,53.58928,53.87104,54.140892,54.38777,54.65435,54.883575,55.070564,55.275368,55.457314,55.587173,55.707184,55.801697,55.853565,55.880157,55.873184,55.835587,55.78659,55.728596,55.665794,55.601257,55.52942,55.456696,55.392006,55.28708,55.10875,54.917953,54.788315,54.510967,54.141384,53.805508,53.441826,53.142998,52.930855,52.720406,52.509712,52.323296,52.17038,52.01676,51.857452,51.648502,51.322845,51.009754,50.807053,50.628147,50.508156,50.426785,50.316055,50.147133,49.95213,49.696342,49.388504,49.135544,48.93477,48.764988,48.67626,48.6388,48.602474,48.56378,48.521225,48.434242,48.303093,48.171726,48.02038,47.837833,47.64627,47.413216,47.09605,46.746727,46.40571,46.00209,45.7137,45.61904,45.63397,45.83116,46.130074,46.557247,47.127464,47.62207,47.96956,48.351357,48.623108,48.74002,48.830887,48.858116,48.841927,48.769386,48.64114,48.517105,48.41024,48.29808,48.199375,48.107494,47.981625,47.840725,47.711807,47.544453,47.373188,47.244595,47.115173,47.007793,46.946663,46.905212,46.875103
21.885328,22.2188,22.413794,22.5956,22.813772,23.053509,23.228321,23.307564,23.4194,23.561726,23.703087,23.84423,23.939491,23.987122,24.033401,24.07535,24.110811,24.148403,24.178818,24.191189,24.193949,24.180702,24.154163,24.127228,24.088848,24.038311,23.986628,23.925894,23.862999,23.813114,23.756666,23.703756,23.670322,23.644567,23.629137,23.631578,23.644922,23.650394,23.642185,23.625956,23.591995,23.519814,23.427307,23.31629,23.142189,22.981533,22.91991,22.83535,22.459612,21.793617,19.853685,17.7919,16.850615,16.297039,16.165514,16.22194,16.277527,16.338184,16.365982,16.369007,16.35589,16.339537,16.335999,16.326859,16.29001,16.22901,16.126087,15.987733,15.87466,15.786468,15.781431,15.96439,16.298794,17.05848,18.093967,19.036789,19.809721,20.170902,20.198645,20.271208,20.302559,20.304546,20.332264,20.395386,20.48772,20.59451,20.70047,20.778187,20.827234,20.98085,21.20449,21.454111,22.044228,23.118519,24.262897,25.263851,25.972301,26.253904,26.486137,26.663055,26.697914,26.635937,26.644283,26.717058,26.807842,26.897926,27.000809,27.095036,27.189762,27.300755,27.401497,27.485199,27.5752,27.657616,27.724525,27.81323,27.951164,28.1157,28.331783,28.653019,28.977657,29.24995,29.54329,29.79079,29.98709,30.196512,30.379782,30.515068,30.658161,30.79551,30.898422,30.991089,31.078709,31.140854,31.184912,31.234962,31.302269,31.383339,31.541752,31.786093,32.04066,32.387085,32.797573,33.134804,33.424484,33.705284,33.901688,34.02909,34.154114,34.25705,34.339973,34.445244,34.571404,34.693047,34.854088,35.050343,35.22441,35.388756,35.577217,35.74827,35.895428,36.084793,36.28473,36.457527,36.656677,36.854095,37.009117,37.17942,37.388805,37.609367,37.861942,38.23738,38.664623,39.072613,39.598045,40.137787,40.577965,41.089447,41.55807,41.87451,42.20907,42.536526,42.78167,42.985893,43.228287,43.497543,43.7713,44.250668,44.913734,45.563507,46.401764,47.279278,47.933464,48.57891,49.210922,49.66831,50.00025,50.361603,50.7436,51.15526,51.566967,51.965286,52.327538,52.700806,53.071205,53.36565,53.642235,53.961273,54.251396,54.500053,54.772823,55.021248,55.23828,55.462555,55.657516,55.80083,55.934654,56.042038,56.10266,56.136246,56.131386,56.092552,56.04651,55.983986,55.905388,55.820663,55.710133,55.596962,55.50801,55.364555,55.186554,55.007957,54.774178,54.366997,53.920807,53.578125,53.14537,52.741447,52.450607,52.187363,51.984535,51.84445,51.731133,51.54226,51.295387,51.042397,50.715515,50.423737,50.21721,50.01754,49.869553,49.769066,49.64784,49.49254,49.329315,49.118706,48.869164,48.663742,48.495995,48.346924,48.25997,48.21599,48.166237,48.113155,48.062275,47.980034,47.868156,47.762085,47.658737,47.500122,47.30822,47.106842,46.829517,46.49623,46.133183,45.748657,45.486412,45.38704,45.375916,45.524952,45.76798,46.097244,46.56768,47.008636,47.34247,47.683327,47.92649,48.070004,48.17038,48.182163,48.139313,48.05079,47.92762,47.82397,47.73546,47.644154,47.56257,47.484406,47.369804,47.23555,47.111046,46.9551,46.797348,46.677933,46.560608,46.463253,46.40517,46.36195,46.318367
22.248165,22.527004,22.740696,22.92094,23.131298,23.345081,23.499783,23.614393,23.753979,23.892872,24.015284,24.130346,24.198622,24.22493,24.243284,24.253838,24.262943,24.272404,24.27712,24.27232,24.258556,24.232368,24.19968,24.168732,24.128849,24.08064,24.032898,23.97799,23.920904,23.874046,23.817898,23.762003,23.723785,23.693241,23.670921,23.668232,23.680874,23.683529,23.670235,23.648796,23.615368,23.549261,23.463255,23.35198,23.19682,23.031528,22.849941,22.766644,22.494274,21.893478,20.031103,17.973312,16.953018,16.364393,16.209496,16.247795,16.306826,16.366402,16.38543,16.383987,16.369114,16.356071,16.358675,16.361004,16.33915,16.290804,16.19867,16.070786,15.965874,15.8840275,15.878247,16.055273,16.395844,17.083942,18.031662,18.953312,19.684774,20.042816,20.115097,20.208397,20.252205,20.2622,20.298595,20.36748,20.460423,20.565567,20.668427,20.745213,20.797201,20.955746,21.162994,21.374279,21.906399,22.941185,24.116604,25.269314,26.060366,26.325708,26.551456,26.680801,26.682014,26.642118,26.66566,26.745235,26.833683,26.918678,27.014277,27.10254,27.191113,27.304207,27.417599,27.517525,27.62806,27.729609,27.808994,27.89441,28.019339,28.171486,28.371552,28.659088,28.955807,29.23578,29.55312,29.817364,30.005493,30.216396,30.409523,30.555302,30.71202,30.865162,30.981495,31.087635,31.192238,31.271984,31.333426,31.408203,31.499386,31.597212,31.767365,32.013435,32.26266,32.590675,32.975105,33.29054,33.55903,33.817482,33.99814,34.117188,34.233475,34.331436,34.414154,34.521763,34.65355,34.78121,34.94684,35.146492,35.322956,35.49063,35.683144,35.857952,36.008743,36.200954,36.400368,36.569817,36.762867,36.951897,37.09962,37.263443,37.46907,37.690483,37.94816,38.33016,38.76584,39.185143,39.7303,40.29677,40.762867,41.30925,41.803757,42.127026,42.467133,42.791847,43.029213,43.22789,43.470284,43.740963,44.009144,44.495186,45.15262,45.772682,46.602913,47.449318,48.047935,48.6568,49.268303,49.72457,50.06657,50.426826,50.78187,51.14337,51.56118,51.977005,52.31967,52.68444,53.065277,53.3866,53.704857,54.07659,54.414497,54.712917,55.020103,55.265472,55.452377,55.681595,55.89609,56.045288,56.188206,56.30685,56.377266,56.420483,56.414745,56.37126,56.3357,56.2741,56.183556,56.084038,55.948723,55.799973,55.678387,55.54219,55.328094,55.048515,54.6587,54.158817,53.670654,53.198277,52.66517,52.22106,51.91923,51.618034,51.383484,51.235588,51.086555,50.86228,50.601322,50.34511,50.03582,49.76173,49.54812,49.325546,49.147144,49.023468,48.892418,48.750065,48.614098,48.446297,48.253662,48.096375,47.96527,47.844032,47.76757,47.724724,47.67549,47.620346,47.565376,47.4826,47.3797,47.283752,47.163227,46.969666,46.747902,46.535057,46.24171,45.92382,45.627914,45.33368,45.140434,45.061806,45.043747,45.141174,45.310402,45.542633,45.884315,46.225597,46.52084,46.833855,47.076633,47.24675,47.368782,47.398132,47.372223,47.33333,47.27262,47.213142,47.155586,47.09018,47.027767,46.966896,46.875706,46.76514,46.658867,46.529663,46.403206,46.31038,46.221878,46.150276,46.107185,46.07315,46.033104
22.4864,22.737427,22.956173,23.109951,23.31468,23.528236,23.698936,23.900024,24.0662,24.153542,24.222517,24.282253,24.315392,24.329468,24.334032,24.332312,24.331997,24.332348,24.32753,24.315327,24.296795,24.265738,24.229218,24.195618,24.153751,24.105782,24.060022,24.008068,23.953604,23.907627,23.851181,23.793049,23.751266,23.71645,23.688843,23.682558,23.694647,23.693684,23.674835,23.648922,23.616478,23.548882,23.457962,23.349468,23.209488,23.044254,22.799458,22.713455,22.503906,21.965609,20.178902,18.128553,17.035923,16.41062,16.232975,16.258778,16.323132,16.382988,16.394505,16.389889,16.374577,16.36554,16.374287,16.388212,16.381779,16.346737,16.266617,16.149893,16.05338,15.97977,15.976209,16.150373,16.494987,17.1558,18.049274,18.918007,19.627949,19.988453,20.065304,20.164715,20.220066,20.241497,20.283085,20.35411,20.445797,20.547882,20.646433,20.723858,20.783304,20.943874,21.144117,21.340672,21.836683,22.815842,23.972496,25.219398,26.102423,26.394417,26.597404,26.690744,26.674322,26.64949,26.690018,26.780195,26.86752,26.949327,27.037676,27.1181,27.199314,27.311249,27.430595,27.53724,27.658928,27.774458,27.86591,27.953562,28.073107,28.218596,28.414536,28.680733,28.949106,29.211311,29.545412,29.837337,30.023678,30.240437,30.44307,30.595757,30.759857,30.922413,31.048594,31.165237,31.283966,31.379246,31.457169,31.553892,31.665241,31.777119,31.956856,32.202053,32.442757,32.75056,33.10868,33.40397,33.65628,33.899696,34.071312,34.187256,34.30014,34.399113,34.488693,34.60515,34.744705,34.87624,35.044437,35.24508,35.42199,35.591446,35.787056,35.965607,36.12044,36.316322,36.51657,36.684246,36.872215,37.053253,37.19388,37.35253,37.555668,37.777946,38.03934,38.425323,38.864372,39.286964,39.84073,40.422195,40.904865,41.47351,42.001358,42.356346,42.703903,43.025375,43.25894,43.458557,43.694504,43.955276,44.218925,44.704857,45.34983,45.9406,46.746193,47.567875,48.142822,48.71174,49.312355,49.79487,50.167767,50.553944,50.892376,51.18512,51.598846,52.026466,52.34229,52.693386,53.08352,53.431374,53.778503,54.1921,54.578148,54.933266,55.300674,55.556206,55.68902,55.89267,56.108147,56.26473,56.41188,56.538216,56.618675,56.67181,56.669777,56.628113,56.608204,56.539856,56.431866,56.328545,56.208363,56.066116,55.92514,55.764954,55.444195,55.014435,54.523716,53.941467,53.367523,52.743065,52.127625,51.69168,51.41886,51.11364,50.847366,50.663704,50.457092,50.22497,50.01028,49.781765,49.49178,49.221634,49.004753,48.770622,48.576675,48.441456,48.278923,48.107407,47.963158,47.79741,47.61707,47.47422,47.355686,47.245964,47.176517,47.137337,47.09726,47.05359,47.00712,46.933464,46.84256,46.754776,46.611504,46.40564,46.192616,45.980732,45.69362,45.428074,45.24655,45.06344,44.943893,44.897377,44.891148,44.95552,45.063713,45.22425,45.45188,45.684914,45.914566,46.19606,46.439926,46.608307,46.743073,46.80973,46.832893,46.87082,46.897003,46.902435,46.90619,46.905586,46.89424,46.871338,46.8154,46.73349,46.653473,46.551197,46.451626,46.382706,46.31955,46.27099,46.242252,46.218277,46.183952
22.59631,22.808468,22.99073,23.10592,23.34787,23.638302,23.856781,24.029795,24.164112,24.236164,24.292824,24.34046,24.36314,24.368208,24.363205,24.352016,24.344059,24.336857,24.325354,24.30915,24.288044,24.255821,24.219528,24.186157,24.145336,24.099922,24.057472,24.009808,23.958668,23.914188,23.861683,23.805473,23.762127,23.724613,23.694843,23.68675,23.696041,23.691889,23.670647,23.643688,23.612423,23.542923,23.447971,23.344677,23.211311,23.055107,22.834991,22.736977,22.522484,22.039387,20.312843,18.261436,17.101007,16.440704,16.245615,16.265833,16.33583,16.396324,16.40175,16.394709,16.378975,16.372824,16.386028,16.408985,16.415066,16.39114,16.321774,16.213566,16.122116,16.05463,16.05723,16.234169,16.574825,17.26063,18.151558,18.95071,19.65233,20.017849,20.073845,20.160759,20.216156,20.246372,20.291992,20.36426,20.454002,20.552992,20.64787,20.725948,20.791424,20.957771,21.15393,21.336569,21.817013,22.76995,23.903755,25.13733,26.087824,26.449255,26.60815,26.694595,26.697723,26.683445,26.734268,26.829035,26.91501,26.996914,27.082888,27.160454,27.243591,27.354443,27.470505,27.57528,27.698954,27.821362,27.920925,28.014204,28.137512,28.283985,28.475407,28.723658,28.967815,29.210001,29.520058,29.809834,30.027058,30.271004,30.488857,30.64537,30.808979,30.973385,31.106716,31.231009,31.360794,31.468174,31.558052,31.670654,31.79677,31.9192,32.10545,32.348633,32.581505,32.8732,33.206573,33.479904,33.71844,33.951584,34.119347,34.23594,34.356735,34.46763,34.566433,34.69177,34.837273,34.971268,35.14038,35.340443,35.51671,35.686646,35.884167,36.065804,36.224274,36.423737,36.62554,36.79274,36.978363,37.15542,37.292587,37.449574,37.652504,37.874573,38.132336,38.519657,38.962967,39.385464,39.941357,40.52957,41.02176,41.599678,42.156097,42.549553,42.902805,43.224663,43.462337,43.66395,43.89335,44.14303,44.40085,44.871277,45.4996,46.080975,46.8057,47.597534,48.224724,48.764694,49.326553,49.80278,50.20171,50.64686,51.027832,51.310997,51.679474,52.069523,52.39081,52.762463,53.174637,53.53199,53.891075,54.31951,54.715916,55.062935,55.485825,55.80435,55.93405,56.08654,56.26597,56.444973,56.596817,56.728607,56.819023,56.880913,56.89411,56.8692,56.8671,56.77329,56.630093,56.528152,56.455902,56.37039,56.24022,55.937954,55.462296,54.977196,54.50869,53.78119,53.00064,52.35994,51.70983,51.230236,50.927986,50.63202,50.397995,50.23819,50.058388,49.848885,49.646225,49.426506,49.14907,48.89263,48.68708,48.464985,48.282402,48.15796,47.924316,47.65464,47.451855,47.22365,46.98506,46.802513,46.651215,46.514557,46.432953,46.3907,46.353905,46.326305,46.303207,46.266575,46.215057,46.16078,46.08855,45.983765,45.869514,45.751972,45.58732,45.42376,45.29691,45.16543,45.08068,45.05341,45.0632,45.13118,45.225952,45.341324,45.49642,45.653687,45.806633,46.010437,46.20111,46.337315,46.45799,46.537865,46.585854,46.64962,46.732468,46.818825,46.926758,47.058037,47.155357,47.206566,47.195625,47.13273,47.07762,46.990337,46.893223,46.821724,46.758842,46.711433,46.682896,46.658054,46.6108
22.773006,22.94128,23.12238,23.294338,23.572248,23.868711,24.063492,24.203373,24.303741,24.35226,24.38998,24.41903,24.427094,24.421324,24.404251,24.380892,24.362967,24.345284,24.3241,24.301912,24.277145,24.24237,24.204771,24.170284,24.128914,24.084103,24.042906,23.996317,23.946642,23.904057,23.854927,23.802425,23.761171,23.723621,23.69588,23.689617,23.697353,23.691837,23.67226,23.649658,23.61393,23.539127,23.444984,23.350075,23.22514,23.076147,22.871754,22.770016,22.566639,22.14238,20.481215,18.424093,17.181034,16.480564,16.267452,16.28157,16.353296,16.413353,16.414553,16.405075,16.388649,16.384867,16.401917,16.433468,16.452045,16.43956,16.381735,16.283604,16.199429,16.141348,16.156792,16.34285,16.680702,17.396206,18.302097,19.061546,19.749409,20.108505,20.149698,20.207901,20.249283,20.286543,20.331776,20.400562,20.484838,20.578255,20.666996,20.744938,20.817429,20.988907,21.194336,21.386723,21.85769,22.772917,23.866924,25.087109,26.073572,26.479372,26.62947,26.717302,26.73227,26.730715,26.789108,26.887161,26.974041,27.053238,27.137167,27.215254,27.299265,27.4104,27.52673,27.632584,27.76051,27.887152,27.987995,28.088825,28.217222,28.360886,28.544033,28.77695,29.001316,29.218163,29.496857,29.767254,29.984093,30.225986,30.45023,30.623081,30.82441,31.016499,31.15134,31.278595,31.41496,31.532337,31.6318,31.759995,31.901781,32.034515,32.227547,32.469265,32.694733,32.97027,33.279434,33.53164,33.755074,33.97842,34.145805,34.268394,34.4013,34.52589,34.634598,34.768883,34.919083,35.053535,35.22034,35.41568,35.587746,35.75486,35.951164,36.133965,36.295006,36.497574,36.70131,36.868668,37.055695,37.237343,37.37911,37.526012,37.71087,37.92147,38.182423,38.587273,39.04487,39.460808,40.009876,40.596115,41.09159,41.67583,42.249893,42.668297,43.056717,43.403313,43.64319,43.83694,44.06781,44.323006,44.57762,45.022408,45.61228,46.163208,46.813297,47.542847,48.162994,48.748,49.319,49.761734,50.158817,50.620186,51.034035,51.356407,51.74124,52.12626,52.440422,52.803314,53.21187,53.575035,53.948982,54.406578,54.832966,55.19804,55.64803,55.98401,56.110252,56.23536,56.383812,56.55191,56.70749,56.855175,56.95848,57.010086,57.04528,57.0633,57.08205,56.978058,56.81365,56.712364,56.658844,56.54106,56.317505,55.932915,55.405945,54.86014,54.13305,53.18014,52.340363,51.73623,51.137978,50.69747,50.409985,50.14073,49.932373,49.787582,49.627876,49.445084,49.26973,49.090366,48.804626,48.480938,48.196648,47.85266,47.557957,47.37403,47.12705,46.870613,46.675232,46.467495,46.26233,46.115067,45.9998,45.90406,45.85681,45.839745,45.840687,45.860565,45.882732,45.90515,45.92038,45.923817,45.922173,45.903343,45.868835,45.827126,45.756596,45.67688,45.60956,45.542454,45.510895,45.51861,45.556973,45.633476,45.71537,45.797813,45.89394,45.985176,46.074463,46.201973,46.33104,46.42976,46.530632,46.611633,46.66703,46.74007,46.863617,47.01378,47.189117,47.401215,47.571316,47.685658,47.75495,47.761883,47.74913,47.71814,47.68335,47.664246,47.65261,47.641357,47.626163,47.607956,47.56378
22.956526,23.117643,23.339779,23.59456,23.874006,24.123726,24.267357,24.373543,24.442728,24.468826,24.4897,24.501566,24.495892,24.48033,24.451265,24.414654,24.385452,24.356937,24.3261,24.297968,24.269567,24.231735,24.191868,24.15533,24.112087,24.06665,24.026007,23.980442,23.93282,23.892757,23.847,23.798878,23.761534,23.727047,23.703468,23.699896,23.707123,23.702808,23.683826,23.659348,23.606241,23.529222,23.455517,23.376085,23.260689,23.115559,22.919483,22.82473,22.639864,22.253563,20.636286,18.569141,17.25787,16.52068,16.28936,16.29658,16.362976,16.423485,16.427422,16.41547,16.39774,16.395294,16.414858,16.453272,16.482775,16.480877,16.434504,16.3475,16.272503,16.227024,16.25839,16.45512,16.78991,17.53949,18.473547,19.212471,19.88803,20.236557,20.264526,20.2822,20.29963,20.342648,20.384953,20.44693,20.522373,20.60671,20.69125,20.770191,20.844088,21.020092,21.242498,21.455812,21.922308,22.803392,23.859173,25.064816,26.067461,26.502525,26.662498,26.757238,26.778557,26.785635,26.848654,26.94809,27.034893,27.111519,27.194965,27.275074,27.359348,27.471077,27.588762,27.696352,27.82854,27.957256,28.055695,28.163918,28.297422,28.437067,28.612415,28.833836,29.044186,29.241673,29.493399,29.737694,29.934475,30.15915,30.382053,30.568222,30.799723,31.026882,31.18274,31.318844,31.460741,31.583822,31.691162,31.825771,31.974613,32.118504,32.317318,32.55717,32.77668,33.039093,33.32911,33.56507,33.776936,33.99459,34.16543,34.297283,34.444397,34.582634,34.700195,34.84178,34.994415,35.127106,35.288902,35.476673,35.64229,35.804287,35.996826,36.178673,36.340584,36.544563,36.7507,36.92134,37.10351,37.274624,37.406868,37.542336,37.716713,37.923676,38.189285,38.60421,39.075954,39.510906,40.062923,40.64194,41.135605,41.723133,42.30654,42.738186,43.15952,43.53612,43.7878,43.985836,44.231056,44.499714,44.754517,45.17447,45.713306,46.21039,46.79706,47.455326,48.026863,48.63289,49.242424,49.70333,50.09854,50.555733,50.980927,51.337025,51.747383,52.139748,52.44847,52.8009,53.20532,53.57658,53.963463,54.44684,54.90515,55.30656,55.771072,56.096428,56.21019,56.321022,56.445915,56.585926,56.73244,56.88378,56.996628,57.065712,57.138245,57.19151,57.220573,57.11919,56.953735,56.857857,56.74993,56.518494,56.18274,55.755905,55.128975,54.408783,53.448288,52.412216,51.65339,51.092316,50.573265,50.22734,50.016922,49.802612,49.6272,49.503807,49.358665,49.169884,48.974346,48.780106,48.474304,48.128883,47.82456,47.45089,47.125164,46.91774,46.704098,46.50563,46.34929,46.192574,46.048706,45.955505,45.889835,45.846397,45.841934,45.85784,45.91075,45.993614,46.071457,46.164383,46.259163,46.32969,46.39485,46.450485,46.482727,46.503296,46.507385,46.49984,46.495895,46.505627,46.54759,46.610046,46.702835,46.814766,46.90458,46.98063,47.046494,47.093597,47.136383,47.20508,47.288406,47.364826,47.46163,47.562542,47.64586,47.760014,47.941624,48.147705,48.375427,48.645927,48.866753,49.022465,49.15147,49.222885,49.262012,49.31021,49.371277,49.43469,49.507095,49.565174,49.586426,49.588593,49.554146
23.095795,23.294811,23.5685,23.84797,24.09291,24.294617,24.411938,24.494534,24.542522,24.554976,24.566603,24.568062,24.553293,24.53122,24.493036,24.445473,24.406872,24.370407,24.33274,24.300314,24.26923,24.229015,24.187307,24.149176,24.104328,24.058672,24.019314,23.976728,23.93267,23.895157,23.85256,23.80769,23.773232,23.74282,23.722103,23.71914,23.72614,23.724358,23.700645,23.66161,23.586525,23.512968,23.469936,23.413162,23.30929,23.164501,22.97134,22.887894,22.718025,22.34235,20.737469,18.658161,17.309881,16.547886,16.301071,16.300898,16.357796,16.420494,16.432907,16.418522,16.398949,16.396763,16.4174,16.460217,16.497732,16.504204,16.467642,16.391111,16.325247,16.29209,16.336025,16.539173,16.870367,17.647167,18.603676,19.324684,19.992062,20.333982,20.35088,20.333818,20.330933,20.379375,20.419361,20.47501,20.541794,20.616901,20.69973,20.77945,20.848663,21.028126,21.263622,21.490265,21.953514,22.81647,23.853539,25.049652,26.071407,26.535305,26.699883,26.800282,26.825935,26.83482,26.900578,26.999931,27.08388,27.159992,27.244053,27.324898,27.409065,27.520828,27.638956,27.747187,27.881443,28.011484,28.109241,28.222399,28.358883,28.495815,28.667835,28.881784,29.082836,29.272823,29.51159,29.739677,29.920876,30.134886,30.35459,30.541298,30.768742,31.015884,31.209146,31.362823,31.512825,31.637548,31.748877,31.879616,32.026356,32.180435,32.38485,32.62385,32.83885,33.092613,33.370483,33.59668,33.802853,34.019386,34.19484,34.334618,34.493393,34.642273,34.766083,34.912476,35.065857,35.19616,35.353024,35.534058,35.694107,35.851482,36.04014,36.22012,36.38157,36.58561,36.792236,36.96364,37.132004,37.276382,37.384968,37.516113,37.70046,37.918903,38.18634,38.59331,39.069443,39.544006,40.115303,40.69359,41.186073,41.776474,42.367416,42.80793,43.23685,43.6287,43.900696,44.12032,44.385345,44.66296,44.919823,45.325195,45.820164,46.25951,46.797314,47.40583,47.933105,48.488457,49.123657,49.660984,50.079628,50.544624,50.963783,51.311623,51.71536,52.107033,52.420097,52.779617,53.195457,53.578045,53.973328,54.46649,54.939438,55.36872,55.847267,56.164948,56.26357,56.363384,56.473495,56.593452,56.72162,56.861404,56.98098,57.101746,57.216164,57.275826,57.296722,57.200264,57.044945,56.95308,56.745193,56.39324,56.0046,55.521484,54.692528,53.734554,52.784912,51.85656,51.19655,50.655045,50.18766,49.931313,49.81953,49.675125,49.544437,49.450825,49.31765,49.099106,48.847446,48.585182,48.278976,48.015087,47.805984,47.57521,47.37635,47.231796,47.06733,46.908348,46.788338,46.667618,46.562042,46.500202,46.45936,46.444893,46.472496,46.52183,46.631004,46.780304,46.912468,47.067986,47.227303,47.34963,47.467377,47.58259,47.669106,47.739975,47.80721,47.865646,47.92337,48.011765,48.133858,48.25923,48.419174,48.58425,48.69926,48.787254,48.845802,48.86943,48.880745,48.9122,48.971565,49.04151,49.146873,49.28141,49.409412,49.58729,49.83032,50.07306,50.335823,50.64262,50.88848,51.05445,51.188877,51.280266,51.362236,51.474503,51.610626,51.735535,51.873116,51.9905,52.046745,52.064877,52.025917
23.265953,23.527412,23.82965,24.070652,24.27816,24.44135,24.532627,24.594454,24.625092,24.627096,24.631405,24.624468,24.60213,24.574457,24.52762,24.47147,24.427376,24.385014,24.34034,24.302166,24.267937,24.225655,24.183445,24.145626,24.101482,24.057343,24.019966,23.980106,23.938896,23.9035,23.863487,23.821484,23.79002,23.764366,23.746387,23.743288,23.749481,23.754484,23.72033,23.647598,23.565159,23.494877,23.45885,23.445553,23.36859,23.220528,23.02808,22.954342,22.798185,22.431526,20.827583,18.726906,17.34378,16.564514,16.305176,16.29294,16.338829,16.403955,16.425474,16.407345,16.384323,16.380713,16.400715,16.445904,16.489796,16.503933,16.477646,16.41339,16.358265,16.336983,16.392149,16.600183,16.927708,17.718834,18.686897,19.395884,20.046703,20.379614,20.398167,20.355686,20.339226,20.39549,20.432552,20.481407,20.54152,20.613518,20.687609,20.75874,20.825298,21.006535,21.253952,21.495344,21.95626,22.806534,23.8331,25.025152,26.075775,26.576675,26.7463,26.85514,26.8858,26.892576,26.958447,27.055756,27.135483,27.21062,27.294477,27.374878,27.457733,27.57101,27.692308,27.80233,27.935467,28.064003,28.162664,28.280182,28.4178,28.551344,28.726297,28.937563,29.129446,29.310997,29.53909,29.7585,29.935143,30.142532,30.357754,30.544445,30.77854,31.03572,31.238907,31.414158,31.579443,31.702156,31.799545,31.921871,32.070602,32.230362,32.44848,32.695053,32.90399,33.14985,33.41725,33.635475,33.837723,34.054726,34.2356,34.383568,34.554108,34.713486,34.843315,34.994278,35.148254,35.276093,35.42811,35.60263,35.75728,35.90989,36.094124,36.271282,36.430565,36.63927,36.83876,36.981895,37.132187,37.270596,37.380917,37.51667,37.708862,37.93403,38.205845,38.61193,39.084534,39.55684,40.149216,40.751816,41.24848,41.844215,42.442764,42.892498,43.331093,43.737114,44.024796,44.26068,44.542694,44.830124,45.09086,45.48163,45.932484,46.3153,46.799484,47.366215,47.87057,48.402245,49.024803,49.57833,50.0597,50.553074,50.964085,51.313614,51.719074,52.1139,52.431343,52.794968,53.21606,53.604908,54.01165,54.51168,54.98104,55.399612,55.866,56.184006,56.299767,56.405296,56.502148,56.6002,56.718624,56.87133,57.01842,57.16388,57.315224,57.39245,57.37607,57.277657,57.130806,57.0153,56.729134,56.28194,55.825493,55.17522,54.17035,53.139694,52.259583,51.339207,50.654697,50.204826,49.857983,49.70765,49.66299,49.615536,49.55645,49.480354,49.353874,49.152935,48.93715,48.715305,48.482338,48.29469,48.132957,47.955887,47.817272,47.73394,47.670395,47.6353,47.618973,47.606647,47.62095,47.66211,47.710243,47.809334,47.96138,48.132973,48.414253,48.73263,48.97976,49.2211,49.44349,49.61624,49.78498,49.952347,50.084427,50.201508,50.339165,50.480545,50.616085,50.80464,51.03198,51.242615,51.47566,51.682106,51.806625,51.90203,51.96322,51.977444,51.96295,51.93345,51.920853,51.939507,51.998955,52.09507,52.18988,52.332367,52.53218,52.72619,52.915855,53.117447,53.27395,53.389145,53.516815,53.6427,53.75846,53.91857,54.11007,54.2797,54.449207,54.566418,54.589912,54.55001,54.43596
23.475521,23.787888,24.091438,24.280006,24.446213,24.571083,24.636553,24.67934,24.695068,24.688686,24.687075,24.67317,24.644249,24.611439,24.55783,24.493845,24.44303,24.393932,24.34351,24.302307,24.266655,24.223827,24.182095,24.145262,24.102495,24.060265,24.02495,23.987846,23.949318,23.915731,23.877523,23.839651,23.81309,23.790625,23.774199,23.771145,23.778776,23.7719,23.717737,23.629824,23.544987,23.477436,23.448553,23.482399,23.433722,23.283218,23.101612,23.0318,22.876732,22.519548,20.906681,18.77017,17.342941,16.548157,16.285622,16.269268,16.304749,16.37682,16.413927,16.392513,16.366604,16.361858,16.380686,16.42683,16.475548,16.496628,16.480927,16.430508,16.38773,16.378178,16.446121,16.66016,16.981754,17.778063,18.747002,19.438595,20.0685,20.38988,20.409512,20.349483,20.323608,20.384132,20.415688,20.45769,20.50978,20.57008,20.628544,20.688377,20.75201,20.940678,21.189606,21.421562,21.892124,22.755375,23.7874,24.970482,26.063564,26.622337,26.797546,26.915733,26.953861,26.962215,27.02696,27.11921,27.193398,27.266384,27.35048,27.432396,27.5178,27.62693,27.740969,27.848465,27.978725,28.108208,28.211988,28.333935,28.47166,28.600756,28.76719,28.9813,29.18272,29.361012,29.580246,29.792103,29.967857,30.17449,30.39008,30.578352,30.82227,31.089746,31.298634,31.486288,31.658854,31.777565,31.863228,31.97799,32.12616,32.286755,32.518116,32.773487,32.976013,33.215485,33.47567,33.689365,33.8907,34.111393,34.29999,34.457287,34.640366,34.81055,34.946518,35.102013,35.256554,35.382065,35.52962,35.698044,35.847473,35.99539,36.174538,36.34829,36.50842,36.70289,36.87953,37.005894,37.14557,37.283768,37.400192,37.543842,37.746063,37.979313,38.2575,38.66607,39.135044,39.596695,40.212673,40.847023,41.349453,41.950317,42.55445,43.011047,43.455723,43.871338,44.170776,44.419746,44.714977,45.00904,45.272522,45.63488,46.035015,46.37421,46.808434,47.331512,47.811417,48.328697,48.93964,49.496235,50.014793,50.55134,50.98687,51.338882,51.748528,52.14775,52.468582,52.833572,53.252754,53.637756,54.0419,54.53039,54.97902,55.372547,55.800293,56.10584,56.25711,56.386944,56.491257,56.58664,56.70783,56.874813,57.043262,57.215935,57.370537,57.426212,57.387604,57.3052,57.165474,57.001183,56.64331,56.12407,55.610104,54.729805,53.558342,52.53707,51.685844,50.796284,50.168106,49.848885,49.64602,49.61354,49.652664,49.688255,49.707718,49.701813,49.67628,49.604694,49.506298,49.390358,49.278206,49.205666,49.152634,49.111046,49.099617,49.108814,49.16336,49.25656,49.346222,49.446915,49.57756,49.71331,49.851944,50.06386,50.32547,50.59056,50.979744,51.39522,51.712852,52.029724,52.315887,52.52773,52.728706,52.923157,53.077614,53.218925,53.401543,53.607983,53.813763,54.108932,54.45578,54.760643,55.066666,55.35556,55.56196,55.708923,55.765236,55.7357,55.69564,55.648434,55.626366,55.634247,55.68511,55.769615,55.847115,55.948555,56.074024,56.183445,56.27569,56.36039,56.42553,56.484516,56.574467,56.7118,56.87702,57.11872,57.3348,57.440712,57.527344,57.55754,57.534912,57.49964,57.408714
23.69271,24.009737,24.281982,24.433939,24.566586,24.661095,24.707298,24.736916,24.743206,24.732056,24.726974,24.708801,24.675455,24.638855,24.580677,24.51062,24.453854,24.400028,24.347387,24.306637,24.271717,24.229984,24.189362,24.153553,24.112005,24.071236,24.037453,24.002329,23.96595,23.934288,23.899141,23.866312,23.844051,23.822605,23.806149,23.80175,23.808628,23.778984,23.706831,23.62625,23.543463,23.479527,23.459576,23.521667,23.487984,23.3381,23.177916,23.109447,22.943573,22.589985,20.961447,18.785265,17.313847,16.4981,16.239685,16.237074,16.267506,16.345354,16.397766,16.383558,16.36124,16.356468,16.375038,16.421463,16.472843,16.498692,16.491251,16.45235,16.420307,16.421185,16.50206,16.722786,17.038425,17.833359,18.792929,19.459427,20.064533,20.371195,20.388012,20.317478,20.283695,20.341795,20.368465,20.402435,20.441437,20.482101,20.52172,20.571669,20.634079,20.807152,21.03506,21.257374,21.756733,22.660738,23.713486,24.878468,26.02127,26.653788,26.833141,26.95851,27.005287,27.020645,27.084671,27.171839,27.242535,27.314266,27.39805,27.479176,27.562546,27.665049,27.772133,27.877243,28.00705,28.140127,28.249691,28.374346,28.511436,28.636848,28.788927,29.003126,29.218742,29.402687,29.62576,29.839172,30.015478,30.226143,30.447742,30.640976,30.894833,31.172802,31.38689,31.573742,31.742973,31.857666,31.938198,32.046764,32.18936,32.34508,32.583015,32.843697,33.040825,33.276302,33.53347,33.7465,33.949623,34.17563,34.371613,34.536438,34.72896,34.90687,35.047092,35.205696,35.36081,35.48518,35.630543,35.795956,35.942802,36.088398,36.265152,36.435474,36.591988,36.76141,36.91517,37.043655,37.18293,37.32277,37.44341,37.594055,37.80552,38.04648,38.330708,38.74347,39.212452,39.668518,40.30174,40.959312,41.468254,42.072605,42.67784,43.135468,43.57893,43.994263,44.295753,44.548676,44.846535,45.138527,45.398064,45.731895,46.093094,46.406395,46.80416,47.288147,47.741726,48.250084,48.860622,49.421135,49.940536,50.525608,51.015938,51.37175,51.788277,52.19279,52.51523,52.878075,53.28781,53.658882,54.045143,54.50557,54.923508,55.28917,55.673286,55.958637,56.13561,56.30179,56.438797,56.54981,56.683525,56.860245,57.034004,57.20832,57.328644,57.345497,57.315624,57.264503,57.12919,56.914185,56.509575,55.932713,55.34894,54.2889,53.031982,52.06659,51.18423,50.360725,49.87961,49.676315,49.59331,49.66262,49.784653,49.88527,49.988564,50.092957,50.22015,50.32994,50.381386,50.39817,50.420925,50.468513,50.536774,50.64856,50.777077,50.880962,51.031754,51.215187,51.37818,51.558933,51.772106,51.972897,52.171604,52.44422,52.74566,53.032646,53.411873,53.797337,54.095406,54.426605,54.734116,54.94897,55.144463,55.32569,55.466736,55.596436,55.774353,55.993126,56.22332,56.567863,56.97712,57.33215,57.675034,58.011642,58.27139,58.454994,58.517227,58.480156,58.459846,58.472733,58.52513,58.58529,58.67788,58.78571,58.873474,58.959763,59.02453,59.054466,59.07175,59.082973,59.09692,59.119358,59.159546,59.260742,59.420418,59.660263,59.821163,59.81958,59.797623,59.742973,59.695484,59.692017,59.663773
23.90467,24.192675,24.416473,24.543045,24.649532,24.722122,24.755894,24.777401,24.77872,24.765728,24.759212,24.738869,24.70289,24.663897,24.600803,24.525818,24.466743,24.412651,24.36063,24.320541,24.286694,24.246262,24.20676,24.17184,24.131245,24.09158,24.058975,24.02486,23.990067,23.961014,23.932652,23.905476,23.884867,23.864616,23.84747,23.838276,23.83682,23.796497,23.71875,23.64045,23.56471,23.507809,23.491413,23.5627,23.53172,23.38389,23.246735,23.185684,23.009892,22.648277,21.000652,18.791664,17.285635,16.437992,16.182693,16.209322,16.237509,16.312222,16.37333,16.382254,16.371672,16.366545,16.386215,16.433296,16.486376,16.515446,16.513939,16.483318,16.459583,16.47115,16.564976,16.791683,17.100876,17.894644,18.8435,19.480953,20.055367,20.34365,20.35804,20.27651,20.231363,20.283295,20.30914,20.331543,20.350122,20.372074,20.39265,20.433315,20.49791,20.607903,20.793118,21.042965,21.585571,22.539524,23.616844,24.757072,25.952175,26.665956,26.847687,26.97829,27.033108,27.056438,27.121017,27.20617,27.277193,27.350897,27.433361,27.506828,27.572483,27.672733,27.79079,27.900963,28.035454,28.17162,28.28283,28.40781,28.544052,28.667841,28.816133,29.018885,29.227215,29.423933,29.671022,29.901997,30.077633,30.29058,30.518024,30.718445,30.980946,31.266375,31.483288,31.667482,31.833408,31.944458,32.017326,32.11642,32.25003,32.397614,32.63814,32.90165,33.093296,33.32552,33.581093,33.79451,33.99993,34.230373,34.43141,34.6009,34.798897,34.980865,35.12289,35.28289,35.4385,35.5628,35.708088,35.87371,36.02102,36.166862,36.346172,36.51365,36.653366,36.8098,36.95887,37.086967,37.225933,37.36772,37.49212,37.64807,37.86605,38.112274,38.40061,38.816666,39.28727,39.74305,40.38555,41.056686,41.574135,42.181793,42.78534,43.239506,43.676292,44.08339,44.378597,44.62735,44.918602,45.200874,45.4487,45.77253,46.115814,46.40165,46.76888,47.220726,47.6509,48.14762,48.756966,49.325172,49.85134,50.487064,51.03123,51.39167,51.81719,52.22888,52.55323,52.9132,53.31163,53.66697,54.03434,54.46605,54.853405,55.190075,55.549194,55.823742,55.997795,56.203453,56.385086,56.507523,56.651653,56.84172,57.019386,57.142715,57.21835,57.2302,57.218864,57.19532,57.062737,56.813316,56.382545,55.727844,55.022923,53.881294,52.63216,51.7297,50.824764,50.06659,49.71531,49.590424,49.600586,49.752934,49.93264,50.116997,50.32484,50.524918,50.74687,50.97737,51.152924,51.29857,51.45529,51.5932,51.70835,51.8674,52.056263,52.23472,52.46794,52.7353,52.96665,53.222652,53.533524,53.820526,54.07354,54.37831,54.686134,54.9787,55.32452,55.64332,55.878277,56.15891,56.424652,56.606163,56.768105,56.911026,57.016827,57.113113,57.25544,57.44543,57.6541,57.966896,58.349426,58.69293,59.0321,59.297806,59.442295,59.566414,59.670475,59.749794,59.829987,59.95779,60.10871,60.24609,60.382046,60.496777,60.58185,60.661915,60.68406,60.647114,60.600838,60.54708,60.514023,60.50447,60.510807,60.53719,60.5724,60.611835,60.62307,60.601364,60.592068,60.563965,60.514565,60.451313,60.36006
