27.6504,27.724878,27.777786,27.83807,27.906767,27.971096,28.04226,28.130573,28.21649,28.295628,28.401543,28.516014,28.616135,28.7509,28.89585,29.010483,29.133463,29.26707,29.382694,29.493835,29.627565,29.752434,29.859867,29.977251,30.080372,30.160183,30.269115,30.395542,30.506105,30.635778,30.769253,30.864414,30.933636,30.994822,31.057573,31.145947,31.210394,31.306957,31.463602,31.67921,31.968452,32.259293,32.629486,33.09227,33.51138,33.88183,34.31505,34.6993,35.000824,35.28421,35.530342,35.74993,36.00585,36.27548,36.495354,36.72119,36.959637,37.15216,37.313927,37.499603,37.65425,37.760296,37.8396,37.89393,37.94442,37.996056,38.07408,38.161644,38.244843,38.293327,38.303925,38.325375,38.36412,38.420647,38.48304,38.55442,38.635853,38.71158,38.766945,38.796494,38.811447,38.860138,38.89876,38.870842,38.799057,38.458702,37.86113,37.23889,36.45095,35.723038,35.29181,35.171936,35.24887,35.48655,36.22987,37.001663,37.493744,37.89181,38.233517,38.312744,38.15302,38.33133,38.45572,38.292297,38.088306,38.080643,38.277546,38.387466,38.509243,38.63866,38.78453,38.939537,39.05755,39.128586,39.21122,39.29454,39.363693,39.443787,39.54223,39.628983,39.698868,39.75499,39.7755,39.775238,39.737984,39.664543,39.58943,39.493927,39.381355,39.281982,39.17994,39.057877,38.93524,38.807343,38.627472,38.426285,38.23813,37.997513,37.726357,37.482174,37.22248,37.0029,36.87355,36.760902,36.664482,36.602745,36.56241,36.51844,36.474503,36.43438,36.36612,36.27854,36.200638,36.1205,36.034874,35.958042,35.873253,35.768204,35.658546,35.54145,35.379864,35.222878,35.109974,34.96975,34.848473,34.779823,34.731117,34.72517,34.752663,34.790054,34.83926,34.833893,34.72711,34.59779,34.479877,34.386578,34.293415,34.22802,34.19789,34.17814,34.151943,34.111435,34.053062,33.969345,33.8999,33.867622,33.837646,33.834824,33.859512,33.920326,34.01491,34.106026,34.212246,34.32576,34.41081,34.476295,34.539886,34.583076,34.608734,34.617363,34.599953,34.571438,34.520424,34.440964,34.356773,34.252632,34.11969,33.998795,33.89431,33.787453,33.72779,33.72012,33.74569,33.80374,33.86257,33.935364,34.00547,34.049232,34.077377,34.096054,34.106377,34.12108,34.09418,34.039875,34.00435,33.932877,33.809486,33.667404,33.46335,33.195084,32.949097,32.723698,32.445457,32.202713,32.041904,31.907364,31.832605,31.793602,31.755064,31.711885,31.664036,31.593952,31.513191,31.451712,31.398876,31.370209,31.379822,31.40989,31.455002,31.496508,31.522446,31.523865,31.49612,31.462414,31.438515,31.44152,31.483597,31.567131,31.734858,31.940052,32.128387,32.34642,32.544407,32.696423,32.86213,33.003525,33.097458,33.20878,33.345196,33.47708,33.614204,33.75816,33.856033,33.91223,33.923386,33.877365,33.814804,33.748207,33.69477,33.679672,33.73626,33.884834,34.068245,34.247547,34.459457,34.63755,34.764545,34.876663,34.96421,35.039085,35.12977,35.27856,35.469513,35.748123,36.124683,36.472668,36.785778,37.02066,37.069885,37.003212,36.922173,36.828224,36.74271,36.66121,36.655724,36.721947,36.78595,36.809525,36.79253
27.112309,27.171886,27.213362,27.260582,27.316109,27.370743,27.433708,27.515827,27.599752,27.679762,27.78677,27.90356,28.007416,28.147621,28.306553,28.441467,28.591438,28.755196,28.895409,29.032677,29.196484,29.34842,29.479734,29.625668,29.756893,29.860373,29.991447,30.136353,30.260723,30.40791,30.554604,30.65237,30.719196,30.765772,30.791288,30.819292,30.811104,30.872887,31.04742,31.352264,31.720592,32.02265,32.416153,32.915833,33.378906,33.79892,34.269005,34.687572,35.05103,35.38153,35.64811,35.873352,36.137817,36.41457,36.638542,36.868412,37.110485,37.30503,37.467747,37.647385,37.80585,37.93927,38.04035,38.102917,38.151047,38.192818,38.245316,38.30562,38.38227,38.429047,38.437298,38.45575,38.488964,38.53334,38.577324,38.63192,38.684704,38.72382,38.782745,38.85221,38.911564,38.981205,39.034668,39.045876,39.05178,38.9292,38.620754,38.232872,37.63657,36.960354,36.465614,36.317467,36.113564,35.890854,36.22483,36.704235,37.162613,37.692215,38.126507,38.48304,38.883896,39.40512,39.613194,39.39566,39.104736,39.08896,39.389206,39.620087,39.89586,40.115677,40.245605,40.356197,40.40406,40.403473,40.39372,40.381073,40.377296,40.372986,40.383835,40.406914,40.42839,40.452652,40.47013,40.48114,40.469414,40.43731,40.406067,40.368492,40.327377,40.294426,40.269867,40.23569,40.188354,40.12728,40.03785,39.926525,39.806725,39.654633,39.498768,39.373833,39.205406,39.029617,38.906925,38.81521,38.75324,38.730103,38.72693,38.716496,38.69496,38.670273,38.6408,38.612236,38.593536,38.62185,38.679893,38.727238,38.755142,38.767075,38.74511,38.685074,38.587894,38.48102,38.39431,38.291634,38.21158,38.17499,38.15027,38.134216,38.122234,38.11635,38.0916,38.061417,38.051376,38.043236,38.039787,38.03934,38.060905,38.083717,38.08729,38.07535,38.051743,38.022243,37.97504,37.904327,37.832344,37.7716,37.706585,37.672287,37.67483,37.703323,37.7612,37.823036,37.9029,37.992046,38.060295,38.114094,38.170982,38.219006,38.25579,38.311836,38.375984,38.429413,38.480106,38.51451,38.524544,38.50941,38.462013,38.402237,38.34473,38.2752,38.217842,38.180756,38.15438,38.141315,38.13217,38.121044,38.093056,38.048798,37.98181,37.885323,37.78461,37.678135,37.57519,37.50676,37.46392,37.412983,37.35897,37.308594,37.212532,37.061234,36.90445,36.733097,36.57836,36.485687,36.41517,36.342274,36.294735,36.277798,36.26197,36.236694,36.19933,36.127975,36.03331,35.952034,35.870934,35.81022,35.80174,35.831635,35.88292,35.9367,35.977028,35.98667,35.946217,35.88285,35.815117,35.75321,35.72901,35.7499,35.824467,35.92787,36.02512,36.150406,36.267506,36.35056,36.416996,36.47014,36.51658,36.561283,36.63711,36.736595,36.85798,36.983532,37.062294,37.10462,37.095284,37.014904,36.909416,36.806923,36.751316,36.759945,36.810707,36.94625,37.12264,37.296722,37.528683,37.745102,37.90315,38.061676,38.197285,38.306152,38.431293,38.573807,38.706738,38.872902,39.02575,39.11149,39.167522,39.21154,39.219093,39.196808,39.12713,39.02926,38.949356,38.85795,38.76207,38.682167,38.59309,38.485184,38.38706
26.668274,26.711887,26.742012,26.77787,26.822865,26.869843,26.92614,27.002813,27.084206,27.163456,27.271145,27.39059,27.49821,27.636703,27.79166,27.924797,28.073479,28.2379,28.3818,28.527815,28.702614,28.863472,28.999146,29.164505,29.333641,29.480503,29.656765,29.823483,29.94117,30.075966,30.218918,30.325129,30.401394,30.439072,30.408787,30.324543,30.263435,30.328936,30.506962,30.899605,31.39236,31.77594,32.202065,32.73041,33.232338,33.696228,34.206657,34.654446,35.043465,35.43189,35.74453,35.971825,36.244057,36.52755,36.755577,36.98963,37.235847,37.433266,37.597694,37.777985,37.93609,38.066986,38.19639,38.2848,38.32808,38.375847,38.411903,38.436825,38.495674,38.53902,38.55076,38.561638,38.59282,38.6324,38.659256,38.696114,38.733047,38.760643,38.810516,38.87241,38.92614,38.991905,39.043144,39.053658,39.039417,39.001213,38.959694,38.952957,38.604534,38.088013,37.708405,37.240646,36.951073,36.962387,37.140045,37.109802,36.92843,36.92376,36.97767,37.12236,37.30944,37.77463,38.22609,38.425694,38.766277,39.17549,39.506844,39.766674,40.02787,40.195366,40.25563,40.28232,40.272408,40.255356,40.26504,40.30179,40.34346,40.380287,40.423058,40.460884,40.490234,40.516136,40.529575,40.53476,40.52436,40.5001,40.476517,40.445515,40.40576,40.36686,40.322647,40.260117,40.187557,40.10236,40.001106,39.89086,39.770695,39.619003,39.465637,39.345795,39.217728,39.113487,39.055923,39.005367,38.96785,38.95034,38.942905,38.93103,38.922165,38.92291,38.93035,38.94189,38.956223,39.06482,39.227074,39.353844,39.439346,39.487057,39.47908,39.433384,39.35936,39.29194,39.25564,39.222332,39.220932,39.249023,39.28484,39.32307,39.347656,39.36525,39.363365,39.348343,39.338722,39.34533,39.37845,39.424187,39.502487,39.561207,39.56823,39.568134,39.565746,39.568306,39.57189,39.580956,39.589935,39.592518,39.592636,39.59653,39.607246,39.61045,39.608635,39.606903,39.607193,39.60962,39.613132,39.61715,39.62229,39.62728,39.631416,39.636654,39.64258,39.648087,39.65525,39.66397,39.672043,39.681587,39.69359,39.705177,39.716118,39.729584,39.742294,39.752678,39.76489,39.77716,39.787407,39.799522,39.81375,39.827763,39.847343,39.87072,39.886566,39.88849,39.899586,39.919106,39.93782,39.95574,39.95507,39.932808,39.855957,39.713028,39.557476,39.371647,39.250626,39.225616,39.195633,39.16463,39.142982,39.13277,39.123657,39.10195,39.065216,38.994072,38.88436,38.77277,38.652565,38.524643,38.439945,38.40133,38.380104,38.37708,38.37879,38.351105,38.26538,38.148994,37.991966,37.843918,37.77722,37.78371,37.839302,37.91327,37.978043,38.06054,38.132492,38.17736,38.186157,38.164246,38.141438,38.113747,38.134422,38.21579,38.345467,38.470642,38.528732,38.542023,38.487206,38.349262,38.189163,38.04361,37.97435,37.990776,38.033867,38.144417,38.284584,38.417496,38.59222,38.749557,38.854965,38.967094,39.070206,39.155876,39.252144,39.365494,39.481434,39.66217,39.82502,39.904694,39.95517,40.00363,40.02246,40.007862,39.933098,39.84983,39.815758,39.7772,39.739906,39.70644,39.65915,39.58776,39.503662
26.298115,26.328098,26.348713,26.374928,26.410631,26.450245,26.499254,26.56821,26.643234,26.717117,26.818172,26.931313,27.034071,27.16713,27.317352,27.447384,27.593212,27.756039,27.898176,28.037518,28.202515,28.354342,28.482225,28.647507,28.823124,28.975418,29.15913,29.353218,29.511078,29.67454,29.825214,29.912132,29.946682,29.922302,29.850927,29.770834,29.710945,29.770454,29.93811,30.283266,30.877262,31.49216,31.977362,32.530304,33.06897,33.574474,34.129395,34.610104,35.01692,35.472237,35.83934,36.060604,36.3386,36.62896,36.860832,37.09887,37.34944,37.550358,37.717255,37.899307,38.057053,38.183258,38.343967,38.45948,38.49296,38.54064,38.56892,38.576653,38.61357,38.64759,38.662914,38.67045,38.692177,38.723473,38.750782,38.776184,38.792313,38.80194,38.85357,38.931778,39.001137,39.07036,39.129826,39.15699,39.162727,39.15431,39.151962,39.174286,39.181686,39.015076,38.692215,38.234737,37.880554,37.769753,37.635025,37.607697,37.73021,37.947083,38.040733,38.037357,38.067726,38.185883,38.368927,38.545406,38.797302,39.299362,39.847343,40.17605,40.432358,40.57846,40.67375,40.81113,40.918327,40.94951,40.989857,41.029915,41.06254,41.094284,41.132553,41.166847,41.192448,41.211994,41.216797,41.212105,41.193993,41.162018,41.128704,41.084007,41.031384,40.98513,40.93057,40.87545,40.82245,40.744064,40.648247,40.55316,40.463226,40.35434,40.238384,40.13729,40.035954,39.957073,39.915146,39.879795,39.84245,39.808235,39.778625,39.743473,39.714302,39.695793,39.67778,39.6764,39.694145,39.761536,39.852406,39.91389,39.93976,39.932,39.894173,39.84253,39.772232,39.714268,39.68512,39.66777,39.673912,39.69395,39.726788,39.767876,39.799355,39.823357,39.830746,39.82602,39.827316,39.843117,39.871998,39.90116,39.92585,39.93615,39.933826,39.932125,39.932545,39.936714,39.943558,39.955666,39.967693,39.975243,39.98216,39.986614,39.989056,39.987183,39.98301,39.980186,39.97731,39.97577,39.976234,39.97809,39.980545,39.98294,39.985123,39.987316,39.989758,39.992405,39.99771,40.006294,40.015686,40.028484,40.046394,40.06402,40.079597,40.09724,40.111626,40.12143,40.131042,40.140007,40.148224,40.15893,40.17361,40.189125,40.20803,40.23164,40.252167,40.267128,40.286057,40.305214,40.32135,40.340515,40.35662,40.36552,40.366604,40.35717,40.342278,40.3163,40.313976,40.33226,40.33734,40.331444,40.310883,40.285316,40.240864,40.15838,40.055885,39.894955,39.711494,39.576126,39.464172,39.349983,39.268616,39.2247,39.20292,39.201813,39.20175,39.180122,39.108177,39.006237,38.856503,38.75421,38.750107,38.766518,38.82221,38.8929,38.942757,39.06373,39.202255,39.287968,39.35395,39.394615,39.42092,39.449375,39.491386,39.541695,39.60575,39.64972,39.65232,39.639595,39.599373,39.519203,39.422844,39.350346,39.31884,39.326603,39.373894,39.474495,39.58722,39.68264,39.809395,39.932556,40.027946,40.12865,40.214104,40.27671,40.333878,40.38559,40.431057,40.49691,40.560783,40.600822,40.63354,40.66752,40.683037,40.676384,40.647774,40.60852,40.58033,40.55571,40.543163,40.53882,40.526398,40.4761,40.363888
25.952263,25.969795,25.98191,25.999447,26.02636,26.05831,26.09888,26.157604,26.222721,26.28733,26.375431,26.474258,26.564476,26.682688,26.817219,26.934004,27.065178,27.212341,27.340626,27.463783,27.609795,27.745817,27.862259,28.013763,28.17442,28.312466,28.480463,28.670624,28.836853,29.001879,29.146812,29.22314,29.244778,29.208042,29.14306,29.096687,29.065159,29.127464,29.276154,29.579247,30.178196,30.878927,31.608173,32.31061,32.83614,33.38656,33.997246,34.5215,34.950836,35.46186,35.888443,36.140186,36.428665,36.719444,36.954723,37.19606,37.451065,37.656647,37.827995,38.015137,38.176506,38.303276,38.475044,38.614334,38.67354,38.72745,38.75241,38.753315,38.75649,38.776764,38.80271,38.807846,38.823154,38.847816,38.87175,38.895676,38.910652,38.917595,38.95726,39.039246,39.13169,39.224014,39.304398,39.349117,39.379875,39.3993,39.41971,39.451736,39.594673,39.6876,39.62217,39.396225,39.083557,38.82579,38.525673,38.407143,38.506508,38.622322,38.680008,38.746994,38.899612,38.947052,38.985542,39.083145,39.187126,39.466194,39.829655,40.08528,40.43651,40.767212,40.9797,41.161682,41.265396,41.31621,41.38419,41.44816,41.491028,41.52775,41.56816,41.6027,41.625923,41.634613,41.631313,41.634186,41.61399,41.571434,41.527958,41.472145,41.41067,41.36031,41.30304,41.24819,41.201447,41.13878,41.06005,40.98432,40.92118,40.829758,40.72397,40.632595,40.52334,40.419285,40.352097,40.3031,40.267212,40.245934,40.228516,40.20701,40.184464,40.16393,40.137695,40.117542,40.110268,40.11096,40.117516,40.119823,40.107155,40.080772,40.04638,40.007683,39.952553,39.896164,39.852512,39.79454,39.75968,39.76281,39.772068,39.788826,39.803596,39.81719,39.822113,39.81906,39.817,39.827827,39.849392,39.86965,39.88542,39.90102,39.91686,39.92704,39.928585,39.92085,39.905838,39.879936,39.85556,39.84162,39.831635,39.833527,39.84424,39.865345,39.89093,39.909985,39.93055,39.949013,39.96043,39.968582,39.980515,39.994965,40.008545,40.02824,40.04935,40.065784,40.07935,40.08692,40.087986,40.082546,40.068405,40.053696,40.044693,40.04088,40.047707,40.06203,40.086945,40.11444,40.13363,40.151405,40.161377,40.16275,40.162323,40.158905,40.157295,40.16176,40.173744,40.190308,40.20544,40.22348,40.240303,40.25179,40.254402,40.246223,40.238342,40.253418,40.265335,40.26392,40.259064,40.249977,40.231644,40.20616,40.16529,40.094406,40.009117,39.881065,39.745483,39.656086,39.588936,39.53296,39.503098,39.493507,39.49626,39.50608,39.512596,39.50253,39.46217,39.40748,39.33504,39.303318,39.33063,39.3634,39.43258,39.507477,39.5486,39.64187,39.74874,39.817123,39.87922,39.9305,39.96856,39.99633,40.009018,40.008358,40.006775,39.998215,39.987106,39.980335,39.972775,39.95349,39.92215,39.904716,39.89807,39.901287,39.937767,40.019432,40.114365,40.195114,40.30741,40.42257,40.517128,40.61477,40.696877,40.757957,40.81286,40.86178,40.9028,40.949356,41.006733,41.06173,41.11582,41.173004,41.20894,41.22074,41.231606,41.224945,41.20022,41.13426,41.045708,40.974545,40.908897,40.839348,40.749157
25.718863,25.7277,25.733543,25.744717,25.76492,25.790646,25.824066,25.873344,25.928299,25.98265,26.056057,26.137314,26.210714,26.306808,26.415962,26.510578,26.616554,26.735184,26.838657,26.938179,27.058153,27.172628,27.273094,27.40152,27.536184,27.651943,27.795177,27.958282,28.10096,28.244564,28.37791,28.459896,28.502716,28.507067,28.487885,28.478693,28.484526,28.560898,28.698456,28.979393,29.502869,30.13305,31.059605,31.972485,32.574036,33.159805,33.81919,34.391716,34.845715,35.381134,35.853607,36.172386,36.482933,36.77188,37.006424,37.24893,37.507298,37.718063,37.895622,38.09138,38.261566,38.396133,38.56505,38.72291,38.8298,38.89733,38.92408,38.926414,38.90931,38.91364,38.939663,38.951004,38.969967,38.993385,39.01374,39.043213,39.07289,39.094,39.122345,39.196777,39.30137,39.415897,39.52147,39.586754,39.638363,39.683487,39.727734,39.77977,39.863613,40.01349,40.175964,40.20607,40.070236,39.847923,39.603096,39.379925,39.23982,39.103233,39.066536,39.221912,39.49238,39.634872,39.697807,39.747833,39.75979,39.69597,39.647614,39.748528,40.12973,40.590534,40.866104,41.072594,41.176037,41.23947,41.322968,41.414776,41.49061,41.553936,41.62101,41.67655,41.714714,41.738876,41.7474,41.758774,41.735348,41.68293,41.63411,41.575027,41.51121,41.458652,41.40225,41.338737,41.28045,41.221725,41.147385,41.071274,41.00441,40.89523,40.773727,40.681786,40.55995,40.43741,40.356358,40.29885,40.26966,40.26832,40.27311,40.274582,40.268368,40.258324,40.244896,40.223873,40.19953,40.172813,40.148605,40.13274,40.11547,40.101784,40.08925,40.068817,40.031242,39.98017,39.929947,39.843193,39.778862,39.77186,39.764015,39.758293,39.753815,39.755478,39.755104,39.750053,39.74086,39.74195,39.756233,39.773594,39.805946,39.84721,39.87967,39.898636,39.90139,39.888027,39.860214,39.81066,39.76235,39.732925,39.707485,39.704967,39.723274,39.759926,39.803886,39.835793,39.87208,39.904984,39.925007,39.938606,39.959137,39.984116,40.00692,40.04033,40.07598,40.103336,40.123352,40.13089,40.127037,40.10948,40.07335,40.03663,40.012146,39.994934,39.99791,40.017235,40.056023,40.09951,40.127945,40.153664,40.16413,40.158962,40.14906,40.132133,40.118027,40.11167,40.117756,40.134705,40.15178,40.16857,40.17757,40.176346,40.143646,40.073257,40.002422,39.966343,39.92355,39.880093,39.848904,39.82666,39.81333,39.798607,39.78354,39.761696,39.734406,39.695465,39.654,39.625233,39.5981,39.587112,39.597733,39.616604,39.635925,39.65076,39.662815,39.658676,39.637375,39.614544,39.604237,39.599545,39.604618,39.632187,39.697235,39.76653,39.804386,39.845207,39.878784,39.901913,39.915756,39.92807,39.9413,39.93252,39.907158,39.88137,39.861168,39.85269,39.85842,39.869217,39.862762,39.83539,39.802948,39.777565,39.76371,39.7632,39.778236,39.837646,39.9245,40.0085,40.133297,40.262516,40.364902,40.46943,40.560127,40.632492,40.70488,40.781063,40.853035,40.944366,41.05047,41.1416,41.22646,41.316048,41.374245,41.39666,41.41274,41.404602,41.37564,41.281494,41.151623,41.047035,40.9431,40.86075,40.81155
25.584984,25.587616,25.588192,25.594246,25.609207,25.63034,25.658947,25.701763,25.749237,25.79543,25.857569,25.924408,25.982506,26.056585,26.13936,26.210857,26.290382,26.378838,26.45575,26.529404,26.619936,26.70884,26.788252,26.894094,27.009502,27.110657,27.24001,27.38663,27.512676,27.645649,27.778,27.870462,27.932959,27.975044,27.99501,28.010513,28.04295,28.136826,28.280228,28.5312,28.99527,29.572315,30.424576,31.481956,32.340775,32.947426,33.637,34.255024,34.729843,35.269753,35.772133,36.16178,36.503647,36.795044,37.023792,37.26578,37.526573,37.74228,37.92634,38.131798,38.3125,38.4562,38.631584,38.808533,38.948147,39.03053,39.061092,39.064545,39.05594,39.044533,39.048634,39.077103,39.107338,39.13317,39.157257,39.189606,39.22897,39.26597,39.30143,39.372276,39.469345,39.582283,39.705658,39.79772,39.86378,39.923393,39.977474,40.03461,40.120842,40.238327,40.351833,40.456398,40.55671,40.59204,40.46568,40.30686,40.197243,40.118183,40.054955,40.037376,40.053,40.07666,40.124954,40.17043,40.122864,39.894012,39.655655,39.672386,39.875526,40.15011,40.341568,40.67498,40.974854,41.095,41.190147,41.287384,41.39778,41.50128,41.61839,41.718384,41.79322,41.87362,41.918716,41.915936,41.876904,41.813774,41.761143,41.69951,41.631237,41.57189,41.50951,41.437244,41.366142,41.2882,41.187984,41.081886,40.981415,40.84714,40.71447,40.619694,40.52027,40.445724,40.41114,40.384552,40.362877,40.348267,40.340374,40.32528,40.307713,40.294815,40.288334,40.286552,40.28441,40.287525,40.280895,40.261055,40.230957,40.20369,40.18508,40.162354,40.128235,40.09298,40.067074,40.02893,39.998177,39.987648,39.984802,39.983887,39.982323,39.989258,39.994736,39.994186,39.98996,39.988743,39.989685,39.98912,39.992344,40.000893,40.01056,40.01545,40.019264,40.020744,40.01635,40.001656,39.983746,39.97238,39.956024,39.94641,39.949142,39.960915,39.97809,39.99232,40.01268,40.03512,40.052216,40.066505,40.08657,40.10765,40.12452,40.14686,40.169716,40.18758,40.20197,40.21203,40.217384,40.216827,40.209152,40.200928,40.199276,40.199463,40.20578,40.21885,40.243347,40.27025,40.28809,40.31069,40.331306,40.343315,40.35006,40.357254,40.36415,40.36686,40.374664,40.38666,40.39843,40.40658,40.4106,40.412445,40.402576,40.376354,40.345856,40.32259,40.283085,40.242035,40.2185,40.20362,40.1941,40.180466,40.16307,40.135845,40.10327,40.05743,40.00921,39.976334,39.94892,39.927235,39.91844,39.9185,39.923523,39.933025,39.944084,39.938976,39.909943,39.87204,39.83599,39.79715,39.77046,39.762215,39.78781,39.834442,39.871258,39.92433,39.97304,40.001602,40.007366,40.006638,40.01532,40.017563,40.018417,40.020638,40.025692,40.031387,40.032646,40.035034,39.97503,39.865982,39.76675,39.69584,39.657913,39.64422,39.64218,39.685204,39.762497,39.842144,39.97084,40.112034,40.228508,40.34733,40.445095,40.516365,40.580574,40.639908,40.694443,40.77021,40.86506,40.952415,41.036964,41.127327,41.18081,41.190483,41.186268,41.153526,41.10665,41.063866,41.060883,41.08876,41.080536,41.047165,40.997387
25.456264,25.457462,25.457508,25.46274,25.476126,25.494678,25.518864,25.55393,25.591301,25.62632,25.67154,25.719662,25.762318,25.818172,25.879326,25.929647,25.982908,26.040398,26.08995,26.136768,26.196304,26.257816,26.314568,26.39454,26.486698,26.570171,26.680693,26.80988,26.923275,27.046322,27.176281,27.276176,27.35347,27.424515,27.47734,27.519073,27.57925,27.689228,27.83477,28.07491,28.491993,29.002174,29.741856,30.894558,31.99019,32.655807,33.39673,34.058456,34.56122,35.11646,35.624916,36.02381,36.435646,36.79184,37.03125,37.263245,37.516403,37.738754,37.931854,38.151764,38.349033,38.50786,38.700443,38.894146,39.04812,39.169235,39.226067,39.227028,39.22276,39.205666,39.198586,39.221878,39.26532,39.30979,39.337696,39.37478,39.42163,39.46814,39.518295,39.588425,39.66963,39.77629,39.89987,40.001198,40.08439,40.16649,40.2342,40.29053,40.37115,40.468906,40.557564,40.663353,40.788895,40.880535,40.893982,40.893913,40.902786,40.92131,40.948494,40.979904,41.006866,41.084564,41.20868,41.319595,41.373444,41.309944,41.18965,41.16501,41.062576,40.913612,40.79765,40.807785,40.909653,40.9814,41.066826,41.14599,41.195213,41.218494,41.238865,41.264145,41.290554,41.32653,41.36198,41.39357,41.39949,41.373215,41.337944,41.291634,41.23469,41.184177,41.1361,41.0815,41.020607,40.941666,40.82202,40.675533,40.523495,40.347916,40.209854,40.137222,40.023415,39.9158,39.861366,39.85598,39.871227,39.888893,39.91102,39.92448,39.925674,39.923805,39.932,39.95759,39.99209,40.04708,40.11035,40.153427,40.174416,40.185684,40.17823,40.145386,40.093224,40.05087,40.036285,40.032845,40.058544,40.10298,40.17231,40.22626,40.243183,40.26796,40.286552,40.29116,40.28785,40.284187,40.27988,40.274,40.274803,40.28488,40.297825,40.306236,40.313744,40.316177,40.307533,40.281303,40.2495,40.228294,40.19989,40.165028,40.12946,40.107525,40.103485,40.110985,40.133057,40.16333,40.186573,40.20172,40.217266,40.23015,40.23873,40.255165,40.282066,40.31228,40.3472,40.380997,40.40316,40.41639,40.414597,40.401672,40.389297,40.368595,40.353607,40.35293,40.373848,40.41301,40.45009,40.50753,40.552574,40.564568,40.5688,40.57113,40.573112,40.568794,40.570137,40.582115,40.600418,40.618813,40.63517,40.64727,40.647537,40.625267,40.5895,40.550007,40.48786,40.425156,40.3809,40.33279,40.289444,40.252068,40.230465,40.213257,40.18672,40.128468,40.03502,39.934135,39.80552,39.6833,39.622215,39.609642,39.603477,39.59848,39.59211,39.553543,39.469734,39.373848,39.279373,39.186462,39.131744,39.12708,39.18376,39.273125,39.347153,39.43473,39.497578,39.521606,39.510674,39.481613,39.46483,39.44757,39.447678,39.46801,39.499554,39.523796,39.541824,39.575474,39.588295,39.576393,39.559162,39.582317,39.648087,39.72534,39.825836,39.951515,40.050823,40.107613,40.14271,40.14352,40.124065,40.09097,40.0788,40.102837,40.15435,40.24962,40.356636,40.480747,40.60624,40.695522,40.77071,40.84539,40.90045,40.93676,40.996006,41.06651,41.126736,41.22342,41.350975,41.453976,41.504875,41.49272,41.41958
25.386494,25.387169,25.387466,25.392448,25.404408,25.420065,25.439163,25.465263,25.491161,25.513784,25.54075,25.5692,25.595917,25.632969,25.673542,25.705442,25.736946,25.769217,25.796593,25.82219,25.85812,25.899645,25.94028,26.0024,26.079355,26.151955,26.250385,26.369204,26.476063,26.593155,26.71887,26.819122,26.90284,26.989988,27.063461,27.123753,27.202457,27.319223,27.459007,27.686882,28.065891,28.517109,29.137314,30.229704,31.399849,32.273502,33.127686,33.79174,34.33275,34.912224,35.41844,35.80126,36.241455,36.651245,36.934715,37.20819,37.479034,37.69777,37.898743,38.135918,38.35618,38.536564,38.756348,38.970978,39.134647,39.30536,39.399166,39.398567,39.3972,39.382294,39.371635,39.3757,39.42203,39.488144,39.532413,39.581337,39.634853,39.68606,39.746998,39.817825,39.885674,39.97203,40.081,40.18149,40.26882,40.363365,40.44506,40.509556,40.585068,40.667557,40.741222,40.81897,40.895256,40.96045,41.0479,41.152817,41.246395,41.3266,41.426697,41.532394,41.626026,41.76403,41.93434,42.08414,42.233276,42.36989,42.44268,42.465668,42.323193,42.084114,41.89951,41.7558,41.701042,41.699173,41.72269,41.739044,41.721085,41.67331,41.60393,41.54684,41.510048,41.47219,41.455425,41.47151,41.472115,41.4479,41.41242,41.362923,41.296173,41.23222,41.16828,41.095352,41.023308,40.94298,40.837036,40.721626,40.607086,40.48864,40.41291,40.386173,40.28518,40.155533,40.067535,40.0303,40.0113,40.002533,40.004326,40.00133,39.991272,39.979057,39.968903,39.96679,39.972027,39.98575,40.009735,40.030487,40.036713,40.024826,39.997723,39.966522,39.91754,39.878304,39.867374,39.85768,39.874477,39.918648,40.024757,40.12674,40.17305,40.217243,40.2431,40.242485,40.2303,40.220642,40.21855,40.2203,40.238667,40.27057,40.29821,40.31154,40.308117,40.286903,40.244392,40.17219,40.10345,40.062862,40.025948,39.998344,39.976227,39.975662,39.99183,40.0091,40.037453,40.06677,40.082527,40.086628,40.087234,40.085777,40.082317,40.08543,40.099518,40.118683,40.13277,40.148323,40.161236,40.152653,40.1141,40.0644,40.024345,39.979767,39.95839,39.966766,40.01538,40.09188,40.15776,40.248734,40.31513,40.328514,40.3256,40.310028,40.292915,40.27307,40.26935,40.2928,40.330395,40.374027,40.414635,40.442207,40.444637,40.399734,40.327805,40.25096,40.144226,40.043556,39.966896,39.90638,39.865448,39.82415,39.781773,39.727604,39.664062,39.55741,39.43747,39.34796,39.253677,39.167442,39.123806,39.117027,39.106262,39.09243,39.082325,39.055817,39.007637,38.956196,38.915318,38.88113,38.8707,38.90274,38.98092,39.06934,39.13392,39.202606,39.250107,39.27155,39.27684,39.278725,39.29058,39.3071,39.343216,39.390938,39.444138,39.49543,39.538788,39.58619,39.65664,39.733246,39.79374,39.880264,39.983833,40.075596,40.186153,40.30536,40.38511,40.419884,40.427742,40.40829,40.378662,40.348316,40.35521,40.402855,40.485252,40.612747,40.74137,40.878292,41.007896,41.095016,41.169685,41.232437,41.276443,41.315086,41.40046,41.52256,41.635983,41.771065,41.89274,41.95793,41.986267,41.96286,41.89507
25.377659,25.375854,25.374094,25.376764,25.385286,25.396711,25.410418,25.428343,25.444717,25.457512,25.471272,25.48518,25.498745,25.518387,25.54116,25.55997,25.578201,25.596313,25.61168,25.626629,25.651993,25.685736,25.720615,25.777086,25.849907,25.91983,26.01494,26.129942,26.233372,26.347485,26.468693,26.565187,26.64902,26.741505,26.823353,26.891197,26.975975,27.09002,27.219076,27.423656,27.769318,28.183998,28.73235,29.66001,30.735989,31.86617,32.86508,33.520073,34.094826,34.69956,35.213394,35.59259,35.998024,36.402977,36.734184,37.081596,37.40245,37.62868,37.842392,38.098335,38.3414,38.544266,38.792202,39.031578,39.210793,39.41622,39.538662,39.54505,39.54602,39.533676,39.52211,39.511444,39.548393,39.622726,39.68923,39.756226,39.81936,39.873375,39.935112,40.00602,40.070385,40.133,40.225513,40.32332,40.403545,40.496563,40.587845,40.66935,40.748978,40.826664,40.896564,40.973156,41.054176,41.123314,41.198307,41.2858,41.364105,41.43138,41.51149,41.592293,41.66239,41.76967,41.902424,42.01979,42.149494,42.28972,42.404823,42.50939,42.620148,42.710182,42.780933,42.87362,42.92215,42.90051,42.854614,42.807392,42.78411,42.75189,42.698112,42.638786,42.59078,42.53016,42.469086,42.41617,42.348026,42.27657,42.21707,42.14259,42.046814,41.952057,41.84848,41.72854,41.62745,41.544094,41.47287,41.437202,41.424355,41.42434,41.43446,41.440536,41.388474,41.294342,41.205673,41.11284,41.00614,40.91753,40.85073,40.782356,40.726543,40.683388,40.630714,40.562584,40.489536,40.39129,40.27514,40.177956,40.08998,39.990158,39.91948,39.901558,39.88102,39.86084,39.84858,39.80346,39.74568,39.71263,39.76784,39.85457,39.910156,39.954124,39.9729,39.961517,39.940132,39.926086,39.927845,39.93737,39.966213,40.00673,40.036858,40.045074,40.02382,39.979233,39.913174,39.81743,39.736107,39.69264,39.663555,39.670517,39.702366,39.754395,39.804363,39.829437,39.852524,39.862183,39.85607,39.84262,39.827415,39.815018,39.803383,39.791298,39.777084,39.760864,39.71737,39.67919,39.66389,39.620853,39.544952,39.469597,39.41848,39.376434,39.37145,39.4003,39.47186,39.559513,39.621162,39.69565,39.750587,39.766403,39.761234,39.73889,39.71439,39.690304,39.690502,39.72676,39.77939,39.837654,39.889095,39.92266,39.92341,39.86477,39.774868,39.683968,39.562805,39.454296,39.374413,39.351326,39.36467,39.35516,39.300323,39.198128,39.09243,38.956825,38.879395,38.904945,38.995094,39.08838,39.130745,39.141174,39.13147,39.119247,39.12339,39.15406,39.22223,39.30211,39.40275,39.509087,39.583435,39.637886,39.67737,39.691383,39.69001,39.690044,39.704094,39.731514,39.77982,39.85672,39.937836,40.027916,40.121277,40.190987,40.24663,40.31321,40.366425,40.390358,40.430397,40.47637,40.51248,40.5468,40.558983,40.548946,40.535942,40.534386,40.55462,40.585052,40.67215,40.802555,40.93193,41.098198,41.269966,41.408722,41.54866,41.674812,41.76794,41.86502,41.969124,42.059536,42.153553,42.22519,42.252388,42.258945,42.293705,42.345303,42.386703,42.415794,42.41156,42.38037,42.340923,42.299103,42.277184
25.382263,25.378616,25.37404,25.37439,25.379105,25.385693,25.394333,25.405163,25.413761,25.418886,25.42289,25.426903,25.432137,25.441608,25.454105,25.464941,25.474579,25.48428,25.493578,25.503773,25.524342,25.553856,25.585022,25.635342,25.699474,25.760277,25.843864,25.946924,26.04176,26.149841,26.271534,26.372732,26.458036,26.55183,26.636162,26.708794,26.797243,26.910088,27.03389,27.215641,27.521866,27.89555,28.397064,29.211063,30.191591,31.385075,32.50453,33.24894,33.834366,34.467377,35.000687,35.373512,35.764847,36.149117,36.4666,36.806873,37.2012,37.535706,37.788067,38.06332,38.31897,38.546883,38.82495,39.09079,39.286415,39.503117,39.64854,39.683315,39.68697,39.67192,39.659325,39.648933,39.676292,39.742393,39.813087,39.90753,39.99398,40.04608,40.10988,40.18019,40.24035,40.296658,40.374863,40.462547,40.55152,40.6486,40.740143,40.823875,40.92547,41.02207,41.091507,41.173843,41.26526,41.345795,41.431923,41.53141,41.618195,41.69053,41.77147,41.847797,41.912,42.009148,42.125496,42.225258,42.335686,42.458965,42.56465,42.662292,42.769867,42.859196,42.92798,43.007214,43.05513,43.058815,43.050705,43.0348,43.02264,43.001404,42.97493,42.953926,42.94043,42.921093,42.896435,42.871803,42.828674,42.770363,42.7145,42.64537,42.564415,42.492783,42.420433,42.34397,42.282387,42.234325,42.160854,42.08458,42.03012,41.96998,41.918358,41.882324,41.839973,41.780212,41.717625,41.66243,41.603355,41.555656,41.523453,41.471687,41.41432,41.370476,41.322193,41.269547,41.218197,41.14659,41.041145,40.935547,40.844185,40.75555,40.697075,40.667557,40.634956,40.60177,40.572433,40.515976,40.443413,40.38424,40.34695,40.32066,40.30272,40.294468,40.29061,40.28936,40.28762,40.29036,40.29181,40.28675,40.276066,40.265244,40.26005,40.25637,40.25266,40.25119,40.259354,40.263664,40.25995,40.255203,40.23707,40.21103,40.189735,40.166336,40.137936,40.111366,40.09761,40.082794,40.06581,40.050102,40.039383,40.036144,40.03433,40.032494,40.026283,40.01526,39.98475,39.963963,39.96907,39.98137,39.989532,39.986137,39.97886,39.963493,39.942192,39.921112,39.886528,39.83689,39.785492,39.731197,39.68421,39.657265,39.641525,39.6419,39.655067,39.670223,39.687172,39.71102,39.746796,39.769333,39.776936,39.779053,39.77108,39.754616,39.743122,39.75131,39.770535,39.791542,39.80857,39.84806,39.8945,39.925972,39.953392,39.977905,40.002125,40.034378,40.107147,40.20414,40.31227,40.40927,40.45346,40.461967,40.44728,40.42403,40.412937,40.420807,40.46075,40.51595,40.590004,40.68074,40.737167,40.712967,40.664192,40.62626,40.603436,40.607033,40.646194,40.697487,40.765907,40.84379,40.906975,40.964775,41.011322,41.03727,41.053726,41.073345,41.09462,41.113426,41.15179,41.176277,41.166008,41.15596,41.139328,41.12281,41.115635,41.132362,41.169582,41.208626,41.285477,41.383865,41.474,41.585205,41.70536,41.81273,41.936234,42.07551,42.20195,42.34733,42.51501,42.659157,42.79364,42.890953,42.92946,42.952827,42.980343,42.99352,42.987682,42.97466,42.945915,42.9126,42.877823,42.85952,42.87387
25.37384,25.366667,25.35965,25.357498,25.359356,25.36294,25.367603,25.37333,25.376966,25.377363,25.375965,25.375277,25.377094,25.3816,25.389183,25.39686,25.403786,25.412416,25.42262,25.435135,25.45874,25.49041,25.522886,25.571335,25.62923,25.682255,25.753838,25.841639,25.923126,26.018063,26.128704,26.224665,26.308783,26.407356,26.498405,26.574278,26.662025,26.765207,26.873608,27.034252,27.301708,27.62719,28.07658,28.792088,29.658337,30.714632,31.980305,32.965645,33.521996,34.16498,34.72397,35.103355,35.488914,35.8507,36.142925,36.45958,36.8696,37.268967,37.620903,37.991306,38.298973,38.54661,38.857513,39.155342,39.369633,39.595024,39.766884,39.83922,39.84327,39.822525,39.809113,39.801094,39.81712,39.871384,39.945873,40.053265,40.16315,40.238342,40.306778,40.373802,40.431995,40.48832,40.551933,40.623825,40.71888,40.830738,40.935547,41.022385,41.138733,41.258606,41.348503,41.443115,41.548103,41.643867,41.743153,41.85671,41.954052,42.033493,42.11711,42.189583,42.247414,42.331383,42.42659,42.504326,42.588203,42.679913,42.75731,42.828293,42.899002,42.95163,42.991447,43.037212,43.06958,43.08165,43.091095,43.08984,43.080032,43.060684,43.04422,43.03974,43.041077,43.03923,43.03009,43.018227,42.985527,42.93137,42.875267,42.80739,42.73484,42.677887,42.625572,42.577217,42.54042,42.50885,42.44842,42.371674,42.30403,42.218674,42.136837,42.078384,42.02756,41.977875,41.935066,41.904266,41.874638,41.85029,41.833954,41.797356,41.749958,41.710876,41.670296,41.635063,41.60865,41.5829,41.52668,41.45169,41.38127,41.32514,41.294834,41.266136,41.235863,41.20265,41.166,41.107735,41.037907,40.979416,40.91027,40.843903,40.80252,40.776955,40.76777,40.774094,40.783844,40.794765,40.794533,40.781055,40.75308,40.72017,40.69874,40.68736,40.692795,40.713985,40.751553,40.794647,40.82019,40.82796,40.811043,40.76817,40.721443,40.665718,40.61283,40.578197,40.553783,40.534576,40.521484,40.51305,40.511856,40.51752,40.52356,40.530334,40.534164,40.53402,40.528236,40.531216,40.548615,40.58245,40.625114,40.65554,40.672714,40.674206,40.64946,40.609512,40.535408,40.43741,40.34928,40.253746,40.175266,40.13645,40.120255,40.133415,40.16375,40.193962,40.21476,40.221523,40.227173,40.215206,40.195168,40.183876,40.182114,40.20301,40.24243,40.301598,40.38734,40.470757,40.54197,40.609707,40.65635,40.685272,40.74563,40.83761,40.93109,41.05381,41.16418,41.221237,41.25776,41.28396,41.29579,41.297264,41.28814,41.274868,41.2675,41.26107,41.260063,41.264687,41.278687,41.30346,41.31537,41.275978,41.231426,41.2082,41.197548,41.207787,41.23688,41.26577,41.291206,41.310013,41.320923,41.32508,41.325455,41.32625,41.330032,41.33562,41.345425,41.36155,41.383614,41.384857,41.357643,41.332542,41.312325,41.303963,41.312817,41.351498,41.405174,41.454185,41.525185,41.600464,41.66309,41.738125,41.827114,41.917854,42.037872,42.194355,42.348732,42.53016,42.741882,42.922787,43.08337,43.224808,43.312927,43.374832,43.43592,43.471123,43.478302,43.46348,43.439266,43.425503,43.41428,43.42737,43.470856
25.35365,25.341362,25.331526,25.325958,25.32488,25.326548,25.328716,25.331713,25.3333,25.332153,25.330109,25.330078,25.33307,25.337936,25.346272,25.35573,25.365677,25.379871,25.39691,25.417557,25.451218,25.49081,25.528101,25.57846,25.633907,25.682743,25.74614,25.82124,25.889835,25.969936,26.063057,26.146152,26.22536,26.326996,26.424463,26.502697,26.5892,26.681442,26.772015,26.91485,27.15266,27.439377,27.838078,28.484081,29.255262,30.100243,31.409912,32.597332,33.190845,33.8507,34.413704,34.803513,35.189537,35.538094,35.811344,36.109047,36.488,36.888046,37.32729,37.83676,38.25522,38.538,38.886387,39.21225,39.442867,39.677765,39.867653,39.964363,39.977997,39.95933,39.944405,39.937508,39.94873,39.995895,40.067383,40.17079,40.293674,40.39776,40.47973,40.549473,40.605705,40.66362,40.720863,40.781208,40.86602,40.98893,41.11599,41.214226,41.336937,41.471237,41.585632,41.698223,41.817,41.921825,42.030167,42.153595,42.25872,42.343956,42.43048,42.50023,42.552307,42.623283,42.69819,42.755768,42.816856,42.879765,42.92946,42.97335,43.015175,43.04522,43.06819,43.09656,43.112534,43.109634,43.10137,43.084736,43.065994,43.039543,43.013863,42.99897,42.990654,42.97648,42.954823,42.931393,42.887253,42.825115,42.764683,42.693153,42.6185,42.56063,42.507103,42.45775,42.420597,42.384926,42.345932,42.30607,42.26407,42.20656,42.145737,42.09784,42.038925,41.982742,41.945328,41.912132,41.875862,41.84282,41.814247,41.776688,41.73632,41.699287,41.65899,41.625114,41.60357,41.597267,41.581963,41.54919,41.50022,41.4609,41.442635,41.4218,41.40397,41.3851,41.3603,41.315445,41.260937,41.2183,41.180595,41.154152,41.143517,41.139977,41.144585,41.1539,41.162987,41.17058,41.167545,41.154263,41.132256,41.10678,41.088493,41.075092,41.074783,41.08538,41.097748,41.10721,41.106186,41.098137,41.07445,41.039757,41.00821,40.980186,40.964405,40.96044,40.9533,40.948166,40.94718,40.948086,40.953217,40.960785,40.967194,40.97419,40.980587,40.985687,40.99336,41.005936,41.020042,41.035606,41.053143,41.06678,41.077732,41.078777,41.064705,41.04374,41.00835,40.962624,40.920937,40.878014,40.844048,40.828156,40.82318,40.836506,40.85906,40.877556,40.889755,40.88611,40.87128,40.84783,40.82932,40.82556,40.83564,40.864758,40.901054,40.944687,40.994003,41.035164,41.073223,41.1097,41.13056,41.134834,41.177216,41.249947,41.317356,41.39247,41.422344,41.395714,41.359337,41.323837,41.307682,41.304573,41.304928,41.309643,41.31714,41.31498,41.298492,41.276455,41.25525,41.23094,41.214027,41.213367,41.229424,41.250214,41.2611,41.268448,41.26391,41.250126,41.21557,41.171906,41.14038,41.110607,41.09326,41.094765,41.10848,41.129116,41.147152,41.160583,41.163307,41.152542,41.138092,41.12404,41.113663,41.111855,41.12615,41.16857,41.225616,41.281464,41.36311,41.451996,41.529377,41.626602,41.738415,41.84514,41.98395,42.156807,42.320755,42.509453,42.72792,42.91577,43.081093,43.255795,43.390213,43.48114,43.580376,43.661324,43.71164,43.729935,43.736412,43.750404,43.767326,43.802223,43.852074
25.342249,25.324451,25.309956,25.299305,25.293087,25.291027,25.290806,25.29124,25.290806,25.288536,25.286945,25.288742,25.293472,25.300201,25.3112,25.323853,25.33797,25.35884,25.383732,25.413485,25.459156,25.50808,25.549313,25.601109,25.654526,25.70005,25.758095,25.825062,25.88522,25.955807,26.038345,26.113018,26.185444,26.281322,26.377106,26.457813,26.54718,26.637337,26.72012,26.84372,27.057121,27.322433,27.68153,28.27213,28.978607,29.72842,30.912666,32.08715,32.86669,33.581398,34.112206,34.500828,34.886673,35.228714,35.489655,35.77619,36.149307,36.554512,36.99286,37.61076,38.174835,38.520947,38.912865,39.258358,39.501568,39.74536,39.93801,40.037857,40.07805,40.07478,40.05659,40.050205,40.06653,40.112015,40.166416,40.267357,40.395645,40.502563,40.608692,40.693108,40.74299,40.79978,40.861633,40.920303,40.977707,41.093857,41.238052,41.355873,41.49003,41.62896,41.747604,41.882217,42.015427,42.11827,42.230392,42.358627,42.467705,42.556137,42.644993,42.713776,42.76226,42.824707,42.886017,42.929955,42.975517,43.016716,43.043365,43.063213,43.079086,43.088722,43.09614,43.107468,43.10951,43.09742,43.079456,43.054607,43.030556,43.00002,42.971302,42.95482,42.945984,42.93181,42.91043,42.88715,42.84377,42.78294,42.72381,42.65437,42.5832,42.52923,42.479958,42.435734,42.403595,42.373615,42.339214,42.303017,42.26573,42.215515,42.16299,42.12181,42.07228,42.02458,41.991753,41.96279,41.930466,41.899773,41.87204,41.833103,41.789764,41.7502,41.706398,41.669186,41.645485,41.63066,41.630013,41.629097,41.588715,41.53698,41.498726,41.470615,41.449482,41.440163,41.436665,41.41894,41.385178,41.350235,41.32792,41.31784,41.318817,41.327423,41.343697,41.36,41.372616,41.38,41.373215,41.356224,41.32453,41.286407,41.258934,41.242935,41.238277,41.240494,41.24372,41.24193,41.231796,41.217766,41.190865,41.157738,41.129997,41.118233,41.11937,41.122513,41.125275,41.129494,41.13405,41.138306,41.144577,41.15107,41.156,41.161415,41.16694,41.172024,41.17991,41.192497,41.206062,41.220497,41.234634,41.243813,41.250343,41.24972,41.240128,41.227608,41.208687,41.186142,41.1665,41.14838,41.137726,41.137177,41.143845,41.16448,41.189064,41.20762,41.217384,41.211304,41.19657,41.174652,41.15737,41.153015,41.160202,41.182735,41.21111,41.251717,41.27324,41.260883,41.231766,41.209373,41.210213,41.225594,41.279133,41.348602,41.393806,41.394142,41.369102,41.345474,41.31905,41.29544,41.28463,41.282745,41.282528,41.28489,41.289577,41.28576,41.27029,41.251,41.23209,41.21141,41.196804,41.191856,41.2007,41.2154,41.22303,41.226517,41.218452,41.202103,41.164425,41.115852,41.07841,41.041466,41.0143,41.006012,41.010193,41.021378,41.033318,41.043266,41.045006,41.035347,41.02171,41.00915,41.001827,41.0039,41.02358,41.07225,41.134876,41.196568,41.287308,41.387657,41.47676,41.592316,41.721954,41.839294,41.9915,42.17765,42.351273,42.548904,42.77668,42.971725,43.142113,43.31915,43.453377,43.54458,43.64178,43.720924,43.773125,43.827972,43.88436,43.93203,43.977047,44.02346,44.05944
25.311811,25.290274,25.272747,25.258821,25.249216,25.244455,25.241894,25.239552,25.236736,25.232796,25.230236,25.232464,25.238375,25.248383,25.264282,25.281448,25.301382,25.327953,25.35693,25.39141,25.442108,25.495188,25.540424,25.595036,25.648369,25.691952,25.745098,25.80447,25.857407,25.920025,25.993868,26.061764,26.128714,26.22119,26.317043,26.399548,26.49237,26.582909,26.661121,26.771534,26.967815,27.216343,27.535738,28.06099,28.689594,29.350628,30.344124,31.42308,32.375137,33.189,33.718666,34.06755,34.429398,34.754448,35.003616,35.277573,35.65439,36.0868,36.565536,37.254135,37.946556,38.48565,38.95608,39.30094,39.559593,39.81198,40.003326,40.1026,40.176605,40.19666,40.17832,40.173424,40.193733,40.240707,40.29068,40.376053,40.493233,40.604385,40.723434,40.829453,40.895874,40.94993,41.01114,41.07333,41.13119,41.22502,41.35505,41.494526,41.6521,41.805595,41.92585,42.066563,42.214478,42.332066,42.44226,42.566074,42.673187,42.761505,42.849308,42.914772,42.95848,43.01201,43.060165,43.090973,43.12095,43.141296,43.146828,43.14509,43.13672,43.126175,43.11786,43.111526,43.09884,43.07701,43.048637,43.014984,42.985497,42.95157,42.921707,42.906075,42.899117,42.888374,42.870865,42.8507,42.811703,42.755966,42.701424,42.637806,42.573723,42.526222,42.483448,42.446194,42.42012,42.396156,42.368214,42.338043,42.306614,42.26436,42.22,42.18499,42.143753,42.10475,42.078415,42.05581,42.030403,42.005035,41.980576,41.94413,41.902115,41.863464,41.81993,41.78295,41.760002,41.744125,41.746674,41.75849,41.75283,41.74297,41.735077,41.730286,41.711967,41.69378,41.69101,41.687893,41.685387,41.684143,41.69399,41.699326,41.697483,41.70845,41.72451,41.733772,41.73094,41.724266,41.715073,41.7063,41.694675,41.66449,41.621956,41.58482,41.551064,41.527542,41.50892,41.48907,41.472374,41.459618,41.445854,41.436054,41.431175,41.43792,41.450584,41.459343,41.46795,41.476128,41.481533,41.484886,41.487125,41.48748,41.48642,41.484364,41.482834,41.48281,41.48591,41.49382,41.503227,41.51333,41.522797,41.528778,41.53348,41.535583,41.535065,41.534714,41.534233,41.53028,41.5231,41.526634,41.540718,41.557693,41.580963,41.59149,41.582203,41.566322,41.547596,41.53338,41.524643,41.516083,41.513077,41.515533,41.517754,41.516426,41.51186,41.51219,41.496887,41.468113,41.43793,41.418324,41.420296,41.433273,41.46113,41.48925,41.50052,41.479565,41.448357,41.429077,41.409008,41.391502,41.382812,41.38021,41.377647,41.375984,41.376102,41.36751,41.348267,41.32669,41.303986,41.27955,41.26197,41.25242,41.254936,41.26403,41.26816,41.266052,41.250988,41.228176,41.182716,41.124733,41.078285,41.03161,40.99302,40.974564,40.969627,40.971687,40.97715,40.982635,40.9823,40.970978,40.953697,40.93313,40.91723,40.914574,40.930363,40.978397,41.044987,41.11492,41.21694,41.329338,41.430237,41.561874,41.71116,41.847557,42.02709,42.24061,42.430264,42.63287,42.8625,43.058525,43.226875,43.399277,43.5278,43.614258,43.704185,43.77662,43.82561,43.886505,43.954132,44.010994,44.06595,44.119106,44.15505
25.267632,25.244799,25.226294,25.211296,25.200438,25.194454,25.190495,25.186317,25.181952,25.177038,25.173958,25.176624,25.183537,25.196186,25.215494,25.235237,25.258163,25.28743,25.318104,25.354334,25.405645,25.458708,25.505062,25.560545,25.613583,25.655876,25.70719,25.76442,25.815392,25.874271,25.942799,26.00592,26.068853,26.158936,26.255333,26.339836,26.437578,26.532814,26.612585,26.719437,26.90437,27.13616,27.426735,27.891457,28.439785,29.02303,29.830307,30.737919,31.659239,32.531563,33.14477,33.515594,33.877514,34.17707,34.400894,34.67986,35.072662,35.52772,36.04178,36.793907,37.60872,38.333557,38.936337,39.33221,39.599667,39.85988,40.04867,40.14389,40.22994,40.282326,40.29438,40.293068,40.316612,40.367203,40.420364,40.4946,40.592537,40.69016,40.8049,40.92388,41.01163,41.08184,41.14975,41.212124,41.280533,41.36416,41.47409,41.605087,41.778404,41.954517,42.082848,42.22338,42.37703,42.506958,42.62141,42.744408,42.84783,42.93393,43.01951,43.082344,43.122948,43.16987,43.20812,43.229134,43.247025,43.252075,43.24305,43.22686,43.201607,43.176163,43.155777,43.135174,43.11016,43.0802,43.04277,43.001175,42.966778,42.930305,42.900574,42.887043,42.882935,42.87719,42.865467,42.850174,42.81791,42.769905,42.72229,42.66693,42.611526,42.57079,42.534065,42.502243,42.48014,42.459877,42.435974,42.409775,42.382305,42.345444,42.30672,42.27617,42.24195,42.21176,42.193275,42.178986,42.163406,42.14644,42.12834,42.09842,42.06169,42.027153,41.98761,41.95405,41.933807,41.920853,41.921413,41.93261,41.951157,41.97737,41.998825,42.01304,42.004677,41.985233,41.978073,41.97654,41.98778,42.006516,42.03257,42.047688,42.04739,42.056923,42.06571,42.06379,42.048477,42.031284,42.02105,42.01905,42.02601,42.01989,41.99451,41.969376,41.943977,41.92456,41.905495,41.883804,41.86666,41.85565,41.84681,41.84456,41.847107,41.853592,41.863026,41.87127,41.880898,41.890545,41.89621,41.898376,41.896088,41.88938,41.881226,41.87015,41.859955,41.853546,41.850845,41.854553,41.86145,41.868885,41.87475,41.87658,41.87643,41.872612,41.86831,41.867107,41.87021,41.87497,41.87763,41.89804,41.925133,41.94129,41.946297,41.922928,41.878937,41.83265,41.78769,41.76217,41.753002,41.74822,41.749977,41.753452,41.748497,41.727707,41.69884,41.668427,41.634773,41.613136,41.606483,41.61289,41.627743,41.63951,41.64879,41.650684,41.646515,41.637253,41.623802,41.61136,41.59719,41.583508,41.57496,41.57003,41.562748,41.554276,41.54733,41.530666,41.503586,41.47592,41.445427,41.412716,41.388786,41.373558,41.36945,41.37303,41.373825,41.367,41.34636,41.318417,41.266884,41.201527,41.147995,41.094074,41.047676,41.021492,41.00597,40.99482,40.98867,40.985126,40.976166,40.95812,40.9357,40.908188,40.885902,40.87953,40.891838,40.939346,41.00974,41.08716,41.1997,41.323658,41.435944,41.582745,41.750984,41.90644,42.110813,42.349342,42.55526,42.768944,42.99868,43.185596,43.344784,43.50441,43.619972,43.695854,43.772614,43.833054,43.874035,43.923546,43.98044,44.03151,44.08405,44.13801,44.178085
25.226706,25.204205,25.186005,25.171215,25.160353,25.154171,25.149887,25.145206,25.140604,25.135977,25.133955,25.138119,25.146282,25.159916,25.17944,25.198748,25.220467,25.24949,25.281197,25.31831,25.369751,25.421623,25.465857,25.518993,25.570091,25.610964,25.663122,25.72297,25.7761,25.834896,25.90127,25.961533,26.021702,26.10933,26.205528,26.292072,26.394825,26.496582,26.581558,26.691189,26.866943,27.080227,27.355902,27.777094,28.258163,28.773886,29.470161,30.215687,30.919239,31.746174,32.45243,32.89657,33.27819,33.547955,33.73678,34.03199,34.456123,34.94613,35.511646,36.35956,37.280857,38.079227,38.837345,39.34973,39.61646,39.88335,40.071823,40.163116,40.234657,40.314213,40.376083,40.386993,40.417343,40.470707,40.52622,40.603558,40.689598,40.761246,40.861473,40.975197,41.06832,41.167152,41.2528,41.31443,41.38511,41.481785,41.59031,41.68843,41.856705,42.049088,42.193165,42.33921,42.490463,42.61829,42.74452,42.87645,42.98069,43.065773,43.151073,43.214127,43.254654,43.298676,43.33151,43.347084,43.35801,43.354614,43.337982,43.314392,43.280266,43.246506,43.219,43.18926,43.1559,43.120438,43.076523,43.02894,42.99063,42.95208,42.92213,42.909786,42.90727,42.904907,42.897552,42.8862,42.859734,42.818695,42.77735,42.729248,42.68067,42.644417,42.61103,42.581123,42.559555,42.53971,42.516037,42.490368,42.46405,42.429207,42.393173,42.365204,42.336044,42.313156,42.30177,42.29535,42.28937,42.281,42.27002,42.247856,42.21769,42.188232,42.154037,42.124855,42.107452,42.09699,42.098797,42.108963,42.12179,42.139557,42.153923,42.161263,42.16307,42.15962,42.15599,42.1512,42.15178,42.159367,42.174904,42.194008,42.20781,42.219257,42.223827,42.218285,42.207237,42.193333,42.18284,42.177944,42.180756,42.195053,42.213737,42.236576,42.26365,42.28295,42.289528,42.284874,42.271767,42.258755,42.238007,42.21659,42.20176,42.191746,42.190117,42.194176,42.20263,42.213905,42.221703,42.225204,42.222786,42.214455,42.204475,42.191452,42.18001,42.173252,42.171093,42.17603,42.18381,42.19116,42.194443,42.190742,42.182526,42.164352,42.14398,42.12953,42.121605,42.12588,42.136894,42.163414,42.184303,42.179543,42.13718,42.07744,42.02649,41.979813,41.931046,41.896233,41.87612,41.857185,41.845,41.838623,41.826355,41.803776,41.778027,41.7534,41.727142,41.711067,41.707207,41.719658,41.74314,41.76285,41.78584,41.80381,41.811874,41.8116,41.80524,41.79805,41.788567,41.77752,41.76815,41.76054,41.748005,41.73227,41.718052,41.692947,41.657356,41.62286,41.584373,41.54329,41.51307,41.492924,41.48368,41.483513,41.482384,41.47355,41.451107,41.42164,41.36837,41.299957,41.2425,41.184185,41.133263,41.10177,41.07587,41.05036,41.030624,41.016174,40.994576,40.967926,40.942978,40.916733,40.898422,40.895367,40.910988,40.96262,41.037334,41.119186,41.239132,41.372772,41.495007,41.65621,41.839874,42.00724,42.22284,42.47226,42.688053,42.917923,43.151546,43.327454,43.47646,43.622215,43.724144,43.789177,43.853233,43.902584,43.93627,43.97837,44.0288,44.07563,44.12536,44.17697,44.215473
25.185638,25.164484,25.147385,25.133505,25.123207,25.117186,25.112877,25.10812,25.103828,25.100103,25.100027,25.10672,25.117088,25.133148,25.154282,25.17395,25.195263,25.222776,25.252481,25.28737,25.335617,25.38403,25.42495,25.4743,25.522715,25.562508,25.614838,25.6754,25.728962,25.789795,25.858896,25.920473,25.979147,26.06409,26.158329,26.244133,26.349985,26.45802,26.548847,26.66309,26.831749,27.027977,27.293,27.671124,28.081123,28.524075,29.119251,29.730526,30.269077,30.908146,31.446829,31.771423,32.0613,32.277332,32.44707,32.73221,33.275887,34.015377,34.93506,35.95376,36.885822,37.77397,38.716087,39.36443,39.6269,39.900185,40.08751,40.17444,40.24273,40.32086,40.39972,40.470062,40.526653,40.573196,40.63019,40.708496,40.793648,40.86201,40.942776,41.032127,41.112137,41.206886,41.321625,41.42095,41.494755,41.59583,41.709656,41.812008,41.95363,42.130165,42.29365,42.45488,42.612663,42.73764,42.862724,43.002663,43.117958,43.20508,43.29255,43.3577,43.399902,43.443947,43.47488,43.487854,43.494675,43.4852,43.46216,43.431572,43.388622,43.3462,43.31099,43.271194,43.228325,43.1862,43.134785,43.080338,43.037483,42.99578,42.96415,42.951668,42.949787,42.949806,42.946297,42.93893,42.91873,42.885235,42.850494,42.809803,42.76792,42.735847,42.705257,42.67639,42.654465,42.63423,42.60984,42.583923,42.558205,42.52498,42.49169,42.46662,42.44182,42.425087,42.42003,42.421112,42.424805,42.42566,42.422935,42.410423,42.388985,42.366444,42.33982,42.316612,42.3025,42.293846,42.29505,42.303047,42.31302,42.326973,42.33798,42.342697,42.34288,42.33867,42.333977,42.328613,42.329662,42.338432,42.356087,42.3795,42.398148,42.413277,42.421227,42.418205,42.409492,42.397465,42.387558,42.38237,42.383877,42.39743,42.416832,42.440453,42.468174,42.488857,42.500263,42.50241,42.495262,42.486244,42.471252,42.456833,42.448673,42.44582,42.448868,42.45379,42.46062,42.468204,42.47313,42.47547,42.477245,42.479507,42.482635,42.489483,42.500427,42.511993,42.52876,42.541092,42.54309,42.54208,42.53633,42.527496,42.516426,42.498077,42.480675,42.471107,42.463333,42.456528,42.448994,42.441696,42.423347,42.393368,42.344124,42.282116,42.22798,42.178543,42.1248,42.08284,42.05503,42.025597,42.001823,41.985924,41.964195,41.934593,41.905777,41.879425,41.854347,41.841835,41.841774,41.86011,41.89053,41.91662,41.947227,41.97318,41.987972,41.99549,41.99662,41.994488,41.989395,41.98051,41.96974,41.958794,41.940292,41.916588,41.894436,41.86039,41.816277,41.775383,41.729836,41.68216,41.647217,41.62211,41.607643,41.60386,41.600784,41.590843,41.568523,41.539696,41.488827,41.41925,41.355278,41.284653,41.217216,41.172447,41.137913,41.104557,41.07892,41.059586,41.033527,41.00451,40.978996,40.952896,40.935974,40.93473,40.951744,41.006187,41.085228,41.172356,41.30075,41.444984,41.577957,41.75453,41.955643,42.13788,42.36914,42.630844,42.852547,43.08391,43.32479,43.50727,43.64662,43.777496,43.86541,43.91999,43.972736,44.01262,44.039955,44.075027,44.118507,44.15995,44.20492,44.251266,44.28344
25.14556,25.126514,25.111006,25.098328,25.088572,25.082527,25.078081,25.073242,25.06953,25.067257,25.070007,25.080267,25.093756,25.113401,25.137138,25.157667,25.178886,25.204624,25.231623,25.2635,25.307964,25.352886,25.390842,25.437191,25.483585,25.52241,25.573866,25.633104,25.684923,25.74396,25.81083,25.870323,25.926878,26.011023,26.106312,26.193686,26.301712,26.414265,26.51157,26.632,26.795803,26.975695,27.220675,27.55633,27.90393,28.267586,28.75301,29.236732,29.642622,30.093025,30.44395,30.639746,30.817398,30.959135,31.08972,31.304773,31.840061,32.69651,33.857582,35.223206,36.421803,37.3871,38.539745,39.353134,39.612946,39.89614,40.084126,40.16732,40.234455,40.310764,40.397842,40.498283,40.6062,40.689323,40.74461,40.823017,40.90909,40.97843,41.050026,41.12568,41.19541,41.278397,41.39611,41.515488,41.616333,41.73272,41.850533,41.959976,42.09523,42.255077,42.40493,42.57061,42.740623,42.87284,42.995415,43.13597,43.25817,43.355164,43.447784,43.51425,43.559166,43.60518,43.63681,43.64944,43.654686,43.642075,43.61522,43.580055,43.531094,43.48245,43.441288,43.39331,43.3426,43.29521,43.237923,43.178284,43.132126,43.08828,43.055508,43.042923,43.04149,43.04375,43.04425,43.04133,43.028145,43.003017,42.975487,42.94261,42.907364,42.879013,42.850594,42.821762,42.798347,42.77662,42.7501,42.722553,42.696297,42.6634,42.63161,42.608467,42.586967,42.575325,42.57571,42.583374,42.595974,42.605736,42.611237,42.60869,42.59647,42.58123,42.562546,42.54546,42.5346,42.52755,42.52766,42.53286,42.539173,42.54774,42.553535,42.554314,42.549393,42.54084,42.533695,42.527172,42.529087,42.539707,42.560287,42.587463,42.609585,42.62886,42.641827,42.642986,42.637314,42.628033,42.61947,42.614475,42.614853,42.623985,42.63713,42.65372,42.673428,42.688347,42.697563,42.69977,42.694344,42.686943,42.67595,42.667503,42.665154,42.668457,42.676056,42.68283,42.690067,42.69674,42.700977,42.70392,42.70968,42.71907,42.729958,42.74751,42.769516,42.78955,42.81337,42.829903,42.83317,42.831203,42.821465,42.807938,42.79348,42.773136,42.755028,42.744614,42.73413,42.72007,42.702316,42.676865,42.639328,42.599464,42.553246,42.496044,42.442844,42.393555,42.338448,42.29248,42.258965,42.220238,42.184425,42.157494,42.12375,42.083282,42.047657,42.015884,41.987846,41.975327,41.97605,41.99621,42.029884,42.060074,42.09625,42.128872,42.149742,42.16473,42.17331,42.176205,42.17529,42.16868,42.157005,42.143265,42.119785,42.089417,42.060585,42.019073,41.967888,41.92173,41.870743,41.818497,41.780655,41.752483,41.734802,41.729095,41.725994,41.714478,41.68818,41.654312,41.59838,41.524033,41.456112,41.38034,41.304573,41.25122,41.21079,41.171043,41.140205,41.117268,41.088455,41.058495,41.033127,41.00775,40.99137,40.990356,41.010193,41.068283,41.150394,41.239616,41.37805,41.539158,41.68882,41.88862,42.111877,42.308414,42.554886,42.827866,43.054096,43.28463,43.524498,43.706223,43.840893,43.963448,44.041718,44.08803,44.12929,44.15827,44.178635,44.205727,44.240234,44.2734,44.309326,44.343506,44.36634
25.11581,25.098448,25.084034,25.071873,25.061787,25.054983,25.049835,25.044432,25.04101,25.040028,25.045383,25.059017,25.07553,25.09885,25.125593,25.147552,25.169506,25.19486,25.220783,25.25136,25.294563,25.338812,25.376495,25.423084,25.469831,25.508614,25.558903,25.615402,25.66375,25.716923,25.775913,25.82891,25.88113,25.962584,26.058315,26.148571,26.258389,26.3732,26.474442,26.599411,26.760563,26.928335,27.147575,27.449137,27.756975,28.059723,28.452747,28.839394,29.166504,29.509087,29.758106,29.88784,29.990686,30.060593,30.133413,30.272053,30.696796,31.474876,32.594917,34.319214,35.968193,37.00889,38.315113,39.263023,39.56874,39.87256,40.06024,40.141956,40.20934,40.29018,40.382877,40.47709,40.62595,40.763844,40.834846,40.922684,41.01021,41.07926,41.15395,41.233093,41.30301,41.380142,41.482384,41.596718,41.725407,41.86709,41.997574,42.111885,42.256638,42.407394,42.529007,42.684452,42.85578,42.993088,43.117496,43.255703,43.37706,43.4826,43.58261,43.653038,43.69998,43.74862,43.782692,43.796898,43.803116,43.790905,43.763832,43.727795,43.677383,43.626762,43.58319,43.531307,43.476856,43.427353,43.36788,43.30667,43.259827,43.215965,43.18351,43.171307,43.170303,43.174263,43.177917,43.17866,43.17125,43.15297,43.1313,43.104637,43.074467,43.048767,43.02174,42.992477,42.967407,42.944008,42.915176,42.885685,42.8584,42.82498,42.793465,42.770958,42.75111,42.742195,42.745506,42.756687,42.77437,42.789555,42.800278,42.8043,42.79834,42.788116,42.774757,42.76162,42.752686,42.74636,42.745106,42.747612,42.750473,42.75377,42.75421,42.750664,42.741074,42.72889,42.719395,42.71114,42.712677,42.72387,42.74577,42.775604,42.80088,42.823593,42.84069,42.845516,42.843006,42.836758,42.829903,42.825417,42.825294,42.83217,42.842247,42.854927,42.869755,42.880253,42.88506,42.88301,42.8748,42.865597,42.853195,42.844063,42.84137,42.84418,42.851933,42.859642,42.868484,42.87718,42.88307,42.887665,42.894478,42.9032,42.912056,42.925415,42.941532,42.95604,42.972046,42.986145,42.993904,42.995773,42.986645,42.969925,42.951923,42.926956,42.903465,42.886654,42.871773,42.858475,42.845123,42.82689,42.798393,42.765465,42.723724,42.670643,42.620834,42.574272,42.52124,42.47477,42.43857,42.393856,42.348526,42.31185,42.26658,42.214096,42.169468,42.12964,42.094795,42.07823,42.07607,42.093285,42.12552,42.15601,42.19387,42.229897,42.254524,42.27477,42.28897,42.295765,42.29799,42.293404,42.281715,42.266594,42.24038,42.206112,42.173256,42.127193,42.071594,42.021996,41.966995,41.910015,41.867947,41.836014,41.81405,41.805008,41.800247,41.785633,41.754616,41.715652,41.65406,41.57718,41.511177,41.4422,41.374702,41.326237,41.287613,41.249115,41.218437,41.194023,41.164597,41.136063,41.113434,41.09248,41.081192,41.08423,41.110027,41.172855,41.25653,41.345467,41.48792,41.657665,41.81649,42.029613,42.267506,42.47577,42.733906,43.014412,43.241978,43.46901,43.699295,43.872017,44.005127,44.125275,44.19993,44.242554,44.282745,44.31247,44.333008,44.358368,44.38829,44.415634,44.444603,44.46955,44.487194
25.09338,25.076637,25.06242,25.0498,25.038448,25.030216,25.023829,25.017328,25.013706,25.0135,25.020676,25.036846,25.055721,25.082123,25.11174,25.135487,25.158955,25.185505,25.21228,25.243656,25.288437,25.334843,25.37473,25.42411,25.473146,25.51317,25.56333,25.617596,25.662617,25.710463,25.762405,25.808788,25.85429,25.926538,26.016293,26.107452,26.219763,26.336863,26.438637,26.565315,26.723894,26.882713,27.081139,27.354992,27.634296,27.90203,28.233791,28.548147,28.811844,29.081726,29.267052,29.352793,29.413044,29.42328,29.43523,29.564095,29.955626,30.65778,31.61789,33.540604,35.547085,36.68419,38.054268,39.081898,39.5093,39.84719,40.029484,40.1112,40.179546,40.263912,40.362488,40.463932,40.61149,40.765602,40.889454,41.00402,41.09342,41.158836,41.23469,41.31669,41.389053,41.468704,41.574223,41.690212,41.812645,41.981094,42.14731,42.27104,42.40336,42.540733,42.665466,42.80895,42.95803,43.079277,43.21168,43.357414,43.478615,43.58088,43.690163,43.772194,43.81953,43.870224,43.90694,43.9234,43.931736,43.921734,43.896408,43.861504,43.812035,43.76162,43.7175,43.664177,43.608253,43.558113,43.49826,43.437195,43.39081,43.34773,43.31606,43.304356,43.30371,43.308815,43.314636,43.318016,43.314598,43.300987,43.28329,43.26094,43.234367,43.210617,43.184402,43.154686,43.128464,43.103962,43.07383,43.04332,43.01541,42.981606,42.950134,42.927956,42.908836,42.9009,42.90509,42.91747,42.93712,42.95468,42.967907,42.975327,42.97284,42.9655,42.955193,42.94411,42.93589,42.929314,42.92623,42.926067,42.925507,42.92421,42.920353,42.913185,42.89984,42.884842,42.873528,42.863846,42.864994,42.876587,42.89943,42.931423,42.959465,42.985313,43.00642,43.014923,43.01545,43.012093,43.00692,43.003,43.002518,43.007534,43.015114,43.02462,43.03536,43.042206,43.043873,43.03898,43.02903,43.01876,43.00554,42.99602,42.993164,42.995483,43.0028,43.010406,43.01926,43.028,43.033836,43.038292,43.04447,43.051956,43.0593,43.07022,43.08324,43.094864,43.10726,43.11693,43.120613,43.11873,43.10624,43.087353,43.067696,43.041405,43.01741,43.00059,42.98606,42.974037,42.962578,42.94738,42.923065,42.89413,42.85694,42.808876,42.76293,42.719414,42.66873,42.622356,42.584488,42.53552,42.48284,42.438305,42.383408,42.32051,42.267723,42.220284,42.178337,42.15679,42.150604,42.16349,42.192787,42.22206,42.259674,42.29708,42.32389,42.34768,42.365955,42.37568,42.38028,42.377335,42.36592,42.350304,42.32248,42.285454,42.24958,42.19998,42.1409,42.088398,42.028473,41.962605,41.910515,41.869465,41.83702,41.818718,41.805725,41.785683,41.755146,41.720146,41.66461,41.59391,41.53241,41.47278,41.420864,41.38772,41.359,41.334225,41.31433,41.29142,41.265053,41.242928,41.22866,41.219574,41.224533,41.24256,41.278965,41.34804,41.433006,41.522526,41.65573,41.80996,41.95617,42.154823,42.3909,42.612457,42.883053,43.17029,43.39589,43.612846,43.834152,44.002945,44.129856,44.24318,44.313416,44.353123,44.408546,44.461082,44.494904,44.52983,44.564278,44.592834,44.623283,44.652267,44.673298
25.076546,25.060398,25.046228,25.032795,25.019642,25.009506,25.001495,24.993519,24.98937,24.989653,24.998226,25.016481,25.03735,25.066511,25.099016,25.124882,25.150578,25.179615,25.208736,25.242542,25.291119,25.341925,25.386017,25.440302,25.493134,25.535181,25.585342,25.636612,25.677189,25.718256,25.760983,25.798725,25.836304,25.898474,25.979748,26.065388,26.179409,26.30046,26.401287,26.52909,26.685215,26.835579,27.015461,27.26025,27.50562,27.730595,28.004665,28.260563,28.473763,28.67748,28.80155,28.847399,28.863945,28.837557,28.828863,28.953808,29.322838,29.962784,30.7843,32.708626,34.89984,36.281273,37.767464,38.86982,39.430798,39.805767,39.983967,40.069405,40.141953,40.23288,40.339478,40.44969,40.60341,40.76661,40.907127,41.0514,41.177345,41.27101,41.35286,41.433212,41.50771,41.589508,41.69767,41.8152,41.935814,42.108227,42.29216,42.444077,42.606216,42.75272,42.862938,42.992104,43.129242,43.24253,43.358616,43.48407,43.589844,43.68262,43.788475,43.873306,43.9239,43.980858,44.025166,44.047325,44.06093,44.05566,44.03351,44.00081,43.953423,43.904655,43.86199,43.808475,43.75241,43.70392,43.64732,43.59101,43.549053,43.510693,43.482677,43.472107,43.470978,43.47474,43.479446,43.482216,43.48182,43.47456,43.463165,43.44612,43.424118,43.404114,43.38292,43.35756,43.33303,43.308674,43.2758,43.24267,43.215485,43.184715,43.15722,43.13766,43.121,43.114986,43.120148,43.13224,43.151745,43.170013,43.18439,43.193905,43.19366,43.18795,43.178986,43.16832,43.159737,43.151802,43.145897,43.142357,43.137848,43.131363,43.12276,43.111893,43.094788,43.077072,43.064045,43.053078,43.053776,43.065475,43.088852,43.122566,43.153145,43.182114,43.207638,43.22058,43.224983,43.225594,43.22312,43.220604,43.22045,43.224174,43.229713,43.236313,43.243015,43.24615,43.244705,43.236973,43.225178,43.213577,43.19914,43.188473,43.18442,43.184776,43.189972,43.19612,43.203552,43.210953,43.21566,43.218918,43.222984,43.227715,43.232346,43.23929,43.247627,43.25508,43.26223,43.265945,43.264618,43.25792,43.241013,43.219196,43.197296,43.169426,43.14509,43.12858,43.11492,43.105255,43.097137,43.08693,43.069344,43.0469,43.017113,42.9775,42.938503,42.900623,42.85506,42.811226,42.773914,42.722862,42.663345,42.609703,42.543854,42.468307,42.404846,42.347397,42.295326,42.26581,42.252846,42.258102,42.28138,42.306995,42.34149,42.37773,42.405037,42.43122,42.45305,42.465675,42.473198,42.47175,42.45833,42.437546,42.401527,42.355064,42.310963,42.25163,42.182323,42.121426,42.05329,41.980843,41.924793,41.87956,41.84146,41.8194,41.80648,41.79055,41.769497,41.745895,41.707073,41.659958,41.62275,41.595966,41.572876,41.554497,41.5385,41.524117,41.51091,41.4948,41.46945,41.439964,41.41515,41.393406,41.384453,41.39147,41.41773,41.484573,41.577812,41.681046,41.839592,42.020638,42.185783,42.40193,42.640076,42.84864,43.09768,43.35917,43.566986,43.776093,43.9908,44.154953,44.28323,44.402412,44.48603,44.546036,44.617897,44.67832,44.714005,44.752304,44.788044,44.81496,44.841522,44.869423,44.888664
25.069721,25.054508,25.040607,25.02655,25.01183,25.000025,24.990612,24.981289,24.97643,24.976704,24.985565,25.004387,25.025852,25.05621,25.090559,25.118362,25.146801,25.179844,25.213238,25.251522,25.30638,25.363762,25.413795,25.474525,25.532036,25.576504,25.626713,25.67461,25.710293,25.744274,25.777351,25.80605,25.835602,25.887808,25.959702,26.037045,26.1487,26.271854,26.373566,26.50258,26.657047,26.80168,26.96954,27.18946,27.403946,27.598206,27.830048,28.043055,28.220795,28.38132,28.46761,28.489483,28.4741,28.438732,28.444939,28.564594,28.916279,29.520014,30.272957,32.056015,34.23997,35.892166,37.4907,38.647026,39.326942,39.745705,39.931194,40.02305,40.10315,40.203094,40.318577,40.4376,40.60044,40.767517,40.90439,41.06503,41.22136,41.340862,41.441467,41.53692,41.622887,41.714073,41.831154,41.95443,42.078423,42.243538,42.42504,42.592102,42.787712,42.96275,43.07804,43.201324,43.333546,43.446495,43.54936,43.65862,43.752472,43.83651,43.934998,44.01847,44.07299,44.133133,44.180397,44.204987,44.220345,44.21667,44.195805,44.164047,44.11759,44.069504,44.027214,43.973984,43.91975,43.87487,43.824173,43.775635,43.74057,43.709312,43.687172,43.67937,43.679237,43.683334,43.688236,43.691345,43.69309,43.689934,43.682945,43.670555,43.65334,43.63723,43.620094,43.59803,43.575424,43.553223,43.52238,43.49112,43.46604,43.43873,43.414352,43.396175,43.380432,43.37381,43.376896,43.38496,43.398598,43.41127,43.42077,43.425007,43.421745,43.41591,43.407364,43.396942,43.387764,43.378326,43.36966,43.363068,43.355324,43.34488,43.332947,43.31983,43.300888,43.282425,43.26941,43.259285,43.26103,43.2732,43.296783,43.331245,43.36332,43.39436,43.42325,43.439926,43.44773,43.452133,43.452606,43.451904,43.45272,43.455963,43.46025,43.46492,43.46872,43.469093,43.465504,43.45599,43.443092,43.43065,43.41526,43.4032,43.397324,43.39465,43.396164,43.399323,43.40377,43.40822,43.4106,43.411797,43.412914,43.414215,43.415573,43.41786,43.4209,43.423737,43.425175,43.422623,43.41617,43.404617,43.38308,43.35795,43.333405,43.303543,43.278534,43.26201,43.248814,43.241074,43.23593,43.23049,43.219627,43.203873,43.18207,43.151817,43.12071,43.089577,43.050217,43.00911,42.971397,42.918373,42.856346,42.801056,42.730316,42.64609,42.572693,42.502254,42.43422,42.39026,42.364265,42.353752,42.363316,42.379456,42.406815,42.439445,42.465164,42.491463,42.514435,42.527847,42.535656,42.533363,42.518387,42.496147,42.460247,42.41456,42.370197,42.30922,42.236534,42.17205,42.101234,42.027245,41.970665,41.92428,41.88595,41.86641,41.858467,41.85247,41.846153,41.837788,41.819237,41.798153,41.785637,41.785423,41.779705,41.762558,41.74227,41.706154,41.665123,41.632442,41.586678,41.536102,41.493263,41.450485,41.420464,41.412094,41.42605,41.48951,41.59068,41.7078,41.895027,42.11144,42.307224,42.561836,42.83033,43.052246,43.294586,43.543587,43.748062,43.95478,44.1655,44.328686,44.46572,44.603275,44.709663,44.79194,44.861847,44.905655,44.9318,44.9629,44.99225,45.012497,45.028915,45.042915,45.048958
25.069992,25.056183,25.043016,25.02902,25.013676,25.001078,24.991005,24.980953,24.975529,24.975462,24.983658,25.001629,25.022371,25.052317,25.087206,25.116364,25.147358,25.184761,25.223,25.266335,25.327826,25.3917,25.447369,25.513882,25.57536,25.621817,25.672014,25.71708,25.748753,25.777119,25.80271,25.82439,25.847553,25.891596,25.955986,26.027771,26.133469,26.255224,26.360863,26.491388,26.644815,26.786392,26.947983,27.150589,27.34415,27.527554,27.733818,27.913635,28.064602,28.203333,28.27611,28.288736,28.256466,28.222178,28.246485,28.359373,28.69425,29.280733,30.03035,31.69403,33.80662,35.61048,37.26496,38.45272,39.213844,39.67958,39.885284,39.982964,40.07148,40.180405,40.30366,40.429813,40.599224,40.77072,40.91092,41.07102,41.223213,41.340107,41.464798,41.59146,41.696022,41.802166,41.93306,42.065514,42.19516,42.361465,42.537277,42.694557,42.892853,43.093323,43.242924,43.374023,43.503838,43.617386,43.728455,43.847237,43.94546,44.027634,44.12494,44.209343,44.266266,44.323753,44.366074,44.38741,44.399033,44.392403,44.370308,44.33789,44.290966,44.242195,44.19838,44.145638,44.094505,44.053497,44.00833,43.966557,43.937283,43.91185,43.89499,43.890663,43.893227,43.900703,43.90902,43.91533,43.91852,43.91543,43.90873,43.89892,43.885265,43.871395,43.854027,43.83074,43.808315,43.789024,43.765266,43.74076,43.717834,43.691353,43.665947,43.6461,43.628304,43.61776,43.61578,43.617943,43.62285,43.62621,43.627,43.621094,43.6114,43.604546,43.596558,43.58719,43.577957,43.56788,43.557747,43.54952,43.54026,43.5282,43.515263,43.50186,43.483326,43.466133,43.454674,43.446987,43.450726,43.463486,43.486687,43.520443,43.552296,43.583466,43.613388,43.631886,43.64185,43.648766,43.651344,43.652058,43.653778,43.65693,43.6605,43.66427,43.666725,43.66589,43.66165,43.651924,43.639126,43.62673,43.61113,43.59808,43.590652,43.585274,43.583282,43.583454,43.585083,43.586777,43.587055,43.58648,43.585304,43.584015,43.582783,43.581352,43.580055,43.579018,43.575703,43.567917,43.55719,43.541634,43.516365,43.48857,43.461838,43.429977,43.403572,43.38601,43.371803,43.364197,43.360382,43.357597,43.350925,43.339584,43.323433,43.299763,43.274166,43.247803,43.214027,43.176064,43.137733,43.08361,43.023872,42.974533,42.905407,42.818417,42.73906,42.657486,42.573326,42.513046,42.471554,42.441242,42.432602,42.435486,42.45265,42.47939,42.501595,42.52571,42.54738,42.559593,42.565334,42.561096,42.54752,42.53122,42.50772,42.476097,42.441467,42.391357,42.3284,42.270622,42.206345,42.13521,42.077614,42.02994,41.992874,41.976852,41.97126,41.971508,41.97529,41.977417,41.97175,41.9616,41.953644,41.948345,41.930923,41.897987,41.853348,41.770645,41.677956,41.60637,41.52539,41.454353,41.403046,41.35263,41.320274,41.313946,41.331055,41.39775,41.50135,41.621983,41.813385,42.038868,42.24981,42.534195,42.85095,43.125397,43.402596,43.680035,43.907852,44.11744,44.327415,44.495083,44.64082,44.794437,44.912804,44.99592,45.04511,45.063217,45.079033,45.09868,45.117798,45.12992,45.13614,45.130768,45.119507
25.07644,25.064817,25.053041,25.039871,25.024761,25.012066,25.00188,24.991539,24.985592,24.984844,24.991539,25.007582,25.026691,25.055191,25.08998,25.120453,25.15432,25.196777,25.240582,25.289608,25.358187,25.428623,25.489826,25.56192,25.627151,25.67547,25.725716,25.768288,25.796417,25.819817,25.838821,25.854382,25.87207,25.90879,25.965961,26.031952,26.130398,26.25035,26.361557,26.492489,26.643051,26.781094,26.93673,27.12575,27.302765,27.473595,27.660915,27.819164,27.95057,28.06995,28.128683,28.13287,28.082184,28.041855,28.08076,28.22678,28.565945,29.129036,29.894226,31.454363,33.473713,35.36022,37.038647,38.24723,39.07174,39.597282,39.837082,39.93808,40.037735,40.158154,40.29022,40.424473,40.601288,40.77761,40.92103,41.08418,41.238663,41.357304,41.486984,41.620323,41.730392,41.841827,41.977833,42.115814,42.252644,42.43534,42.63501,42.816826,43.019066,43.215355,43.37021,43.5339,43.681393,43.784134,43.891216,44.01197,44.11544,44.1994,44.293434,44.37607,44.438526,44.49915,44.5421,44.56297,44.57556,44.571373,44.552425,44.5236,44.48162,44.437885,44.39846,44.35131,44.30648,44.271393,44.233322,44.19895,44.175453,44.15535,44.142647,44.14015,44.143127,44.15011,44.15748,44.163002,44.165154,44.161427,44.154785,44.145508,44.133057,44.12063,44.105026,44.08483,44.065414,44.04754,44.02426,43.999542,43.97676,43.94902,43.92139,43.8996,43.878643,43.862366,43.85453,43.854607,43.857857,43.859474,43.85871,43.852295,43.842224,43.833626,43.824768,43.81472,43.80443,43.79445,43.78457,43.776237,43.767166,43.755642,43.743584,43.731445,43.71393,43.696888,43.685043,43.675797,43.676445,43.68569,43.703873,43.73127,43.757553,43.783154,43.80936,43.828484,43.842705,43.853012,43.856796,43.857605,43.85836,43.859955,43.862473,43.86582,43.869106,43.870094,43.86828,43.86152,43.85074,43.839104,43.82267,43.8071,43.79692,43.788612,43.78496,43.78534,43.788895,43.794098,43.797035,43.79636,43.79428,43.791084,43.78686,43.780937,43.773678,43.7666,43.75538,43.738464,43.719994,43.695988,43.66502,43.636017,43.60932,43.576637,43.54773,43.526634,43.507687,43.498714,43.498287,43.499947,43.49909,43.492985,43.482452,43.463333,43.439823,43.412178,43.391457,43.37696,43.358723,43.322403,43.270203,43.21896,43.139694,43.04267,42.961525,42.885803,42.803005,42.734886,42.68213,42.63273,42.601887,42.585945,42.578438,42.58339,42.59364,42.61062,42.630966,42.64599,42.658283,42.663124,42.65734,42.64734,42.626915,42.591217,42.547092,42.502697,42.456985,42.41522,42.367332,42.30812,42.254677,42.20961,42.1713,42.151,42.141136,42.136505,42.138966,42.144188,42.150936,42.142204,42.11461,42.062828,41.983833,41.90358,41.825253,41.723328,41.626072,41.548714,41.46257,41.38951,41.338974,41.291862,41.26625,41.26764,41.29555,41.3721,41.48186,41.60944,41.810143,42.04471,42.26282,42.555603,42.87716,43.151947,43.466454,43.788506,44.038006,44.2583,44.483223,44.66474,44.81001,44.947365,45.037445,45.090904,45.127155,45.14701,45.164993,45.18418,45.202072,45.213825,45.22091,45.2168,45.207214
25.084705,25.077065,25.068218,25.057568,25.04453,25.033197,25.024048,25.014355,25.008152,25.00637,25.010496,25.023132,25.039337,25.065083,25.099129,25.131075,25.168468,25.217026,25.267189,25.3223,25.39757,25.473438,25.538849,25.614893,25.682644,25.732283,25.782688,25.823895,25.850044,25.87061,25.885777,25.89767,25.912107,25.943485,25.994287,26.0545,26.144897,26.258926,26.368767,26.498993,26.647991,26.78244,26.930584,27.106419,27.268812,27.424994,27.59998,27.74825,27.866486,27.974642,28.028332,28.032326,27.984379,27.939919,27.971909,28.145126,28.50186,29.061838,29.845272,31.326366,33.247856,35.1382,36.802475,38.00612,38.85115,39.457645,39.76834,39.884308,40.000484,40.137108,40.28173,40.423004,40.60845,40.79239,40.940483,41.10825,41.2664,41.38754,41.51876,41.654385,41.767776,41.88308,42.023567,42.16622,42.30819,42.50135,42.714207,42.90699,43.124016,43.335472,43.501617,43.678333,43.841274,43.955475,44.064003,44.182938,44.285423,44.371445,44.46783,44.551964,44.614735,44.680206,44.73069,44.757507,44.773643,44.77389,44.760643,44.73798,44.704136,44.668655,44.636696,44.598717,44.563263,44.536163,44.506805,44.480145,44.461582,44.44513,44.433304,44.42859,44.42737,44.42858,44.430706,44.432327,44.430107,44.422943,44.41436,44.40323,44.3898,44.377457,44.36283,44.34552,44.32966,44.31447,44.29419,44.272816,44.253895,44.23023,44.206123,44.186867,44.16767,44.151226,44.14144,44.13788,44.136097,44.133293,44.12902,44.11966,44.10694,44.09507,44.081825,44.067825,44.055275,44.04237,44.033722,44.03045,44.025307,44.017418,44.00769,43.996574,43.983696,43.973003,43.965595,43.9598,43.961136,43.968815,43.98326,44.004505,44.02455,44.043808,44.0634,44.077995,44.089127,44.10069,44.10961,44.11532,44.122204,44.129295,44.13488,44.13945,44.142387,44.1427,44.140778,44.13526,44.12704,44.118332,44.105804,44.093605,44.085342,44.074978,44.065453,44.059456,44.05452,44.051395,44.049416,44.04619,44.039925,44.034275,44.032654,44.030804,44.026794,44.020607,44.008575,43.99014,43.97094,43.946888,43.915962,43.886215,43.857685,43.820118,43.784687,43.758022,43.73224,43.717087,43.712578,43.710533,43.707672,43.70177,43.693703,43.67949,43.66241,43.642845,43.632713,43.6296,43.62238,43.599216,43.55207,43.496094,43.428688,43.3413,43.258533,43.183495,43.101418,43.03337,42.97973,42.929985,42.89556,42.871605,42.84452,42.824783,42.81674,42.81482,42.818344,42.822784,42.82753,42.82869,42.82369,42.816154,42.79769,42.765434,42.7275,42.690575,42.65097,42.6119,42.56334,42.50444,42.453293,42.40914,42.368435,42.342377,42.32593,42.313667,42.299915,42.27987,42.255997,42.213684,42.157986,42.07462,41.96575,41.866875,41.775787,41.6709,41.577732,41.501076,41.41546,41.34457,41.29818,41.261127,41.249783,41.262474,41.291298,41.379425,41.509224,41.647217,41.85681,42.097504,42.32079,42.615517,42.930706,43.193886,43.51574,43.85063,44.107353,44.343918,44.58786,44.780197,44.926346,45.05722,45.131035,45.160606,45.186726,45.207,45.224373,45.241966,45.259857,45.27413,45.285664,45.28955,45.289623
25.092064,25.089056,25.08382,25.076605,25.066765,25.057743,25.05036,25.041998,25.035912,25.033155,25.03462,25.043715,25.056967,25.080004,25.113518,25.147213,25.188345,25.242834,25.298683,25.358734,25.438522,25.517155,25.584217,25.661432,25.729786,25.779919,25.830704,25.87225,25.898731,25.919561,25.934845,25.946552,25.960773,25.989948,26.03648,26.09195,26.175362,26.280588,26.381863,26.509106,26.656105,26.786003,26.927511,27.093441,27.245064,27.388086,27.556248,27.703148,27.816046,27.922342,27.980883,27.993582,27.967518,27.929626,27.947058,28.120369,28.494041,29.071083,29.853283,31.29076,33.143135,34.97665,36.597137,37.773483,38.601227,39.267883,39.652367,39.798256,39.931213,40.086575,40.253014,40.41594,40.617397,40.809082,40.963608,41.137913,41.301384,41.42618,41.561264,41.70127,41.818832,41.93857,42.08436,42.230995,42.375114,42.567978,42.775776,42.959343,43.19079,43.427277,43.60753,43.77749,43.94719,44.085266,44.20234,44.321617,44.42083,44.507553,44.60912,44.696716,44.75608,44.82412,44.882607,44.91782,44.94001,44.946655,44.939774,44.923664,44.897667,44.869255,44.843044,44.811485,44.781944,44.75962,44.735226,44.713287,44.698406,44.685448,44.67649,44.673294,44.67332,44.67304,44.6704,44.66597,44.65693,44.64408,44.631886,44.617355,44.6015,44.587982,44.572723,44.55616,44.542572,44.530636,44.516037,44.501648,44.489296,44.473904,44.45794,44.444786,44.43177,44.420765,44.413628,44.407066,44.399548,44.391586,44.383224,44.36959,44.353836,44.34039,44.324234,44.30802,44.295162,44.280594,44.273865,44.276142,44.27601,44.273895,44.26922,44.261932,44.257133,44.256214,44.256218,44.25789,44.264175,44.273613,44.287956,44.30671,44.323326,44.33893,44.352943,44.361023,44.364677,44.373116,44.384205,44.393074,44.40439,44.4153,44.42237,44.426147,44.42679,44.425125,44.42181,44.416275,44.41043,44.405575,44.401024,44.398186,44.396812,44.389786,44.378197,44.367027,44.35321,44.339283,44.329758,44.323288,44.31228,44.303284,44.302994,44.30338,44.301613,44.296783,44.28629,44.27098,44.256195,44.238823,44.21362,44.18567,44.156654,44.116657,44.077396,44.046875,44.01533,43.99081,43.975204,43.9606,43.945778,43.932175,43.91902,43.904064,43.89129,43.881157,43.872017,43.86326,43.853607,43.83274,43.787155,43.728577,43.67759,43.604195,43.52005,43.43844,43.35276,43.28783,43.239174,43.196625,43.168213,43.14746,43.118275,43.09011,43.071976,43.056152,43.042953,43.03284,43.021843,43.007233,42.991592,42.976784,42.953163,42.924522,42.89875,42.86247,42.8135,42.763435,42.696674,42.621696,42.56331,42.5128,42.465378,42.432285,42.408146,42.386223,42.35279,42.303368,42.23678,42.1581,42.089195,42.00997,41.918983,41.837677,41.757854,41.659527,41.567432,41.490746,41.406357,41.337105,41.29146,41.253624,41.244072,41.261322,41.287216,41.3892,41.54726,41.708298,41.941437,42.19625,42.423744,42.7194,43.02941,43.284077,43.58354,43.894146,44.13997,44.383125,44.633827,44.82698,44.97618,45.1171,45.201385,45.234684,45.256035,45.266525,45.27716,45.28904,45.305237,45.321938,45.337555,45.349514,45.358185
25.10049,25.10144,25.099365,25.095245,25.088375,25.081532,25.075783,25.068739,25.062946,25.059458,25.058834,25.065228,25.076347,25.097618,25.13134,25.167103,25.211952,25.271847,25.33255,25.396538,25.479435,25.559412,25.62688,25.703997,25.772144,25.822453,25.87381,25.916569,25.944485,25.966997,25.984182,25.997274,26.01251,26.040934,26.084377,26.135777,26.212803,26.309807,26.403149,26.52492,26.66546,26.788033,26.927052,27.088562,27.23277,27.366783,27.528936,27.674545,27.786625,27.894386,27.960564,27.985184,27.978073,27.959486,27.985859,28.146324,28.527283,29.121346,29.88281,31.286547,33.088615,34.85364,36.42179,37.569378,38.38186,39.056854,39.478195,39.663246,39.804436,39.976746,40.179733,40.39824,40.627625,40.820343,40.98285,41.16535,41.335632,41.4651,41.6048,41.749405,41.870884,41.994667,42.14502,42.295322,42.442123,42.63716,42.844994,43.02681,43.25258,43.482143,43.65934,43.84303,44.024605,44.16459,44.289795,44.419674,44.52588,44.613625,44.71482,44.80191,44.861942,44.927414,44.983746,45.02043,45.05105,45.06784,45.06765,45.057762,45.037857,45.01306,44.988182,44.955513,44.92289,44.897774,44.87036,44.848763,44.838352,44.83389,44.83979,44.853836,44.87477,44.889206,44.886116,44.87169,44.851543,44.829727,44.81205,44.79347,44.775005,44.759865,44.743736,44.727875,44.71634,44.706894,44.696182,44.686325,44.67823,44.667984,44.65706,44.647835,44.63878,44.631317,44.626686,44.62239,44.616837,44.610306,44.603302,44.591774,44.579018,44.56894,44.557587,44.546913,44.538807,44.530758,44.5265,44.52706,44.529224,44.53414,44.53975,44.544342,44.54927,44.55352,44.556854,44.562065,44.571236,44.582443,44.597565,44.615616,44.63058,44.644096,44.655464,44.661057,44.66326,44.664444,44.664215,44.663277,44.66153,44.659042,44.656593,44.652687,44.650955,44.651897,44.65188,44.649582,44.646244,44.643692,44.64657,44.653713,44.65985,44.66492,44.667267,44.667007,44.665276,44.661068,44.65547,44.649628,44.639084,44.62577,44.613163,44.59501,44.574406,44.556656,44.536,44.51528,44.499138,44.482277,44.46312,44.44456,44.424477,44.39657,44.3655,44.335693,44.299995,44.265205,44.237747,44.206383,44.17366,44.147026,44.120186,44.092285,44.070496,44.05239,44.03752,44.029037,44.024178,44.009674,43.970387,43.915062,43.841797,43.749763,43.666954,43.584366,43.50168,43.440834,43.39396,43.33803,43.294353,43.27299,43.253754,43.239925,43.230507,43.225548,43.220848,43.213005,43.199753,43.175262,43.143723,43.110382,43.064552,43.01554,42.973824,42.922783,42.8658,42.8133,42.734306,42.638542,42.560017,42.493885,42.430817,42.384594,42.34871,42.308697,42.265976,42.223618,42.166344,42.099022,42.039536,41.969913,41.88839,41.81419,41.740585,41.6478,41.559364,41.484844,41.410675,41.34848,41.298325,41.232384,41.191513,41.198112,41.237804,41.361046,41.542427,41.749737,42.03927,42.32752,42.555035,42.849346,43.15374,43.39985,43.684982,43.977924,44.209557,44.43908,44.67942,44.868996,45.018105,45.162384,45.25869,45.31491,45.335526,45.332172,45.336678,45.3424,45.356636,45.376343,45.39772,45.42101,45.435604
25.109087,25.113564,25.114418,25.113247,25.10929,25.10463,25.100506,25.094898,25.089645,25.085629,25.083519,25.088223,25.098316,25.119284,25.155005,25.194468,25.244726,25.311455,25.377705,25.445904,25.531406,25.611614,25.678337,25.754164,25.821402,25.871702,25.924152,25.969612,26.00077,26.027245,26.049103,26.065891,26.08403,26.113178,26.153893,26.200775,26.270163,26.356998,26.440512,26.551115,26.68245,26.799793,26.931482,27.08741,27.228014,27.354395,27.5084,27.651726,27.768768,27.880867,27.95589,27.994583,28.010967,28.01893,28.06237,28.227282,28.612633,29.204185,29.939625,31.310867,33.05401,34.71942,36.210587,37.313118,38.098305,38.76436,39.203827,39.422756,39.616737,39.833443,40.065178,40.33033,40.608482,40.831,41.00334,41.198296,41.37973,41.516815,41.664,41.81542,41.94203,42.070747,42.22645,42.381077,42.53121,42.729164,42.93744,43.117477,43.338295,43.560158,43.73059,43.912243,44.090225,44.22454,44.346848,44.475273,44.580925,44.667374,44.767082,44.856636,44.92375,45.00082,45.076202,45.132767,45.17747,45.201263,45.20264,45.197144,45.182823,45.16278,45.14113,45.112183,45.083763,45.062935,45.040924,45.024048,45.015266,45.004623,45.004112,45.016525,45.036507,45.05773,45.070488,45.075577,45.08023,45.07827,45.069656,45.049416,45.024742,45.0063,44.984016,44.957466,44.93565,44.920116,44.90748,44.901447,44.899467,44.89942,44.901176,44.90297,44.906498,44.90934,44.90972,44.908592,44.905075,44.899685,44.89339,44.883087,44.87246,44.865036,44.85835,44.853966,44.8517,44.850662,44.852943,44.85684,44.85811,44.862038,44.86952,44.878986,44.891464,44.90541,44.919003,44.93513,44.950035,44.96057,44.974842,44.990673,45.002937,45.01335,45.020958,45.023754,45.025055,45.023163,45.01823,45.01306,45.005554,44.996925,44.989918,44.98266,44.977802,44.976654,44.97643,44.977474,44.98027,44.984146,44.99408,45.007595,45.01891,45.03083,45.040306,45.045326,45.048462,45.047787,45.043434,45.037533,45.026455,45.010605,44.992607,44.96611,44.936577,44.9122,44.885468,44.86183,44.84647,44.837265,44.81108,44.77229,44.738274,44.6991,44.663498,44.633156,44.59973,44.570225,44.54844,44.530006,44.497253,44.454178,44.41363,44.372414,44.34149,44.31671,44.29383,44.27925,44.272457,44.249107,44.19752,44.132977,44.05056,43.955948,43.877354,43.80757,43.696087,43.57789,43.494873,43.410286,43.351166,43.319252,43.295746,43.287354,43.28776,43.297005,43.31105,43.31816,43.313,43.28605,43.24488,43.204567,43.153263,43.096935,43.044113,42.96392,42.869843,42.79091,42.695156,42.589706,42.50557,42.43316,42.362823,42.3102,42.26908,42.222446,42.17787,42.140373,42.090557,42.033005,41.982216,41.922146,41.850983,41.785786,41.72129,41.640907,41.565624,41.506996,41.415436,41.319916,41.252995,41.18418,41.15322,41.17312,41.23551,41.388054,41.59768,41.83496,42.17974,42.516907,42.758408,43.055077,43.349777,43.584854,43.85181,44.123024,44.337875,44.552025,44.77977,44.96319,45.110405,45.25314,45.349815,45.408722,45.441246,45.443542,45.43892,45.441643,45.44954,45.457962,45.466095,45.471542,45.4711
25.125336,25.131306,25.133484,25.13357,25.13079,25.126947,25.123352,25.118364,25.113577,25.109562,25.107542,25.112902,25.124168,25.147444,25.1874,25.231812,25.288218,25.361675,25.432732,25.50412,25.590664,25.669533,25.73423,25.807615,25.87339,25.923595,25.97776,26.027348,26.063324,26.095676,26.12438,26.146484,26.168556,26.199163,26.237293,26.279362,26.340576,26.416801,26.49038,26.588387,26.709301,26.82145,26.94597,27.096493,27.234688,27.358498,27.506153,27.64524,27.765491,27.88359,27.969555,28.021591,28.06073,28.095669,28.158276,28.334915,28.719265,29.294533,30.004047,31.331696,33.006966,34.58408,35.993244,37.036625,37.785538,38.431496,38.877518,39.12361,39.3724,39.649727,39.922745,40.21395,40.557034,40.83969,41.0209,41.23152,41.428696,41.57653,41.734,41.894085,42.02649,42.160393,42.321434,42.480392,42.6341,42.83561,43.045227,43.224243,43.44203,43.657547,43.820282,43.99055,44.15627,44.2817,44.39524,44.515877,44.617508,44.702484,44.80186,44.895195,44.969574,45.05905,45.152504,45.22654,45.28747,45.328358,45.34296,45.345135,45.33744,45.32301,45.307373,45.283783,45.257065,45.234684,45.21029,45.188934,45.174377,45.153503,45.140175,45.141624,45.14922,45.166428,45.189404,45.21245,45.239014,45.256065,45.25924,45.246803,45.226936,45.212013,45.191837,45.165222,45.142082,45.12597,45.11299,45.108887,45.11149,45.119827,45.131115,45.139687,45.150032,45.158264,45.161842,45.163788,45.165054,45.16575,45.166077,45.16468,45.162933,45.162804,45.162598,45.16156,45.159927,45.159595,45.163174,45.168457,45.16914,45.172165,45.17988,45.190746,45.20781,45.229134,45.250267,45.275253,45.29741,45.31185,45.33046,45.351006,45.367477,45.382057,45.394783,45.400864,45.401672,45.399757,45.395096,45.38984,45.38192,45.37239,45.364365,45.356373,45.348976,45.344593,45.34282,45.34583,45.35373,45.36321,45.37767,45.39428,45.408432,45.42298,45.433674,45.43848,45.441433,45.4396,45.433506,45.42611,45.41314,45.396015,45.377983,45.35141,45.32151,45.296486,45.269226,45.242126,45.220238,45.202,45.15795,45.098854,45.04904,44.994213,44.949455,44.916576,44.88388,44.859497,44.84426,44.838074,44.815407,44.77545,44.74043,44.70107,44.666313,44.63495,44.603394,44.578316,44.559784,44.516865,44.448315,44.37774,44.29963,44.206207,44.116623,44.02683,43.87126,43.70343,43.5847,43.475113,43.40171,43.353542,43.313454,43.29495,43.29319,43.302586,43.32145,43.33541,43.33749,43.316544,43.278244,43.24032,43.188805,43.126236,43.063164,42.962807,42.84249,42.742954,42.639053,42.534676,42.45416,42.38244,42.311394,42.257664,42.216187,42.170982,42.129158,42.09397,42.04843,41.99768,41.954197,41.902924,41.84307,41.78799,41.732494,41.654747,41.576195,41.51712,41.409447,41.296783,41.227497,41.181595,41.186153,41.232697,41.325428,41.513084,41.752018,42.008743,42.3904,42.768032,43.03694,43.33922,43.620434,43.842865,44.08973,44.337257,44.53366,44.730644,44.94199,45.11383,45.253357,45.38614,45.470665,45.51525,45.548676,45.55353,45.53965,45.53299,45.52717,45.52059,45.51326,45.49864,45.48297
25.150827,25.15628,25.158054,25.157497,25.153797,25.149073,25.14465,25.13912,25.134407,25.13079,25.130127,25.137905,25.151844,25.179007,25.22398,25.273071,25.334646,25.413074,25.487179,25.56015,25.646313,25.723108,25.785452,25.856316,25.920746,25.970974,26.027065,26.080921,26.121655,26.159718,26.19485,26.221687,26.246874,26.278194,26.31351,26.350903,26.404703,26.471973,26.537632,26.62719,26.739536,26.84517,26.967281,27.114157,27.248312,27.37322,27.51858,27.65284,27.769247,27.89191,27.989124,28.051376,28.107334,28.161955,28.237835,28.417515,28.796896,29.358395,30.046894,31.31805,32.92549,34.458755,35.806362,36.79232,37.50714,38.136738,38.593277,38.863533,39.1287,39.455498,39.786186,40.09162,40.495003,40.84106,41.032516,41.25952,41.472893,41.632164,41.800373,41.969116,42.10691,42.245453,42.411064,42.57376,42.73069,42.935814,43.147484,43.32653,43.54276,43.75409,43.9116,44.075294,44.23385,44.35391,44.462685,44.580032,44.681034,44.766563,44.86795,44.963783,45.03986,45.129784,45.22109,45.293324,45.36621,45.434776,45.4769,45.491615,45.492493,45.48372,45.474583,45.45333,45.41977,45.384823,45.34413,45.306473,45.282013,45.260086,45.2464,45.244244,45.247375,45.256573,45.269356,45.282265,45.295616,45.304703,45.308735,45.31008,45.307785,45.303764,45.297653,45.290485,45.284927,45.280643,45.27394,45.270607,45.27432,45.284195,45.294655,45.299583,45.303608,45.306717,45.309677,45.313934,45.322586,45.334206,45.34712,45.362396,45.376316,45.38817,45.39633,45.39598,45.390163,45.38532,45.382988,45.384346,45.388,45.397217,45.410378,45.424725,45.44448,45.46618,45.485664,45.510605,45.53859,45.563198,45.592392,45.625095,45.652515,45.678444,45.705074,45.72036,45.72136,45.71958,45.71502,45.70942,45.700638,45.689747,45.68039,45.671005,45.662865,45.65865,45.657326,45.660965,45.669586,45.679825,45.695885,45.714493,45.730225,45.746624,45.75779,45.761684,45.765648,45.763966,45.756577,45.748028,45.733772,45.715668,45.697006,45.669746,45.639328,45.614044,45.58795,45.55465,45.51767,45.469624,45.409843,45.3562,45.30809,45.25269,45.204445,45.167397,45.127617,45.09428,45.07111,45.050667,45.032066,45.01662,45.005188,44.98299,44.95103,44.914055,44.876698,44.84304,44.809574,44.751328,44.678307,44.61493,44.54052,44.435913,44.318184,44.167847,43.98481,43.830605,43.71132,43.594795,43.508797,43.447754,43.391434,43.354958,43.337704,43.329765,43.32985,43.33072,43.329105,43.314774,43.285393,43.248756,43.18811,43.110146,43.034676,42.9369,42.82776,42.73548,42.63665,42.534782,42.454548,42.382584,42.31038,42.255302,42.212944,42.16752,42.126846,42.093666,42.051384,42.005302,41.966534,41.921173,41.870117,41.822643,41.772293,41.682793,41.579544,41.494392,41.397842,41.320396,41.274437,41.25522,41.2856,41.35274,41.47605,41.69715,41.961258,42.240414,42.640125,43.034294,43.329803,43.636894,43.904648,44.11518,44.343807,44.569595,44.74829,44.927643,45.1202,45.276653,45.403526,45.521385,45.59081,45.62155,45.633366,45.620193,45.599392,45.574696,45.55247,45.54035,45.532364,45.521328,45.508728
25.191944,25.19499,25.194626,25.19136,25.184263,25.176502,25.169388,25.161762,25.156597,25.153688,25.155777,25.168198,25.186913,25.220276,25.271969,25.326416,25.393288,25.475792,25.551542,25.624763,25.709124,25.782906,25.842478,25.910898,25.974537,26.02536,26.084274,26.143364,26.18951,26.233744,26.275303,26.306316,26.333591,26.363974,26.39479,26.426144,26.471416,26.52967,26.588215,26.671032,26.778187,26.88073,26.999908,27.146147,27.280163,27.399445,27.543278,27.677845,27.789072,27.910635,28.014221,28.086823,28.15672,28.22652,28.311604,28.490145,28.857092,29.396212,30.058233,31.250736,32.785522,34.319157,35.601437,36.506912,37.18669,37.799862,38.26912,38.566628,38.85894,39.21773,39.583076,39.93332,40.391315,40.79345,41.040253,41.30001,41.52797,41.700344,41.881794,42.06185,42.206932,42.3515,42.522896,42.690277,42.85143,43.061512,43.27671,43.457077,43.673252,43.881607,44.034542,44.192154,44.34395,44.459015,44.56354,44.67849,44.77996,44.86721,44.97194,45.07189,45.15145,45.244278,45.337196,45.41021,45.48559,45.558365,45.60752,45.637615,45.656303,45.657417,45.64828,45.625114,45.59076,45.558056,45.518738,45.48111,45.45565,45.4327,45.41558,45.40798,45.404892,45.40573,45.410152,45.415905,45.42092,45.422943,45.422516,45.4208,45.416573,45.4113,45.404953,45.399002,45.395523,45.3929,45.390892,45.392128,45.3968,45.40608,45.416565,45.423637,45.430244,45.437054,45.44396,45.452652,45.46739,45.485413,45.50463,45.528053,45.54973,45.56727,45.58513,45.59916,45.6083,45.620132,45.634377,45.647285,45.65963,45.673367,45.685757,45.697037,45.712242,45.730732,45.749672,45.776054,45.808098,45.837494,45.874695,45.910343,45.93421,45.958805,45.984604,46.002472,46.01173,46.019104,46.022064,46.021957,46.019203,46.01377,46.008396,46.00316,45.999565,45.999268,46.001404,46.008667,46.019062,46.02901,46.041004,46.051773,46.05928,46.064896,46.067856,46.069504,46.073715,46.07911,46.083298,46.08816,46.08558,46.0717,46.05191,46.02195,45.98826,45.960617,45.9316,45.892693,45.849693,45.80352,45.74356,45.681587,45.616173,45.538116,45.469948,45.41824,45.36421,45.32183,45.29494,45.27178,45.255043,45.245094,45.239864,45.230274,45.214897,45.197582,45.170692,45.132935,45.08956,45.02997,44.955307,44.88211,44.778008,44.636337,44.495735,44.34025,44.159336,44.006943,43.88579,43.76177,43.662895,43.58814,43.51473,43.4597,43.426693,43.40104,43.382656,43.369415,43.35637,43.332703,43.297974,43.257668,43.193504,43.113583,43.037666,42.942215,42.837208,42.748306,42.65272,42.55339,42.47438,42.40282,42.331875,42.278748,42.237907,42.195194,42.15861,42.12984,42.09958,42.054306,41.99971,41.937428,41.86759,41.80745,41.749928,41.66842,41.582268,41.507057,41.426865,41.369263,41.34046,41.345985,41.41709,41.529747,41.698196,41.96113,42.253567,42.55745,42.98133,43.393745,43.70518,44.01215,44.26569,44.462593,44.67016,44.870415,45.027695,45.1848,45.351894,45.486046,45.59398,45.689682,45.73845,45.751915,45.744217,45.71343,45.67981,45.64223,45.610912,45.595047,45.584465,45.57198,45.557037
