38.492165,38.486877,38.478592,38.458504,38.403885,38.30329,38.16171,37.980125,37.765022,37.525738,37.26121,36.949574,36.590874,36.164383,35.801407,35.582954,35.415245,35.156776,34.825836,34.253326,33.374218,31.922264,30.483685,29.530235,28.849205,28.47052,28.263641,28.192692,28.232376,28.470556,29.011135,29.839867,30.832277,31.922283,33.265648,34.391083,34.96444,35.185905,35.38871,35.559723,35.71982,35.87046,36.012688,36.133488,36.209705,36.239586,36.247868,36.243996,36.23429,36.22542,36.215145,36.20224,36.188095,36.172447,36.152412,36.12726,36.092625,36.042774,35.979774,35.911526,35.839226,35.7525,35.633614,35.51828,35.41339,35.32614,35.251045,35.177383,35.10521,35.03121,34.95254,34.86982,34.79033,34.71978,34.658825,34.60862,34.57624,34.55526,34.546738,34.547928,34.549965,34.544678,34.531853,34.51781,34.504112,34.489967,34.480335,34.481834,34.497326,34.528778,34.580032,34.642586,34.706192,34.746536,34.75868,34.75895,34.763355,34.77279,34.785713,34.811592,34.847794,34.88652,34.92,34.944122,34.96129,34.982613,35.010456,35.043423,35.081696,35.126423,35.174507,35.22007,35.262375,35.303223,35.342113,35.3802,35.418053,35.456593,35.497208,35.538925,35.580536,35.623756,35.671814,35.73021,35.798485,35.869972,35.937073,35.991158,36.02978,36.048775,36.04992,36.034966,36.005417,35.966682,35.9279,35.89095,35.86116,35.84201,35.830544,35.821438,35.81176,35.8004,35.794163,35.8063,35.85412,35.95319,36.105038,36.29875,36.517258,36.710266,36.88103,37.04165,37.192795,37.331993,37.46148,37.582253,37.69895,37.815475,37.923515,38.013924,38.086212,38.146828,38.20228,38.259148,38.325455,38.397774,38.46592,38.52236,38.560383,38.574383,38.5681,38.553764,38.535683,38.529175,38.552727,38.612106,38.696987,38.79193,38.883266,38.939133,38.91413,38.787575,38.563137,38.27662,37.97317,37.559036,37.23907,37.11676,37.246918,37.6416,38.165123,38.591576,38.951424,39.25884,39.47368,39.590424,39.64495,39.680416,39.718422,39.76313,39.81142,39.8584,39.89986,39.934933,39.96511,39.991653,40.01432,40.034744,40.056778,40.081528,40.111267,40.14641,40.18428,40.221283,40.256687,40.289764,40.318787,40.343964,40.367058,40.39066,40.41684,40.445724,40.477066,40.51041,40.541145,40.564194,40.578026,40.58506,40.58812,40.59327,40.606236,40.626053,40.65039,40.674263,40.692142,40.704178,40.713844,40.72077,40.72818,40.7378,40.74828,40.75799,40.767197,40.77383,40.773582,40.76812,40.76188,40.759666,40.7651,40.77887,40.796185,40.815758,40.83324,40.847725,40.85937,40.867424,40.87102,40.871674,40.868782,40.86275,40.85408,40.84268,40.82754,40.808796,40.789734,40.77009,40.75258,40.740253,40.7315,40.7239,40.715218,40.70202,40.683846,40.660988,40.63305,40.601547,40.56855,40.53466,40.49878,40.459167,40.411034,40.34868,40.274845,40.195442,40.116833,40.044434,39.979206,39.910343,39.836464,39.755276,39.668327,39.57956,39.492844,39.412575,39.332245,39.253323,39.175304,39.09469,39.011353,38.927177,38.84154,38.753777,38.65838,38.555717,38.449562,38.341515,38.231476,38.12191
38.664043,38.662647,38.659805,38.646202,38.599396,38.508965,38.376495,38.20383,37.99684,37.762268,37.497555,37.17476,36.828667,36.41436,36.06681,35.827248,35.605675,35.329506,34.98297,34.423508,33.529663,31.987888,30.494022,29.560398,28.882387,28.515724,28.309475,28.238903,28.271358,28.501272,29.041798,29.88607,30.918274,32.046837,33.448723,34.556076,35.09903,35.31442,35.500694,35.652954,35.798172,35.938515,36.074364,36.190983,36.264896,36.293762,36.300697,36.295883,36.284805,36.274235,36.261276,36.24545,36.230843,36.217422,36.19661,36.169132,36.131355,36.077766,36.010788,35.943855,35.86721,35.7418,35.61967,35.502052,35.402786,35.314957,35.232494,35.156273,35.08328,35.010868,34.935165,34.85643,34.78141,34.714355,34.654465,34.60279,34.5675,34.5426,34.53021,34.529045,34.53109,34.52948,34.523838,34.515717,34.50559,34.494217,34.487064,34.490612,34.507336,34.536903,34.58033,34.643513,34.70829,34.762417,34.793816,34.804115,34.80683,34.81266,34.82574,34.854618,34.894157,34.934593,34.96894,34.994637,35.01345,35.03444,35.063477,35.098213,35.13883,35.18564,35.23603,35.285088,35.329464,35.371258,35.41076,35.449432,35.487823,35.526615,35.567207,35.609154,35.65088,35.69457,35.74279,35.800323,35.866524,35.93602,36.00379,36.063484,36.10823,36.134068,36.142487,36.13477,36.11194,36.07885,36.044426,36.010685,35.982735,35.964783,35.954594,35.946823,35.937866,35.925858,35.917137,35.920723,35.95361,36.037277,36.173553,36.346508,36.54515,36.76169,36.946617,37.105507,37.25478,37.40084,37.54157,37.676147,37.807915,37.940422,38.064034,38.16838,38.252514,38.323708,38.389862,38.458103,38.539154,38.629974,38.719116,38.797638,38.857132,38.890446,38.901527,38.90478,38.904408,38.915344,38.955257,39.028496,39.12056,39.20896,39.27642,39.2959,39.22721,39.03723,38.74102,38.373764,37.947056,37.46737,37.132908,37.0373,37.22284,37.71238,38.362926,38.901913,39.347652,39.71862,39.959908,40.081947,40.131065,40.154327,40.181984,40.22041,40.265335,40.311165,40.351353,40.38331,40.406845,40.424004,40.440147,40.456245,40.475403,40.498425,40.526814,40.560623,40.597157,40.632545,40.665665,40.695305,40.719673,40.73915,40.75553,40.77142,40.78917,40.80886,40.830425,40.853386,40.874153,40.889313,40.897938,40.901627,40.902622,40.90638,40.91844,40.938263,40.963318,40.987907,41.006042,41.01789,41.02739,41.03418,41.041557,41.05121,41.061558,41.070858,41.079453,41.08469,41.082767,41.07598,41.068687,41.06581,41.07122,41.085327,41.10283,41.122158,41.138855,41.15179,41.16153,41.16791,41.17026,41.170227,41.1672,41.16136,41.15325,41.14279,41.128933,41.1117,41.094078,41.07544,41.058205,41.04498,41.034313,41.024178,41.012688,40.99702,40.976906,40.952667,40.92405,40.892647,40.860718,40.828682,40.79486,40.757645,40.71234,40.652924,40.58129,40.502792,40.423416,40.348335,40.278786,40.20497,40.12549,40.038944,39.947525,39.85539,39.766243,39.684044,39.602936,39.523777,39.443413,39.36029,39.274887,39.18694,39.09619,39.00264,38.900673,38.791016,38.67805,38.564125,38.449715,38.337467
38.90739,38.90973,38.909786,38.898285,38.85064,38.759056,38.62377,38.449734,38.240444,37.998688,37.72413,37.38656,37.016426,36.62198,36.2816,36.013153,35.765636,35.484398,35.116783,34.588512,33.577385,31.953793,30.471897,29.561146,28.891273,28.54916,28.3517,28.285107,28.31585,28.539852,29.0761,29.929218,30.993065,32.15159,33.605206,34.698204,35.21424,35.425873,35.60218,35.738815,35.87129,36.00165,36.130142,36.239937,36.30809,36.333145,36.336876,36.33014,36.317505,36.304543,36.29164,36.278168,36.26588,36.25352,36.231327,36.2007,36.15943,36.102436,36.037994,35.963066,35.857277,35.716892,35.595253,35.48549,35.3861,35.29229,35.206985,35.132313,35.060616,34.990204,34.91779,34.84318,34.772537,34.70849,34.648743,34.594353,34.55402,34.52231,34.506126,34.504528,34.508255,34.509888,34.508648,34.504593,34.497673,34.489967,34.48667,34.493614,34.51317,34.544163,34.58522,34.642323,34.706676,34.765884,34.808228,34.828518,34.834213,34.841278,34.856564,34.88686,34.92576,34.964417,34.998642,35.02616,35.04585,35.066635,35.096695,35.133224,35.18108,35.24347,35.306664,35.354767,35.399723,35.443657,35.48546,35.526566,35.567417,35.607845,35.648712,35.690296,35.731083,35.77356,35.819756,35.87419,35.936295,36.001186,36.065052,36.12374,36.173775,36.207375,36.225163,36.228477,36.217457,36.195686,36.17122,36.14646,36.125923,36.11436,36.109947,36.106934,36.10077,36.08856,36.075794,36.0703,36.084206,36.144043,36.25663,36.40324,36.57192,36.772507,36.986748,37.165253,37.31987,37.474403,37.62873,37.77899,37.927635,38.078575,38.221096,38.343746,38.44484,38.5317,38.61274,38.69539,38.792976,38.90244,39.011707,39.111313,39.19233,39.247093,39.2795,39.305367,39.32746,39.3581,39.412704,39.48871,39.566483,39.630226,39.657127,39.62099,39.491783,39.235943,38.88227,38.444275,37.886005,37.411045,37.1045,37.05185,37.29673,37.895313,38.664856,39.238945,39.756817,40.16233,40.416252,40.535034,40.57133,40.57802,40.589325,40.617672,40.656178,40.698338,40.735535,40.763508,40.782425,40.795616,40.808537,40.821686,40.839333,40.86193,40.88994,40.922585,40.95697,40.989414,41.01909,41.044464,41.063713,41.07714,41.086845,41.09585,41.106583,41.118935,41.13305,41.149036,41.164127,41.175518,41.1823,41.185444,41.18647,41.190243,41.201767,41.220963,41.245235,41.268692,41.285576,41.296318,41.305275,41.312492,41.32119,41.332253,41.343735,41.354156,41.363922,41.370094,41.369644,41.36463,41.35898,41.35749,41.36396,41.378548,41.395863,41.414146,41.429207,41.439804,41.446964,41.451275,41.45227,41.451576,41.448563,41.44302,41.435555,41.425957,41.413223,41.397476,41.38125,41.3637,41.34684,41.332695,41.32021,41.30777,41.29377,41.27614,41.254585,41.2293,41.20012,41.16868,41.1374,41.106674,41.074432,41.039307,40.99528,40.937477,40.867966,40.790897,40.71109,40.633564,40.559746,40.48093,40.395966,40.30446,40.209396,40.11502,40.024498,39.94111,39.858635,39.77717,39.694595,39.60984,39.52238,39.430878,39.335484,39.23677,39.128902,39.01301,38.893974,38.774803,38.656555,38.54212
39.20978,39.212784,39.20986,39.1933,39.137665,39.036907,38.89164,38.706314,38.48237,38.22209,37.927742,37.569077,37.16369,36.775208,36.425873,36.13873,35.893295,35.604782,35.219135,34.732292,33.511658,31.833702,30.42495,29.52394,28.87792,28.567432,28.38817,28.329529,28.364866,28.587936,29.1198,29.977139,31.060001,32.236412,33.73317,34.81304,35.305702,35.51601,35.686604,35.811565,35.933693,36.054638,36.17387,36.27398,36.333603,36.352516,36.3517,36.342308,36.3282,36.315845,36.30589,36.29608,36.285347,36.27156,36.247902,36.21547,36.171818,36.116936,36.047653,35.945866,35.80934,35.678608,35.561554,35.455284,35.3507,35.254955,35.173813,35.101677,35.032726,34.965405,34.897095,34.8272,34.761097,34.699726,34.639397,34.5816,34.53717,34.50124,34.482162,34.479355,34.483414,34.485924,34.48564,34.484604,34.48161,34.47856,34.480343,34.49199,34.515373,34.54992,34.59429,34.643394,34.704376,34.764404,34.809807,34.835915,34.849907,34.86348,34.881496,34.909492,34.94183,34.97352,35.00389,35.031075,35.051544,35.071022,35.101494,35.138584,35.19181,35.268127,35.34932,35.412125,35.469738,35.5163,35.56065,35.60482,35.647987,35.68879,35.728104,35.76767,35.805832,35.845177,35.886837,35.934444,35.989853,36.050034,36.108658,36.16222,36.213146,36.253876,36.282646,36.29941,36.303707,36.29741,36.287243,36.2761,36.267624,36.266983,36.272736,36.278717,36.279213,36.269886,36.25544,36.244335,36.237648,36.26284,36.34126,36.465626,36.62066,36.80246,37.029457,37.242607,37.419876,37.583553,37.753418,37.920437,38.086624,38.2567,38.41916,38.56143,38.680916,38.784447,38.880356,38.976173,39.08709,39.2097,39.33191,39.444878,39.54071,39.612465,39.663967,39.70901,39.749687,39.793777,39.85298,39.918575,39.967903,39.99369,39.973755,39.87477,39.674873,39.353012,38.944138,38.443916,37.80513,37.36045,37.11135,37.113205,37.42128,38.110863,38.961258,39.553204,40.10846,40.5276,40.78705,40.897144,40.916187,40.90614,40.90114,40.920094,40.95246,40.990505,41.02411,41.047905,41.063908,41.077152,41.090233,41.104023,41.122795,41.146935,41.17601,41.20867,41.242203,41.273148,41.30094,41.323944,41.340347,41.350616,41.356895,41.362408,41.37001,41.379433,41.390472,41.404213,41.418472,41.4308,41.440125,41.446632,41.45115,41.457916,41.47165,41.491737,41.515594,41.537968,41.553856,41.56391,41.57273,41.58069,41.590935,41.60379,41.616936,41.628914,41.640198,41.647858,41.64966,41.6474,41.644463,41.645073,41.65264,41.667145,41.68339,41.699577,41.71203,41.719505,41.72345,41.72513,41.72428,41.722412,41.718857,41.71294,41.70529,41.695618,41.68301,41.66779,41.652084,41.634922,41.617867,41.602455,41.58802,41.57334,41.557076,41.537735,41.51494,41.48848,41.458183,41.425507,41.39289,41.36097,41.32804,41.29277,41.24855,41.191563,41.123737,41.048046,40.968227,40.889038,40.811913,40.728996,40.639713,40.544445,40.446762,40.350834,40.25905,40.17389,40.089027,40.004616,39.92054,39.834827,39.745533,39.65133,39.55257,39.45021,39.33825,39.218086,39.094975,38.972336,38.8517,38.736294
39.512764,39.514328,39.504772,39.47919,39.41488,39.306038,39.150013,38.949486,38.706,38.4233,38.105747,37.72445,37.289124,36.88218,36.524487,36.236534,35.99153,35.69459,35.300552,34.84407,33.431755,31.710224,30.36053,29.461182,28.85498,28.574303,28.417759,28.37156,28.415405,28.641949,29.173883,30.034792,31.125675,32.314938,33.84285,34.905453,35.37683,35.588097,35.755527,35.87269,35.986797,36.099266,36.20822,36.2975,36.34796,36.360218,36.354782,36.34305,36.329094,36.32063,36.312996,36.30281,36.291435,36.277428,36.25289,36.219147,36.176056,36.118797,36.024113,35.892166,35.753765,35.630005,35.518887,35.404728,35.300903,35.210705,35.132942,35.06453,34.99944,34.936195,34.872818,34.808712,34.748543,34.691242,34.63166,34.57223,34.52622,34.489784,34.466812,34.458317,34.458214,34.459503,34.460392,34.462315,34.463264,34.465157,34.47251,34.48947,34.517433,34.55598,34.603523,34.652557,34.706398,34.764507,34.81385,34.846012,34.866432,34.88453,34.903893,34.929005,34.954884,34.979225,35.00377,35.027916,35.047855,35.066166,35.09592,35.13259,35.183926,35.256462,35.344994,35.435043,35.513702,35.56697,35.617035,35.666985,35.71521,35.758953,35.797737,35.833817,35.868317,35.903576,35.939167,35.97682,36.02111,36.07305,36.126026,36.176872,36.224075,36.268646,36.307625,36.337708,36.357224,36.36664,36.371246,36.374413,36.378918,36.39029,36.40777,36.42514,36.43569,36.43363,36.423283,36.413864,36.389854,36.3816,36.43045,36.543327,36.703033,36.90184,37.128418,37.371574,37.57811,37.75339,37.939888,38.123825,38.30706,38.495087,38.675842,38.835476,38.97032,39.086662,39.192635,39.29614,39.412964,39.539383,39.66391,39.779003,39.8786,39.957024,40.017174,40.070595,40.119255,40.166054,40.217712,40.266243,40.290318,40.27786,40.212143,40.055454,39.788918,39.40699,38.9205,38.33278,37.68776,37.29501,37.103333,37.160164,37.53059,38.27638,39.16937,39.806335,40.369606,40.798553,41.056168,41.153618,41.157906,41.13669,41.12409,41.13971,41.17051,41.208015,41.241257,41.26412,41.27861,41.290844,41.30462,41.321136,41.342606,41.36937,41.400116,41.433487,41.467606,41.499016,41.52672,41.549103,41.564545,41.57409,41.57966,41.584335,41.591713,41.601303,41.612736,41.62737,41.643383,41.65889,41.67286,41.684814,41.69496,41.706795,41.724777,41.747986,41.77323,41.79562,41.811306,41.821266,41.830223,41.838615,41.849453,41.86329,41.87762,41.890503,41.90252,41.91111,41.91468,41.914825,41.914333,41.916714,41.92482,41.938442,41.952816,41.96618,41.9755,41.979588,41.98018,41.979027,41.976112,41.972782,41.968338,41.961796,41.95364,41.943565,41.930794,41.91571,41.90017,41.882965,41.865402,41.848625,41.8322,41.815292,41.796734,41.775208,41.750324,41.72146,41.688526,41.6528,41.61663,41.581177,41.545406,41.50792,41.46315,41.406975,41.34027,41.265175,41.18502,41.10428,41.02424,40.937744,40.84492,40.74669,40.646927,40.549576,40.456238,40.3687,40.28174,40.196114,40.11103,40.02426,39.9337,39.837868,39.737324,39.633068,39.51911,39.39702,39.27218,39.14821,39.027008,38.91211
39.766273,39.771225,39.76078,39.731674,39.66159,39.54641,39.380875,39.166946,38.90628,38.603416,38.264812,37.86293,37.405804,36.97676,36.608566,36.32106,36.075737,35.772236,35.36891,34.926445,33.36651,31.61111,30.299564,29.398195,28.83165,28.577599,28.44233,28.410233,28.46537,28.700062,29.238213,30.10502,31.198462,32.40497,33.950615,34.986656,35.43605,35.649853,35.81564,35.92817,36.03609,36.14107,36.240257,36.319237,36.36108,36.367092,36.357643,36.34507,36.33416,36.32536,36.316643,36.305912,36.29356,36.278145,36.25196,36.21659,36.176247,36.088535,35.96192,35.824383,35.68863,35.56757,35.455696,35.346786,35.247604,35.160576,35.08611,35.02144,34.96071,34.902534,34.845047,34.78823,34.73652,34.686226,34.630836,34.57363,34.524963,34.4827,34.453545,34.43962,34.43569,34.435257,34.436405,34.4404,34.44457,34.45073,34.463005,34.48473,34.516876,34.559128,34.609863,34.66255,34.71277,34.766106,34.816612,34.854794,34.88067,34.902203,34.921898,34.943535,34.962807,34.98033,35.00017,35.022293,35.042885,35.06495,35.092804,35.130077,35.18224,35.2535,35.337906,35.42176,35.497795,35.5672,35.632378,35.69536,35.756725,35.81223,35.855965,35.886932,35.916153,35.945034,35.973534,36.004433,36.038612,36.076275,36.119537,36.16796,36.21229,36.25585,36.30043,36.341415,36.373016,36.39501,36.41146,36.426064,36.441017,36.462234,36.489845,36.518154,36.540016,36.548378,36.54769,36.54516,36.51978,36.509224,36.5589,36.671593,36.833035,37.038193,37.29992,37.560745,37.777374,37.970474,38.17452,38.375458,38.575294,38.780094,38.977123,39.150978,39.29692,39.420795,39.53063,39.635136,39.749878,39.871063,39.98853,40.09598,40.18888,40.262146,40.316,40.36798,40.41578,40.458817,40.49922,40.52855,40.529236,40.490467,40.386715,40.181236,39.850445,39.423035,38.843594,38.130882,37.544334,37.21652,37.071182,37.174652,37.587822,38.383736,39.329617,39.985058,40.550667,40.977097,41.22596,41.312874,41.310253,41.287865,41.278214,41.298058,41.333145,41.374466,41.410698,41.435493,41.45128,41.46487,41.480103,41.497417,41.52134,41.551758,41.585655,41.621002,41.656433,41.68866,41.716873,41.73953,41.75508,41.764294,41.76984,41.775494,41.78424,41.79557,41.809082,41.826336,41.845833,41.865963,41.88559,41.903698,41.919895,41.937305,41.959595,41.98639,42.01373,42.036552,42.052254,42.062183,42.070976,42.079456,42.090694,42.104904,42.11937,42.132187,42.14395,42.152527,42.15695,42.158653,42.159805,42.163185,42.17102,42.182983,42.194855,42.205,42.21091,42.21157,42.208885,42.204964,42.200027,42.195206,42.189896,42.182907,42.1746,42.164555,42.152042,42.137413,42.122093,42.104958,42.08693,42.068897,42.050636,42.031578,42.010506,41.985886,41.957146,41.92392,41.886406,41.84633,41.806587,41.76847,41.73073,41.692017,41.646626,41.590717,41.524612,41.4496,41.36829,41.284874,41.20124,41.11071,41.014297,40.913513,40.812363,40.71425,40.620052,40.531555,40.44364,40.356903,40.270905,40.183517,40.092533,39.996323,39.895473,39.79087,39.676727,39.554573,39.429745,39.305946,39.185368,39.0718
39.97995,39.9868,39.97431,39.93994,39.86476,39.744858,39.571926,39.347336,39.0726,38.75273,38.396378,37.976357,37.501762,37.05281,36.673717,36.38679,36.144142,35.838234,35.42702,34.984337,33.316193,31.535522,30.24929,29.346199,28.809845,28.578707,28.460985,28.44281,28.510014,28.75636,29.307177,30.183903,31.277248,32.498787,34.049404,35.057777,35.488,35.702652,35.86602,35.976166,36.07882,36.177315,36.265846,36.334843,36.36954,36.370766,36.360023,36.348866,36.337135,36.32795,36.320118,36.310917,36.296673,36.273746,36.241516,36.211155,36.130432,36.007427,35.86493,35.727932,35.60837,35.49684,35.390156,35.28573,35.19017,35.106186,35.034645,34.973225,34.91739,34.870365,34.825287,34.779427,34.734848,34.688423,34.63492,34.577293,34.525852,34.47953,34.44568,34.42714,34.419582,34.41713,34.4179,34.42301,34.42936,34.43869,34.454887,34.480457,34.51596,34.561234,34.614594,34.669334,34.72261,34.772953,34.820145,34.861107,34.893036,34.91779,34.93773,34.956238,34.96878,34.983463,35.005455,35.030807,35.054733,35.07801,35.103394,35.13388,35.18234,35.25228,35.33413,35.415756,35.490402,35.56004,35.626892,35.692104,35.754265,35.8087,35.852264,35.886497,35.91438,35.938087,35.96234,35.996887,36.038914,36.07644,36.107433,36.144634,36.1858,36.22638,36.270596,36.31772,36.359604,36.391083,36.41656,36.44009,36.463074,36.49195,36.52825,36.567368,36.602127,36.62452,36.638535,36.653313,36.652576,36.66509,36.731842,36.86345,37.047676,37.265247,37.544525,37.803795,38.025764,38.24034,38.462734,38.681114,38.89776,39.118797,39.330765,39.51632,39.66947,39.796005,39.904346,40.00406,40.110455,40.219643,40.32314,40.41605,40.49386,40.552773,40.598007,40.64044,40.67723,40.70676,40.729523,40.73944,40.7211,40.65819,40.520916,40.272816,39.882996,39.41755,38.754375,37.92603,37.40784,37.127087,37.026352,37.176575,37.621685,38.46109,39.460747,40.119293,40.68174,41.094604,41.328537,41.405815,41.401337,41.384354,41.38462,41.41358,41.456764,41.504826,41.546307,41.57513,41.594345,41.610397,41.625343,41.645027,41.67195,41.705017,41.741943,41.78053,41.81801,41.850876,41.87996,41.903618,41.91925,41.928993,41.936314,41.94448,41.956196,41.97063,41.987568,42.00873,42.03276,42.05826,42.084023,42.108578,42.131096,42.154316,42.181664,42.210785,42.239807,42.26478,42.281235,42.29105,42.299515,42.307915,42.319115,42.333237,42.34756,42.360107,42.371376,42.37973,42.38478,42.3877,42.390182,42.394203,42.401382,42.411453,42.420605,42.42746,42.430054,42.42758,42.422005,42.415596,42.40879,42.402534,42.396362,42.389145,42.38092,42.371162,42.35913,42.344917,42.32965,42.312157,42.293423,42.273605,42.252365,42.229565,42.20462,42.17668,42.14508,42.108376,42.066902,42.022728,41.978897,41.936996,41.896233,41.855324,41.80838,41.751965,41.685806,41.610252,41.527306,41.44107,41.35386,41.259422,41.159668,41.05661,40.95418,40.85517,40.75995,40.670464,40.581818,40.494225,40.40763,40.32009,40.229286,40.133553,40.033524,39.929825,39.81687,39.69597,39.572395,39.449825,39.33062,39.218918
40.104515,40.107224,40.08857,40.04763,39.967186,39.844067,39.6685,39.440712,39.16055,38.832153,38.465458,38.034027,37.5428,37.083023,36.698715,36.41484,36.1829,35.884663,35.47206,35.01362,33.289963,31.498722,30.220373,29.311586,28.792313,28.57239,28.467304,28.462147,28.542229,28.804794,29.376333,30.268982,31.361649,32.59216,34.125595,35.111675,35.530586,35.742416,35.902443,36.007862,36.10651,36.19982,36.282593,36.343582,36.37284,36.37439,36.365273,36.357323,36.3496,36.33512,36.309017,36.277107,36.24696,36.219193,36.190388,36.12612,36.021183,35.890327,35.758133,35.638454,35.52902,35.424488,35.322792,35.22255,35.129066,35.047215,34.98243,34.93277,34.88806,34.848755,34.811825,34.774296,34.73694,34.695827,34.645638,34.589184,34.536575,34.48768,34.45027,34.427826,34.41671,34.411705,34.41127,34.416367,34.42386,34.435463,34.4547,34.483208,34.520966,34.5679,34.622566,34.67816,34.733154,34.78505,34.832424,34.873425,34.90727,34.935234,34.95685,34.975754,34.98925,35.003883,35.025322,35.051514,35.077248,35.10225,35.128014,35.157463,35.19954,35.263428,35.34326,35.42211,35.494278,35.5623,35.62878,35.694008,35.754772,35.80522,35.84282,35.87067,35.890953,35.90632,35.921978,35.946953,35.983383,36.026146,36.07145,36.12233,36.16248,36.198856,36.236034,36.276592,36.31962,36.359604,36.391544,36.41833,36.44535,36.478615,36.520508,36.56804,36.61445,36.652138,36.687492,36.72625,36.768223,36.832413,36.9385,37.093216,37.29623,37.53596,37.844696,38.103745,38.32946,38.566383,38.80664,39.041817,39.2743,39.51036,39.735283,39.928757,40.083458,40.206154,40.306694,40.395744,40.48828,40.580055,40.664223,40.736954,40.794304,40.834045,40.86364,40.8888,40.90615,40.91485,40.917694,40.91027,40.875793,40.794357,40.62994,40.345345,39.91844,39.329403,38.54535,37.738884,37.282616,37.036064,36.979973,37.176388,37.661186,38.545353,39.583187,40.23681,40.79014,41.18283,41.400562,41.472214,41.47198,41.466766,41.483154,41.525024,41.578484,41.633835,41.68048,41.71273,41.73324,41.749603,41.76731,41.789753,41.819313,41.854324,41.892693,41.932255,41.970253,42.00386,42.03337,42.05759,42.07437,42.085903,42.095474,42.10609,42.120323,42.137634,42.15804,42.18318,42.21202,42.24312,42.27492,42.30562,42.333977,42.362312,42.39367,42.42611,42.457085,42.482994,42.500816,42.51181,42.52118,42.530006,42.54119,42.555313,42.56991,42.5828,42.59431,42.603302,42.609818,42.61472,42.619102,42.624176,42.63102,42.639404,42.646206,42.650284,42.65033,42.645206,42.636593,42.627342,42.61866,42.611244,42.604675,42.59771,42.589825,42.580048,42.56782,42.553593,42.538326,42.520676,42.501137,42.479874,42.45669,42.4315,42.403824,42.373135,42.338608,42.29844,42.253067,42.20481,42.156742,42.11065,42.066452,42.02281,41.973812,41.916298,41.849495,41.772926,41.68802,41.59883,41.50782,41.409332,41.305862,41.19991,41.095703,40.995766,40.899845,40.80972,40.72068,40.632324,40.544945,40.456795,40.365696,40.270187,40.17102,40.0685,39.957054,39.837765,39.715744,39.594574,39.47686,39.367172
40.1382,40.13188,40.104248,40.055542,39.970905,39.847515,39.674927,39.45215,39.17627,38.849323,38.480976,38.0411,37.53829,37.064686,36.685555,36.41842,36.200226,35.917294,35.508934,35.020367,33.288387,31.499199,30.212719,29.293465,28.778542,28.56754,28.472952,28.471027,28.559284,28.841734,29.441057,30.355974,31.450855,32.683426,34.181232,35.15531,35.571136,35.773148,35.92801,36.029427,36.12432,36.214603,36.295338,36.354317,36.3847,36.392517,36.38637,36.360126,36.334595,36.30361,36.264698,36.222115,36.18648,36.156227,36.104218,36.01288,35.900887,35.7817,35.6668,35.558975,35.45497,35.354866,35.255783,35.157078,35.071266,34.999413,34.94233,34.8995,34.862663,34.829266,34.798943,34.769035,34.73935,34.7049,34.65992,34.606903,34.555534,34.506508,34.46762,34.44275,34.428802,34.42122,34.41905,34.423256,34.431023,34.44395,34.465126,34.495308,34.53382,34.58067,34.634926,34.689713,34.744728,34.798336,34.847748,34.89061,34.92705,34.958214,34.982063,35.002327,35.017357,35.032364,35.053562,35.08055,35.108017,35.13525,35.162445,35.19274,35.23223,35.288902,35.361214,35.436672,35.50563,35.571175,35.636078,35.69982,35.757835,35.803135,35.83304,35.851746,35.86325,35.870544,35.877903,35.891754,35.916748,35.953793,36.00022,36.052742,36.099686,36.14421,36.186016,36.22386,36.256527,36.283253,36.308266,36.328735,36.351906,36.385025,36.4327,36.49652,36.57157,36.64257,36.700966,36.769474,36.853935,36.968246,37.120003,37.310764,37.548164,37.828976,38.152283,38.420845,38.663147,38.919334,39.175823,39.426014,39.673134,39.92048,40.15132,40.34608,40.498283,40.614132,40.703335,40.77912,40.85506,40.927475,40.991684,41.044403,41.081985,41.10289,41.112892,41.115124,41.106655,41.089386,41.07158,41.049347,41.001694,40.90735,40.722,40.409035,39.94844,39.23019,38.344994,37.598118,37.17807,36.968376,36.941418,37.185978,37.72248,38.646492,39.707447,40.360012,40.896915,41.265854,41.467556,41.535736,41.54257,41.552353,41.58775,41.64325,41.706978,41.768944,41.819023,41.852978,41.874973,41.89366,41.914948,41.94023,41.97187,42.00797,42.04648,42.08532,42.122253,42.155342,42.184593,42.209297,42.227615,42.2413,42.253197,42.266045,42.28222,42.301933,42.32543,42.35424,42.387722,42.424255,42.461628,42.497635,42.530815,42.562946,42.596794,42.63102,42.663017,42.68925,42.70723,42.718193,42.727394,42.736565,42.74861,42.76385,42.779724,42.79389,42.806396,42.816795,42.82557,42.833214,42.840195,42.84694,42.853893,42.860855,42.865395,42.866783,42.864235,42.85703,42.846756,42.83611,42.8263,42.817936,42.810738,42.80375,42.796204,42.7871,42.775803,42.76251,42.747993,42.730736,42.711067,42.68895,42.664295,42.637123,42.60701,42.57362,42.536087,42.492455,42.443424,42.391434,42.339405,42.289295,42.24165,42.195015,42.14362,42.084602,42.01661,41.938477,41.85131,41.759014,41.664024,41.56122,41.453445,41.343506,41.236427,41.134933,41.03814,40.94768,40.858437,40.769447,40.681206,40.592133,40.500282,40.404655,40.306274,40.204834,40.09488,39.977264,39.856697,39.736725,39.62034,39.51239
40.128803,40.110764,40.07264,40.015327,39.927193,39.80519,39.638542,39.42522,39.15931,38.83985,38.47495,38.030266,37.491688,37.00204,36.650097,36.414127,36.2072,35.941967,35.54068,35.01149,33.300858,31.516783,30.211102,29.285988,28.77296,28.568176,28.479885,28.477688,28.563221,28.861252,29.494436,30.436335,31.537952,32.76867,34.22422,35.17949,35.601006,35.79814,35.9358,36.038208,36.137085,36.22826,36.310303,36.371735,36.400566,36.399734,36.38097,36.338478,36.29605,36.25304,36.210987,36.17181,36.132805,36.08141,36.001266,35.90499,35.79776,35.691727,35.58608,35.480118,35.37831,35.28058,35.187332,35.09533,35.017914,34.954117,34.901535,34.860596,34.82779,34.800117,34.776657,34.7548,34.73331,34.706635,34.66883,34.621822,34.5746,34.528454,34.490887,34.46579,34.4504,34.440933,34.437225,34.44042,34.448257,34.462227,34.484913,34.51606,34.554176,34.599365,34.65143,34.703575,34.756897,34.809967,34.860397,34.905956,34.945904,34.97999,35.0062,35.028008,35.043663,35.05954,35.08233,35.111435,35.141563,35.171585,35.200485,35.23121,35.270447,35.322365,35.385426,35.45321,35.517197,35.579716,35.642323,35.7035,35.75779,35.797684,35.820755,35.83239,35.837463,35.839333,35.841675,35.84941,35.86585,35.891747,35.926155,35.968246,36.01902,36.071487,36.12112,36.161575,36.186714,36.198174,36.208893,36.216396,36.228497,36.255054,36.305214,36.38509,36.491375,36.605843,36.70655,36.811363,36.931618,37.086334,37.282455,37.5178,37.798122,38.1324,38.45273,38.733116,38.999504,39.27145,39.541836,39.804695,40.06114,40.3142,40.548187,40.740097,40.884148,40.990105,41.06839,41.132782,41.19603,41.254066,41.302917,41.33918,41.359352,41.362423,41.352947,41.32996,41.292362,41.247177,41.20755,41.17103,41.113586,41.008625,40.80575,40.464703,39.97103,39.15949,38.20755,37.50508,37.103874,36.892605,36.892807,37.21217,37.817123,38.779335,39.858658,40.502983,41.016743,41.360985,41.545593,41.607357,41.619408,41.643013,41.693195,41.759132,41.831665,41.89932,41.95227,41.98837,42.013664,42.03663,42.061394,42.089706,42.12333,42.16014,42.198376,42.236176,42.27165,42.30372,42.33277,42.358433,42.378784,42.395073,42.409836,42.425453,42.4438,42.465816,42.492073,42.523994,42.56138,42.602493,42.64454,42.684868,42.72177,42.756584,42.791794,42.826153,42.857803,42.883453,42.900368,42.91027,42.91861,42.928112,42.941525,42.95865,42.976677,42.99309,43.007553,43.02021,43.03195,43.04282,43.052753,43.061516,43.06904,43.07523,43.07826,43.077923,43.07379,43.0657,43.055183,43.04445,43.034435,43.025707,43.01829,43.011627,43.004864,42.997,42.987244,42.975296,42.961655,42.944862,42.925186,42.90222,42.87587,42.846317,42.813393,42.777096,42.736553,42.689648,42.63745,42.582283,42.526756,42.47292,42.42177,42.37195,42.317833,42.256912,42.187355,42.107407,42.017853,41.922417,41.823303,41.715775,41.602913,41.487923,41.376915,41.273033,41.174934,41.084106,40.994648,40.905037,40.815845,40.725548,40.632454,40.53619,40.438118,40.33728,40.228416,40.11212,39.992653,39.873604,39.75834,39.651855
40.124756,40.095566,40.0485,39.983932,39.89294,39.77252,39.611744,39.407707,39.15207,38.84069,38.479446,38.03543,37.443954,36.94184,36.62214,36.412994,36.21276,35.96181,35.56732,34.99273,33.32196,31.538517,30.204773,29.283665,28.774265,28.566877,28.47818,28.478456,28.559036,28.867798,29.534687,30.506767,31.619091,32.851307,34.270477,35.1954,35.61844,35.811813,35.922375,36.025524,36.136063,36.22615,36.309288,36.37398,36.399242,36.382988,36.346573,36.30916,36.27054,36.227554,36.183495,36.138016,36.07795,35.99465,35.907494,35.810368,35.711784,35.61148,35.507626,35.403267,35.302906,35.207493,35.12128,35.038918,34.964302,34.90015,34.849167,34.811462,34.782967,34.760582,34.743507,34.729355,34.716084,34.697853,34.668697,34.629845,34.589317,34.548653,34.514893,34.491535,34.476036,34.465527,34.460876,34.463608,34.472015,34.48752,34.512104,34.544292,34.581654,34.62436,34.67306,34.72126,34.771324,34.822193,34.871708,34.917984,34.960007,34.996403,35.02509,35.049152,35.066826,35.084724,35.10972,35.14132,35.17429,35.20716,35.23787,35.268795,35.306038,35.35469,35.41175,35.46961,35.526535,35.584023,35.64276,35.70041,35.75049,35.785133,35.802544,35.809116,35.81026,35.8096,35.81018,35.815483,35.827995,35.848877,35.87814,35.9162,35.963043,36.013596,36.06348,36.105286,36.132153,36.143665,36.144993,36.140415,36.140205,36.157036,36.20571,36.29538,36.422993,36.57527,36.73485,36.87769,37.029182,37.221123,37.46007,37.737938,38.054306,38.435265,38.750916,39.039703,39.326736,39.61279,39.89443,40.165054,40.424942,40.68059,40.916245,41.10354,41.236847,41.33172,41.401527,41.45806,41.514282,41.56455,41.603577,41.627197,41.631706,41.61653,41.58768,41.53947,41.47237,41.400223,41.339016,41.288193,41.22312,41.108475,40.889435,40.51687,39.997215,39.11585,38.112823,37.44468,37.04695,36.810837,36.84996,37.261204,37.941307,38.942398,40.037994,40.66478,41.15193,41.471,41.63698,41.68971,41.70462,41.738167,41.796158,41.8688,41.947556,42.0194,42.075394,42.115166,42.14495,42.172157,42.20079,42.232407,42.268295,42.306015,42.34424,42.38144,42.416077,42.447895,42.477356,42.504494,42.527523,42.54716,42.565628,42.584915,42.606186,42.63079,42.659767,42.694443,42.735,42.77982,42.82579,42.869827,42.90976,42.94671,42.982838,43.017097,43.04772,43.071827,43.087425,43.09655,43.10462,43.114777,43.12959,43.148804,43.169533,43.188934,43.206284,43.221954,43.23712,43.251377,43.264225,43.275032,43.283524,43.289757,43.29243,43.29176,43.28751,43.27952,43.269073,43.25831,43.24839,43.23983,43.232975,43.22737,43.221855,43.215084,43.206207,43.194885,43.18139,43.164444,43.144066,43.119686,43.091152,43.058746,43.02263,42.983215,42.939568,42.88958,42.83455,42.77666,42.718117,42.660873,42.606255,42.553307,42.496414,42.433407,42.36216,42.280434,42.188652,42.090263,41.98707,41.874557,41.75592,41.635056,41.519135,41.411842,41.31162,41.219803,41.129646,41.0391,40.948727,40.8569,40.762173,40.66472,40.566277,40.465405,40.356987,40.241394,40.122612,40.00421,39.889786,39.78447
40.1471,40.1114,40.061066,39.99359,39.901955,39.78382,39.627815,39.43033,39.18193,38.875973,38.516296,38.07471,37.46897,36.95658,36.634697,36.42617,36.22822,35.983387,35.59178,34.973083,33.35441,31.566923,30.197798,29.28326,28.772556,28.55575,28.462711,28.463158,28.552269,28.876118,29.568998,30.573776,31.699726,32.944763,34.341946,35.244026,35.646324,35.81883,35.914276,36.007862,36.116577,36.195198,36.27507,36.343994,36.379017,36.37606,36.34952,36.31619,36.278587,36.233036,36.186428,36.120064,36.03033,35.93995,35.846115,35.743805,35.647354,35.54729,35.44326,35.34159,35.244736,35.153145,35.06516,34.98181,34.908257,34.8463,34.79791,34.763397,34.738777,34.720825,34.709053,34.701447,34.69552,34.68541,34.665207,34.635345,34.602806,34.569023,34.54023,34.519463,34.504402,34.493214,34.48796,34.490833,34.500443,34.518013,34.544914,34.578396,34.615154,34.655514,34.70079,34.74486,34.791187,34.839058,34.88656,34.93239,34.975548,35.01368,35.044666,35.071167,35.091232,35.11125,35.13813,35.171577,35.206398,35.241028,35.27252,35.3025,35.33672,35.380287,35.431793,35.484795,35.534748,35.584187,35.636513,35.68908,35.733948,35.763126,35.776028,35.77961,35.77926,35.77874,35.78047,35.786568,35.79867,35.818134,35.845657,35.88243,35.929382,35.98143,36.03381,36.07759,36.10457,36.114403,36.11255,36.10121,36.093052,36.104103,36.154404,36.258015,36.41234,36.598885,36.799515,36.973267,37.15191,37.376472,37.653965,37.970325,38.320396,38.723988,39.041046,39.3427,39.648846,39.948196,40.238144,40.510468,40.77347,41.032097,41.26232,41.44243,41.56958,41.657013,41.72015,41.770718,41.82091,41.86489,41.896507,41.910385,41.901253,41.867687,41.81698,41.743813,41.64868,41.552082,41.472862,41.40989,41.336887,41.21488,40.980766,40.579655,40.037125,39.099586,38.056408,37.403786,36.976906,36.77874,36.859104,37.334312,38.075428,39.110847,40.215977,40.834995,41.296356,41.58965,41.737732,41.784466,41.802536,41.842194,41.905464,41.98358,42.065445,42.139317,42.19739,42.24057,42.27508,42.307087,42.339787,42.374893,42.4133,42.45229,42.49099,42.528214,42.56268,42.59468,42.624756,42.65342,42.679134,42.702263,42.72474,42.74806,42.772682,42.800285,42.832275,42.86988,42.91375,42.96235,43.012283,43.06005,43.102993,43.141975,43.17901,43.213226,43.242928,43.265526,43.27967,43.287926,43.295727,43.30657,43.323032,43.344734,43.36857,43.391327,43.41192,43.430813,43.449432,43.46698,43.48266,43.495537,43.50521,43.51185,43.514503,43.513626,43.509056,43.500687,43.489845,43.47871,43.468517,43.45996,43.45349,43.448814,43.444412,43.43861,43.430336,43.41916,43.4054,43.387737,43.366196,43.339966,43.308807,43.273148,43.233437,43.19053,43.14341,43.090134,43.032135,42.97159,42.910446,42.85038,42.792896,42.737434,42.678284,42.613464,42.54064,42.457268,42.363503,42.26245,42.15551,42.038147,41.913513,41.786026,41.66398,41.55178,41.44796,41.35398,41.262096,41.170105,41.078293,40.98494,40.88868,40.79001,40.69094,40.589684,40.481247,40.36593,40.2475,40.12944,40.01541,39.910683
40.216602,40.181183,40.132507,40.066544,39.9774,39.86243,39.709343,39.514587,39.26883,38.96463,38.60486,38.160973,37.57505,37.06107,36.706,36.47063,36.270805,36.021675,35.623474,34.96311,33.39302,31.599312,30.194878,29.28371,28.766869,28.541773,28.443344,28.445183,28.545368,28.88594,29.606068,30.645857,31.788685,33.062088,34.457245,35.34134,35.715294,35.879456,35.991814,36.07072,36.118584,36.186127,36.269333,36.348038,36.396034,36.403656,36.38439,36.355022,36.317673,36.270264,36.202816,36.115456,36.01803,35.91819,35.81745,35.711525,35.609962,35.505653,35.397644,35.291245,35.190193,35.096184,35.007668,34.925568,34.855007,34.796944,34.752598,34.722,34.70101,34.6865,34.678635,34.675797,34.675728,34.672867,34.661385,34.640907,34.617096,34.591053,34.567963,34.55006,34.53541,34.523415,34.517426,34.52038,34.531105,34.55045,34.57935,34.613922,34.650196,34.688713,34.73113,34.771736,34.81466,34.859367,34.90437,34.9491,34.99283,35.032562,35.065914,35.095123,35.117767,35.139687,35.167732,35.201927,35.237278,35.272232,35.302994,35.33042,35.36006,35.397335,35.44216,35.48977,35.535736,35.58216,35.629272,35.673435,35.708057,35.728657,35.7372,35.739624,35.73997,35.741898,35.747047,35.7562,35.770298,35.790913,35.819252,35.857086,35.90625,35.961655,36.018284,36.065838,36.094925,36.105186,36.101654,36.085594,36.072258,36.08082,36.136246,36.25701,36.442005,36.670635,36.89524,37.09606,37.304817,37.561943,37.87426,38.227585,38.613914,39.00101,39.335434,39.661884,39.98899,40.30094,40.594048,40.87226,41.139194,41.39425,41.62005,41.79371,41.9116,41.989693,42.04542,42.09069,42.13645,42.175804,42.200783,42.2045,42.1805,42.127075,42.053284,41.95333,41.83029,41.710396,41.615242,41.542458,41.462658,41.333546,41.084473,40.65585,40.093506,39.10135,38.019104,37.374126,36.888313,36.75145,36.88071,37.410973,38.203133,39.274055,40.39439,41.003517,41.441986,41.711758,41.84404,41.88576,41.904953,41.948395,42.01805,42.099716,42.183754,42.25965,42.32051,42.368126,42.408417,42.446186,42.483673,42.522865,42.564266,42.605232,42.645172,42.68307,42.717796,42.750057,42.780586,42.810387,42.838272,42.864655,42.891205,42.9188,42.947227,42.97829,43.01378,43.05503,43.103043,43.156334,43.211067,43.2632,43.309654,43.351128,43.38927,43.423325,43.451733,43.47235,43.484627,43.49138,43.49826,43.509293,43.52702,43.551086,43.57808,43.60436,43.628555,43.651073,43.67344,43.694496,43.713097,43.728134,43.739105,43.746185,43.74871,43.747185,43.741497,43.73172,43.719437,43.707108,43.69618,43.687557,43.681786,43.67842,43.675713,43.67148,43.664272,43.653564,43.639683,43.62136,43.59857,43.570354,43.53636,43.497032,43.453125,43.405975,43.354713,43.297325,43.235786,43.17227,43.10863,43.046417,42.98696,42.929863,42.869175,42.802986,42.72885,42.644005,42.548405,42.44484,42.334297,42.212254,42.0812,41.946125,41.81648,41.697586,41.58842,41.490715,41.396076,41.30215,41.208946,41.114563,41.01751,40.918266,40.819084,40.71775,40.609436,40.494423,40.376244,40.258217,40.144073,40.03911
40.35874,40.328445,40.284073,40.223522,40.137726,40.02452,39.870094,39.67111,39.420082,39.110733,38.74521,38.292686,37.73814,37.215538,36.813225,36.542152,36.33275,36.070175,35.659515,34.958817,33.431396,31.632769,30.197948,29.288042,28.759945,28.52575,28.420807,28.42343,28.534668,28.895615,29.649485,30.728664,31.890905,33.210773,34.630096,35.449852,35.770943,35.934532,36.043976,36.110023,36.128315,36.19097,36.282288,36.373726,36.434624,36.4531,36.44143,36.41622,36.378616,36.32711,36.247967,36.14223,36.027,35.91543,35.8059,35.692116,35.58187,35.470284,35.356186,35.243866,35.137802,35.041054,34.95221,34.87198,34.80548,34.752598,34.713406,34.687263,34.669693,34.657757,34.652557,34.65307,34.6577,34.661415,34.658413,34.64754,34.633034,34.615196,34.598267,34.583466,34.56948,34.557068,34.550793,34.554634,34.567238,34.58915,34.620823,34.65724,34.693817,34.731308,34.771584,34.809345,34.84916,34.89068,34.932907,34.976177,35.020218,35.061592,35.09745,35.1297,35.15524,35.178932,35.207554,35.241547,35.276024,35.309753,35.338264,35.36152,35.38497,35.414597,35.451828,35.493496,35.535378,35.578564,35.62191,35.66112,35.69013,35.705162,35.708916,35.708794,35.709694,35.71472,35.724937,35.739464,35.757988,35.7819,35.812744,35.852867,35.905155,35.964745,36.026176,36.078003,36.110172,36.122467,36.119156,36.100586,36.0811,36.08667,36.149757,36.291954,36.512848,36.79232,37.03235,37.259876,37.50435,37.79892,38.1491,38.54548,38.97975,39.33332,39.684486,40.04206,40.38698,40.708824,41.012657,41.29462,41.56218,41.81578,42.036083,42.20043,42.306984,42.374245,42.421875,42.46203,42.50377,42.53852,42.555595,42.54619,42.50322,42.42562,42.324883,42.1943,42.0418,41.898323,41.787766,41.705833,41.618465,41.4793,41.2117,40.75762,40.128033,39.090485,37.99337,37.317104,36.815125,36.729504,36.906822,37.49409,38.338142,39.446114,40.58358,41.18148,41.598274,41.846115,41.964653,42.003902,42.025246,42.072014,42.148335,42.232635,42.3179,42.395164,42.45866,42.510834,42.557117,42.600937,42.643486,42.687027,42.731903,42.775482,42.817444,42.8568,42.89238,42.925285,42.956436,42.98754,43.0179,43.048164,43.07979,43.112858,43.146317,43.182087,43.22216,43.268093,43.321312,43.38019,43.44036,43.497345,43.54779,43.592186,43.631935,43.6662,43.693832,43.71314,43.723938,43.729553,43.735733,43.74698,43.765976,43.792336,43.822456,43.852295,43.88016,43.906403,43.932514,43.95711,43.97872,43.996025,44.008484,44.016266,44.018757,44.016518,44.00925,43.997322,43.982773,43.968414,43.955994,43.946728,43.94119,43.938736,43.93737,43.93439,43.92787,43.91719,43.902824,43.883644,43.85946,43.829197,43.79239,43.749374,43.701103,43.649433,43.593613,43.53175,43.466106,43.399178,43.33285,43.2685,43.20726,43.14866,43.086517,43.018837,42.943123,42.856544,42.758926,42.65282,42.538788,42.412163,42.274483,42.13104,41.992393,41.865013,41.74862,41.645485,41.546494,41.44945,41.35414,41.2585,41.160763,41.061172,40.961967,40.8606,40.752502,40.63785,40.51951,40.402367,40.29046,40.185677
40.55943,40.54107,40.506927,40.454773,40.371883,40.25586,40.09215,39.879623,39.613995,39.290943,38.91328,38.44908,37.91236,37.380413,36.935966,36.628265,36.402657,36.121193,35.696945,34.96144,33.463722,31.664001,30.210888,29.30112,28.757626,28.513935,28.40135,28.403614,28.524992,28.908607,29.701485,30.823708,32.006676,33.389366,34.838493,35.574295,35.832268,35.998898,36.094078,36.127525,36.143616,36.21025,36.310146,36.412354,36.484,36.511642,36.506557,36.48503,36.44699,36.38945,36.31183,36.199574,36.06236,35.93238,35.80902,35.6876,35.56575,35.44561,35.325916,35.20814,35.097717,34.998848,34.910442,34.83293,34.771503,34.72485,34.691517,34.669807,34.654766,34.643894,34.639294,34.640614,34.64765,34.656067,34.659924,34.657436,34.65114,34.640594,34.62899,34.616817,34.603584,34.591267,34.585327,34.59096,34.60636,34.631676,34.66697,34.706245,34.74428,34.781906,34.821045,34.85703,34.894478,34.933243,34.973015,35.014984,35.059395,35.102627,35.14124,35.17684,35.205482,35.23075,35.25923,35.291824,35.323803,35.354485,35.37892,35.396286,35.41217,35.43331,35.46273,35.498795,35.537415,35.57849,35.620083,35.65715,35.6836,35.696167,35.698334,35.698273,35.70115,35.70975,35.724655,35.743736,35.765865,35.792423,35.825172,35.867123,35.921867,35.984966,36.050896,36.107147,36.142845,36.157917,36.156185,36.13745,36.117626,36.12245,36.19509,36.36345,36.623974,36.960957,37.205753,37.4583,37.742542,38.079308,38.474247,38.912224,39.36268,39.71164,40.08947,40.472935,40.8338,41.16892,41.484318,41.771915,42.039497,42.288574,42.49867,42.648945,42.740753,42.795616,42.834934,42.86982,42.906906,42.93603,42.943085,42.917217,42.851337,42.74592,42.61529,42.451927,42.269478,42.10363,41.979477,41.889557,41.79422,41.642685,41.35462,40.87478,40.15732,39.078327,37.95479,37.209583,36.75937,36.696724,36.92345,37.57569,38.47273,39.617104,40.773415,41.358326,41.755394,41.98442,42.09358,42.13365,42.159985,42.212753,42.296375,42.38315,42.468796,42.546364,42.611485,42.667385,42.719074,42.768646,42.81635,42.86464,42.913742,42.96104,43.00624,43.048077,43.085266,43.11931,43.15134,43.18399,43.217308,43.252426,43.290558,43.33083,43.371155,43.413445,43.459755,43.51181,43.57124,43.6364,43.7025,43.764618,43.819344,43.867043,43.90899,43.944473,43.97252,43.99176,44.00235,44.00786,44.01421,44.02617,44.046486,44.074944,44.107796,44.14068,44.171898,44.20166,44.231247,44.259224,44.283813,44.30352,44.31769,44.326393,44.329002,44.32598,44.31683,44.302086,44.284325,44.26686,44.251762,44.24068,44.234165,44.231155,44.229717,44.226753,44.219772,44.2081,44.192657,44.17221,44.14657,44.114494,44.075253,44.029003,43.976784,43.920883,43.86061,43.794304,43.724407,43.65381,43.584602,43.518036,43.455067,43.395107,43.331505,43.26213,43.18456,43.09604,42.9963,42.887646,42.77038,42.63938,42.495083,42.34292,42.19442,42.057182,41.931812,41.821346,41.71616,41.61442,41.51574,41.418015,41.31929,41.21933,41.12008,41.01881,40.91091,40.79637,40.678925,40.562843,40.450832,40.34503
40.805687,40.793327,40.76397,40.716274,40.636166,40.523254,40.35643,40.12432,39.830383,39.48465,39.089523,38.612152,38.07065,37.524864,37.053505,36.71831,36.47116,36.16877,35.73265,34.969536,33.48813,31.693544,30.23668,29.326439,28.765137,28.512459,28.391794,28.392551,28.522657,28.92857,29.7626,30.930927,32.135254,33.59853,35.015076,35.685066,35.914547,36.081535,36.16192,36.163902,36.184166,36.256287,36.36181,36.47035,36.548355,36.58101,36.579323,36.559254,36.519463,36.455887,36.375282,36.26573,36.122444,35.96863,35.829315,35.696022,35.561447,35.433025,35.30844,35.18625,35.072468,34.97229,34.884983,34.810738,34.75478,34.714592,34.687057,34.669197,34.655586,34.64417,34.638115,34.63788,34.64512,34.656277,34.665222,34.669586,34.670174,34.665833,34.658943,34.64953,34.637974,34.627068,34.622585,34.630898,34.649727,34.678913,34.71839,34.761295,34.80181,34.840603,34.879375,34.91442,34.95015,34.986664,35.024445,35.0654,35.11016,35.155197,35.196365,35.2352,35.266785,35.293316,35.3211,35.35143,35.3798,35.406204,35.425415,35.436047,35.44388,35.456535,35.478485,35.50955,35.545914,35.586376,35.628445,35.66616,35.69291,35.70598,35.709644,35.711864,35.71752,35.72934,35.74752,35.769176,35.7929,35.820274,35.853176,35.895317,35.950638,36.015434,36.08442,36.14428,36.18336,36.201427,36.201984,36.18489,36.169106,36.17817,36.262306,36.455795,36.75345,37.13993,37.39377,37.670822,37.991386,38.370674,38.81752,39.29879,39.743896,40.121185,40.530495,40.93466,41.313084,41.665154,41.99037,42.28263,42.547676,42.787003,42.982094,43.1148,43.19024,43.233124,43.265205,43.295227,43.327034,43.349144,43.344147,43.299294,43.2082,43.07322,42.91049,42.715958,42.505558,42.31893,42.182022,42.08373,41.97889,41.81318,41.501183,40.99424,40.18095,39.062023,37.908844,37.075775,36.682556,36.635674,36.922676,37.651814,38.60377,39.78222,40.957195,41.527435,41.90654,42.120583,42.22581,42.269775,42.305195,42.369637,42.461708,42.551414,42.63699,42.713753,42.77891,42.836876,42.892517,42.946804,42.999268,43.052486,43.106586,43.159004,43.209072,43.254963,43.29521,43.331642,43.365757,43.401154,43.43875,43.480377,43.52693,43.5764,43.62568,43.67628,43.730415,43.789696,43.85578,43.927002,43.99839,44.064896,44.123222,44.173973,44.2184,44.256104,44.286144,44.307117,44.319344,44.326332,44.33419,44.34767,44.369453,44.399475,44.433952,44.468494,44.501728,44.533764,44.565613,44.595833,44.622543,44.64415,44.659897,44.669624,44.672546,44.668945,44.658016,44.640335,44.61902,44.597847,44.579155,44.56515,44.556267,44.550953,44.547516,44.5427,44.533684,44.519848,44.502552,44.48046,44.45345,44.420162,44.379543,44.331383,44.276585,44.21767,44.154037,44.084213,44.01077,43.936844,43.86483,43.796047,43.73126,43.66983,43.604553,43.533184,43.453373,43.362644,43.260796,43.149815,43.029938,42.895287,42.745186,42.585037,42.426903,42.279335,42.144043,42.02481,41.91181,41.80365,41.699932,41.598732,41.49799,41.396877,41.29697,41.195274,41.08705,40.97209,40.854443,40.73755,40.62346,40.515434
41.06616,41.051346,41.01677,40.965534,40.884163,40.773876,40.61035,40.373173,40.06131,39.690063,39.271065,38.777153,38.21801,37.651016,37.160614,36.8051,36.532883,36.20923,35.763138,34.977554,33.50119,31.718884,30.27208,29.361906,28.783129,28.52289,28.394524,28.392963,28.530392,28.955618,29.827757,31.04322,32.27487,33.827175,35.15346,35.779358,36.015297,36.178093,36.2501,36.24896,36.266895,36.34027,36.44774,36.558067,36.636932,36.669044,36.665977,36.64364,36.599335,36.52922,36.435226,36.325245,36.188454,36.01912,35.864357,35.716362,35.56893,35.43145,35.301605,35.176044,35.059513,34.95824,34.871758,34.800106,34.748512,34.71341,34.69023,34.674927,34.66162,34.648605,34.6399,34.63697,34.643227,34.655937,34.668762,34.678677,34.685097,34.686234,34.68416,34.678726,34.670914,34.66362,34.66233,34.67417,34.696793,34.72995,34.773712,34.82061,34.864067,34.90435,34.942856,34.977043,35.011147,35.04559,35.081604,35.12154,35.166252,35.21236,35.255157,35.29638,35.33029,35.35785,35.38492,35.41293,35.437515,35.45936,35.473167,35.477276,35.47754,35.48227,35.49723,35.52356,35.55802,35.598824,35.64331,35.684677,35.715218,35.73185,35.738884,35.74389,35.75183,35.765587,35.785126,35.807335,35.83086,35.85738,35.88877,35.92929,35.982975,36.04721,36.117165,36.179077,36.220665,36.241375,36.244118,36.229275,36.217796,36.234604,36.329285,36.539062,36.862633,37.278587,37.561314,37.86223,38.2063,38.62217,39.124783,39.657887,40.113487,40.52839,40.96679,41.39209,41.78839,42.15352,42.483227,42.77346,43.030777,43.257187,43.436794,43.554157,43.6173,43.652657,43.68097,43.70823,43.735558,43.750484,43.73291,43.66896,43.553772,43.39135,43.197525,42.97678,42.743073,42.53794,42.38825,42.279694,42.16227,41.97963,41.638264,41.102737,40.19374,39.014618,37.831833,36.941536,36.574047,36.554897,36.910133,37.724976,38.73507,39.943874,41.133087,41.686947,42.051025,42.25387,42.360184,42.412186,42.461586,42.54289,42.64508,42.738487,42.823868,42.89877,42.96212,43.019836,43.07707,43.134037,43.18988,43.247314,43.306343,43.364544,43.420624,43.472034,43.517105,43.557796,43.59603,43.636467,43.68069,43.731083,43.7882,43.848877,43.90883,43.96904,44.03183,44.098404,44.170334,44.24592,44.320374,44.389145,44.449203,44.5017,44.54827,44.58886,44.622498,44.647377,44.663414,44.673927,44.68502,44.70118,44.724693,44.755413,44.789726,44.823673,44.8564,44.888176,44.91977,44.949905,44.97682,44.999023,45.01576,45.02663,45.030468,45.027275,45.015675,44.996178,44.97229,44.94802,44.925793,44.908424,44.89612,44.88697,44.879555,44.870804,44.857914,44.840508,44.820343,44.796204,44.767883,44.734215,44.693768,44.645718,44.59057,44.530823,44.465866,44.394382,44.318893,44.242584,44.16812,44.097046,44.030045,43.966537,43.89898,43.82498,43.74228,43.648876,43.544853,43.432068,43.31073,43.174072,43.020313,42.854404,42.68844,42.531616,42.38678,42.2584,42.136658,42.020588,41.91008,41.80359,41.699062,41.595222,41.493282,41.389835,41.280067,41.163696,41.04375,40.923744,40.806633,40.695698
41.296665,41.279964,41.23815,41.178825,41.088417,40.964973,40.795425,40.57378,40.277042,39.893867,39.450153,38.936073,38.3593,37.768463,37.257477,36.881546,36.583908,36.24013,35.785393,34.979767,33.498928,31.73499,30.309866,29.402054,28.80941,28.543663,28.40858,28.404285,28.547766,28.988224,29.890015,31.149391,32.424408,34.057228,35.303757,35.886543,36.124584,36.281113,36.351982,36.374,36.388,36.460373,36.567127,36.67537,36.750057,36.776234,36.76655,36.737667,36.6854,36.605522,36.49952,36.378517,36.238594,36.070633,35.9003,35.74264,35.58351,35.43535,35.29984,35.17218,35.05355,34.95125,34.86498,34.79468,34.745667,34.71359,34.69291,34.678856,34.665306,34.65071,34.639492,34.634087,34.639214,34.652885,34.668633,34.6828,34.693848,34.699715,34.7025,34.702374,34.70041,34.69886,34.702404,34.7184,34.74492,34.781822,34.829517,34.880196,34.92639,34.96767,35.005386,35.038193,35.07029,35.102512,35.13665,35.17524,35.219105,35.265076,35.30818,35.350494,35.38592,35.414413,35.4412,35.46751,35.488934,35.50675,35.515816,35.51447,35.50847,35.506454,35.515236,35.537125,35.56967,35.611217,35.65925,35.706337,35.743267,35.76577,35.777554,35.7855,35.79477,35.808777,35.82746,35.848125,35.86982,35.894123,35.92269,35.96019,36.01041,36.072075,36.141136,36.203552,36.24648,36.26901,36.273262,36.26031,36.252724,36.276802,36.377174,36.592125,36.9261,37.349594,37.68441,38.007008,38.360653,38.804787,39.36193,39.955635,40.4495,40.89956,41.365738,41.81237,42.22135,42.589058,42.91333,43.193314,43.438354,43.651264,43.81871,43.92755,43.98651,44.021164,44.050583,44.078392,44.103447,44.112663,44.083992,44.003586,43.86841,43.683636,43.464813,43.223885,42.97234,42.752197,42.59053,42.47034,42.3376,42.134544,41.760372,41.195526,40.202656,38.925488,37.69674,36.815536,36.47326,36.48294,36.898422,37.802914,38.876453,40.110382,41.30461,41.83996,42.192146,42.386894,42.497303,42.561752,42.628944,42.72879,42.842438,42.940147,43.025284,43.097504,43.1575,43.21286,43.26931,43.326675,43.384068,43.44436,43.50743,43.571045,43.633255,43.690834,43.741955,43.788544,43.832798,43.880554,43.933723,43.99479,44.06398,44.13707,44.208374,44.278625,44.34991,44.422874,44.49884,44.576256,44.65102,44.719505,44.77899,44.8314,44.879215,44.92277,44.960953,44.991264,45.012817,45.028522,45.04429,45.064156,45.08953,45.120056,45.15249,45.183533,45.21308,45.241898,45.270435,45.297897,45.322845,45.344093,45.361053,45.37303,45.378334,45.376762,45.366364,45.347126,45.32256,45.296726,45.27199,45.251602,45.23562,45.22178,45.2091,45.194977,45.17685,45.15467,45.13088,45.104294,45.074722,45.041397,45.002457,44.95633,44.903023,44.844673,44.780495,44.709354,44.633453,44.555923,44.479557,44.40606,44.336426,44.27025,44.19986,44.122635,44.036556,43.94018,43.834045,43.720146,43.598648,43.462086,43.307335,43.138508,42.967392,42.803528,42.65049,42.513504,42.382896,42.258152,42.139565,42.026123,41.916008,41.80771,41.702137,41.59534,41.482468,41.363255,41.240482,41.116776,40.99517,40.880432
41.484547,41.458908,41.40776,41.340794,41.24086,41.106934,40.925484,40.690666,40.401096,40.042576,39.59583,39.06378,38.472626,37.857536,37.331467,36.94262,36.62239,36.261803,35.799465,34.975967,33.48549,31.744247,30.348051,29.445236,28.844246,28.575424,28.435179,28.428028,28.576199,29.028778,29.949612,31.245775,32.588448,34.291183,35.456814,36.001755,36.245117,36.393982,36.46565,36.5232,36.539047,36.60961,36.714294,36.818443,36.885223,36.9002,36.877823,36.83763,36.773453,36.680145,36.559906,36.42357,36.274673,36.10632,35.921127,35.754803,35.58919,35.432533,35.291702,35.163475,35.04429,34.942207,34.857086,34.788826,34.74268,34.71376,34.695877,34.68381,34.671165,34.656456,34.644104,34.637367,34.641773,34.655945,34.67366,34.69088,34.70538,34.71518,34.722572,34.728184,34.732918,34.73798,34.746986,34.767136,34.797176,34.837143,34.887917,34.941437,34.989517,35.03107,35.06734,35.098198,35.127884,35.157547,35.18949,35.226166,35.268234,35.31295,35.355225,35.39759,35.43377,35.462975,35.489803,35.515114,35.534374,35.549225,35.555016,35.55017,35.540176,35.533775,35.53831,35.556942,35.588085,35.630592,35.682266,35.735294,35.77884,35.807167,35.8232,35.8331,35.842342,35.85508,35.871315,35.88905,35.907772,35.92882,35.953598,35.98703,36.032593,36.090385,36.157284,36.219276,36.263054,36.287163,36.292717,36.28166,36.27772,36.308037,36.410774,36.625027,36.95857,37.36596,37.77687,38.120132,38.48068,38.949455,39.554962,40.21409,40.75607,41.247677,41.740765,42.20313,42.617958,42.981255,43.293007,43.557243,43.786903,43.98541,44.142475,44.24665,44.30606,44.34416,44.37766,44.408386,44.433094,44.43824,44.40059,44.307274,44.1556,43.951157,43.715233,43.45923,43.19362,42.96145,42.789375,42.657852,42.509434,42.28414,41.878925,41.286514,40.21999,38.83914,37.5654,36.722977,36.408493,36.431854,36.89338,37.896324,39.043312,40.29633,41.48443,41.998363,42.33616,42.524544,42.63892,42.715523,42.800385,42.918087,43.042915,43.144787,43.229607,43.298958,43.35525,43.407745,43.462738,43.519802,43.5782,43.640884,43.707718,43.77661,43.84504,43.909172,43.96704,44.02057,44.07201,44.128296,44.191315,44.263573,44.344826,44.429874,44.512028,44.591743,44.670868,44.749313,44.827873,44.905563,44.97926,45.04586,45.10321,45.15418,45.20214,45.24784,45.289955,45.325294,45.352127,45.372856,45.393246,45.416626,45.44355,45.47332,45.502968,45.529945,45.555107,45.57968,45.60387,45.62732,45.648926,45.668045,45.684364,45.696724,45.70245,45.702374,45.694336,45.67694,45.652973,45.626686,45.600643,45.578148,45.55927,45.541374,45.523903,45.504753,45.481754,45.455284,45.428215,45.399437,45.368946,45.336334,45.299385,45.255905,45.20536,45.149364,45.08703,45.017338,44.942043,44.864216,44.78664,44.71118,44.63931,44.57083,44.49803,44.418175,44.329304,44.230576,44.123055,44.008797,43.88801,43.752644,43.59829,43.4281,43.253334,43.083725,42.923523,42.7785,42.639393,42.505928,42.378853,42.25777,42.14112,42.027206,41.91674,41.80538,41.688007,41.564545,41.437958,41.31087,41.18553,41.06566
41.631752,41.59945,41.537178,41.459053,41.34715,41.20202,41.00975,40.766632,40.471092,40.12011,39.703064,39.15634,38.554714,37.924007,37.38714,36.986496,36.64725,36.27227,35.80134,34.956795,33.445972,31.733395,30.378916,29.490086,28.89286,28.618986,28.470173,28.462221,28.615265,29.07717,30.015533,31.350334,32.765816,34.56035,35.630226,36.131264,36.380894,36.523483,36.587097,36.6474,36.71293,36.79612,36.885014,36.962868,37.010567,37.02235,37.00547,36.954346,36.87309,36.760452,36.620872,36.466263,36.302654,36.1233,35.923943,35.749596,35.58005,35.418434,35.27493,35.147835,35.02996,34.929737,34.84699,34.782005,34.73989,34.715332,34.701664,34.693428,34.684006,34.671494,34.66012,34.653717,34.65786,34.67192,34.69046,34.709305,34.726192,34.7393,34.751328,34.76345,34.776054,34.78898,34.80455,34.829144,34.862625,34.905174,34.958054,35.013268,35.062004,35.102432,35.136013,35.16394,35.190388,35.216747,35.24559,35.27918,35.318058,35.359947,35.400017,35.441246,35.47745,35.50731,35.534607,35.55964,35.57781,35.59102,35.595215,35.589275,35.57798,35.56974,35.572052,35.588463,35.618393,35.66159,35.716232,35.77439,35.82367,35.856792,35.875866,35.886406,35.89425,35.904373,35.916885,35.930702,35.945625,35.962418,35.982246,36.010254,36.04956,36.10182,36.1652,36.225822,36.26982,36.295067,36.30138,36.291687,36.29062,36.325775,36.429695,36.639194,36.961582,37.3414,37.811646,38.210968,38.59796,39.08905,39.748573,40.48578,41.082947,41.621468,42.14068,42.61474,43.02851,43.3787,43.670223,43.912918,44.123295,44.30597,44.45288,44.553818,44.616302,44.661118,44.701584,44.7379,44.764816,44.767982,44.723915,44.619755,44.453114,44.232124,43.983932,43.715904,43.43889,43.197025,43.01593,42.873177,42.708065,42.458584,42.01928,41.39705,40.252125,38.784904,37.47995,36.659103,36.374687,36.43312,36.93857,38.03815,39.267456,40.53309,41.69399,42.191765,42.50882,42.688484,42.80309,42.890938,42.994347,43.129723,43.266045,43.372253,43.456917,43.52349,43.576088,43.625717,43.679283,43.73607,43.795517,43.860703,43.93151,44.00605,44.08131,44.152916,44.218746,44.2806,44.340862,44.407402,44.481873,44.566193,44.659897,44.757206,44.84951,44.934135,45.017757,45.099712,45.180084,45.257217,45.328613,45.392845,45.44815,45.498325,45.546455,45.59307,45.637623,45.677032,45.708557,45.733917,45.75847,45.785057,45.813126,45.84149,45.867523,45.889458,45.909084,45.928215,45.94683,45.96479,45.98163,45.997105,46.01104,46.02253,46.029163,46.03074,46.0249,46.00998,45.98793,45.96253,45.93657,45.91339,45.892853,45.87227,45.85135,45.828403,45.80163,45.771744,45.742126,45.711792,45.68078,45.649246,45.614746,45.574493,45.52742,45.4746,45.41488,45.34745,45.273567,45.196083,45.117775,45.040733,44.966946,44.89659,44.82202,44.740265,44.649445,44.54916,44.44089,44.32683,44.207397,44.07364,43.920403,43.749832,43.57222,43.397194,43.229774,43.076416,42.928352,42.785446,42.64904,42.51927,42.394768,42.273727,42.15684,42.03937,41.915855,41.786552,41.654694,41.522842,41.39283,41.26794
41.72155,41.682564,41.607788,41.516594,41.391533,41.235428,41.034676,40.787125,40.488777,40.1427,39.746803,39.19583,38.59988,37.96019,37.41983,37.01635,36.663315,36.27856,35.800205,34.92936,33.38044,31.70103,30.402817,29.535315,28.95102,28.669613,28.514236,28.50777,28.664503,29.133457,30.089317,31.465187,32.951103,34.76478,35.79358,36.27806,36.526367,36.662212,36.720387,36.77442,36.85418,36.939285,37.019615,37.083916,37.119644,37.123993,37.105034,37.0626,36.96441,36.828003,36.665405,36.491493,36.30793,36.105984,35.89531,35.71503,35.542755,35.384087,35.24496,35.12143,35.008423,34.91317,34.83554,34.776443,34.74054,34.72232,34.715034,34.713066,34.709553,34.701794,34.69371,34.68907,34.692825,34.705345,34.722637,34.740875,34.75827,34.773346,34.789215,34.807648,34.82836,34.84967,34.872383,34.901634,34.93845,34.983078,35.037132,35.092857,35.14104,35.179375,35.209694,35.23445,35.25759,35.280647,35.306053,35.335735,35.370186,35.40775,35.444206,35.482918,35.51799,35.54783,35.57545,35.60054,35.61839,35.631042,35.63525,35.630394,35.620487,35.61331,35.616035,35.632156,35.66191,35.706345,35.76378,35.82637,35.880306,35.916695,35.936832,35.945923,35.95027,35.955765,35.962875,35.971527,35.981697,35.993355,36.007233,36.028557,36.060093,36.105247,36.163647,36.221893,36.265747,36.292168,36.29975,36.292236,36.29448,36.333626,36.440758,36.644527,36.947166,37.30808,37.743935,38.242035,38.70646,39.23123,39.95302,40.777477,41.42675,42.008553,42.55417,43.036026,43.440475,43.768555,44.03192,44.24739,44.435135,44.600945,44.738335,44.836536,44.902912,44.957367,45.00938,45.05478,45.087673,45.093212,45.045868,44.932587,44.75492,44.525276,44.269314,43.993355,43.7088,43.4608,43.27298,43.119335,42.93611,42.65947,42.182423,41.526524,40.30567,38.766518,37.44027,36.63205,36.366737,36.4494,37.02195,38.236534,39.557873,40.831913,41.94921,42.42523,42.72014,42.88791,42.998264,43.09439,43.214737,43.366386,43.513588,43.62397,43.708775,43.772987,43.822365,43.86965,43.92218,43.978817,44.039333,44.106834,44.18143,44.26137,44.3433,44.422497,44.49674,44.5677,44.637833,44.71568,44.80225,44.898827,45.003937,45.109577,45.206062,45.29631,45.384132,45.468727,45.549835,45.6253,45.693108,45.753273,45.804523,45.85131,45.89774,45.94443,45.990757,46.033188,46.068058,46.096565,46.124123,46.152107,46.179565,46.20526,46.227135,46.24428,46.258835,46.272873,46.285583,46.297413,46.308624,46.319626,46.33082,46.341484,46.348576,46.351406,46.347164,46.33423,46.314735,46.29193,46.26774,46.245575,46.22515,46.203785,46.181297,46.15638,46.127552,46.095795,46.06485,46.033714,46.002712,45.97249,45.940483,45.903534,45.860176,45.810963,45.75451,45.69005,45.61836,45.541992,45.463577,45.385506,45.31042,45.238922,45.163567,45.081154,44.98964,44.889008,44.781155,44.668262,44.55082,44.419125,44.267513,44.097595,43.918373,43.738808,43.564636,43.403374,43.246647,43.094284,42.948288,42.80922,42.67576,42.546158,42.421402,42.296326,42.16504,42.028282,41.889668,41.751755,41.616035,41.485535
41.741196,41.693783,41.60442,41.498505,41.359142,41.19149,40.984314,40.734085,40.44042,40.096382,39.683285,39.14912,38.549698,37.92424,37.41298,37.023434,36.664124,36.275726,35.786964,34.90452,33.2917,31.641552,30.41448,29.574389,29.01099,28.722387,28.563282,28.556564,28.71497,29.190695,30.16487,31.58086,33.128986,34.937744,35.94476,36.42198,36.666145,36.794853,36.84938,36.89579,36.967075,37.046005,37.120934,37.178482,37.205494,37.199074,37.17016,37.131035,37.01145,36.850365,36.665745,36.477604,36.27243,36.033215,35.816772,35.632942,35.462345,35.315483,35.187847,35.071793,34.96907,34.884,34.81633,34.767708,34.741974,34.733658,34.736137,34.74375,34.749405,34.74913,34.746635,34.74466,34.747025,34.75535,34.76793,34.78208,34.79709,34.811844,34.829933,34.853333,34.881138,34.910328,34.940063,34.974056,35.014256,35.06073,35.11512,35.17021,35.216965,35.253036,35.280758,35.303673,35.32528,35.346794,35.370056,35.39637,35.42617,35.45852,35.490105,35.524525,35.55652,35.584526,35.61111,35.63555,35.653057,35.66553,35.670692,35.668404,35.66212,35.65892,35.665207,35.683876,35.715485,35.76231,35.822845,35.889206,35.946426,35.984283,36.00332,36.00869,36.007416,36.006252,36.006336,36.008736,36.013496,36.01958,36.027092,36.04126,36.064564,36.10219,36.155426,36.2118,36.256798,36.28616,36.29728,36.294388,36.301704,36.34563,36.457497,36.65692,36.940323,37.28927,37.679905,38.190945,38.775085,39.40676,40.192642,41.106247,41.786964,42.405785,42.977577,43.46325,43.850445,44.149326,44.380703,44.567894,44.73269,44.87921,45.003235,45.09552,45.164368,45.228348,45.292953,45.350998,45.394203,45.405357,45.357815,45.24015,45.05757,44.8247,44.565483,44.286385,43.998695,43.74785,43.555096,43.39068,43.187855,42.881622,42.364384,41.671585,40.38503,38.78904,37.443512,36.63382,36.37242,36.484318,37.167145,38.495533,39.91751,41.202843,42.242508,42.69277,42.96309,43.11505,43.216515,43.31638,43.4497,43.6146,43.7709,43.88468,43.970005,44.03298,44.08088,44.127815,44.181114,44.238922,44.301285,44.371387,44.44961,44.534477,44.6225,44.708782,44.791092,44.87097,44.95076,45.03931,45.136913,45.24341,45.35469,45.4629,45.56231,45.65692,45.74772,45.833755,45.914547,45.987755,46.051758,46.107513,46.15418,46.196648,46.239784,46.284428,46.329865,46.3724,46.408096,46.437653,46.466118,46.49453,46.52144,46.54534,46.56458,46.578762,46.589916,46.599506,46.607384,46.613983,46.619953,46.626366,46.63426,46.643097,46.649277,46.65226,46.649117,46.638176,46.62159,46.60218,46.581062,46.561363,46.54287,46.522957,46.501434,46.477093,46.44861,46.41711,46.386368,46.355507,46.325047,46.29605,46.266,46.231667,46.191475,46.14547,46.09223,46.03077,45.96153,45.886738,45.808792,45.730335,45.6548,45.583035,45.50798,45.4264,45.33607,45.23696,45.130962,45.020176,44.90515,44.775696,44.625862,44.456863,44.276592,44.09352,43.91404,43.746254,43.58216,43.4215,43.266815,43.118843,42.976204,42.83738,42.703804,42.570145,42.429962,42.284622,42.13828,41.99346,41.851303,41.71472
41.701088,41.64378,41.538265,41.416462,41.26178,41.081993,40.866272,40.6127,40.32128,39.969383,39.529766,39.03404,38.409054,37.82065,37.37333,37.011925,36.65142,36.26253,35.74669,34.82109,33.168213,31.568943,30.415668,29.606606,29.068127,28.774712,28.612835,28.601727,28.759895,29.244263,30.23919,31.692417,33.29176,35.119118,36.086464,36.5469,36.788284,36.9095,36.958893,36.996407,37.06167,37.133255,37.199257,37.24624,37.262142,37.245426,37.204453,37.14171,37.000107,36.819496,36.62007,36.418056,36.187828,35.91648,35.698944,35.515213,35.356133,35.223866,35.10799,35.00358,34.915707,34.845276,34.79164,34.75714,34.74446,34.74839,34.76272,34.781864,34.798573,34.80738,34.811893,34.813107,34.81343,34.815853,34.82138,34.829063,34.839603,34.852207,34.870834,34.89724,34.930077,34.965385,35.000793,35.038757,35.08169,35.12934,35.183067,35.23637,35.28109,35.31527,35.341656,35.364697,35.387207,35.409664,35.432884,35.457325,35.483246,35.510468,35.536686,35.565544,35.59265,35.616806,35.640533,35.663113,35.679764,35.692013,35.698486,35.699516,35.698273,35.701145,35.71351,35.737278,35.772655,35.82286,35.8867,35.956028,36.01522,36.053154,36.069794,36.070335,36.062553,36.053955,36.04645,36.04225,36.041412,36.041817,36.042973,36.049934,36.06514,36.095413,36.1438,36.19922,36.247047,36.28147,36.29898,36.30388,36.31898,36.37012,36.487804,36.685898,36.957016,37.293068,37.672436,38.129112,38.773785,39.552704,40.46502,41.453087,42.148907,42.800602,43.396675,43.88217,44.24636,44.512245,44.71194,44.87336,45.016,45.142265,45.25096,45.33585,45.4066,45.48014,45.558502,45.632812,45.690987,45.71232,45.66948,45.552856,45.369316,45.134544,44.87452,44.595028,44.306564,44.053642,43.85462,43.676033,43.44845,43.106647,42.544422,41.809963,40.462955,38.817665,37.452553,36.637367,36.383957,36.542267,37.35933,38.788536,40.32125,41.623962,42.553673,42.978497,43.2223,43.3564,43.446663,43.547215,43.690228,43.86572,44.029408,44.145966,44.23219,44.29503,44.34311,44.391476,44.447075,44.507225,44.572,44.64474,44.72614,44.815056,44.90814,45.00054,45.09006,45.177963,45.26632,45.36387,45.470383,45.58154,45.69297,45.80126,45.903038,45.99839,46.08941,46.17467,46.253525,46.3236,46.383648,46.43525,46.477837,46.516438,46.555634,46.596256,46.63801,46.67771,46.711617,46.740234,46.767815,46.796127,46.82309,46.846764,46.86531,46.87809,46.886955,46.893593,46.89849,46.901638,46.903774,46.906433,46.91104,46.917297,46.921867,46.924347,46.9221,46.913418,46.89987,46.883816,46.866234,46.849724,46.83419,46.817307,46.798695,46.776962,46.75076,46.721146,46.691795,46.662083,46.632523,46.604477,46.57566,46.543087,46.50521,46.46176,46.41135,46.352642,46.285835,46.21289,46.13594,46.05787,45.9828,45.91167,45.837852,45.758392,45.671005,45.575268,45.472588,45.364845,45.252808,45.12599,44.97831,44.81066,44.630234,44.44543,44.263058,44.09105,43.921722,43.75479,43.593147,43.43743,43.28618,43.13819,42.9955,42.85286,42.703293,42.54895,42.394608,42.242683,42.094036,41.951527
41.631397,41.56457,41.443264,41.305435,41.135357,40.940727,40.71173,40.455902,40.156624,39.787445,39.356556,38.880653,38.249996,37.709343,37.32759,36.996727,36.637856,36.245888,35.68409,34.649532,33.01974,31.508446,30.417343,29.63871,29.12249,28.826572,28.661383,28.643606,28.80031,29.296091,30.314034,31.80038,33.44537,35.298874,36.21503,36.652473,36.89104,37.004044,37.04701,37.074516,37.132103,37.194546,37.24991,37.2853,37.289856,37.264137,37.21039,37.104572,36.94951,36.758923,36.5546,36.333275,36.074043,35.79538,35.579006,35.401405,35.258255,35.13533,35.026703,34.935696,34.86402,34.8095,34.770847,34.750824,34.750744,34.76597,34.791138,34.820915,34.848015,34.865685,34.877464,34.88243,34.8816,34.879166,34.878544,34.88038,34.88668,34.896957,34.9151,34.942543,34.97774,35.016216,35.054558,35.094353,35.137993,35.18499,35.236435,35.28663,35.328674,35.361305,35.38733,35.41186,35.436897,35.462036,35.486965,35.511124,35.534477,35.557533,35.578987,35.602196,35.62371,35.64287,35.66259,35.682503,35.697968,35.7101,35.71823,35.722916,35.72731,35.737167,35.756767,35.786884,35.82695,35.880814,35.94757,36.01882,36.078842,36.116196,36.13033,36.126534,36.113167,36.09803,36.08381,36.073612,36.067398,36.062275,36.0574,36.057365,36.064915,36.088295,36.132057,36.186913,36.23851,36.279366,36.305534,36.321144,36.346992,36.408356,36.533752,36.733818,36.99865,37.319603,37.68251,38.127907,38.72641,39.60177,40.711304,41.764633,42.484753,43.168182,43.78431,44.265724,44.60485,44.83811,45.008873,45.148064,45.269955,45.37887,45.4761,45.556873,45.632088,45.71872,45.816223,45.91183,45.99095,46.029957,45.998367,45.8857,45.700798,45.46277,45.200523,44.919243,44.62863,44.371117,44.1612,43.960754,43.697834,43.309765,42.696144,41.91563,40.502678,38.799866,37.417786,36.61755,36.390266,36.603798,37.54556,39.07184,40.724556,42.047306,42.858658,43.261597,43.48059,43.59812,43.678345,43.779736,43.9317,44.11692,44.28734,44.406677,44.494118,44.55715,44.605656,44.65542,44.713013,44.77511,44.841736,44.916206,44.999645,45.09117,45.187767,45.284927,45.380447,45.475113,45.57064,45.675255,45.787254,45.898087,46.007324,46.115738,46.21561,46.308712,46.397224,46.479176,46.5539,46.619293,46.67451,46.721546,46.75998,46.794567,46.829575,46.86579,46.903233,46.939064,46.969795,46.99619,47.022102,47.049072,47.075226,47.09857,47.116913,47.12902,47.13643,47.14245,47.146233,47.14776,47.14795,47.148655,47.15149,47.15631,47.1601,47.162613,47.1614,47.15487,47.144157,47.131165,47.116737,47.103287,47.090714,47.077164,47.061916,47.04341,47.020126,46.99288,46.96537,46.937008,46.90841,46.881012,46.852894,46.821434,46.785225,46.743877,46.69599,46.639877,46.57553,46.504715,46.42932,46.352364,46.27851,46.208733,46.136765,46.060165,45.97663,45.88536,45.787224,45.68367,45.57557,45.452385,45.307983,45.143078,44.96453,44.7806,44.598114,44.42466,44.252697,44.0819,43.915302,43.753326,43.594444,43.43792,43.286465,43.13507,42.976326,42.813297,42.651306,42.492714,42.338173,42.19039
41.562035,41.487225,41.35161,41.198067,41.013096,40.79502,40.552,40.299564,39.9902,39.606636,39.20736,38.66996,38.11612,37.637226,37.2904,36.98257,36.63153,36.230743,35.626396,34.502502,32.902775,31.468716,30.429424,29.676805,29.17561,28.879171,28.709938,28.685917,28.840523,29.350021,30.389324,31.901484,33.600803,35.475838,36.332767,36.743942,36.979782,37.084187,37.119797,37.137,37.186108,37.23867,37.282814,37.30664,37.300537,37.267174,37.201824,37.0502,36.888107,36.695274,36.492546,36.25582,35.97322,35.697144,35.48442,35.319496,35.17846,35.05761,34.956146,34.876747,34.820072,34.78055,34.755806,34.748642,34.758965,34.782978,34.816498,34.854675,34.890347,34.91583,34.934616,34.9441,34.944115,34.939613,34.935753,34.934372,34.93816,34.94702,34.9644,34.991234,35.0261,35.06452,35.10248,35.14131,35.18293,35.22677,35.27378,35.319363,35.35804,35.389153,35.415367,35.442085,35.470436,35.49923,35.52708,35.552383,35.5747,35.594994,35.61277,35.631027,35.647118,35.66105,35.676437,35.69352,35.707825,35.7203,35.730583,35.739136,35.749275,35.766224,35.793213,35.82995,35.87496,35.932262,36.001198,36.073204,36.133026,36.169502,36.181717,36.174778,36.15753,36.137543,36.118088,36.102932,36.091904,36.081703,36.071568,36.065483,36.066628,36.084488,36.12474,36.179955,36.236423,36.28514,36.32193,36.350636,36.389782,36.463917,36.59887,36.802635,37.06337,37.368423,37.710808,38.139065,38.71053,39.626198,40.853676,42.008022,42.778893,43.49559,44.126137,44.60016,44.916077,45.121178,45.26747,45.388676,45.49444,45.590176,45.678738,45.75833,45.842125,45.947144,46.070274,46.194443,46.302147,46.365486,46.349392,46.241722,46.05338,45.808037,45.539246,45.251724,44.954796,44.68851,44.462685,44.232155,43.9221,43.478065,42.812023,41.98262,40.495674,38.718338,37.32374,36.570145,36.369503,36.645733,37.700684,39.32389,41.09759,42.438744,43.137024,43.52607,43.72342,43.826996,43.900116,44.004196,44.165672,44.360718,44.537888,44.660217,44.748966,44.81192,44.86012,44.910202,44.96855,45.031296,45.098663,45.173695,45.257843,45.35048,45.44904,45.549465,45.649544,45.74952,45.850624,45.96044,46.07251,46.18237,46.290527,46.3956,46.491673,46.580643,46.66475,46.74167,46.810806,46.870476,46.920288,46.96247,46.996704,47.027184,47.057945,47.09001,47.123375,47.15532,47.1827,47.20656,47.230316,47.25469,47.278767,47.300766,47.318733,47.33164,47.34028,47.347008,47.35128,47.35289,47.353134,47.35402,47.357018,47.362095,47.366432,47.370003,47.37032,47.366043,47.357857,47.347233,47.33522,47.32406,47.31389,47.303043,47.29075,47.275158,47.25453,47.22957,47.20372,47.17648,47.14862,47.121605,47.093697,47.06275,47.027664,46.98786,46.942085,46.888184,46.82618,46.75766,46.68416,46.608753,46.53663,46.46853,46.39852,46.324917,46.24534,46.158802,46.065964,45.967793,45.864677,45.7462,45.60646,45.445984,45.271233,45.09034,44.910057,44.73758,44.565437,44.393127,44.22348,44.056747,43.891544,43.727615,43.56832,43.409073,43.242043,43.07116,42.90234,42.73791,42.578262,42.42594
41.494514,41.41181,41.261448,41.090492,40.881767,40.641716,40.38697,40.115536,39.803474,39.4291,38.995247,38.503975,38.018093,37.588318,37.266537,36.97058,36.622875,36.209686,35.563305,34.38542,32.81594,31.446606,30.456717,29.73109,29.23994,28.94071,28.765465,28.734089,28.885258,29.409588,30.470562,32.011024,33.779697,35.608913,36.435936,36.836708,37.065056,37.15892,37.184593,37.190224,37.229305,37.270523,37.302006,37.3133,37.29975,37.246063,37.133705,36.97889,36.8179,36.62715,36.432354,36.18425,35.878822,35.607063,35.401844,35.2452,35.10662,34.988365,34.8935,34.82521,34.782875,34.75759,34.745773,34.749874,34.768543,34.799103,34.838875,34.883698,34.926567,34.959316,34.985382,35.000793,35.004288,35.00096,34.996902,34.994667,34.99742,35.00555,35.02187,35.046844,35.07921,35.11473,35.149384,35.184566,35.22137,35.259407,35.29963,35.338665,35.37268,35.40173,35.42816,35.457317,35.489433,35.522575,35.55433,35.58189,35.604195,35.622635,35.63737,35.651016,35.66172,35.670345,35.681416,35.69599,35.709953,35.723927,35.737606,35.75129,35.768356,35.793488,35.82875,35.872612,35.922737,35.982967,36.052956,36.12432,36.18277,36.217922,36.228767,36.21994,36.20041,36.177124,36.153538,36.13375,36.117645,36.101944,36.086227,36.074097,36.06929,36.08239,36.12014,36.176872,36.239517,36.297718,36.347088,36.39125,36.446762,36.537415,36.685707,36.89607,37.15454,37.445473,37.76383,38.164932,38.720146,39.60385,40.889168,42.239594,43.06935,43.826256,44.472054,44.93862,45.232075,45.410168,45.53341,45.63801,45.7287,45.811268,45.891518,45.972828,46.07128,46.203346,46.36285,46.527054,46.674156,46.77189,46.776993,46.674053,46.477325,46.2172,45.934364,45.63453,45.326317,45.048126,44.795994,44.519234,44.150948,43.640602,42.92018,41.906776,40.29173,38.512238,37.17508,36.475586,36.33538,36.701065,37.85412,39.575035,41.472626,42.82994,43.419952,43.79953,43.976547,44.067574,44.136604,44.245937,44.418213,44.62371,44.80775,44.932976,45.02272,45.08473,45.131226,45.17982,45.23707,45.298943,45.365726,45.44003,45.52354,45.61595,45.71527,45.817932,45.92169,46.026073,46.131767,46.24531,46.356804,46.464134,46.56875,46.66852,46.75895,46.842026,46.91996,46.99016,47.052296,47.105118,47.148613,47.185295,47.214947,47.24077,47.266808,47.29451,47.32393,47.351162,47.372658,47.391712,47.410828,47.43228,47.454906,47.476845,47.4961,47.511147,47.521942,47.530518,47.53642,47.539623,47.541534,47.544174,47.548904,47.555523,47.561455,47.56692,47.569336,47.56743,47.561485,47.55278,47.54268,47.533325,47.52498,47.516533,47.50695,47.49416,47.476242,47.453594,47.42949,47.40348,47.37639,47.34955,47.32154,47.290718,47.25625,47.217575,47.173607,47.121765,47.06221,46.996357,46.92546,46.852615,46.783157,46.717537,46.650093,46.57991,46.504707,46.423447,46.336746,46.24513,46.14824,46.03574,45.901997,45.747475,45.57834,45.40236,45.22609,45.056595,44.88627,44.714256,44.543015,44.37275,44.202267,44.03181,43.865417,43.69886,43.523933,43.34553,43.17019,43.000153,42.835526,42.678787
41.43615,41.34633,41.180775,40.99081,40.759125,40.49524,40.220497,39.954247,39.650696,39.267754,38.84886,38.426933,37.993996,37.597054,37.28619,36.9796,36.61258,36.18273,35.495895,34.312202,32.77717,31.45692,30.509813,29.80965,29.322254,29.015343,28.829742,28.788301,28.934723,29.470547,30.552612,32.128456,33.969383,35.72666,36.53634,36.932068,37.149628,37.230167,37.24225,37.23558,37.26368,37.29277,37.311127,37.31021,37.289,37.212368,37.0508,36.901894,36.74656,36.56292,36.367985,36.102753,35.78038,35.517326,35.3296,35.178967,35.04441,34.930943,34.8435,34.786083,34.756935,34.7443,34.743256,34.755623,34.779022,34.812244,34.85456,34.9028,34.950302,34.989094,35.02256,35.046043,35.057297,35.060627,35.061783,35.0632,35.067757,35.0767,35.0917,35.113102,35.140038,35.168957,35.1965,35.224403,35.252808,35.2819,35.312843,35.34368,35.372154,35.398727,35.425232,35.456547,35.49225,35.529785,35.565853,35.596428,35.619633,35.637123,35.64952,35.65887,35.664257,35.667572,35.6745,35.687218,35.702133,35.71959,35.739246,35.760853,35.787624,35.823257,35.868282,35.9199,35.97487,36.03688,36.10601,36.17449,36.22981,36.263092,36.27339,36.264427,36.244865,36.220367,36.193985,36.169716,36.147575,36.124954,36.102448,36.08352,36.072475,36.08101,36.11667,36.175385,36.244873,36.313778,36.377693,36.44039,36.517,36.63018,36.798042,37.01996,37.27883,37.556293,37.844513,38.20663,38.731667,39.561386,40.875984,42.418877,43.363792,44.171516,44.832172,45.289948,45.561546,45.71324,45.811695,45.895,45.965034,46.03672,46.11244,46.200783,46.32308,46.496174,46.709995,46.933403,47.139038,47.285103,47.317165,47.215485,47.002983,46.722946,46.41707,46.09545,45.77034,45.46689,45.176353,44.845284,44.402573,43.80506,43.022255,41.692997,39.922295,38.187553,36.946938,36.343307,36.29158,36.757034,38.01298,39.844482,41.815548,43.17786,43.736465,44.1008,44.260277,44.341766,44.412216,44.53099,44.715836,44.932484,45.12307,45.250237,45.339207,45.39766,45.43904,45.482273,45.5346,45.592255,45.655777,45.72705,45.80783,45.898155,45.996696,46.100456,46.207066,46.315178,46.42472,46.540245,46.650856,46.755196,46.854828,46.947803,47.031105,47.106865,47.177338,47.23948,47.29316,47.337883,47.37414,47.404484,47.428818,47.44924,47.470085,47.491573,47.513626,47.534306,47.551506,47.567062,47.582863,47.601883,47.62313,47.64512,47.665924,47.68345,47.696823,47.707718,47.7161,47.721878,47.726604,47.732246,47.739853,47.748978,47.757362,47.765358,47.770454,47.771225,47.76761,47.76069,47.752037,47.743973,47.736954,47.73028,47.722946,47.712685,47.697372,47.677162,47.65497,47.630394,47.604267,47.57765,47.549366,47.5183,47.48403,47.446205,47.403915,47.35428,47.297585,47.2351,47.167824,47.09864,47.03277,46.97052,46.90659,46.840538,46.77012,46.694405,46.61409,46.52938,46.439194,46.333664,46.2071,46.05998,45.89814,45.728897,45.558517,45.393867,45.227055,45.05698,44.886093,44.714302,44.540367,44.36496,44.192764,44.019863,43.83766,43.6519,43.469803,43.293755,43.12365,42.961807
41.401318,41.30574,41.12339,40.91102,40.65429,40.357513,40.062042,39.77838,39.455574,39.07782,38.713078,38.351845,37.963707,37.592865,37.286785,36.966385,36.583057,36.143547,35.41969,34.269672,32.77751,31.496017,30.583786,29.905624,29.417553,29.0984,28.898872,28.845474,28.988005,29.526863,30.62526,32.247963,34.156662,35.838463,36.63639,37.027985,37.232964,37.298424,37.29467,37.27659,37.294525,37.31212,37.31772,37.308777,37.261654,37.143425,36.96821,36.824913,36.676453,36.514397,36.29265,35.993416,35.679626,35.43644,35.267567,35.124733,34.996845,34.889977,34.810135,34.76219,34.743523,34.740486,34.746834,34.763565,34.7877,34.819702,34.860924,34.909256,34.95861,35.001793,35.042107,35.07495,35.097267,35.11171,35.12253,35.131348,35.14024,35.15138,35.16536,35.182495,35.20246,35.222713,35.240997,35.25954,35.27755,35.29593,35.316322,35.33822,35.36065,35.3842,35.410202,35.442802,35.481155,35.522346,35.562428,35.596245,35.621037,35.63852,35.64955,35.655785,35.657043,35.656326,35.660522,35.672897,35.69049,35.713394,35.74107,35.772583,35.810658,35.857727,35.91265,35.971436,36.030243,36.09241,36.15875,36.22249,36.273453,36.304794,36.31565,36.308456,36.291153,36.26769,36.240105,36.21188,36.183304,36.152977,36.123077,36.097378,36.080696,36.0858,36.120613,36.182037,36.25853,36.338257,36.416756,36.498463,36.598152,36.7371,36.92851,37.16573,37.42772,37.694138,37.94954,38.266933,38.749855,39.54476,40.866295,42.51961,43.680115,44.549713,45.23031,45.682686,45.935295,46.062664,46.133926,46.18724,46.23458,46.290257,46.35978,46.459454,46.615692,46.84189,47.119175,47.412476,47.692093,47.881447,47.924835,47.82918,47.611477,47.292023,46.9595,46.61471,46.26784,45.938683,45.610756,45.219185,44.6873,43.98478,43.119717,41.49682,39.542637,37.82599,36.705456,36.231968,36.28206,36.846638,38.20989,40.176834,42.188446,43.52592,44.085587,44.43109,44.574177,44.64795,44.723434,44.853687,45.050583,45.276684,45.47152,45.59842,45.684494,45.737255,45.77137,45.807007,45.85218,45.90358,45.961884,46.028336,46.104546,46.191025,46.28718,46.39067,46.498955,46.60962,46.721745,46.83753,46.946568,47.047134,47.14059,47.22589,47.30137,47.369423,47.432404,47.486603,47.532055,47.568947,47.598255,47.62246,47.641506,47.656715,47.67092,47.684616,47.699097,47.71418,47.728176,47.74112,47.754528,47.77158,47.791504,47.81336,47.835457,47.855225,47.87113,47.88445,47.895676,47.90454,47.912666,47.921856,47.93274,47.944717,47.95581,47.966507,47.97441,47.977924,47.97663,47.971436,47.964108,47.957077,47.950993,47.945553,47.93992,47.931725,47.918743,47.900936,47.880623,47.85752,47.832306,47.805717,47.77683,47.744995,47.710262,47.672726,47.631577,47.583916,47.530304,47.471745,47.408897,47.34429,47.2827,47.22453,47.1649,47.103394,47.03773,46.967224,46.892765,46.81443,46.730785,46.6324,46.513214,46.37383,46.219795,46.057953,45.894432,45.735863,45.573753,45.407066,45.23856,45.067665,44.892765,44.714897,44.539246,44.361954,44.174072,43.98195,43.793564,43.611565,43.435715,43.268208
41.392654,41.290405,41.087105,40.845703,40.553352,40.21766,39.873802,39.506905,39.1214,38.76239,38.454414,38.147446,37.809162,37.472702,37.17955,36.878677,36.516403,36.059624,35.32788,34.226562,32.788765,31.544277,30.66306,30.007046,29.512863,29.178291,28.962997,28.897753,29.034336,29.568216,30.681149,32.35801,34.32575,35.94664,36.735237,37.121433,37.313526,37.363525,37.34347,37.315716,37.325184,37.332565,37.32647,37.30918,37.223297,37.053925,36.88555,36.74716,36.613228,36.436333,36.17006,35.856087,35.575397,35.363205,35.20913,35.0783,34.960464,34.861824,34.78942,34.74888,34.737328,34.74031,34.75058,34.768234,34.790123,34.818348,34.856,34.901955,34.95085,34.99655,35.04226,35.084,35.118034,35.144966,35.166943,35.18442,35.19863,35.212612,35.226234,35.23987,35.253635,35.265953,35.275745,35.28562,35.294163,35.302887,35.31392,35.3279,35.344803,35.365273,35.390198,35.423103,35.462883,35.50657,35.54984,35.586662,35.613464,35.63182,35.64273,35.647682,35.64695,35.644577,35.648323,35.6622,35.683846,35.71312,35.749092,35.79032,35.838863,35.89588,35.95879,36.022697,36.08352,36.14425,36.20652,36.264877,36.311623,36.341896,36.354904,36.351524,36.33861,36.31839,36.291306,36.26008,36.225433,36.187534,36.150543,36.11894,36.098072,36.1015,36.137062,36.2017,36.284233,36.37293,36.463295,36.560776,36.681213,36.844654,37.059708,37.31438,37.58317,37.84139,38.06646,38.342205,38.78474,39.572872,40.899017,42.604847,44.03363,44.972916,45.686813,46.144577,46.384224,46.490097,46.53559,46.56243,46.589005,46.621666,46.677177,46.782356,46.967773,47.244377,47.585785,47.94594,48.282524,48.482155,48.517883,48.42314,48.209644,47.880226,47.51542,47.151825,46.78991,46.447296,46.09119,45.637867,45.009666,44.19109,43.162422,41.31356,39.23257,37.533394,36.526722,36.19263,36.346634,37.02469,38.50137,40.60753,42.619835,43.895744,44.46576,44.78814,44.91291,44.97709,45.057945,45.19867,45.40432,45.635925,45.83128,45.95527,46.036854,46.08352,46.11075,46.139416,46.177925,46.22319,46.27596,46.336937,46.4076,46.48895,46.58129,46.68309,46.791656,46.903328,47.016327,47.131157,47.237373,47.332825,47.419117,47.496323,47.563927,47.624664,47.68086,47.728348,47.767174,47.797897,47.8217,47.840942,47.855545,47.86631,47.873734,47.88034,47.888985,47.89966,47.910347,47.920628,47.931755,47.947067,47.96576,47.987366,48.010452,48.032043,48.05017,48.065804,48.079834,48.09178,48.10319,48.11563,48.12937,48.14376,48.15706,48.17005,48.180477,48.186592,48.187603,48.184326,48.178604,48.172703,48.167454,48.162956,48.15854,48.151848,48.140747,48.125015,48.10636,48.08448,48.059956,48.033157,48.003376,47.97036,47.934616,47.896843,47.85629,47.81018,47.759556,47.705093,47.647133,47.587868,47.53134,47.477898,47.422974,47.365936,47.30446,47.238174,47.16833,47.0951,47.0171,46.925106,46.812424,46.68,46.53306,46.378067,46.22133,46.06927,45.912567,45.750343,45.58564,45.417595,45.244312,45.06698,44.89081,44.71163,44.5203,44.323498,44.129852,43.94242,43.760933,43.58741
41.40367,41.2912,41.06035,40.781258,40.438942,40.056866,39.587654,39.070312,38.608,38.260876,37.994225,37.73764,37.451458,37.16313,36.903725,36.661472,36.361477,35.901463,35.212055,34.16177,32.78833,31.586412,30.736664,30.102928,29.597645,29.245277,29.013828,28.938892,29.062853,29.588799,30.721981,32.452724,34.47072,36.048943,36.83006,37.209877,37.389816,37.425747,37.391342,37.356018,37.358994,37.357414,37.34158,37.303474,37.178474,36.973602,36.799164,36.64952,36.511173,36.279198,35.99631,35.716393,35.474457,35.291878,35.151985,35.036087,34.930786,34.84146,34.775875,34.740486,34.732727,34.73842,34.74977,34.76597,34.78395,34.807236,34.840134,34.88228,34.92916,34.975616,35.024784,35.07361,35.117805,35.15599,35.18827,35.21383,35.233196,35.250282,35.264496,35.276367,35.286324,35.293495,35.29769,35.301735,35.303967,35.30627,35.310936,35.31929,35.33194,35.349636,35.372955,35.405052,35.44482,35.489475,35.534576,35.57359,35.60237,35.62224,35.634224,35.639763,35.639515,35.63816,35.643837,35.660843,35.687233,35.72272,35.76599,35.815212,35.871788,35.935757,36.00351,36.069744,36.130417,36.18845,36.246117,36.299484,36.343132,36.373917,36.39093,36.39341,36.38684,36.371895,36.346928,36.313717,36.27356,36.22843,36.184708,36.148003,36.124146,36.12716,36.164368,36.23191,36.318516,36.413033,36.51114,36.619465,36.755898,36.939487,37.174927,37.446335,37.72367,37.97445,38.17444,38.417587,38.834335,39.623062,40.974693,42.76454,44.415855,45.42805,46.18741,46.661987,46.896263,46.98449,47.009434,47.022804,47.03412,47.04554,47.081375,47.18037,47.378616,47.689156,48.084137,48.498703,48.84043,49.02388,49.05217,48.944496,48.726894,48.43064,48.049034,47.67485,47.313885,46.971962,46.59576,46.08349,45.35811,44.41857,43.12805,41.094555,38.98429,37.352238,36.45247,36.24411,36.499054,37.29801,38.904305,41.132137,43.09188,44.275536,44.865547,45.158936,45.26249,45.313873,45.398155,45.546463,45.75627,45.988235,46.17957,46.297737,46.37346,46.414764,46.4374,46.462067,46.496803,46.538162,46.586815,46.643105,46.708508,46.784428,46.872253,46.97142,47.079063,47.19034,47.30261,47.41545,47.517494,47.6065,47.68477,47.75358,47.813583,47.867805,47.918285,47.96077,47.995125,48.021873,48.042107,48.05799,48.06941,48.076687,48.07933,48.081226,48.085304,48.09159,48.09884,48.106438,48.115456,48.129242,48.14698,48.16847,48.19232,48.21534,48.235275,48.252968,48.269463,48.28402,48.29808,48.312958,48.328667,48.344593,48.359222,48.373795,48.386257,48.394638,48.3979,48.396744,48.392906,48.388306,48.38395,48.380177,48.376488,48.370716,48.360863,48.346634,48.32918,48.308105,48.283974,48.25682,48.22603,48.191704,48.154793,48.116547,48.07627,48.03128,47.983208,47.932507,47.87935,47.825745,47.77487,47.726532,47.676216,47.62319,47.565056,47.501705,47.434887,47.365128,47.291298,47.204296,47.096695,46.969795,46.828564,46.67929,46.528687,46.38298,46.232025,46.074966,45.914825,45.750896,45.58146,45.407513,45.2336,45.054955,44.862476,44.662804,44.465027,44.272766,44.085846,43.906094
41.428337,41.30233,41.03717,40.71286,40.314087,39.845245,39.165474,38.463577,37.94388,37.607758,37.36384,37.138435,36.891518,36.65536,36.451736,36.276436,36.057693,35.676674,35.066414,34.07458,32.772625,31.623238,30.804527,30.185814,29.670422,29.29841,29.051495,28.970005,29.076138,29.595806,30.757328,32.539356,34.60327,36.144512,36.91902,37.293064,37.462265,37.487473,37.443695,37.403362,37.40222,37.392727,37.369225,37.292534,37.122345,36.89772,36.701317,36.50248,36.29927,36.067577,35.8312,35.60221,35.39284,35.225986,35.103592,35.0027,34.909653,34.828697,34.768127,34.73532,34.7284,34.7341,34.74442,34.75768,34.7711,34.78927,34.817318,34.855312,34.89955,34.945717,34.996788,35.05072,35.10283,35.150177,35.191154,35.22386,35.248245,35.268936,35.285027,35.297195,35.30612,35.31143,35.313446,35.31505,35.314533,35.313774,35.314915,35.319572,35.32882,35.343533,35.364223,35.39392,35.43177,35.475304,35.520218,35.559875,35.58991,35.611347,35.62509,35.632782,35.635265,35.637352,35.647022,35.66854,35.70012,35.7414,35.790886,35.84641,35.908627,35.976677,36.046432,36.112633,36.171467,36.22605,36.279083,36.328144,36.369854,36.40249,36.42492,36.43464,36.435783,36.42755,36.405888,36.371395,36.325985,36.273605,36.22294,36.181183,36.154507,36.157295,36.195988,36.265465,36.354214,36.45188,36.55444,36.669903,36.818092,37.01677,37.267246,37.550148,37.831352,38.072914,38.252544,38.47371,38.883705,39.666946,41.070335,43.014366,44.798332,45.882584,46.68698,47.18113,47.41561,47.49166,47.50055,47.503784,47.508095,47.50928,47.52954,47.619728,47.82345,48.152203,48.57538,49.02517,49.325333,49.506332,49.540604,49.420166,49.1847,48.885666,48.541016,48.17131,47.822704,47.490993,47.099655,46.52922,45.706413,44.646687,43.08393,40.941128,38.80661,37.2492,36.48204,36.37437,36.72307,37.609352,39.368263,41.71064,43.593483,44.66349,45.25544,45.51782,45.59903,45.63743,45.722206,45.874672,46.084732,46.31182,46.494274,46.603287,46.671616,46.708412,46.729614,46.754696,46.79025,46.83182,46.87931,46.933292,46.995155,47.06672,47.150635,47.247208,47.35337,47.463493,47.57386,47.683235,47.780174,47.861786,47.931034,47.991074,48.043835,48.092575,48.138763,48.17814,48.210205,48.23501,48.253418,48.267532,48.277054,48.281975,48.281807,48.280704,48.28144,48.28418,48.288345,48.293507,48.300636,48.313225,48.33046,48.352074,48.37658,48.400673,48.42208,48.44145,48.45996,48.47651,48.492462,48.50898,48.525894,48.542656,48.558064,48.573597,48.587555,48.597755,48.602966,48.603783,48.6017,48.59839,48.59484,48.59153,48.58815,48.582756,48.573555,48.560196,48.543316,48.522644,48.498512,48.470802,48.438942,48.403282,48.365196,48.326385,48.286007,48.241615,48.195404,48.14772,48.09868,48.05019,48.004646,47.961105,47.914913,47.86531,47.8098,47.74842,47.683357,47.615677,47.544563,47.461075,47.35714,47.234177,47.097145,46.952457,46.807144,46.667377,46.522186,46.37061,46.215523,46.056602,45.89248,45.72381,45.5541,45.377888,45.186127,44.985104,44.784233,44.587692,44.395493,44.209404
41.46332,41.32083,41.015,40.63794,40.2008,39.451973,38.556145,37.74234,37.15844,36.801605,36.570507,36.382317,36.1772,35.963394,35.811203,35.74436,35.65514,35.383896,34.887794,33.95603,32.751816,31.663147,30.865963,30.260954,29.738274,29.344578,29.082443,28.996445,29.087683,29.606173,30.799538,32.632965,34.74714,36.24245,37.009483,37.37937,37.539158,37.557304,37.509747,37.466354,37.462692,37.445477,37.411366,37.29865,37.086792,36.808403,36.512543,36.271114,36.08017,35.88848,35.692215,35.497353,35.31745,35.171814,35.0669,34.97973,34.897152,34.822292,34.76407,34.73102,34.72219,34.725582,34.733307,34.742798,34.75167,34.765278,34.78911,34.82347,34.865356,34.910995,34.963223,35.020744,35.078705,35.13308,35.181087,35.220104,35.249638,35.27486,35.294853,35.31015,35.32151,35.32876,35.332363,35.335037,35.335262,35.334404,35.334175,35.336025,35.34132,35.351444,35.367283,35.391953,35.424885,35.464035,35.50551,35.54309,35.57263,35.595055,35.61109,35.622612,35.630608,35.639347,35.655937,35.684128,35.72209,35.769287,35.824295,35.884743,35.950577,36.02046,36.090233,36.154873,36.21087,36.26169,36.310223,36.355553,36.39607,36.431274,36.459923,36.477844,36.48772,36.487553,36.470383,36.435333,36.38482,36.32478,36.266438,36.218872,36.188774,36.190754,36.23016,36.300255,36.38915,36.487522,36.591774,36.71144,36.867832,37.076813,37.33661,37.622566,37.897186,38.128128,38.290047,38.498554,38.915386,39.726448,41.22345,43.32428,45.184044,46.33828,47.18368,47.695145,47.931347,47.999413,47.99604,47.987835,47.981354,47.97879,47.997284,48.091267,48.302727,48.640007,49.070232,49.503273,49.785454,49.9637,49.996693,49.863968,49.610123,49.307575,49.00167,48.662315,48.336685,48.018238,47.612087,46.98037,46.05584,44.87552,43.090992,40.84269,38.70102,37.22364,36.56349,36.53456,36.977028,37.968853,39.90586,42.36146,44.128433,45.049232,45.636795,45.862286,45.91944,45.94516,46.0264,46.17931,46.386475,46.60385,46.7729,46.870094,46.930473,46.965405,46.990448,47.02249,47.06566,47.11374,47.16501,47.22081,47.28259,47.352425,47.434174,47.529034,47.633797,47.742035,47.849274,47.952217,48.042732,48.115,48.172417,48.22209,48.26697,48.310295,48.352882,48.390556,48.421944,48.446228,48.464016,48.477474,48.486256,48.488853,48.4868,48.48365,48.481544,48.480904,48.481743,48.48402,48.4889,48.500126,48.51683,48.53872,48.564117,48.589485,48.612556,48.63369,48.65435,48.67314,48.69114,48.709183,48.727108,48.74478,48.761017,48.777615,48.79296,48.804855,48.811943,48.814716,48.81451,48.812664,48.8101,48.80741,48.804344,48.799225,48.79045,48.777557,48.760956,48.740242,48.715637,48.68701,48.653877,48.616623,48.57685,48.536774,48.495605,48.451317,48.40638,48.361145,48.315872,48.27211,48.231323,48.192287,48.150127,48.103905,48.050884,47.991264,47.927746,47.861835,47.792877,47.711853,47.61035,47.490166,47.35621,47.215164,47.074684,46.94069,46.801445,46.65589,46.506554,46.353436,46.19537,46.032635,45.868248,45.69615,45.506657,45.305466,45.102192,44.901566,44.703903,44.511032
