14.077018,14.068754,14.062657,14.059465,14.057451,14.058258,14.061141,14.065762,14.072672,14.079677,14.086363,14.094096,14.100988,14.106562,14.113311,14.120036,14.125492,14.131422,14.136803,14.140402,14.143505,14.1464205,14.148756,14.150831,14.15325,14.155607,14.157626,14.160557,14.164883,14.169748,14.17676,14.186884,14.197454,14.20944,14.224619,14.239086,14.25226,14.267266,14.279945,14.289072,14.298006,14.304908,14.309436,14.314087,14.318359,14.321489,14.324287,14.326853,14.328873,14.3307,14.334133,14.3389845,14.343891,14.350365,14.356467,14.360234,14.362873,14.363781,14.363235,14.362143,14.36058,14.358743,14.356621,14.352806,14.347666,14.342662,14.3360615,14.328768,14.322844,14.316673,14.3104925,14.305959,14.302437,14.299763,14.299431,14.30089,14.304981,14.312556,14.321331,14.334553,14.352047,14.368608,14.387557,14.408905,14.42672,14.442027,14.459393,14.475489,14.489355,14.508244,14.529314,14.547623,14.568867,14.590248,14.6063175,14.620913,14.634199,14.643347,14.650321,14.656829,14.661125,14.663783,14.665422,14.665176,14.663917,14.661945,14.659328,14.657068,14.654974,14.652519,14.649895,14.64702,14.64263,14.63744,14.632574,14.626753,14.620951,14.616348,14.611184,14.605354,14.599976,14.594065,14.586465,14.579052,14.572462,14.56451,14.557385,14.552183,14.547141,14.543995,14.543009,14.543417,14.54563,14.548513,14.551726,14.555496,14.558481,14.56051,14.562328,14.563426,14.563956,14.5643215,14.56428,14.563965,14.563633,14.563194,14.562801,14.562433,14.562643,14.563611,14.564856,14.567129,14.570179,14.573042,14.576469,14.580095,14.58305,14.586075,14.589619,14.592965,14.596367,14.600179,14.603107,14.604988,14.605899,14.605394,14.604324,14.603301,14.60326,14.604447,14.607024,14.611349,14.615752,14.619526,14.622805,14.623877,14.623197,14.620373,14.61512,14.609402,14.601305,14.590838,14.58099,14.570082,14.55698,14.545202,14.535002,14.523357,14.513061,14.504998,14.495588,14.486435,14.479151,14.471109,14.46302,14.456692,14.450713,14.443819,14.437205,14.430916,14.422697,14.414331,14.407335,14.399139,14.39096,14.384346,14.376625,14.367606,14.359434,14.351215,14.342077,14.3345585,14.328638,14.32263,14.318293,14.315687,14.313698,14.313425,14.314491,14.316664,14.320357,14.324297,14.328163,14.332809,14.336874,14.340102,14.343044,14.344737,14.345438,14.345196,14.34367,14.341684,14.339024,14.335081,14.330727,14.325922,14.319409,14.312838,14.307156,14.3004265,14.293927,14.288698,14.282807,14.277216,14.273285,14.270136,14.268232,14.267995,14.268618,14.270748,14.274103,14.277594,14.283041,14.2896,14.295357,14.302153,14.308911,14.313809,14.318167,14.322248,14.325275,14.327646,14.33062,14.333704,14.336495,14.339712,14.342638,14.344694,14.346363,14.34697,14.346582,14.34592,14.344622,14.343196,14.341995,14.340759,14.339807,14.339153,14.3383465,14.337236,14.335949,14.333775,14.330515,14.327106,14.323378,14.31872,14.314283,14.310381,14.305352,14.300013,14.2952385,14.288998,14.281956,14.275866,14.269047,14.261593,14.255487,14.250197,14.245131,14.241583,14.239059,14.236734,14.234766,14.23293,14.230656,14.22806,14.225697,14.222988,14.219975
13.982154,13.97518,13.969917,13.967052,13.965162,13.965758,13.968266,13.972369,13.978646,13.985119,13.9913225,13.998613,14.005279,14.0107975,14.017591,14.024525,14.030265,14.036629,14.042639,14.046898,14.050816,14.054743,14.057974,14.060802,14.063946,14.066716,14.068871,14.071743,14.075747,14.080198,14.086626,14.095993,14.105862,14.1171055,14.131381,14.145008,14.157426,14.171587,14.183585,14.1922455,14.2008505,14.207681,14.212291,14.217172,14.221807,14.225262,14.228333,14.231113,14.233156,14.234837,14.237848,14.2421,14.246463,14.252354,14.258173,14.262056,14.265146,14.26692,14.267298,14.267128,14.2664175,14.265057,14.263168,14.259444,14.254241,14.249143,14.242447,14.235002,14.22887,14.222357,14.215605,14.210417,14.206188,14.202639,14.201518,14.202351,14.20578,14.212799,14.221156,14.233866,14.250771,14.266793,14.285112,14.305792,14.323116,14.338066,14.355148,14.371077,14.384817,14.403471,14.42418,14.442097,14.462881,14.483882,14.499801,14.514458,14.528148,14.537872,14.54541,14.552561,14.557312,14.560181,14.5618105,14.561297,14.559708,14.5572815,14.55415,14.55147,14.5489645,14.545998,14.542841,14.539433,14.534242,14.528141,14.522464,14.515654,14.508903,14.503614,14.497823,14.491529,14.485922,14.479885,14.472276,14.464946,14.458458,14.450655,14.4436865,14.438614,14.433697,14.430635,14.429694,14.430122,14.432258,14.434971,14.437942,14.441268,14.443709,14.445206,14.446363,14.446883,14.447031,14.44706,14.446818,14.446428,14.446022,14.445534,14.445126,14.444775,14.445006,14.446005,14.447306,14.449641,14.452772,14.455723,14.459326,14.463177,14.466309,14.469492,14.473028,14.476168,14.479248,14.482578,14.485043,14.486574,14.487247,14.486708,14.485705,14.484777,14.484795,14.485952,14.488401,14.492504,14.496734,14.500423,14.503908,14.505614,14.505782,14.504406,14.501027,14.497015,14.490952,14.482567,14.474291,14.464833,14.453153,14.442459,14.433117,14.42244,14.41305,14.405772,14.397324,14.389197,14.382792,14.37576,14.368809,14.363497,14.358587,14.352957,14.34749,14.342218,14.33511,14.327617,14.321196,14.313465,14.305449,14.298761,14.290796,14.281303,14.272593,14.263773,14.253845,14.245548,14.2389145,14.232109,14.227187,14.224275,14.2221775,14.22208,14.223442,14.225971,14.230133,14.23453,14.238869,14.244146,14.248848,14.252644,14.256207,14.258291,14.259094,14.258791,14.256983,14.254658,14.251632,14.247356,14.242796,14.237833,14.231119,14.22428,14.218269,14.211015,14.203833,14.197952,14.191256,14.184695,14.179858,14.175688,14.172518,14.171078,14.170551,14.17132,14.173446,14.175943,14.18033,14.186045,14.191269,14.19759,14.204027,14.208761,14.212973,14.216864,14.219627,14.22168,14.2240715,14.226309,14.2281685,14.229996,14.231282,14.231922,14.23201,14.231053,14.229507,14.22776,14.225341,14.222982,14.220949,14.218834,14.217214,14.216128,14.214923,14.21354,14.212105,14.209827,14.20657,14.20328,14.1998005,14.19565,14.1919,14.188761,14.18476,14.180492,14.176628,14.171375,14.165098,14.159401,14.152867,14.145481,14.13929,14.13394,14.128815,14.1252365,14.122705,14.120366,14.118393,14.116574,14.114413,14.112055,14.10997,14.1077,14.105332
13.899691,13.893827,13.889241,13.886602,13.88474,13.8850565,13.887161,13.890757,13.896425,13.902391,13.908163,13.915062,13.921537,13.9270315,13.933901,13.94105,13.947058,13.953795,13.960342,13.965164,13.969755,13.97453,13.978511,13.981955,13.985687,13.988789,13.991036,13.9938545,13.9975815,14.001678,14.007597,14.016295,14.025533,14.0361185,14.049616,14.062538,14.074335,14.087824,14.099302,14.107626,14.116007,14.122816,14.12753,14.132632,14.137617,14.141395,14.144741,14.147744,14.149832,14.151398,14.154039,14.157747,14.16161,14.166954,14.172465,14.176375,14.179773,14.1822,14.183301,14.183872,14.183874,14.1829405,14.181282,14.177696,14.172505,14.167375,14.160661,14.153162,14.146929,14.140209,14.133054,14.12737,14.122588,14.118343,14.116574,14.116867,14.119726,14.126248,14.134219,14.146446,14.162788,14.178295,14.196018,14.216082,14.232971,14.247606,14.26446,14.280264,14.293914,14.312355,14.332714,14.350264,14.370586,14.391183,14.406918,14.421579,14.435569,14.445763,14.453775,14.461441,14.466522,14.469513,14.471063,14.470259,14.468357,14.465533,14.461962,14.458927,14.456078,14.452673,14.449043,14.445156,14.439256,14.432357,14.425972,14.418318,14.41078,14.404938,14.398672,14.39204,14.386255,14.380112,14.372467,14.365165,14.358706,14.35095,14.344033,14.339006,14.334103,14.331018,14.330038,14.330389,14.332397,14.3349495,14.337683,14.340616,14.342615,14.343695,14.344375,14.344533,14.344492,14.34444,14.344269,14.344001,14.343704,14.343325,14.342989,14.3426895,14.342937,14.343919,14.345211,14.347525,14.350645,14.353611,14.357313,14.361349,14.36467,14.368042,14.371677,14.374759,14.377671,14.380712,14.382889,14.384214,14.384785,14.384319,14.383474,14.382742,14.382904,14.38409,14.386458,14.39034,14.394333,14.39786,14.401356,14.403404,14.404114,14.403743,14.40173,14.3989935,14.394462,14.387688,14.380657,14.372336,14.361773,14.351925,14.343247,14.333326,14.324648,14.317984,14.310309,14.303025,14.297359,14.291172,14.285189,14.280755,14.276773,14.272289,14.267918,14.263646,14.257688,14.2511425,14.24536,14.238176,14.230401,14.2237,14.215544,14.205656,14.1965065,14.187196,14.1766405,14.167746,14.160587,14.153184,14.147808,14.144657,14.142433,14.142376,14.143846,14.146511,14.150879,14.155506,14.16011,14.165803,14.170973,14.17521,14.179298,14.181778,14.182765,14.182527,14.180599,14.178081,14.174803,14.170277,14.1655655,14.160517,14.153765,14.146891,14.1408,14.133339,14.125822,14.11959,14.112408,14.105223,14.099779,14.094895,14.090797,14.088431,14.086994,14.086639,14.087719,14.089365,14.0928,14.097698,14.102352,14.108097,14.114038,14.118429,14.122316,14.125835,14.128209,14.129831,14.131554,14.132886,14.133759,14.134132,14.133726,14.132926,14.131421,14.128953,14.126341,14.123638,14.120279,14.117166,14.114451,14.111622,14.109461,14.108028,14.106508,14.104921,14.103367,14.100979,14.097668,14.094411,14.091059,14.08725,14.084028,14.081503,14.078417,14.075174,14.072209,14.067974,14.062526,14.0572815,14.051094,14.043833,14.037604,14.032209,14.027063,14.023514,14.021044,14.018795,14.016951,14.01527,14.013365,14.011373,14.009657,14.007908,14.006226
13.803704,13.799049,13.795152,13.792684,13.790752,13.79064,13.792194,13.79513,13.800046,13.805401,13.810633,13.817042,13.823268,13.828704,13.835625,13.842966,13.8492,13.856285,13.863354,13.868742,13.874054,13.87974,13.884534,13.888646,13.89304,13.896534,13.898916,13.90173,13.90523,13.9089985,13.914413,13.922411,13.930977,13.940868,13.953547,13.965745,13.976925,13.98977,14.000776,14.008801,14.017006,14.023844,14.028696,14.034052,14.039419,14.043554,14.047214,14.050479,14.052621,14.054052,14.056271,14.059344,14.062607,14.067272,14.072338,14.0761795,14.079781,14.0827675,14.084538,14.085817,14.086512,14.08601,14.084592,14.081178,14.076065,14.07098,14.0643635,14.056959,14.050758,14.043964,14.036539,14.030445,14.025147,14.0201845,14.017701,14.017382,14.019577,14.025513,14.033026,14.044645,14.060265,14.075124,14.09211,14.111427,14.12781,14.142119,14.158758,14.174473,14.188067,14.206271,14.226181,14.243235,14.262949,14.2829895,14.298435,14.313047,14.327357,14.338079,14.34662,14.354855,14.360273,14.363347,14.364742,14.363558,14.361273,14.357964,14.35387,14.350426,14.34716,14.343201,14.338971,14.334486,14.327715,14.319881,14.312708,14.3041525,14.295824,14.289467,14.28279,14.275894,14.2699795,14.263742,14.256057,14.248741,14.242239,14.234421,14.227436,14.222351,14.217317,14.214056,14.212922,14.213084,14.214844,14.217129,14.219542,14.221983,14.223444,14.22403,14.224176,14.223979,14.223798,14.223759,14.223803,14.223804,14.223764,14.223642,14.223495,14.223331,14.223656,14.224649,14.22595,14.228228,14.23131,14.234288,14.238102,14.242376,14.245968,14.249655,14.2535515,14.25672,14.259598,14.262505,14.26454,14.265782,14.266436,14.266256,14.265745,14.26542,14.265936,14.267284,14.269656,14.273314,14.276987,14.280214,14.283533,14.285728,14.286803,14.287254,14.286452,14.28488,14.281803,14.276612,14.2708235,14.263647,14.254206,14.245205,14.237166,14.227987,14.220018,14.213947,14.207044,14.200609,14.195675,14.190327,14.185333,14.18183,14.178844,14.175655,14.172593,14.169566,14.165087,14.1598215,14.15495,14.148596,14.141287,14.134703,14.126486,14.116331,14.1068535,14.0971575,14.086086,14.076683,14.06908,14.061145,14.05532,14.0518875,14.04945,14.049274,14.05068,14.053274,14.057596,14.062236,14.066906,14.072813,14.078299,14.08284,14.087348,14.090188,14.091356,14.0912075,14.089203,14.086511,14.082955,14.078144,14.073291,14.068198,14.061536,14.054834,14.048903,14.041548,14.034009,14.027673,14.020285,14.012757,14.006939,14.001549,13.996704,13.993521,13.991219,13.989762,13.989769,13.990509,13.992872,13.996776,14.000692,14.005606,14.0107355,14.014502,14.017765,14.020553,14.022192,14.023073,14.023681,14.023589,14.0229645,14.021189,14.018352,14.015526,14.011854,14.00745,14.003582,13.999838,13.995569,13.991787,13.988462,13.984978,13.982319,13.980574,13.978785,13.977034,13.975397,13.9728985,13.96948,13.966187,13.962877,13.959316,13.956578,13.954702,13.952652,13.950645,13.948805,13.945875,13.941532,13.936925,13.931246,13.924252,13.918081,13.912735,13.907742,13.904457,13.90228,13.900417,13.898983,13.897654,13.8962345,13.894817,13.893625,13.892549,13.891706
13.710571,13.706933,13.703558,13.701145,13.699038,13.698412,13.699362,13.701604,13.70575,13.71048,13.715146,13.721018,13.72692,13.7322035,13.73904,13.746408,13.752721,13.759974,13.767374,13.773178,13.779065,13.785519,13.79102,13.795746,13.800774,13.804696,13.807287,13.810232,13.813694,13.817316,13.822438,13.829975,13.838076,13.847469,13.859558,13.871242,13.881987,13.8944,13.905109,13.912962,13.921095,13.928017,13.933017,13.938599,13.944287,13.948721,13.952643,13.956129,13.958318,13.959628,13.9614525,13.963922,13.966604,13.970587,13.975122,13.978748,13.9823265,13.985556,13.987686,13.989351,13.990421,13.99013,13.988801,13.985467,13.980446,13.975473,13.969086,13.962002,13.956072,13.949486,13.942111,13.935868,13.930267,13.924777,13.92169,13.920822,13.922382,13.927725,13.934761,13.945733,13.960598,13.974794,13.991047,14.009665,14.025623,14.039711,14.056255,14.071972,14.085579,14.103577,14.123012,14.139525,14.158576,14.178009,14.193135,14.207691,14.222319,14.233571,14.242628,14.251402,14.257105,14.260185,14.26134,14.259695,14.256973,14.2531185,14.248456,14.244574,14.240835,14.236242,14.231334,14.226189,14.218505,14.209759,14.201877,14.192569,14.183661,14.176979,14.170095,14.163124,14.157193,14.150929,14.143221,14.135853,14.129238,14.121247,14.114065,14.108807,14.103504,14.09993,14.098539,14.098398,14.099782,14.101693,14.103706,14.105568,14.106419,14.106468,14.106045,14.105455,14.105097,14.105022,14.105238,14.105486,14.105694,14.105848,14.105932,14.105957,14.106439,14.107529,14.108912,14.111245,14.114392,14.117477,14.121513,14.12616,14.130146,14.134317,14.138707,14.142208,14.145319,14.148422,14.150616,14.15201,14.152995,14.153299,14.153255,14.153468,14.154451,14.15604,14.158489,14.161976,14.165333,14.16824,14.171288,14.17346,14.174714,14.17568,14.175705,14.174946,14.17293,14.168897,14.164009,14.157665,14.149028,14.140612,14.1329975,14.124321,14.116845,14.111191,14.104855,14.099073,14.094715,14.090025,14.085838,14.083136,14.08102,14.079011,14.077194,14.075382,14.0724125,14.068534,14.064705,14.059378,14.0527935,14.046569,14.038592,14.028542,14.019086,14.00937,13.998192,13.988615,13.980827,13.972589,13.966414,13.962692,13.959939,13.959408,13.960469,13.962656,13.966502,13.970733,13.975045,13.980635,13.9859295,13.990347,13.994822,13.997688,13.998865,13.998676,13.996553,13.9937,13.989868,13.984788,13.979824,13.9747505,13.968315,13.962,13.956478,13.949589,13.942457,13.936411,13.929289,13.921943,13.916187,13.910745,13.905637,13.902037,13.899214,13.897011,13.896225,13.89626,13.897713,13.900679,13.903852,13.907862,13.912023,13.914984,13.917398,13.919146,13.919725,13.919519,13.9185295,13.916475,13.913849,13.909306,13.903457,13.8982,13.892019,13.885575,13.880598,13.87607,13.871351,13.867401,13.863894,13.860199,13.857368,13.855522,13.853668,13.851925,13.85033,13.847809,13.84433,13.840996,13.83769,13.834293,13.831962,13.830673,13.829617,13.828841,13.828138,13.82654,13.823347,13.819429,13.814339,13.807758,13.801847,13.796776,13.792301,13.789684,13.788156,13.787058,13.786314,13.7855,13.784645,13.783776,13.783031,13.782496,13.782308
13.634361,13.631426,13.628372,13.625929,13.623615,13.62253,13.62296,13.62462,13.628117,13.632307,13.636484,13.641867,13.647415,13.652477,13.659098,13.666328,13.672583,13.679823,13.687349,13.693384,13.699631,13.70661,13.712636,13.71785,13.723406,13.727728,13.730568,13.733746,13.737335,13.740986,13.746057,13.753438,13.761348,13.770508,13.7823105,13.793734,13.804256,13.816443,13.827015,13.83481,13.842954,13.849972,13.855095,13.860844,13.866754,13.871386,13.875475,13.879101,13.881313,13.882537,13.884056,13.886051,13.888272,13.891701,13.895747,13.899084,13.902485,13.9056835,13.907864,13.909583,13.910673,13.91034,13.908916,13.905524,13.900547,13.895679,13.8895645,13.882912,13.877391,13.871199,13.864113,13.857943,13.852251,13.846474,13.842979,13.84171,13.842768,13.847595,13.854204,13.864614,13.8788395,13.892496,13.908159,13.926262,13.941963,13.955952,13.972519,13.988316,14.001975,14.01982,14.038855,14.0549,14.073374,14.092288,14.107164,14.121702,14.136635,14.1483555,14.157866,14.167099,14.173012,14.176058,14.176945,14.174842,14.171688,14.167311,14.162113,14.15781,14.153611,14.148407,14.142866,14.13711,14.128628,14.119139,14.110719,14.100892,14.091648,14.0848255,14.077915,14.071008,14.065144,14.058916,14.051216,14.043797,14.037063,14.028877,14.021467,14.016014,14.010424,14.006527,14.004875,14.004412,14.005394,14.006914,14.008514,14.009796,14.010052,14.009592,14.008612,14.007591,14.006965,14.006714,14.006911,14.007233,14.007537,14.007849,14.008099,14.008291,14.008959,14.010216,14.011751,14.01426,14.017616,14.020918,14.025288,14.030399,14.034848,14.039562,14.044549,14.048527,14.052042,14.055569,14.058126,14.059822,14.061243,14.062048,14.062448,14.063147,14.064527,14.066317,14.068846,14.072219,14.075352,14.078038,14.080889,14.083033,14.084415,14.085717,14.08627,14.08603,14.084674,14.081335,14.076959,14.071087,14.062883,14.054756,14.047342,14.038906,14.031686,14.026265,14.020264,14.0149,14.010944,14.006708,14.003103,14.000994,13.999533,13.998426,13.997574,13.996702,13.994949,13.992256,13.989357,13.985008,13.979219,13.973503,13.965979,13.956333,13.947191,13.937761,13.926832,13.9173765,13.90962,13.901273,13.894857,13.890879,13.887772,13.886761,13.887333,13.888931,13.892046,13.895604,13.89927,13.904122,13.908799,13.912739,13.91675,13.919297,13.920286,13.919887,13.9175625,13.914543,13.910471,13.905173,13.900138,13.895115,13.888941,13.883059,13.877994,13.871677,13.865138,13.859588,13.853004,13.846157,13.840744,13.835567,13.830582,13.826916,13.823925,13.821371,13.820135,13.819756,13.820606,13.8228855,13.82547,13.828748,13.832073,13.834295,13.835903,13.836618,13.836098,13.83473,13.832034,13.827917,13.823224,13.815903,13.807114,13.799543,13.791032,13.782854,13.777112,13.772177,13.767502,13.763858,13.760588,13.757123,13.754452,13.752701,13.75097,13.749378,13.747925,13.745488,13.74205,13.73874,13.735466,13.732241,13.7302685,13.729468,13.729235,13.729475,13.729704,13.729181,13.726911,13.723554,13.718978,13.712854,13.707325,13.702697,13.698991,13.697277,13.696571,13.696384,13.696375,13.696053,13.695629,13.695072,13.694535,13.694246,13.694342
13.550533,13.548247,13.545456,13.542931,13.540356,13.538743,13.538594,13.539614,13.542382,13.545954,13.549574,13.554369,13.559457,13.564175,13.570416,13.57733,13.583364,13.590431,13.597918,13.604055,13.610552,13.617973,13.624485,13.630159,13.636261,13.641039,13.644198,13.647709,13.65155,13.655341,13.660505,13.667896,13.675751,13.684804,13.696436,13.707689,13.71806,13.730111,13.740618,13.748408,13.756611,13.763757,13.769016,13.774933,13.781046,13.785856,13.790094,13.793842,13.796062,13.797188,13.798399,13.799912,13.801657,13.8044815,13.807968,13.810954,13.81407,13.817065,13.819124,13.820728,13.821628,13.82106,13.8194,13.815822,13.810829,13.806074,13.800292,13.794211,13.789265,13.783634,13.777027,13.771075,13.765383,13.759383,13.755505,13.753825,13.754341,13.758595,13.764723,13.774503,13.788029,13.801111,13.816151,13.833726,13.849178,13.863108,13.879746,13.895653,13.909378,13.927042,13.945604,13.961119,13.9789505,13.997302,14.011925,14.026514,14.041861,14.054155,14.064234,14.0740385,14.080235,14.083269,14.083886,14.081282,14.077648,14.072685,14.066871,14.062077,14.057343,14.051429,14.045151,14.038682,14.029316,14.019054,14.010103,13.999815,13.990341,13.983483,13.9766655,13.969944,13.96423,13.958117,13.950481,13.943024,13.936159,13.927748,13.920063,13.914361,13.908411,13.904115,13.902132,13.901253,13.901703,13.902702,13.903747,13.904275,13.903777,13.902667,13.900963,13.899336,13.898277,13.897658,13.897642,13.897888,13.898176,13.898584,13.898999,13.899382,13.9003105,13.901844,13.903637,13.906473,13.910192,13.913832,13.9186735,13.924386,13.9293995,13.934772,13.940507,13.945116,13.949191,13.953334,13.956432,13.958582,13.960582,13.961998,13.9629135,13.96418,13.966042,13.9681,13.970768,13.974096,13.977068,13.979595,13.982321,13.984495,13.986042,13.987709,13.988785,13.989032,13.9882965,13.985592,13.981666,13.976195,13.9683485,13.960451,13.953178,13.944927,13.93791,13.932667,13.926943,13.921949,13.918349,13.91455,13.911524,13.910015,13.909227,13.90905,13.909186,13.909277,13.9087925,13.907379,13.905532,13.902322,13.897523,13.892498,13.885656,13.876672,13.868066,13.859159,13.848733,13.839588,13.831989,13.823616,13.816946,13.812649,13.809089,13.807462,13.807413,13.808243,13.810384,13.813005,13.81572,13.819442,13.8231125,13.82622,13.829365,13.831251,13.831816,13.83099,13.828305,13.825018,13.820633,13.815055,13.809906,13.804922,13.799018,13.793606,13.789059,13.783445,13.777678,13.772802,13.767002,13.760948,13.75614,13.751476,13.746872,13.743364,13.7404,13.737703,13.736172,13.735476,13.735798,13.737421,13.739418,13.741935,13.744354,13.745758,13.746447,13.745946,13.744093,13.741285,13.736473,13.729818,13.7226,13.71192,13.699627,13.689327,13.678124,13.668025,13.661522,13.6563,13.651928,13.64887,13.646072,13.643078,13.640715,13.639119,13.637569,13.636164,13.634869,13.632534,13.629144,13.625866,13.622646,13.619617,13.618035,13.617761,13.618412,13.619712,13.620888,13.621456,13.620119,13.6173315,13.6132965,13.607735,13.602774,13.598824,13.59627,13.595873,13.596328,13.597416,13.598402,13.598694,13.598738,13.598418,13.597988,13.597788,13.597975
13.4617405,13.460016,13.457451,13.454832,13.451989,13.449839,13.449084,13.449431,13.451429,13.454338,13.457366,13.4615135,13.466049,13.470322,13.476021,13.482405,13.4880295,13.494688,13.501856,13.507849,13.514351,13.521944,13.52873,13.534718,13.541231,13.546405,13.549875,13.553751,13.557917,13.561926,13.567305,13.574854,13.582773,13.591843,13.603443,13.614637,13.624936,13.636932,13.6474495,13.655296,13.663628,13.670949,13.676365,13.682451,13.688733,13.693662,13.697983,13.701786,13.703983,13.705005,13.70593,13.707005,13.708318,13.710585,13.713516,13.716106,13.718858,13.721506,13.723269,13.724563,13.725027,13.724009,13.721935,13.718,13.712894,13.70822,13.702785,13.697359,13.693093,13.688168,13.68221,13.676621,13.671053,13.664942,13.660752,13.658713,13.658723,13.662416,13.668071,13.6772375,13.690086,13.702607,13.717045,13.734112,13.749338,13.763236,13.779974,13.795998,13.8097725,13.8272,13.845198,13.860077,13.877176,13.894908,13.909258,13.923922,13.939771,13.952754,13.963505,13.97403,13.980637,13.98373,13.984159,13.9811125,13.977015,13.971466,13.965024,13.9597225,13.954428,13.947779,13.940758,13.9335785,13.923385,13.912462,13.903105,13.89253,13.8830185,13.876282,13.869719,13.863331,13.857883,13.851995,13.844536,13.837113,13.830156,13.821531,13.813546,13.8075485,13.801194,13.796444,13.794081,13.792725,13.7925625,13.792952,13.793354,13.79302,13.791655,13.789778,13.787161,13.784669,13.782911,13.78157,13.780966,13.780844,13.780859,13.781197,13.781738,13.782333,13.783635,13.785605,13.787798,13.791155,13.795433,13.799562,13.80503,13.811463,13.817118,13.823227,13.829811,13.835162,13.839924,13.844864,13.848686,13.851433,13.85416,13.856304,13.857817,13.859732,13.862176,13.864605,13.867525,13.870947,13.873882,13.876343,13.879021,13.881264,13.882982,13.885008,13.8866005,13.887338,13.887243,13.88521,13.881779,13.876757,13.869312,13.861664,13.854519,13.846393,13.839478,13.834297,13.828695,13.8239,13.820526,13.817038,13.814481,13.813488,13.81328,13.813913,13.814923,13.815872,13.816569,13.816416,13.815666,13.813719,13.81011,13.805975,13.800076,13.792047,13.784208,13.776053,13.766346,13.757633,13.750259,13.741865,13.734861,13.730133,13.725971,13.723565,13.722766,13.72271,13.723726,13.725241,13.726792,13.729046,13.731312,13.733206,13.735005,13.735777,13.735579,13.734006,13.730741,13.727095,13.722363,13.716534,13.711317,13.706417,13.700812,13.695873,13.691843,13.686943,13.682003,13.677887,13.673019,13.667984,13.664,13.660093,13.656166,13.653082,13.650396,13.647848,13.646271,13.645447,13.645437,13.646553,13.648067,13.649939,13.651575,13.652247,13.6521,13.650408,13.647163,13.642808,13.635649,13.626148,13.616106,13.601713,13.585595,13.572353,13.558283,13.546198,13.538984,13.533569,13.5296545,13.527336,13.525133,13.522669,13.520583,13.519081,13.517599,13.516262,13.515066,13.512803,13.509501,13.506347,13.503304,13.500657,13.499645,13.500035,13.501669,13.504021,13.506053,13.507527,13.506886,13.504477,13.500833,13.495827,13.491575,13.488533,13.487572,13.489003,13.491053,13.493857,13.496109,13.497097,13.497539,13.497241,13.496677,13.496272,13.496223
13.384573,13.383238,13.380852,13.378177,13.375139,13.372564,13.371315,13.371098,13.372447,13.374809,13.377356,13.380974,13.385039,13.388912,13.394087,13.399912,13.405076,13.411203,13.417868,13.423519,13.429777,13.437228,13.443999,13.450062,13.456724,13.462093,13.465748,13.46987,13.474276,13.478449,13.484022,13.491732,13.499739,13.508867,13.520498,13.531689,13.541959,13.55393,13.564478,13.572405,13.580877,13.588375,13.593941,13.600174,13.6065645,13.611538,13.615863,13.619648,13.621794,13.622731,13.623451,13.624227,13.625252,13.627142,13.629675,13.631947,13.634401,13.636725,13.638168,13.639109,13.639078,13.63755,13.635012,13.630659,13.62537,13.620705,13.615526,13.610643,13.606955,13.602657,13.597313,13.592102,13.586723,13.580614,13.576235,13.573965,13.573621,13.576908,13.582214,13.5909395,13.603287,13.615377,13.629337,13.645977,13.660982,13.674815,13.69158,13.707634,13.721382,13.738529,13.75596,13.770226,13.786641,13.803806,13.817908,13.832632,13.848938,13.862562,13.873936,13.885166,13.892233,13.895461,13.895855,13.892553,13.8881445,13.882179,13.875278,13.869604,13.863884,13.8566885,13.8491335,13.841464,13.830741,13.819456,13.809925,13.799304,13.789938,13.783424,13.77718,13.7711735,13.766027,13.760408,13.753193,13.745881,13.738897,13.730131,13.721899,13.715641,13.708929,13.703785,13.701093,13.699333,13.69865,13.698523,13.698391,13.697341,13.695239,13.692701,13.689241,13.685865,13.683337,13.68112,13.679705,13.679024,13.678577,13.678682,13.679262,13.680023,13.681696,13.684126,13.686741,13.69065,13.695511,13.70013,13.706193,13.713264,13.719463,13.726187,13.733479,13.739472,13.744846,13.750536,13.755054,13.7583685,13.761774,13.764583,13.766631,13.769137,13.7721405,13.77497,13.778219,13.781885,13.784939,13.787464,13.790204,13.7925625,13.7944565,13.796804,13.798855,13.800044,13.800555,13.799195,13.796291,13.791768,13.784788,13.777434,13.770443,13.762409,13.7555,13.75028,13.744633,13.739835,13.736509,13.733145,13.730845,13.7301655,13.730307,13.73144,13.733019,13.734544,13.73609,13.736919,13.737077,13.736244,13.733756,13.730488,13.725534,13.718458,13.711363,13.703923,13.69486,13.686491,13.6792555,13.670748,13.663338,13.658119,13.653312,13.6501465,13.648667,13.64786,13.647944,13.6485195,13.649067,13.649967,13.650859,13.651533,13.651911,13.651442,13.650374,13.647952,13.64406,13.640073,13.635075,13.629112,13.623919,13.619141,13.613795,13.609203,13.605528,13.601122,13.596783,13.593247,13.589138,13.584977,13.581733,13.578562,13.575347,13.572775,13.57049,13.568283,13.566883,13.56613,13.56605,13.56694,13.568199,13.569725,13.5709305,13.571186,13.570542,13.568066,13.563808,13.558271,13.549237,13.537409,13.525046,13.507618,13.488398,13.472783,13.456408,13.442736,13.4349575,13.429378,13.4257965,13.424011,13.422208,13.420011,13.4179325,13.416307,13.414608,13.413063,13.411769,13.40943,13.406159,13.403152,13.40035,13.398198,13.397831,13.398895,13.401403,13.404555,13.407158,13.409133,13.408754,13.406416,13.40289,13.398258,13.394657,13.392504,13.393173,13.396494,13.400198,13.404762,13.408257,13.409865,13.410557,13.410062,13.409168,13.408329,13.407807
13.31569,13.314625,13.312374,13.309666,13.306477,13.3035555,13.301893,13.301201,13.302,13.303908,13.306078,13.309302,13.313017,13.316571,13.32131,13.326631,13.331338,13.336914,13.34301,13.348237,13.354129,13.361267,13.367863,13.373842,13.380492,13.385921,13.389662,13.393908,13.398441,13.402706,13.408398,13.416218,13.42429,13.433466,13.445119,13.456302,13.46654,13.4784775,13.4890375,13.497036,13.505622,13.513277,13.518986,13.525351,13.53182,13.536798,13.541098,13.544833,13.546912,13.547783,13.548359,13.548934,13.549765,13.551388,13.553623,13.555663,13.557905,13.559968,13.561125,13.561744,13.561238,13.559205,13.556201,13.55142,13.545912,13.541206,13.536217,13.5317745,13.528558,13.524781,13.519974,13.515122,13.50996,13.503916,13.499435,13.497009,13.496416,13.499407,13.504456,13.51285,13.524811,13.536554,13.550119,13.566349,13.581085,13.5947895,13.611475,13.627453,13.641095,13.657914,13.674798,13.688496,13.7042885,13.720941,13.734821,13.749619,13.766336,13.780522,13.792451,13.804331,13.811848,13.81525,13.815695,13.812265,13.807658,13.801419,13.794199,13.788262,13.782251,13.774677,13.766765,13.758785,13.7477665,13.736328,13.726776,13.716259,13.707131,13.700871,13.694958,13.689323,13.68447,13.679123,13.672157,13.664966,13.657982,13.649107,13.640667,13.634187,13.627169,13.621685,13.618721,13.616628,13.615524,13.614981,13.614418,13.612791,13.610098,13.607027,13.602865,13.598715,13.595469,13.592398,13.590142,13.588852,13.587883,13.587677,13.588211,13.589067,13.591031,13.593857,13.596855,13.6012745,13.60667,13.611735,13.618322,13.625946,13.632601,13.639834,13.647718,13.654255,13.66017,13.6665325,13.67168,13.6755085,13.679514,13.682893,13.685394,13.688419,13.691941,13.695164,13.698789,13.702797,13.706087,13.708794,13.71172,13.714279,13.716404,13.719089,13.721569,13.723181,13.724264,13.723551,13.721161,13.717152,13.710659,13.70361,13.696791,13.6888485,13.68191,13.676601,13.670836,13.665937,13.662574,13.659241,13.657083,13.6565895,13.656929,13.658361,13.660307,13.66223,13.664417,13.66605,13.666981,13.667135,13.6656685,13.663197,13.659105,13.652882,13.646429,13.639583,13.631035,13.6229,13.615693,13.606976,13.599098,13.593355,13.587889,13.584017,13.581959,13.58053,13.579857,13.579662,13.579356,13.579066,13.578713,13.578255,13.577284,13.575619,13.573709,13.570477,13.56601,13.561735,13.556551,13.550535,13.545393,13.540741,13.535592,13.53122,13.527759,13.5236635,13.519735,13.516616,13.513068,13.509586,13.506945,13.5044,13.501831,13.49976,13.497897,13.496109,13.494995,13.49441,13.494413,13.495257,13.496415,13.497809,13.498825,13.498876,13.497963,13.495014,13.490086,13.483687,13.473236,13.4595995,13.44541,13.42559,13.403927,13.386444,13.3682575,13.353321,13.34506,13.339317,13.335929,13.334461,13.332863,13.3307,13.328411,13.32648,13.324334,13.32235,13.320784,13.318216,13.314868,13.311961,13.309399,13.307748,13.308014,13.309713,13.312976,13.316744,13.319717,13.321944,13.32159,13.319155,13.315586,13.311195,13.308163,13.306829,13.309044,13.314172,13.319462,13.325718,13.330385,13.332554,13.33341,13.332621,13.33131,13.329944,13.328845
13.235809,13.234879,13.232703,13.229952,13.226593,13.223328,13.221266,13.220072,13.220303,13.221769,13.2236,13.226492,13.229917,13.233199,13.23752,13.242291,13.246462,13.251346,13.256668,13.261272,13.266575,13.273144,13.279345,13.285061,13.291496,13.296816,13.300522,13.304729,13.309219,13.313442,13.319101,13.326885,13.334915,13.344049,13.355665,13.366806,13.376972,13.388849,13.399411,13.407472,13.41617,13.423981,13.429832,13.436316,13.442832,13.447777,13.452011,13.455648,13.457641,13.458451,13.458935,13.459396,13.460127,13.461603,13.463675,13.465586,13.467723,13.46962,13.470547,13.470874,13.469893,13.467316,13.463791,13.458497,13.452696,13.447905,13.443054,13.439045,13.436339,13.43313,13.428926,13.424511,13.419622,13.413721,13.409207,13.406673,13.405876,13.408619,13.413464,13.421595,13.433202,13.444576,13.457666,13.473311,13.487544,13.500858,13.517133,13.532736,13.546043,13.5623,13.578443,13.591446,13.606485,13.622537,13.636164,13.651024,13.668173,13.682953,13.695477,13.708068,13.716122,13.719782,13.720412,13.717028,13.712386,13.706043,13.698685,13.692633,13.686459,13.678661,13.670561,13.662465,13.651408,13.640085,13.630734,13.620546,13.611828,13.605921,13.600418,13.595221,13.590723,13.585729,13.579111,13.572117,13.565191,13.556229,13.547544,13.540784,13.533375,13.527472,13.524181,13.5217285,13.52021,13.519297,13.518391,13.516335,13.513212,13.509765,13.505049,13.500208,13.496277,13.492314,13.489101,13.487064,13.485434,13.48477,13.485169,13.486069,13.488294,13.491511,13.494881,13.499786,13.50566,13.511091,13.518099,13.52615,13.533162,13.540795,13.549197,13.556267,13.562727,13.569809,13.575665,13.580076,13.584755,13.588764,13.591761,13.5953665,13.599512,13.60327,13.607462,13.612089,13.615888,13.619036,13.62243,13.625393,13.627865,13.630974,13.633923,13.635971,13.637646,13.63762,13.635817,13.632421,13.626545,13.619917,13.613366,13.605567,13.598573,13.593105,13.587092,13.581927,13.578375,13.5749035,13.572685,13.572195,13.572556,13.574094,13.576265,13.578505,13.5813265,13.583866,13.58573,13.587107,13.586928,13.585468,13.582445,13.577219,13.57145,13.565184,13.557047,13.548968,13.541578,13.53237,13.523746,13.51725,13.510885,13.50613,13.50341,13.501287,13.499834,13.498878,13.497715,13.496208,13.494549,13.492878,13.490437,13.487457,13.484627,13.480524,13.475475,13.470942,13.465642,13.45965,13.454613,13.450127,13.445196,13.441031,13.43774,13.433893,13.430291,13.427511,13.424444,13.421561,13.419471,13.417526,13.4156475,13.414188,13.412904,13.411779,13.411232,13.411074,13.411489,13.412608,13.413903,13.415421,13.4165,13.41655,13.415594,13.4124565,13.407158,13.40023,13.388809,13.373854,13.358301,13.336676,13.31312,13.294155,13.274491,13.258429,13.249602,13.243471,13.239864,13.238253,13.236435,13.233734,13.230633,13.227871,13.224587,13.221418,13.218968,13.215534,13.211517,13.208303,13.205654,13.204203,13.204866,13.206989,13.210708,13.214764,13.217827,13.219978,13.219368,13.216675,13.212971,13.208872,13.20657,13.206276,13.210432,13.217836,13.225135,13.2336,13.239879,13.24287,13.244035,13.242933,13.241123,13.239093,13.237252
13.15962,13.15865,13.156478,13.15369,13.150215,13.146713,13.144369,13.142775,13.142552,13.143691,13.145308,13.148029,13.151316,13.154455,13.158491,13.162807,13.166489,13.170696,13.17522,13.179147,13.183771,13.189642,13.19532,13.20065,13.206715,13.211771,13.215301,13.2192745,13.223505,13.227501,13.232916,13.240446,13.248279,13.257237,13.268703,13.279735,13.289774,13.301535,13.312046,13.3201065,13.328842,13.336737,13.34267,13.349213,13.355716,13.360586,13.364718,13.368233,13.370142,13.370926,13.371408,13.371899,13.372667,13.374186,13.376308,13.378263,13.380459,13.382362,13.383204,13.383375,13.382055,13.379038,13.375076,13.369326,13.363235,13.358332,13.353548,13.349871,13.347595,13.344892,13.341251,13.337255,13.332661,13.326958,13.322492,13.319925,13.319037,13.321651,13.3263855,13.33437,13.345713,13.356737,13.369333,13.384264,13.397781,13.410425,13.425922,13.440837,13.45359,13.469134,13.484498,13.49682,13.511141,13.52664,13.540039,13.554939,13.572435,13.587699,13.600704,13.613886,13.622415,13.6263485,13.627264,13.624115,13.619638,13.613421,13.606158,13.600179,13.594018,13.5862255,13.578179,13.570213,13.559437,13.548518,13.539587,13.529909,13.521677,13.51613,13.511007,13.506194,13.502021,13.497371,13.491119,13.484366,13.477543,13.468531,13.459617,13.452573,13.444765,13.438432,13.434816,13.432032,13.430206,13.429081,13.428026,13.425849,13.42264,13.419132,13.414257,13.409088,13.404752,13.400165,13.396179,13.39349,13.391235,13.390087,13.390276,13.391138,13.393496,13.396952,13.400552,13.405742,13.4118595,13.4174385,13.424599,13.432786,13.439905,13.447678,13.456337,13.463743,13.470583,13.478216,13.484646,13.489542,13.494779,13.499298,13.502688,13.506763,13.511466,13.51576,13.520585,13.525995,13.5305195,13.534325,13.538446,13.542013,13.544941,13.548536,13.551945,13.554377,13.556545,13.557113,13.555855,13.553062,13.547853,13.5417385,13.535557,13.527997,13.520992,13.515366,13.509049,13.503498,13.499627,13.495836,13.493302,13.492566,13.492679,13.494009,13.496143,13.498491,13.501767,13.505127,13.507891,13.510485,13.511619,13.511192,13.509239,13.504955,13.499773,13.493949,13.486008,13.47776,13.469978,13.460057,13.450516,13.443159,13.435802,13.43013,13.426772,13.424004,13.421892,13.420346,13.4185295,13.416079,13.413385,13.410748,13.407124,13.403093,13.399544,13.394801,13.389373,13.384722,13.379442,13.37359,13.368715,13.364413,13.359677,13.355656,13.352462,13.348726,13.345256,13.342612,13.339764,13.337185,13.335396,13.333818,13.332451,13.331541,13.330829,13.33046,13.330653,13.331106,13.332216,13.333921,13.335604,13.337518,13.338946,13.33925,13.338543,13.335645,13.330494,13.323638,13.312153,13.296955,13.281088,13.258993,13.234864,13.215383,13.195137,13.178471,13.16915,13.162485,13.158209,13.155905,13.153397,13.149593,13.14515,13.141141,13.13617,13.131205,13.127352,13.122498,13.117262,13.1133175,13.110197,13.108513,13.109171,13.111347,13.115057,13.118977,13.121832,13.123643,13.122625,13.119628,13.1157875,13.111984,13.110392,13.111071,13.117047,13.126595,13.1357975,13.146411,13.154303,13.158142,13.159636,13.158224,13.155884,13.153139,13.150497
13.09759,13.096518,13.094326,13.091526,13.088013,13.084402,13.081892,13.080032,13.079504,13.080431,13.081934,13.084605,13.087872,13.0909605,13.094835,13.098841,13.102155,13.105833,13.109711,13.113077,13.117123,13.122391,13.127605,13.132573,13.138277,13.143049,13.146361,13.150045,13.153937,13.157629,13.1627035,13.169884,13.177446,13.186169,13.19742,13.208293,13.21818,13.229788,13.240192,13.248192,13.256884,13.264771,13.270723,13.277269,13.283726,13.288508,13.292533,13.295933,13.297787,13.298573,13.299109,13.299703,13.300583,13.302242,13.304521,13.306612,13.308947,13.310951,13.31181,13.311935,13.310424,13.307112,13.302845,13.296774,13.290466,13.285468,13.280712,13.277261,13.275293,13.272984,13.269789,13.266132,13.261805,13.256302,13.251913,13.249362,13.248464,13.251037,13.255721,13.263625,13.274763,13.285484,13.297634,13.311874,13.324652,13.336567,13.351196,13.365349,13.3775215,13.392408,13.407131,13.418907,13.432679,13.447765,13.460995,13.475919,13.493656,13.509253,13.522583,13.536163,13.545025,13.549169,13.550356,13.547495,13.543251,13.537249,13.530174,13.524325,13.518251,13.51057,13.502689,13.494941,13.48456,13.474128,13.465647,13.456468,13.448664,13.443394,13.43854,13.433994,13.430048,13.425657,13.419703,13.413158,13.406434,13.3974,13.388309,13.381036,13.3729,13.366205,13.362312,13.359261,13.357235,13.356028,13.354954,13.35285,13.349778,13.346416,13.341665,13.336488,13.332024,13.327129,13.322683,13.319559,13.316858,13.315314,13.31529,13.316076,13.318447,13.321979,13.325663,13.330944,13.337106,13.342667,13.349798,13.357919,13.364965,13.372694,13.381392,13.388924,13.39595,13.403898,13.410682,13.415888,13.421475,13.4263115,13.42994,13.434305,13.439384,13.44408,13.449424,13.455548,13.460783,13.465248,13.470127,13.474335,13.477736,13.481823,13.485649,13.488401,13.49095,13.491978,13.491163,13.488881,13.484285,13.478687,13.4729,13.465646,13.45871,13.452999,13.44644,13.440525,13.436327,13.432171,13.42923,13.428139,13.427862,13.428806,13.430729,13.433016,13.436543,13.440512,13.443981,13.447563,13.449781,13.450207,13.449135,13.445607,13.440865,13.435345,13.427473,13.418981,13.410778,13.40016,13.389774,13.381651,13.373417,13.366953,13.363054,13.359762,13.357151,13.355192,13.352941,13.349863,13.346489,13.343222,13.338829,13.334137,13.330157,13.325077,13.319506,13.314861,13.309697,13.304046,13.299355,13.295216,13.290627,13.286688,13.283535,13.279814,13.276325,13.273656,13.270809,13.268274,13.266558,13.265111,13.264016,13.263479,13.263189,13.263448,13.264314,13.265346,13.26715,13.269487,13.271608,13.273989,13.27586,13.27651,13.276174,13.273735,13.269033,13.2626095,13.251651,13.236951,13.221489,13.199866,13.176113,13.156828,13.136688,13.1198845,13.110237,13.10309,13.098053,13.0949,13.091587,13.086604,13.080812,13.075588,13.068977,13.062256,13.057015,13.050746,13.044262,13.039526,13.03585,13.033771,13.0342245,13.036268,13.039765,13.043404,13.045994,13.047484,13.04616,13.042957,13.039057,13.0355015,13.034424,13.035799,13.043072,13.054159,13.064749,13.076941,13.086014,13.09045,13.092135,13.090395,13.087545,13.084137,13.080757
13.027142,13.025896,13.023658,13.0208645,13.017333,13.01364,13.011,13.008909,13.008099,13.008828,13.010234,13.012873,13.016132,13.019175,13.022891,13.02657,13.029493,13.032629,13.035858,13.038677,13.042156,13.046847,13.051628,13.056245,13.061598,13.066083,13.069161,13.072508,13.075991,13.0793085,13.08396,13.090694,13.097904,13.106303,13.117239,13.127855,13.137491,13.148818,13.15899,13.166824,13.175349,13.183125,13.189028,13.1954975,13.201844,13.206509,13.210408,13.213681,13.215473,13.216269,13.216885,13.21763,13.218676,13.220516,13.222991,13.225254,13.227767,13.229902,13.230791,13.23089,13.229204,13.225616,13.221062,13.214691,13.208188,13.203114,13.198405,13.195212,13.193599,13.191717,13.18903,13.185784,13.181785,13.176563,13.172319,13.169825,13.168943,13.171488,13.17613,13.183954,13.194836,13.205164,13.216738,13.23008,13.241884,13.2528305,13.266323,13.279502,13.290951,13.305057,13.319094,13.330353,13.34362,13.358367,13.371495,13.38651,13.404548,13.420502,13.434153,13.448118,13.45731,13.461672,13.463156,13.460621,13.456656,13.450914,13.44405,13.438331,13.432337,13.424757,13.417057,13.409602,13.3997135,13.38987,13.3819275,13.373306,13.365929,13.360899,13.35624,13.35186,13.348074,13.343895,13.338213,13.331883,13.325275,13.316246,13.306989,13.299475,13.290979,13.283873,13.279652,13.276272,13.273991,13.272671,13.271567,13.269577,13.266743,13.263655,13.259229,13.254284,13.249919,13.244949,13.240232,13.236803,13.233742,13.231823,13.231546,13.232195,13.234489,13.238004,13.241688,13.246964,13.253071,13.258532,13.265503,13.273399,13.2802305,13.2877445,13.296271,13.303751,13.310805,13.318903,13.32591,13.331321,13.337146,13.342198,13.345986,13.350557,13.355952,13.361034,13.366926,13.373861,13.379946,13.385251,13.391138,13.396229,13.400288,13.405034,13.409374,13.412479,13.415413,13.416883,13.416516,13.414804,13.410986,13.406133,13.4010105,13.394387,13.387806,13.382213,13.375587,13.369396,13.3648815,13.360327,13.356841,13.355202,13.354343,13.354641,13.356123,13.358196,13.361862,13.3664,13.370579,13.375229,13.378656,13.380032,13.379961,13.377318,13.373104,13.367935,13.360115,13.351301,13.34259,13.331146,13.319771,13.310747,13.301495,13.294086,13.289518,13.2855625,13.282314,13.279837,13.277056,13.273285,13.269206,13.265305,13.260204,13.254961,13.250667,13.245423,13.239911,13.235435,13.230532,13.225199,13.220757,13.21681,13.212401,13.208561,13.205442,13.201708,13.19814,13.195366,13.192379,13.189704,13.187908,13.186454,13.18551,13.185267,13.185366,13.186252,13.1878395,13.189525,13.192133,13.195227,13.197897,13.200872,13.20331,13.204403,13.2045555,13.202756,13.198753,13.19309,13.183151,13.169539,13.155082,13.134689,13.112041,13.093475,13.073935,13.057297,13.047378,13.039732,13.033808,13.029649,13.0254,13.019108,13.011864,13.005335,12.99696,12.988333,12.981564,12.973743,12.965885,12.960255,12.9558935,12.953241,12.953319,12.955095,12.958271,12.961636,12.964054,12.965436,12.964109,12.960971,12.957258,12.954091,12.953524,12.955517,12.963854,12.976174,12.987888,13.001347,13.011311,13.01612,13.017726,13.015387,13.011821,13.007528,13.00321
12.952703,12.951309,12.949092,12.946405,12.942984,12.939358,12.936699,12.9344635,12.93343,12.933983,12.935292,12.937866,12.941061,12.944006,12.947488,12.950762,12.953241,12.955801,12.958395,12.960721,12.963718,12.967955,12.972419,12.976795,12.981922,12.986208,12.98909,12.992124,12.995196,12.998114,13.002293,13.008518,13.015307,13.023298,13.033805,13.044046,13.053311,13.06419,13.073949,13.081467,13.089647,13.097141,13.102869,13.109142,13.115288,13.119793,13.123547,13.126679,13.128405,13.129202,13.129923,13.130861,13.132106,13.134178,13.136898,13.139368,13.142076,13.144346,13.145277,13.145369,13.143553,13.13975,13.1349745,13.12838,13.1217575,13.116664,13.11204,13.109118,13.107857,13.106408,13.104229,13.101408,13.09776,13.092859,13.088796,13.086374,13.085521,13.088022,13.092592,13.100273,13.110806,13.120642,13.131503,13.143759,13.1544075,13.164202,13.176367,13.18844,13.199085,13.21238,13.225794,13.236649,13.249573,13.264161,13.277313,13.292511,13.310891,13.327203,13.341151,13.355471,13.364975,13.369562,13.371388,13.369255,13.365635,13.360213,13.35359,13.34799,13.342036,13.33452,13.32699,13.319817,13.310431,13.301182,13.293758,13.28564,13.278581,13.273669,13.269049,13.264685,13.260961,13.2569275,13.25149,13.245403,13.238989,13.230044,13.220692,13.21299,13.2041645,13.196625,13.192025,13.188234,13.185596,13.184092,13.18289,13.181002,13.178465,13.175739,13.17181,13.167341,13.163315,13.158557,13.153849,13.150312,13.147057,13.144848,13.144308,13.144766,13.146857,13.150194,13.153735,13.158832,13.164719,13.169956,13.17659,13.184044,13.19046,13.197506,13.205548,13.212677,13.219469,13.227371,13.2343025,13.239692,13.245486,13.250509,13.25428,13.258858,13.264389,13.26973,13.27607,13.283773,13.290753,13.2969885,13.304062,13.310263,13.315191,13.320848,13.325918,13.329508,13.332933,13.334934,13.3351,13.334096,13.331306,13.327522,13.323412,13.317873,13.312063,13.306908,13.30053,13.294274,13.289539,13.284637,13.280541,13.278202,13.276583,13.275967,13.276726,13.278329,13.281842,13.286703,13.291401,13.296928,13.301439,13.30372,13.304632,13.302914,13.299298,13.294545,13.286856,13.277787,13.268621,13.256411,13.244093,13.234209,13.223938,13.215538,13.210236,13.205519,13.201512,13.198424,13.195055,13.190566,13.1858225,13.181364,13.175695,13.17009,13.165657,13.160458,13.155203,13.151027,13.146478,13.141518,13.137341,13.133582,13.129332,13.1255665,13.122454,13.118647,13.1149,13.1119175,13.108643,13.105641,13.103607,13.101994,13.101051,13.100994,13.101396,13.102821,13.1050625,13.107364,13.110739,13.114572,13.117794,13.121351,13.124355,13.125914,13.126586,13.125532,13.122425,13.1178,13.109364,13.097486,13.084707,13.066435,13.045826,13.028704,13.010464,12.994507,12.984554,12.976538,12.969769,12.964604,12.959429,12.951931,12.943415,12.935751,12.925859,12.915596,12.907503,12.89838,12.889385,12.883017,12.878076,12.874875,12.874542,12.876024,12.878914,12.88218,12.884689,12.886407,12.885599,12.882929,12.879768,12.877134,12.876932,12.879261,12.888046,12.900833,12.912977,12.926874,12.936996,12.941659,12.942684,12.939352,12.934813,12.929409,12.9239435
12.888018,12.886621,12.884567,12.882111,12.878952,12.875551,12.872995,12.870729,12.869562,12.869974,12.871191,12.873646,12.876677,12.879433,12.882569,12.885353,12.887352,12.889344,12.89138,12.8933115,12.895973,12.899948,12.904272,12.908571,12.913653,12.917885,12.920673,12.923518,12.926289,12.928886,12.932674,12.938452,12.944855,12.952454,12.962515,12.972343,12.981202,12.991568,13.000839,13.007966,13.015709,13.022823,13.028292,13.034293,13.040189,13.0445175,13.048118,13.051113,13.052767,13.053555,13.054369,13.055489,13.056913,13.059206,13.062157,13.064806,13.067659,13.070019,13.070971,13.071053,13.069159,13.065231,13.06034,13.053645,13.047001,13.04195,13.037437,13.034742,13.033752,13.03264,13.030846,13.028336,13.024965,13.020311,13.01638,13.013998,13.013132,13.015539,13.019978,13.027434,13.0375595,13.046893,13.0570545,13.068303,13.077921,13.086696,13.097715,13.108864,13.118852,13.131514,13.144499,13.155125,13.16791,13.182519,13.195797,13.211218,13.229919,13.246531,13.260731,13.275349,13.285133,13.289944,13.292135,13.290436,13.287178,13.282103,13.275734,13.270243,13.264301,13.2568035,13.249374,13.242374,13.2333355,13.224505,13.217426,13.209621,13.202709,13.197791,13.193087,13.188633,13.184907,13.180956,13.175719,13.169884,13.163712,13.154947,13.145618,13.137846,13.128817,13.12093,13.115976,13.111765,13.108709,13.1069355,13.105541,13.10364,13.101309,13.098874,13.095394,13.091418,13.08779,13.083373,13.0788555,13.075367,13.07207,13.06968,13.068909,13.069148,13.070942,13.073971,13.077249,13.082031,13.087597,13.09255,13.098787,13.105738,13.111671,13.11816,13.125568,13.13217,13.138497,13.145924,13.152496,13.15764,13.163139,13.167886,13.171453,13.175832,13.181267,13.186656,13.193195,13.201397,13.209051,13.216038,13.224159,13.231436,13.237274,13.243973,13.249968,13.254208,13.258305,13.261007,13.261829,13.261643,13.260005,13.257414,13.254433,13.250151,13.245306,13.240759,13.234837,13.22871,13.223898,13.218794,13.214209,13.211236,13.208897,13.207352,13.207292,13.208266,13.211334,13.216129,13.220974,13.22689,13.232021,13.234906,13.236513,13.235535,13.232477,13.228167,13.220751,13.211666,13.202303,13.189672,13.176768,13.166323,13.155319,13.146143,13.140226,13.134844,13.130135,13.126471,13.122568,13.117458,13.112167,13.107278,13.101202,13.095384,13.090916,13.085838,13.080855,13.076952,13.07269,13.0680065,13.064001,13.060345,13.056157,13.052388,13.049238,13.045293,13.041311,13.038084,13.034484,13.031131,13.0288315,13.027027,13.026024,13.026062,13.026657,13.028425,13.031086,13.033779,13.037636,13.041929,13.045495,13.049399,13.052764,13.054654,13.05571,13.055267,13.052965,13.049304,13.042355,13.032288,13.021309,13.005384,12.987136,12.971769,12.955196,12.940321,12.9306755,12.922623,12.915388,12.909562,12.90377,12.895525,12.886266,12.877947,12.86722,12.856091,12.84733,12.83762,12.828201,12.821618,12.816536,12.813184,12.812724,12.814136,12.817038,12.820545,12.823468,12.825933,12.826036,12.82407,12.821616,12.819437,12.819305,12.821553,12.830028,12.842388,12.854141,12.867514,12.876977,12.880962,12.88099,12.876453,12.870871,12.864344,12.857725
12.827589,12.8263645,12.824634,12.82253,12.819771,12.816706,12.814316,12.812106,12.810881,12.811178,12.812309,12.81461,12.8174,12.81987,12.822521,12.824677,12.826097,12.827459,12.828917,12.830467,12.832839,12.83664,12.840927,12.84523,12.850355,12.854613,12.857373,12.860096,12.862619,12.864939,12.868377,12.873735,12.879765,12.886964,12.896551,12.905928,12.914337,12.924142,12.932873,12.939562,12.946798,12.953461,12.958618,12.964294,12.969891,12.974003,12.977421,12.980253,12.981829,12.98262,12.983516,12.9848,12.986405,12.988923,12.992088,12.994885,12.997854,13.000269,13.001215,13.001278,12.999337,12.995356,12.990417,12.983719,12.977135,12.972162,12.96777,12.965269,12.964493,12.963617,12.962094,12.959806,12.956629,12.952139,12.94827,12.945887,12.944939,12.94717,12.951412,12.958561,12.968208,12.977012,12.986488,12.996815,13.005524,13.013422,13.023479,13.033875,13.043331,13.055487,13.068163,13.078655,13.091384,13.106071,13.119513,13.135174,13.15419,13.171085,13.185535,13.200453,13.2105465,13.215644,13.218269,13.217075,13.2142315,13.209586,13.20355,13.1982155,13.192326,13.184849,13.177473,13.170582,13.161775,13.153233,13.146403,13.1388,13.131961,13.127018,13.122214,13.117665,13.113931,13.110045,13.105003,13.099426,13.0935135,13.085022,13.075846,13.068104,13.058996,13.050857,13.045582,13.040948,13.03742,13.0352955,13.033603,13.031555,13.029306,13.027065,13.023942,13.0204115,13.017182,13.013128,13.008862,13.005489,13.002197,12.999645,12.998617,12.998565,12.999931,13.002522,13.005434,13.009793,13.014959,13.019588,13.025433,13.031902,13.037369,13.043308,13.050062,13.056072,13.061842,13.068636,13.074669,13.079396,13.084408,13.0886965,13.0919075,13.095917,13.101067,13.106323,13.11286,13.121305,13.129426,13.136995,13.146059,13.154425,13.161243,13.16918,13.176394,13.1815605,13.186661,13.190395,13.192106,13.192938,13.1926155,13.191311,13.189524,13.186535,13.1826725,13.178747,13.173301,13.167343,13.162502,13.15726,13.152263,13.148725,13.145702,13.143211,13.142242,13.142462,13.144819,13.149185,13.153822,13.1596985,13.165043,13.168243,13.170288,13.169891,13.16737,13.163559,13.15659,13.147726,13.1384325,13.125721,13.1125555,13.101787,13.090296,13.08053,13.074107,13.068157,13.062815,13.058608,13.054212,13.048522,13.042723,13.037432,13.030972,13.024941,13.020426,13.015438,13.010664,13.006956,13.002897,12.998382,12.994448,12.990798,12.986559,12.982688,12.979418,12.975254,12.970982,12.967478,12.9635315,12.959833,12.957306,12.955336,12.954283,12.954402,12.955139,12.957129,12.96002,12.962912,12.966992,12.971481,12.975182,12.979237,12.9828,12.984917,12.9862795,12.986368,12.984795,12.982042,12.976538,12.968286,12.959145,12.945683,12.929993,12.916594,12.901999,12.888612,12.879644,12.871956,12.864679,12.858538,12.852423,12.843773,12.834124,12.825468,12.814369,12.802958,12.794073,12.784399,12.775248,12.769023,12.764315,12.761337,12.761173,12.762865,12.766201,12.77034,12.773983,12.777514,12.778747,12.777573,12.775782,12.773817,12.773409,12.775175,12.782705,12.79394,12.804689,12.816795,12.82496,12.827837,12.826505,12.820539,12.813805,12.806056,12.798171
12.757007,12.756155,12.754972,12.753422,12.751291,12.74877,12.746681,12.74465,12.743426,12.743607,12.744633,12.746685,12.749058,12.751043,12.752916,12.754124,12.754713,12.755203,12.755901,12.756987,12.759049,12.762717,12.767034,12.771427,12.776722,12.781125,12.783934,12.786621,12.788965,12.791035,12.79413,12.799067,12.804704,12.811448,12.820461,12.829273,12.837128,12.846246,12.854315,12.860469,12.867078,12.8731575,12.877901,12.883152,12.888347,12.892174,12.895346,12.897958,12.899416,12.900183,12.901154,12.902614,12.904415,12.907173,12.910559,12.91349,12.916536,12.918945,12.919836,12.91984,12.917833,12.91382,12.908888,12.90226,12.8958,12.890949,12.886706,12.884386,12.883781,12.883076,12.881731,12.879591,12.876547,12.872152,12.868284,12.865839,12.864722,12.866662,12.870579,12.877239,12.88621,12.894334,12.902987,12.912279,12.920042,12.927065,12.936197,12.945885,12.954844,12.966567,12.979025,12.989471,13.002261,13.0171585,13.030854,13.04683,13.0662155,13.083429,13.098162,13.113444,13.1239395,13.129419,13.132652,13.132172,13.129923,13.1259165,13.120408,13.115347,13.109591,13.102162,13.0948105,13.087974,13.079302,13.070938,13.06426,13.056749,13.049889,13.044846,13.039868,13.035166,13.031401,13.027566,13.022747,13.01751,13.011963,13.0039,12.995037,12.987442,12.978348,12.969972,12.964327,12.959156,12.95496,12.952272,12.950067,12.94763,12.945278,12.943106,12.940237,12.937111,12.934286,12.93063,12.926664,12.923447,12.920187,12.917448,12.916075,12.9156,12.916329,12.918253,12.920591,12.924305,12.928896,12.933091,12.9384365,12.944336,12.949265,12.954548,12.960482,12.965706,12.970692,12.976559,12.981753,12.985796,12.9900055,12.993544,12.996172,12.99955,13.004129,13.009012,13.015286,13.023718,13.032125,13.040165,13.050165,13.059783,13.067852,13.077454,13.086441,13.093045,13.099748,13.10515,13.108265,13.110628,13.112196,13.112661,13.11248,13.111206,13.108648,13.105581,13.100843,13.09523,13.090469,13.085211,13.079878,13.075782,13.072052,13.068491,13.066402,13.065624,13.066891,13.070384,13.074413,13.079786,13.084944,13.0882225,13.090518,13.090665,13.088773,13.085632,13.079392,13.071077,13.062174,13.049751,13.03665,13.0258045,13.014035,13.003798,12.996902,12.990391,12.984364,12.979536,12.974571,12.968201,12.961785,12.955992,12.949026,12.942659,12.937992,12.93297,12.92827,12.924638,12.920652,12.916155,12.912155,12.908371,12.903919,12.899805,12.8963,12.891794,12.887127,12.883285,12.878927,12.8748665,12.872134,12.870036,12.868985,12.86921,12.870094,12.872237,12.875215,12.878136,12.882172,12.886548,12.890137,12.894074,12.897595,12.899785,12.9013195,12.90181,12.900884,12.899,12.89497,12.888691,12.881622,12.871033,12.858472,12.847595,12.835633,12.824411,12.816643,12.8098,12.802949,12.796839,12.790671,12.781973,12.772331,12.763718,12.75281,12.741826,12.733471,12.724628,12.716631,12.711494,12.707844,12.705914,12.706566,12.708971,12.713266,12.718561,12.723373,12.728523,12.731371,12.731264,12.730268,12.728376,12.727331,12.728127,12.7339,12.74309,12.751995,12.761827,12.767807,12.768969,12.765724,12.757949,12.749848,12.740679,12.731285
12.688736,12.688341,12.687782,12.686857,12.685459,12.6836,12.681913,12.680181,12.679075,12.679196,12.680152,12.681947,12.683848,12.685287,12.686293,12.686455,12.686148,12.685707,12.6856,12.6861925,12.68794,12.691473,12.695826,12.700325,12.705827,12.71043,12.7133465,12.71609,12.718369,12.720294,12.723164,12.727786,12.733118,12.739483,12.747993,12.756302,12.763685,12.772221,12.7797365,12.785447,12.79153,12.797111,12.801484,12.806349,12.811164,12.814701,12.817618,12.819977,12.821274,12.821966,12.822955,12.824543,12.826498,12.829466,12.833045,12.836087,12.839167,12.84152,12.842321,12.842234,12.840151,12.83613,12.831243,12.824728,12.818422,12.813711,12.809603,12.807404,12.806881,12.806232,12.804926,12.802811,12.799794,12.795399,12.791465,12.78891,12.787567,12.789135,12.792639,12.798698,12.806904,12.814318,12.82217,12.830555,12.837547,12.84391,12.852369,12.861561,12.870188,12.881657,12.894051,12.904555,12.917517,12.932704,12.946682,12.962963,12.982654,13.0001,13.015047,13.030621,13.04148,13.047342,13.051212,13.051519,13.049952,13.046717,13.041896,13.037237,13.031736,13.024433,13.017099,13.010255,13.001588,12.993229,12.986542,12.978967,12.971964,12.966751,12.961546,12.956658,12.952841,12.949032,12.944421,12.939535,12.934376,12.926801,12.918332,12.910957,12.901947,12.893368,12.887348,12.881606,12.876656,12.873301,12.870472,12.867485,12.86486,12.862594,12.859776,12.85685,12.8542595,12.850855,12.847091,12.843971,12.840719,12.83778,12.836038,12.835093,12.835102,12.836258,12.837933,12.840889,12.844823,12.848547,12.853373,12.858725,12.863155,12.867837,12.872995,12.877459,12.881669,12.886583,12.890884,12.89418,12.897512,12.900219,12.902197,12.904854,12.908725,12.91308,12.918879,12.927004,12.935417,12.943671,12.95433,12.96503,12.974285,12.985576,12.996471,13.004702,13.013284,13.020685,13.025474,13.029613,13.033279,13.035641,13.037127,13.037619,13.0364065,13.034243,13.030296,13.025158,13.020618,13.01552,13.01009,13.005667,13.001472,12.997118,12.994111,12.992443,12.992624,12.995104,12.998318,13.002865,13.007459,13.010511,13.01275,13.01319,13.011811,13.009289,13.003844,12.996258,12.987963,12.9761505,12.963461,12.952836,12.941112,12.930688,12.923524,12.916643,12.910099,12.90476,12.899321,12.892335,12.885317,12.879008,12.871462,12.864616,12.859632,12.85434,12.849426,12.845623,12.841457,12.836722,12.83246,12.828382,12.823559,12.819087,12.815273,12.810373,12.805321,12.8011875,12.796509,12.792215,12.789406,12.787314,12.786388,12.786787,12.787842,12.790095,12.7930355,12.795834,12.799568,12.803517,12.806732,12.810249,12.813419,12.815443,12.816908,12.817505,12.816921,12.815581,12.812614,12.807911,12.802578,12.794514,12.784864,12.776451,12.767141,12.7582655,12.751959,12.746265,12.740221,12.734488,12.728558,12.72018,12.710949,12.702756,12.69257,12.682631,12.675343,12.667927,12.661699,12.658138,12.655983,12.655559,12.657383,12.66076,12.666263,12.67286,12.678894,12.685635,12.689985,12.690815,12.690428,12.688386,12.686506,12.686117,12.6898365,12.696678,12.703472,12.710758,12.714418,12.71387,12.70887,12.699596,12.690437,12.680159,12.669514
12.631266,12.631245,12.631207,12.630823,12.630085,12.628847,12.62756,12.626169,12.6252575,12.625397,12.626347,12.627964,12.629492,12.6304865,12.6307745,12.630069,12.629007,12.627778,12.626966,12.6271,12.62853,12.631893,12.636232,12.640778,12.646416,12.651178,12.654196,12.657015,12.659292,12.661161,12.663915,12.668346,12.673468,12.679577,12.68775,12.6957245,12.702812,12.710984,12.718168,12.723619,12.729389,12.734669,12.738814,12.74342,12.74796,12.751267,12.753961,12.756079,12.757198,12.757784,12.758736,12.760384,12.762439,12.7655735,12.769329,12.772472,12.775583,12.777887,12.778603,12.778427,12.776281,12.772263,12.767418,12.761013,12.754847,12.750248,12.746243,12.744108,12.743611,12.742955,12.7416115,12.739455,12.736408,12.731956,12.727933,12.725274,12.723706,12.724905,12.728006,12.733493,12.740993,12.747785,12.754984,12.762678,12.769129,12.775053,12.783073,12.79196,12.800391,12.81174,12.824156,12.834766,12.847917,12.863365,12.877579,12.894091,12.913971,12.93153,12.946569,12.962293,12.973396,12.979559,12.983959,12.984959,12.984013,12.981526,12.977415,12.973206,12.968029,12.960918,12.953621,12.946747,12.93802,12.929571,12.92278,12.915059,12.9078665,12.90247,12.897042,12.89198,12.888109,12.88432,12.879879,12.875282,12.870453,12.8633,12.855181,12.848009,12.839083,12.830328,12.823961,12.8177,12.812068,12.80811,12.804724,12.8012295,12.798307,12.795893,12.792994,12.790086,12.78755,12.784209,12.780491,12.777378,12.774084,12.77095,12.768885,12.767523,12.766889,12.767355,12.768427,12.770685,12.774012,12.777309,12.781684,12.786581,12.790609,12.794824,12.7993965,12.8032875,12.806925,12.811108,12.814705,12.817417,12.820058,12.822093,12.823533,12.82559,12.828848,12.83271,12.83802,12.845744,12.854009,12.862297,12.873335,12.884794,12.894948,12.907595,12.920101,12.929731,12.93999,12.9492235,12.955546,12.9613,12.966813,12.970785,12.9736595,12.975605,12.975504,12.974086,12.9708185,12.966137,12.961871,12.957024,12.951691,12.947189,12.942827,12.938089,12.934561,12.932339,12.931774,12.933459,12.935974,12.939734,12.943682,12.946367,12.948353,12.948833,12.947744,12.945633,12.94081,12.933867,12.926149,12.914988,12.902817,12.892526,12.881018,12.870626,12.863395,12.856354,12.849522,12.84387,12.838122,12.830685,12.823168,12.816416,12.808311,12.800934,12.795546,12.789827,12.7845,12.780357,12.775843,12.77071,12.766083,12.761654,12.75642,12.751579,12.747469,12.742225,12.736885,12.732567,12.727713,12.72335,12.720581,12.718615,12.717915,12.718542,12.719798,12.72218,12.72508,12.72773,12.731111,12.734562,12.737326,12.740316,12.74301,12.744744,12.745994,12.7465,12.746017,12.744919,12.742573,12.738915,12.734789,12.728569,12.721154,12.714702,12.707542,12.7006645,12.695686,12.691076,12.685857,12.680582,12.6749735,12.667011,12.658285,12.650601,12.641226,12.632391,12.626195,12.620168,12.615623,12.613548,12.612787,12.613798,12.616743,12.621002,12.627535,12.635143,12.642056,12.649872,12.655167,12.656531,12.656422,12.654087,12.651447,12.650051,12.652069,12.656999,12.662102,12.667403,12.66935,12.6676235,12.661524,12.6514225,12.641718,12.630835,12.619421
12.563742,12.5641,12.564603,12.564793,12.564774,12.56426,12.563481,12.562557,12.561964,12.562206,12.563213,12.564699,12.565867,12.5664215,12.566,12.5644245,12.562599,12.560559,12.558994,12.558609,12.55964,12.562713,12.566918,12.571412,12.577087,12.5819435,12.585035,12.587938,12.59026,12.592116,12.594818,12.599133,12.604097,12.609979,12.617847,12.625546,12.632386,12.6402855,12.647248,12.652557,12.658144,12.663231,12.667223,12.671627,12.675913,12.678976,12.681415,12.683227,12.684093,12.684502,12.685324,12.68696,12.689083,12.692369,12.696303,12.6995535,12.7027025,12.7049465,12.705549,12.705275,12.703072,12.699078,12.694305,12.688049,12.682062,12.677598,12.673708,12.671627,12.671127,12.670421,12.668985,12.6667385,12.663622,12.659094,12.654972,12.652187,12.650353,12.651104,12.653696,12.658454,12.665083,12.671138,12.677568,12.684519,12.690447,12.695955,12.703579,12.712202,12.720488,12.731783,12.744295,12.755075,12.7684765,12.784237,12.798702,12.815428,12.835428,12.8530035,12.868053,12.883816,12.895075,12.901506,12.906459,12.908241,12.908039,12.906479,12.903303,12.899738,12.895076,12.888325,12.881157,12.874294,12.865503,12.856919,12.849959,12.842007,12.834518,12.828835,12.823071,12.817717,12.813706,12.809867,12.805546,12.801221,12.796719,12.789996,12.782232,12.775256,12.7663765,12.757372,12.750586,12.743677,12.737199,12.732496,12.728426,12.724291,12.720961,12.718302,12.715206,12.712203,12.709633,12.706265,12.70253,12.699398,12.696037,12.692692,12.690283,12.688446,12.687077,12.686748,12.687111,12.688554,12.691162,12.693949,12.697785,12.702171,12.705782,12.709515,12.713506,12.716837,12.719909,12.723379,12.726292,12.72842,12.73036,12.731718,12.73262,12.734045,12.736614,12.739889,12.744579,12.751724,12.759674,12.767852,12.779125,12.791264,12.802288,12.816303,12.830511,12.841682,12.853822,12.865163,12.873297,12.880945,12.888605,12.894426,12.898897,12.902513,12.903699,12.903175,12.900782,12.896769,12.892941,12.888542,12.883541,12.879181,12.87487,12.869985,12.866119,12.8634815,12.862251,12.863127,12.864881,12.867718,12.870825,12.872965,12.874523,12.874892,12.874003,12.8722315,12.868011,12.861761,12.854698,12.844315,12.832815,12.82299,12.811855,12.801657,12.794484,12.7874155,12.780434,12.774578,12.76861,12.760785,12.752797,12.745598,12.736862,12.728811,12.722872,12.716508,12.710517,12.705835,12.700739,12.694966,12.689788,12.684847,12.679038,12.673704,12.669207,12.663553,12.657901,12.653391,12.648375,12.643994,12.641346,12.639563,12.639155,12.64007,12.641575,12.644094,12.646904,12.649338,12.6522255,12.654982,12.657113,12.659365,12.661341,12.662588,12.663449,12.663664,12.6630945,12.662064,12.660143,12.657376,12.65435,12.64991,12.6447525,12.640342,12.635472,12.630792,12.627338,12.624012,12.61982,12.615142,12.609978,12.602576,12.5945,12.587454,12.579116,12.571677,12.56683,12.562507,12.560005,12.559722,12.560651,12.563419,12.567735,12.573042,12.580727,12.589355,12.597076,12.605772,12.611754,12.613465,12.6134,12.610569,12.607046,12.604517,12.604723,12.607676,12.611031,12.614365,12.614748,12.61206,12.605226,12.594748,12.584866,12.57375,12.5618725
12.490419,12.491037,12.491967,12.492672,12.493374,12.493671,12.493525,12.49321,12.4930935,12.493561,12.494721,12.496216,12.497221,12.497559,12.496761,12.494683,12.492392,12.4898205,12.487663,12.486771,12.487301,12.489833,12.493599,12.497747,12.503132,12.507843,12.510889,12.513838,12.516283,12.518263,12.5211,12.525528,12.530539,12.536366,12.544135,12.551748,12.558532,12.566402,12.573406,12.578811,12.584491,12.58963,12.593626,12.597984,12.602121,12.604977,12.60717,12.608635,12.60915,12.609266,12.609785,12.611227,12.613268,12.616552,12.620541,12.623824,12.626963,12.629125,12.629625,12.629261,12.627035,12.623123,12.6184845,12.612457,12.606724,12.602459,12.59874,12.596739,12.59623,12.595457,12.59391,12.59157,12.588391,12.583834,12.57968,12.576832,12.574778,12.575072,12.577103,12.581029,12.586657,12.591881,12.597485,12.603678,12.609116,12.614274,12.621571,12.6299925,12.63818,12.649485,12.66217,12.673191,12.686926,12.703054,12.717777,12.734657,12.754642,12.772066,12.786959,12.80254,12.813758,12.820319,12.825695,12.828201,12.828735,12.82814,12.825996,12.823184,12.819167,12.812918,12.805982,12.799202,12.790386,12.781645,12.774475,12.766204,12.758293,12.752196,12.745929,12.740089,12.735777,12.731723,12.727325,12.7230835,12.718737,12.712232,12.70462,12.697683,12.688673,12.679267,12.671961,12.664314,12.656903,12.651388,12.646578,12.641715,12.6378765,12.634865,12.631428,12.628183,12.625469,12.621992,12.618214,12.61508,12.611721,12.608291,12.605668,12.603485,12.601523,12.600508,12.600237,12.600916,12.602812,12.60506,12.608316,12.612144,12.61531,12.61856,12.622007,12.624849,12.627435,12.630312,12.63267,12.634335,12.635726,12.636559,12.637041,12.637951,12.6399145,12.642633,12.646683,12.65314,12.660603,12.668461,12.679628,12.692032,12.703533,12.718398,12.733799,12.746145,12.759802,12.772999,12.782844,12.7923565,12.802239,12.810079,12.81636,12.822019,12.824961,12.825785,12.824845,12.822063,12.819084,12.815521,12.811196,12.807234,12.803216,12.79845,12.794473,12.7916,12.789857,12.790005,12.791032,12.792939,12.795149,12.796679,12.7977085,12.7978115,12.796956,12.795361,12.791569,12.785905,12.779452,12.769873,12.759165,12.749958,12.739412,12.729679,12.722809,12.715982,12.7091675,12.703386,12.697458,12.68954,12.681316,12.673853,12.66463,12.655944,12.649426,12.642296,12.635424,12.629986,12.624072,12.617392,12.611443,12.605811,12.599251,12.593302,12.588326,12.582207,12.576232,12.571539,12.566383,12.562012,12.559488,12.557856,12.557669,12.558777,12.560421,12.562937,12.56551,12.56759,12.569794,12.571633,12.57294,12.574205,12.5751915,12.575714,12.57593,12.57553,12.57454,12.573233,12.571255,12.568836,12.566404,12.563081,12.559492,12.556569,12.553405,12.550414,12.54817,12.545896,12.542606,12.538542,12.533899,12.527212,12.519985,12.513764,12.506685,12.500826,12.497433,12.494905,12.494504,12.496042,12.498711,12.503327,12.509081,12.515436,12.524195,12.533644,12.541916,12.551109,12.557396,12.55921,12.559011,12.55567,12.551409,12.547953,12.546705,12.548101,12.550105,12.552044,12.551537,12.548506,12.541758,12.531809,12.522501,12.511948,12.500441
12.424889,12.425596,12.426771,12.427849,12.429159,12.430216,12.430702,12.431017,12.431423,12.432174,12.4335375,12.435167,12.436233,12.43663,12.435879,12.433793,12.431449,12.428749,12.4263,12.42502,12.425053,12.426899,12.430008,12.433573,12.438374,12.442717,12.445588,12.448505,12.451115,12.453318,12.456442,12.461185,12.466427,12.472396,12.480284,12.488014,12.494926,12.503004,12.510277,12.515961,12.521948,12.5273285,12.531448,12.535885,12.53998,12.542696,12.544701,12.545841,12.545992,12.545764,12.545879,12.546982,12.5488,12.5519085,12.555793,12.559019,12.562078,12.564153,12.564587,12.564163,12.56195,12.558155,12.553693,12.5479355,12.542498,12.538471,12.534973,12.533097,12.532609,12.531804,12.530193,12.527816,12.524637,12.52014,12.516052,12.513235,12.511065,12.510994,12.512539,12.515707,12.520411,12.524868,12.529737,12.535271,12.540289,12.545173,12.552216,12.560478,12.568592,12.579914,12.592771,12.604033,12.618109,12.634584,12.649515,12.66646,12.686304,12.703454,12.718061,12.733292,12.744293,12.750829,12.756418,12.759422,12.76052,12.760703,12.759426,12.757278,12.753859,12.748114,12.741453,12.734819,12.726061,12.717228,12.709885,12.701317,12.692973,12.686438,12.679622,12.673214,12.668495,12.6641035,12.659433,12.6550455,12.650625,12.644039,12.636308,12.629208,12.619892,12.609997,12.602167,12.593849,12.585629,12.579417,12.573967,12.568457,12.564129,12.560752,12.556934,12.553404,12.550509,12.546917,12.543133,12.540052,12.536797,12.533451,12.530813,12.528519,12.526274,12.524864,12.524205,12.524363,12.525721,12.5275345,12.530296,12.533626,12.53639,12.5392275,12.542246,12.544729,12.546984,12.549469,12.551476,12.552872,12.55397,12.554531,12.554792,12.555416,12.557007,12.559345,12.562908,12.568776,12.575737,12.583185,12.593974,12.606186,12.617655,12.632641,12.648407,12.661227,12.6756115,12.689896,12.700895,12.711775,12.723448,12.733068,12.741049,12.748804,12.753752,12.756223,12.7571535,12.756037,12.754218,12.751762,12.748331,12.744905,12.741299,12.736788,12.732832,12.729843,12.7277355,12.727315,12.727764,12.728924,12.730408,12.731445,12.732027,12.731832,12.730885,12.729292,12.725686,12.720365,12.714321,12.705367,12.695358,12.686747,12.67683,12.667675,12.661242,12.654826,12.648408,12.642935,12.637275,12.629564,12.621411,12.613949,12.604539,12.595467,12.588532,12.580765,12.573067,12.566867,12.560133,12.552526,12.545783,12.539457,12.532152,12.525597,12.520155,12.513596,12.507324,12.502464,12.497189,12.492794,12.490309,12.488716,12.488569,12.489683,12.491283,12.49362,12.495846,12.497501,12.498993,12.499922,12.50041,12.500695,12.500679,12.500442,12.499932,12.498783,12.497196,12.495405,12.493002,12.490425,12.488047,12.485044,12.482063,12.479782,12.477365,12.475132,12.473442,12.471667,12.468876,12.465258,12.461063,12.4550705,12.4487,12.443314,12.437409,12.43292,12.430721,12.42963,12.430861,12.433802,12.43782,12.443907,12.450811,12.457954,12.467455,12.477367,12.485868,12.495195,12.501488,12.503259,12.502911,12.499269,12.494623,12.490677,12.48864,12.4892,12.490506,12.491856,12.49122,12.488443,12.482442,12.473673,12.46546,12.456062,12.445629
12.359974,12.36069,12.362046,12.363459,12.36535,12.367187,12.368363,12.3693695,12.370367,12.371456,12.373071,12.374927,12.376181,12.376766,12.376286,12.374468,12.372298,12.369678,12.367084,12.365479,12.364996,12.366058,12.36837,12.371204,12.375232,12.3790455,12.381643,12.384463,12.38724,12.389717,12.393193,12.398348,12.403914,12.410126,12.418256,12.426211,12.433355,12.441779,12.449463,12.455536,12.46195,12.467675,12.471991,12.476534,12.480608,12.483211,12.485029,12.485838,12.485592,12.484982,12.484623,12.485294,12.486807,12.489641,12.493341,12.496456,12.499407,12.501389,12.50177,12.501309,12.499134,12.495486,12.49124,12.485798,12.480701,12.476955,12.4737425,12.47205,12.471619,12.470821,12.469198,12.466835,12.463715,12.459357,12.455409,12.452663,12.450413,12.449991,12.451048,12.453459,12.4572315,12.460916,12.465036,12.469919,12.474545,12.479145,12.48593,12.494034,12.502071,12.513384,12.52639,12.537901,12.552328,12.569137,12.584224,12.601158,12.620751,12.637522,12.651747,12.666498,12.677158,12.683573,12.689258,12.692662,12.694266,12.695173,12.694735,12.693242,12.690443,12.685259,12.67894,12.672518,12.663904,12.655054,12.647577,12.638737,12.6299515,12.622958,12.615561,12.608524,12.603331,12.598509,12.593433,12.588757,12.584112,12.577267,12.569241,12.561834,12.552088,12.541642,12.5332775,12.524292,12.515301,12.508432,12.502381,12.496244,12.491428,12.48768,12.483473,12.479647,12.476567,12.472853,12.469087,12.466113,12.463003,12.45982,12.457267,12.454964,12.452578,12.45092,12.449989,12.449754,12.450674,12.45212,12.454443,12.457325,12.459747,12.462231,12.464903,12.467125,12.469143,12.471365,12.473149,12.474389,12.475336,12.475776,12.4759445,12.476422,12.47777,12.479811,12.482969,12.488302,12.494756,12.501738,12.512004,12.523786,12.534948,12.549654,12.565324,12.578226,12.592876,12.607786,12.619598,12.631527,12.644714,12.655968,12.665591,12.6755085,12.682653,12.686995,12.690128,12.691034,12.690653,12.689583,12.687287,12.684567,12.681507,12.677383,12.673538,12.670489,12.668058,12.667087,12.666975,12.66742,12.668219,12.668785,12.668931,12.668394,12.667255,12.665537,12.66195,12.656827,12.651066,12.64263,12.633262,12.62521,12.615923,12.607384,12.601442,12.5955105,12.589605,12.584568,12.579295,12.571977,12.564093,12.5568,12.547404,12.53811,12.530863,12.522545,12.514063,12.507109,12.499526,12.490959,12.4834,12.476355,12.468273,12.461092,12.4551735,12.448156,12.441574,12.43654,12.431122,12.426665,12.424168,12.422535,12.422322,12.423339,12.424797,12.426855,12.428667,12.429861,12.430619,12.430647,12.430322,12.429638,12.4286175,12.427603,12.426341,12.4244,12.422174,12.419854,12.416922,12.414019,12.411516,12.408548,12.405805,12.403812,12.401733,12.399842,12.398405,12.396868,12.394375,12.391108,12.387329,12.38201,12.376495,12.371938,12.367146,12.363889,12.362728,12.362869,12.365496,12.369629,12.374794,12.382149,12.390038,12.397832,12.407879,12.418032,12.42655,12.435761,12.441862,12.443484,12.44294,12.439068,12.434193,12.429953,12.4274235,12.427483,12.428413,12.429556,12.4291725,12.426968,12.422079,12.414852,12.408022,12.40011,12.391147
12.284689,12.285392,12.286954,12.28879,12.291403,12.294222,12.296274,12.298144,12.299858,12.301321,12.303152,12.305178,12.306591,12.307367,12.30723,12.305834,12.304006,12.301651,12.299073,12.297228,12.29624,12.296415,12.29775,12.299663,12.30266,12.305717,12.307899,12.310525,12.31347,12.316284,12.320234,12.325972,12.33202,12.338636,12.347214,12.355602,12.363177,12.372208,12.38054,12.3871765,12.394165,12.400297,12.404795,12.409387,12.413347,12.415754,12.417311,12.417709,12.417004,12.415947,12.415014,12.41514,12.416236,12.418655,12.422018,12.424908,12.427629,12.429423,12.429703,12.42917,12.42703,12.42356,12.419568,12.414528,12.40988,12.406496,12.403664,12.402248,12.401938,12.401226,12.399679,12.397414,12.394432,12.390306,12.386566,12.383931,12.381601,12.380772,12.381255,12.382782,12.385492,12.388316,12.391617,12.395805,12.400024,12.404348,12.410872,12.418797,12.426732,12.438021,12.4511595,12.462894,12.477642,12.49472,12.509871,12.52664,12.545752,12.561903,12.57552,12.589541,12.599681,12.605888,12.611618,12.615438,12.6176,12.619315,12.619828,12.61911,12.617079,12.612654,12.606888,12.600891,12.592655,12.583979,12.576511,12.567501,12.55831,12.550835,12.542799,12.535032,12.529243,12.523867,12.518196,12.513016,12.507954,12.50059,12.492025,12.484142,12.473799,12.462681,12.453712,12.4439945,12.4341545,12.426553,12.419792,12.412888,12.40745,12.4032135,12.3985,12.394317,12.391043,12.387246,12.383585,12.380812,12.377987,12.375142,12.372844,12.370693,12.368365,12.366625,12.365539,12.365017,12.365566,12.366671,12.368557,12.370987,12.37306,12.375202,12.37756,12.379559,12.381388,12.383415,12.385058,12.3862095,12.387097,12.387525,12.3876915,12.388135,12.389349,12.391174,12.393991,12.398796,12.404676,12.41107,12.420557,12.431541,12.442001,12.455861,12.4708,12.483255,12.497576,12.51255,12.524799,12.537461,12.55196,12.564839,12.576231,12.588714,12.598694,12.605576,12.6118145,12.615744,12.61762,12.61878,12.618391,12.616898,12.6147995,12.611325,12.607633,12.60445,12.601475,12.59967,12.598782,12.598299,12.598276,12.598326,12.598034,12.597151,12.595786,12.593894,12.590227,12.585174,12.579569,12.571512,12.562662,12.555063,12.546311,12.538319,12.532816,12.527338,12.521978,12.517471,12.512716,12.506008,12.49864,12.491736,12.482603,12.473281,12.465822,12.456993,12.447699,12.439942,12.431442,12.4218235,12.413378,12.405542,12.396585,12.388664,12.38216,12.374554,12.367523,12.362193,12.356503,12.351835,12.349197,12.34738,12.3469305,12.347692,12.34886,12.350467,12.351718,12.352343,12.352247,12.351263,12.35005,12.348305,12.346178,12.344298,12.342182,12.339333,12.336351,12.333397,12.329787,12.326387,12.3236,12.320417,12.31758,12.315552,12.313425,12.311472,12.309993,12.308453,12.3060875,12.303125,12.299782,12.295198,12.290607,12.286943,12.283329,12.281336,12.281202,12.282551,12.286493,12.291712,12.297926,12.306406,12.315121,12.323397,12.333767,12.343941,12.352297,12.361229,12.367075,12.368595,12.367966,12.364079,12.35922,12.354918,12.352156,12.35194,12.352695,12.353877,12.353996,12.352585,12.349124,12.343836,12.338766,12.3328,12.325901
12.21427,12.214938,12.216715,12.218988,12.222331,12.226133,12.229064,12.231781,12.234179,12.235954,12.237898,12.239933,12.241333,12.242146,12.242186,12.241098,12.239584,12.237517,12.2350645,12.23312,12.231794,12.231277,12.231782,12.232874,12.234907,12.237217,12.238968,12.241358,12.244428,12.2475605,12.25199,12.258347,12.264933,12.272053,12.281232,12.290222,12.298388,12.308213,12.317333,12.324585,12.332153,12.338617,12.34319,12.347694,12.351407,12.3535385,12.354794,12.354799,12.353694,12.352259,12.350834,12.35046,12.351146,12.353115,12.35606,12.358637,12.36103,12.362528,12.362623,12.361948,12.359779,12.356439,12.352659,12.347971,12.343725,12.340672,12.338188,12.337046,12.336882,12.336302,12.334906,12.332805,12.330012,12.32615,12.322619,12.320089,12.317676,12.316461,12.316425,12.317162,12.318949,12.321051,12.323686,12.327318,12.331215,12.335323,12.3416195,12.349357,12.3571615,12.368384,12.38158,12.39344,12.408367,12.425552,12.440626,12.457087,12.475565,12.490976,12.503873,12.517078,12.52667,12.532675,12.538448,12.542667,12.54536,12.547817,12.549205,12.5492115,12.547913,12.544283,12.53917,12.533737,12.526079,12.517801,12.510549,12.501605,12.492223,12.48443,12.475934,12.467577,12.461264,12.455377,12.449083,12.443309,12.437721,12.429691,12.420471,12.412054,12.401084,12.389322,12.379814,12.369448,12.358841,12.350544,12.343088,12.335401,12.329307,12.324549,12.319316,12.314785,12.311337,12.307501,12.303999,12.301474,12.298993,12.296584,12.294646,12.292778,12.290687,12.289051,12.28797,12.287346,12.287678,12.288553,12.290121,12.292202,12.294008,12.295902,12.298044,12.299902,12.301619,12.303543,12.305131,12.306257,12.307169,12.307669,12.307915,12.30843,12.309647,12.311392,12.314018,12.318441,12.323824,12.329657,12.338296,12.348301,12.357828,12.37048,12.384226,12.395798,12.409255,12.423695,12.43587,12.44873,12.463961,12.478023,12.490847,12.505649,12.518421,12.527918,12.537497,12.544857,12.549427,12.553362,12.5554905,12.555701,12.554981,12.552464,12.549028,12.545701,12.542059,12.539254,12.537466,12.535952,12.535067,12.534621,12.533959,12.532818,12.531279,12.529243,12.525467,12.520378,12.514782,12.506873,12.498257,12.4908495,12.48233,12.474569,12.469243,12.4639435,12.458876,12.454739,12.450388,12.444258,12.437466,12.431033,12.42231,12.413135,12.405605,12.396427,12.3865,12.378109,12.368868,12.358399,12.349226,12.340744,12.331039,12.322442,12.315382,12.30718,12.299648,12.293957,12.287903,12.282915,12.28003,12.277929,12.277141,12.277561,12.278369,12.279478,12.28017,12.280266,12.279424,12.277592,12.27565,12.273039,12.270004,12.267403,12.264557,12.260916,12.257273,12.253756,12.249535,12.245649,12.242538,12.23902,12.235863,12.233559,12.231071,12.228731,12.226968,12.2252245,12.222834,12.220093,12.217132,12.2132015,12.209415,12.206499,12.203848,12.202847,12.203483,12.205708,12.210521,12.216394,12.223217,12.232277,12.241325,12.249694,12.259988,12.269894,12.277921,12.286482,12.292114,12.293656,12.29314,12.289524,12.284954,12.280859,12.278158,12.2779,12.278655,12.280003,12.280628,12.279936,12.277756,12.274221,12.270783,12.266682,12.2619
12.156559,12.157177,12.159142,12.161795,12.165764,12.170404,12.174074,12.177506,12.180472,12.1824875,12.184481,12.18643,12.187683,12.188395,12.188415,12.187441,12.186094,12.184204,12.18186,12.179892,12.178373,12.177416,12.177366,12.17786,12.1791725,12.180904,12.18231,12.18449,12.187645,12.191041,12.195879,12.20278,12.209862,12.217476,12.227282,12.236906,12.24568,12.256323,12.2662115,12.274015,12.282076,12.288765,12.2933235,12.297657,12.30106,12.3029,12.303881,12.303568,12.302168,12.300468,12.298686,12.29793,12.298282,12.299866,12.30242,12.304676,12.306725,12.307894,12.307755,12.306896,12.30463,12.301339,12.297703,12.293249,12.289275,12.286451,12.284222,12.283279,12.283232,12.282766,12.2815275,12.279604,12.277,12.273373,12.270012,12.26756,12.265057,12.263525,12.26309,12.263233,12.264341,12.265924,12.268097,12.271352,12.275017,12.278955,12.285047,12.292597,12.300255,12.311373,12.324554,12.336454,12.351452,12.368628,12.383558,12.399679,12.41754,12.432261,12.44449,12.456978,12.466128,12.472003,12.477854,12.482435,12.485582,12.488653,12.490744,12.491325,12.490619,12.487653,12.483126,12.478226,12.471176,12.463384,12.456444,12.4477215,12.43835,12.43043,12.421697,12.412981,12.406309,12.400037,12.393229,12.386921,12.380827,12.37216,12.362329,12.353432,12.341915,12.329617,12.319672,12.308786,12.2975445,12.288652,12.2806,12.272223,12.265541,12.260317,12.254627,12.249804,12.246214,12.242333,12.238971,12.236673,12.234489,12.23247,12.230883,12.229309,12.227497,12.226037,12.225054,12.224438,12.224667,12.225405,12.226773,12.228619,12.230246,12.231974,12.233981,12.235759,12.237402,12.239269,12.240837,12.241962,12.24292,12.243513,12.243864,12.244486,12.245773,12.247519,12.250065,12.254242,12.259249,12.264635,12.272535,12.281622,12.290255,12.301729,12.3142605,12.324881,12.33736,12.351066,12.362928,12.375676,12.391212,12.406015,12.419851,12.436441,12.451503,12.463207,12.475701,12.486174,12.49326,12.499901,12.504599,12.506615,12.507391,12.50597,12.502892,12.49948,12.49524,12.491494,12.488855,12.486369,12.484682,12.483792,12.482828,12.481503,12.479845,12.477714,12.473861,12.468727,12.463087,12.4552,12.446642,12.439254,12.430752,12.422977,12.41761,12.412246,12.407196,12.403191,12.399022,12.393269,12.386928,12.380882,12.37253,12.363529,12.355989,12.346598,12.3362465,12.32741,12.317642,12.30657,12.296888,12.287947,12.277686,12.268564,12.261063,12.252365,12.244396,12.238376,12.231993,12.2267,12.223562,12.221199,12.220095,12.220205,12.220691,12.221378,12.221626,12.221304,12.2199135,12.2174835,12.215025,12.211808,12.208139,12.205023,12.20164,12.197409,12.193272,12.189337,12.184667,12.18042,12.177044,12.173214,12.169722,12.167101,12.164194,12.161396,12.1593,12.157307,12.154845,12.152283,12.149643,12.146261,12.143124,12.140783,12.138842,12.138527,12.139671,12.142428,12.147699,12.153847,12.160873,12.170044,12.179037,12.187225,12.1971855,12.2066765,12.21432,12.22251,12.227993,12.229626,12.229317,12.226088,12.2219095,12.21813,12.21562,12.215418,12.216233,12.2177305,12.218729,12.218561,12.217325,12.215112,12.212929,12.210304,12.2072735
12.087277,12.0877495,12.089861,12.092891,12.097521,12.103071,12.107561,12.111841,12.115532,12.117891,12.119974,12.121773,12.1227,12.123073,12.122719,12.121485,12.120045,12.118113,12.115801,12.113875,12.112332,12.111216,12.1108885,12.111046,12.111899,12.113224,12.114357,12.1163845,12.119637,12.123287,12.1285305,12.136002,12.143644,12.15188,12.162542,12.173086,12.182772,12.194625,12.205624,12.214188,12.222894,12.229839,12.2343235,12.238361,12.241318,12.242798,12.243471,12.2428665,12.24125,12.239378,12.237359,12.2363205,12.236399,12.237616,12.239727,12.241574,12.243145,12.243802,12.2432785,12.242098,12.2395935,12.2362385,12.232658,12.228315,12.224466,12.221741,12.219591,12.21869,12.218655,12.218245,12.21715,12.215422,12.213034,12.2096405,12.206419,12.204009,12.201364,12.199479,12.198643,12.198243,12.198772,12.199931,12.201754,12.204716,12.208178,12.211939,12.217772,12.225042,12.232464,12.243395,12.256513,12.26843,12.283485,12.300637,12.31539,12.3310795,12.348175,12.362053,12.373465,12.385096,12.3937435,12.399494,12.405504,12.410596,12.414339,12.418181,12.421119,12.422366,12.422333,12.420139,12.4163265,12.412094,12.405851,12.398771,12.392348,12.38408,12.37494,12.367054,12.358229,12.349262,12.342293,12.335672,12.328333,12.3214245,12.314739,12.305315,12.29475,12.285267,12.273095,12.260145,12.249655,12.238098,12.226036,12.216379,12.207557,12.198307,12.190894,12.185094,12.178833,12.173613,12.1698,12.165787,12.16247,12.160332,12.158392,12.156728,12.155481,12.154217,12.152718,12.151472,12.150628,12.150087,12.15029,12.150957,12.152222,12.15395,12.155496,12.157173,12.159159,12.160938,12.1626005,12.164498,12.166111,12.167297,12.168367,12.169122,12.16964,12.170445,12.171876,12.173667,12.176187,12.18016,12.184802,12.189741,12.19689,12.205018,12.2126875,12.222858,12.234,12.243496,12.254745,12.267351,12.278528,12.290751,12.306086,12.321161,12.335577,12.353505,12.370567,12.384361,12.399845,12.413866,12.424097,12.43441,12.442987,12.448026,12.451494,12.452372,12.450453,12.447418,12.442797,12.438024,12.434348,12.4305725,12.427729,12.426144,12.424675,12.423025,12.421192,12.418955,12.415039,12.409864,12.404163,12.396246,12.387637,12.380142,12.3714695,12.363407,12.3577175,12.351978,12.346602,12.342457,12.338259,12.332705,12.326724,12.321035,12.313068,12.304281,12.296749,12.28718,12.276461,12.267246,12.257046,12.24549,12.235397,12.2260685,12.215305,12.20566,12.197678,12.188381,12.179823,12.173345,12.166486,12.160751,12.157286,12.15461,12.153175,12.152985,12.153167,12.153482,12.153357,12.152687,12.150858,12.147961,12.145098,12.141388,12.13717,12.133575,12.129678,12.124859,12.120232,12.115896,12.110804,12.10623,12.102638,12.098564,12.094799,12.091913,12.088643,12.085458,12.0830965,12.080908,12.078434,12.076096,12.073822,12.071026,12.068552,12.06679,12.065521,12.065804,12.067335,12.07041,12.075777,12.081789,12.088558,12.097207,12.105513,12.11296,12.121914,12.130386,12.137211,12.144612,12.149702,12.151373,12.151323,12.148664,12.145089,12.141834,12.13969,12.139614,12.140497,12.142107,12.143398,12.1436825,12.143312,12.14238,12.141465,12.140371,12.139221
12.014673,12.014801,12.01686,12.020084,12.025137,12.031356,12.03651,12.0415325,12.045946,12.048708,12.050913,12.052544,12.053013,12.052837,12.0517435,12.0498295,12.047964,12.045695,12.043278,12.041443,12.040068,12.039167,12.038988,12.039221,12.040065,12.041317,12.042379,12.044409,12.047823,12.051735,12.057381,12.065422,12.073652,12.08261,12.094304,12.105975,12.116793,12.130131,12.142452,12.151877,12.161287,12.168467,12.172808,12.17646,12.178914,12.180046,12.180471,12.179716,12.178072,12.176222,12.174215,12.173113,12.173063,12.174041,12.17576,12.177179,12.178209,12.178242,12.177212,12.175601,12.1727295,12.169178,12.165512,12.161071,12.157091,12.154212,12.151844,12.150707,12.150503,12.150012,12.148967,12.147381,12.145166,12.141926,12.138739,12.136276,12.133419,12.13119,12.130029,12.129265,12.129471,12.130434,12.132143,12.135002,12.138332,12.141932,12.147465,12.154373,12.161464,12.1721325,12.185148,12.197073,12.212188,12.22934,12.243936,12.259208,12.275526,12.288536,12.2991085,12.309877,12.3180485,12.323719,12.32998,12.3356905,12.340113,12.344783,12.348573,12.35046,12.35105,12.349582,12.346477,12.342941,12.337612,12.331409,12.325672,12.31809,12.309437,12.301799,12.293118,12.28414,12.27705,12.2702265,12.26248,12.255041,12.247801,12.237656,12.226374,12.216311,12.203491,12.189871,12.178787,12.166498,12.153527,12.143018,12.133341,12.123138,12.114939,12.108522,12.101627,12.095927,12.091803,12.08752,12.084078,12.081943,12.08009,12.078628,12.077619,12.0766,12.075372,12.074335,12.073636,12.073206,12.073451,12.074123,12.075386,12.077124,12.078691,12.080421,12.082483,12.084341,12.086079,12.088063,12.089762,12.091033,12.092242,12.093187,12.093894,12.094921,12.096542,12.098433,12.10098,12.104829,12.109203,12.113786,12.120318,12.127645,12.134489,12.14351,12.153366,12.161776,12.171759,12.183083,12.193291,12.204619,12.219202,12.23394,12.248287,12.266686,12.284912,12.300136,12.317985,12.335279,12.348753,12.363201,12.376604,12.385714,12.393002,12.3974495,12.397675,12.395685,12.391199,12.3855915,12.380884,12.375671,12.3714075,12.3688965,12.366709,12.364601,12.362562,12.360252,12.356355,12.351225,12.345537,12.337614,12.328903,12.321214,12.312195,12.303562,12.29725,12.290782,12.284647,12.279968,12.275393,12.2697,12.263847,12.258352,12.250662,12.24206,12.23454,12.224857,12.213907,12.204475,12.1940365,12.182248,12.17197,12.162449,12.15137,12.141323,12.132929,12.123039,12.113842,12.106852,12.0994425,12.093195,12.0893545,12.086352,12.084615,12.084179,12.084116,12.084166,12.083811,12.082945,12.0808935,12.077787,12.074751,12.070802,12.066251,12.062309,12.058001,12.052687,12.047632,12.04295,12.037506,12.032675,12.028927,12.024699,12.020773,12.017714,12.014208,12.01078,12.008266,12.005978,12.003566,12.001476,11.999565,11.997307,11.995415,11.994147,11.993414,11.994085,11.995773,11.998831,12.003801,12.009153,12.015068,12.022451,12.029376,12.035475,12.042734,12.04961,12.055217,12.061434,12.0658865,12.06753,12.067764,12.065805,12.063004,12.0604515,12.058834,12.058955,12.059921,12.06157,12.062989,12.063534,12.063772,12.063827,12.063936,12.064133,12.064648
11.952919,11.952538,11.954294,11.957431,11.962511,11.968959,11.974432,11.979877,11.984802,11.987924,11.990275,11.991827,11.991927,11.991255,11.98942,11.986746,11.984362,11.981636,11.979013,11.977234,11.976063,11.975521,11.975693,11.976223,11.977333,11.97875,11.979915,11.982084,11.985725,11.989911,11.995944,12.004505,12.013269,12.022902,12.035543,12.048227,12.060066,12.074726,12.0882015,12.098352,12.108355,12.115721,12.119941,12.123287,12.125381,12.126308,12.126629,12.125898,12.124395,12.122721,12.120913,12.119928,12.119888,12.120783,12.122252,12.123342,12.123936,12.123435,12.121959,12.119974,12.116766,12.112995,12.109175,12.104515,12.100237,12.097033,12.094247,12.092685,12.092185,12.091492,12.090375,12.088824,12.086683,12.083469,12.080204,12.077602,12.074501,12.071993,12.070618,12.069676,12.0697975,12.070759,12.072541,12.075442,12.078712,12.08218,12.087427,12.093979,12.100738,12.111151,12.124085,12.136043,12.151248,12.168467,12.183002,12.197992,12.213719,12.226034,12.235926,12.246002,12.253799,12.259422,12.265928,12.272196,12.277206,12.282558,12.287015,12.289375,12.290407,12.289455,12.2868805,12.2838955,12.279339,12.2739315,12.268835,12.261935,12.253827,12.246517,12.238111,12.229298,12.222242,12.215374,12.20742,12.199646,12.192027,12.181371,12.169566,12.159077,12.145765,12.131605,12.120022,12.107107,12.093351,12.082107,12.071697,12.060687,12.051826,12.044884,12.037432,12.031269,12.026808,12.022182,12.018486,12.016218,12.01429,12.012856,12.011944,12.011056,12.0099945,12.0091,12.008501,12.00816,12.008461,12.009165,12.010472,12.012266,12.013894,12.015701,12.017868,12.019817,12.021618,12.023676,12.025448,12.02678,12.0280905,12.029179,12.030033,12.031231,12.033014,12.034998,12.037578,12.041362,12.045572,12.049919,12.0560465,12.062838,12.069134,12.0773735,12.086323,12.093935,12.102949,12.113213,12.122547,12.133001,12.146707,12.16083,12.174731,12.192928,12.211462,12.227301,12.246483,12.266035,12.282004,12.299892,12.317648,12.330663,12.341747,12.349974,12.352703,12.3521385,12.348284,12.342278,12.336832,12.330429,12.324854,12.321428,12.318491,12.315891,12.313661,12.311319,12.30752,12.302537,12.296976,12.289162,12.280432,12.272611,12.2632885,12.254093,12.24713,12.239881,12.232851,12.227465,12.222328,12.216268,12.210335,12.204865,12.197298,12.188816,12.181312,12.171577,12.160534,12.15103,12.140522,12.128698,12.118414,12.108863,12.097654,12.087364,12.0786915,12.068358,12.058645,12.051226,12.0433445,12.036645,12.032471,12.0291815,12.027189,12.026558,12.026304,12.026169,12.025688,12.024737,12.022632,12.019505,12.016464,12.012472,12.007773,12.003616,11.999018,11.993336,11.987953,11.982984,11.977262,11.97224,11.968371,11.964048,11.960037,11.956886,11.953262,11.949719,11.94714,11.944819,11.942496,11.940625,11.938997,11.937149,11.935688,11.93478,11.934414,11.935289,11.936979,11.939821,11.9441805,11.948698,11.953571,11.959499,11.964918,11.969585,11.975094,11.980372,11.984779,11.989807,11.993586,11.9951515,11.995594,11.994249,11.992138,11.990224,11.989096,11.989397,11.990419,11.992042,11.993458,11.994099,11.994682,11.995361,11.996143,11.997224,11.998908
11.890642,11.88946,11.89058,11.893317,11.89806,11.904361,11.90987,11.915518,11.920846,11.924364,11.926982,11.928654,11.928609,11.92764,11.925255,11.921925,11.919033,11.915818,11.912886,11.911049,11.909996,11.909735,11.910222,11.911066,11.912479,11.914116,11.915448,11.917839,11.921794,11.926332,11.932837,11.941999,11.951355,11.961702,11.975285,11.98893,12.001716,12.0175905,12.032124,12.042955,12.053538,12.061175,12.065413,12.068638,12.070591,12.071503,12.071894,12.07136,12.07012,12.068714,12.067211,12.066438,12.066481,12.067375,12.068672,12.069498,12.069743,12.068819,12.066996,12.064745,12.061306,12.057367,12.053417,12.048496,12.043809,12.040161,12.036792,12.034622,12.033682,12.032639,12.031308,12.029684,12.027513,12.024204,12.020762,12.017948,12.014544,12.011751,12.010189,12.009146,12.009288,12.010338,12.012266,12.015261,12.01848,12.021786,12.026703,12.032854,12.039256,12.049407,12.062296,12.074347,12.089746,12.107162,12.121745,12.136564,12.1518,12.163478,12.172722,12.182108,12.189509,12.195053,12.201767,12.208541,12.214081,12.220053,12.225098,12.227846,12.229227,12.228691,12.226561,12.224054,12.2202015,12.215541,12.211056,12.204821,12.197272,12.190328,12.182243,12.173656,12.166704,12.159876,12.151814,12.1438,12.135897,12.124838,12.112604,12.101747,12.087992,12.073322,12.0612545,12.047709,12.033171,12.021213,12.010099,11.998324,11.988834,11.981384,11.973366,11.966702,11.961849,11.956783,11.952702,11.950194,11.9480915,11.946583,11.945692,11.944874,11.943927,11.943145,11.942633,11.94239,11.942771,11.943525,11.944918,11.946812,11.948526,11.950443,11.952747,11.954812,11.956692,11.958824,11.960656,11.962044,11.963446,11.964655,11.96562,11.966957,11.968855,11.970883,11.973463,11.977158,11.981189,11.985302,11.991044,11.997347,12.003145,12.010691,12.018839,12.025753,12.033922,12.043254,12.051802,12.061448,12.074266,12.087652,12.100933,12.118599,12.136997,12.153007,12.17296,12.1942,12.212215,12.233139,12.255037,12.271986,12.287046,12.299469,12.305216,12.306571,12.3038845,12.297875,12.291914,12.284445,12.277541,12.273113,12.26931,12.266109,12.263643,12.261269,12.257633,12.252917,12.247618,12.240097,12.231556,12.223791,12.214366,12.204752,12.1972065,12.189196,12.181202,12.174984,12.169172,12.162605,12.156494,12.151005,12.14355,12.135227,12.127797,12.118095,12.10705,12.097544,12.087032,12.075222,12.064947,12.055376,12.04405,12.033545,12.0246315,12.013889,12.00369,11.995865,11.987518,11.980341,11.975797,11.972183,11.969865,11.968964,11.968466,11.968084,11.967437,11.966383,11.964226,11.961105,11.95808,11.954065,11.949232,11.944853,11.939945,11.933868,11.928133,11.922855,11.916818,11.9115715,11.90756,11.90309,11.898951,11.8957,11.891943,11.888276,11.885628,11.883266,11.881014,11.879335,11.877956,11.876482,11.875416,11.874842,11.874804,11.875838,11.877487,11.880062,11.883751,11.887388,11.891183,11.895618,11.8995075,11.902757,11.90654,11.910236,11.913443,11.917263,11.920305,11.921707,11.922249,11.921398,11.91989,11.918514,11.917772,11.918179,11.919192,11.920736,11.922119,11.922838,11.923746,11.92502,11.926437,11.92833,11.931039
