21.700338,22.724636,23.50196,23.973812,24.394337,24.594593,24.718102,24.790674,24.794548,24.808521,24.900337,24.853924,24.483894,23.268206,21.45325,19.68377,18.542969,18.113918,17.928165,17.878078,17.908382,18.018635,18.138851,18.207764,18.227669,18.220306,18.203934,18.19485,18.21404,18.256966,18.304543,18.34087,18.358564,18.355556,18.343782,18.330032,18.324207,18.333372,18.357227,18.389797,18.425564,18.460464,18.489834,18.516678,18.539085,18.553501,18.561577,18.567093,18.574324,18.584286,18.59153,18.598457,18.608051,18.618467,18.62809,18.637135,18.642082,18.64123,18.635899,18.627924,18.618137,18.607315,18.597187,18.586765,18.576431,18.565937,18.560722,18.561031,18.558342,18.553513,18.542454,18.529556,18.515049,18.499527,18.4828,18.464556,18.447922,18.430721,18.413479,18.396915,18.379723,18.358656,18.331537,18.29963,18.262466,18.221882,18.178295,18.133379,18.089169,18.048819,18.017803,18.001907,18.001732,18.024162,18.068832,18.130009,18.201088,18.277678,18.358997,18.447777,18.540253,18.63015,18.712658,18.791697,18.880732,18.992186,19.141117,19.325312,19.523796,19.692717,19.801704,19.870749,19.948994,20.003822,20.154755,20.58644,21.626514,23.445683,25.464539,26.638988,27.082949,27.528082,27.767101,27.814554,27.78537,27.782845,27.852985,27.927704,27.98477,28.038916,28.082724,28.112751,28.136871,28.16415,28.195797,28.234375,28.275776,28.311714,28.335236,28.356657,28.400509,28.483541,28.62318,28.824974,29.060966,29.297277,29.52452,29.771152,30.089788,30.560905,31.219124,32.0265,32.84912,33.570015,34.070107,34.252075,34.228825,34.134373,34.07882,34.071236,34.096573,34.14333,34.19639,34.24887,34.310432,34.391495,34.489716,34.595406,34.695583,34.78231,34.859688,34.953613,35.096077,35.318344,35.62071,35.97741,36.34382,36.668373,36.93988,37.172535,37.381508,37.589275,37.808777,38.03208,38.23707,38.407684,38.544537,38.651417,38.7416,38.835804,38.970177,39.18553,39.493748,39.94266,40.580357,41.392296,42.39595,43.39554,44.156036,44.816635,45.431694,46.071877,46.77861,47.442913,48.083786,48.797794,49.499146,50.152416,50.782684,51.182716,51.1422,50.66707,49.821106,48.648457,47.529854,46.58881,46.208725,46.26713,46.463596,46.574165,46.51481,46.351498,46.331646,46.764954,47.566055,48.73672,50.107567,51.216736,51.76303,52.06813,52.173542,52.138016,52.081184,52.067364,52.06832,52.042603,51.993706,51.94777,51.886124,51.87548,52.06631,52.564674,53.28102,53.90827,54.552277,55.242973,55.873264,56.35338,56.622116,56.621548,56.36486,56.073944,55.988976,56.36419,57.506226,59.246834,60.82486,61.585575,61.96556,62.03933,61.95406,61.80787,61.678734,61.623222,61.62119,61.64071,61.712555,61.825726,61.977158,62.159035,62.352795,62.53688,62.69212,62.83764,62.940834,62.943237,62.772415,62.35534,61.571693,60.21662,58.521988,56.552685,54.21669,52.237656,51.160355,50.6801,50.481403,50.5213,50.534027,50.281334,49.838387,49.37892,49.007812,48.806274,48.66618,48.614204,48.659782,48.746883,48.83425,48.925262,49.027855,49.13851,49.265633,49.4123,49.5689,49.742393
21.658752,22.6571,23.436234,23.90767,24.347225,24.571943,24.702843,24.776731,24.776604,24.808968,24.954285,24.85514,24.360928,22.747837,20.750252,19.223005,18.432617,18.148378,18.024158,17.988384,18.034945,18.12616,18.218452,18.274612,18.285473,18.278725,18.271072,18.276093,18.305058,18.35601,18.41,18.448307,18.466888,18.463732,18.4511,18.436289,18.430561,18.443666,18.47667,18.522072,18.572433,18.621702,18.662434,18.69278,18.711105,18.718582,18.720282,18.719532,18.720207,18.723433,18.72919,18.739645,18.75396,18.767746,18.77879,18.788456,18.794529,18.791994,18.78231,18.768036,18.75167,18.73716,18.724005,18.712326,18.700117,18.686092,18.67828,18.67842,18.67566,18.670067,18.656631,18.640507,18.622019,18.602032,18.580706,18.557854,18.536655,18.514565,18.492012,18.470032,18.447275,18.420364,18.38726,18.349308,18.304474,18.253742,18.197361,18.138153,18.080742,18.030685,17.994213,17.976933,17.977875,18.0027,18.049824,18.11216,18.182535,18.257072,18.335194,18.420582,18.510853,18.59952,18.68356,18.766975,18.859997,18.973415,19.122173,19.306662,19.507656,19.68335,19.80238,19.878742,19.956867,20.028507,20.153488,20.537415,21.504433,23.29004,25.388678,26.699188,27.173985,27.660526,27.898817,27.942133,27.905994,27.880985,27.9476,28.024805,28.100811,28.174854,28.236927,28.284845,28.327187,28.37278,28.42123,28.469353,28.50952,28.534916,28.540754,28.541395,28.566338,28.634161,28.763515,28.95866,29.189299,29.417786,29.631235,29.85719,30.150082,30.59009,31.211872,31.994745,32.791233,33.49768,34.009113,34.205063,34.19137,34.105373,34.051003,34.04123,34.06597,34.11508,34.172813,34.231693,34.300858,34.389584,34.49466,34.605118,34.707233,34.793144,34.86742,34.957653,35.102394,35.32573,35.635513,36.0103,36.399,36.744884,37.034157,37.281406,37.50361,37.726845,37.96604,38.211037,38.434647,38.61694,38.75869,38.864235,38.95231,39.050407,39.19606,39.42492,39.743088,40.190502,40.803596,41.57474,42.510117,43.402252,44.04696,44.645325,45.206326,45.79139,46.464577,47.152275,47.835625,48.566322,49.301537,49.99664,50.67311,51.12101,51.119797,50.674633,49.86651,48.746006,47.64206,46.764523,46.402664,46.445053,46.61148,46.685383,46.59665,46.41555,46.379852,46.78861,47.602783,48.838432,50.236168,51.296852,51.881878,52.21154,52.349556,52.33553,52.28904,52.28189,52.28595,52.258076,52.203094,52.140495,52.095192,52.09658,52.295563,52.828743,53.577065,54.1675,54.822525,55.520462,56.13546,56.582634,56.8141,56.780174,56.491997,56.174034,56.07563,56.43988,57.586617,59.339016,60.909554,61.6649,62.047363,62.11796,62.026585,61.87446,61.74154,61.68595,61.688015,61.71531,61.8042,61.944736,62.133476,62.36051,62.599068,62.8145,62.981346,63.104755,63.152695,63.01454,62.661125,61.97414,60.764725,59.168785,57.51207,55.191936,53.07704,51.677094,50.936707,50.675274,50.637306,50.76017,50.665432,50.338352,49.859123,49.35679,48.97384,48.781128,48.65332,48.650352,48.74006,48.850853,48.94043,49.016655,49.100266,49.193306,49.315407,49.47204,49.655907,49.807396
21.62981,22.599577,23.372452,23.844425,24.303225,24.54819,24.68839,24.76022,24.788513,24.862637,24.98111,24.808321,24.10608,22.152365,20.138454,18.891966,18.345453,18.167679,18.116951,18.08161,18.126064,18.211098,18.28851,18.328875,18.333569,18.33087,18.334808,18.353653,18.393612,18.451149,18.507847,18.546516,18.565115,18.561539,18.548176,18.532646,18.527462,18.545195,18.588339,18.647648,18.713684,18.7783,18.830385,18.866533,18.885471,18.890766,18.890457,18.888765,18.88924,18.892641,18.899094,18.907837,18.916985,18.924313,18.929003,18.933891,18.939762,18.941902,18.936813,18.924816,18.904903,18.8751,18.847443,18.821287,18.798332,18.7835,18.781454,18.78764,18.791264,18.79176,18.78552,18.768272,18.74501,18.720123,18.694277,18.667826,18.642838,18.616531,18.589203,18.562244,18.534313,18.502054,18.463673,18.420492,18.368595,18.307674,18.2374,18.161736,18.088306,18.025747,17.98162,17.961552,17.962742,17.989645,18.039207,18.102753,18.172256,18.244345,18.319479,18.401325,18.489372,18.577297,18.663107,18.750803,18.848267,18.964321,19.113594,19.299017,19.503065,19.685642,19.81423,19.896782,19.973476,20.068096,20.166079,20.503696,21.37899,23.125847,25.350563,26.84285,27.351238,27.886776,28.139614,28.174606,28.132456,28.096592,28.136927,28.22013,28.307276,28.39532,28.472256,28.534487,28.58973,28.646534,28.704506,28.762852,28.813026,28.844471,28.85228,28.839022,28.829548,28.870663,28.980755,29.160416,29.376307,29.586573,29.775528,29.971071,30.229969,30.630642,31.211456,31.964602,32.740997,33.436527,33.952065,34.16565,34.16415,34.086807,34.03553,34.02573,34.051353,34.10408,34.167324,34.232727,34.308952,34.403976,34.513874,34.626812,34.728855,34.812836,34.884007,34.97136,35.117428,35.344025,35.663483,36.05676,36.46785,36.833725,37.13804,37.397354,37.629417,37.864166,38.119076,38.382175,38.621628,38.81383,38.960045,39.065536,39.154327,39.26005,39.4205,39.66507,39.993683,40.43837,41.019733,41.77402,42.6082,43.35264,43.947685,44.496445,45.01178,45.55435,46.180267,46.875103,47.593204,48.326794,49.08474,49.808704,50.518845,51.01033,51.053356,50.64834,49.89135,48.838104,47.755127,46.96511,46.61039,46.618446,46.748055,46.78257,46.66374,46.469963,46.42462,46.80916,47.63396,48.91747,50.32018,51.329338,51.95448,52.315575,52.486683,52.506275,52.48162,52.482994,52.49067,52.460968,52.400124,52.326057,52.293602,52.306175,52.524406,53.07695,53.79638,54.424786,55.09745,55.791924,56.383747,56.792725,56.98101,56.909233,56.587807,56.242744,56.135864,56.48933,57.6343,59.394447,60.959785,61.708237,62.0946,62.16564,62.073013,61.920265,61.788918,61.73883,61.751595,61.793884,61.91234,62.081764,62.314163,62.59839,62.880867,63.109055,63.25751,63.31569,63.2428,62.939873,62.343903,61.279903,59.67211,58.057144,56.041122,53.89826,52.254562,51.28564,50.846012,50.782066,50.864323,50.96369,50.769306,50.35945,49.823048,49.284126,48.898598,48.721558,48.650066,48.69939,48.83287,48.97455,49.074535,49.141014,49.20736,49.28205,49.389538,49.560806,49.72313,49.81572
21.625206,22.564032,23.31907,23.792122,24.271269,24.525948,24.67458,24.746876,24.801311,24.90734,24.981821,24.721266,23.608448,21.517845,19.652206,18.65215,18.285006,18.17231,18.151625,18.138454,18.191889,18.271465,18.334,18.361828,18.365082,18.369457,18.385456,18.416706,18.465275,18.526348,18.583023,18.620533,18.638351,18.63413,18.620184,18.604256,18.600054,18.622696,18.675627,18.747585,18.827188,18.90424,18.964203,19.003323,19.021526,19.024612,19.02306,19.021965,19.024088,19.029495,19.037464,19.04561,19.051949,19.055819,19.05723,19.058475,19.059216,19.056469,19.049622,19.036526,19.013178,18.979984,18.947184,18.917765,18.888409,18.86757,18.863617,18.87069,18.875443,18.878983,18.875956,18.864834,18.848185,18.830044,18.807331,18.776577,18.74814,18.718824,18.687666,18.656301,18.623713,18.58706,18.545113,18.498981,18.442604,18.374157,18.291862,18.200409,18.110504,18.034248,17.981125,17.957342,17.958174,17.986923,18.038925,18.103792,18.172726,18.242855,18.315289,18.39451,18.481312,18.570107,18.657925,18.74868,18.850414,18.968668,19.118153,19.304054,19.510742,19.699795,19.837337,19.924997,19.999214,20.12461,20.193726,20.4828,21.279259,22.985207,25.323734,27.05074,27.628366,28.280132,28.616726,28.634743,28.536366,28.475819,28.493332,28.56224,28.653492,28.760149,28.86179,28.945173,29.011671,29.068987,29.120512,29.169827,29.211117,29.22343,29.209259,29.183418,29.168283,29.198605,29.284763,29.439411,29.629913,29.810032,29.961327,30.11436,30.33025,30.684483,31.217268,31.935272,32.69197,33.37561,33.889847,34.12153,34.134354,34.073326,34.026203,34.017967,34.048332,34.107277,34.17768,34.250042,34.33279,34.43257,34.544792,34.657494,34.757446,34.83877,34.907738,34.99415,35.14386,35.375984,35.70569,36.11589,36.546333,36.92822,37.24694,37.510025,37.74477,37.98449,38.247246,38.520172,38.768185,38.96505,39.113266,39.21955,39.312332,39.429356,39.60663,39.86622,40.202053,40.638092,41.189507,41.910004,42.64488,43.271122,43.833267,44.34852,44.83471,45.35237,45.945942,46.632996,47.361153,48.093544,48.860413,49.5969,50.322197,50.838173,50.922966,50.567223,49.87147,48.903954,47.855927,47.17231,46.81982,46.78989,46.88275,46.873928,46.728268,46.530235,46.48373,46.846893,47.666862,48.963535,50.345474,51.30389,51.962757,52.362602,52.574955,52.636375,52.641655,52.6575,52.671356,52.641266,52.575684,52.49301,52.4709,52.496105,52.740993,53.3182,54.009308,54.674355,55.361115,56.042118,56.60051,56.967834,57.1136,57.002125,56.647537,56.275948,56.16636,56.50866,57.64396,59.40842,60.973198,61.711647,62.1029,62.177315,62.0876,61.939507,61.816154,61.77944,61.812737,61.882294,62.03414,62.24858,62.535774,62.8817,63.196907,63.382164,63.477226,63.4077,63.15279,62.64703,61.646606,60.131134,58.447445,56.776524,54.664547,52.90358,51.73548,51.103104,50.89799,50.991943,51.148163,51.07886,50.782127,50.292923,49.69111,49.131184,48.76275,48.609253,48.623184,48.747585,48.952164,49.135765,49.240974,49.293434,49.336,49.38283,49.483173,49.63931,49.73872,49.786327
21.637844,22.551697,23.27873,23.753256,24.25135,24.503819,24.658752,24.73258,24.813305,24.942451,24.937027,24.525513,22.896166,20.782469,19.21529,18.484612,18.244131,18.172993,18.15751,18.169415,18.231712,18.302464,18.350456,18.370626,18.376709,18.389744,18.4166,18.457563,18.511072,18.572224,18.626427,18.661278,18.677479,18.672264,18.65768,18.641497,18.6384,18.665457,18.726463,18.807968,18.896893,18.981358,19.044104,19.0819,19.096718,19.096622,19.093805,19.093788,19.098064,19.105877,19.115753,19.124662,19.130747,19.134068,19.13509,19.135603,19.133888,19.127888,19.116638,19.097332,19.067791,19.031628,18.996872,18.9665,18.938992,18.921307,18.918865,18.926083,18.932114,18.93607,18.930355,18.922192,18.911972,18.900055,18.88319,18.859085,18.836754,18.805508,18.771435,18.736792,18.70068,18.661137,18.617805,18.571447,18.513817,18.441486,18.35056,18.245943,18.141085,18.051613,17.98946,17.961657,17.961843,17.992321,18.046846,18.11329,18.182089,18.250797,18.32079,18.398556,18.485245,18.575947,18.666397,18.759727,18.864376,18.98442,19.133158,19.318691,19.527237,19.721964,19.867653,19.96009,20.030579,20.158356,20.222254,20.47319,21.220453,22.889149,25.298983,27.307775,28.00457,28.71508,29.095661,29.168598,29.116896,29.05215,29.013039,29.057821,29.143246,29.25485,29.364681,29.452583,29.515854,29.564434,29.610107,29.651176,29.680069,29.669033,29.624687,29.570692,29.533926,29.549383,29.617218,29.749657,29.912037,30.057606,30.169516,30.278881,30.445383,30.744007,31.229313,31.910881,32.644478,33.313145,33.823105,34.071053,34.10318,34.059845,34.018093,34.01448,34.053272,34.121136,34.200466,34.280388,34.369263,34.472317,34.584507,34.69447,34.79057,34.868843,34.93686,35.024498,35.18003,35.417976,35.756813,36.18062,36.623913,37.01488,37.344246,37.6026,37.833103,38.07162,38.334747,38.60949,38.859123,39.056126,39.205208,39.314957,39.41638,39.548523,39.74357,40.015778,40.35388,40.77509,41.2977,41.962692,42.615017,43.171062,43.706467,44.20349,44.678032,45.186504,45.768845,46.443283,47.163666,47.894157,48.65709,49.389236,50.107685,50.62428,50.733295,50.421154,49.790703,48.91745,47.919357,47.33072,46.994743,46.93653,46.99792,46.9567,46.786488,46.597748,46.56099,46.91005,47.705185,48.977848,50.31811,51.226665,51.90865,52.354565,52.61727,52.725163,52.764954,52.80031,52.82192,52.79207,52.72216,52.631405,52.619938,52.65856,52.93553,53.545624,54.208717,54.899048,55.596367,56.25929,56.78096,57.106655,57.211285,57.06139,56.676,56.281143,56.17327,56.50589,57.628197,59.394333,60.95961,61.683147,62.078712,62.15795,62.074142,61.93544,61.82666,61.81163,61.875477,61.983723,62.177067,62.447758,62.797085,63.16787,63.4616,63.611473,63.585358,63.330452,62.908928,61.988525,60.523796,58.884544,57.29043,55.40306,53.63289,52.320877,51.528748,51.168327,51.155426,51.324547,51.34463,51.121258,50.714733,50.129982,49.46389,48.8991,48.57164,48.47563,48.58035,48.81331,49.10807,49.35519,49.4811,49.510284,49.52433,49.546265,49.612267,49.692715,49.740948,49.7952
21.64901,22.542288,23.248863,23.724035,24.223738,24.474846,24.638733,24.708542,24.82334,24.976109,24.832504,24.213451,22.16948,20.085144,18.836319,18.358921,18.210522,18.179893,18.164795,18.188408,18.249088,18.309074,18.34648,18.36369,18.375504,18.397373,18.432922,18.480366,18.535461,18.594109,18.644306,18.675764,18.690016,18.683743,18.668678,18.652576,18.650766,18.681656,18.748901,18.836885,18.931114,19.018528,19.079935,19.113419,19.123442,19.119999,19.116175,19.117527,19.124075,19.134193,19.145779,19.15522,19.160831,19.163464,19.164175,19.165165,19.165188,19.162174,19.15057,19.127476,19.09323,19.050262,19.009071,18.97061,18.943268,18.932816,18.93863,18.952827,18.96511,18.97059,18.963682,18.953678,18.941505,18.92904,18.916939,18.903755,18.8908,18.865156,18.832342,18.795895,18.75721,18.716167,18.673126,18.62845,18.572025,18.498802,18.40256,18.288044,18.170881,18.069935,17.999794,17.968365,17.967964,18.000113,18.057072,18.12508,18.193897,18.261448,18.329163,18.40605,18.493267,18.586105,18.67978,18.775867,18.881947,19.003529,19.150955,19.335495,19.545233,19.744917,19.898106,19.995358,20.061512,20.166622,20.24319,20.465721,21.185211,22.805279,25.234419,27.5597,28.406427,29.03191,29.418568,29.604815,29.656393,29.630287,29.586529,29.619102,29.682152,29.773804,29.865353,29.93533,29.98339,30.022678,30.067127,30.109192,30.136688,30.118101,30.055637,29.969177,29.890354,29.870384,29.922966,30.037273,30.174313,30.28819,30.365225,30.435816,30.555645,30.802479,31.247198,31.893253,32.600525,33.25177,33.754593,34.013382,34.06739,34.037865,34.004276,34.0094,34.059105,34.138313,34.228485,34.317017,34.412354,34.518173,34.62914,34.735058,34.8265,34.9019,34.970306,35.061108,35.223293,35.46599,35.81125,36.24314,36.690735,37.082096,37.41213,37.662704,37.886887,38.121677,38.382137,38.655006,38.90325,39.099297,39.25084,39.36857,39.483887,39.63423,39.846394,40.127167,40.461388,40.862274,41.351013,41.9517,42.539413,43.057755,43.573315,44.062035,44.53665,45.04532,45.6286,46.299088,47.013313,47.73901,48.488983,49.20279,49.893867,50.387764,50.49664,50.211468,49.637657,48.84855,47.912212,47.37933,47.072407,47.007263,47.05329,47.003895,46.824455,46.65417,46.638893,46.98473,47.744858,48.966827,50.251724,51.1176,51.815964,52.307686,52.626034,52.783676,52.85972,52.91586,52.944656,52.9142,52.83925,52.740974,52.731544,52.788544,53.096867,53.724876,54.373672,55.088043,55.79837,56.443676,56.934067,57.224407,57.28998,57.10445,56.68982,56.280106,56.17236,56.49606,57.60778,59.373505,60.934692,61.63742,62.034996,62.11817,62.04052,61.913315,61.823246,61.83585,61.93744,62.08773,62.33586,62.669765,63.065342,63.423363,63.661396,63.76104,63.56237,63.12246,62.365105,60.96971,59.28646,57.7331,56.11097,54.26507,52.992752,52.10707,51.637444,51.506676,51.56761,51.63113,51.46097,51.14599,50.60723,49.89885,49.1719,48.615448,48.341537,48.327194,48.537094,48.89585,49.29655,49.597244,49.73253,49.75447,49.75146,49.733006,49.734352,49.749985,49.795925,49.884308
21.650654,22.522005,23.226759,23.70199,24.17678,24.434687,24.609509,24.688837,24.845486,24.996807,24.670872,23.789707,21.55688,19.602379,18.584053,18.257542,18.181854,18.188091,18.170948,18.19944,18.253647,18.303673,18.334911,18.35307,18.372044,18.40189,18.443615,18.49457,18.548824,18.60366,18.649591,18.677917,18.69056,18.683628,18.668596,18.653212,18.653137,18.687506,18.759552,18.85173,18.94839,19.035765,19.093605,19.121683,19.12696,19.12082,19.116484,19.119253,19.127838,19.139622,19.152075,19.161324,19.16593,19.167515,19.167671,19.168724,19.16964,19.168608,19.159985,19.139666,19.106422,19.061647,19.013756,18.966415,18.930779,18.915363,18.924683,18.94898,18.968504,18.978653,18.976696,18.967651,18.952213,18.938604,18.929235,18.917868,18.906984,18.893425,18.867802,18.832409,18.792168,18.750359,18.70845,18.66628,18.612343,18.540054,18.441078,18.319765,18.19337,18.083473,18.007027,17.972942,17.97231,18.00609,18.065193,18.13443,18.20314,18.269718,18.335648,18.411325,18.498932,18.593801,18.690723,18.789698,18.8969,19.01915,19.165552,19.348717,19.559021,19.763008,19.923134,20.024933,20.08719,20.176006,20.256489,20.449753,21.146687,22.693455,25.097746,27.741117,28.713993,29.205643,29.622799,29.905853,29.986336,29.993017,30.03799,30.07614,30.116222,30.179882,30.245377,30.29689,30.337078,30.373894,30.41474,30.458916,30.49305,30.477882,30.41014,30.31184,30.212318,30.152044,30.182861,30.27752,30.393562,30.481726,30.527988,30.564114,30.646868,30.85902,31.27055,31.882034,32.56276,33.196377,33.688675,33.95088,34.022667,34.00434,33.98208,33.998814,34.0606,34.152683,34.25509,34.353207,34.45556,34.564323,34.673878,34.775574,34.86256,34.935814,35.005833,35.101448,35.268585,35.51539,35.864388,36.29756,36.741478,37.125484,37.44397,37.68947,37.910095,38.14257,38.40184,38.673603,38.921272,39.118324,39.27571,39.40617,39.539635,39.709568,39.936504,40.220764,40.544846,40.920708,41.371128,41.911583,42.44806,42.941467,43.442837,43.928596,44.408638,44.922993,45.51065,46.188362,46.905746,47.621155,48.35293,49.039124,49.68874,50.141365,50.23086,49.955925,49.419983,48.692753,47.82283,47.30339,47.026207,46.98166,47.03695,47.0041,46.84314,46.691143,46.705048,47.056366,47.78504,48.941574,50.161583,51.00348,51.717552,52.248466,52.620804,52.828354,52.939415,53.013878,53.047623,53.014824,52.933598,52.82879,52.80562,52.888996,53.219376,53.831535,54.50329,55.241535,55.96838,56.601795,57.07164,57.33649,57.367474,57.14943,56.706955,56.28955,56.177254,56.494286,57.60308,59.36724,60.915092,61.59211,61.98874,62.072975,61.998962,61.88183,61.81069,61.852783,61.99484,62.18431,62.494694,62.895626,63.30455,63.644424,63.84339,63.808174,63.43581,62.794716,61.490147,59.84908,58.23982,56.623596,54.9271,53.5994,52.70594,52.167236,51.98204,51.975708,51.928337,51.77298,51.573135,51.163795,50.466278,49.616043,48.830208,48.291416,48.070923,48.13547,48.473083,48.968487,49.478737,49.81198,49.93979,49.967625,49.95174,49.876717,49.830875,49.85749,49.932587,50.043537
21.652988,22.506824,23.211477,23.689577,24.128773,24.387741,24.562923,24.709406,24.916836,24.991837,24.462555,23.177036,20.94606,19.219913,18.411354,18.196407,18.16883,18.183754,18.178614,18.207256,18.253494,18.295658,18.323986,18.345049,18.370754,18.406815,18.452301,18.504435,18.556522,18.607338,18.649475,18.675293,18.686737,18.679512,18.664867,18.650593,18.652445,18.689713,18.764969,18.859222,18.955992,19.04129,19.094612,19.117481,19.118933,19.111145,19.106934,19.111113,19.121418,19.134264,19.146873,19.155365,19.15866,19.15905,19.158598,19.159594,19.161297,19.162273,19.156502,19.138927,19.107306,19.062456,19.013231,18.963985,18.921656,18.896935,18.900969,18.926075,18.949116,18.96732,18.971611,18.965755,18.953785,18.93958,18.926529,18.916752,18.909294,18.89656,18.878735,18.849491,18.810192,18.76791,18.727566,18.68818,18.637125,18.566578,18.466522,18.340841,18.208035,18.09184,18.011066,17.975407,17.975086,18.010555,18.07164,18.141998,18.210583,18.27634,18.341572,18.415222,18.502388,18.598782,18.69852,18.800632,18.909786,19.031048,19.176935,19.358341,19.568394,19.77573,19.941853,20.047771,20.106651,20.181358,20.258892,20.424213,21.099125,22.566761,24.927835,27.838066,28.861727,29.330555,29.720024,30.093586,30.248653,30.208218,30.241346,30.290604,30.347502,30.401083,30.446043,30.492744,30.54124,30.58089,30.624569,30.678793,30.727322,30.724258,30.6647,30.571785,30.469357,30.387802,30.392666,30.471998,30.574316,30.644547,30.66837,30.67758,30.729305,30.914757,31.299435,31.878757,32.534706,33.152412,33.633293,33.89485,33.977837,33.969093,33.95865,33.987144,34.06055,34.165096,34.279316,34.38671,34.495598,34.60685,34.714622,34.812035,34.89496,34.96675,35.039116,35.1406,35.307594,35.558384,35.910553,36.33989,36.775074,37.14763,37.448105,37.69245,37.91323,38.146286,38.407677,38.68123,38.931114,39.132397,39.299244,39.44615,39.600212,39.789658,40.028725,40.312546,40.622833,40.971924,41.390396,41.882103,42.372635,42.84266,43.337177,43.824226,44.311897,44.83719,45.428524,46.112415,46.83226,47.53266,48.24347,48.89812,49.501553,49.90565,49.965057,49.68769,49.174286,48.490448,47.679962,47.150303,46.91131,46.91072,46.994316,46.995316,46.868717,46.732994,46.77395,47.130695,47.83563,48.919846,50.068947,50.909027,51.639214,52.207893,52.62578,52.87666,53.018047,53.10624,53.141777,53.104687,53.016,52.903618,52.862816,52.973152,53.313496,53.89181,54.603645,55.36624,56.106308,56.740345,57.202114,57.447227,57.447876,57.200653,56.73555,56.306408,56.190464,56.511055,57.62945,59.392685,60.91521,61.564148,61.95765,62.03987,61.966087,61.85589,61.801178,61.87089,62.051758,62.280167,62.64695,63.10662,63.51145,63.832657,63.998795,63.787407,63.25457,62.255592,60.6734,58.947983,57.286568,55.65634,54.211983,53.23593,52.658016,52.409374,52.358505,52.25203,52.04782,51.866745,51.594826,51.12332,50.26346,49.264465,48.421677,47.902702,47.73794,47.88868,48.34053,49.013634,49.59848,50.009384,50.20049,50.183327,50.11747,50.035038,49.994133,50.03308,50.127808,50.262196
21.65634,22.507622,23.20453,23.692951,24.065914,24.328127,24.507296,24.716599,24.956955,24.9337,24.157078,22.278847,20.273632,18.87871,18.284424,18.16389,18.163937,18.17985,18.191713,18.217926,18.255991,18.292187,18.319675,18.344316,18.375679,18.416018,18.463062,18.514606,18.56377,18.610777,18.649818,18.673796,18.68441,18.677074,18.662903,18.649782,18.653358,18.692776,18.769928,18.864664,18.960098,19.042696,19.09217,19.11142,19.110992,19.103344,19.100437,19.106514,19.118595,19.13219,19.144455,19.15177,19.153606,19.152882,19.152,19.153088,19.155615,19.158539,19.155624,19.141113,19.11184,19.067936,19.018208,18.966864,18.921322,18.891666,18.886667,18.903131,18.925854,18.94406,18.951313,18.955605,18.949108,18.93572,18.922985,18.910828,18.900454,18.890354,18.873898,18.851425,18.81932,18.779442,18.740177,18.703625,18.655216,18.586185,18.485252,18.35616,18.218529,18.097889,18.014519,17.97832,17.97907,18.016644,18.079876,18.151373,18.219725,18.284473,18.348557,18.421257,18.507298,18.603651,18.705404,18.81078,18.922083,19.042343,19.187416,19.366749,19.57573,19.78542,19.957064,20.067444,20.123806,20.18581,20.257748,20.395218,21.038425,22.431559,24.756397,27.87556,28.984165,29.424936,29.803242,30.182259,30.36185,30.352612,30.369322,30.411829,30.465357,30.516413,30.563213,30.609844,30.653065,30.692543,30.750233,30.8221,30.890846,30.905396,30.86161,30.777992,30.674566,30.592312,30.58022,30.640602,30.726364,30.786407,30.798607,30.786469,30.814188,30.97814,31.34105,31.889027,32.519745,33.12181,33.592514,33.855316,33.944145,33.943504,33.943047,33.981636,34.06549,34.181396,34.306427,34.422253,34.536587,34.64897,34.753654,34.845734,34.92401,34.99436,35.069355,35.177338,35.342857,35.59514,35.947,36.36782,36.789192,37.146957,37.432446,37.673187,37.89621,38.13546,38.405,38.686623,38.945107,39.157166,39.340187,39.50997,39.689285,39.89994,40.150078,40.430336,40.72136,41.051598,41.459038,41.881813,42.313896,42.780106,43.273514,43.766327,44.26353,44.797688,45.392723,46.072216,46.7781,47.45661,48.141296,48.760002,49.314453,49.668007,49.692753,49.404785,48.904343,48.25586,47.501205,46.95524,46.748016,46.802555,46.945763,47.015114,46.94432,46.82975,46.865845,47.216602,47.90372,48.91321,49.98429,50.82954,51.57953,52.186565,52.64721,52.93653,53.104145,53.20308,53.237305,53.193436,53.095074,52.972355,52.91058,53.03537,53.387634,53.94635,54.68014,55.47151,56.223816,56.869797,57.332573,57.55941,57.529755,57.253746,56.769592,56.326584,56.209484,56.547062,57.692375,59.456364,60.93589,61.548782,61.93724,62.01468,61.937668,61.831425,61.79162,61.886337,62.09899,62.37433,62.796585,63.310776,63.711376,64.00751,64.11495,63.69631,63.0131,61.63189,59.88151,58.161346,56.49874,54.93146,53.764206,53.034935,52.69747,52.62963,52.514023,52.326096,52.151566,51.91969,51.5468,50.97586,49.926697,48.770355,47.85526,47.348022,47.260845,47.511322,48.11489,48.987946,49.73343,50.228897,50.445343,50.42823,50.359108,50.268696,50.2254,50.270786,50.383522,50.56716
21.664646,22.520277,23.207836,23.698786,23.993599,24.257133,24.430822,24.705101,24.963741,24.785385,23.767735,21.601784,19.724098,18.590855,18.19151,18.160816,18.183495,18.18613,18.211407,18.233086,18.262836,18.294403,18.32256,18.351194,18.387238,18.430162,18.477049,18.526728,18.572567,18.616177,18.652882,18.675629,18.68573,18.678576,18.665142,18.653542,18.6591,18.700256,18.778069,18.871748,18.96428,19.043354,19.089455,19.106503,19.106007,19.100147,19.099598,19.107878,19.121586,19.13538,19.146564,19.152039,19.151981,19.149975,19.148611,19.14962,19.152771,19.157333,19.157093,19.145857,19.119644,19.077778,19.028784,18.97624,18.927826,18.893469,18.882265,18.89096,18.904762,18.916815,18.923645,18.928967,18.929054,18.92421,18.915142,18.901808,18.890068,18.874714,18.85756,18.837154,18.812023,18.781418,18.746838,18.71119,18.664906,18.596933,18.495152,18.363457,18.222507,18.099205,18.014793,17.97918,17.981682,18.021704,18.087273,18.160013,18.228195,18.291912,18.354713,18.426186,18.51147,18.608105,18.71117,18.818466,18.931526,19.052063,19.194267,19.37065,19.577578,19.788517,19.965334,20.080557,20.135132,20.185503,20.247822,20.35385,20.959534,22.272087,24.54594,27.838669,29.055368,29.511845,29.859955,30.214184,30.40054,30.405912,30.409702,30.446747,30.501148,30.565388,30.603624,30.627018,30.662102,30.712688,30.790054,30.883942,30.975353,31.013945,30.990034,30.917168,30.819336,30.744675,30.72927,30.774586,30.847317,30.900139,30.908968,30.890041,30.898155,31.046284,31.391958,31.908203,32.512245,33.099403,33.56102,33.824112,33.91828,33.925713,33.93332,33.980362,34.073727,34.199844,34.334625,34.458008,34.576797,34.68918,34.78965,34.87554,34.948795,35.01777,35.09555,35.20742,35.371918,35.624447,35.97266,36.38115,36.785324,37.126965,37.400852,37.63927,37.869164,38.12155,38.406376,38.703087,38.97699,39.20652,39.41241,39.61149,39.82057,40.05349,40.31366,40.595932,40.893997,41.197304,41.52685,41.884853,42.29318,42.7581,43.254715,43.755577,44.261677,44.797684,45.401047,46.058086,46.722023,47.376724,48.02897,48.609024,49.11705,49.42626,49.42167,49.12436,48.636246,48.014988,47.257706,46.726227,46.564636,46.693237,46.911736,47.053173,47.062973,46.994606,47.02043,47.34516,47.989143,48.91301,49.913757,50.77471,51.550713,52.199116,52.699524,53.02107,53.209236,53.314552,53.343452,53.28974,53.179993,53.04522,52.961567,53.074375,53.42987,53.99769,54.750015,55.57591,56.346794,57.011856,57.48025,57.688976,57.626263,57.319897,56.820892,56.36592,56.24507,56.611748,57.80714,59.561317,60.95366,61.55307,61.93514,62.004955,61.921543,61.816437,61.789604,61.907833,62.15107,62.473663,62.95129,63.48951,63.884613,64.14729,64.1597,63.56893,62.742393,61.0415,59.16272,57.478153,55.880173,54.43483,53.509506,52.944138,52.72364,52.614677,52.464706,52.317173,52.135605,51.785355,51.342125,50.591095,49.32937,48.0235,47.035164,46.53405,46.534283,46.90323,47.692657,48.789375,49.78566,50.3493,50.58156,50.72793,50.773552,50.65349,50.590786,50.64003,50.753,50.83747
21.680618,22.552092,23.21749,23.651434,23.91343,24.174053,24.379025,24.693068,24.913101,24.523476,23.192356,20.946236,19.283035,18.389595,18.139664,18.162415,18.195892,18.208395,18.237705,18.2519,18.272343,18.299599,18.328918,18.361206,18.400682,18.44476,18.49029,18.53744,18.58007,18.620903,18.655874,18.677666,18.687302,18.680496,18.668066,18.658434,18.666243,18.708586,18.78556,18.876291,18.963959,19.037996,19.080399,19.095924,19.096489,19.093435,19.095722,19.106056,19.120932,19.134327,19.14386,19.147106,19.14502,19.14174,19.139935,19.140816,19.144424,19.15025,19.152313,19.144354,19.121851,19.083351,19.036695,18.984581,18.93433,18.895687,18.879164,18.881737,18.887562,18.89307,18.892874,18.894405,18.896557,18.89739,18.895226,18.888317,18.876823,18.85893,18.838196,18.8138,18.789902,18.76703,18.741568,18.712997,18.666435,18.597961,18.494865,18.361107,18.218254,18.094086,18.01015,17.976263,17.981066,18.023779,18.091867,18.166153,18.234615,18.297855,18.359793,18.430302,18.51522,18.612461,18.716892,18.825775,18.93984,19.05959,19.196941,19.368517,19.571507,19.782135,19.96341,20.083797,20.137785,20.178608,20.228745,20.303272,20.865532,22.102512,24.331696,27.754566,29.08971,29.578676,29.88752,30.209415,30.394905,30.400705,30.397402,30.434319,30.499725,30.55,30.572798,30.592434,30.633507,30.699518,30.791174,30.90316,31.01258,31.070524,31.063286,31.00167,30.912273,30.84478,30.832447,30.874569,30.941198,30.98813,30.996853,30.979984,30.977833,31.114716,31.442965,31.928516,32.506145,33.078583,33.533035,33.79729,33.8963,33.912666,33.927086,33.981285,34.083176,34.217873,34.360542,34.489754,34.61132,34.722214,34.817482,34.896774,34.965023,35.032806,35.113117,35.22313,35.388657,35.640938,35.98244,36.376583,36.763123,37.090485,37.357124,37.597748,37.840393,38.11256,38.41888,38.735752,39.0292,39.28083,39.514046,39.748806,39.996346,40.2649,40.536777,40.7895,41.050156,41.31198,41.588806,41.918945,42.32213,42.78783,43.2898,43.796883,44.31077,44.85752,45.447033,46.050446,46.6576,47.28141,47.895264,48.436607,48.90618,49.185112,49.16552,48.867798,48.397408,47.807533,47.029823,46.512253,46.399055,46.6292,46.919655,47.084843,47.170555,47.21058,47.211983,47.493256,48.074898,48.909782,49.85505,50.74212,51.55021,52.239704,52.780533,53.12776,53.32728,53.432663,53.45227,53.387352,53.266354,53.119507,53.01802,53.108868,53.46125,54.050453,54.82363,55.68777,56.488388,57.175354,57.65049,57.83955,57.737514,57.397636,56.88423,56.42961,56.29798,56.703705,57.968697,59.699226,60.96763,61.57199,61.947174,62.007633,61.91591,61.809937,61.794098,61.934437,62.20773,62.57393,63.103943,63.62629,64.00321,64.23989,64.1521,63.409477,62.406834,60.517647,58.573402,56.904472,55.380608,54.070942,53.28173,52.772697,52.560448,52.412556,52.305767,52.106773,51.763634,51.376778,50.916107,49.845173,48.373093,47.020416,46.071167,45.57469,45.570187,46.098297,47.025627,48.391685,49.637596,50.325817,50.581497,50.75302,50.892517,50.906494,50.92604,50.95424,50.988342,50.957077
21.706356,22.604015,23.244629,23.568703,23.83292,24.082947,24.355392,24.66623,24.774647,24.12806,22.418388,20.236465,18.914845,18.27528,18.132395,18.169758,18.203909,18.239994,18.265503,18.270195,18.28123,18.304836,18.335722,18.371181,18.41285,18.456915,18.500292,18.544622,18.584332,18.622873,18.656364,18.677147,18.686106,18.679588,18.668295,18.660894,18.670992,18.713837,18.78852,18.874586,18.955736,19.0234,19.061634,19.07594,19.078175,19.078388,19.083569,19.09562,19.111164,19.12377,19.131441,19.13252,19.128666,19.124378,19.122272,19.123049,19.126923,19.13348,19.137203,19.132153,19.113632,19.07954,19.036663,18.986736,18.936451,18.894724,18.872845,18.86984,18.871105,18.872288,18.865582,18.862,18.86079,18.861576,18.864025,18.864174,18.85757,18.844795,18.82236,18.794155,18.765858,18.741795,18.722374,18.70184,18.660748,18.591972,18.486433,18.35056,18.206802,18.083113,18.000751,17.96923,17.976564,18.021805,18.092228,18.168148,18.237331,18.300787,18.362595,18.432827,18.517822,18.615976,18.72211,18.832687,18.947075,19.064487,19.195696,19.360493,19.557585,19.766464,19.951546,20.077492,20.132414,20.166225,20.204594,20.250774,20.766708,21.946747,24.15702,27.662178,29.105785,29.62292,29.89309,30.183037,30.366987,30.374756,30.368603,30.4086,30.485765,30.508034,30.521397,30.557713,30.613289,30.691483,30.791346,30.91361,31.03313,31.100027,31.102558,31.051636,30.971,30.90913,30.90009,30.94548,31.011438,31.05627,31.063215,31.04721,31.051582,31.179426,31.482939,31.941475,32.49615,33.053062,33.50202,33.769516,33.874252,33.901382,33.922066,33.982353,34.0916,34.232777,34.380917,34.513824,34.636368,34.7446,34.834396,34.90763,34.97175,35.039,35.12178,35.227345,35.394413,35.64525,35.977966,36.357338,36.727814,37.04435,37.308044,37.555706,37.815758,38.111736,38.444023,38.78934,39.11533,39.397068,39.66162,39.91681,40.178955,40.45687,40.724075,40.95121,41.167915,41.401917,41.67279,42.000656,42.402122,42.869965,43.379128,43.905567,44.42478,44.952133,45.49106,46.033134,46.589104,47.17119,47.742546,48.24759,48.689785,48.955853,48.9391,48.653526,48.20654,47.652756,46.8761,46.344208,46.265587,46.58501,46.94114,47.13118,47.274704,47.394333,47.413162,47.630985,48.131184,48.892128,49.803764,50.72483,51.56874,52.292137,52.868736,53.241997,53.44825,53.545143,53.55258,53.476757,53.346016,53.188843,53.07515,53.150055,53.49922,54.10726,54.906017,55.80758,56.64395,57.36197,57.84414,58.00969,57.865883,57.486435,56.9572,56.51432,56.377846,56.82802,58.16219,59.85533,60.983734,61.596718,61.96418,62.014923,61.91445,61.806755,61.80059,61.96087,62.26037,62.663773,63.238285,63.71862,64.05923,64.27989,64.116806,63.240936,62.069206,60.10014,58.140617,56.488625,55.01883,53.781204,53.020756,52.498714,52.266747,52.151016,51.987247,51.63994,51.202705,50.794624,50.16488,48.70137,47.17971,45.630093,44.41575,43.8853,44.050613,44.79094,46.11313,47.77723,49.233986,50.15273,50.513588,50.589485,50.720745,50.845062,50.976894,51.049866,51.072834,51.031826
21.742647,22.653805,23.257496,23.499699,23.758823,23.990147,24.314013,24.582499,24.525438,23.610744,21.613602,19.667645,18.646923,18.216839,18.148823,18.190298,18.225971,18.268976,18.287262,18.283115,18.287235,18.30953,18.343225,18.381802,18.424688,18.467796,18.508465,18.549843,18.586863,18.62333,18.655285,18.674746,18.68264,18.67614,18.665894,18.660725,18.672937,18.715675,18.787106,18.867548,18.941479,19.00235,19.036469,19.04993,19.054218,19.057873,19.065908,19.079472,19.095415,19.107183,19.113224,19.112597,19.107529,19.102673,19.1004,19.101007,19.104755,19.111328,19.115835,19.112917,19.098015,19.068577,19.030214,18.983784,18.935163,18.892069,18.866299,18.858494,18.855206,18.853065,18.845467,18.837204,18.831451,18.830368,18.832207,18.833454,18.834396,18.82875,18.811615,18.784931,18.752457,18.721987,18.698978,18.677319,18.645428,18.581036,18.4741,18.335674,18.191397,18.068836,17.98841,17.95915,17.96862,18.015633,18.087593,18.16469,18.234615,18.298645,18.36093,18.431545,18.517319,18.617,18.725124,18.837254,18.951591,19.066265,19.19104,19.347824,19.537844,19.74422,19.932728,20.064528,20.121744,20.150894,20.179955,20.20136,20.675694,21.817028,24.021767,27.57181,29.11342,29.657326,29.891022,30.150541,30.33587,30.35051,30.343422,30.385868,30.465954,30.481583,30.494976,30.539457,30.602707,30.687366,30.792679,30.918571,31.041832,31.111366,31.119528,31.077843,31.00539,30.949783,30.945465,30.993328,31.061008,31.107176,31.110271,31.091812,31.110352,31.231873,31.50795,31.943766,32.47855,33.019314,33.46393,33.737038,33.85048,33.89087,33.917397,33.982567,34.09752,34.24243,34.39312,34.52742,34.64949,34.754906,34.84046,34.90983,34.972153,35.040543,35.126495,35.229313,35.396584,35.644173,35.967438,36.33305,36.690353,37.000053,37.264885,37.522797,37.802402,38.122368,38.485382,38.86935,39.22986,39.52669,39.808914,40.068317,40.323097,40.580173,40.831573,41.07093,41.293182,41.527847,41.795082,42.12024,42.522476,42.9982,43.52134,44.052933,44.556465,45.029823,45.51185,46.009457,46.522785,47.056705,47.58525,48.058666,48.48481,48.75383,48.755116,48.491146,48.06388,47.533775,46.78734,46.214344,46.147793,46.51348,46.93577,47.207123,47.40491,47.51998,47.594307,47.721832,48.138973,48.85999,49.75905,50.718727,51.59639,52.348274,52.950928,53.34497,53.556488,53.642166,53.633774,53.54709,53.408237,53.243584,53.12188,53.18906,53.538544,54.16247,54.990784,55.929195,56.80233,57.552635,58.014904,58.14856,57.991913,57.580482,57.037994,56.611046,56.49015,56.984108,58.3684,60.01278,61.000183,61.617188,61.97509,62.016262,61.907394,61.797844,61.79859,61.97278,62.29309,62.72467,63.3331,63.7641,64.05633,64.2673,64.06551,63.09616,61.838318,59.83477,57.873344,56.250103,54.821194,53.596634,52.80645,52.26246,52.038223,51.86422,51.493908,51.068474,50.705254,50.131233,49.012,47.31794,45.570477,43.515236,41.843113,41.355022,41.907974,42.84857,44.713413,46.838055,48.584892,49.849777,50.4878,50.573254,50.673634,50.717278,50.842796,51.009247,51.13823,51.1438
21.78676,22.674751,23.192627,23.44159,23.689507,23.899109,24.223064,24.423418,24.162386,23.008184,20.965414,19.337835,18.503826,18.184082,18.154984,18.20615,18.249722,18.289162,18.298622,18.288395,18.289686,18.313961,18.352177,18.394123,18.437592,18.479168,18.51691,18.555393,18.589962,18.624447,18.654644,18.672367,18.678753,18.671938,18.662533,18.65946,18.673563,18.715855,18.783709,18.858383,18.925224,18.979553,19.009876,19.02276,19.02914,19.036102,19.046898,19.061928,19.078236,19.089405,19.094347,19.092733,19.087152,19.0822,19.07988,19.0802,19.083366,19.089302,19.093805,19.092136,19.08005,19.054817,19.02098,18.978691,18.932987,18.890251,18.862415,18.851318,18.84449,18.839428,18.829819,18.821487,18.813473,18.808716,18.809277,18.811872,18.813753,18.812023,18.804289,18.781998,18.750566,18.717743,18.68567,18.656347,18.619194,18.564049,18.460781,18.32032,18.17529,18.053944,17.97523,17.947622,17.958282,18.00599,18.078392,18.155878,18.226244,18.290895,18.353945,18.425545,18.512836,18.61473,18.7253,18.839138,18.953323,19.065002,19.184093,19.332521,19.515167,19.718952,19.910625,20.048237,20.108566,20.13495,20.157272,20.156713,20.599983,21.708254,23.89239,27.467981,29.11964,29.692003,29.894482,30.128347,30.318096,30.342766,30.334229,30.376312,30.453077,30.472784,30.488743,30.53325,30.597494,30.682344,30.787468,30.912264,31.035534,31.107431,31.121363,31.086975,31.020628,30.970928,30.974617,31.027046,31.09771,31.142986,31.143421,31.124836,31.14352,31.26331,31.523266,31.938272,32.45194,32.977314,33.418877,33.700504,33.825565,33.881252,33.91385,33.98244,34.100624,34.246284,34.39646,34.52986,34.65045,34.753788,34.837563,34.906563,34.970505,35.042297,35.132343,35.233902,35.400913,35.644585,35.95896,36.313225,36.66125,36.968384,37.237713,37.50763,37.80651,38.148624,38.547768,38.969875,39.32841,39.593334,39.859444,40.14016,40.423073,40.69881,40.962467,41.207108,41.431965,41.667442,41.934265,42.25994,42.66556,43.160492,43.69776,44.163727,44.615868,45.074547,45.535767,45.994125,46.46037,46.947918,47.43727,47.88494,48.304047,48.585045,48.61205,48.372345,47.95172,47.41976,46.72405,46.095825,46.019886,46.416298,46.906006,47.26876,47.523216,47.644512,47.70581,47.73282,48.108337,48.82449,49.719673,50.719322,51.622986,52.408005,53.032303,53.424488,53.634068,53.71664,53.689407,53.590996,53.445286,53.27596,53.149063,53.212845,53.56566,54.205387,55.064827,56.04334,56.958714,57.707787,58.089863,58.185574,58.071693,57.659557,57.116535,56.707573,56.618286,57.15277,58.561707,60.146507,61.00788,61.623646,61.970253,62.002197,61.88571,61.774597,61.77705,61.955414,62.29399,62.74451,63.37224,63.757805,64.004326,64.214676,64.007904,62.990654,61.734486,59.715332,57.75742,56.121185,54.7195,53.544865,52.71267,52.152977,51.914528,51.50731,51.01721,50.60585,50.180878,49.30886,47.54172,45.852135,43.09852,40.587273,39.185665,38.99971,39.68504,40.74669,42.54963,45.44226,47.69866,49.43377,50.523582,50.729828,50.880543,50.90184,50.938614,51.06003,51.185932,51.175125
21.832123,22.70391,23.138618,23.38544,23.61996,23.80636,24.09008,24.212238,23.636719,22.15637,20.304276,19.019241,18.401443,18.190853,18.169529,18.21336,18.269413,18.29929,18.29968,18.286089,18.28799,18.316898,18.361088,18.406778,18.450478,18.490135,18.524654,18.560135,18.592329,18.624882,18.653294,18.669258,18.67411,18.666948,18.658466,18.657425,18.673193,18.71466,18.778467,18.847034,18.906727,18.954506,18.981133,18.993567,19.00206,19.012268,19.025826,19.042362,19.059132,19.069998,19.074352,19.072407,19.066963,19.062374,19.060253,19.060406,19.062887,19.067883,19.07198,19.071068,19.061272,19.039925,19.010555,18.97276,18.93072,18.889397,18.86062,18.84716,18.837427,18.82982,18.818459,18.809132,18.801304,18.795883,18.793974,18.79502,18.799192,18.799133,18.79544,18.779892,18.751596,18.717123,18.682535,18.647652,18.598558,18.537037,18.44128,18.305567,18.158676,18.038668,17.961615,17.93531,17.946617,17.994255,18.06633,18.143658,18.21423,18.279518,18.343597,18.416637,18.506008,18.610668,18.724115,18.839926,18.954063,19.062763,19.176113,19.316603,19.492172,19.693481,19.88847,20.032185,20.096375,20.12119,20.139832,20.11875,20.533508,21.615551,23.774115,27.34385,29.127846,29.730768,29.906364,30.117897,30.314152,30.35214,30.340738,30.380257,30.449154,30.47829,30.498096,30.538145,30.599882,30.681742,30.783442,30.904907,31.026527,31.102713,31.118866,31.084934,31.02586,30.984367,30.991392,31.04803,31.120903,31.165909,31.167744,31.153511,31.17336,31.287247,31.53358,31.928679,32.420937,32.931274,33.371124,33.66404,33.80271,33.874237,33.91826,33.98743,34.10272,34.24778,34.39537,34.5263,34.64485,34.746708,34.830368,34.901367,34.96949,35.045937,35.138252,35.24259,35.409847,35.649376,35.95549,36.3,36.641045,36.947575,37.222397,37.503906,37.818474,38.189804,38.62953,39.05721,39.360027,39.64317,39.93403,40.23194,40.527626,40.81568,41.09001,41.342506,41.573036,41.81302,42.082043,42.413464,42.85697,43.35264,43.803276,44.253426,44.704224,45.14589,45.575645,45.99051,46.40695,46.847313,47.29854,47.723824,48.144928,48.43059,48.476616,48.26581,47.856804,47.31637,46.64114,45.956635,45.858833,46.27918,46.84572,47.28147,47.519012,47.60952,47.67592,47.699577,48.07318,48.77919,49.676353,50.71611,51.645977,52.459724,53.101322,53.489105,53.68371,53.759186,53.731277,53.620888,53.469864,53.29753,53.16649,53.22676,53.58265,54.238518,55.127792,56.137596,57.118984,57.7773,58.09327,58.194508,58.080204,57.682137,57.186897,56.79355,56.741768,57.33226,58.707005,60.18856,61.011444,61.61627,61.9516,61.97654,61.85466,61.743,61.746296,61.925323,62.27639,62.74398,63.332436,63.704033,63.94532,64.14554,63.94104,62.937847,61.724594,59.71586,57.755196,56.096222,54.726433,53.619614,52.774128,52.22413,51.66171,51.075756,50.57739,50.156296,49.491013,48.140907,45.99169,43.486736,40.23085,37.836056,36.710773,36.580223,37.355965,38.80909,40.213215,43.4414,46.318565,48.70388,50.305683,50.759846,50.96573,51.04199,51.130253,51.22725,51.29272,51.22429
21.896198,22.7525,23.082405,23.328535,23.544188,23.72891,23.952873,23.836702,22.931545,21.302792,19.643682,18.748676,18.311386,18.180841,18.174713,18.21827,18.276043,18.29414,18.286728,18.273643,18.280556,18.317371,18.36949,18.419716,18.463343,18.500433,18.531078,18.562944,18.592316,18.622698,18.649342,18.663795,18.66748,18.66047,18.653477,18.654934,18.672533,18.712944,18.772121,18.833845,18.885853,18.926939,18.95007,18.96237,18.97326,18.986887,19.0032,19.021183,19.038464,19.049229,19.053398,19.051682,19.046972,19.043255,19.041718,19.041958,19.043884,19.048027,19.05172,19.0515,19.043938,19.026478,19.001759,18.968891,18.931149,18.891975,18.862885,18.847385,18.83471,18.8243,18.810768,18.799906,18.791542,18.786167,18.784061,18.784063,18.7861,18.786308,18.783438,18.775822,18.751701,18.71399,18.677176,18.63873,18.584724,18.509714,18.41862,18.288418,18.139753,18.02184,17.94683,17.921844,17.933489,17.980478,18.051506,18.128061,18.198462,18.26422,18.329412,18.404182,18.496124,18.604166,18.721077,18.839336,18.95378,19.05967,19.16737,19.300232,19.468992,19.668211,19.867193,20.017914,20.086985,20.111021,20.12822,20.090973,20.473383,21.521416,23.646,27.191437,29.12991,29.763672,29.918182,30.111061,30.31372,30.366413,30.349785,30.384628,30.443241,30.478844,30.499071,30.531742,30.589432,30.667866,30.765764,30.88499,31.007065,31.086494,31.106283,31.077997,31.028439,30.99393,31.003494,31.059978,31.132282,31.178738,31.18506,31.176638,31.19947,31.308542,31.541924,31.91714,32.388107,32.88455,33.32546,33.634262,33.7934,33.877464,33.93428,34.000458,34.107544,34.250607,34.392715,34.51932,34.635048,34.735992,34.82132,34.896828,34.97174,35.05474,35.149963,35.25914,35.427048,35.662354,35.96045,36.295948,36.63102,36.937588,37.21761,37.50905,37.836273,38.237144,38.688206,39.093407,39.394463,39.701447,40.00711,40.316902,40.624863,40.92424,41.207294,41.46758,41.706528,41.95304,42.233894,42.60659,43.038353,43.475166,43.917786,44.37453,44.821205,45.24248,45.635162,45.998123,46.35633,46.743835,47.15526,47.562477,47.974792,48.273987,48.349617,48.162308,47.756058,47.2089,46.554268,45.77285,45.612488,46.058826,46.724686,47.237434,47.457367,47.551422,47.610435,47.648422,48.02011,48.71453,49.625366,50.70304,51.658913,52.49795,53.145588,53.526558,53.70726,53.773018,53.744934,53.631233,53.47603,53.30065,53.16427,53.218502,53.573837,54.24147,55.156693,56.200783,57.19487,57.806427,58.093216,58.185688,58.060028,57.6818,57.229664,56.860703,56.857796,57.51345,58.84929,60.21649,60.999912,61.590652,61.915005,61.93579,61.811108,61.700386,61.704254,61.88125,62.24073,62.72037,63.271416,63.633553,63.876713,64.063126,63.86528,62.92163,61.721188,59.80345,57.863205,56.17586,54.788734,53.701645,52.84059,52.007908,51.307327,50.70243,50.09713,49.704506,48.895096,46.788445,44.14739,40.37623,37.26544,35.159622,34.158485,34.178047,35.02198,36.52429,38.198433,41.109604,44.86165,48.189644,49.971977,50.498756,50.985558,51.19127,51.35111,51.46382,51.519928,51.416786
21.950886,22.777235,23.032372,23.273241,23.462824,23.639362,23.754326,23.210434,22.00349,20.540249,19.157162,18.529205,18.244377,18.157227,18.163658,18.214506,18.26461,18.27135,18.259085,18.250454,18.266117,18.313122,18.374123,18.429077,18.472397,18.506622,18.533297,18.561504,18.588163,18.616676,18.641998,18.65548,18.658577,18.652203,18.647032,18.651093,18.670343,18.70931,18.763401,18.817898,18.862179,18.896889,18.91704,18.929642,18.943058,18.959911,18.978603,18.997587,19.015186,19.025932,19.030216,19.02921,19.025745,19.023327,19.022713,19.023369,19.025036,19.028656,19.032171,19.032665,19.027199,19.013401,18.993176,18.965305,18.932163,18.895687,18.866917,18.84989,18.834549,18.8214,18.805634,18.792988,18.783619,18.778086,18.776232,18.776173,18.777246,18.774895,18.769915,18.764221,18.744282,18.70795,18.668476,18.62738,18.570566,18.488644,18.391022,18.263262,18.120762,18.004395,17.931515,17.90752,17.918938,17.964546,18.03379,18.10907,18.179104,18.24532,18.311813,18.388615,18.483551,18.595459,18.716274,18.837376,18.952553,19.056076,19.158655,19.284643,19.447247,19.64485,19.848265,20.006527,20.081276,20.105331,20.124056,20.074684,20.424644,21.433395,23.515528,27.026987,29.125832,29.787443,29.928429,30.10719,30.318638,30.390049,30.361748,30.390585,30.436577,30.472862,30.491108,30.515902,30.567955,30.643047,30.73807,30.85671,30.981651,31.06474,31.091108,31.072998,31.032928,31.00412,31.014961,31.068823,31.138016,31.185368,31.197166,31.195354,31.222115,31.32846,31.55022,31.906439,32.3573,32.842022,33.287254,33.615635,33.798237,33.89611,33.96235,34.028763,34.12479,34.25451,34.39027,34.510803,34.623093,34.723743,34.812386,34.89454,34.978188,35.069077,35.1678,35.282265,35.450974,35.682484,35.973705,36.30211,36.633175,36.94059,37.224792,37.523415,37.858696,38.28207,38.730507,39.10918,39.43284,39.752037,40.064125,40.380455,40.69594,41.00329,41.294674,41.564068,41.813362,42.073742,42.38686,42.760628,43.1627,43.5887,44.05567,44.52305,44.96463,45.36078,45.70748,46.00687,46.29695,46.6276,47.000435,47.392326,47.79895,48.12018,48.231667,48.0626,47.645744,47.083683,46.453968,45.545574,45.295654,45.766697,46.5353,47.13099,47.36489,47.477745,47.530045,47.59285,47.950478,48.6268,49.55832,50.662838,51.640457,52.4983,53.142838,53.516453,53.689735,53.749683,53.724197,53.62086,53.47254,53.298355,53.154186,53.197876,53.54821,54.222588,55.15967,56.239883,57.203766,57.79947,58.08116,58.157112,58.016037,57.648186,57.216217,56.892563,56.95101,57.676853,58.969326,60.217415,60.96894,61.545692,61.863243,61.88662,61.765522,61.659073,61.6648,61.839798,62.20353,62.69027,63.207,63.561764,63.81104,63.989784,63.81173,62.956352,61.77313,59.9954,58.06508,56.384617,54.97419,53.71933,52.651947,51.766937,51.027313,50.302757,49.761387,49.369667,48.07746,45.028965,41.385094,37.182205,33.93013,32.143547,31.535236,31.65102,32.342213,33.650726,35.666622,37.972343,42.084183,46.712627,50.067593,51.367237,50.877007,51.14013,51.46662,51.68141,51.76448,51.6408
21.986183,22.759357,22.99057,23.219074,23.420311,23.55431,23.369781,22.469244,21.098759,19.791052,18.792557,18.342922,18.188778,18.126324,18.138485,18.19595,18.2366,18.235897,18.222794,18.221283,18.247038,18.303738,18.372223,18.430874,18.473614,18.505266,18.52885,18.554512,18.57964,18.607521,18.632675,18.646118,18.6493,18.643814,18.64021,18.646126,18.666065,18.702736,18.75119,18.798365,18.835344,18.864283,18.881996,18.895138,18.910763,18.930033,18.950184,18.969307,18.986603,18.99704,19.001453,19.001387,18.999464,18.99858,18.999184,19.000626,19.002502,19.00607,19.009716,19.010933,19.00722,18.996506,18.980164,18.956774,18.92795,18.89427,18.86637,18.848679,18.831652,18.816696,18.799559,18.785824,18.775972,18.770403,18.768614,18.768734,18.770248,18.765858,18.75628,18.747108,18.731413,18.700516,18.658455,18.615437,18.55578,18.47244,18.36428,18.236889,18.103498,17.988087,17.91683,17.893059,17.903383,17.946815,18.013748,18.08765,18.157593,18.22466,18.292841,18.372028,18.4702,18.586071,18.710835,18.834866,18.951023,19.052668,19.150883,19.270912,19.42812,19.624472,19.832367,19.99828,20.079268,20.104172,20.128345,20.071367,20.391808,21.358765,23.390293,26.860962,29.117655,29.804037,29.936491,30.105858,30.320831,30.407719,30.381548,30.402828,30.433294,30.46492,30.482882,30.504452,30.55168,30.623997,30.718899,30.838003,30.96705,31.054838,31.088434,31.080143,31.047928,31.023172,31.033653,31.08374,31.14686,31.192856,31.209576,31.21383,31.244352,31.349072,31.560593,31.89913,32.331528,32.806007,33.25668,33.60592,33.81144,33.928616,33.99952,34.06529,34.15129,34.26281,34.387863,34.501488,34.609844,34.710358,34.80271,34.891685,34.98388,35.08213,35.183754,35.302704,35.472107,35.70094,35.98793,36.31286,36.64277,36.951363,37.239067,37.540085,37.88005,38.313923,38.753002,39.111237,39.452286,39.773556,40.08798,40.40529,40.721924,41.03346,41.332787,41.61252,41.875046,42.16037,42.493214,42.848972,43.251472,43.715813,44.207397,44.68726,45.12539,45.489395,45.77661,45.996887,46.20601,46.47487,46.81366,47.186718,47.602875,47.95694,48.108353,47.95629,47.52015,46.930374,46.315933,45.27823,44.93277,45.425365,46.294987,46.9812,47.25408,47.38984,47.440712,47.542892,47.876564,48.51776,49.45986,50.57453,51.56668,52.429214,53.07141,53.446358,53.62632,53.696724,53.687874,53.60778,53.4744,53.30838,53.165215,53.19924,53.540787,54.219276,55.166237,56.255165,57.17704,57.764076,58.04441,58.102043,57.943306,57.575554,57.151527,56.877632,57.0024,57.789894,59.025032,60.158928,60.902225,61.467712,61.786705,61.823364,61.715614,61.618248,61.629368,61.80652,62.170753,62.66153,63.13686,63.48017,63.735603,63.911446,63.76494,63.01535,61.865166,60.233173,58.333298,56.562595,55.01127,53.61583,52.46392,51.62983,50.78228,49.978714,49.620148,48.706486,46.12979,41.91829,36.67191,32.944393,30.246052,29.064926,28.86125,29.001509,29.450668,30.320278,31.817844,33.42643,36.65326,41.401466,46.547676,50.34371,51.4337,51.65342,51.608578,51.790524,51.979443,51.86612
22.018387,22.71774,22.958662,23.185163,23.411985,23.443794,22.829306,21.721844,20.337673,19.08923,18.470188,18.188274,18.122139,18.086056,18.105194,18.162697,18.196865,18.194027,18.183878,18.19054,18.225494,18.289207,18.362017,18.42227,18.463873,18.493366,18.515022,18.53957,18.564552,18.593075,18.619198,18.633495,18.637373,18.632912,18.630442,18.637222,18.656727,18.690275,18.73286,18.773113,18.803751,18.827908,18.843868,18.857718,18.875034,18.895704,18.916252,18.934618,18.950912,18.96064,18.965084,18.966026,18.965733,18.966446,18.968407,18.970867,18.973322,18.97717,18.981075,18.98285,18.98041,18.972008,18.958714,18.939024,18.913914,18.882893,18.856323,18.838974,18.821564,18.806152,18.788925,18.775314,18.765957,18.761044,18.75965,18.759771,18.76109,18.756794,18.743532,18.729237,18.716091,18.691465,18.649143,18.605045,18.543423,18.457802,18.344357,18.217567,18.088886,17.97443,17.9041,17.879723,17.888103,17.928759,17.993158,18.065922,18.136374,18.20494,18.275291,18.357204,18.458662,18.578302,18.706774,18.833641,18.95092,19.051216,19.145947,19.260855,19.413315,19.608528,19.820448,19.993572,20.080997,20.107494,20.14127,20.080296,20.37498,21.300823,23.276825,26.701546,29.106422,29.815891,29.941473,30.104202,30.31363,30.409607,30.410328,30.422058,30.43621,30.460901,30.481945,30.506737,30.552525,30.623423,30.720165,30.840366,30.972256,31.06601,31.106468,31.104881,31.079058,31.056648,31.065296,31.110384,31.165855,31.20768,31.226448,31.235302,31.268675,31.37137,31.573734,31.896252,32.312855,32.77861,33.233467,33.601692,33.828262,33.96739,34.04445,34.104904,34.180515,34.27715,34.38584,34.492767,34.59691,34.69628,34.79123,34.885643,34.98465,35.08852,35.191166,35.313667,35.48461,35.713085,35.998505,36.32247,36.654335,36.96796,37.260033,37.5559,37.896225,38.330837,38.75486,39.09411,39.441025,39.762146,40.076508,40.391617,40.706703,41.020355,41.32613,41.61675,41.896477,42.204933,42.53367,42.899643,43.336308,43.83725,44.35554,44.852764,45.283833,45.607834,45.823166,45.952103,46.070606,46.27256,46.58202,46.9437,47.384163,47.78044,47.97435,47.838707,47.382084,46.7602,46.137337,44.99491,44.57393,45.082985,46.04206,46.819016,47.136284,47.30005,47.35446,47.486748,47.795,48.398003,49.333656,50.439735,51.434845,52.284874,52.927994,53.316216,53.519333,53.62117,53.64855,53.602715,53.489037,53.335407,53.19864,53.228745,53.564796,54.24704,55.192734,56.23166,57.129017,57.707153,57.97836,58.016342,57.837505,57.466393,57.050827,56.81379,56.99894,57.832474,59.003,60.03786,60.79004,61.34897,61.678093,61.73834,61.653053,61.57074,61.59179,61.774483,62.137375,62.63166,63.05435,63.37793,63.633804,63.802673,63.692272,63.064224,61.958862,60.41282,58.48433,56.554222,54.869843,53.507187,52.46296,51.525387,50.501526,49.798637,49.08165,46.596863,41.79112,36.147568,30.90168,28.251465,27.041744,26.631805,26.575687,26.718075,27.005644,27.369278,27.823448,28.649616,30.157675,33.00385,37.42495,42.855278,47.981335,50.570995,51.88353,52.0258,52.013866,51.981293
22.064476,22.6771,22.939175,23.1913,23.374397,23.223598,22.283878,20.926912,19.587538,18.616678,18.24339,18.081085,18.043453,18.036083,18.06859,18.121513,18.151264,18.149956,18.145212,18.159958,18.20237,18.27014,18.34402,18.403522,18.443108,18.470417,18.490677,18.514687,18.539915,18.569328,18.59663,18.612064,18.617022,18.613794,18.612362,18.61957,18.638092,18.668324,18.705475,18.739862,18.765625,18.786388,18.80155,18.816444,18.83512,18.856464,18.876743,18.893873,18.908894,18.917877,18.922451,18.924492,18.925821,18.92807,18.93128,18.934715,18.93774,18.941782,18.945692,18.94759,18.945854,18.939083,18.928177,18.911604,18.889809,18.861416,18.836613,18.820393,18.803577,18.788649,18.772226,18.75956,18.751358,18.74765,18.747147,18.747692,18.749119,18.74448,18.732056,18.712597,18.697842,18.679487,18.64169,18.59673,18.53359,18.445683,18.330467,18.203999,18.077154,17.964203,17.894331,17.868847,17.874802,17.91238,17.97427,18.046255,18.117779,18.18842,18.261349,18.346199,18.450876,18.574028,18.705952,18.835573,18.954199,19.053802,19.146019,19.256516,19.404701,19.598627,19.813648,19.992966,20.086548,20.11517,20.16135,20.097668,20.370464,21.259888,23.181864,26.560467,29.092129,29.82339,29.942917,30.09895,30.301346,30.407333,30.443298,30.442429,30.44428,30.463211,30.489109,30.520412,30.567673,30.639153,30.736835,30.858433,30.990898,31.092522,31.141413,31.14501,31.125097,31.104095,31.109879,31.1487,31.19766,31.232578,31.248272,31.26029,31.295258,31.39513,31.58857,31.897015,32.30176,32.761505,33.219017,33.602257,33.847736,34.005447,34.09579,34.152126,34.21415,34.296326,34.388042,34.487724,34.587414,34.684002,34.780067,34.87872,34.982727,35.09012,35.19262,35.318058,35.491913,35.72249,36.008087,36.331635,36.66806,36.99436,37.292107,37.578484,37.91252,38.340042,38.747463,39.06981,39.414764,39.734394,40.04773,40.36238,40.6784,40.99475,41.305443,41.60524,41.90097,42.21408,42.548996,42.93931,43.411224,43.94585,44.492283,45.002808,45.4172,45.694225,45.833397,45.870987,45.901375,46.037567,46.320618,46.695694,47.16849,47.60878,47.842587,47.718723,47.242336,46.5935,45.944458,44.737698,44.280273,44.799004,45.815807,46.667675,47.031387,47.22513,47.291153,47.413788,47.699852,48.2856,49.204983,50.28559,51.266747,52.092934,52.732975,53.138565,53.37496,53.5213,53.59738,53.59457,53.50952,53.367756,53.22551,53.253372,53.592827,54.27803,55.218395,56.167168,57.06644,57.634212,57.887325,57.905487,57.705467,57.32936,56.91889,56.709427,56.9446,57.81379,58.931126,59.88613,60.643208,61.200516,61.544724,61.63391,61.575882,61.51377,61.54756,61.73474,62.09716,62.59663,62.96236,63.26017,63.512352,63.667877,63.58781,63.084473,62.01042,60.4614,58.368675,56.43612,54.89332,53.56553,52.436584,51.390114,50.35367,49.56254,47.139343,42.009453,34.9323,28.627941,26.625435,25.543718,25.16909,25.118462,25.168087,25.282982,25.449003,25.589504,25.652882,25.782124,25.998661,26.432098,27.603027,30.497879,35.89428,43.623116,50.084248,52.023,51.91784,51.810455
22.12299,22.63787,22.92228,23.201801,23.317883,22.894268,21.622894,20.123407,18.970776,18.318314,18.090435,18.013805,17.982365,17.991932,18.032482,18.079407,18.105991,18.108402,18.11044,18.132793,18.181034,18.250315,18.32241,18.378979,18.41551,18.440317,18.459396,18.482853,18.508087,18.537975,18.566061,18.582462,18.588587,18.586676,18.586128,18.5933,18.610252,18.636808,18.668772,18.698269,18.720516,18.739082,18.754173,18.770296,18.789963,18.811344,18.830885,18.846584,18.860392,18.86893,18.873947,18.87727,18.880276,18.884003,18.88831,18.892529,18.895853,18.8996,18.902824,18.904074,18.902283,18.896503,18.887556,18.873878,18.855299,18.829697,18.807121,18.79269,18.777225,18.763554,18.748676,18.737617,18.7312,18.729347,18.730467,18.732243,18.734634,18.730667,18.719425,18.699677,18.681927,18.666487,18.639008,18.592342,18.527649,18.437487,18.320305,18.192133,18.066837,17.958145,17.887981,17.860931,17.86398,17.89819,17.95759,18.02913,18.10228,18.175568,18.251453,18.339445,18.44729,18.57368,18.708794,18.841106,18.961304,19.060825,19.151375,19.257994,19.402197,19.59452,19.81152,19.995785,20.095348,20.126719,20.18675,20.122988,20.37742,21.235268,23.108978,26.44202,29.075132,29.827282,29.942009,30.091919,30.289154,30.408117,30.481287,30.456516,30.453228,30.469452,30.503918,30.54387,30.591686,30.665955,30.764505,30.885405,31.020813,31.132568,31.19021,31.199183,31.185844,31.165586,31.167568,31.198895,31.240768,31.266218,31.275534,31.289433,31.324677,31.42186,31.603222,31.899006,32.29509,32.75049,33.21024,33.6058,33.868416,34.043617,34.14518,34.20331,34.257843,34.326042,34.401955,34.4888,34.58216,34.67585,34.772896,34.87589,34.982647,35.08915,35.194717,35.322083,35.496536,35.72829,36.018047,36.3462,36.688225,37.027397,37.32807,37.618736,37.94448,38.341476,38.725048,39.04725,39.38887,39.70709,40.019005,40.336647,40.659832,40.984795,41.300385,41.598022,41.889423,42.202286,42.555416,42.974846,43.480408,44.049866,44.62034,45.125526,45.518658,45.73823,45.802864,45.759323,45.71437,45.797688,46.05803,46.450874,46.9646,47.4533,47.72124,47.59919,47.096092,46.415882,45.744385,44.51909,44.049706,44.57708,45.62711,46.528496,46.942654,47.16546,47.249283,47.365166,47.633667,48.194344,49.080296,50.125572,51.074295,51.86941,52.50184,52.92517,53.19909,53.397614,53.531044,53.574226,53.522835,53.39028,53.2427,53.259186,53.596764,54.281586,55.191917,56.103313,57.007225,57.54963,57.777794,57.77706,57.555084,57.172295,56.76309,56.573586,56.854744,57.749752,58.81835,59.708473,60.46912,61.026566,61.38756,61.507797,61.479744,61.438404,61.484077,61.67639,62.03961,62.55061,62.857334,63.122116,63.38513,63.52935,63.449875,63.045593,61.8517,60.347878,58.347313,56.49756,54.995777,53.652206,52.437786,51.195183,50.76953,49.10005,43.079185,34.23311,27.586788,25.39082,24.503029,24.113773,24.113594,24.113625,24.109924,24.21347,24.352291,24.412926,24.39188,24.397665,24.368141,24.173862,24.165062,24.918762,26.726223,29.89531,37.639526,49.222054,53.112823,51.39761
22.18889,22.59887,22.903976,23.189882,23.241924,22.434763,20.845404,19.39088,18.50403,18.061573,17.954113,17.953152,17.92784,17.948036,17.991344,18.031363,18.05578,18.063637,18.073502,18.102764,18.15482,18.22252,18.289375,18.34013,18.371748,18.39287,18.410013,18.431969,18.456081,18.485334,18.513573,18.531134,18.539291,18.540077,18.541897,18.55019,18.566359,18.589775,18.617203,18.642883,18.66279,18.680258,18.695957,18.713501,18.73399,18.755121,18.77385,18.78834,18.8013,18.809937,18.815926,18.82087,18.825684,18.830872,18.83613,18.84093,18.844252,18.847172,18.849083,18.849129,18.84687,18.84182,18.834795,18.824055,18.80878,18.786154,18.766102,18.753853,18.740213,18.728327,18.715485,18.706495,18.702374,18.702944,18.706331,18.710138,18.714352,18.71202,18.702911,18.686462,18.66655,18.649097,18.629332,18.589106,18.521593,18.42838,18.30883,18.179226,18.055857,17.951298,17.88094,17.852291,17.85234,17.883282,17.940613,18.012445,18.088139,18.164917,18.244297,18.335747,18.446789,18.576256,18.714481,18.849678,18.971874,19.071957,19.16159,19.26441,19.40456,19.594236,19.81379,20.005783,20.1086,20.142937,20.207893,20.15305,20.395481,21.21862,23.03775,26.303223,29.048592,29.82524,29.935387,30.079662,30.275238,30.399117,30.48508,30.470516,30.4641,30.478529,30.514225,30.565928,30.62701,30.69838,30.796398,30.919361,31.063139,31.188992,31.260569,31.276339,31.262985,31.243788,31.240818,31.263004,31.295475,31.311869,31.313812,31.324453,31.359066,31.45053,31.618988,31.899958,32.2903,32.74467,33.204735,33.612103,33.891697,34.084846,34.198536,34.25995,34.305473,34.356926,34.41883,34.493896,34.583023,34.675724,34.771645,34.874733,34.98147,35.086014,35.193672,35.321877,35.49734,35.731773,36.026917,36.368423,36.730415,37.082253,37.388725,37.682503,38.00721,38.355713,38.696922,39.02793,39.365334,39.68217,40.004303,40.33922,40.6521,40.95336,41.261402,41.5639,41.868073,42.199043,42.56942,43.014435,43.555115,44.15578,44.739433,45.23809,45.598976,45.747902,45.719925,45.59164,45.48168,45.52221,45.775406,46.188786,46.755493,47.233437,47.508663,47.42724,46.929173,46.220985,45.52822,44.35349,43.90261,44.424347,45.4737,46.404633,46.880394,47.127617,47.22702,47.35569,47.61236,48.136665,48.981518,49.97984,50.849186,51.60936,52.22872,52.66783,52.987007,53.23117,53.387375,53.453873,53.452995,53.390556,53.248512,53.24224,53.577095,54.252003,55.111477,56.01744,56.897087,57.423195,57.637257,57.6125,57.36338,56.967663,56.55979,56.384827,56.72357,57.630417,58.648727,59.495544,60.257545,60.81467,61.192673,61.34504,61.349495,61.33013,61.388245,61.589714,61.956413,62.433746,62.721333,62.991142,63.26962,63.426918,63.300365,62.76394,61.653152,60.185455,58.375175,56.656452,55.18467,53.810646,52.50703,51.45147,50.948044,45.5549,35.4158,27.23211,24.360313,23.57256,23.182785,23.293396,23.379738,23.379402,23.39162,23.451136,23.500511,23.51757,23.453556,23.3564,23.281725,23.013794,22.650822,22.549854,22.925922,24.058365,27.4408,38.327393,48.994125,52.288925
22.224405,22.578339,22.92153,23.141525,23.041672,21.839584,20.099903,18.80476,18.16201,17.878296,17.854258,17.87849,17.873863,17.902657,17.941898,17.97395,17.996485,18.009998,18.026978,18.06068,18.11296,18.17493,18.232576,18.274368,18.298824,18.314354,18.327675,18.345665,18.365973,18.392189,18.419395,18.438808,18.45126,18.458317,18.466942,18.480797,18.500143,18.523733,18.549358,18.573555,18.59303,18.610992,18.628347,18.647827,18.669434,18.690783,18.709484,18.723858,18.737114,18.7469,18.754623,18.76149,18.768038,18.77443,18.780203,18.785118,18.787909,18.789532,18.789871,18.788765,18.786327,18.782398,18.77766,18.770046,18.75807,18.738207,18.72025,18.709625,18.697283,18.68665,18.675316,18.667904,18.665693,18.668541,18.674393,18.680716,18.687447,18.68762,18.681698,18.669594,18.652014,18.632664,18.61126,18.576532,18.50969,18.413052,18.290413,18.159863,18.038906,17.938513,17.868942,17.839607,17.837587,17.866287,17.92274,17.996061,18.075306,18.156368,18.239594,18.3345,18.448418,18.580536,18.721714,18.860096,18.984999,19.086647,19.17643,19.276152,19.41187,19.599552,19.822495,20.021622,20.12915,20.161732,20.225512,20.182903,20.417019,21.205006,22.96648,26.15363,29.005562,29.81424,29.921959,30.060831,30.257553,30.38361,30.472565,30.483353,30.473637,30.485985,30.523157,30.579561,30.650524,30.73285,30.83233,30.95811,31.098919,31.227365,31.3171,31.35481,31.349216,31.328253,31.3199,31.332241,31.354073,31.362629,31.35724,31.361101,31.394968,31.475468,31.633545,31.901176,32.2845,32.738865,33.202324,33.620285,33.91579,34.126877,34.252304,34.31684,34.353336,34.38833,34.43739,34.501358,34.58327,34.675674,34.773926,34.875034,34.97711,35.08097,35.19052,35.319347,35.496155,35.73411,36.035862,36.394516,36.78215,37.14876,37.46578,37.763863,38.094093,38.394684,38.683113,39.014725,39.353973,39.679596,40.0147,40.325302,40.617767,40.91838,41.232594,41.546326,41.862,42.203625,42.58997,43.05958,43.63346,44.25817,44.839912,45.322784,45.63491,45.699814,45.57428,45.36258,45.200294,45.22184,45.48305,45.92054,46.534977,46.986603,47.243614,47.201237,46.736397,46.01467,45.328857,44.28945,43.887936,44.390984,45.397163,46.298492,46.80078,47.085304,47.226795,47.38169,47.642796,48.138973,48.912445,49.81602,50.62057,51.33574,51.930435,52.378998,52.737297,53.017883,53.19341,53.292015,53.329407,53.30725,53.20511,53.19522,53.506733,54.164726,54.979446,55.88085,56.733925,57.245125,57.44513,57.394676,57.11374,56.697063,56.29904,56.1344,56.552345,57.458313,58.430954,59.26864,60.02818,60.58168,60.972008,61.152138,61.186806,61.188614,61.260185,61.47575,61.85308,62.285854,62.579353,62.89659,63.21564,63.340885,63.08647,62.422028,61.4543,60.08406,58.53587,56.98197,55.54661,54.05146,52.56694,52.36088,49.799393,38.84525,28.416672,23.904682,23.072176,22.730213,22.883778,22.935734,22.912594,22.893456,22.895813,22.907688,22.924831,22.926708,22.894547,22.847641,22.788757,22.702454,22.48449,22.136463,21.940466,22.261066,23.12632,28.417503,42.61805,52.078648
22.211437,22.564861,22.942295,23.052786,22.75861,21.153381,19.461039,18.38083,17.905962,17.76473,17.790462,17.804228,17.82022,17.852995,17.884117,17.908329,17.929495,17.948132,17.97054,18.005638,18.054386,18.106884,18.152136,18.18251,18.197865,18.205936,18.21335,18.224724,18.238384,18.259068,18.28389,18.305454,18.323898,18.340115,18.359394,18.382874,18.409237,18.43638,18.462978,18.487854,18.508478,18.528181,18.547924,18.569664,18.592737,18.614992,18.634706,18.65027,18.665037,18.676968,18.687065,18.696045,18.704197,18.711567,18.717577,18.722324,18.724382,18.724758,18.723911,18.722332,18.720528,18.718418,18.716389,18.711971,18.703077,18.685562,18.669106,18.659426,18.647802,18.637894,18.627552,18.621243,18.62047,18.625267,18.633507,18.642487,18.65205,18.65522,18.653118,18.645473,18.632679,18.613564,18.586666,18.551037,18.487835,18.388355,18.262737,18.131985,18.013935,17.917944,17.85068,17.822018,17.819473,17.847607,17.90484,17.981007,18.064684,18.150482,18.23753,18.33549,18.451616,18.58561,18.729189,18.870657,18.998596,19.102581,19.193321,19.291424,19.42188,19.608295,19.8339,20.034584,20.148773,20.184998,20.247456,20.21944,20.442665,21.19049,22.89332,25.995775,28.945602,29.79522,29.90289,30.036255,30.23648,30.365389,30.455442,30.492708,30.480137,30.490303,30.530262,30.588497,30.662289,30.753033,30.854843,30.978184,31.113823,31.242731,31.345139,31.40443,31.41893,31.40873,31.395542,31.399282,31.41191,31.414387,31.40295,31.39871,31.428123,31.498909,31.648561,31.903852,32.27837,32.73352,33.20381,33.629913,33.940582,34.165115,34.3032,34.368515,34.395718,34.41945,34.456993,34.511112,34.584984,34.67515,34.775314,34.87669,34.97577,35.077717,35.18933,35.318794,35.497013,35.738808,36.047256,36.42389,36.839447,37.22313,37.555145,37.871017,38.165443,38.42327,38.694283,39.020683,39.36313,39.70278,40.012688,40.292377,40.58344,40.9013,41.228157,41.55192,41.87593,42.221123,42.623642,43.11916,43.720062,44.35742,44.924957,45.371223,45.61179,45.576843,45.351154,45.059708,44.861153,44.888042,45.15535,45.61075,46.234264,46.64083,46.866554,46.87974,46.49567,45.76918,45.102505,44.176414,43.83497,44.36856,45.33032,46.14778,46.670605,46.99607,47.178307,47.354736,47.62259,48.087204,48.781334,49.596172,50.345577,51.007427,51.571854,52.0308,52.43482,52.76673,52.98334,53.128345,53.198895,53.20308,53.153988,53.162773,53.44592,54.063904,54.83027,55.707047,56.530136,57.0186,57.197327,57.120506,56.80861,56.362274,55.946777,55.83185,56.358814,57.263344,58.19828,59.047173,59.801514,60.34663,60.74205,60.942204,61.002525,61.02523,61.113552,61.34988,61.747936,62.1511,62.436203,62.778503,63.094383,63.173172,62.856506,62.14802,61.320595,60.092525,58.77952,57.44847,56.10845,54.76684,53.62686,53.28099,46.172745,32.39852,24.509184,23.034365,22.559525,22.601652,22.793755,22.700872,22.63189,22.592619,22.5593,22.544903,22.556652,22.555542,22.561829,22.56858,22.564522,22.607132,22.590816,22.390594,22.121704,21.944347,22.381012,23.825333,36.20118,48.541924
22.16255,22.53775,22.928402,22.922281,22.380257,20.455025,18.902355,18.051394,17.706474,17.675766,17.733398,17.739265,17.765179,17.796333,17.819355,17.837654,17.858616,17.881813,17.907898,17.94188,17.984411,18.025265,18.05657,18.0743,18.079357,18.078693,18.07859,18.081493,18.0866,18.100033,18.121258,18.144337,18.16857,18.194275,18.22509,18.259438,18.294405,18.326897,18.356169,18.38307,18.405762,18.427921,18.450493,18.474804,18.499876,18.523918,18.545706,18.563618,18.580845,18.595577,18.60842,18.619625,18.629375,18.637823,18.644299,18.649197,18.651104,18.651167,18.65038,18.64968,18.649685,18.650143,18.651085,18.649645,18.643353,18.62767,18.61227,18.603264,18.59234,18.583258,18.574036,18.568937,18.569532,18.576057,18.586418,18.5978,18.60999,18.615973,18.61736,18.613775,18.604904,18.587431,18.557735,18.51619,18.454098,18.354227,18.227386,18.096952,17.983032,17.892778,17.827589,17.801044,17.79975,17.82925,17.889051,17.969292,18.057938,18.148504,18.238997,18.339294,18.456718,18.591488,18.73637,18.880264,19.011145,19.117285,19.209146,19.306328,19.432674,19.618149,19.842865,20.038788,20.15945,20.211847,20.273903,20.26149,20.470875,21.173466,22.81827,25.83707,28.879114,29.776684,29.883898,30.010546,30.21471,30.345646,30.436249,30.486174,30.481747,30.493134,30.53505,30.597355,30.672195,30.760357,30.862232,30.980103,31.115877,31.249664,31.35794,31.427567,31.461428,31.47175,31.460901,31.461231,31.469221,31.46883,31.455269,31.444832,31.46191,31.527437,31.668264,31.913681,32.278915,32.73129,33.20739,33.641136,33.959114,34.186142,34.3414,34.411713,34.431984,34.449738,34.47827,34.52475,34.59285,34.679737,34.779617,34.88389,34.98517,35.08516,35.194855,35.32479,35.50386,35.748375,36.065834,36.461548,36.90205,37.305374,37.650475,37.96319,38.198948,38.433968,38.71933,39.041786,39.38305,39.71434,39.984627,40.26342,40.571865,40.901917,41.23645,41.566994,41.89856,42.25198,42.674118,43.199722,43.821762,44.459984,45.005314,45.39064,45.536125,45.38496,45.05246,44.69597,44.44462,44.42122,44.714912,45.222115,45.84393,46.191326,46.38117,46.456573,46.17369,45.455902,44.74081,43.893288,43.618996,44.204803,45.140846,45.889305,46.438858,46.794533,46.999966,47.1876,47.451122,47.872833,48.495003,49.243507,49.9263,50.53373,51.076817,51.563667,52.046158,52.474327,52.769836,52.97797,53.09764,53.148617,53.144333,53.187775,53.454697,54.00466,54.715477,55.54541,56.315697,56.763054,56.909065,56.80272,56.465385,55.992935,55.53412,55.511566,56.17085,57.0784,57.97872,58.842472,59.58908,60.119766,60.512703,60.723335,60.803204,60.847965,60.958847,61.225594,61.65766,61.99517,62.238983,62.580162,62.869904,62.936707,62.65791,61.961376,61.22277,60.180317,59.043922,57.97204,56.83113,55.915512,55.36644,53.294704,40.28163,28.152828,23.230822,22.691929,22.524818,22.689392,22.534557,22.491886,22.449509,22.384552,22.333778,22.31379,22.303326,22.300745,22.31409,22.311527,22.35445,22.408628,22.4817,22.565987,22.526888,22.207779,22.286232,22.914742,31.223759,43.38007
22.103,22.499344,22.888893,22.748018,21.82346,19.818548,18.404755,17.754932,17.550842,17.579166,17.65584,17.673393,17.705715,17.73322,17.75015,17.765457,17.78769,17.815075,17.843594,17.875034,17.910295,17.939278,17.956959,17.962261,17.956886,17.947172,17.938816,17.932571,17.9284,17.93382,17.950428,17.973492,18.001484,18.03447,18.074654,18.11818,18.160866,18.198689,18.231102,18.26043,18.285463,18.31026,18.335821,18.36293,18.390518,18.417114,18.4417,18.462608,18.482714,18.500353,18.51587,18.529167,18.540491,18.550259,18.557707,18.563435,18.566244,18.567453,18.56843,18.570238,18.573257,18.576925,18.580927,18.5821,18.57789,18.56364,18.54915,18.540977,18.531189,18.523472,18.51592,18.512486,18.514584,18.522633,18.534653,18.547785,18.56195,18.569977,18.573742,18.572948,18.566559,18.55092,18.52094,18.474083,18.408157,18.311111,18.185934,18.056858,17.948723,17.865921,17.802448,17.77951,17.781303,17.814018,17.87791,17.963043,18.056713,18.151691,18.245014,18.346836,18.464546,18.59922,18.74474,18.890575,19.02397,19.131405,19.223614,19.319084,19.443687,19.627577,19.847343,20.0372,20.163368,20.234747,20.296005,20.298021,20.4945,21.152382,22.739098,25.679287,28.812994,29.76809,29.87262,29.98968,30.196583,30.326078,30.415537,30.460201,30.47866,30.495834,30.538765,30.605495,30.682926,30.77065,30.870136,30.986094,31.120941,31.25697,31.371193,31.447964,31.489225,31.510857,31.513662,31.51751,31.526773,31.528412,31.51756,31.504234,31.50467,31.564022,31.69503,31.934967,32.290894,32.733425,33.21104,33.653267,33.96347,34.185112,34.356773,34.44321,34.466248,34.479446,34.502453,34.5439,34.60822,34.69373,34.794777,34.901814,35.007027,35.108856,35.211506,35.339577,35.51799,35.76284,36.092922,36.508995,36.9647,37.37971,37.72146,37.987305,38.2106,38.45435,38.740665,39.05941,39.394756,39.686256,39.956764,40.247612,40.56668,40.903664,41.244987,41.58403,41.92231,42.29176,42.74057,43.30008,43.941338,44.573566,45.084846,45.386276,45.414864,45.132164,44.695423,44.24559,43.86106,43.722084,44.067036,44.661278,45.338833,45.70788,45.895462,45.978912,45.724068,45.001904,44.171112,43.448803,43.24974,43.809513,44.724133,45.490665,46.034264,46.40248,46.62764,46.822502,47.072598,47.450176,47.993523,48.64787,49.258835,49.817043,50.357025,50.89894,51.496323,52.07937,52.520145,52.816525,53.012215,53.124557,53.16591,53.255447,53.518326,53.999702,54.660896,55.432865,56.103752,56.49225,56.599392,56.46026,56.099335,55.60543,55.143646,55.21776,56.004875,56.9143,57.780308,58.655952,59.389427,59.89865,60.27643,60.49131,60.58622,60.655037,60.797874,61.098198,61.54473,61.76145,61.975365,62.340813,62.656372,62.736538,62.482346,61.832443,61.10821,60.26272,59.294907,58.440453,57.559723,56.996635,56.35727,51.57856,34.175938,25.263927,22.991482,22.662292,22.646694,22.521833,22.449154,22.397837,22.30125,22.216074,22.171959,22.14563,22.11898,22.115385,22.136877,22.162064,22.185837,22.235538,22.34914,22.490726,22.564144,22.582428,22.608952,22.813576,28.380276,39.733536
22.047634,22.475374,22.84956,22.53289,21.13438,19.274054,18.030037,17.519184,17.433163,17.500065,17.564524,17.60922,17.645248,17.667992,17.68076,17.695566,17.720467,17.752087,17.78265,17.8115,17.840044,17.858551,17.864418,17.85884,17.844086,17.82616,17.810026,17.795172,17.782074,17.779434,17.790525,17.811466,17.840189,17.876549,17.921814,17.970612,18.017954,18.05915,18.09362,18.12453,18.151163,18.177834,18.205662,18.234943,18.264576,18.293365,18.32038,18.343796,18.366158,18.38594,18.403355,18.418087,18.430574,18.441553,18.450188,18.457125,18.46157,18.464973,18.468866,18.474188,18.480927,18.488102,18.495113,18.498734,18.496494,18.483795,18.470625,18.463894,18.455904,18.450253,18.444956,18.443619,18.447315,18.45663,18.469803,18.48399,18.499378,18.508652,18.513746,18.514544,18.50967,18.49525,18.466288,18.419928,18.351027,18.257662,18.136765,18.012417,17.910412,17.834417,17.778227,17.760403,17.766943,17.804266,17.873108,17.963337,18.061657,18.160408,18.2559,18.358597,18.475613,18.610325,18.757896,18.906372,19.04126,19.149647,19.240307,19.333447,19.454296,19.633198,19.84786,20.036108,20.168865,20.245327,20.310566,20.328869,20.511185,21.123936,22.646503,25.49649,28.735306,29.769913,29.872671,29.976097,30.186779,30.312498,30.395882,30.442207,30.476574,30.49725,30.541569,30.612864,30.693237,30.781094,30.878998,30.992624,31.125738,31.262558,31.380795,31.464043,31.51252,31.540703,31.558582,31.568033,31.582901,31.59129,31.58358,31.567244,31.55925,31.606094,31.727535,31.961056,32.307594,32.740913,33.218018,33.663994,33.958885,34.185608,34.352676,34.45807,34.500786,34.509888,34.530376,34.569023,34.631233,34.716385,34.81921,34.92936,35.037926,35.141975,35.24356,35.36234,35.53768,35.781456,36.12092,36.556614,37.01971,37.40966,37.71402,37.975384,38.221794,38.47663,38.757317,39.070892,39.394485,39.66046,39.93258,40.232857,40.558956,40.900913,41.24974,41.6,41.95118,42.342064,42.82696,43.417145,44.077824,44.704224,45.157135,45.345253,45.230774,44.79798,44.289734,43.57449,42.928284,42.835976,43.152725,43.715546,44.519165,45.157166,45.472504,45.48085,45.09189,44.242504,43.42272,42.831833,42.680614,43.136436,44.046295,44.922546,45.411858,45.762985,45.99244,46.18637,46.416733,46.749325,47.20019,47.72692,48.267136,48.78366,49.334816,49.951347,50.670677,51.46704,52.168232,52.56984,52.875366,53.072983,53.175934,53.308197,53.58252,54.03469,54.6432,55.361176,55.858364,56.1908,56.272736,56.103836,55.709396,55.160446,54.79498,54.974144,55.849922,56.75869,57.601204,58.476974,59.188507,59.670654,60.007652,60.232025,60.34628,60.441906,60.632282,60.947136,61.2996,61.488796,61.77237,62.160194,62.47441,62.56065,62.32716,61.74624,61.064762,60.236637,59.44198,58.722916,58.02529,57.902725,56.781612,47.287136,30.388802,23.860126,22.907578,22.65981,22.558783,22.40109,22.359735,22.2612,22.175587,22.125439,22.083206,22.030487,21.989586,21.985785,22.01506,22.052513,22.097233,22.136496,22.197365,22.330008,22.523964,22.656406,22.7738,22.983698,26.690071,36.640984
21.988594,22.444983,22.765818,22.239128,20.364498,18.688744,17.680603,17.328053,17.337627,17.42949,17.48011,17.543262,17.579437,17.596739,17.606882,17.62363,17.65321,17.690254,17.723598,17.750702,17.773766,17.783443,17.779175,17.764065,17.740898,17.715528,17.692223,17.669529,17.64797,17.636936,17.6408,17.656273,17.681097,17.715254,17.75922,17.807041,17.853613,17.894028,17.927597,17.957779,17.984089,18.010822,18.03919,18.06902,18.099144,18.128555,18.156322,18.180588,18.203476,18.223679,18.241455,18.256432,18.269287,18.281128,18.290977,18.299362,18.306023,18.31245,18.320185,18.329762,18.340607,18.35147,18.361523,18.367748,18.368021,18.35791,18.34751,18.34388,18.33939,18.337307,18.33559,18.337402,18.34327,18.35386,18.367739,18.382294,18.398129,18.407795,18.41306,18.414236,18.410328,18.39798,18.372581,18.330734,18.265083,18.181307,18.070974,17.957153,17.865807,17.800142,17.754238,17.744583,17.758297,17.802069,17.877094,17.972971,18.075924,18.17815,18.275398,18.377792,18.495665,18.631107,18.778725,18.927315,19.062447,19.170456,19.259272,19.34927,19.465672,19.636652,19.844864,20.035336,20.174618,20.252367,20.321377,20.354446,20.516254,21.079771,22.523922,25.240921,28.62593,29.766203,29.88085,29.972172,30.183746,30.304518,30.37946,30.426788,30.475348,30.498573,30.54448,30.621124,30.705235,30.793793,30.890512,31.001934,31.132824,31.26945,31.390457,31.479218,31.534782,31.570562,31.603453,31.623846,31.645859,31.663244,31.660189,31.63874,31.626558,31.664474,31.774147,31.995083,32.32961,32.755337,33.229126,33.668484,33.947845,34.17752,34.347546,34.472015,34.536003,34.55019,34.569412,34.60647,34.667053,34.751984,34.8565,34.96959,35.08125,35.187424,35.288673,35.40075,35.56646,35.810867,36.16272,36.5971,37.03834,37.41815,37.68631,37.94033,38.203873,38.483437,38.775146,39.072998,39.364887,39.62696,39.91014,40.215282,40.543823,40.89015,41.24754,41.614197,41.986206,42.409668,42.946747,43.59307,44.247116,44.810783,45.190422,45.235107,44.92642,44.40953,43.33161,42.281174,41.770992,41.70287,41.93658,42.365402,43.03745,43.70028,44.125694,44.15281,43.742508,43.049137,42.395332,41.977875,41.876713,42.17118,42.84591,43.689247,44.394234,44.827183,45.05101,45.23151,45.43907,45.72468,46.098286,46.51841,46.93554,47.396675,47.95453,48.605392,49.392456,50.35707,51.371403,52.14357,52.581516,52.910805,53.12736,53.33623,53.64026,54.05056,54.526627,55.08792,55.47845,55.81806,55.88658,55.694893,55.29408,54.71145,54.470688,54.752678,55.66635,56.57302,57.403976,58.26423,58.933212,59.317528,59.63059,59.872208,60.027985,60.171146,60.42853,60.775604,61.00879,61.214012,61.557972,61.974926,62.294846,62.379566,62.188507,61.746563,61.09146,60.34707,59.686073,58.996635,58.553326,58.694313,56.488876,43.518566,28.264286,23.290602,22.99128,22.703987,22.41316,22.33508,22.231934,22.146408,22.102749,22.053215,21.9733,21.894268,21.857296,21.861908,21.891356,21.92865,21.977512,22.014084,22.053616,22.150911,22.33189,22.569286,22.788166,23.218235,25.33303,33.665382
21.909645,22.369957,22.602745,21.853613,19.604744,18.155788,17.392197,17.18917,17.254488,17.338291,17.405115,17.477026,17.50948,17.520267,17.528666,17.548904,17.584301,17.627327,17.66392,17.690254,17.709412,17.712528,17.70061,17.678207,17.648571,17.617485,17.588493,17.559635,17.530949,17.512026,17.507862,17.515564,17.53297,17.560421,17.59788,17.639622,17.68095,17.717148,17.747396,17.77494,17.799255,17.824417,17.851597,17.880276,17.909163,17.93734,17.963903,17.986977,18.00838,18.027012,18.043343,18.057064,18.069138,18.080975,18.09146,18.100817,18.109455,18.118864,18.130402,18.144012,18.158535,18.172585,18.185207,18.193851,18.19683,18.189938,18.183262,18.18374,18.183582,18.18575,18.187937,18.192947,18.200613,18.211613,18.224958,18.238508,18.253405,18.262182,18.266182,18.266367,18.262753,18.253235,18.233929,18.200844,18.145847,18.076588,17.983263,17.88696,17.811737,17.762054,17.733707,17.731443,17.755032,17.807384,17.889456,17.990997,18.098003,18.202831,18.300547,18.404335,18.523024,18.65829,18.802477,18.94551,19.077835,19.186417,19.277267,19.36333,19.474243,19.636524,19.837622,20.03106,20.177166,20.25499,20.322735,20.366234,20.504032,21.01851,22.370838,24.908314,28.468447,29.738441,29.927696,30.007242,30.184591,30.30363,30.36731,30.415565,30.471752,30.500217,30.550537,30.632511,30.720875,30.810616,30.906454,31.015621,31.143703,31.278942,31.401154,31.493935,31.556042,31.60001,31.64103,31.682774,31.721603,31.744717,31.741573,31.718521,31.701399,31.729677,31.826458,32.033905,32.356846,32.777267,33.242203,33.6575,33.935356,34.170586,34.34635,34.474796,34.562023,34.60412,34.618835,34.656265,34.716366,34.8014,34.90793,35.025166,35.141407,35.25019,35.350952,35.45807,35.616394,35.86109,36.205627,36.618034,37.032234,37.38582,37.6455,37.901947,38.174316,38.461166,38.75364,39.043842,39.324497,39.595432,39.883022,40.188667,40.518463,40.86921,41.237488,41.626442,42.030792,42.50039,43.11544,43.766006,44.348408,44.851112,45.163742,44.976303,44.40071,43.20227,41.81895,40.82759,40.329765,40.1926,40.510784,41.002144,41.50038,41.991226,42.380013,42.473473,42.197227,41.73559,41.332497,40.8722,40.56481,40.652603,41.148605,41.858032,42.532047,42.934532,43.12451,43.210377,43.27825,43.40394,43.601845,43.839325,44.10921,44.504017,45.10504,46.216385,47.625786,48.887505,49.918995,50.972157,51.81349,52.41806,52.799995,53.10903,53.43975,53.798317,54.198204,54.670853,55.041077,55.303482,55.34312,55.14279,54.717743,54.202255,54.118057,54.533356,55.451073,56.35184,57.18486,57.992413,58.56847,58.90434,59.197876,59.43946,59.62825,59.836365,60.145332,60.489655,60.6948,60.9245,61.336285,61.783062,62.105347,62.198357,62.05966,61.736565,61.135677,60.470367,59.89805,59.10826,58.9005,58.849674,54.342728,38.480103,26.577955,23.18442,22.975506,22.621708,22.348854,22.25739,22.12217,22.092209,22.05141,21.960608,21.847979,21.7671,21.740788,21.753048,21.777292,21.820126,21.867628,21.917488,21.945827,21.987373,22.150871,22.425201,22.706959,23.203352,24.287937,31.09233
21.8078,22.25304,22.351124,21.306055,19.006813,17.761688,17.193138,17.108019,17.195076,17.253996,17.34348,17.415373,17.4402,17.442888,17.448986,17.472258,17.512672,17.560686,17.600096,17.626326,17.643227,17.642529,17.626274,17.599934,17.567072,17.533243,17.501427,17.469433,17.436466,17.411892,17.400839,17.40067,17.409698,17.428581,17.457134,17.490421,17.524412,17.554825,17.5807,17.604713,17.626047,17.648441,17.672897,17.698696,17.724419,17.749203,17.77227,17.791843,17.809553,17.82447,17.837334,17.847961,17.857513,17.867615,17.877071,17.885784,17.894768,17.905487,17.91909,17.934938,17.951387,17.967102,17.981083,17.99134,17.996622,17.99289,17.989971,17.994448,17.998215,18.003942,18.009052,18.016031,18.02399,18.03368,18.044697,18.055443,18.06766,18.074043,18.075474,18.073622,18.069962,18.06411,18.053055,18.032143,17.99374,17.943016,17.87285,17.801315,17.748596,17.719984,17.713062,17.724613,17.758106,17.819252,17.908503,18.014648,18.123913,18.229744,18.328907,18.43438,18.550922,18.680134,18.817488,18.955368,19.08457,19.192463,19.284153,19.37078,19.476665,19.62922,19.825357,20.02312,20.172718,20.250317,20.309721,20.355513,20.469336,20.941381,22.195099,24.52313,28.275587,29.692314,29.998833,30.068298,30.190649,30.311813,30.361643,30.411373,30.46563,30.506437,30.56593,30.652002,30.74527,30.836206,30.930779,31.036915,31.160757,31.292648,31.413849,31.508938,31.575592,31.622555,31.668015,31.723469,31.776215,31.811848,31.819387,31.799519,31.774189,31.792446,31.877048,32.07318,32.387512,32.807377,33.263634,33.644722,33.927444,34.157516,34.334427,34.471626,34.57982,34.649605,34.680214,34.716877,34.778275,34.866356,34.974094,35.085876,35.193726,35.2986,35.398125,35.50683,35.66555,35.903973,36.22954,36.62621,37.02614,37.33512,37.596634,37.866005,38.142796,38.425896,38.71302,39.00123,39.286766,39.565773,39.852184,40.155876,40.486435,40.84234,41.224396,41.641388,42.089325,42.62973,43.274933,43.860924,44.35543,44.82237,45.05474,44.53557,43.445488,41.458557,39.644783,38.5653,38.076355,37.981277,38.333145,38.866135,39.544605,40.319496,40.808502,40.921257,40.82659,40.572105,40.25932,39.607376,39.153694,39.06508,39.31276,39.76213,40.204575,40.46969,40.60805,40.64798,40.651215,40.680134,40.750725,40.84272,40.95144,41.141754,41.596878,42.667923,44.27485,46.161064,47.940876,49.131615,50.16919,51.01461,51.668533,52.222,52.73014,53.18118,53.57778,53.9961,54.348763,54.553406,54.51191,54.232048,53.848053,53.587708,53.720367,54.321785,55.22896,56.114365,56.935753,57.655224,58.12777,58.445324,58.718857,58.95379,59.169632,59.4467,59.795433,60.12342,60.36786,60.6341,61.09497,61.59382,61.955048,62.08982,62.001053,61.712433,61.188362,60.578632,60.006123,59.26033,59.221664,58.241135,50.839466,33.355896,25.306545,23.178186,22.84187,22.502918,22.29406,22.16477,22.066708,22.05435,21.977533,21.849087,21.730658,21.667913,21.658587,21.671642,21.688593,21.72688,21.78108,21.84908,21.883167,21.893661,22.004501,22.268501,22.573929,23.02103,23.724586,29.080807
21.694477,22.095764,22.033455,20.717878,18.593775,17.514317,17.0887,17.062363,17.144024,17.1977,17.29393,17.3599,17.374832,17.368763,17.371645,17.396252,17.439491,17.49028,17.531204,17.557426,17.573265,17.571182,17.55376,17.526873,17.494171,17.460754,17.42929,17.397547,17.363808,17.336853,17.32153,17.315378,17.317387,17.328476,17.348612,17.373844,17.40089,17.425898,17.447773,17.468527,17.486862,17.506184,17.52721,17.54918,17.570631,17.590721,17.608868,17.623528,17.63628,17.64632,17.654633,17.661135,17.667076,17.674152,17.681114,17.687653,17.695148,17.705088,17.718403,17.734018,17.75001,17.765217,17.77873,17.78907,17.79537,17.79369,17.79345,17.800678,17.806957,17.81467,17.82101,17.828175,17.834667,17.84142,17.848671,17.855328,17.86365,17.8667,17.864979,17.86082,17.857214,17.855509,17.853436,17.845734,17.826416,17.794897,17.750431,17.707619,17.681414,17.676304,17.690338,17.72166,17.768076,17.837727,17.931885,18.04015,18.150055,18.25599,18.355127,18.457815,18.568777,18.690075,18.821417,18.95679,19.083958,19.18983,19.27948,19.367313,19.468872,19.613216,19.80708,20.009645,20.159908,20.237629,20.286976,20.328533,20.419376,20.854004,22.02318,24.18029,28.073666,29.636097,30.070557,30.141897,30.209126,30.323097,30.364746,30.415318,30.463528,30.518543,30.58926,30.676292,30.769936,30.861912,30.956774,31.062092,31.183979,31.313328,31.431534,31.524559,31.591085,31.63818,31.68751,31.7458,31.803673,31.848267,31.871765,31.867146,31.83762,31.84656,31.920906,32.108875,32.41963,32.837074,33.28088,33.63862,33.923706,34.134766,34.306793,34.455414,34.577442,34.667633,34.732346,34.781918,34.848385,34.934532,35.034683,35.134483,35.229965,35.326828,35.422966,35.534416,35.695274,35.92604,36.24139,36.626644,37.004593,37.285164,37.55218,37.832695,38.11158,38.39126,38.67593,38.96595,39.258152,39.537186,39.82103,40.122284,40.453712,40.816708,41.216187,41.666695,42.16791,42.774628,43.389915,43.879143,44.326813,44.767338,44.785545,43.729843,41.802116,39.2787,37.177864,36.061516,35.723427,35.759995,36.08377,36.572155,37.419426,38.516262,39.371166,39.741615,39.78281,39.6445,39.22883,38.51573,38.086464,37.887405,37.863388,38.02913,38.255447,38.393265,38.483387,38.53382,38.559917,38.57726,38.59513,38.612015,38.617626,38.600433,38.80323,39.393265,40.59619,42.642,45.04025,46.612316,47.74474,48.821194,49.707058,50.45176,51.128426,51.708225,52.147606,52.532066,52.85005,53.05209,53.024574,52.833458,52.70397,52.82199,53.23928,54.08156,54.99118,55.86647,56.638546,57.23748,57.653397,57.948334,58.20452,58.440178,58.686584,59.031635,59.42225,59.7428,60.0376,60.35872,60.89525,61.457478,61.859703,62.03097,61.96939,61.681683,61.228943,60.65407,59.973213,59.487785,59.6065,57.01485,46.563385,29.725983,24.51798,23.125027,22.732426,22.446083,22.221298,22.088213,22.04384,21.990723,21.874325,21.73722,21.638588,21.601871,21.605537,21.616226,21.6319,21.657085,21.715925,21.789017,21.832436,21.841265,21.889973,22.127785,22.415688,22.78318,23.51915,27.660599
21.58294,21.908411,21.700466,20.253803,18.309143,17.377987,17.063354,17.034367,17.086975,17.16116,17.252373,17.309498,17.315136,17.301844,17.301605,17.325909,17.369446,17.420343,17.46103,17.48682,17.502104,17.500172,17.483736,17.45861,17.42834,17.397427,17.368431,17.339317,17.30759,17.281286,17.264711,17.25544,17.25311,17.25883,17.27293,17.292372,17.314457,17.335688,17.354874,17.37344,17.389582,17.406437,17.424442,17.442944,17.460522,17.47631,17.489872,17.499966,17.5083,17.514116,17.518618,17.521759,17.52475,17.529175,17.533657,17.53785,17.543234,17.551313,17.562784,17.576258,17.589748,17.60234,17.613403,17.621845,17.627132,17.625513,17.62601,17.634079,17.641026,17.64901,17.654993,17.660912,17.664886,17.668056,17.671215,17.673689,17.678097,17.677984,17.673561,17.66761,17.664242,17.666103,17.671486,17.674732,17.671135,17.655884,17.634495,17.618446,17.617802,17.635433,17.66846,17.71712,17.77971,17.85769,17.954018,18.061968,18.171017,18.275772,18.37069,18.466484,18.57154,18.689365,18.81829,18.951351,19.076954,19.18166,19.269638,19.353807,19.450853,19.590088,19.78191,19.987507,20.13908,20.218632,20.263199,20.300493,20.371656,20.771297,21.88512,23.959045,27.894796,29.582382,30.122782,30.213097,30.245937,30.337132,30.376236,30.425205,30.47115,30.531958,30.608276,30.693775,30.783607,30.8765,30.97222,31.078289,31.200073,31.329254,31.4491,31.541277,31.602781,31.651897,31.703487,31.764265,31.82398,31.863161,31.889702,31.906876,31.889984,31.890266,31.95654,32.139122,32.451237,32.857964,33.27945,33.634426,33.914177,34.108063,34.27524,34.42256,34.549557,34.656967,34.7443,34.819252,34.892624,34.970432,35.057575,35.152443,35.250576,35.349266,35.446922,35.554695,35.712334,35.941048,36.25766,36.61802,36.950714,37.238804,37.519802,37.801727,38.079407,38.357994,38.644646,38.940144,39.23462,39.50853,39.788803,40.088078,40.422077,40.795773,41.21722,41.706345,42.26953,42.893906,43.4569,43.890285,44.340973,44.699566,44.326637,42.588394,39.68428,36.907997,35.193,34.510994,34.35302,34.454994,34.835754,35.338425,35.97251,36.8208,37.974068,38.849342,39.03748,38.94867,38.46647,37.887737,37.471104,37.205246,37.062157,37.06204,37.16215,37.243076,37.30388,37.338272,37.34629,37.32756,37.284367,37.239815,37.232876,37.207703,37.316505,37.75257,38.655754,40.010376,41.747368,43.71975,45.087753,46.33797,47.235924,47.94988,48.63478,49.258392,49.77858,50.16543,50.482025,50.705757,50.890167,51.101887,51.410404,51.899666,52.630516,53.74071,54.69786,55.570972,56.272804,56.7612,57.165222,57.440285,57.687782,57.934177,58.21718,58.630478,59.0651,59.38247,59.724045,60.13935,60.78211,61.378204,61.777306,61.94583,61.887535,61.6287,61.221687,60.651833,59.87211,59.67175,59.660492,55.043663,41.990887,27.749313,24.021523,23.0617,22.710304,22.425055,22.177368,22.047226,22.008465,21.909904,21.77493,21.64695,21.57716,21.564732,21.571404,21.58318,21.598606,21.61905,21.668333,21.73048,21.769608,21.7812,21.824532,22.028732,22.265293,22.531195,23.416397,26.782116
