5.8921714,5.744377,5.593518,5.4286366,5.2672853,5.08696,4.8979464,4.7279043,4.578408,4.43748,4.315129,4.2086825,4.1174526,4.039473,3.9724126,3.9133625,3.8604093,3.8125165,3.766458,3.723547,3.6861913,3.6556957,3.6316378,3.613018,3.597362,3.5820642,3.5702705,3.561402,3.5544598,3.5486012,3.5424466,3.536562,3.529511,3.5216331,3.513317,3.5050588,3.4976878,3.4918704,3.4872437,3.4828386,3.4784904,3.474714,3.471521,3.4687102,3.4663665,3.4646435,3.4633331,3.4622774,3.4614766,3.4608285,3.4603286,3.460006,3.4597306,3.4593692,3.458908,3.458218,3.457356,3.4564779,3.4557807,3.4554508,3.455486,3.4558392,3.456376,3.4569812,3.4575639,3.4581091,3.4586139,3.4589338,3.4588943,3.4584126,3.457478,3.4560533,3.454236,3.452301,3.4504848,3.4487023,3.4468975,3.4452474,3.443934,3.4430597,3.4426744,3.4428096,3.4434357,3.4444444,3.4456253,3.4466975,3.4473686,3.4474616,3.4469748,3.4460042,3.4446716,3.4431348,3.4415655,3.440007,3.438428,3.4368281,3.4352598,3.433806,3.4327714,3.4325109,3.4331567,3.4344249,3.435763,3.4367592,3.43737,3.4375362,3.437499,3.4374847,3.4374979,3.4374585,3.4373767,3.4371417,3.4367526,3.4363103,3.4359994,3.4360344,3.4365125,3.4373584,3.4384644,3.4397352,3.4409018,3.441725,3.4421015,3.4421155,3.4419465,3.4416547,3.4411,3.4400945,3.438553,3.436634,3.4346619,3.4329495,3.431682,3.4307468,3.43015,3.429964,3.4302435,3.4309843,3.4320326,3.4331424,3.4342673,3.4353447,3.436316,3.4369793,3.4370568,3.4364033,3.4351494,3.4335427,3.4318025,3.4301918,3.428884,3.427957,3.4273849,3.4270344,3.426827,3.4267616,3.4267557,3.4267473,3.4268184,3.4271,3.4276743,3.4285986,3.4297805,3.4310405,3.431967,3.4322443,3.431944,3.4314094,3.430925,3.4305425,3.4302523,3.4298973,3.4294298,3.4290648,3.4290802,3.4295402,3.4303741,3.4314883,3.4326196,3.433406,3.4336476,3.4334085,3.4329076,3.4323363,3.431792,3.4311225,3.4302487,3.4291728,3.428052,3.4271655,3.4267364,3.426728,3.4269733,3.4272714,3.427413,3.4273398,3.4271913,3.427175,3.4273624,3.4279099,3.428872,3.4301305,3.4316611,3.433389,3.4349964,3.4363742,3.4372356,3.4374218,3.436894,3.4360223,3.4352057,3.4345248,3.4340253,3.4335084,3.4332485,3.4337218,3.4351058,3.4374528,3.4406288,3.4439192,3.447039,3.4499161,3.452232,3.454062,3.4554546,3.4562068,3.456171,3.455096,3.452826,3.4497495,3.4466782,3.4445167,3.4435868,3.443452,3.4437103,3.4439664,3.4445484,3.4459176,3.4478543,3.449749,3.4511805,3.451674,3.4516258,3.4513803,3.4511619,3.4511209,3.451056,3.4506845,3.4502826,3.4498115,3.4489675,3.4475539,3.4455695,3.4434628,3.4418743,3.4410934,3.4411001,3.4418218,3.443234,3.4453294,3.4481387,3.4511795,3.453549,3.4555936,3.457428,3.4594805,3.4618464,3.4650073,3.4691706,3.4737873,3.4786892,3.484219,3.4911304,3.500452,3.512146,3.5258145,3.5408034,3.5551062,3.5696638,3.585369,3.6041346,3.6253586,3.6479092,3.6718023,3.6965532,3.721465,3.7490225,3.778953,3.810851,3.8437812,3.8765635,3.9083676,3.9394739,3.972455,4.01161,4.0592613,4.115136,4.1766376,4.240138,4.303731,4.3702974,4.4421344,4.515065,4.5829306,4.6398907,4.6852922,4.727029,4.767385,4.8117886
4.3268347,4.2042165,4.1031594,3.9972556,3.8975725,3.813168,3.7435722,3.6858048,3.6407075,3.6086538,3.5888069,3.57168,3.555296,3.539497,3.5248516,3.5123136,3.5025935,3.493559,3.4847677,3.4772468,3.4714665,3.4674513,3.4649494,3.4634237,3.4624085,3.461589,3.4608853,3.4605353,3.4604454,3.4602504,3.4596806,3.4584646,3.4566543,3.4541955,3.4511607,3.447919,3.4447708,3.4418488,3.439486,3.437675,3.4362936,3.43524,3.4343238,3.4334574,3.4327419,3.432283,3.431948,3.431603,3.4312308,3.4308171,3.4304695,3.430312,3.4302893,3.4302783,3.4302914,3.4302049,3.4300709,3.4300523,3.430305,3.4309192,3.4318662,3.4331627,3.4347668,3.4365401,3.438272,3.4397802,3.440988,3.4418864,3.44243,3.4426434,3.4425845,3.442274,3.4418182,3.4413927,3.4410532,3.4407659,3.4405656,3.4405017,3.4406018,3.4408965,3.441415,3.4421363,3.443025,3.4440274,3.4449248,3.4454684,3.4454389,3.4448018,3.4437551,3.4425437,3.4411955,3.4399014,3.4387426,3.4377055,3.436736,3.4357736,3.4347954,3.4338617,3.4331822,3.433024,3.4334972,3.4344,3.4353313,3.4360037,3.4363985,3.4365206,3.436617,3.436883,3.4372947,3.4377167,3.4380543,3.438161,3.4380617,3.437868,3.437715,3.4377832,3.4381604,3.438725,3.4392464,3.4398324,3.4403243,3.4406323,3.4408092,3.440847,3.4407022,3.4405773,3.4403589,3.439901,3.4391313,3.438164,3.4372425,3.436589,3.4362962,3.4362621,3.4364524,3.4368646,3.4375756,3.438292,3.4387197,3.439155,3.4396389,3.440095,3.4405513,3.4409308,3.4410648,3.4408352,3.440292,3.43956,3.4387832,3.438096,3.43757,3.4372249,3.4370217,3.4368567,3.4367075,3.4366126,3.4365067,3.4363792,3.4362974,3.4363642,3.4366083,3.4369555,3.437436,3.438078,3.4386585,3.438951,3.438933,3.4387646,3.4386163,3.4385257,3.4385014,3.4384222,3.438258,3.438147,3.4382596,3.4386368,3.439256,3.4400554,3.4408734,3.4414642,3.4416785,3.441547,3.4412103,3.4407692,3.4403358,3.439785,3.4390855,3.4382782,3.437493,3.4369102,3.43666,3.436675,3.436844,3.4369915,3.4369597,3.4367495,3.4365065,3.4363737,3.4364505,3.436883,3.4377632,3.4389734,3.4403284,3.4417071,3.4430237,3.4441404,3.4447832,3.4448013,3.4440975,3.4429278,3.4416506,3.4402745,3.4384215,3.4361544,3.4339342,3.4322133,3.4311795,3.4309356,3.4314706,3.4323778,3.433469,3.4345574,3.4354663,3.4362102,3.436694,3.4366775,3.4360723,3.434729,3.432506,3.429545,3.4264412,3.4238052,3.4218316,3.42034,3.4191198,3.417836,3.4167087,3.4161978,3.4162903,3.4165883,3.4167516,3.4164395,3.4158075,3.415041,3.4142873,3.413694,3.4131703,3.4125237,3.4119124,3.4113078,3.4104686,3.4092183,3.4076009,3.405942,3.4046524,3.4039502,3.4037704,3.4040527,3.4048543,3.4061418,3.4078193,3.4094028,3.4101708,3.410419,3.410212,3.4099991,3.4098923,3.4100885,3.4106991,3.4116898,3.4134939,3.4162574,3.419927,3.4245536,3.429939,3.435525,3.4407425,3.4453707,3.44912,3.4515972,3.4524019,3.4523904,3.4525828,3.4531634,3.4538584,3.4545157,3.4550433,3.4561687,3.4583664,3.4616656,3.4655333,3.4690273,3.4716284,3.4740186,3.476532,3.4794402,3.4825945,3.485343,3.4872124,3.4889274,3.4911366,3.4957912,3.5020208,3.5091906,3.5182223,3.5301476,3.5443134,3.5585628,3.5738912
3.5868964,3.5746317,3.561362,3.5493093,3.5373087,3.5260363,3.515594,3.5062053,3.498311,3.4908028,3.4816256,3.4721162,3.462931,3.4541416,3.4458992,3.4384785,3.4318056,3.425828,3.4202785,3.4157782,3.412699,3.4112544,3.4114065,3.4126685,3.4144197,3.416562,3.419126,3.4221456,3.4254937,3.4288125,3.4316533,3.4338298,3.4352372,3.4359183,3.4362051,3.436182,3.4359257,3.4357905,3.436018,3.4366074,3.4374852,3.4385319,3.4395485,3.440425,3.4412289,3.4420512,3.442849,3.44356,3.4441168,3.444538,3.444948,3.4454768,3.4461365,3.4468374,3.4476633,3.4485087,3.449344,3.4501843,3.4510484,3.4519534,3.4529047,3.4539232,3.455013,3.4561243,3.457128,3.4579163,3.4584956,3.4589112,3.4591463,3.4592896,3.4594574,3.4596906,3.460064,3.460637,3.4612978,3.4620094,3.4627917,3.463563,3.4642591,3.4648519,3.4653435,3.4657516,3.4661057,3.466362,3.466358,3.4659421,3.4650168,3.4636626,3.4621384,3.4606645,3.45924,3.4580615,3.4571671,3.4564886,3.45593,3.4553828,3.4547677,3.4540958,3.4534814,3.4531167,3.4531097,3.453373,3.4536858,3.453881,3.4539325,3.4538677,3.4538546,3.4539893,3.454232,3.454471,3.454597,3.4544973,3.4541516,3.4536505,3.453127,3.4527462,3.452573,3.4524844,3.4522476,3.4520414,3.451807,3.4515738,3.4514475,3.451336,3.4510803,3.4509642,3.4508905,3.4507656,3.4505458,3.4502935,3.450142,3.4502015,3.4504929,3.4509177,3.4514291,3.4520106,3.452745,3.4532037,3.4530442,3.4528332,3.4526534,3.452406,3.4521656,3.4519825,3.4518006,3.4515328,3.4511821,3.4507914,3.4503794,3.4499762,3.4495986,3.4492395,3.448882,3.4484944,3.4481044,3.4477396,3.447359,3.446971,3.446625,3.446393,3.4462543,3.4460666,3.445963,3.4460816,3.4463706,3.4466896,3.4469397,3.4471166,3.4472804,3.4474583,3.447661,3.4478207,3.4479487,3.4481037,3.4483352,3.448658,3.4490776,3.4495993,3.4501653,3.4506571,3.4509923,3.4511628,3.4512005,3.451097,3.4509397,3.4506574,3.450259,3.449802,3.449388,3.449122,3.4490495,3.449123,3.449266,3.4493885,3.4493852,3.4492767,3.4491653,3.4490955,3.4491794,3.449574,3.4503984,3.4515734,3.4528427,3.4540884,3.4554043,3.456621,3.457654,3.4583945,3.4587302,3.458737,3.4585958,3.4581568,3.4566407,3.4543872,3.4520304,3.4499497,3.4482815,3.4471369,3.4465542,3.4462647,3.4460926,3.4458084,3.4453464,3.4448028,3.4441934,3.4434054,3.4423938,3.4410634,3.439266,3.4369545,3.4345162,3.4323232,3.4304786,3.4289622,3.4276567,3.426343,3.425146,3.4243836,3.4240022,3.4236562,3.423101,3.4221864,3.4210296,3.4198103,3.4187078,3.417902,3.4173539,3.416862,3.4164457,3.416081,3.4155018,3.4145803,3.4133575,3.4120567,3.4110126,3.4104948,3.4104319,3.4108038,3.4115746,3.4125996,3.4136362,3.4142094,3.4138277,3.4128122,3.4111638,3.409139,3.4068408,3.4039302,3.4005826,3.3976545,3.3950214,3.3930774,3.3919287,3.3918738,3.39296,3.3947692,3.396621,3.397995,3.3985686,3.3980718,3.3966136,3.3947337,3.3931096,3.3920426,3.3912718,3.3905654,3.389755,3.38912,3.3892448,3.3904116,3.3922317,3.3939505,3.3950806,3.3959212,3.3971086,3.398661,3.4003797,3.4019394,3.4029331,3.4034524,3.4042335,3.4060884,3.4086924,3.4116066,3.414711,3.417942,3.421092,3.4241261,3.4272375
3.4950802,3.4903607,3.4858983,3.481389,3.4770262,3.4722948,3.4671612,3.4622393,3.4579475,3.4540224,3.4499016,3.44538,3.440498,3.4353876,3.4304218,3.4259772,3.4220734,3.4187374,3.415926,3.4141164,3.4134898,3.4140244,3.4155254,3.4175997,3.4200888,3.4228232,3.4258957,3.429315,3.432965,3.4365892,3.4398592,3.4426894,3.44424,3.444543,3.4443967,3.4435983,3.4419475,3.4401965,3.4387057,3.4373636,3.43621,3.4352784,3.4346042,3.4342074,3.4341106,3.4343386,3.4347754,3.435288,3.435752,3.436137,3.4364915,3.4368691,3.437274,3.4376304,3.4379458,3.4381428,3.4381278,3.437854,3.4373064,3.4364998,3.435503,3.4342566,3.4327922,3.4312263,3.4296813,3.4282794,3.4271245,3.4262137,3.4254656,3.4249187,3.4246523,3.4246485,3.4248846,3.4253368,3.4258895,3.4264228,3.4269187,3.4272165,3.4271975,3.426854,3.4262648,3.4255183,3.4246678,3.4236789,3.422507,3.4211364,3.4195983,3.4179978,3.4164793,3.4151678,3.4139962,3.4130888,3.4124649,3.4120214,3.4116502,3.4112606,3.410744,3.4100482,3.4092066,3.4083197,3.407498,3.4067855,3.4061553,3.405578,3.4049892,3.4043822,3.4038506,3.4033837,3.4029512,3.402533,3.4020667,3.4014745,3.400704,3.399815,3.3989108,3.3980904,3.3974104,3.396877,3.3964505,3.3960023,3.3954535,3.394827,3.394188,3.3936176,3.393209,3.3929982,3.392868,3.3928182,3.3928561,3.3929887,3.3932114,3.3935158,3.3938942,3.394248,3.3945398,3.3948019,3.3950245,3.3952117,3.3953466,3.3953583,3.3952646,3.3949943,3.3946328,3.3942986,3.3940027,3.3936872,3.3933566,3.393045,3.3927574,3.3925276,3.3923943,3.3923278,3.3922858,3.3922353,3.3921454,3.3919928,3.3917274,3.3912811,3.3906913,3.3900414,3.3894224,3.38899,3.388764,3.3887258,3.3888006,3.388872,3.388884,3.3888683,3.3889012,3.38901,3.389195,3.389392,3.3895504,3.3896713,3.3897855,3.3899164,3.390088,3.3903406,3.390645,3.390936,3.3911679,3.3913407,3.3914685,3.3915212,3.3915439,3.3914542,3.391239,3.3909137,3.390553,3.3902664,3.3901026,3.3900204,3.3899589,3.3898711,3.3897016,3.3894725,3.3892555,3.389083,3.3890224,3.3891716,3.389658,3.390462,3.3915224,3.3927639,3.3940501,3.3952594,3.396483,3.3976808,3.3987563,3.399695,3.400501,3.4011903,3.4019682,3.4027934,3.403748,3.404871,3.4060464,3.4072313,3.4084625,3.4095469,3.410284,3.4107525,3.4107776,3.4105008,3.410159,3.4098642,3.4096818,3.409594,3.4095068,3.4092174,3.408811,3.4084044,3.408049,3.407826,3.407672,3.4075563,3.4075444,3.4078028,3.4082155,3.408496,3.4084926,3.4081202,3.4075603,3.4069252,3.406356,3.406,3.4058535,3.4057593,3.4056435,3.4055552,3.4053657,3.4051027,3.4048321,3.4046378,3.4046993,3.405242,3.4061937,3.40767,3.4094644,3.411441,3.4133573,3.4148448,3.4157362,3.416416,3.4169762,3.4175413,3.418007,3.4168398,3.4140372,3.4116445,3.4084024,3.405523,3.4032855,3.40206,3.4019072,3.40247,3.4031572,3.40347,3.403084,3.401682,3.3993652,3.3966346,3.3940997,3.3920484,3.3903244,3.3886788,3.3869045,3.3851535,3.3838577,3.3833272,3.3833625,3.3833985,3.383082,3.3825016,3.3822188,3.3821716,3.3821907,3.3820074,3.381173,3.3796496,3.3781714,3.377642,3.377772,3.3781111,3.3786578,3.37956,3.3806603,3.3814871,3.3822088
3.4424572,3.44489,3.4468613,3.4490168,3.4513118,3.4510894,3.4474325,3.4424193,3.4381704,3.43413,3.4299574,3.425468,3.4208157,3.416194,3.4119377,3.4082773,3.4050405,3.4022593,3.3998032,3.3978844,3.3964944,3.395556,3.3949788,3.3945878,3.3942537,3.393896,3.3936882,3.3936927,3.3938785,3.394135,3.3942804,3.394258,3.3940623,3.393694,3.393068,3.3921304,3.3909535,3.3897405,3.3887024,3.3878462,3.3872151,3.3867457,3.3864207,3.3862703,3.3863583,3.3867452,3.387339,3.3880115,3.3886254,3.389145,3.3896296,3.3901567,3.3907275,3.3912184,3.391654,3.3919754,3.3921008,3.392004,3.3916693,3.391079,3.3902965,3.389295,3.38813,3.3869596,3.3858783,3.384933,3.3841844,3.383631,3.3832173,3.3830006,3.3830423,3.383297,3.3837228,3.384306,3.3849678,3.385639,3.3863273,3.3868623,3.3870888,3.3869705,3.3865857,3.386042,3.3854277,3.3847103,3.3838751,3.3828905,3.3817122,3.3803961,3.3791058,3.3779595,3.376912,3.3760753,3.3754869,3.3750978,3.37484,3.3746262,3.3743362,3.3739161,3.3733747,3.372764,3.3721733,3.3716457,3.3711581,3.3706832,3.370161,3.369584,3.369051,3.3686137,3.3682709,3.3679795,3.3676565,3.3672194,3.3665903,3.3658423,3.3650968,3.3644624,3.3639789,3.3636174,3.3633065,3.362976,3.362554,3.362088,3.3616621,3.3613138,3.3610637,3.3609638,3.3609142,3.3609133,3.36098,3.3611505,3.3614297,3.3618093,3.3623013,3.362811,3.3632808,3.3637304,3.3641233,3.3644485,3.3647146,3.3648882,3.3649888,3.3649476,3.36482,3.3646908,3.364563,3.364386,3.364163,3.363919,3.3636856,3.363497,3.3634062,3.3634014,3.3634377,3.363455,3.3634133,3.3632941,3.3630705,3.3626971,3.362218,3.3617043,3.361216,3.3608541,3.3606324,3.360565,3.3605824,3.3605843,3.360537,3.360487,3.3605094,3.360642,3.3608813,3.3611612,3.3613927,3.3615355,3.361611,3.361654,3.3616972,3.3618171,3.3619938,3.3621814,3.362367,3.3625631,3.362771,3.3629515,3.363121,3.3631916,3.3631291,3.3629255,3.36264,3.362372,3.3621638,3.3619895,3.3617935,3.3615656,3.3612895,3.3609977,3.3607368,3.3605075,3.3603554,3.3603249,3.3605509,3.3610249,3.3616874,3.3624816,3.3633194,3.3641028,3.3649302,3.365777,3.3666213,3.3674502,3.3682053,3.368824,3.3693762,3.3699145,3.3705144,3.371201,3.37187,3.3724575,3.373012,3.373499,3.373757,3.373858,3.3736143,3.3731346,3.3726397,3.3722496,3.3720388,3.3720357,3.3720765,3.37191,3.3715405,3.3710039,3.3703291,3.3696425,3.3689206,3.3681688,3.3674207,3.3668566,3.3664303,3.3659456,3.365314,3.364471,3.3635335,3.3626003,3.3617744,3.3611956,3.360845,3.3605287,3.3601713,3.359819,3.3593566,3.3588388,3.358337,3.357912,3.357706,3.3579159,3.358471,3.359504,3.3608108,3.3622239,3.3635106,3.3643467,3.3645878,3.3646321,3.3648539,3.3652163,3.365562,3.3657045,3.365585,3.3653622,3.365317,3.3655148,3.365994,3.3669739,3.368527,3.3705194,3.37267,3.3746042,3.3762717,3.3774977,3.3782225,3.3787913,3.37961,3.380763,3.3820531,3.3834524,3.3848479,3.3860998,3.3873682,3.3889074,3.3906994,3.3924294,3.3940303,3.3956327,3.3976436,3.3998613,3.4020233,3.403966,3.4050624,3.4038584,3.402309,3.4012904,3.400778,3.4003646,3.3999677,3.3997521,3.399559,3.39914,3.397788
3.3859265,3.3856215,3.385171,3.3844786,3.3836346,3.382019,3.3793616,3.37635,3.373704,3.370966,3.3679361,3.3645272,3.3608675,3.35713,3.3536413,3.3506255,3.347901,3.3455572,3.3435302,3.3419862,3.340909,3.340232,3.339867,3.3396401,3.339435,3.3391836,3.339061,3.3391335,3.3393874,3.3397417,3.3400402,3.3402388,3.3403847,3.3404796,3.3403504,3.3399227,3.3392231,3.3383613,3.337596,3.3369067,3.3363364,3.3358612,3.335485,3.3352392,3.3351946,3.3354328,3.3358588,3.3363686,3.33684,3.3372555,3.3376894,3.3382263,3.338879,3.3395476,3.3402586,3.340942,3.3415194,3.3419533,3.3422022,3.3422194,3.3420448,3.3416831,3.3411896,3.3406892,3.3402405,3.3398647,3.3396058,3.339472,3.3394544,3.339613,3.3399854,3.3405163,3.3411553,3.3418884,3.3426616,3.3434515,3.3442748,3.3449714,3.3454092,3.34554,3.3454065,3.3451085,3.3447504,3.3443232,3.343804,3.343152,3.342332,3.3413882,3.3404427,3.3395991,3.3388307,3.338216,3.3377805,3.3375025,3.337339,3.3372111,3.3370214,3.3367138,3.3362546,3.3356695,3.3350286,3.3343825,3.3337364,3.3330975,3.3324113,3.3316717,3.3309832,3.3304214,3.3300104,3.3297148,3.329442,3.329112,3.3286443,3.328104,3.3276005,3.3272338,3.3270154,3.326878,3.3267581,3.3266072,3.3263545,3.3260577,3.325811,3.3256483,3.3255768,3.3256352,3.325758,3.3259463,3.326222,3.326624,3.3271596,3.3278012,3.3285244,3.329249,3.3299208,3.330524,3.331057,3.3315291,3.3319237,3.3322062,3.3324084,3.332469,3.3324363,3.332383,3.33232,3.3322182,3.3320851,3.3319366,3.3318045,3.3317235,3.3317409,3.331848,3.332002,3.3321345,3.3321934,3.332161,3.3320231,3.3317528,3.3313923,3.3310113,3.3306613,3.3304143,3.330288,3.330311,3.3304267,3.3305502,3.3306475,3.330745,3.3309045,3.3311663,3.3315315,3.3319378,3.332274,3.3324666,3.3325171,3.3324685,3.332364,3.3323011,3.3322716,3.332255,3.3322616,3.3323216,3.332438,3.3325572,3.3326743,3.332708,3.3326201,3.3323965,3.3320913,3.3317904,3.3315182,3.3312407,3.3308933,3.3304796,3.3300056,3.3295145,3.3290458,3.3285842,3.3281515,3.3277586,3.3275561,3.3275602,3.3277426,3.3280723,3.3284736,3.3288584,3.3293066,3.329815,3.3303852,3.330985,3.3315096,3.3318672,3.3321154,3.332301,3.332489,3.3326795,3.3327823,3.3327518,3.3326576,3.3325553,3.3323135,3.3319898,3.3314595,3.330801,3.3301978,3.3297644,3.3295493,3.3295798,3.3296819,3.3295598,3.329166,3.3285115,3.3276696,3.3268454,3.3259997,3.3251276,3.3242445,3.3235345,3.3229716,3.3223932,3.321743,3.320961,3.3201084,3.3192568,3.3184452,3.3177977,3.3173132,3.316812,3.3162427,3.3156369,3.3148832,3.3140583,3.3132386,3.3124752,3.3118737,3.3115907,3.3115935,3.3120136,3.3126798,3.313457,3.3141615,3.3145547,3.314559,3.314518,3.3145604,3.314557,3.3144114,3.314055,3.3134606,3.3127666,3.3123598,3.3121831,3.3122952,3.3128867,3.3140125,3.315554,3.3172626,3.3187797,3.3200731,3.3209834,3.3215613,3.3220663,3.3229694,3.3244371,3.3259525,3.327516,3.3290086,3.3303208,3.3315778,3.332975,3.3345177,3.3360171,3.3374674,3.3389544,3.340874,3.3430386,3.3451962,3.3471298,3.3484735,3.348997,3.3495893,3.350903,3.3525343,3.3539917,3.3552268,3.3563185,3.357059,3.357317,3.3571286
3.3387303,3.3386316,3.3378487,3.336285,3.3342814,3.3318756,3.3290367,3.3259883,3.3230205,3.320034,3.3168259,3.3133035,3.3095865,3.3058815,3.3025196,3.299665,3.2970908,3.294918,3.2930148,3.2914953,3.29035,3.289544,3.289011,3.2885928,3.288222,3.2877917,3.2874699,3.2873268,3.2873526,3.2874799,3.2875867,3.2876499,3.287694,3.2877443,3.2876709,3.2873755,3.2868297,3.2861068,3.2854214,3.2847428,3.284122,3.2835488,3.2830284,3.282588,3.2822978,3.282255,3.282381,3.2825959,3.2828012,3.283001,3.2832808,3.2837353,3.2843928,3.2851684,3.286108,3.2871544,3.2882276,3.2892735,3.2902224,3.2909975,3.2916048,3.2920933,3.2924907,3.2928648,3.2932324,3.293583,3.293934,3.2943044,3.2947354,3.2952824,3.2959697,3.2967386,3.2975392,3.298369,3.2991972,3.3000464,3.3009424,3.3017612,3.3023899,3.3027716,3.3029246,3.3029315,3.302899,3.3028474,3.3027425,3.302528,3.3021548,3.3016427,3.3010812,3.300567,3.300094,3.299704,3.299418,3.299232,3.2991242,3.2990367,3.2988925,3.2986293,3.298187,3.2975698,3.2968273,3.2960134,3.2951603,3.2943006,3.2933807,3.2924075,3.2914913,3.2907403,3.290215,3.2898893,3.2896616,3.2894487,3.2891622,3.2888603,3.2886417,3.2885866,3.2886739,3.2888012,3.2889042,3.2889552,3.2888832,3.2887619,3.2886968,3.2887218,3.288835,3.2890716,3.2893984,3.2898192,3.290361,3.291059,3.2919083,3.2928588,3.2938552,3.2948265,3.295724,3.296506,3.2971764,3.297754,3.2982259,3.2985725,3.29883,3.298935,3.2989438,3.298927,3.2988975,3.2988358,3.298759,3.2986782,3.2986383,3.2986674,3.298811,3.2990642,3.2993793,3.2996712,3.2998683,3.299957,3.2999358,3.299799,3.2996068,3.2994292,3.2993026,3.2992694,3.2993412,3.2995653,3.2998872,3.3002322,3.300561,3.3008823,3.3012462,3.3016953,3.302246,3.3028264,3.3033037,3.3035717,3.3036075,3.3034635,3.3032002,3.302928,3.302648,3.3023648,3.302106,3.3019156,3.3018136,3.301756,3.301711,3.3016086,3.3014083,3.301095,3.3007188,3.3003557,3.3000145,3.2996368,3.299143,3.2985387,3.2978377,3.2970953,3.296352,3.2955835,3.2947845,3.2939281,3.2931902,3.2926273,3.2922595,3.292087,3.2920403,3.2920284,3.2920861,3.292231,3.2924795,3.2927876,3.2930255,3.2930813,3.2930002,3.2928042,3.292537,3.2921891,3.2916954,3.2910376,3.2903147,3.289658,3.2889562,3.2882705,3.287541,3.2868044,3.2861838,3.2857745,3.2855923,3.2856252,3.2857053,3.285534,3.2850342,3.2842236,3.2832198,3.2822635,3.2813053,3.2803495,3.2793975,3.2786326,3.2780428,3.277487,3.2769203,3.2762792,3.2756,3.2749183,3.2742338,3.2736049,3.2730083,3.2723067,3.271485,3.2705736,3.2694998,3.2683585,3.2672048,3.2660673,3.2650294,3.264213,3.2636342,3.2634096,3.2634075,3.263568,3.2637777,3.2638586,3.2637699,3.263784,3.263977,3.2642248,3.2644067,3.2644134,3.2642066,3.2639124,3.263772,3.2638087,3.2640872,3.2647283,3.2658021,3.267243,3.2688375,3.2703094,3.2716703,3.2727492,3.273703,3.2747123,3.275983,3.2775567,3.2791147,3.2806792,3.282143,3.2833545,3.2844524,3.2856064,3.2868207,3.288011,3.289173,3.2903936,3.2921104,3.294191,3.296371,3.2983942,3.2999961,3.3013022,3.3029232,3.3052917,3.3078718,3.3100624,3.3117738,3.3131564,3.3141165,3.314546,3.3147106
3.2937303,3.2943354,3.294204,3.2934828,3.292348,3.2906575,3.288371,3.2857566,3.283146,3.280609,3.2779436,3.2750533,3.2719688,3.2689004,3.2661633,3.2638483,3.2617197,3.2599025,3.2582703,3.2569275,3.2558913,3.2551632,3.254693,3.2543328,3.2540526,3.253728,3.253488,3.2533896,3.2534146,3.2535012,3.253557,3.2535772,3.2536016,3.2536817,3.2537131,3.253591,3.253264,3.25277,3.2522542,3.2517023,3.2511742,3.2506557,3.2501519,3.2496872,3.2493286,3.2491813,3.249194,3.2493196,3.2494755,3.2496548,3.2499275,3.2503834,3.2510529,3.2518682,3.2528963,3.2540965,3.2553945,3.2567325,3.258053,3.2592869,3.2604098,3.26151,3.262588,3.2636547,3.2646859,3.2656407,3.2665138,3.2673254,3.268165,3.269084,3.2700982,3.2711458,3.2721663,3.273145,3.274066,3.2749715,3.275906,3.2767859,3.277522,3.2780643,3.2784238,3.2786615,3.2788782,3.2791119,3.279321,3.27944,3.2794046,3.2792153,3.2789433,3.2786832,3.2784424,3.2782307,3.2780604,3.2779272,3.277821,3.277705,3.2775278,3.2772236,3.276727,3.2760334,3.2751777,3.2742102,3.2731757,3.2721126,3.2709656,3.269741,3.2685468,3.2675123,3.2667239,3.266172,3.2657714,3.2654386,3.265083,3.2647767,3.2646174,3.2646713,3.2648873,3.2651272,3.2653193,3.2654433,3.265435,3.265379,3.265393,3.265512,3.2657285,3.2660742,3.2665288,3.2670977,3.2678115,3.2687068,3.2697725,3.2709475,3.2721567,3.2733333,3.2744367,3.2754025,3.2762268,3.2769275,3.2775006,3.277938,3.27828,3.2784665,3.278552,3.2785845,3.2785811,3.2785475,3.2785044,3.2784648,3.2784734,3.2785468,3.2787259,3.2790132,3.2793636,3.2796855,3.2799106,3.2800245,3.2800364,3.2799637,3.2798815,3.279859,3.279914,3.2800593,3.2803032,3.2806997,3.281201,3.281732,3.282249,3.2827451,3.2832522,3.2838132,3.284459,3.2851095,3.285634,3.2859168,3.2859237,3.2857103,3.2853508,3.2849526,3.2845173,3.2840564,3.2836003,3.283197,3.282884,3.282638,3.2824125,3.2821474,3.2818131,3.2813966,3.2809477,3.2805328,3.2801461,3.2797117,3.2791362,3.2784185,3.277585,3.2767053,3.275824,3.274908,3.2739341,3.2728412,3.2718098,3.2709126,3.2702034,3.2697144,3.269383,3.2691126,3.2689018,3.2687726,3.2687404,3.2687702,3.268746,3.268558,3.268233,3.2677803,3.2672195,3.2665305,3.2656713,3.2646358,3.263527,3.2625198,3.2615101,3.2605765,3.2597075,3.2589226,3.2582855,3.2578328,3.257553,3.2574205,3.2573128,3.2569764,3.2563438,3.255444,3.254408,3.2534533,3.2525096,3.2515998,3.2507062,3.2499964,3.249454,3.2489476,3.248445,3.247884,3.2472687,3.2466016,3.2458723,3.2451148,3.2443037,3.2433457,3.2422767,3.2411091,3.2398164,3.2384882,3.2371466,3.235799,3.2345061,3.233361,3.2324114,3.2317731,3.231351,3.2311397,3.2310796,3.2310238,3.230927,3.2310023,3.2313309,3.2318025,3.2322555,3.232598,3.2328076,3.2329183,3.2330647,3.2333326,3.233777,3.2344646,3.2354836,3.236812,3.2382689,3.2396464,3.2409792,3.2421062,3.2432323,3.2444773,3.24584,3.2472646,3.2486372,3.2500086,3.2512875,3.252315,3.2532167,3.2541203,3.2550206,3.2558963,3.2567496,3.2576227,3.2589078,3.2605572,3.2623696,3.2641168,3.2655466,3.2666788,3.2680464,3.2700567,3.2721727,3.2738802,3.275104,3.2759562,3.2764878,3.2765906,3.276423
3.2494276,3.2498412,3.2500064,3.2501345,3.2501156,3.2497182,3.2488909,3.2478523,3.246845,3.245882,3.2448168,3.2435954,3.2421038,3.2404866,3.239007,3.237711,3.2364054,3.2352414,3.2341795,3.233343,3.2327785,3.2325294,3.2325673,3.2327273,3.232983,3.2332282,3.2335386,3.2339487,3.2344203,3.234881,3.2352552,3.235561,3.2358732,3.236265,3.2366366,3.236889,3.2369602,3.236857,3.236684,3.2364469,3.2362132,3.2359686,3.2357154,3.2354653,3.2352705,3.2352355,3.2353375,3.235569,3.2358537,3.2361574,3.2365193,3.2370138,3.2376711,3.238447,3.2394195,3.2405605,3.241808,3.2431226,3.244482,3.2458496,3.2471824,3.2485838,3.2500346,3.2514944,3.2529075,3.2542214,3.255424,3.2565367,3.2576694,3.2588768,3.2601671,3.261476,3.2627234,3.263868,3.2648973,3.265857,3.266811,3.2677128,3.268508,3.2691565,3.2696607,3.2700624,3.2704458,3.2708597,3.2712588,3.271582,3.2717595,3.2717829,3.2717147,3.271644,3.2715862,3.271526,3.2714593,3.2713704,3.2712479,3.2710705,3.2708163,3.2704186,3.2698212,3.2690277,3.2680612,3.266962,3.2657757,3.2645369,3.2631865,3.261723,3.260241,3.2588754,3.2577229,3.2567935,3.256037,3.2553792,3.2547314,3.2541935,3.2538652,3.253806,3.253943,3.2541084,3.2542253,3.2542708,3.2541883,3.2540789,3.2540731,3.254209,3.2544718,3.2548847,3.2554226,3.2560804,3.2568913,3.2578897,3.2590704,3.2603722,3.261712,3.2630215,3.2642698,3.2653713,3.2663217,3.2671394,3.2678175,3.268355,3.2687957,3.2690902,3.2692747,3.2693686,3.2693977,3.269391,3.2693706,3.2693565,3.269381,3.2694473,3.2695894,3.269813,3.2700865,3.2703266,3.2704844,3.2705412,3.270513,3.270441,3.2704048,3.2704659,3.2706273,3.2708735,3.271211,3.2716928,3.2722723,3.2728786,3.2734635,3.2740107,3.2745376,3.2750864,3.275692,3.27628,3.2767398,3.2769713,3.2769418,3.2767022,3.276329,3.2759151,3.2754526,3.2749455,3.2744105,3.27389,3.2734337,3.2730386,3.2726536,3.2722316,3.2717595,3.271236,3.2707121,3.2702498,3.2698305,3.269369,3.268766,3.2680159,3.26716,3.2662795,3.2654228,3.2645473,3.2636142,3.2625399,3.2614818,3.2605011,3.2596693,3.2590456,3.258582,3.2581828,3.25782,3.2575078,3.2572527,3.2570398,3.256797,3.2564335,3.2559557,3.2553678,3.2546697,3.2538245,3.2528057,3.2516098,3.25032,3.2491274,3.247923,3.246798,3.2457995,3.244938,3.2442107,3.243599,3.2430825,3.2426438,3.2422223,3.2416477,3.2408886,3.239985,3.239047,3.2382345,3.2374434,3.2367115,3.2359984,3.235446,3.2350175,3.234579,3.23412,3.2335854,3.2329543,3.2321982,3.231298,3.2302861,3.2291598,3.2278862,3.2265675,3.2252042,3.2237859,3.222382,3.2209835,3.2195783,3.2182074,3.2169352,3.215823,3.2149916,3.2143764,3.2140002,3.2138367,3.2137542,3.2136745,3.2137704,3.2140732,3.21448,3.2148123,3.215025,3.2151513,3.2152038,3.2152696,3.2154326,3.2157354,3.2162282,3.217,3.2180376,3.21917,3.2202177,3.2212052,3.2220004,3.222818,3.2237341,3.2247083,3.2256904,3.2266054,3.2275326,3.228365,3.22902,3.2296,3.230171,3.230715,3.2312274,3.231717,3.2321517,3.2328367,3.2337933,3.2349133,3.2360237,3.2369118,3.2375607,3.2383142,3.239612,3.2409418,3.2419634,3.2426722,3.2430742,3.2432585,3.2431002,3.2427313
3.2139113,3.2147796,3.2156124,3.21664,3.2177234,3.2185872,3.2191455,3.2195559,3.219982,3.2204056,3.2207484,3.2209988,3.2209542,3.220683,3.2203808,3.2200615,3.2195735,3.2191243,3.2187147,3.2184582,3.2184105,3.218652,3.2191844,3.2198257,3.2205472,3.2212615,3.2220054,3.22279,3.2235684,3.2242746,3.2248614,3.2253623,3.2258701,3.2264686,3.2270656,3.2275667,3.227911,3.228088,3.2281718,3.2281864,3.228219,3.2282577,3.2282865,3.2282872,3.2282882,3.2283816,3.228571,3.2288742,3.2292275,3.2295794,3.2299438,3.2303872,3.230948,3.2315955,3.2324166,3.233396,3.234491,3.2356853,3.236979,3.2383537,3.239749,3.2412672,3.2428699,3.24448,3.2460327,3.2474856,3.2488334,3.2500963,3.2513814,3.2527418,3.2541804,3.2556276,3.2569907,3.2582154,3.2592866,3.2602582,3.2612016,3.2621045,3.2629397,3.2636714,3.2642858,3.2648096,3.265309,3.265849,3.266386,3.2668562,3.2671883,3.2673702,3.2674541,3.2675228,3.2675953,3.267642,3.267649,3.2675915,3.2674513,3.2672172,3.266886,3.2663894,3.2656858,3.2647905,3.2637177,3.2624998,3.2611861,3.2598054,3.2582912,3.256639,3.2549255,3.2532785,3.2517958,3.2505043,3.2493873,3.2483904,3.2474217,3.2466075,3.246045,3.2457817,3.2457328,3.2457147,3.2456546,3.2455273,3.2452908,3.24507,3.2450175,3.2451732,3.2455025,3.2460148,3.2466655,3.247426,3.2483263,3.249392,3.2506204,3.2519708,3.2533507,3.2546973,3.2559786,3.257101,3.2580714,3.258915,3.259625,3.2602136,3.260718,3.2610936,3.2613525,3.2615075,3.2615788,3.2615886,3.2615674,3.2615457,3.261551,3.2615814,3.2616682,3.2618217,3.2620175,3.2621841,3.2622852,3.262298,3.262247,3.262187,3.2621982,3.262331,3.2625751,3.2628932,3.2632844,3.2637963,3.2643726,3.2649488,3.2654843,3.2659626,3.2664087,3.2668614,3.2673557,3.2678285,3.2681925,3.2683654,3.2683182,3.268093,3.2677612,3.267397,3.2669854,3.2665176,3.265994,3.2654417,3.264913,3.2644196,3.2639103,3.2633457,3.262734,3.2620904,3.2614727,3.2609444,3.2604837,3.259995,3.2593822,3.2586403,3.2578168,3.257,3.2562337,3.2554693,3.2546499,3.2536726,3.252664,3.2516713,3.2507725,3.250056,3.2494953,3.249001,3.2485256,3.2480774,3.2476542,3.2472649,3.2468774,3.2464228,3.245885,3.2452621,3.2445421,3.2436674,3.2426226,3.2414021,3.2400603,3.2387958,3.2374806,3.2362232,3.235123,3.234166,3.2332988,3.2324939,3.2317429,3.2310266,3.2303262,3.229555,3.228716,3.2278528,3.2270484,3.2264042,3.2257953,3.225268,3.2247615,3.2243967,3.2241063,3.22375,3.2233384,3.2228312,3.2222102,3.2214284,3.220436,3.219233,3.2178311,3.2162676,3.2147088,3.21317,3.211629,3.2101412,3.2086978,3.2072868,3.2059271,3.2046447,3.2034879,3.2025733,3.201855,3.2013855,3.2011733,3.2011008,3.2010615,3.2011924,3.2014818,3.2018485,3.2021027,3.2022042,3.2022257,3.2022119,3.202219,3.2023158,3.202536,3.202936,3.203595,3.2044892,3.205451,3.2063055,3.2070694,3.207641,3.2082298,3.2088823,3.2095158,3.2100792,3.2105613,3.2110615,3.2114563,3.2117372,3.2119932,3.2122536,3.2124896,3.2126997,3.2128787,3.212946,3.2131715,3.2136106,3.2141962,3.2147994,3.2152524,3.2155037,3.2158537,3.2166767,3.2175136,3.218111,3.2185163,3.21874,3.2188272,3.2186022,3.2182574
3.1931696,3.195037,3.1970453,3.199397,3.2018492,3.2040415,3.2058697,3.2074747,3.2089791,3.2103658,3.2116578,3.2128778,3.2138066,3.2144814,3.2150407,3.2154715,3.2156568,3.215819,3.2159848,3.2162495,3.216669,3.2173233,3.2182133,3.21916,3.2201362,3.22107,3.221972,3.2228062,3.2235534,3.2242222,3.2247927,3.2252884,3.2257867,3.226361,3.226913,3.227356,3.2276502,3.2277935,3.2278414,3.2278304,3.2278783,3.2279768,3.2280898,3.2281795,3.22826,3.2284002,3.2286189,3.228932,3.2292976,3.2296538,3.229989,3.2303567,3.230805,3.2313018,3.231937,3.2327106,3.2336104,3.2346392,3.2358077,3.2370977,3.238417,3.2398782,3.2414262,3.2429814,3.2444918,3.2459311,3.2472935,3.248594,3.2499473,3.2513885,3.2529025,3.254408,3.2558084,3.2570505,3.2581182,3.2590694,3.259976,3.2608433,3.2616587,3.2623901,3.26302,3.2635627,3.2640796,3.264656,3.265249,3.2657785,3.2661757,3.2664244,3.2665563,3.2666514,3.2667298,3.2667594,3.266732,3.2666254,3.2664173,3.266096,3.2656693,3.2650633,3.264247,3.263239,3.2620573,3.2607427,3.2593482,3.2578988,3.2563176,3.2545822,3.2527468,3.250917,3.24918,3.2475758,3.2461295,3.2448118,3.2435274,3.2424314,3.2416158,3.241108,3.240814,3.2405496,3.2402391,3.239874,3.2394352,3.2390747,3.238974,3.2391686,3.2395868,3.2402205,3.2409842,3.2418263,3.2427619,3.2438068,3.2449741,3.2462516,3.247546,3.2488065,3.2499928,3.2510164,3.2519016,3.2526872,3.2533727,3.2539794,3.2545402,3.2549992,3.2553458,3.2555847,3.2557101,3.255718,3.2556524,3.2555642,3.2554774,3.2554054,3.2553885,3.2554455,3.2555592,3.2556643,3.2557259,3.25572,3.2556763,3.2556553,3.2557294,3.2559395,3.2562609,3.2566428,3.2570748,3.257589,3.258118,3.2585983,3.259004,3.2593393,3.2596464,3.2599611,3.2603192,3.2606711,3.2609432,3.261074,3.2610393,3.2608628,3.2606113,3.2603416,3.2600365,3.2596812,3.259257,3.258771,3.2582655,3.2577477,3.257174,3.2565067,3.255778,3.2550232,3.254313,3.2537162,3.2532146,3.252704,3.252102,3.2513995,3.2506468,3.2499318,3.249289,3.2486622,3.2479877,3.2471411,3.2462254,3.2452588,3.2443223,3.2435298,3.2428823,3.2423058,3.241751,3.241222,3.2407188,3.240263,3.2398496,3.2394247,3.2389517,3.2384386,3.2378645,3.2371597,3.236306,3.23528,3.2340987,3.2329428,3.2316716,3.2304273,3.229292,3.2282462,3.2272494,3.2262895,3.2253752,3.2244864,3.2236342,3.2227783,3.2219305,3.2211285,3.2204382,3.2199323,3.21948,3.2191315,3.2188113,3.2186158,3.2184455,3.218152,3.2177691,3.2172735,3.2166595,3.2158809,3.214855,3.213553,3.2119985,3.210266,3.2085438,3.2068532,3.2051716,3.203552,3.2020502,3.200692,3.1994529,3.1983066,3.1972466,3.1963785,3.195663,3.195179,3.1949766,3.194965,3.195026,3.1952686,3.195662,3.1961298,3.1964765,3.196652,3.196723,3.1967301,3.196735,3.196828,3.1970506,3.1975021,3.1982446,3.1992235,3.200265,3.2011597,3.2019176,3.2024674,3.203003,3.2035608,3.2040424,3.204392,3.2046404,3.2048724,3.205026,3.2050989,3.205159,3.205226,3.205275,3.2053041,3.205308,3.2051284,3.2050123,3.2050567,3.2052474,3.2054913,3.2056403,3.2056303,3.2056942,3.20616,3.2065718,3.206754,3.206829,3.2068186,3.2067442,3.206398,3.2059722
3.176743,3.179865,3.1832514,3.1871448,3.1911936,3.1949322,3.1982527,3.2012389,3.2038555,3.2060199,3.2079482,3.2097893,3.2113328,3.2124991,3.2134697,3.214366,3.2149937,3.2156048,3.2162576,3.2170234,3.2179189,3.2189734,3.2201688,3.221353,3.2224777,3.2234898,3.224423,3.2252731,3.2260332,3.226686,3.227179,3.2275622,3.22789,3.2282097,3.2284539,3.2285914,3.2286339,3.2286181,3.2286177,3.22858,3.2286115,3.2286816,3.2287774,3.2289038,3.2290835,3.2293556,3.2297287,3.230211,3.2307463,3.2312703,3.231749,3.2322025,3.2326665,3.233094,3.2335882,3.234156,3.2348363,3.235701,3.236779,3.238021,3.239351,3.2408504,3.2424576,3.2441237,3.2457557,3.247292,3.248773,3.2502377,3.2517893,3.2534738,3.255158,3.256751,3.2582002,3.2594562,3.2605157,3.2614574,3.2623065,3.2631295,3.2639325,3.264676,3.26533,3.265892,3.2664196,3.2669864,3.267575,3.2681599,3.2686496,3.2689745,3.2691472,3.2692006,3.2691984,3.2691154,3.2689528,3.2686987,3.268332,3.2678409,3.2672558,3.2664824,3.2654982,3.2643108,3.2629879,3.2615833,3.260114,3.258628,3.2570622,3.255355,3.2534976,3.2515619,3.2496161,3.247713,3.2459412,3.2442963,3.2426853,3.2413087,3.240264,3.239559,3.239075,3.2386088,3.238067,3.237465,3.236816,3.2363157,3.2361715,3.2363997,3.236888,3.2376113,3.2384381,3.2392967,3.2401962,3.2411542,3.2422094,3.2433805,3.2445726,3.245761,3.2468836,3.2478676,3.2487416,3.249538,3.2502584,3.2509413,3.2516122,3.2522154,3.2527056,3.253048,3.253223,3.253224,3.2530854,3.2528934,3.252676,3.2524595,3.2523007,3.252236,3.2522554,3.2522938,3.2523165,3.2522974,3.2522664,3.252297,3.2524545,3.2527657,3.2531936,3.253666,3.254157,3.2546873,3.2551646,3.2555256,3.255766,3.2559252,3.2560725,3.2562377,3.2564535,3.2566876,3.2568789,3.256979,3.2569685,3.2568593,3.2567053,3.2565546,3.256394,3.2561967,3.2559242,3.2555656,3.2551463,3.254655,3.2540588,3.253325,3.2525134,3.251678,3.2508962,3.2502496,3.2497244,3.2491965,3.2486029,3.247934,3.2472463,3.2466295,3.2461133,3.2456384,3.2451372,3.2444572,3.2436733,3.2427685,3.2418232,3.2409756,3.2402453,3.2395818,3.2389493,3.2383466,3.237776,3.237277,3.2368646,3.2364912,3.2361088,3.2357388,3.2353559,3.2348828,3.2342849,3.2335055,3.232531,3.2315378,3.2303796,3.2291648,3.2279906,3.2268624,3.2257502,3.224646,3.2235775,3.2225304,3.2215347,3.2205935,3.2197242,3.218955,3.2183356,3.2179122,3.2175572,3.2173285,3.2171247,3.216992,3.2168112,3.2164545,3.2159872,3.215427,3.2147474,3.2138948,3.2127647,3.2113273,3.20962,3.2077188,3.205804,3.2038834,3.202017,3.2003367,3.1988852,3.1976547,3.1966028,3.1956513,3.1947536,3.1940174,3.193388,3.1929712,3.1928585,3.1929743,3.193187,3.1935737,3.1940937,3.194713,3.195207,3.195498,3.195646,3.1956902,3.195678,3.195734,3.1959305,3.1963925,3.197175,3.1982021,3.1992857,3.2002025,3.200943,3.2014732,3.201971,3.2024553,3.2028224,3.2030277,3.2031226,3.203189,3.2031665,3.2030559,3.2029166,3.2027721,3.2026117,3.202436,3.202227,3.2017732,3.2012777,3.200865,3.2005532,3.2003033,3.2000306,3.1996408,3.1993053,3.1993394,3.1992927,3.199039,3.1987357,3.19841,3.1981268,3.1976469,3.1970944
3.1669562,3.1704488,3.1743627,3.178904,3.1836395,3.188167,3.1919687,3.1950345,3.1976519,3.1993487,3.2009559,3.202545,3.2039747,3.2052693,3.2065635,3.207837,3.208871,3.2099013,3.2110147,3.2122526,3.2135925,3.215018,3.216484,3.2178495,3.219104,3.220221,3.2212205,3.2221034,3.2228615,3.2234707,3.2238889,3.2241921,3.2244277,3.2246656,3.2248716,3.224986,3.225017,3.225031,3.225047,3.225059,3.2251616,3.225305,3.225463,3.2256382,3.22585,3.2261283,3.2264934,3.226939,3.2274241,3.2278981,3.2283275,3.2287307,3.2291439,3.2295074,3.2299309,3.2304296,3.23108,3.2319012,3.232924,3.2342186,3.2356687,3.237331,3.239116,3.2409444,3.242758,3.2445164,3.2462146,3.2478619,3.2495627,3.251355,3.2531595,3.2548826,3.2564487,3.2578163,3.2589855,3.2600565,3.261075,3.2620099,3.2629051,3.2637525,3.2644935,3.265127,3.2657213,3.2663617,3.2670121,3.267642,3.2681413,3.268414,3.2684736,3.268375,3.2681422,3.267789,3.2672856,3.2666285,3.265851,3.2649841,3.264069,3.2630057,3.261725,3.2602806,3.2587814,3.2573023,3.2558465,3.254405,3.2529044,3.2513013,3.2495563,3.2477033,3.2458382,3.2440147,3.2422214,3.24047,3.2387667,3.2372656,3.2359936,3.2349515,3.2340994,3.2333336,3.2326074,3.2319577,3.2312815,3.2307017,3.2305627,3.2309694,3.2316923,3.2326736,3.2337437,3.234792,3.235798,3.2367628,3.2377663,3.2388806,3.2399817,3.2409606,3.24192,3.2428198,3.2436924,3.2445421,3.245339,3.246121,3.2469244,3.2477338,3.248471,3.2490425,3.2493865,3.2494771,3.2493424,3.2490997,3.248723,3.248345,3.2480638,3.2479246,3.2479167,3.2479563,3.2479706,3.2479692,3.247985,3.2480924,3.2483358,3.2487228,3.2492166,3.249742,3.2502532,3.2507763,3.2511926,3.2514443,3.2515595,3.2516065,3.2516694,3.2517838,3.251957,3.2521715,3.2523913,3.252581,3.2527194,3.2528067,3.252874,3.2529013,3.2528875,3.2528372,3.2527165,3.2524939,3.252162,3.2516685,3.250968,3.2500768,3.2490933,3.248104,3.2471838,3.2463984,3.2457645,3.2452016,3.244658,3.2440712,3.2434826,3.2429624,3.2425196,3.2421117,3.2416444,3.2409794,3.2401721,3.2391832,3.2381003,3.2370913,3.236197,3.2353861,3.2346342,3.2339296,3.2332819,3.2327135,3.2322252,3.2317934,3.231403,3.2310715,3.230771,3.2304351,3.2300265,3.229468,3.2287135,3.227894,3.2268236,3.2255905,3.2242923,3.2229903,3.221692,3.2204022,3.2191792,3.2179923,3.2168736,3.2158196,3.2148583,3.214022,3.213345,3.2128632,3.2124765,3.2122145,3.21197,3.2118258,3.2116413,3.2112389,3.2106771,3.209962,3.2091157,3.2081366,3.2069926,3.2055802,3.2038817,3.2020288,3.2001734,3.1982665,3.1963243,3.1945305,3.1929717,3.1916962,3.1907058,3.1898866,3.1891565,3.188561,3.187996,3.1876123,3.1875644,3.187757,3.1880002,3.1884637,3.1891284,3.1897197,3.1901207,3.1903863,3.1905613,3.190643,3.19074,3.1909828,3.191279,3.1917684,3.1925416,3.1935563,3.1946564,3.1955872,3.1963234,3.1968088,3.197248,3.1976824,3.19802,3.1982195,3.1983168,3.198359,3.198275,3.1980557,3.197754,3.1974258,3.1971054,3.1968098,3.1965423,3.1960087,3.195376,3.1947842,3.194273,3.1937718,3.1931672,3.192466,3.1918302,3.191421,3.1908517,3.1901312,3.189455,3.1888037,3.1882741,3.1876101,3.1870184
3.1633167,3.166714,3.170528,3.175119,3.1800203,3.184267,3.1875243,3.189969,3.191742,3.192999,3.1942225,3.1954966,3.1967518,3.1980548,3.199494,3.2009788,3.2022882,3.203629,3.205103,3.2067177,3.2084131,3.2101312,3.2117968,3.2132702,3.2145705,3.2156875,3.216643,3.2174506,3.2181187,3.2186377,3.2189755,3.219214,3.219393,3.2195868,3.2197638,3.2199004,3.220024,3.220183,3.2203908,3.2206092,3.2208796,3.2211123,3.2212653,3.2213602,3.2214577,3.221621,3.2218735,3.222206,3.2225933,3.2230024,3.2234058,3.2238135,3.2242434,3.2246234,3.22504,3.2255058,3.2261367,3.22701,3.2281742,3.2296658,3.2313397,3.2332475,3.235263,3.2372932,3.2393088,3.2412834,3.2431846,3.2450087,3.2468762,3.2488143,3.250733,3.2525244,3.254128,3.2555335,3.2567492,3.2578905,3.2590547,3.2602124,3.261353,3.2624035,3.2632875,3.2640343,3.2647114,3.2653728,3.2659988,3.2665753,3.2669988,3.2671673,3.2670903,3.2668347,3.2663872,3.2657542,3.2649388,3.2639313,3.2627788,3.2615623,3.260304,3.2588935,3.2572684,3.2555356,3.2538257,3.2522392,3.2508154,3.2495236,3.2482414,3.2468028,3.2452054,3.2435,3.241793,3.2401118,3.2383575,3.236599,3.23488,3.233335,3.2319336,3.2306478,3.2294793,3.2284014,3.2274096,3.2265859,3.225874,3.2254062,3.2254276,3.2260275,3.2270637,3.228385,3.2297564,3.2310476,3.2322218,3.2332745,3.2342305,3.2351522,3.2360864,3.236991,3.2379117,3.238823,3.23977,3.2407436,3.2416978,3.2426622,3.2435641,3.2444563,3.2452855,3.2459474,3.246365,3.2465014,3.246367,3.2460928,3.2456665,3.2452152,3.2448463,3.2446208,3.2445488,3.2445679,3.2446127,3.244679,3.24479,3.2449994,3.2453294,3.245779,3.246318,3.246876,3.2474027,3.2479177,3.2483015,3.2485073,3.248564,3.2485414,3.2485397,3.248598,3.2487264,3.2489285,3.2491827,3.2494535,3.24971,3.2499337,3.2501388,3.2503176,3.250453,3.2505355,3.250515,3.2503448,3.2500129,3.2494617,3.248673,3.247652,3.2465088,3.2453594,3.2443032,3.243413,3.2427125,3.2421122,3.24156,3.2410016,3.2404504,3.2399454,3.2394867,3.2390444,3.238555,3.2378926,3.2371087,3.2361336,3.2350118,3.2338872,3.2328148,3.2318351,3.2309084,3.2300563,3.2293005,3.228653,3.228106,3.2276359,3.227218,3.2268586,3.2265444,3.2262144,3.225831,3.225336,3.2246952,3.224007,3.2230625,3.2219243,3.2206507,3.2193131,3.2179642,3.2166467,3.2154326,3.2142682,3.2131624,3.2120795,3.211036,3.2100773,3.2092502,3.2085984,3.2080317,3.207579,3.2071528,3.2068694,3.2065759,3.2060661,3.205407,3.2046065,3.2036653,3.2026248,3.2014594,3.200107,3.1984892,3.196621,3.1947384,3.192748,3.190632,3.18861,3.1868184,3.1853452,3.1842196,3.183333,3.182571,3.1820152,3.18167,3.181547,3.1817489,3.1821682,3.1824853,3.1830907,3.1837502,3.184227,3.1844559,3.1845913,3.1847448,3.184884,3.1850684,3.18543,3.185874,3.1865404,3.1874685,3.1885855,3.1897607,3.1907442,3.1915197,3.1920485,3.1924734,3.192882,3.1932433,3.1934948,3.1936288,3.1936908,3.193622,3.193406,3.1930761,3.1927137,3.1923785,3.1920524,3.1917627,3.1912389,3.190597,3.1899447,3.1892905,3.1885917,3.1878104,3.186934,3.1860723,3.1854048,3.1845422,3.1835356,3.1826062,3.181728,3.1810243,3.1802473,3.179657
3.1621103,3.1654086,3.1689231,3.173296,3.1780815,3.1821117,3.1850996,3.1871915,3.1884851,3.18971,3.190823,3.1920047,3.1932185,3.194491,3.195898,3.1974006,3.1987944,3.2002683,3.2019286,3.2037587,3.2056656,3.2075543,3.2093246,3.210841,3.212131,3.2131891,3.2140622,3.2147832,3.215379,3.2158518,3.2161655,3.2163897,3.2165477,3.2166965,3.216795,3.2168694,3.2169929,3.2172117,3.2175283,3.2178445,3.2181468,3.2183027,3.218272,3.2181268,3.2179961,3.2179742,3.2180836,3.2183275,3.2187006,3.2191727,3.2196999,3.2202556,3.2208195,3.2213092,3.221786,3.2222586,3.2228851,3.2238336,3.2251687,3.2268405,3.2287,3.2308025,3.2330155,3.2352517,3.2374763,3.2396383,3.2416978,3.243694,3.245708,3.2477763,3.2497916,3.2516398,3.253274,3.254705,3.255952,3.257143,3.258408,3.2597609,3.2611194,3.2623472,3.2633595,3.264168,3.2648506,3.265465,3.2660093,3.2664957,3.2668414,3.2669468,3.266809,3.2664847,3.265949,3.265207,3.264279,3.2631226,3.2617788,3.260373,3.2588987,3.257216,3.2552967,3.2532086,3.2511182,3.249212,3.2476068,3.246337,3.2452455,3.2441616,3.2428925,3.2414393,3.239874,3.2382002,3.236424,3.2346613,3.2328937,3.2312698,3.22973,3.2282038,3.2266984,3.2252488,3.223885,3.222761,3.2219877,3.221603,3.2217755,3.2226062,3.2239418,3.2255664,3.227211,3.2287195,3.2300444,3.2311835,3.232131,3.232944,3.2337763,3.2347503,3.2357917,3.2368574,3.2379892,3.2391706,3.2403297,3.2414513,3.242425,3.2433605,3.2442203,3.2448936,3.2453096,3.2454326,3.2452588,3.244932,3.2444742,3.2439728,3.2435312,3.2432256,3.243085,3.2430687,3.2431273,3.243226,3.2433786,3.2436209,3.2439678,3.2444239,3.2449698,3.2455359,3.2460804,3.2466063,3.247006,3.2472384,3.2473145,3.247288,3.2472734,3.2473142,3.247434,3.2476459,3.2479277,3.2482338,3.2485213,3.248764,3.2489777,3.2491992,3.249393,3.249527,3.249535,3.24936,3.2489915,3.248396,3.2475786,3.246513,3.2453036,3.2440782,3.2429607,3.2420382,3.2413192,3.2406864,3.2400808,3.2394733,3.2388678,3.2382932,3.2377572,3.2372384,3.236709,3.2360454,3.235299,3.2343793,3.2332873,3.2321358,3.230989,3.229929,3.2289088,3.2279787,3.227168,3.2264814,3.2259073,3.2254179,3.224965,3.2245483,3.2241735,3.2237883,3.2233624,3.2228584,3.2222629,3.2216637,3.220842,3.2198353,3.2186756,3.2174215,3.2161489,3.21493,3.213831,3.212788,3.2117953,3.2107787,3.2097347,3.2087045,3.2077537,3.2069502,3.206211,3.2055755,3.2049718,3.2045307,3.2041006,3.2034793,3.202744,3.20191,3.2009215,3.199819,3.1985621,3.1971273,3.1954358,3.1934495,3.191425,3.1892514,3.1868634,3.1845233,3.1823983,3.1805959,3.1791904,3.1781287,3.1772368,3.1766453,3.1763577,3.1764154,3.1769047,3.1776657,3.1783226,3.1791406,3.1798127,3.1802995,3.1805682,3.1807764,3.1810455,3.181305,3.1815543,3.1819308,3.1824236,3.1831899,3.1842299,3.1854224,3.1866264,3.1876168,3.188394,3.188961,3.1894162,3.1898556,3.1902735,3.190611,3.190858,3.191017,3.1910517,3.190924,3.1906762,3.1903884,3.1901107,3.189839,3.1896293,3.1892378,3.1887474,3.1882198,3.187604,3.1868925,3.1861486,3.1852922,3.1843967,3.1837056,3.1827927,3.1816785,3.1806028,3.1795785,3.1787617,3.1779149,3.177322
3.1644244,3.168384,3.1720195,3.1761737,3.1806293,3.184947,3.1883793,3.1905918,3.1920276,3.1932437,3.194274,3.1953382,3.1964185,3.197535,3.198774,3.200134,3.201437,3.2028718,3.204544,3.2064247,3.208395,3.2103271,3.2121062,3.2136064,3.2148623,3.2158794,3.2167215,3.2174368,3.2180529,3.2185702,3.218946,3.2192268,3.21942,3.2195632,3.2196112,3.2196069,3.2195969,3.2196102,3.219778,3.2199788,3.2201443,3.2201111,3.2198365,3.2193894,3.2189264,3.2186437,3.2185693,3.2186937,3.2190175,3.2195354,3.220197,3.2209249,3.2216582,3.2223115,3.2229142,3.223485,3.2241979,3.225215,3.2266064,3.2283444,3.2302494,3.2323596,3.2345657,3.2368083,3.2390804,3.2413335,3.24352,3.2457037,3.247912,3.250179,3.2524168,3.2544832,3.256294,3.2578616,3.2592258,3.2605348,3.2619157,3.2633646,3.264794,3.266083,3.267138,3.2679267,3.2685356,3.2690854,3.2695599,3.2699866,3.2702994,3.2704003,3.2702777,3.2699842,3.269507,3.268782,3.2678006,3.26659,3.2652307,3.263795,3.2622647,3.260463,3.2583437,3.2559311,3.253429,3.2511103,3.2491875,3.2477896,3.2467642,3.246116,3.2453372,3.244256,3.2428818,3.2412357,3.2394633,3.23769,3.2358413,3.2340622,3.2322636,3.2303352,3.2283132,3.2263355,3.2244906,3.2230587,3.2220662,3.2215347,3.2218223,3.2230198,3.2246802,3.226582,3.228486,3.2301931,3.2316353,3.232809,3.2338047,3.2347567,3.2357004,3.236812,3.2380118,3.2392592,3.2405925,3.241981,3.2433257,3.2445836,3.2457361,3.2468553,3.2478323,3.248562,3.2490063,3.2491298,3.2489216,3.2485406,3.2480092,3.2474375,3.2469401,3.246594,3.2464314,3.2464066,3.2464473,3.246513,3.2466173,3.2467983,3.2470798,3.247479,3.247983,3.248527,3.249076,3.2496278,3.2500765,3.2503734,3.2505145,3.2505412,3.2505755,3.2506657,3.2508361,3.2510943,3.2514107,3.2517276,3.251996,3.2521992,3.2523644,3.252529,3.2526646,3.25275,3.252727,3.252533,3.252146,3.251543,3.2507205,3.2496533,3.2484424,3.2472155,3.2460957,3.2451673,3.2444322,3.2437744,3.2431273,3.242453,3.2417643,3.2411036,3.2404914,3.2399175,3.239349,3.2386644,3.2379155,3.2370121,3.235951,3.2348375,3.233738,3.2327101,3.2317219,3.2308197,3.2300305,3.2293487,3.228754,3.2282221,3.227713,3.2272205,3.2267628,3.2263126,3.2258592,3.2253628,3.2248006,3.224257,3.2234974,3.2225509,3.2214532,3.2202716,3.219087,3.2179723,3.2169857,3.2160683,3.2152133,3.214314,3.2133436,3.2123263,3.2113276,3.2104442,3.2096126,3.2088697,3.20815,3.2076075,3.2071035,3.206431,3.205657,3.20478,3.2037354,3.2024922,3.2010262,3.1993346,3.1974332,3.1953592,3.193227,3.190895,3.1882243,3.1854649,3.1828444,3.1805906,3.178886,3.1776977,3.176736,3.176172,3.1758208,3.1759098,3.176549,3.1775246,3.1786203,3.1797287,3.1806865,3.1814647,3.1820602,3.182612,3.1831746,3.1836317,3.1840014,3.18442,3.1848836,3.1855872,3.1865683,3.1877103,3.1888583,3.189794,3.1905167,3.1910534,3.1915426,3.192066,3.1925926,3.1930726,3.1935081,3.1938596,3.1940699,3.1940722,3.1939216,3.1936953,3.1934667,3.1933181,3.193283,3.1931186,3.192908,3.192679,3.192329,3.1918297,3.1912682,3.1905825,3.1898584,3.1892962,3.1884513,3.1873322,3.186185,3.1850612,3.1841614,3.1832592,3.1826649
3.1730375,3.1790853,3.1837685,3.1881316,3.192392,3.196696,3.2003577,3.2027512,3.2041905,3.2053118,3.2061749,3.207007,3.2078164,3.2086518,3.209623,3.2107477,3.2118602,3.2131438,3.214712,3.216528,3.2184467,3.2203183,3.2220247,3.2234473,3.2246253,3.2255826,3.2263958,3.2271183,3.2277818,3.2283845,3.2288675,3.2292442,3.2295184,3.229703,3.2297387,3.229688,3.229501,3.229151,3.229102,3.2292187,3.2293277,3.2291987,3.228727,3.2279112,3.2269464,3.2262406,3.2258224,3.2256503,3.225737,3.2261572,3.2268782,3.2277513,3.228652,3.229497,3.2302396,3.230918,3.2317085,3.2327647,3.2341685,3.235914,3.2377605,3.2396998,3.2416334,3.2435777,3.245618,3.2477865,3.2500591,3.252431,3.2549725,3.257667,3.2603393,3.2627585,3.2648084,3.2665257,3.2679892,3.269381,3.2708147,3.2722893,3.273727,3.2749853,3.275971,3.276702,3.2772474,3.277727,3.27813,3.278504,3.2787929,3.2789004,3.2788181,3.278602,3.2782407,3.2775004,3.2764187,3.2752452,3.2740946,3.2728417,3.2714581,3.2697484,3.267597,3.2651215,3.2625127,3.260025,3.2579541,3.2565055,3.2555318,3.2550316,3.2545545,3.2537913,3.2526789,3.251248,3.249563,3.24778,3.2458386,3.2438712,3.2417502,3.2393227,3.23666,3.234018,3.2315445,3.2296567,3.22812,3.227406,3.2279928,3.2296603,3.2317293,3.2339356,3.2360878,3.2379594,3.2394702,3.2406297,3.2416406,3.2427444,3.243893,3.2452028,3.246526,3.247869,3.2492955,3.2507787,3.2522557,3.2537591,3.2552614,3.2566938,3.257836,3.2586546,3.2591658,3.259324,3.2591271,3.2587376,3.2581723,3.2575655,3.2570488,3.2567067,3.2565603,3.2565432,3.2565784,3.256617,3.2566726,3.256783,3.2569926,3.257329,3.2577758,3.2582784,3.258819,3.259396,3.2599008,3.2602668,3.260471,3.26055,3.2606277,3.2607512,3.2609496,3.2612295,3.261552,3.2618496,3.2620728,3.2622132,3.2623053,3.262385,3.2624373,3.262445,3.2623549,3.2621093,3.2616858,3.2610583,3.2602227,3.2591481,3.2579339,3.2567034,3.2555773,3.2546415,3.2538993,3.2532253,3.2525477,3.25183,3.2510886,3.2503743,3.2497177,3.2491193,3.248548,3.2478852,3.2471895,3.2463713,3.2454062,3.2443776,3.2433567,3.2423987,3.2414632,3.2406034,3.2398424,3.2391732,3.2385683,3.2379975,3.237429,3.2368567,3.2362938,3.2357438,3.2352214,3.2346904,3.2341166,3.2335753,3.2328393,3.2319245,3.2308636,3.229728,3.22861,3.2275891,3.2267172,3.2259417,3.225248,3.2244914,3.2236207,3.2226424,3.2216227,3.2206783,3.2197547,3.218893,3.2180512,3.217412,3.2168503,3.2161486,3.2153568,3.2144647,3.2133899,3.211988,3.2102113,3.2082438,3.2062354,3.2041445,3.20197,3.199471,3.1964695,3.1931705,3.1899,3.187111,3.1851301,3.183846,3.182841,3.1824234,3.1823688,3.1827245,3.1834736,3.1845047,3.1858263,3.1873398,3.1887813,3.1900616,3.191104,3.1920366,3.192934,3.1936646,3.1942277,3.1947494,3.1952422,3.1959486,3.1969213,3.1980567,3.1992192,3.2001586,3.2008739,3.2014227,3.2019482,3.2025654,3.2032585,3.203933,3.2045262,3.205069,3.2054589,3.2056165,3.2055542,3.2053657,3.205206,3.2051911,3.2052639,3.2052698,3.2052937,3.2053163,3.2051926,3.2048883,3.204513,3.204031,3.2035205,3.2031708,3.202503,3.201509,3.200426,3.1993103,3.1984162,3.1975546,3.1970038
3.1785781,3.187508,3.1938782,3.1994982,3.2044318,3.2088516,3.212589,3.2154002,3.217307,3.2184033,3.2191968,3.219916,3.2205644,3.2212014,3.2219522,3.2228413,3.223726,3.2247865,3.2261252,3.2277317,3.2294583,3.2311544,3.2327096,3.2340074,3.2350898,3.2359924,3.2368078,3.2375913,3.238373,3.2391405,3.239809,3.2403579,3.2407868,3.2410936,3.241243,3.2410645,3.240687,3.2404625,3.2402463,3.2403307,3.240448,3.2401853,3.2391398,3.2375069,3.2358785,3.2344623,3.233289,3.2324624,3.2323132,3.2329197,3.234078,3.2354507,3.2367277,3.237792,3.238562,3.2390902,3.2396834,3.2405639,3.2418022,3.2433949,3.2451031,3.246919,3.2487426,3.250607,3.252612,3.254793,3.2571223,3.259588,3.2622266,3.2650156,3.2677407,3.270144,3.2721095,3.2737029,3.275025,3.276292,3.2776732,3.2791116,3.2805119,3.2816482,3.2824044,3.282976,3.2834635,3.283929,3.2843387,3.2847078,3.2849731,3.2850575,3.2849844,3.2848434,3.2843328,3.2836719,3.283036,3.2825036,3.2820168,3.2814245,3.2806423,3.2795048,3.2777996,3.2755444,3.2729607,3.2703702,3.268114,3.2664866,3.2654014,3.2646735,3.2640681,3.2633963,3.2624788,3.2611742,3.2595177,3.2576907,3.255653,3.253521,3.2510843,3.2481344,3.244804,3.2414718,3.2382627,3.235343,3.233423,3.2329154,3.2339377,3.2360334,3.2384143,3.2408056,3.2430642,3.2449374,3.2463741,3.2474306,3.2483468,3.2493868,3.250517,3.2518466,3.2533045,3.2547474,3.2562215,3.2577562,3.2593284,3.2610018,3.2627597,3.264481,3.265971,3.2671382,3.26785,3.2680387,3.2678652,3.2674937,3.266811,3.2660913,3.2655659,3.2653525,3.2653544,3.2653503,3.2653568,3.265355,3.2653604,3.265405,3.2655447,3.2658167,3.2662017,3.2666554,3.2671807,3.2677732,3.2683296,3.2687712,3.2690594,3.2692182,3.2693558,3.2695246,3.269751,3.2700408,3.27035,3.270606,3.27076,3.2708201,3.2708216,3.2707996,3.270747,3.2706554,3.2704792,3.2701678,3.2697055,3.269063,3.2682304,3.2671728,3.2659807,3.2647665,3.2636487,3.2627144,3.2619648,3.2612717,3.2605586,3.2597938,3.2589984,3.2582285,3.2575288,3.2569091,3.2563372,3.2557085,3.2550888,3.254388,3.253491,3.2524686,3.2515335,3.250686,3.249888,3.2491648,3.2485046,3.2478833,3.2472699,3.2466383,3.245994,3.2453518,3.244669,3.2439833,3.2433374,3.242705,3.242061,3.2414799,3.2407384,3.2398396,3.2388015,3.2376916,3.2366087,3.2356422,3.2348495,3.2341845,3.2336283,3.2330108,3.2322564,3.2313566,3.23037,3.2294202,3.2284636,3.227541,3.2266366,3.2259307,3.2253103,3.224575,3.2237608,3.2228434,3.2216654,3.2201161,3.2182088,3.2161474,3.2140918,3.2120223,3.2099216,3.2073095,3.2037995,3.2000132,3.196239,3.1928682,3.1904402,3.1889195,3.1878712,3.1875439,3.1877875,3.1883106,3.1892016,3.1906438,3.1923885,3.1942677,3.1960132,3.1976752,3.1992126,3.2007008,3.202135,3.203316,3.204197,3.2048724,3.2053661,3.2060509,3.2070456,3.208272,3.2095804,3.2105777,3.2113404,3.211958,3.212582,3.213314,3.2141654,3.2150717,3.2159214,3.2166657,3.2172575,3.2175937,3.2177277,3.217722,3.2176535,3.2176743,3.2178912,3.2180886,3.2183695,3.218676,3.2188234,3.2187767,3.2186599,3.21842,3.2181964,3.2181635,3.2178092,3.2171228,3.21632,3.2154179,3.2146993,3.2140086,3.2136014
3.1830459,3.194939,3.204234,3.2116413,3.2175956,3.222596,3.2267072,3.2298007,3.2319522,3.2332582,3.2339854,3.2344544,3.234743,3.2350159,3.2354798,3.2361915,3.2369962,3.2380452,3.2394338,3.240994,3.2425632,3.2440662,3.2454433,3.2465866,3.2475314,3.2483232,3.2490716,3.249849,3.2506936,3.251583,3.252404,3.2530997,3.253694,3.2541938,3.2544188,3.25408,3.2534614,3.25324,3.2533607,3.253789,3.253819,3.2531643,3.251565,3.249126,3.2464342,3.2440543,3.2419457,3.2403507,3.239841,3.240522,3.2420583,3.243922,3.245619,3.2469978,3.2479444,3.248509,3.249033,3.2497773,3.2508483,3.2522788,3.2538443,3.2555363,3.2572489,3.2590208,3.260964,3.2631202,3.2654626,3.2679725,3.270658,3.2734666,3.276143,3.2784057,3.2801495,3.2814684,3.2824836,3.2834272,3.2844799,3.2855582,3.2865663,3.287374,3.2878985,3.288208,3.2884936,3.288804,3.2891154,3.2894506,3.2897062,3.2897549,3.289627,3.2894669,3.289218,3.2890418,3.289105,3.2894251,3.2898622,3.2902124,3.2903175,3.2897258,3.2885518,3.2868524,3.2847636,3.282322,3.2797709,3.2778478,3.2761455,3.2749152,3.2741718,3.273584,3.2727656,3.2715082,3.2698188,3.2679935,3.2656927,3.2631216,3.2602735,3.2568655,3.2528372,3.2486038,3.2443895,3.240785,3.2387357,3.2385206,3.2400646,3.2427301,3.245527,3.248135,3.250464,3.2522502,3.253509,3.2543645,3.2550967,3.2559977,3.257052,3.2583463,3.2597766,3.2611637,3.2625313,3.2639146,3.265325,3.2668738,3.26854,3.2703495,3.2721033,3.2735405,3.2744613,3.2747755,3.2745388,3.2739925,3.2731872,3.2724097,3.271908,3.2717876,3.2719824,3.2722778,3.2724764,3.2724962,3.272355,3.2721276,3.271967,3.272009,3.272276,3.2727118,3.2733245,3.274081,3.2748556,3.2755103,3.2759476,3.2761908,3.2764006,3.276651,3.2769966,3.277447,3.2779112,3.2782545,3.2784085,3.2784076,3.2783232,3.2782335,3.2781668,3.2781115,3.2779717,3.27768,3.2772539,3.2766633,3.2758787,3.2748513,3.2736778,3.2724676,3.2713556,3.2704535,3.2697268,3.2690368,3.2682912,3.2674634,3.266588,3.2657623,3.2650642,3.2644825,3.263952,3.2633586,3.2627282,3.262005,3.2611728,3.260314,3.2595224,3.258791,3.2580774,3.257398,3.2567441,3.2560978,3.2554302,3.2547154,3.253972,3.2531962,3.2524047,3.25165,3.2509692,3.2502863,3.2495255,3.2487931,3.2478542,3.2467167,3.2454886,3.2442532,3.2431295,3.2422347,3.2415814,3.2411299,3.240822,3.2404053,3.2397416,3.2387435,3.2375,3.2363176,3.2351804,3.234135,3.2331805,3.2325485,3.2321763,3.2318223,3.2313418,3.2304628,3.2292871,3.2276855,3.2256942,3.2235527,3.2215095,3.2195458,3.2174037,3.2145824,3.2109437,3.2068949,3.202624,3.1986356,3.195623,3.1936283,3.1922612,3.1919084,3.1923547,3.193503,3.1950603,3.196787,3.198731,3.2003722,3.2018867,3.2037096,3.2060065,3.2081969,3.2098823,3.2113786,3.2125654,3.2134886,3.214204,3.2151113,3.2163382,3.2178216,3.2194347,3.2207747,3.221847,3.2227025,3.2235038,3.2244263,3.2254949,3.226602,3.2276387,3.2285547,3.2293158,3.2297993,3.2300599,3.2301488,3.230142,3.2302337,3.2305589,3.2309294,3.231467,3.2320662,3.232504,3.232738,3.2328944,3.2329502,3.233077,3.2334456,3.2335606,3.2333317,3.232932,3.2324145,3.231999,3.2315452,3.2313166
3.1806302,3.1975033,3.21045,3.2213492,3.229823,3.2364342,3.2414398,3.2449188,3.2472475,3.248644,3.2493038,3.2495546,3.2495637,3.249589,3.2498937,3.2505493,3.2513843,3.252494,3.2539663,3.2555647,3.257039,3.258353,3.259544,3.2605028,3.2612534,3.2618518,3.2624242,3.2630687,3.2638516,3.264757,3.2656476,3.266467,3.2670493,3.2674103,3.2674747,3.2671723,3.2668037,3.2668867,3.2674375,3.2680125,3.2680511,3.267087,3.2647567,3.2611663,3.2570894,3.2534902,3.2500577,3.247567,3.2467437,3.247591,3.2495704,3.251942,3.254037,3.2556872,3.2567997,3.2574306,3.257946,3.2586262,3.2595973,3.2609196,3.262383,3.263977,3.265582,3.2672224,3.2689972,3.2709417,3.2730303,3.2752638,3.2776136,3.279998,3.2821684,3.283866,3.285033,3.2858105,3.286335,3.2868278,3.287465,3.2881575,3.2888117,3.2893496,3.289702,3.2898679,3.2900782,3.2903907,3.2907534,3.2911587,3.291448,3.291452,3.2912264,3.2909982,3.2908635,3.2909756,3.2915163,3.2924776,3.2936702,3.2948494,3.2957993,3.296208,3.2959943,3.2951007,3.2935517,3.291442,3.2891397,3.2872987,3.285523,3.2843375,3.2838352,3.2835531,3.2829776,3.2819033,3.2803063,3.2780247,3.2753463,3.272604,3.2696176,3.2658215,3.2610514,3.2558646,3.250664,3.2464051,3.244164,3.2441797,3.2462788,3.2496133,3.2529144,3.2557719,3.2581556,3.259793,3.2608032,3.261415,3.2619386,3.2626548,3.2635586,3.2647083,3.265931,3.2670856,3.2682009,3.2693093,3.2704592,3.2718096,3.2733388,3.2751436,3.2770374,3.278688,3.2798362,3.2803392,3.2801871,3.279641,3.2788363,3.2780771,3.2776206,3.277575,3.2779045,3.2783985,3.278747,3.2788477,3.2786992,3.27838,3.2780862,3.277999,3.2781687,3.2785568,3.2791827,3.2799962,3.2808874,3.2816873,3.282253,3.2825894,3.282875,3.283189,3.2836082,3.284152,3.284706,3.285101,3.2852573,3.285227,3.2851014,3.2849822,3.2849126,3.2848759,3.284771,3.2845206,3.28413,3.2835817,3.2828455,3.2818592,3.2807057,3.2794862,3.2783484,3.277433,3.276722,3.276034,3.2752666,3.2743938,3.2734532,3.2725627,3.271813,3.2711804,3.2705936,3.2699356,3.2692728,3.2685869,3.2678826,3.2672012,3.2665524,3.2659256,3.265267,3.2646182,3.2639747,3.2632952,3.2625325,3.2616768,3.2607682,3.2597976,3.2588377,3.257946,3.2571468,3.256347,3.2554474,3.2545495,3.2534409,3.2520585,3.2505116,3.2489438,3.2475352,3.2464516,3.2457526,3.2453842,3.2451677,3.2448192,3.2441373,3.2430377,3.2416763,3.2404041,3.2392216,3.2381814,3.2372904,3.2368011,3.236662,3.2366266,3.2365441,3.2361403,3.2352843,3.2336874,3.231597,3.2294447,3.2273529,3.225173,3.2229674,3.2203512,3.2170045,3.2130802,3.2085555,3.2039704,3.2002506,3.197637,3.1958766,3.195557,3.1964192,3.1983724,3.2008877,3.2031956,3.2050314,3.206361,3.2074409,3.2089412,3.2112572,3.214024,3.216617,3.218748,3.2202115,3.221116,3.2216637,3.2225127,3.2238894,3.2257159,3.2278314,3.229702,3.2312102,3.232481,3.2336774,3.2349172,3.2361426,3.2372656,3.2383323,3.2392633,3.240056,3.240563,3.2408378,3.240884,3.2407992,3.2409325,3.241384,3.2418957,3.2426476,3.2434945,3.2441702,3.2446222,3.244988,3.245303,3.245768,3.2465806,3.2472792,3.2476914,3.247919,3.248002,3.2480621,3.247985,3.248057
3.1667395,3.1928039,3.2109904,3.2268946,3.2393749,3.2484844,3.2549396,3.2594357,3.2624187,3.2641604,3.2650228,3.2652845,3.2651682,3.2650313,3.265214,3.2658193,3.2666707,3.2678134,3.26925,3.2706861,3.2719617,3.2730837,3.2740536,3.274781,3.2752726,3.2755919,3.2758918,3.2763004,3.2769237,3.277765,3.2786381,3.2793407,3.2797048,3.2798634,3.2798064,3.2796326,3.2796493,3.2801352,3.2809887,3.281672,3.2816868,3.2802634,3.276832,3.271654,3.265811,3.2604098,3.2554157,3.252171,3.251329,3.2526655,3.2553782,3.258459,3.2610517,3.2630033,3.2642848,3.2649763,3.2654848,3.2661161,3.2670083,3.2682343,3.2695997,3.2710862,3.2725577,3.2740018,3.2754917,3.2770467,3.2786326,3.2802806,3.2819204,3.2834387,3.2846537,3.2853897,3.285684,3.2857547,3.2857509,3.2858453,3.2862082,3.2867408,3.28732,3.2878408,3.2882178,3.2884457,3.288765,3.2892566,3.2898188,3.2903814,3.2907243,3.2906518,3.2902648,3.289878,3.289597,3.2896652,3.29031,3.291504,3.2930377,3.2946668,3.2961533,3.2973926,3.2980747,3.2980344,3.2971969,3.29575,3.2941744,3.2929344,3.2919154,3.2914882,3.2916446,3.2919712,3.2918582,3.2909164,3.2891808,3.286698,3.2839735,3.2813997,3.278497,3.274386,3.268866,3.2626925,3.2564697,3.2514043,3.2488198,3.2490158,3.2517333,3.2558613,3.2597928,3.2629924,3.2654662,3.2669253,3.2676082,3.2678757,3.2680862,3.268515,3.2691731,3.2700977,3.2710652,3.2719789,3.2728744,3.2737591,3.2746894,3.2758775,3.277317,3.2791162,3.2811189,3.282988,3.2843857,3.2850933,3.2850988,3.2846541,3.2838976,3.2831845,3.2827868,3.2828312,3.2832847,3.283915,3.2843976,3.2846494,3.284634,3.2844086,3.2841656,3.2840834,3.2842174,3.2845664,3.2851589,3.285944,3.2868533,3.2877197,3.2883792,3.288819,3.2891967,3.2895858,3.2900734,3.2906837,3.2912955,3.2917235,3.291885,3.2918472,3.2917066,3.2915745,3.2914972,3.2914495,3.2913399,3.2910914,3.290696,3.2901516,3.2894397,3.2884927,3.2873747,3.286173,3.2850332,3.2841072,3.2833972,3.282692,3.2818785,3.280932,3.2798934,3.2788837,3.2779999,3.2772198,3.276479,3.2756686,3.2749119,3.2742226,3.2735813,3.272984,3.2724195,3.2718687,3.2712624,3.2706556,3.2700374,3.2693396,3.2685008,3.2675273,3.2664814,3.2653522,3.2642217,3.263141,3.2621293,3.2611175,3.2600336,3.2589684,3.2577295,3.2561817,3.2543764,3.2524955,3.2507668,3.2493927,3.2485023,3.248027,3.2476883,3.2472167,3.2463899,3.2451591,3.2437415,3.2424738,3.2413561,3.2404275,3.239699,3.2394004,3.239447,3.2395911,3.2397323,3.2396617,3.2390747,3.2375932,3.2354417,3.2331035,3.230774,3.228454,3.2264585,3.2243757,3.2216167,3.2181454,3.2136173,3.2085056,3.2040076,3.200624,3.1983457,3.1980512,3.1994922,3.2024264,3.2060862,3.2092175,3.2110639,3.2121077,3.2126122,3.2134652,3.2153559,3.218332,3.2216349,3.224264,3.2259116,3.2267,3.2269833,3.2276955,3.2291422,3.2312179,3.2337399,3.236032,3.237921,3.2396026,3.2412038,3.2427769,3.244247,3.2455626,3.2467902,3.247868,3.2487006,3.249087,3.2491632,3.2489948,3.248721,3.2487798,3.249257,3.2498631,3.2507746,3.2518146,3.2526937,3.2533658,3.2539697,3.2544937,3.255199,3.2563772,3.2576327,3.2587395,3.259692,3.2604475,3.2610607,3.2614496,3.2619157
3.1379795,3.1756356,3.2029533,3.2252405,3.243493,3.2569838,3.2663274,3.2727547,3.2768633,3.2793396,3.2807064,3.281117,3.280932,3.280644,3.2806702,3.2811518,3.2819004,3.2829185,3.2841306,3.2852502,3.2862659,3.2871828,3.2879012,3.2883646,3.2885554,3.2885451,3.2885158,3.288632,3.2890446,3.289784,3.2906117,3.2911544,3.291355,3.291525,3.291556,3.2915301,3.291801,3.2925694,3.2935867,3.2944503,3.2942696,3.29208,3.2872522,3.280302,3.2725205,3.2648842,3.2585375,3.2548532,3.2543178,3.2564235,3.2600565,3.2639232,3.267004,3.2691994,3.2705755,3.271263,3.27172,3.2722826,3.273086,3.2741904,3.2754154,3.2767124,3.2779293,3.2790065,3.2799897,3.280888,3.2816744,3.2824154,3.2830224,3.2833667,3.2833967,3.2830713,3.2825322,3.282059,3.2817836,3.2817907,3.2822442,3.2830043,3.2838838,3.284729,3.2854261,3.2859442,3.286539,3.2873354,3.2881832,3.288951,3.2893581,3.2891884,3.2885852,3.2879372,3.2873604,3.287149,3.2875514,3.288526,3.2898693,3.2913852,3.2928681,3.2941928,3.295185,3.295724,3.2956834,3.295147,3.2945254,3.2942839,3.2944667,3.2952886,3.2966337,3.298029,3.298726,3.2981925,3.2965915,3.294654,3.2924478,3.2903285,3.2876384,3.2832828,3.2770264,3.2698221,3.2624764,3.2564824,3.2534392,3.253735,3.2570338,3.2619634,3.2665846,3.2702303,3.2729006,3.2742834,3.2746892,3.2745762,3.2743573,3.2743335,3.274558,3.2751017,3.2757263,3.276393,3.2771473,3.2779343,3.278759,3.2798703,3.2812948,3.2831783,3.2854128,3.2876573,3.2894769,3.2905557,3.2908602,3.2906322,3.2900403,3.2894773,3.2892158,3.2893953,3.289998,3.2907853,3.2914307,3.291871,3.2920413,3.291966,3.2918177,3.2917514,3.291821,3.29207,3.2925344,3.2931783,3.293984,3.2948012,3.2954602,3.2959385,3.2963648,3.2968042,3.2973416,3.298006,3.2986717,3.2991416,3.299326,3.2992978,3.2991576,3.2990208,3.2989357,3.2988656,3.2987056,3.298386,3.297922,3.2973218,3.2965767,3.2956233,3.2945166,3.2933297,3.2921977,3.2912657,3.2905354,3.2897868,3.288896,3.2878428,3.2866702,3.2855077,3.284461,3.2835083,3.282588,3.2816043,3.2807002,3.2799134,3.279231,3.2786355,3.2780964,3.277585,3.2770276,3.276462,3.2758708,3.275182,3.2743347,3.2733421,3.2722752,3.2711132,3.269923,3.2687411,3.2675886,3.2664304,3.2652369,3.2640963,3.2628179,3.2612324,3.2593405,3.2573128,3.2553794,3.253752,3.2525969,3.251841,3.2511835,3.2503839,3.2492476,3.2477484,3.2461324,3.2447653,3.2436323,3.242739,3.2420883,3.2418752,3.241972,3.242114,3.2421966,3.2419868,3.2413297,3.2398927,3.2376852,3.2351036,3.2326148,3.2305288,3.2290606,3.2276363,3.2256427,3.2228186,3.2184374,3.2128906,3.2076378,3.2034166,3.200539,3.200271,3.202364,3.2064838,3.2114663,3.2155375,3.2177148,3.2185502,3.218469,3.218672,3.220195,3.2230964,3.226428,3.229085,3.2306685,3.2312021,3.2311518,3.2316155,3.2329192,3.234942,3.2375286,3.2399395,3.2420006,3.243888,3.245663,3.2473717,3.248989,3.2504735,3.25183,3.2530465,3.2538977,3.2541256,3.2539291,3.2534652,3.2529194,3.252757,3.2531154,3.2537303,3.254745,3.2559242,3.2569308,3.2577384,3.258532,3.259251,3.2601666,3.2617488,3.263581,3.2653127,3.266871,3.2682166,3.2693455,3.2702045,3.2711153
3.0975685,3.1439807,3.1833713,3.2142606,3.2402816,3.2606893,3.2751603,3.2845516,3.2901096,3.293419,3.2951772,3.295629,3.2953634,3.2949288,3.2947502,3.2950206,3.2955217,3.296208,3.297041,3.2979245,3.2987556,3.2994385,3.2999043,3.300106,3.2999995,3.2996645,3.2993073,3.2991283,3.2993302,3.2999673,3.3008013,3.3015347,3.301845,3.3021517,3.3023424,3.3025322,3.3030753,3.3040662,3.3051472,3.3060164,3.3054082,3.3023314,3.296127,3.2874522,3.2778196,3.2682974,3.2611341,3.2573228,3.257318,3.260298,3.264779,3.2692394,3.27258,3.2747817,3.276044,3.2765753,3.2769008,3.277371,3.278079,3.2790318,3.2800517,3.2810383,3.2818198,3.2822957,3.2824838,3.2823997,3.2820518,3.2815735,3.2808893,3.2798984,3.278737,3.2775216,3.2764702,3.2758527,3.275732,3.276073,3.2770295,3.2783933,3.2798958,3.2813306,3.2825565,3.2835245,3.2844996,3.2856627,3.2868276,3.2878146,3.2883017,3.2880616,3.2872682,3.2863607,3.285453,3.2848496,3.2847867,3.2851963,3.2858887,3.2867455,3.28765,3.2884912,3.2892394,3.2898836,3.290322,3.290598,3.2910366,3.2919655,3.2933943,3.2956996,3.29875,3.3017108,3.3036935,3.3043575,3.3039155,3.3029423,3.3016307,3.3002448,3.2979002,3.2933264,3.286334,3.2781124,3.269671,3.2627697,3.2592127,3.259472,3.263164,3.2687168,3.2739305,3.278037,3.2809963,3.282476,3.2827797,3.2823763,3.2817006,3.281095,3.280676,3.2806187,3.2807195,3.2810369,3.2816567,3.2824407,3.2832837,3.2844305,3.285952,3.288035,3.2906437,3.2934659,3.2959707,3.2977157,3.2986155,3.2988763,3.298704,3.2984967,3.2984953,3.2988508,3.2995763,3.3004541,3.3012123,3.3018148,3.3021827,3.302289,3.3022432,3.302145,3.3020387,3.302035,3.302185,3.30249,3.302998,3.3035908,3.3041067,3.3045084,3.3048842,3.3052855,3.3057818,3.306414,3.3070712,3.3075585,3.3077784,3.3077931,3.307687,3.307568,3.3074727,3.307352,3.3070974,3.3066514,3.3060522,3.3053255,3.3044734,3.3034296,3.3022528,3.3010159,3.2998424,3.2988596,3.2980554,3.2972314,3.296256,3.2951176,3.2938533,3.2925835,3.2914147,3.2903287,3.2892756,3.2881687,3.2871552,3.2862942,3.2855773,3.2849717,3.2844381,3.2839394,3.2834089,3.2828739,3.2823162,3.2816656,3.2808666,3.2799377,3.2789476,3.2778668,3.2767537,3.2756248,3.2745056,3.273398,3.272297,3.2712677,3.2701309,3.2686768,3.2668426,3.2647762,3.262689,3.260789,3.2592936,3.2581196,3.256976,3.2556658,3.2540507,3.2521477,3.2502182,3.248628,3.2473364,3.2463121,3.2455306,3.2451496,3.2450142,3.2448645,3.244637,3.244132,3.2432003,3.2415485,3.2392092,3.2366428,3.2343476,3.2326317,3.2317579,3.2310867,3.2299657,3.2278893,3.2237473,3.2178621,3.2119513,3.206964,3.2035623,3.2033815,3.2061496,3.211479,3.2178469,3.2229495,3.2255683,3.2264247,3.2259786,3.225709,3.2269158,3.2297213,3.2330139,3.235486,3.2367003,3.2365885,3.2357638,3.2355254,3.236263,3.2378657,3.2401962,3.2424455,3.2444224,3.2462611,3.247967,3.2495418,3.2509208,3.2520938,3.2532067,3.2542348,3.2549658,3.255117,3.2548122,3.2541351,3.2532904,3.2528625,3.253067,3.2535763,3.2545784,3.2557538,3.256666,3.2573137,3.2580166,3.258822,3.2599404,3.2620387,3.2645352,3.26687,3.2689617,3.2708573,3.2724864,3.2738786,3.2753808
3.0585597,3.1075504,3.1550364,3.1976504,3.231987,3.2593982,3.280238,3.2940402,3.3021908,3.3065312,3.3081307,3.3085155,3.3081985,3.3074865,3.3068576,3.306699,3.3068264,3.3071632,3.3076458,3.3081722,3.308663,3.309039,3.3092232,3.3091607,3.308783,3.3081722,3.3075633,3.3071835,3.307272,3.307895,3.3088222,3.3098948,3.3104098,3.3109152,3.3113136,3.311662,3.3123233,3.3134272,3.3144836,3.3151803,3.3137102,3.309692,3.302362,3.2918768,3.2801983,3.2697437,3.262208,3.2586622,3.2594922,3.2635255,3.268918,3.2739592,3.2775078,3.2796438,3.2806964,3.28097,3.281067,3.2813537,3.2818775,3.2825897,3.2833142,3.283887,3.2841344,3.2839267,3.2832599,3.2821598,3.2806778,3.2790017,3.2770934,3.2748914,3.272717,3.2708497,3.2695627,3.269078,3.2693563,3.270246,3.271885,3.2739835,3.2761848,3.2782214,3.2799268,3.2812548,3.282493,3.2838678,3.285202,3.2862973,3.2868247,3.2865663,3.2857018,3.2846742,3.2836008,3.2827468,3.2823071,3.2821612,3.2821212,3.2821598,3.2822702,3.282355,3.2825441,3.2829747,3.2836006,3.2844512,3.285777,3.2877603,3.2903934,3.2941015,3.2987027,3.303289,3.306891,3.309082,3.3099985,3.3102498,3.3100305,3.3094463,3.307408,3.3025432,3.2947912,3.2856202,3.276204,3.2685208,3.264526,3.2647367,3.268722,3.274751,3.2804217,3.284893,3.2880785,3.289632,3.2898378,3.2891364,3.287981,3.2867787,3.2857015,3.2850428,3.2846668,3.284706,3.2852883,3.2861843,3.287146,3.2883914,3.2900426,3.2923198,3.2952757,3.2986484,3.3018374,3.3042805,3.3058343,3.3066516,3.3069735,3.3071783,3.3074658,3.3079932,3.308801,3.3097053,3.310519,3.3112354,3.3117785,3.3120742,3.312146,3.312024,3.311749,3.3114882,3.3113093,3.3112612,3.3114536,3.3117995,3.3121552,3.3124738,3.3127964,3.3131623,3.3136215,3.314228,3.3148835,3.3154056,3.315693,3.3157861,3.3157449,3.3156705,3.3155823,3.3154197,3.3150744,3.3145,3.3137536,3.3128805,3.311902,3.3107047,3.30939,3.3080769,3.3068867,3.305869,3.304904,3.303954,3.3028736,3.3016768,3.300391,3.2990925,3.2978687,3.2967358,3.2956774,3.294579,3.2935328,3.2926369,3.2919102,3.2913036,3.2907708,3.2902784,3.2897599,3.2892394,3.288701,3.2880836,3.2873454,3.2865071,3.2856264,3.284665,3.2836657,3.282627,3.2815814,3.2805672,3.2796078,3.2787352,3.2777934,3.2765384,3.2748485,3.2728343,3.2706733,3.2685552,3.266738,3.2651286,3.2634768,3.261621,3.2594976,3.2571745,3.2549188,3.2530823,3.2516046,3.2504086,3.2494338,3.2487953,3.248313,3.247747,3.2470927,3.2462032,3.2449532,3.2431054,3.2406647,3.2381115,3.235982,3.2346067,3.2342877,3.2343225,3.234056,3.2327356,3.2288888,3.2227592,3.216268,3.2105346,3.2065842,3.2063465,3.209569,3.2158737,3.223433,3.2294765,3.2326026,3.2336144,3.2329931,3.232452,3.233481,3.2362406,3.2394786,3.2417045,3.2424717,3.2416096,3.239884,3.238766,3.2387292,3.2396936,3.2415419,3.2434235,3.2451377,3.2467551,3.2482598,3.2496204,3.2507498,3.2516794,3.252653,3.2536519,3.2543826,3.2545347,3.2542133,3.2534752,3.252524,3.251986,3.2520642,3.252393,3.253149,3.2539835,3.2544749,3.2546878,3.255011,3.2555108,3.2565436,3.2588356,3.2618084,3.2649002,3.267861,3.2704868,3.2727437,3.274962,3.2774115
3.022172,3.0692344,3.1168396,3.167055,3.2122655,3.2482133,3.275877,3.296582,3.309835,3.3169153,3.320232,3.3207903,3.3197951,3.318637,3.3178077,3.3171206,3.3167222,3.3165324,3.316454,3.3163905,3.3162925,3.316133,3.3158727,3.315454,3.3147693,3.3138862,3.3131154,3.3126688,3.312771,3.3135076,3.3145866,3.315569,3.3162913,3.317091,3.3176088,3.3178287,3.3183079,3.3193789,3.3204727,3.32043,3.3179898,3.3130245,3.304828,3.292982,3.2796283,3.2691066,3.2620149,3.259383,3.2614431,3.266627,3.2727754,3.2781167,3.2815852,3.28338,3.2839746,3.2837582,3.2834072,3.2833085,3.2834682,3.2837844,3.2840621,3.2840567,3.283595,3.2825592,3.2809772,3.278954,3.2766361,3.2742481,3.2718267,3.2693493,3.267227,3.2657373,3.2650886,3.2654288,3.2666225,3.2684593,3.2710352,3.2739491,3.2767854,3.2792432,3.281147,3.2824907,3.283617,3.284795,3.2859416,3.2868958,3.2873645,3.2871575,3.2864308,3.2855792,3.2847118,3.2840145,3.2835732,3.2831635,3.2825656,3.28182,3.2810402,3.2801306,3.2793312,3.2788792,3.278822,3.2792244,3.2803118,3.2822604,3.2850316,3.289174,3.2945719,3.300336,3.3054743,3.3094401,3.3121455,3.3141255,3.3155174,3.315991,3.3144534,3.30972,3.3017375,3.2919188,3.2818084,3.2735395,3.2691498,3.2692168,3.2733269,3.2796671,3.2856946,3.2905183,3.2939305,3.2955308,3.2955227,3.2942786,3.2923365,3.2902951,3.288427,3.2871842,3.2865362,3.2866116,3.2874942,3.2887678,3.2899604,3.2912688,3.2929168,3.295146,3.298139,3.3017242,3.3052707,3.3081474,3.3101811,3.3114722,3.3122997,3.3129792,3.313633,3.3143647,3.3152027,3.3160138,3.316741,3.3174334,3.3180642,3.3185654,3.318879,3.3189297,3.3187065,3.318377,3.3180137,3.3177204,3.3176498,3.3177729,3.317986,3.3182373,3.3185372,3.318914,3.319397,3.3200507,3.3207874,3.3214273,3.3218577,3.322091,3.3221636,3.3221898,3.322093,3.3218188,3.3213434,3.3206806,3.3198822,3.3189797,3.3179548,3.3166583,3.315269,3.3138847,3.3125608,3.311386,3.3103669,3.3093843,3.3083234,3.307222,3.3060095,3.3047209,3.3034935,3.3023534,3.301293,3.3002944,3.2993326,3.2984626,3.2977314,3.297113,3.2965603,3.2960515,3.2955296,3.2950106,3.294477,3.2938821,3.2931943,3.292432,3.2916355,3.2907548,3.2898192,3.288806,3.287764,3.2867734,3.2858768,3.285087,3.2842627,3.2831335,3.2815537,3.2796016,3.2774105,3.2751455,3.2730777,3.271101,3.2690134,3.2666736,3.2641022,3.261433,3.2589371,3.2569456,3.255388,3.254124,3.2530692,3.2522779,3.2515345,3.250624,3.2495947,3.2483492,3.2468188,3.2448065,3.2422917,3.2397094,3.2375998,3.2363572,3.236351,3.2368727,3.2373629,3.2368336,3.2334461,3.2272997,3.2203906,3.2139273,3.2093284,3.2087555,3.212039,3.2189412,3.2274206,3.2342803,3.2379615,3.2392302,3.2385015,3.2376597,3.2383194,3.240727,3.2436204,3.2454178,3.2456634,3.244117,3.2416327,3.2398012,3.239162,3.2396545,3.2411642,3.242817,3.24444,3.2460418,3.2475784,3.2489815,3.250113,3.2510252,3.2520769,3.2532783,3.2542944,3.2547774,3.2547688,3.2542386,3.2533503,3.2527666,3.2526767,3.2527056,3.2530446,3.2533464,3.2532375,3.2528625,3.252662,3.252708,3.2533708,3.2554684,3.2583919,3.2615714,3.2647333,3.2676148,3.2701964,3.2728734,3.2760282
2.9840267,3.0250607,3.0696607,3.1202621,3.1761756,3.2252438,3.262443,3.2904086,3.310697,3.322616,3.3292503,3.331476,3.330574,3.3282857,3.3263526,3.325404,3.3244328,3.3234773,3.3225641,3.3217263,3.3210964,3.3205743,3.3198967,3.318999,3.317971,3.3168774,3.315598,3.3145885,3.3143435,3.3148413,3.3156643,3.3167186,3.317803,3.318902,3.319591,3.3199556,3.3205614,3.3216538,3.3227031,3.3223648,3.3193429,3.3134046,3.303779,3.2906017,3.2767892,3.2666776,3.2605224,3.2591295,3.2625284,3.2687416,3.2753463,3.2806218,3.2836874,3.2848735,3.2848182,3.2840085,3.283163,3.2826467,3.2823906,3.2822123,3.2819052,3.2811465,3.279786,3.2777743,3.2752137,3.2723296,3.2694116,3.2667174,3.2642379,3.2621543,3.2609105,3.2607446,3.261673,3.2635689,3.2661605,3.2692327,3.2727966,3.276432,3.2797108,3.282329,3.2841558,3.285266,3.2860718,3.2868743,3.2876961,3.2884278,3.288813,3.2886934,3.288204,3.2876787,3.2872393,3.2869797,3.2868495,3.2864666,3.2855153,3.28406,3.2823255,3.2802312,3.2780266,3.2761145,3.2746801,3.2738783,3.2739906,3.275196,3.2774253,3.2812877,3.2868223,3.2932935,3.2997909,3.3056455,3.3104467,3.3146234,3.3181667,3.3203094,3.3197355,3.315608,3.3080254,3.2980528,3.287709,3.2792044,3.274547,3.2743416,3.2782412,3.2844577,3.2904289,3.2953024,3.29874,3.3002815,3.3000338,3.2982497,3.2955155,3.292619,3.2899423,3.2880936,3.2871847,3.287323,3.2885492,3.2902536,3.2917144,3.293079,3.2946815,3.2967644,3.2996702,3.3033462,3.3071723,3.3104787,3.3130577,3.31493,3.3163962,3.3176613,3.3187246,3.3196034,3.3203125,3.3208113,3.321228,3.3216877,3.3222442,3.3228624,3.323378,3.3235884,3.3234272,3.323046,3.3225243,3.3220215,3.3217309,3.321679,3.3217897,3.3219943,3.3222713,3.3226442,3.3231192,3.32379,3.324593,3.3253574,3.3259556,3.3263612,3.3265724,3.3267024,3.326699,3.3264406,3.3259127,3.3251958,3.324339,3.3233,3.3221455,3.3208332,3.319465,3.3181205,3.316855,3.3157117,3.3146975,3.3137374,3.3127003,3.3116102,3.3104215,3.3091786,3.307995,3.306883,3.3058338,3.3047895,3.3038316,3.3030033,3.3022995,3.3016815,3.3011103,3.3005724,3.3000252,3.2994785,3.2989144,3.2983088,3.297655,3.2969651,3.2962565,3.2954626,3.2945871,3.2935934,3.2925506,3.2915802,3.2907448,3.2900376,3.289328,3.2883139,3.2868257,3.2848973,3.2826257,3.2801704,3.2778301,3.275514,3.2730784,3.2704034,3.267569,3.2647357,3.2621384,3.2600665,3.2584517,3.2570934,3.2558846,3.254835,3.2537174,3.2523649,3.2509077,3.2493129,3.2475739,3.245535,3.243116,3.2406402,3.238614,3.237502,3.2377572,3.2387054,3.2399554,3.2402735,3.237483,3.2315216,3.224373,3.217278,3.2120667,3.2110517,3.2141852,3.2214222,3.2305617,3.2380636,3.2422566,3.243805,3.2429962,3.241787,3.2418668,3.2436147,3.2458463,3.2469463,3.246479,3.2441683,3.2409267,3.2384658,3.2373755,3.2375844,3.2389426,3.2405283,3.2421918,3.2438805,3.2455149,3.2470055,3.248186,3.2491384,3.25035,3.2518754,3.2533445,3.2543812,3.2549353,3.254836,3.2541714,3.2536254,3.2533352,3.2529483,3.2526693,3.252187,3.2512276,3.2500565,3.2491705,3.2486243,3.2487774,3.2505155,3.2531674,3.256165,3.2592425,3.262098,3.2647588,3.2676678,3.2712867
2.9549809,2.9869537,3.0248308,3.0708475,3.126649,3.1854982,3.2356925,3.2727811,3.3007936,3.319993,3.3318987,3.3376856,3.3384488,3.3360357,3.3328996,3.3307343,3.3291392,3.3273802,3.3254704,3.3236113,3.3221335,3.321027,3.3199697,3.3187733,3.3174667,3.3160696,3.31452,3.3132243,3.3126013,3.3127255,3.3133914,3.314499,3.3157172,3.3168545,3.317514,3.317813,3.3182182,3.3188512,3.319231,3.3185248,3.314975,3.3077831,3.296803,3.2833176,3.2704768,3.2617896,3.257456,3.2578938,3.262863,3.2700129,3.2767859,3.281674,3.2840884,3.2844982,3.2837026,3.2822566,3.2808828,3.279903,3.2791705,3.278432,3.2774847,3.2759552,3.2737398,3.27094,3.2678018,3.2646785,3.2619324,3.259746,3.258274,3.2577286,3.258394,3.2603426,3.2633042,3.2668467,3.2706761,3.2746835,3.2789197,3.282991,3.2864852,3.2891178,3.2908068,3.2917051,3.2922611,3.2927992,3.2934241,3.2940502,3.294427,3.2944012,3.2940927,3.2937932,3.2936416,3.2936754,3.293746,3.2933512,3.2920933,3.2900367,3.2874775,3.2843156,3.2808208,3.277474,3.2744768,3.2719946,3.2703776,3.2699037,3.2704532,3.2728255,3.27732,3.2835126,3.29065,3.297947,3.3047085,3.3111537,3.3169918,3.3212988,3.3222919,3.3191168,3.3122022,3.3027093,3.292675,3.284354,3.2796564,3.2792234,3.2828245,3.2887568,3.2944934,3.2992282,3.3024688,3.3036926,3.3029308,3.3004317,3.2968926,3.2932734,3.290079,3.2880025,3.2872796,3.287901,3.2897835,3.2920935,3.29386,3.2951932,3.2965653,3.29818,3.300561,3.3038015,3.3073554,3.310594,3.3133183,3.3154712,3.3173456,3.319018,3.3203416,3.3212156,3.3216255,3.3216348,3.321577,3.3216624,3.322054,3.3227944,3.3236246,3.3241982,3.324368,3.3242164,3.3238235,3.3233838,3.3230968,3.3230362,3.3231544,3.3233724,3.3236651,3.3240578,3.3245492,3.3252614,3.3261547,3.3270636,3.32784,3.3284202,3.3287745,3.3290145,3.3291168,3.3289676,3.3285034,3.3277652,3.3268301,3.3257046,3.3244834,3.3232036,3.3219025,3.3206518,3.3195286,3.3185496,3.317679,3.316827,3.3158422,3.3147297,3.3135142,3.3122933,3.3111582,3.3100893,3.309074,3.3080428,3.3071327,3.3063688,3.3057055,3.3050942,3.304505,3.303938,3.303361,3.302771,3.3021407,3.3014684,3.3007708,3.3000603,3.2993484,3.2985497,3.297655,3.2966168,3.2955213,3.2945173,3.2936716,3.2929606,3.2922628,3.2912502,3.289756,3.2877955,3.2854466,3.282875,3.280395,3.2779236,3.2753644,3.2725937,3.2697299,3.2669456,3.2644393,3.2624714,3.2609863,3.2597342,3.258583,3.257483,3.2561717,3.2545266,3.252777,3.2509432,3.249094,3.247089,3.244767,3.2422853,3.240106,3.238836,3.2390542,3.240182,3.2421124,3.2433767,3.2414832,3.236115,3.229057,3.2214904,3.2156563,3.2139246,3.216457,3.223496,3.232799,3.2405987,3.2451532,3.246917,3.2459855,3.2443013,3.2435508,3.2443035,3.2456017,3.2459002,3.2447844,3.2420158,3.238478,3.235898,3.2348547,3.2352185,3.2367828,3.2385964,3.240566,3.2426002,3.2445736,3.2463815,3.247849,3.2490876,3.2506974,3.2528026,3.2550216,3.25694,3.258377,3.2589774,3.2587204,3.2583013,3.2578015,3.2569451,3.2559404,3.2545474,3.2526126,3.250506,3.2487693,3.2474406,3.2468672,3.2479887,3.2500916,3.252658,3.2554421,3.258071,3.2605963,3.2634718,3.2671366
2.9380724,2.9595156,2.9875906,3.0262756,3.074268,3.1334763,3.1943507,3.2443376,3.2810502,3.308743,3.32755,3.3385653,3.342414,3.34134,3.3380551,3.3345523,3.3317366,3.3292685,3.32646,3.3235366,3.3209753,3.3190145,3.3174913,3.316102,3.3146467,3.3130634,3.3116596,3.310442,3.3096118,3.30952,3.3101373,3.311036,3.3119793,3.3127873,3.3130677,3.31286,3.3125517,3.3122468,3.3114586,3.3097472,3.3052492,3.296866,3.2853923,3.2728271,3.2618785,3.2555091,3.253687,3.256345,3.26292,3.2707758,3.2773736,3.2815597,3.2831268,3.2826815,3.281143,3.2790706,3.2771363,3.2756186,3.2743316,3.2729807,3.2713885,3.2691748,3.2662835,3.263044,3.2598557,3.2571669,3.2554133,3.254707,3.255296,3.2572896,3.260582,3.264908,3.2697716,3.274634,3.279256,3.283705,3.288148,3.2922645,3.2957187,3.2982798,3.299911,3.3007994,3.3013816,3.3019938,3.3027475,3.3035293,3.3040383,3.3040855,3.3037877,3.3034434,3.303201,3.3031118,3.303011,3.30237,3.3007643,3.2982466,3.295125,3.2912421,3.286882,3.2824955,3.2781925,3.2740693,3.2704997,3.267849,3.2659247,3.2657743,3.2680473,3.2728672,3.2798424,3.2880595,3.296379,3.3048468,3.312818,3.319276,3.3221874,3.3203316,3.3142934,3.3058162,3.2965596,3.2888045,3.2843175,3.2838097,3.2872076,3.2929225,3.2984726,3.3030584,3.3060203,3.3066974,3.305286,3.3019023,3.2973976,3.2932048,3.2897975,3.2878928,3.287797,3.2892942,3.2920947,3.2951093,3.2971532,3.2983599,3.299324,3.3001814,3.30163,3.303908,3.3065996,3.309206,3.3115935,3.3136418,3.315609,3.3174388,3.3188362,3.319559,3.3195438,3.3189597,3.318338,3.317974,3.318156,3.3190365,3.3202848,3.321412,3.3221622,3.322506,3.322518,3.322413,3.3223596,3.3224654,3.3227062,3.3230028,3.3233538,3.3237906,3.3243284,3.325111,3.326116,3.3271785,3.3281205,3.3288448,3.3293157,3.3296537,3.3298144,3.3297505,3.3293672,3.328634,3.3276625,3.32656,3.325376,3.324154,3.322939,3.3217916,3.3207827,3.3199415,3.3192272,3.318481,3.3175528,3.3164458,3.315217,3.3140068,3.3129153,3.3118968,3.3109412,3.3100271,3.3092227,3.308521,3.3078792,3.3072577,3.306634,3.306028,3.3054113,3.3047597,3.304027,3.3032217,3.3023815,3.3015304,3.3006945,3.2997825,3.298787,3.2976584,3.296492,3.2954383,3.2945442,3.2937713,3.2930071,3.2919073,3.2903323,3.2883124,3.2859278,3.2833488,3.280888,3.2784662,3.276003,3.2733464,3.2706342,3.2680473,3.2657716,3.264065,3.2628865,3.2619495,3.2610977,3.260202,3.2589324,3.2572012,3.2553425,3.25341,3.2515454,3.2496238,3.247394,3.244814,3.2423096,3.2406797,3.2406507,3.2417908,3.2443433,3.2466285,3.2458632,3.241407,3.2347007,3.2267938,3.220315,3.217635,3.2191968,3.2256074,3.2346897,3.2425451,3.2473545,3.2492743,3.2481523,3.245862,3.2440312,3.2434738,3.2436197,3.2431145,3.24153,3.2387586,3.2355413,3.233495,3.2330937,3.234091,3.2361984,3.2384934,3.240959,3.2435136,3.245962,3.2481916,3.2500362,3.2516358,3.253693,3.2564263,3.2594714,3.2623677,3.2647796,3.2661557,3.2663562,3.2660692,3.265358,3.2640543,3.26236,3.260117,3.2572713,3.2542472,3.2516017,3.2493715,3.2479088,3.2481928,3.2495253,3.251491,3.2538762,3.2562046,3.2584987,3.26115,3.2645059
2.9275708,2.9393425,2.9579325,2.9877677,3.029379,3.0823066,3.145089,3.2068381,3.2541237,3.2899756,3.3163943,3.3340063,3.3423598,3.3437037,3.341484,3.3378682,3.3333611,3.3298898,3.3263578,3.3226786,3.3193386,3.316712,3.3146935,3.3130136,3.3114781,3.3099852,3.308723,3.3074656,3.3065028,3.3062727,3.3065534,3.307014,3.307437,3.3076715,3.3073635,3.306532,3.305503,3.3043196,3.3024602,3.2994103,3.293685,3.2846038,3.2733884,3.2621462,3.2532597,3.2492003,3.2496905,3.254181,3.261816,3.2698376,3.2758625,3.2791362,3.2798486,3.2786894,3.276623,3.2741473,3.2717972,3.2697928,3.2679517,3.2659774,3.2637577,3.2609725,3.257624,3.2542844,3.2514656,3.2496758,3.2494483,3.2508364,3.2537656,3.2582679,3.2638378,3.2698982,3.2759175,3.2814593,3.2863336,3.2907624,3.294949,3.2987056,3.3018284,3.3041835,3.305789,3.3068268,3.3076916,3.3087053,3.3098917,3.3110576,3.3118,3.311863,3.31139,3.3107266,3.3100271,3.3094316,3.3088431,3.3077843,3.305846,3.3030567,3.2996936,3.2955575,3.290899,3.286159,3.2813513,3.2764754,3.2718182,3.2676253,3.2636771,3.2610412,3.260661,3.2633917,3.269461,3.2779498,3.28725,3.297162,3.3068473,3.3150396,3.3197896,3.319603,3.3148868,3.3077273,3.299543,3.2926064,3.2885103,3.288054,3.2913373,3.2968934,3.3022978,3.3067455,3.30941,3.3096008,3.3076787,3.303423,3.2979217,3.2933383,3.289928,3.2883432,3.2889032,3.291182,3.2946749,3.2982187,3.3005252,3.3015122,3.3019907,3.302042,3.3025079,3.3037858,3.3055887,3.3075264,3.3095293,3.311416,3.3133874,3.315269,3.3166409,3.317144,3.3166785,3.3155117,3.3143456,3.3135386,3.313477,3.314405,3.3159356,3.3174667,3.3186562,3.3193903,3.3197439,3.31995,3.3201575,3.3204818,3.3208966,3.3213089,3.3217297,3.3221972,3.3227515,3.3235602,3.324627,3.325788,3.3268423,3.3276587,3.3282037,3.3285987,3.328801,3.328764,3.3283987,3.3276844,3.3267412,3.325674,3.3245392,3.3233955,3.322282,3.3212416,3.3203237,3.3195393,3.3188415,3.3181057,3.3171854,3.3160868,3.314877,3.3136995,3.312648,3.3116698,3.3107667,3.309912,3.3091507,3.3084614,3.3077993,3.307128,3.3064337,3.3057551,3.3050613,3.3043108,3.3034368,3.3024535,3.301425,3.3003922,3.2993999,3.298367,3.2972894,3.2961273,3.2949748,3.293962,3.293104,3.2923374,3.2915628,3.2904272,3.2888136,3.286775,3.2844076,3.2818785,3.2794905,3.2771938,3.2748933,3.2724056,3.2698789,3.2674952,3.2654347,3.26397,3.2630649,3.2624104,3.2618253,3.2611108,3.2598765,3.2580752,3.2561595,3.2542274,3.252457,3.250793,3.248867,3.2464085,3.2437892,3.2419658,3.241767,3.2429535,3.246079,3.2492976,3.2496085,3.2460718,3.239778,3.2316384,3.224604,3.2210298,3.2216399,3.2273738,3.236145,3.2439673,3.2489316,3.2509055,3.249475,3.2464528,3.2434273,3.2414823,3.2405024,3.2393875,3.237618,3.2352722,3.2328663,3.2318096,3.2324047,3.2342453,3.2369485,3.2396908,3.242511,3.245379,3.2480145,3.2503195,3.2521775,3.2537775,3.2559257,3.2589467,3.2624745,3.2660282,3.2691298,3.2710686,3.2716079,3.271401,3.2705138,3.2688832,3.2666726,3.2637916,3.260252,3.2564917,3.2530625,3.2500153,3.2477112,3.2471595,3.247725,3.2491193,3.2511668,3.2532916,3.2554595,3.2579458,3.2610035
2.9221644,2.9275537,2.9393415,2.961402,2.9948988,3.0412116,3.098504,3.1610112,3.2194781,3.2633245,3.297484,3.3227577,3.3376536,3.3432279,3.3426723,3.339005,3.3337154,3.328405,3.3240361,3.3199668,3.3163319,3.3134527,3.3112073,3.3093488,3.3076925,3.3061562,3.3048778,3.3037243,3.3027601,3.3022223,3.302068,3.3019829,3.3017614,3.301335,3.3004212,3.2990413,3.2974596,3.2956228,3.2929187,3.2888408,3.2821865,3.2725868,3.2616656,3.2516444,3.2445295,3.2422404,3.244284,3.2497454,3.257597,3.2651825,3.270407,3.2728863,3.2731063,3.2717266,3.2696583,3.2672796,3.2648993,3.262641,3.2603583,3.2578158,3.2550318,3.2518387,3.2483468,3.2453227,3.2434237,3.243209,3.2450705,3.248643,3.2536314,3.2597084,3.266248,3.2726703,3.2785282,3.2835574,3.2877433,3.2914476,3.294878,3.297932,3.3004968,3.302519,3.3040593,3.3052812,3.30651,3.3080297,3.3097365,3.3113241,3.3122766,3.3122683,3.3114705,3.3103065,3.308927,3.3075774,3.3062959,3.3047194,3.302496,3.2996464,3.2964082,3.292574,3.2884717,3.2845478,3.2806845,3.2766538,3.272449,3.2680397,3.2633142,3.259112,3.256408,3.2567182,3.260859,3.2682872,3.2777004,3.288074,3.2986848,3.3082132,3.3145103,3.3159845,3.3129349,3.3072066,3.300181,3.2941284,3.2904916,3.290189,3.293476,3.298966,3.304265,3.3085532,3.3108244,3.3108556,3.3083868,3.3032665,3.2971544,3.2924747,3.2893953,3.288291,3.2894435,3.2922277,3.29596,3.2998128,3.3025098,3.3030891,3.3029392,3.302178,3.3017476,3.3022676,3.3035288,3.3051028,3.306923,3.308742,3.3106947,3.3125374,3.3137894,3.3140526,3.3132334,3.311666,3.310154,3.30905,3.308787,3.3096447,3.3111954,3.3127847,3.3140514,3.3148618,3.3152905,3.315598,3.3159394,3.3164253,3.3170063,3.3175552,3.318056,3.3185425,3.3190804,3.3198552,3.3209033,3.3220797,3.3231735,3.3240361,3.3246298,3.3250623,3.3252988,3.3252902,3.3249435,3.3242464,3.3233309,3.3223095,3.3212328,3.3201616,3.3191257,3.3181462,3.3172622,3.3164878,3.3157825,3.3150384,3.3141136,3.313015,3.311812,3.3106437,3.3095965,3.3086104,3.3077002,3.3068466,3.3060694,3.3053408,3.3046134,3.3038452,3.3030338,3.302237,3.3014162,3.3005261,3.2994905,3.2983356,3.2971444,3.2959685,3.2948713,3.293784,3.2927046,3.2916079,3.2905765,3.289709,3.288988,3.2883189,3.2876148,3.2865362,3.2849798,3.2830272,3.2807834,3.2783918,3.2761302,3.2739618,3.27177,3.2693467,3.2668717,3.264545,3.2625523,3.261197,3.2604306,3.2599273,3.2594862,3.258845,3.2575665,3.2556505,3.253679,3.251833,3.2502942,3.249121,3.2477922,3.2457557,3.243282,3.2414293,3.2410774,3.2422397,3.2457275,3.249611,3.2507854,3.2480602,3.2421782,3.233943,3.2265315,3.222258,3.2220836,3.2272043,3.235592,3.243199,3.2480583,3.2498364,3.247888,3.2440476,3.239949,3.2369306,3.2352898,3.2341557,3.2328095,3.2314854,3.230432,3.230704,3.2324085,3.2350025,3.2380416,3.2409143,3.2436879,3.2464004,3.2487118,3.2505548,3.2519164,3.253077,3.2549067,3.2578406,3.2614458,3.2652519,3.2686782,3.2709146,3.2716746,3.2715619,3.2706203,3.2688832,3.2664237,3.2631938,3.2592535,3.2550244,3.2510421,3.2473893,3.2444127,3.2431521,3.243069,3.2440138,3.2458625,3.2479796,3.2502801,3.2528787,3.2559698
2.9222498,2.9229398,2.9271781,2.9400296,2.9633384,3.0004876,3.050787,3.1104136,3.1734426,3.230369,3.2735128,3.306971,3.3291683,3.3399453,3.3419542,3.3389997,3.3334703,3.3272796,3.3207717,3.3161893,3.312882,3.3099427,3.3075356,3.3055193,3.3037624,3.3022182,3.301015,3.3000853,3.2992563,3.2985373,3.2980032,3.2973475,3.2963688,3.2950912,3.293332,3.2911386,3.2887359,3.2859998,3.2822416,3.276966,3.2692857,3.259173,3.2486496,3.2400312,3.2349062,3.2345605,3.2382557,3.2447171,3.2527285,3.259808,3.2642322,3.2660077,3.2658877,3.2644506,3.2624817,3.2602015,3.2576869,3.2550116,3.2521489,3.249,3.2457166,3.2423062,3.2389374,3.2365408,3.2360482,3.2379556,3.2422066,3.2481804,3.2549777,3.262402,3.269566,3.2757673,3.2807782,3.2847009,3.2877204,3.2903357,3.2927594,3.2949615,3.2969055,3.2986033,3.3001218,3.3015609,3.3031583,3.3051672,3.3073506,3.3093019,3.3104417,3.3102298,3.3086996,3.3069167,3.305088,3.3029015,3.300706,3.298472,3.2959337,3.29313,3.2902465,3.287066,3.284028,3.2815585,3.2793498,3.2768745,3.2737508,3.269572,3.2642527,3.258708,3.2537174,3.2513938,3.2532425,3.2590635,3.267787,3.2783687,3.2894928,3.2999902,3.3075616,3.3104887,3.30897,3.3046174,3.2987068,3.2935297,3.2904344,3.2904904,3.2940876,3.2998662,3.3054128,3.3098447,3.3119397,3.3117328,3.3086061,3.302647,3.2959948,3.2912006,3.2883852,3.2877264,3.2894602,3.292676,3.2974243,3.3022437,3.3047,3.304675,3.303465,3.3019624,3.300775,3.3004453,3.3009448,3.30199,3.3034778,3.3050745,3.3069592,3.308764,3.3098671,3.3097258,3.308426,3.306643,3.3049817,3.3037512,3.3034384,3.3043454,3.3060014,3.3077037,3.3090754,3.3099656,3.310436,3.3107803,3.311182,3.31176,3.3124566,3.313118,3.3136902,3.314198,3.3147383,3.315506,3.3165717,3.317804,3.3189716,3.3199043,3.320561,3.3210468,3.3213239,3.3213444,3.3210146,3.3203275,3.3194304,3.3184407,3.3174062,3.3163893,3.3154066,3.3144603,3.3135853,3.312807,3.312088,3.3113413,3.31043,3.3093581,3.3081949,3.3070738,3.3060622,3.3050945,3.304198,3.3033533,3.3025556,3.301762,3.3009236,3.3000002,3.2990036,3.2980237,3.2970223,3.2959633,3.2947636,3.2934556,3.2921247,3.2908163,3.2896075,3.2884486,3.2873454,3.2862992,3.2853873,3.2846708,3.284091,3.283525,3.282898,3.2819,3.2804568,3.2786949,3.2767131,3.2745948,3.2725542,3.2705364,3.2683868,3.265889,3.263302,3.2608995,3.2589092,3.2576714,3.2571135,3.256878,3.256736,3.2563386,3.2551665,3.2532415,3.251261,3.249494,3.2481332,3.2473698,3.2465367,3.2448382,3.242465,3.2405531,3.2400231,3.24116,3.2449636,3.24943,3.2513618,3.2493167,3.2437046,3.2352605,3.2273722,3.222308,3.22128,3.225759,3.2337937,3.241261,3.2460995,3.2477484,3.2453017,3.2406552,3.2355254,3.231525,3.2294078,3.2285793,3.2280414,3.2281685,3.2288785,3.2307558,3.2336605,3.2369266,3.2400947,3.2428973,3.2454448,3.2478817,3.2498083,3.251144,3.2519336,3.2525272,3.253856,3.256488,3.2599306,3.2637281,3.2672207,3.269544,3.2703872,3.2703085,3.269391,3.2677426,3.2653403,3.2621264,3.2581124,3.2536325,3.2491965,3.2449293,3.2412095,3.2391224,3.238287,3.23873,3.240393,3.2425838,3.2451296,3.24792,3.2510862
