27.817356,27.979807,28.067392,28.11443,28.139668,28.158648,28.158627,28.104107,28.00498,27.905968,27.849834,27.90784,28.037308,28.2068,28.379623,28.527597,28.66352,28.7693,28.809624,28.750675,28.587055,28.323277,28.004637,27.672367,27.398018,27.223068,27.1683,27.20954,27.320873,27.450886,27.542915,27.598457,27.617838,27.606062,27.573822,27.515865,27.43048,27.362377,27.344387,27.402761,27.551876,27.74629,27.948557,28.10133,28.155098,28.099281,27.974318,27.83712,27.70368,27.575764,27.438856,27.275242,27.12075,27.002712,26.934616,26.925323,26.934021,26.926758,26.875013,26.78133,26.67699,26.570164,26.42339,26.231413,25.944956,25.533752,25.04927,24.570564,24.124739,23.656506,23.178999,22.660421,22.05947,21.412418,20.78867,20.107857,19.297594,18.61204,18.166307,17.871433,17.67511,17.52527,17.382141,17.22531,17.061966,16.902967,16.760746,16.639347,16.533527,16.443033,16.365515,16.30328,16.258131,16.227978,16.207695,16.193426,16.184183,16.179047,16.176256,16.176193,16.180506,16.19273,16.215998,16.248575,16.2851,16.32069,16.349451,16.369383,16.388317,16.41172,16.441654,16.482258,16.53155,16.530859,16.50329,16.465946,16.416304,16.356438,16.308968,16.311195,16.345945,16.37405,16.324131,16.175179,15.897719,14.760182,12.920553,11.699688,11.353922,11.193506,11.084093,11.002082,10.89239,10.753821,10.58437,10.382238,10.179316,9.989933,9.8312,9.712656,9.633884,9.587439,9.563833,9.556267,9.561169,9.578037,9.6076565,9.657498,9.738692,9.846199,9.949571,9.999966,9.9838915,9.978397,10.081304,10.470536,12.078345,15.235571,16.224516,16.108246,15.837069,15.571809,15.622212,15.72096,15.830397,15.94605,15.998516,15.980236,15.926272,15.859008,15.801916,15.770503,15.805567,15.918274,16.129711,16.426277,16.720093,16.930742,17.038147,17.075665,17.118351,17.150219,17.132915,17.159271,17.026974,15.632244,12.710598,11.569476,11.184368,11.065957,11.008912,11.000867,10.986952,10.95676,10.917952,10.874751,10.827324,10.778593,10.733085,10.690169,10.643722,10.590815,10.529785,10.464818,10.397832,10.331053,10.267835,10.212965,10.171378,10.147597,10.143069,10.163185,10.195154,10.222237,10.230602,10.224662,10.215425,10.215872,10.231844,10.256969,10.285506,10.312841,10.335525,10.358748,10.382079,10.403522,10.42391,10.438814,10.447187,10.448435,10.441186,10.429047,10.41579,10.405233,10.395185,10.38272,10.366578,10.343493,10.315624,10.283882,10.252874,10.224843,10.202101,10.194651,10.1992655,10.185549,10.1069,9.960714,9.5904255,8.950211,8.482731,8.223357,8.139949,8.1033745,8.096714,8.083904,8.038695,7.983925,7.939645,7.919482,7.91996,7.9237986,7.92437,7.9153295,7.8970375,7.8730273,7.844102,7.812181,7.77699,7.7398987,7.705045,7.671989,7.6391125,7.6046796,7.568015,7.5284257,7.4865437,7.4437,7.4007587,7.356101,7.31014,7.263356,7.2189627,7.1818595,7.1531725,7.1320906,7.114874,7.101183,7.0937343,7.090616,7.0889406,7.0840225,7.0763426,7.071537,7.068916,7.0687857,7.073606,7.0945206,7.1291504,7.155425,7.246156,7.3025084,7.23157,6.395352,5.0244303,4.4391656,4.3558507
27.39154,27.542229,27.632381,27.693855,27.744911,27.79475,27.828865,27.811592,27.749,27.67482,27.631075,27.685644,27.811344,27.987095,28.182924,28.370527,28.553778,28.708923,28.800335,28.792048,28.67423,28.444952,28.152212,27.844347,27.574005,27.39058,27.323586,27.353643,27.458485,27.587461,27.68637,27.75293,27.788116,27.794386,27.779531,27.733871,27.653442,27.582993,27.553795,27.588623,27.705952,27.87537,28.014465,28.086159,28.09615,28.035885,27.931559,27.81959,27.702946,27.579851,27.444344,27.28582,27.138655,27.026539,26.958282,26.941101,26.94381,26.941061,26.906565,26.832664,26.734715,26.611025,26.431396,26.235775,26.000841,25.612019,25.114098,24.602934,24.14036,23.69561,23.189255,22.623373,21.9843,21.286182,20.609455,19.936985,19.145214,18.464458,18.061731,17.811241,17.651299,17.522377,17.386906,17.229076,17.062801,16.903582,16.763996,16.647123,16.54577,16.456383,16.37559,16.30677,16.255032,16.220749,16.200249,16.188175,16.180016,16.17377,16.167656,16.163122,16.163885,16.175323,16.201626,16.239983,16.283201,16.323515,16.352604,16.374401,16.39515,16.420485,16.455593,16.50706,16.529781,16.522896,16.50624,16.46896,16.4128,16.349651,16.29848,16.297089,16.336134,16.374968,16.33271,16.165106,15.82346,14.684408,12.891181,11.73398,11.371013,11.198904,11.083148,10.999665,10.893575,10.759634,10.604472,10.403703,10.187863,9.982906,9.811928,9.688514,9.612448,9.571497,9.551057,9.541523,9.539527,9.548664,9.573579,9.623356,9.708808,9.822713,9.932724,9.988305,9.974498,9.968389,10.058485,10.44537,12.072203,15.316252,16.272127,16.111847,15.953722,15.744269,15.675068,15.758091,15.838169,15.927332,15.961831,15.938679,15.889654,15.833109,15.788177,15.76735,15.800195,15.893525,16.063828,16.29692,16.522486,16.677547,16.749802,16.776886,16.823608,16.853216,16.819317,16.873901,16.60808,15.178696,12.42372,11.469688,11.189154,11.061164,11.045771,11.037509,10.998442,10.943059,10.888757,10.845508,10.806412,10.767294,10.727703,10.685332,10.63545,10.577112,10.510954,10.44178,10.372181,10.305232,10.244966,10.196398,10.162625,10.146053,10.145451,10.166317,10.194006,10.211338,10.214953,10.2112875,10.205544,10.207926,10.224989,10.250582,10.279488,10.307457,10.331465,10.356431,10.381683,10.404929,10.426927,10.443278,10.452829,10.454996,10.448529,10.437075,10.424411,10.414792,10.406523,10.396395,10.382393,10.360454,10.332717,10.299968,10.265467,10.232972,10.20635,10.197477,10.198755,10.175292,10.089645,9.918184,9.4721,8.840714,8.440776,8.22666,8.150642,8.118622,8.109467,8.085873,8.031702,7.9769864,7.938529,7.9243555,7.9284096,7.932118,7.930589,7.919901,7.9008007,7.8767715,7.847978,7.8160505,7.7807636,7.7436924,7.7089863,7.6762037,7.64349,7.608481,7.570066,7.527236,7.481618,7.434941,7.3881493,7.34044,7.2923603,7.2443857,7.1993165,7.161468,7.1315975,7.108445,7.088086,7.070243,7.0579786,7.0504723,7.0456014,7.041085,7.0367346,7.03273,7.0281196,7.026182,7.0289016,7.046369,7.0744014,7.0886126,7.186464,7.2524457,7.1629477,6.3149476,4.997962,4.4460735,4.364973
26.671272,26.807459,26.902851,26.982666,27.06218,27.146591,27.220524,27.251278,27.241747,27.214382,27.204874,27.2708,27.399096,27.576424,27.78214,27.990505,28.200565,28.387884,28.521967,28.5703,28.519573,28.363005,28.131887,27.87537,27.648212,27.48522,27.417112,27.43606,27.526052,27.64255,27.738876,27.810484,27.860985,27.888805,27.897549,27.872295,27.806843,27.741566,27.710732,27.744768,27.838326,27.936733,27.972433,27.949644,27.914135,27.861078,27.794329,27.718208,27.620419,27.49862,27.362839,27.216429,27.087149,26.989643,26.923393,26.892654,26.880976,26.876972,26.858295,26.803844,26.705212,26.562635,26.396313,26.212423,26.002823,25.707312,25.211147,24.68497,24.188171,23.72996,23.247078,22.639141,21.953453,21.213316,20.490623,19.83709,19.077536,18.39235,18.007902,17.781677,17.644333,17.53152,17.405548,17.25077,17.083357,16.92151,16.779924,16.662754,16.561451,16.471031,16.38692,16.313065,16.257261,16.222008,16.203468,16.195148,16.189838,16.18355,16.174025,16.164055,16.160896,16.171276,16.199823,16.241615,16.287355,16.329035,16.36114,16.387983,16.411417,16.440226,16.48784,16.530437,16.542725,16.538656,16.517641,16.47238,16.410694,16.346663,16.301266,16.30752,16.342556,16.371544,16.309433,16.086063,15.6985235,14.51218,12.74398,11.736197,11.357635,11.18542,11.069289,10.986989,10.889012,10.764929,10.613306,10.427511,10.20046,9.979873,9.797094,9.669086,9.595758,9.559938,9.541765,9.528893,9.518492,9.518634,9.537986,9.5872,9.676767,9.79723,9.9143505,9.975353,9.962746,9.952529,10.026207,10.387037,11.941286,15.301471,16.280891,16.10413,16.067244,15.8958645,15.768978,15.806601,15.846672,15.91243,15.929803,15.901079,15.853894,15.803429,15.766299,15.751666,15.779458,15.852644,15.983524,16.161491,16.33296,16.452873,16.505566,16.532394,16.589144,16.622208,16.60432,16.680882,16.299366,14.750063,12.220415,11.388602,11.176131,11.071729,11.08292,11.062181,11.00276,10.933042,10.871836,10.8312025,10.800238,10.767224,10.72826,10.681308,10.624157,10.55898,10.488076,10.416439,10.346473,10.281331,10.224951,10.182492,10.15544,10.144443,10.146718,10.164194,10.180297,10.194207,10.201575,10.198347,10.194549,10.198861,10.216478,10.241844,10.270445,10.298748,10.324199,10.35111,10.378239,10.402733,10.425304,10.442004,10.45186,10.454436,10.448438,10.437281,10.42487,10.416037,10.409899,10.403486,10.393881,10.376177,10.351809,10.320797,10.284559,10.248651,10.218968,10.205402,10.199771,10.174095,10.078529,9.879636,9.392826,8.774886,8.418572,8.245474,8.169297,8.134892,8.118494,8.083065,8.02224,7.9681845,7.936132,7.927579,7.934511,7.9379444,7.9346175,7.922674,7.9030714,7.879121,7.850546,7.818844,7.783876,7.7474194,7.71342,7.681064,7.6464963,7.6087837,7.5674696,7.5227914,7.4763613,7.4274793,7.379015,7.329401,7.2795925,7.230058,7.1835775,7.1443005,7.112961,7.087886,7.0646625,7.0428824,7.025596,7.0129056,7.0037622,6.995672,6.9905653,6.9896474,6.9836197,6.9782906,6.977275,6.989039,7.007785,7.0063376,7.0991907,7.17826,7.071224,6.235812,4.9954205,4.468536,4.381075
25.614702,25.73362,25.83163,25.933243,26.045122,26.155807,26.263527,26.339506,26.384909,26.413263,26.448637,26.53374,26.666103,26.8388,27.035425,27.236921,27.44374,27.635988,27.793098,27.890947,27.914612,27.854712,27.726152,27.56452,27.413034,27.302408,27.257751,27.277565,27.351068,27.445526,27.528263,27.597052,27.657562,27.704493,27.739279,27.743135,27.709276,27.67297,27.671787,27.717808,27.772366,27.779387,27.771538,27.750061,27.707874,27.64701,27.574877,27.503016,27.420643,27.322481,27.212288,27.087622,26.970558,26.875366,26.805092,26.766924,26.749203,26.741611,26.724585,26.681515,26.606544,26.494907,26.35535,26.192837,25.988539,25.748379,25.322344,24.791023,24.280043,23.78918,23.306412,22.72749,21.983507,21.202831,20.447523,19.765667,19.07472,18.41715,18.004799,17.785389,17.654095,17.54811,17.428827,17.278503,17.11222,16.948309,16.803644,16.684294,16.581568,16.489836,16.403355,16.326757,16.270067,16.237436,16.225206,16.225567,16.228163,16.226503,16.217964,16.208256,16.206614,16.217413,16.245132,16.28484,16.32619,16.365528,16.401287,16.434092,16.473835,16.515013,16.552444,16.573774,16.574017,16.565462,16.539492,16.487934,16.420958,16.355913,16.314287,16.3246,16.350094,16.36621,16.271082,15.9674225,15.517872,14.327749,12.626021,11.724236,11.320932,11.160573,11.05257,10.971442,10.8841095,10.772596,10.628735,10.448659,10.22377,9.98347,9.787237,9.65335,9.581623,9.550211,9.533986,9.517732,9.49896,9.490214,9.504082,9.552771,9.646584,9.773968,9.898961,9.966024,9.954269,9.937439,9.99965,10.317741,11.739176,15.1873255,16.274185,16.057533,16.071783,15.963372,15.8664465,15.859322,15.855589,15.898935,15.900744,15.867125,15.821463,15.775255,15.742465,15.730753,15.751368,15.804499,15.900936,16.033514,16.163887,16.259312,16.302868,16.33635,16.406918,16.445023,16.444483,16.534267,16.047356,14.308437,12.040824,11.322484,11.14542,11.082944,11.092826,11.062789,10.993358,10.917345,10.857972,10.82103,10.793797,10.763081,10.72382,10.67338,10.612772,10.541285,10.465208,10.391765,10.322449,10.260117,10.208069,10.171491,10.150765,10.143681,10.142802,10.151689,10.163027,10.178032,10.184738,10.184888,10.184497,10.191299,10.209619,10.234542,10.262251,10.290124,10.316173,10.34405,10.37191,10.396361,10.418158,10.434138,10.443721,10.446663,10.441439,10.430907,10.419092,10.41146,10.408123,10.406469,10.402368,10.390005,10.370052,10.341189,10.304264,10.266395,10.234283,10.217337,10.205583,10.181524,10.072674,9.844084,9.325324,8.724621,8.405641,8.2594795,8.186024,8.151457,8.125778,8.076248,8.010392,7.9585633,7.9329824,7.9292707,7.938069,7.940833,7.935815,7.922876,7.9026995,7.8782625,7.8497396,7.818659,7.7843843,7.747568,7.712534,7.6782207,7.640541,7.6003504,7.55674,7.5108213,7.465776,7.418827,7.370698,7.3206196,7.269273,7.2181444,7.1701717,7.129718,7.0976934,7.0719223,7.0471835,7.0227594,7.001501,6.9843426,6.9710903,6.9593487,6.9502096,6.9471083,6.941371,6.9298654,6.9226418,6.9266624,6.935865,6.9199324,6.9806504,7.0795946,6.9548926,6.154622,5.009727,4.502099,4.4005475
24.226185,24.313097,24.397707,24.501757,24.632288,24.771795,24.917973,25.04316,25.146645,25.237848,25.330074,25.448551,25.599613,25.766428,25.937986,26.109787,26.286852,26.45701,26.611828,26.738163,26.821238,26.849716,26.828468,26.777718,26.72358,26.684826,26.67752,26.705046,26.761507,26.829517,26.892025,26.950804,27.012539,27.073586,27.134563,27.177374,27.198423,27.22003,27.264313,27.337105,27.430223,27.488682,27.485813,27.453146,27.40533,27.346802,27.282524,27.22441,27.162395,27.095417,27.018976,26.919762,26.81547,26.723888,26.65274,26.605167,26.574993,26.554989,26.53203,26.49355,26.43525,26.349241,26.239834,26.106956,25.92974,25.699194,25.371525,24.851233,24.339596,23.837566,23.332512,22.787016,22.048153,21.23502,20.457077,19.732733,19.114758,18.517443,18.058762,17.82091,17.680977,17.569744,17.450844,17.303934,17.14084,16.977932,16.832542,16.711987,16.607983,16.515137,16.427673,16.351357,16.298182,16.273798,16.27433,16.290426,16.308544,16.32087,16.324282,16.321198,16.324545,16.338099,16.366798,16.401867,16.43267,16.464344,16.505367,16.545158,16.581598,16.61711,16.628773,16.634476,16.632696,16.617825,16.582178,16.520086,16.44652,16.381634,16.344685,16.349092,16.364891,16.360365,16.237877,15.889736,15.3307085,14.2047825,12.633005,11.7240305,11.287121,11.13301,11.040204,10.962707,10.885293,10.78732,10.653338,10.471256,10.252926,9.994812,9.782042,9.640123,9.568159,9.540233,9.526085,9.507365,9.481497,9.465103,9.4743595,9.522987,9.621245,9.755771,9.889141,9.962814,9.951827,9.926664,9.983269,10.253978,11.572697,14.977555,16.282196,16.03339,16.066526,15.9864025,15.944189,15.908335,15.858072,15.8811655,15.8700905,15.834051,15.79071,15.748433,15.720102,15.710575,15.724266,15.761275,15.829768,15.926609,16.025284,16.104063,16.145943,16.191101,16.279442,16.326008,16.326021,16.414364,15.84381,13.955529,11.902563,11.272107,11.12324,11.080255,11.093623,11.061383,10.983232,10.902142,10.843354,10.810597,10.785418,10.752938,10.709804,10.653851,10.590466,10.519705,10.446083,10.372335,10.303392,10.2439375,10.196494,10.16508,10.144802,10.135857,10.131223,10.135888,10.147195,10.159709,10.168461,10.1725,10.176329,10.186335,10.205811,10.2305,10.257123,10.2839,10.309396,10.33675,10.3636265,10.386463,10.406162,10.420572,10.429728,10.433496,10.429966,10.421095,10.410881,10.405376,10.405693,10.409414,10.410821,10.40303,10.386216,10.358089,10.320493,10.281577,10.249519,10.234655,10.222039,10.195789,10.073181,9.80969,9.260833,8.679774,8.39169,8.260207,8.197002,8.1651945,8.130277,8.068839,7.998143,7.949927,7.930601,7.9308615,7.9406385,7.9423027,7.935343,7.9211655,7.8997536,7.8738737,7.8441286,7.8121095,7.7770643,7.73925,7.7022467,7.666987,7.630643,7.591042,7.546735,7.4983478,7.450615,7.406418,7.360955,7.3123584,7.259814,7.2070923,7.1579123,7.1170454,7.085669,7.0609493,7.036637,7.0115786,6.9883094,6.968513,6.9524775,6.9377375,6.924215,6.9150057,6.9044604,6.8846946,6.8683186,6.859819,6.8550158,6.8265905,6.8615847,6.9580135,6.8065634,6.07705,5.0325346,4.539677,4.4244256
22.79843,22.852753,22.912941,22.991367,23.099834,23.232067,23.373737,23.502848,23.618156,23.726042,23.830643,23.944927,24.075819,24.209274,24.34738,24.488916,24.636572,24.786339,24.940842,25.096498,25.239094,25.35355,25.429808,25.480423,25.523188,25.568789,25.606293,25.639946,25.68454,25.732792,25.777561,25.825287,25.881374,25.946106,26.02331,26.099821,26.173044,26.2529,26.35175,26.478569,26.642757,26.783865,26.867542,26.913506,26.926075,26.893162,26.844982,26.805058,26.76479,26.723537,26.674406,26.60358,26.520487,26.440216,26.368874,26.311298,26.268003,26.234577,26.202557,26.165041,26.119764,26.057512,25.979132,25.881544,25.743715,25.558159,25.220514,24.741497,24.253248,23.766533,23.259485,22.722488,22.052374,21.24532,20.473972,19.748804,19.129244,18.62221,18.183178,17.890419,17.724955,17.602993,17.4771,17.331545,17.17495,17.019493,16.879614,16.76171,16.657692,16.563263,16.474882,16.400883,16.355286,16.344748,16.365234,16.406303,16.448942,16.48389,16.508242,16.523415,16.545723,16.58481,16.613615,16.622725,16.620216,16.619247,16.637087,16.667435,16.692774,16.717257,16.73456,16.74253,16.734457,16.704828,16.650616,16.572216,16.489092,16.42316,16.389446,16.380507,16.387573,16.36116,16.215645,15.85435,15.283632,14.223883,12.730877,11.80382,11.302781,11.10796,11.038898,10.973275,10.899811,10.814183,10.689847,10.506887,10.279186,10.014164,9.781748,9.628344,9.554066,9.528836,9.51755,9.498328,9.467779,9.445822,9.451678,9.50055,9.602916,9.744299,9.886557,9.968451,9.960178,9.927107,9.9872055,10.204725,11.434162,14.697454,16.281738,16.050453,16.07128,16.006258,15.997807,15.941361,15.849384,15.855479,15.838163,15.805946,15.766802,15.727576,15.703668,15.697764,15.709079,15.735581,15.783439,15.85134,15.925506,15.991585,16.035606,16.095943,16.211168,16.25496,16.239243,16.331902,15.695291,13.673367,11.80175,11.238714,11.09803,11.071747,11.093346,11.057041,10.970862,10.8865385,10.829453,10.800494,10.7786255,10.745174,10.697475,10.635984,10.565938,10.492532,10.418459,10.347534,10.281801,10.225199,10.179704,10.151714,10.134298,10.126214,10.122887,10.126095,10.13426,10.145875,10.156679,10.164817,10.173005,10.1864605,10.207552,10.232632,10.258716,10.28441,10.308606,10.334089,10.358413,10.378416,10.395279,10.407816,10.4166975,10.4218445,10.420902,10.414846,10.407484,10.405241,10.410074,10.41932,10.425365,10.420401,10.4044075,10.374687,10.335798,10.29728,10.270632,10.253975,10.251841,10.22276,10.08262,9.772429,9.193431,8.638104,8.3722,8.256416,8.202668,8.166745,8.124178,8.062032,7.988017,7.94436,7.930545,7.9337344,7.9424896,7.942709,7.9329324,7.9135256,7.890134,7.8633876,7.8330097,7.8000226,7.7639694,7.726843,7.6924324,7.6595874,7.6247683,7.5847607,7.539054,7.489155,7.438119,7.390579,7.3476143,7.30152,7.2508206,7.1963987,7.146474,7.1062503,7.0770407,7.055197,7.0333166,7.00988,6.987112,6.9671755,6.950361,6.933856,6.9161887,6.899637,6.8753405,6.845463,6.816594,6.792767,6.77453,6.7354603,6.76178,6.8313456,6.671865,6.013424,5.050025,4.5732455,4.451336
21.634453,21.667446,21.703238,21.751379,21.820816,21.905931,21.99842,22.084274,22.164192,22.242147,22.31473,22.38613,22.45818,22.53413,22.621725,22.71616,22.816076,22.921556,23.04005,23.173702,23.311989,23.443462,23.554516,23.652798,23.748753,23.844513,23.925533,23.994755,24.067213,24.136917,24.198175,24.259033,24.324982,24.403622,24.501715,24.610615,24.729364,24.867016,25.030098,25.196169,25.372343,25.54043,25.694164,25.817257,25.895535,25.917265,25.920689,25.937794,25.963793,25.984217,25.988771,25.968489,25.928425,25.88255,25.83814,25.799414,25.752533,25.707432,25.668982,25.633862,25.600353,25.560575,25.507027,25.423815,25.282164,25.075787,24.739008,24.339073,23.913235,23.465242,23.005688,22.51493,21.88976,21.15646,20.444149,19.765324,19.145658,18.658796,18.278645,17.998585,17.800268,17.645382,17.509188,17.363882,17.218735,17.079308,16.954826,16.842697,16.738255,16.641094,16.551216,16.480932,16.446987,16.457104,16.505236,16.577425,16.662436,16.714785,16.743965,16.77102,16.80499,16.84533,16.86108,16.84383,16.80579,16.770798,16.761059,16.778471,16.817873,16.861755,16.89385,16.903059,16.880785,16.827166,16.745626,16.645023,16.549364,16.480555,16.440536,16.4256,16.424162,16.380625,16.22485,15.878351,15.374814,14.420098,12.976868,12.01994,11.403494,11.127346,11.053917,11.004728,10.934657,10.858223,10.741781,10.556308,10.31318,10.047061,9.786206,9.617195,9.538422,9.5150585,9.507553,9.490036,9.457523,9.432287,9.436039,9.485432,9.591345,9.7388935,9.89015,9.982023,9.979402,9.940564,9.990834,10.170935,11.272209,14.326096,16.255573,16.092941,16.074574,16.016094,16.031675,15.962488,15.836721,15.827596,15.809483,15.785023,15.752301,15.716639,15.696043,15.693554,15.705156,15.727213,15.761238,15.808179,15.863918,15.918436,15.966678,16.044996,16.185873,16.210142,16.16735,16.285698,15.601436,13.441886,11.727418,11.217171,11.0762005,11.066779,11.094181,11.054155,10.960498,10.873034,10.816427,10.790091,10.770404,10.737648,10.689825,10.628018,10.555529,10.476308,10.395716,10.322487,10.257301,10.203265,10.161724,10.138383,10.127928,10.124686,10.12107,10.121828,10.1277,10.138531,10.151324,10.163186,10.175283,10.192002,10.214992,10.241222,10.267753,10.292993,10.315825,10.338753,10.359682,10.37636,10.390349,10.401223,10.410202,10.417255,10.41958,10.417208,10.413658,10.415432,10.425186,10.439538,10.4499,10.443773,10.422071,10.390017,10.353175,10.318076,10.294816,10.277876,10.297373,10.263689,10.101192,9.734994,9.125171,8.600262,8.352157,8.250612,8.200147,8.159903,8.113249,8.056498,7.9834757,7.9436517,7.934123,7.9378605,7.9451165,7.94006,7.923914,7.9026227,7.8777604,7.850044,7.819528,7.787664,7.753798,7.7192917,7.6872296,7.654681,7.6193695,7.57893,7.5323253,7.481221,7.429051,7.378215,7.3326945,7.2876997,7.2395763,7.1869774,7.1357756,7.096222,7.0695963,7.0516195,7.0340147,7.014161,6.9940224,6.976121,6.9608974,6.9446173,6.9205465,6.891953,6.854309,6.8132367,6.7710733,6.7353,6.7100306,6.6610975,6.6877437,6.7480445,6.5789313,5.9507647,5.0516977,4.599396,4.4775157
20.66603,20.68535,20.702492,20.725414,20.762003,20.808712,20.859318,20.904936,20.947344,20.990187,21.028713,21.06351,21.097633,21.134134,21.177933,21.225132,21.273323,21.323427,21.383183,21.458143,21.541565,21.628323,21.714882,21.805592,21.902218,22.000046,22.09592,22.191545,22.28996,22.375746,22.448425,22.515656,22.581455,22.656963,22.748938,22.852627,22.968533,23.105518,23.267664,23.439148,23.627129,23.82303,24.01591,24.188324,24.321531,24.41145,24.467497,24.51837,24.576576,24.63582,24.680943,24.701674,24.702372,24.696518,24.688093,24.68163,24.666348,24.647282,24.62715,24.606356,24.586561,24.563427,24.52914,24.464258,24.342047,24.154804,23.906937,23.609163,23.277496,22.918697,22.524698,22.061129,21.517303,20.924873,20.323425,19.727573,19.161787,18.66739,18.29284,18.03233,17.829487,17.668533,17.53885,17.418406,17.284945,17.167606,17.064697,16.970402,16.871935,16.764023,16.661509,16.589573,16.571459,16.615465,16.689335,16.757952,16.829994,16.883612,16.92691,16.969965,17.012304,17.049927,17.060787,17.033634,16.97336,16.914606,16.890932,16.907743,16.965195,17.031878,17.070175,17.072317,17.032394,16.954697,16.846605,16.72527,16.617863,16.54355,16.50196,16.489193,16.482687,16.430855,16.278793,15.962367,15.495531,14.71751,13.465265,12.365761,11.616337,11.232677,11.1091,11.063711,10.996423,10.925814,10.814621,10.622793,10.361012,10.076772,9.790911,9.606831,9.52071,9.49824,9.495064,9.480961,9.448723,9.422145,9.424913,9.475028,9.583673,9.73601,9.895228,9.997871,10.003944,9.962947,9.993326,10.155564,11.087168,13.772676,16.188513,16.143642,16.069202,16.020735,16.061567,15.986633,15.828548,15.806442,15.7877,15.770487,15.743904,15.711267,15.692772,15.692405,15.705246,15.726345,15.752957,15.788192,15.830381,15.875853,15.928749,16.026798,16.174534,16.177788,16.118198,16.266933,15.54504,13.251883,11.664689,11.18784,11.059737,11.064274,11.095688,11.05167,10.953012,10.864526,10.809631,10.786095,10.76851,10.736334,10.688656,10.626652,10.553683,10.473288,10.390269,10.312356,10.244476,10.191443,10.154361,10.135933,10.129051,10.12802,10.124475,10.123182,10.127012,10.137085,10.151486,10.166411,10.181721,10.201195,10.2260685,10.254014,10.282092,10.307987,10.330267,10.35105,10.368912,10.382821,10.394579,10.404341,10.413664,10.422675,10.428264,10.429638,10.429994,10.43566,10.450087,10.469928,10.477513,10.464754,10.437079,10.402416,10.366426,10.33667,10.318015,10.314924,10.356294,10.316605,10.128105,9.707449,9.068855,8.571324,8.338677,8.244163,8.193354,8.153191,8.104967,8.05015,7.985273,7.9464064,7.9400034,7.944091,7.9456425,7.9363074,7.9187694,7.8984337,7.8731523,7.844599,7.8135967,7.782422,7.7500916,7.7169228,7.6845317,7.651309,7.6157084,7.575208,7.5280924,7.476204,7.423233,7.371587,7.32261,7.2748046,7.226404,7.1763577,7.126234,7.0852423,7.060201,7.0452156,7.0314493,7.0158668,6.9999447,6.9857273,6.9690366,6.948783,6.9188247,6.8819895,6.8371553,6.787027,6.7350035,6.6914268,6.661374,6.6215096,6.660963,6.708831,6.5103292,5.8813562,5.032706,4.6172767,4.5046334
19.84053,19.8522,19.857758,19.863615,19.87649,19.893295,19.911228,19.924822,19.936033,19.94841,19.958496,19.967607,19.980173,19.99753,20.020418,20.043442,20.064753,20.084356,20.108376,20.144518,20.189213,20.240751,20.299433,20.367355,20.444002,20.526064,20.608242,20.6932,20.78467,20.866854,20.936222,20.997267,21.051285,21.107843,21.17249,21.24346,21.326214,21.422564,21.537142,21.669352,21.820312,21.985188,22.15564,22.31677,22.450539,22.543787,22.607792,22.666069,22.730556,22.801727,22.869097,22.92377,22.965267,23.00213,23.03905,23.082188,23.128445,23.170588,23.193495,23.197674,23.200634,23.201405,23.187477,23.154448,23.091312,22.979816,22.811024,22.59464,22.340448,22.06131,21.746452,21.380964,20.98529,20.558886,20.100521,19.621305,19.14275,18.688843,18.308186,18.026749,17.820456,17.660597,17.529758,17.419907,17.312017,17.218214,17.133347,17.050999,16.962946,16.866014,16.779041,16.720486,16.704548,16.739342,16.803144,16.870232,16.93756,17.00626,17.066896,17.131512,17.201809,17.25586,17.269852,17.232527,17.150238,17.062275,17.021229,17.038757,17.111423,17.185837,17.224922,17.221426,17.165905,17.067156,16.93772,16.801296,16.687502,16.613895,16.581057,16.573126,16.569674,16.52467,16.390015,16.1123,15.664566,15.093485,14.11935,12.8700905,11.976584,11.426455,11.227247,11.156672,11.082191,11.015883,10.908367,10.704368,10.418817,10.104651,9.8017645,9.595947,9.501972,9.479783,9.481516,9.47223,9.441959,9.415382,9.417764,9.468391,9.578596,9.73379,9.898979,10.01203,10.029282,9.990467,10.005777,10.156439,10.912451,13.158977,15.977612,16.179712,16.052715,16.015282,16.07823,16.01775,15.837894,15.804476,15.781286,15.766453,15.742669,15.710635,15.691494,15.691011,15.705392,15.727445,15.751341,15.779635,15.812413,15.852169,15.90774,16.024326,16.163708,16.146172,16.092636,16.265242,15.498722,13.084492,11.607935,11.156243,11.045919,11.06233,11.096412,11.050144,10.949059,10.86164,10.8096285,10.78917,10.773658,10.742258,10.695267,10.633892,10.56087,10.47901,10.393116,10.312111,10.242118,10.18873,10.153275,10.138025,10.134285,10.135181,10.131585,10.128622,10.130852,10.140364,10.156101,10.1735,10.191336,10.212984,10.23953,10.269436,10.2998295,10.327396,10.350138,10.369577,10.385336,10.39764,10.408202,10.417546,10.42729,10.437843,10.446024,10.4504175,10.454033,10.46345,10.480516,10.496255,10.498716,10.482889,10.453052,10.414463,10.377366,10.352627,10.345223,10.368016,10.424891,10.378185,10.160134,9.688299,9.024768,8.553173,8.334233,8.239981,8.189093,8.149479,8.10016,8.04495,7.9915686,7.9566627,7.9501867,7.949301,7.9465,7.936433,7.92014,7.8993654,7.874058,7.8453383,7.8142705,7.783264,7.75099,7.7175283,7.684597,7.6507645,7.614956,7.574649,7.5273623,7.475171,7.4219275,7.3702006,7.320466,7.2689786,7.2157946,7.16386,7.1158457,7.0752287,7.0490108,7.035035,7.023531,7.011782,6.9979734,6.983023,6.9645233,6.9416466,6.909362,6.8694453,6.8203588,6.765396,6.7091465,6.6614523,6.6293044,6.609473,6.664055,6.692434,6.444807,5.796423,4.989914,4.6249876,4.533053
19.13408,19.139963,19.137606,19.131874,19.12958,19.12925,19.128496,19.12355,19.116968,19.112225,19.107014,19.10285,19.10301,19.109325,19.120113,19.129082,19.137714,19.143158,19.147625,19.15771,19.167353,19.181698,19.210236,19.251513,19.305286,19.369005,19.44452,19.515905,19.587486,19.65518,19.713726,19.763147,19.804989,19.847942,19.890984,19.937168,19.991074,20.052164,20.122654,20.2017,20.291477,20.392067,20.499193,20.604311,20.69452,20.75916,20.8089,20.858496,20.913677,20.971785,21.03071,21.087294,21.137102,21.185013,21.236904,21.29591,21.359192,21.41744,21.459066,21.486225,21.506638,21.522068,21.528315,21.527557,21.515923,21.480947,21.414886,21.31592,21.182,21.018707,20.829128,20.616951,20.376486,20.105,19.795364,19.445618,19.070286,18.68904,18.33921,18.055508,17.835272,17.662182,17.520695,17.403381,17.305595,17.221321,17.145102,17.066349,16.983479,16.898361,16.823633,16.776056,16.768488,16.80257,16.869173,16.956352,17.042488,17.119051,17.193344,17.276009,17.36074,17.428534,17.448761,17.405315,17.307224,17.20426,17.148643,17.16448,17.238283,17.311834,17.356623,17.351912,17.283318,17.169771,17.029129,16.886932,16.774988,16.710396,16.68955,16.696545,16.691326,16.627085,16.517542,16.321558,15.930119,15.392095,14.692615,13.569139,12.419371,11.69441,11.38896,11.267776,11.178526,11.118812,11.012084,10.8526125,10.502644,10.137851,9.819195,9.584209,9.484165,9.462624,9.470247,9.467105,9.440034,9.41424,9.416424,9.46722,9.577845,9.733588,9.901397,10.022016,10.050489,10.017714,10.022627,10.170981,10.7856865,12.683184,15.684819,16.160746,16.023956,16.004848,16.045431,16.047218,15.895144,15.831444,15.802279,15.782705,15.754751,15.718986,15.695309,15.691372,15.7049,15.72705,15.748407,15.773254,15.800995,15.836585,15.892302,16.0238,16.14498,16.109388,16.06877,16.258879,15.4393425,12.992121,11.567406,11.134078,11.034691,11.060885,11.096595,11.049076,10.947843,10.863407,10.815477,10.798584,10.785392,10.75525,10.70956,10.64942,10.576622,10.493196,10.403937,10.318892,10.245861,10.191227,10.156562,10.143314,10.141416,10.143318,10.139519,10.135528,10.137096,10.146801,10.164051,10.183626,10.203396,10.226447,10.253926,10.285248,10.317715,10.34701,10.370793,10.390037,10.4051285,10.417213,10.427636,10.437065,10.44709,10.458501,10.46821,10.475017,10.481391,10.488457,10.500298,10.512385,10.514459,10.498481,10.466644,10.424646,10.388232,10.369144,10.374697,10.427172,10.495596,10.436771,10.187323,9.680153,9.0012455,8.543285,8.336895,8.241495,8.190098,8.150662,8.100038,8.044737,7.9953637,7.9656487,7.9564624,7.9525743,7.94902,7.9387507,7.9225264,7.902191,7.8771305,7.8482904,7.81714,7.786292,7.7542453,7.720803,7.687601,7.653489,7.6178226,7.578078,7.531103,7.479277,7.4266157,7.3756123,7.3261976,7.2730203,7.214387,7.155157,7.103651,7.062992,7.0348415,7.0189285,7.0073576,6.996107,6.983306,6.9682026,6.950291,6.9277406,6.8962307,6.857027,6.8050947,6.748051,6.692528,6.644873,6.609063,6.5982666,6.6623116,6.668149,6.350211,5.6747236,4.937007,4.6246066,4.5536575
18.505726,18.508488,18.50166,18.489859,18.47975,18.470934,18.461105,18.448215,18.4352,18.423985,18.412369,18.401863,18.399883,18.40444,18.412094,18.41836,18.402428,18.371094,18.338999,18.31768,18.303658,18.300323,18.31086,18.333319,18.364891,18.40164,18.445177,18.496206,18.563944,18.638094,18.70816,18.769371,18.819939,18.844954,18.86619,18.887014,18.909569,18.934702,18.964577,19.001743,19.048483,19.103043,19.164646,19.22855,19.285652,19.328913,19.363087,19.396708,19.433874,19.475496,19.520506,19.567883,19.61277,19.657124,19.70147,19.748566,19.796738,19.844616,19.888079,19.928392,19.963722,19.994696,20.023247,20.04568,20.067604,20.086594,20.097357,20.091755,20.0625,20.008715,19.931362,19.836752,19.72211,19.583424,19.408966,19.18342,18.917341,18.629868,18.348255,18.092714,17.877485,17.6998,17.55103,17.428673,17.32847,17.247154,17.176653,17.102634,17.021584,16.935537,16.85949,16.813232,16.81178,16.859247,16.939224,17.03148,17.121277,17.20343,17.287683,17.37514,17.464863,17.544441,17.573423,17.533453,17.429394,17.320602,17.262556,17.270771,17.334486,17.408804,17.4574,17.450163,17.379528,17.261286,17.118843,16.983524,16.881435,16.831165,16.830061,16.807192,16.773392,16.704218,16.596828,16.430258,16.179287,15.718003,15.071859,14.133832,12.91801,11.995068,11.546928,11.371124,11.274038,11.222872,11.122498,11.017418,10.617654,10.170043,9.832715,9.573148,9.467655,9.447719,9.462127,9.466128,9.4431505,9.418697,9.420779,9.4715,9.581678,9.735942,9.902986,10.027854,10.066058,10.041708,10.041626,10.194857,10.7015705,12.335769,15.355265,16.106869,15.981611,15.989892,15.959173,16.041592,15.9864235,15.885506,15.840345,15.814375,15.778671,15.735281,15.703276,15.692862,15.701334,15.719786,15.740676,15.764183,15.788712,15.820395,15.874681,16.01925,16.113094,16.056435,16.031052,16.227764,15.364519,12.945119,11.54496,11.120523,11.027473,11.06052,11.096449,11.04825,10.948541,10.868358,10.825197,10.812072,10.801313,10.772803,10.728874,10.670317,10.597801,10.512579,10.419548,10.329941,10.253269,10.196557,10.161619,10.149007,10.147571,10.149555,10.145472,10.141244,10.143261,10.154108,10.173213,10.194749,10.215818,10.239347,10.266733,10.29849,10.332162,10.362495,10.387337,10.407318,10.423079,10.436164,10.44735,10.457261,10.467443,10.479158,10.490176,10.495416,10.496565,10.500458,10.510599,10.523314,10.525623,10.508299,10.473804,10.430359,10.396054,10.384106,10.403082,10.485273,10.564206,10.49128,10.20806,9.674857,8.991543,8.541351,8.342735,8.247381,8.197007,8.156967,8.104371,8.048183,7.998578,7.9696646,7.9589367,7.9544706,7.95018,7.9401536,7.9249268,7.9055505,7.881014,7.852114,7.8208385,7.790138,7.7583795,7.725195,7.692091,7.658139,7.6230326,7.5841465,7.537918,7.4871335,7.4360447,7.386747,7.3381867,7.2839994,7.2218375,7.155598,7.095279,7.0486526,7.0171795,6.997788,6.9845076,6.972677,6.9609275,6.9467297,6.9301395,6.910409,6.8814654,6.84428,6.7926598,6.7330413,6.6812377,6.6388836,6.5966873,6.585553,6.651723,6.624708,6.224403,5.5119476,4.8722167,4.61807,4.564312
17.928385,17.92918,17.921097,17.907623,17.89591,17.886255,17.87621,17.858475,17.82921,17.801542,17.778872,17.7593,17.747112,17.74273,17.740952,17.733366,17.71297,17.682714,17.650145,17.624443,17.604364,17.592813,17.59316,17.602474,17.615456,17.627806,17.638708,17.658213,17.696388,17.741993,17.786646,17.82506,17.855886,17.875984,17.892773,17.904642,17.913908,17.924528,17.943756,17.97355,18.012754,18.05677,18.105436,18.158308,18.209557,18.254887,18.286448,18.305431,18.32479,18.347942,18.373646,18.401758,18.429522,18.462149,18.499794,18.543262,18.588428,18.635935,18.683258,18.724592,18.759087,18.790482,18.819939,18.851133,18.890652,18.935635,18.982683,19.024408,19.053099,19.059196,19.049004,19.031246,19.006542,18.9714,18.913715,18.808825,18.657728,18.473244,18.27599,18.084549,17.907494,17.744095,17.599958,17.479454,17.379374,17.302631,17.24051,17.175468,17.099707,17.012486,16.932165,16.880465,16.875423,16.918415,16.991613,17.082401,17.17397,17.257135,17.336933,17.421532,17.51663,17.606062,17.646818,17.618551,17.522652,17.414442,17.356129,17.356781,17.410643,17.4826,17.506742,17.472832,17.40694,17.3134,17.203072,17.08604,16.999905,16.946009,16.9118,16.873579,16.832273,16.765596,16.624075,16.45158,16.2739,16.04499,15.483613,14.64913,13.438165,12.270479,11.697351,11.461832,11.362897,11.319435,11.240538,11.139547,10.726805,10.1971855,9.834948,9.563181,9.4512005,9.434126,9.4559965,9.467897,9.449803,9.427256,9.429377,9.479786,9.588885,9.74024,9.904141,10.026687,10.07227,10.0575695,10.058451,10.216195,10.643743,12.096753,15.018328,16.009626,15.929657,15.960724,15.907022,15.989189,16.036676,15.955146,15.883076,15.845947,15.801967,15.751249,15.710113,15.690604,15.691109,15.70562,15.725615,15.748115,15.771113,15.800934,15.856194,16.010517,16.05594,15.979507,15.968069,16.16541,15.286048,12.919851,11.541918,11.115883,11.024223,11.060704,11.095758,11.04731,10.95025,10.874828,10.836398,10.826692,10.818067,10.79124,10.74923,10.692416,10.620231,10.5332155,10.436387,10.34216,10.261618,10.202262,10.166093,10.152858,10.1507015,10.15206,10.14789,10.144375,10.14801,10.160929,10.182131,10.20524,10.226763,10.24968,10.2757225,10.306464,10.33992,10.370377,10.395894,10.416924,10.4341,10.448883,10.461514,10.472399,10.483168,10.495717,10.503474,10.503033,10.50223,10.505995,10.51677,10.529634,10.530857,10.511791,10.475769,10.43235,10.401158,10.397344,10.431778,10.539782,10.6226845,10.526747,10.225027,9.667749,8.989896,8.547238,8.352457,8.257853,8.209269,8.167666,8.111998,8.053526,8.002575,7.9720855,7.9597483,7.9537644,7.948807,7.9394255,7.925697,7.907587,7.8836513,7.854643,7.8231153,7.792467,7.7609673,7.7281914,7.6954737,7.6620116,7.627681,7.5896826,7.5444727,7.4954042,7.4465117,7.400124,7.3534746,7.2990055,7.234228,7.1630907,7.095998,7.0406876,7.000299,6.9755387,6.9597483,6.9468603,6.934708,6.923865,6.9103103,6.892397,6.8656006,6.830889,6.782446,6.7230854,6.671561,6.6321487,6.5845914,6.575004,6.638687,6.5548787,6.0794983,5.3395157,4.801485,4.6079307,4.571167
17.391861,17.393877,17.393047,17.387547,17.371141,17.343662,17.317253,17.288378,17.256796,17.227995,17.201641,17.177126,17.157413,17.14474,17.134449,17.122025,17.107868,17.08988,17.069082,17.05066,17.033422,17.018778,17.009665,17.006428,17.006435,17.004316,16.997896,16.994713,17.003117,17.015472,17.027466,17.035088,17.0382,17.040745,17.041216,17.035915,17.027369,17.022285,17.028923,17.052256,17.08767,17.12846,17.17261,17.219336,17.260843,17.29681,17.325584,17.349394,17.377262,17.415524,17.463976,17.522219,17.579159,17.60282,17.626085,17.652533,17.680773,17.71119,17.74374,17.774101,17.80016,17.823345,17.85046,17.880325,17.915472,17.956749,18.002636,18.050114,18.09539,18.13144,18.160559,18.192572,18.232168,18.276867,18.307934,18.299866,18.25439,18.175133,18.072102,17.95842,17.839836,17.71587,17.592266,17.481842,17.390924,17.325972,17.278158,17.230227,17.16977,17.090471,17.009148,16.94758,16.926624,16.953556,17.015112,17.096857,17.17957,17.249748,17.317415,17.394905,17.489468,17.58459,17.639517,17.629297,17.552284,17.45817,17.401829,17.394653,17.438885,17.4853,17.474276,17.43206,17.371395,17.295944,17.207834,17.116055,17.039368,16.980846,16.938179,16.904425,16.866253,16.80283,16.65311,16.46511,16.291492,16.18762,15.831959,14.986349,13.775974,12.541637,11.843727,11.547544,11.444045,11.41174,11.334811,11.228702,10.80008,10.217063,9.831394,9.553539,9.434694,9.421099,9.450163,9.469851,9.456959,9.436813,9.439365,9.48967,9.59748,9.745586,9.908284,10.029528,10.073498,10.067595,10.0734215,10.228672,10.597794,11.913585,14.709467,15.883972,15.865509,15.916437,15.871177,15.882553,15.979868,15.997119,15.918077,15.865986,15.813319,15.755117,15.705013,15.676866,15.669626,15.679143,15.696117,15.717662,15.741407,15.772419,15.834939,15.974593,15.971986,15.892664,15.879933,16.077576,15.211114,12.914751,11.553809,11.114665,11.023516,11.060465,11.094001,11.04563,10.951611,10.880583,10.846121,10.839128,10.832211,10.806999,10.766906,10.711879,10.640141,10.551642,10.451459,10.353094,10.268978,10.206878,10.1689625,10.15435,10.150873,10.151468,10.147711,10.1458235,10.151994,10.167534,10.190705,10.21467,10.235572,10.256675,10.280231,10.308596,10.340524,10.370394,10.396275,10.418459,10.43738,10.454113,10.468536,10.481043,10.493044,10.502552,10.5053,10.504484,10.504303,10.508358,10.519066,10.530725,10.530451,10.510202,10.473719,10.431519,10.404561,10.409265,10.461274,10.5886345,10.669338,10.538184,10.238215,9.660029,8.996248,8.558419,8.366433,8.272452,8.225142,8.181348,8.121722,8.059847,8.006392,7.973546,7.9589696,7.951306,7.9458404,7.937346,7.925297,7.908511,7.8850737,7.8558183,7.8238654,7.7930927,7.7616906,7.7292194,7.696828,7.6638274,7.63017,7.5928874,7.5490103,7.5019703,7.4562016,7.4137836,7.370221,7.3167005,7.2505054,7.175599,7.1031213,7.040286,6.99112,6.957145,6.93495,6.9197807,6.909986,6.9011927,6.8889556,6.8721414,6.8477774,6.8165355,6.7726665,6.7157784,6.6607885,6.6229343,6.5723443,6.564121,6.6246233,6.478422,5.944448,5.2072024,4.7446556,4.597156,4.575969
16.909683,16.915073,16.906593,16.876936,16.850056,16.821953,16.796038,16.76841,16.740824,16.715694,16.690548,16.664837,16.641682,16.623693,16.608212,16.5943,16.5816,16.568544,16.554337,16.540253,16.519527,16.499577,16.483423,16.471855,16.462181,16.451822,16.43959,16.429934,16.427065,16.424644,16.420738,16.413414,16.402292,16.388498,16.37207,16.35169,16.330833,16.31419,16.308193,16.314976,16.332432,16.356321,16.387142,16.420992,16.451685,16.477894,16.499844,16.52018,16.544859,16.57993,16.62629,16.683847,16.744755,16.799553,16.855446,16.912838,16.97104,17.0219,17.056059,17.07816,17.093472,17.107069,17.120935,17.135807,17.155197,17.179564,17.207043,17.234268,17.264277,17.295284,17.328579,17.372732,17.430607,17.504341,17.586199,17.651533,17.689575,17.69598,17.676859,17.639906,17.587053,17.515736,17.430704,17.346397,17.275093,17.227484,17.198355,17.174078,17.13863,17.0803,17.010448,16.948027,16.915993,16.92622,16.968985,17.030972,17.095766,17.149652,17.203665,17.269035,17.3541,17.445297,17.507294,17.51503,17.461466,17.387737,17.3389,17.326353,17.352917,17.381197,17.363127,17.318174,17.261805,17.195484,17.121548,17.048012,16.982464,16.928814,16.888641,16.85015,16.806786,16.747263,16.65012,16.47993,16.28045,16.177519,15.937337,15.1757765,14.061855,12.797478,11.963785,11.633476,11.524375,11.476953,11.393496,11.266821,10.823002,10.229352,9.824886,9.544103,9.419318,9.408224,9.442595,9.46841,9.46011,9.442596,9.446296,9.497108,9.604977,9.758486,9.914753,10.027553,10.081624,10.080432,10.092568,10.237702,10.547171,11.732126,14.396889,15.744778,15.787156,15.859449,15.82161,15.791985,15.907485,15.959755,15.899545,15.850239,15.796601,15.7341175,15.676255,15.640557,15.62639,15.630711,15.644624,15.665448,15.690771,15.724413,15.794067,15.91711,15.885814,15.809951,15.78136,15.97517,15.140179,12.915173,11.570161,11.115199,11.02281,11.058918,11.091197,11.043186,10.951666,10.883452,10.851206,10.845588,10.839625,10.815812,10.777731,10.724763,10.65401,10.564973,10.4625225,10.361089,10.274122,10.209569,10.169829,10.153709,10.148993,10.149259,10.146577,10.146947,10.155898,10.173742,10.19792,10.2214,10.240356,10.2586,10.279194,10.305139,10.335673,10.365262,10.391764,10.415283,10.435991,10.454557,10.471,10.485166,10.494315,10.500442,10.503752,10.504118,10.504501,10.509011,10.519394,10.529249,10.527296,10.505761,10.469224,10.429205,10.407506,10.420456,10.488265,10.625966,10.687027,10.548033,10.249931,9.654789,9.009269,8.572029,8.381905,8.288824,8.242365,8.196412,8.13274,8.067205,8.010953,7.975711,7.9590597,7.9498563,7.943942,7.9362135,7.9256244,7.909955,7.886887,7.8573585,7.8249674,7.7939672,7.762399,7.7297935,7.697215,7.6641326,7.6306233,7.593676,7.5510983,7.506485,7.464693,7.427221,7.3878,7.3365293,7.270556,7.193509,7.116531,7.0467234,6.9886746,6.9451256,6.915123,6.895592,6.88453,6.8751984,6.8632565,6.8478446,6.8264723,6.799478,6.7604856,6.707472,6.6518993,6.6106815,6.559717,6.551963,6.610823,6.428087,5.856362,5.137733,4.714526,4.59254,4.580514
16.461372,16.461336,16.431452,16.400654,16.374035,16.34855,16.325634,16.30273,16.279272,16.257788,16.235195,16.209797,16.18445,16.1622,16.142012,16.124962,16.11077,16.095045,16.07586,16.057802,16.038437,16.020168,16.004496,15.992474,15.981873,15.971352,15.96002,15.950549,15.944981,15.938106,15.9290285,15.916362,15.899967,15.880262,15.857644,15.831655,15.805495,15.783046,15.770185,15.767945,15.775138,15.787714,15.804934,15.8249655,15.843996,15.859697,15.872459,15.883991,15.898981,15.922716,15.955197,15.996993,16.043242,16.0935,16.146692,16.202236,16.257765,16.312132,16.363937,16.410862,16.451418,16.48528,16.512983,16.540094,16.565216,16.577545,16.590528,16.605318,16.622917,16.641375,16.659794,16.680088,16.727608,16.795475,16.865961,16.933805,16.99485,17.048891,17.089626,17.114605,17.121164,17.101522,17.06325,17.016548,16.973217,16.947048,16.93903,16.941082,16.93691,16.911642,16.867964,16.818758,16.785625,16.781427,16.802464,16.840586,16.883049,16.923214,16.962065,17.011383,17.079098,17.1544,17.212034,17.229752,17.19773,17.145094,17.105762,17.087198,17.090876,17.096865,17.079653,17.042057,16.988722,16.92639,16.8585,16.78974,16.728485,16.683594,16.658083,16.643549,16.623077,16.563107,16.483374,16.371494,16.23586,16.065756,15.800432,15.179344,14.304815,13.052552,12.099014,11.737091,11.611391,11.532034,11.43754,11.263566,10.80533,10.234899,9.816416,9.536402,9.405888,9.396437,9.433723,9.463236,9.458254,9.443132,9.447907,9.500068,9.615826,9.770659,9.913502,10.023538,10.082005,10.098709,10.110781,10.243681,10.50469,11.557779,14.071042,15.573885,15.694585,15.788488,15.757912,15.718236,15.82393,15.876639,15.8408165,15.799778,15.746604,15.684666,15.621498,15.579542,15.559819,15.56019,15.5721,15.592663,15.619278,15.655365,15.728069,15.842353,15.798875,15.725338,15.687357,15.873346,15.053619,12.908347,11.583971,11.114616,11.019636,11.055291,11.087303,11.0400915,10.950376,10.883098,10.851088,10.845426,10.839694,10.817082,10.781178,10.730667,10.661558,10.573004,10.469527,10.366315,10.277601,10.211387,10.170368,10.1532135,10.147924,10.148636,10.147713,10.150723,10.162346,10.181865,10.205971,10.227786,10.243817,10.258589,10.276224,10.300244,10.330001,10.359918,10.387399,10.412251,10.434493,10.45476,10.472655,10.483157,10.490191,10.497497,10.502398,10.504154,10.505669,10.511324,10.520698,10.529036,10.525259,10.501875,10.465405,10.4283,10.412388,10.433265,10.514155,10.65646,10.689007,10.560681,10.263969,9.654837,9.026231,8.583904,8.395857,8.3046465,8.258819,8.21114,8.143854,8.074926,8.016141,7.9789667,7.9608665,7.950571,7.9443827,7.937316,7.9279146,7.9131374,7.8903427,7.8606043,7.827888,7.7966776,7.7647953,7.7316666,7.698393,7.6646767,7.630755,7.5938296,7.5522175,7.5101748,7.4725323,7.4402275,7.405272,7.3570585,7.2928643,7.215702,7.136117,7.060392,6.993356,6.9397163,6.9007735,6.8745246,6.8590603,6.8472424,6.8344755,6.81971,6.8010235,6.778101,6.744172,6.695875,6.641883,6.597368,6.5472736,6.540533,6.599679,6.4098186,5.821945,5.1094503,4.7007947,4.5926356,4.5829864
16.035334,16.024656,15.99548,15.968758,15.945409,15.923014,15.900259,15.878339,15.858478,15.83621,15.81109,15.782892,15.75415,15.7279415,15.703512,15.6818285,15.662322,15.643761,15.624762,15.608037,15.592518,15.578871,15.567384,15.559347,15.553117,15.54756,15.541512,15.53634,15.532841,15.526638,15.518357,15.507628,15.492547,15.473542,15.450064,15.4214325,15.392936,15.370236,15.3553295,15.349285,15.350978,15.356766,15.36584,15.377445,15.388292,15.396389,15.402063,15.406826,15.414333,15.428669,15.450998,15.480723,15.514471,15.552191,15.593616,15.638217,15.682928,15.7278385,15.773589,15.817066,15.855486,15.8876505,15.913979,15.936844,15.959837,15.981833,16.003195,16.022177,16.036554,16.039019,16.023424,16.018625,16.041569,16.098076,16.187101,16.281736,16.344847,16.391106,16.435047,16.471956,16.501003,16.514719,16.514122,16.502808,16.488588,16.48132,16.489954,16.513721,16.538157,16.548674,16.539974,16.517553,16.49547,16.48443,16.488756,16.504574,16.523457,16.541794,16.56181,16.591457,16.639225,16.698017,16.74291,16.761372,16.744532,16.710281,16.68002,16.657652,16.639906,16.618206,16.583597,16.54036,16.491182,16.438831,16.38392,16.32684,16.272528,16.230148,16.207827,16.19709,16.183386,16.143719,16.085438,16.012493,15.944334,15.832536,15.564707,15.043655,14.430162,13.288428,12.254181,11.865313,11.700271,11.591175,11.480872,11.246766,10.771884,10.238238,9.808777,9.534625,9.39974,9.387411,9.426453,9.459324,9.455494,9.439831,9.446229,9.50437,9.626042,9.768905,9.90873,10.021794,10.083638,10.104201,10.125148,10.239948,10.470835,11.370387,13.642901,15.341471,15.592089,15.701862,15.679694,15.633854,15.718653,15.774855,15.758629,15.72514,15.674104,15.610825,15.54465,15.498953,15.475844,15.473693,15.483838,15.503525,15.530777,15.567531,15.638645,15.752232,15.711937,15.6421795,15.607054,15.778276,14.9337,12.875706,11.584126,11.108182,11.011558,11.048391,11.081651,11.036288,10.948186,10.880735,10.847544,10.84078,10.834604,10.812773,10.778831,10.730685,10.663493,10.576119,10.472675,10.369085,10.280125,10.213821,10.17298,10.156154,10.151514,10.153656,10.154984,10.160548,10.174248,10.194494,10.217464,10.236724,10.249449,10.26107,10.2766695,10.299822,10.329629,10.360197,10.388521,10.414284,10.437545,10.457899,10.468678,10.477497,10.486133,10.495307,10.502125,10.505598,10.508804,10.515887,10.52496,10.531931,10.526035,10.5004635,10.464371,10.431311,10.422126,10.451757,10.543888,10.687266,10.6912,10.570694,10.283699,9.674294,9.042524,8.590357,8.4063225,8.318736,8.273407,8.224668,8.154449,8.082634,8.021784,7.9833436,7.964586,7.9538474,7.9477134,7.941328,7.9329224,7.918887,7.896358,7.866603,7.8338656,7.802705,7.7706575,7.736944,7.702799,7.6682262,7.633683,7.5966277,7.555667,7.515849,7.481612,7.453341,7.4218388,7.376299,7.314735,7.239589,7.1601567,7.0810785,7.006509,6.9428005,6.8935804,6.8584747,6.836035,6.818862,6.802739,6.786477,6.7693324,6.7506537,6.722375,6.6797357,6.6297884,6.585703,6.5360203,6.52848,6.587263,6.412794,5.8259706,5.108626,4.6961727,4.590745,4.5807333
15.634307,15.618111,15.593615,15.5693035,15.54377,15.518042,15.491821,15.464537,15.440056,15.418526,15.395426,15.368188,15.339252,15.311598,15.284772,15.260383,15.23822,15.218409,15.200056,15.185443,15.173548,15.164789,15.158672,15.156394,15.156591,15.158012,15.159098,15.16018,15.161049,15.158043,15.153906,15.147446,15.136572,15.12192,15.102985,15.078977,15.053022,15.029675,15.013918,15.006481,15.005514,15.0068655,15.010094,15.015208,15.019296,15.021296,15.021975,15.022587,15.025932,15.035228,15.050133,15.071047,15.095497,15.124239,15.157198,15.193676,15.230194,15.266169,15.302027,15.335524,15.364982,15.38995,15.410819,15.428612,15.445442,15.461144,15.473393,15.481623,15.485213,15.48247,15.475252,15.475504,15.48475,15.502631,15.545633,15.601603,15.659986,15.7196045,15.785014,15.851163,15.886477,15.906775,15.920123,15.92587,15.928462,15.9333935,15.946484,15.968992,15.997179,16.031086,16.051474,16.054392,16.048912,16.043718,16.043736,16.048164,16.05142,16.051355,16.051552,16.0588,16.080463,16.11344,16.145216,16.162348,16.15617,16.135397,16.111385,16.085854,16.056698,16.02105,15.976731,15.930685,15.886719,15.844642,15.802745,15.759055,15.716511,15.683407,15.666597,15.656005,15.645508,15.615263,15.56841,15.513964,15.459494,15.393032,15.218595,14.843237,14.372693,13.484498,12.480287,12.01118,11.801532,11.677869,11.5434065,11.2692795,10.793766,10.242289,9.803492,9.53802,9.40306,9.386273,9.425461,9.455663,9.454099,9.440067,9.445619,9.505495,9.621261,9.758666,9.901927,10.0201235,10.086767,10.107782,10.122803,10.220378,10.439216,11.170202,13.118453,15.033419,15.512794,15.591739,15.583564,15.534835,15.598541,15.662986,15.654414,15.635751,15.588242,15.524021,15.456448,15.409752,15.385609,15.382494,15.3917055,15.410223,15.435838,15.469973,15.535827,15.649151,15.633123,15.563405,15.532389,15.685933,14.774802,12.816997,11.570794,11.095232,10.998734,11.039174,11.075271,11.032964,10.946562,10.878229,10.842774,10.833936,10.826567,10.804934,10.772585,10.72661,10.661442,10.575619,10.4729185,10.370071,10.282204,10.217272,10.177842,10.162222,10.158834,10.16266,10.166163,10.173859,10.188904,10.209034,10.2301855,10.246692,10.256548,10.266144,10.281129,10.304658,10.335252,10.366591,10.395445,10.421154,10.4414,10.453485,10.463652,10.4740305,10.485245,10.496852,10.50587,10.511282,10.516738,10.524966,10.534452,10.540483,10.532173,10.503839,10.4679785,10.439416,10.437381,10.475716,10.577425,10.7187805,10.695804,10.577092,10.298142,9.703625,9.060913,8.593568,8.413764,8.330342,8.285299,8.236099,8.163783,8.089789,8.027553,7.9886246,7.9699764,7.959381,7.9534936,7.947689,7.940013,7.926564,7.9044127,7.8749847,7.842659,7.8119264,7.780019,7.745922,7.7111235,7.675922,7.6409674,7.603818,7.5633225,7.524987,7.4927654,7.4665036,7.436636,7.392733,7.3341203,7.2629333,7.1867733,7.1079226,7.0287914,6.956671,6.897149,6.8519726,6.8204327,6.795147,6.7726684,6.7520885,6.7342367,6.718932,6.6971216,6.6614304,6.6168876,6.5753117,6.5275455,6.518236,6.5763426,6.4357405,5.863543,5.1268163,4.698224,4.587169,4.575283
15.2368145,15.210918,15.186414,15.161737,15.13822,15.114416,15.089604,15.063557,15.039301,15.018326,14.99612,14.96942,14.940512,14.912316,14.884427,14.85891,14.835758,14.815649,14.79804,14.785215,14.776284,14.771589,14.77029,14.773392,14.779668,14.787523,14.794935,14.80152,14.806489,14.806936,14.803843,14.797096,14.788546,14.776709,14.76152,14.742387,14.721658,14.702616,14.689589,14.683025,14.681099,14.68021,14.680114,14.681644,14.682516,14.681625,14.679846,14.678768,14.6805315,14.687686,14.6991825,14.71534,14.734344,14.7568,14.783659,14.814475,14.844561,14.872955,14.9001465,14.924492,14.945191,14.962305,14.976466,14.988285,14.998972,15.008216,15.015061,15.0185795,15.0185375,15.014103,15.006582,15.00058,15.00056,15.009776,15.027556,15.044294,15.064229,15.093374,15.131849,15.180614,15.236723,15.29384,15.337357,15.355936,15.354294,15.347313,15.361073,15.409227,15.461227,15.485915,15.504652,15.516999,15.524195,15.524812,15.5237055,15.521402,15.515574,15.506382,15.496547,15.492054,15.499082,15.515434,15.533257,15.539736,15.532778,15.515348,15.49185,15.463034,15.428455,15.388409,15.344017,15.301489,15.264105,15.230805,15.199592,15.168142,15.138293,15.117498,15.110764,15.114194,15.110335,15.08611,15.04972,15.009986,14.973647,14.930378,14.819715,14.575151,14.217559,13.568956,12.711082,12.189862,11.943529,11.816488,11.657728,11.347968,10.84597,10.255421,9.794978,9.531225,9.4089775,9.391298,9.421839,9.443596,9.44366,9.434119,9.43883,9.4972105,9.60375,9.740332,9.889373,10.0143585,10.087468,10.109994,10.117022,10.19663,10.412152,10.966996,12.568939,14.734177,15.4291,15.465045,15.475473,15.428915,15.467417,15.546601,15.546847,15.54528,15.500408,15.436887,15.37159,15.328025,15.306189,15.304332,15.313583,15.330837,15.353259,15.381872,15.438246,15.542207,15.556496,15.480018,15.452205,15.584139,14.583536,12.741254,11.548702,11.078358,10.983613,11.029756,11.069988,11.032044,10.947862,10.878413,10.839927,10.828135,10.818781,10.796713,10.765483,10.721348,10.657874,10.573408,10.471687,10.370387,10.284917,10.222464,10.184764,10.169892,10.16685,10.171275,10.17602,10.185162,10.201163,10.22138,10.241603,10.256805,10.265681,10.275133,10.290947,10.315535,10.34687,10.377876,10.405824,10.424134,10.438586,10.451241,10.463327,10.476715,10.491518,10.506486,10.518377,10.526288,10.533345,10.543113,10.554178,10.559612,10.548377,10.516017,10.479011,10.453733,10.457689,10.503136,10.611147,10.7477455,10.702783,10.584327,10.316034,9.735243,9.077983,8.599214,8.42022,8.339616,8.294184,8.244873,8.1713295,8.096013,8.033181,7.99449,7.976568,7.9664555,7.960767,7.9552097,7.9478307,7.9347987,7.9131913,7.8844986,7.85306,7.823121,7.791683,7.757639,7.7227716,7.687684,7.65305,7.6161823,7.5760536,7.5382643,7.5063257,7.4796977,7.449224,7.405476,7.349555,7.2836885,7.213807,7.1394653,7.060378,6.983821,6.916292,6.861825,6.820218,6.7845273,6.7523694,6.7237697,6.701788,6.687462,6.6716995,6.644215,6.6072474,6.570546,6.527019,6.518005,6.5768924,6.4847727,5.937645,5.162734,4.7064304,4.5832653,4.5685625
14.840111,14.815958,14.794133,14.772278,14.751276,14.729528,14.7060375,14.681746,14.660169,14.639789,14.617152,14.590372,14.561497,14.533353,14.505413,14.479868,14.45674,14.436999,14.420267,14.408911,14.402159,14.400444,14.402767,14.40992,14.420717,14.43319,14.444962,14.455271,14.46306,14.465839,14.464522,14.458576,14.448562,14.435755,14.421516,14.405913,14.39072,14.377079,14.36753,14.362356,14.360448,14.35944,14.35914,14.359709,14.359277,14.357478,14.355331,14.354463,14.356414,14.36334,14.374098,14.388876,14.405991,14.425734,14.448085,14.472026,14.495374,14.5177555,14.537664,14.553964,14.566494,14.575567,14.5821085,14.587065,14.592008,14.596876,14.601238,14.603634,14.604256,14.602806,14.598236,14.591032,14.5855,14.583117,14.582736,14.585447,14.593557,14.604541,14.61601,14.633555,14.664917,14.704688,14.740347,14.761014,14.7680435,14.770244,14.784979,14.823673,14.877332,14.937082,14.990796,15.01911,15.018914,15.014297,15.010734,15.006966,14.998405,14.986371,14.972633,14.961536,14.957474,14.959578,14.963568,14.963858,14.95665,14.942646,14.923642,14.899479,14.868522,14.831776,14.79295,14.7570505,14.725976,14.698644,14.673683,14.649446,14.626667,14.612038,14.608756,14.614146,14.618286,14.604628,14.576454,14.547025,14.530062,14.509085,14.440389,14.279283,14.010054,13.567921,12.884183,12.367331,12.105286,11.992125,11.819251,11.46125,10.921728,10.278867,9.780297,9.520706,9.415493,9.393154,9.413815,9.433593,9.428378,9.417925,9.426567,9.477036,9.5785265,9.71796,9.873348,10.006576,10.087543,10.112532,10.112572,10.17299,10.363307,10.841789,12.274902,14.43428,15.306675,15.321821,15.349744,15.311541,15.325983,15.42259,15.435878,15.432164,15.405148,15.347529,15.288504,15.251922,15.234907,15.235337,15.244339,15.259005,15.276042,15.295957,15.338438,15.425915,15.460764,15.376535,15.36034,15.38705,14.353516,12.65678,11.526189,11.065189,10.972786,11.025347,11.070117,11.037308,10.95575,10.885055,10.842912,10.827317,10.815153,10.791952,10.761288,10.718439,10.655779,10.5716,10.470096,10.370112,10.287466,10.227775,10.19127,10.175986,10.171953,10.175874,10.18134,10.191998,10.209406,10.230734,10.251619,10.267544,10.27771,10.289019,10.307004,10.333311,10.365376,10.392681,10.411501,10.428238,10.443845,10.458781,10.474059,10.491735,10.511298,10.530401,10.5449505,10.554095,10.562725,10.574602,10.587432,10.59182,10.576046,10.537188,10.496423,10.471995,10.480047,10.53039,10.639269,10.767625,10.711559,10.5913515,10.336294,9.77086,9.097697,8.609516,8.421905,8.343742,8.299786,8.250571,8.176916,8.101372,8.038934,8.001263,7.984565,7.9751196,7.9694357,7.963721,7.9562407,7.943541,7.922762,7.8953056,7.865286,7.836527,7.8059125,7.7723675,7.7380457,7.7038536,7.6702757,7.6343193,7.5945454,7.556599,7.5234838,7.494334,7.4609175,7.4156985,7.3615417,7.301312,7.239457,7.1730595,7.098752,7.0227823,6.9512987,6.890142,6.839363,6.7927628,6.749254,6.710414,6.681693,6.6657214,6.6539536,6.63336,6.6036425,6.571834,6.533029,6.528113,6.592462,6.5599523,6.0438404,5.215754,4.722014,4.5811234,4.562556
14.465496,14.443248,14.423952,14.404821,14.386255,14.366461,14.346333,14.326231,14.305622,14.284575,14.261278,14.234314,14.205626,14.177983,14.150672,14.12583,14.103315,14.0842495,14.068394,14.058228,14.053077,14.053336,14.05774,14.06688,14.079716,14.09422,14.107999,14.120175,14.12968,14.13419,14.134367,14.129462,14.119963,14.1077175,14.094551,14.080711,14.067579,14.055695,14.047072,14.042111,14.039989,14.038877,14.038552,14.039008,14.038675,14.037453,14.036322,14.036777,14.039981,14.0477295,14.059074,14.074112,14.09095,14.109548,14.129751,14.150552,14.169284,14.184862,14.197597,14.206545,14.212019,14.214745,14.215889,14.216442,14.217992,14.220519,14.223894,14.2264385,14.228357,14.229839,14.229925,14.227017,14.220772,14.211533,14.201009,14.192009,14.186474,14.186382,14.1927395,14.206545,14.223253,14.240184,14.257188,14.270533,14.280842,14.290487,14.306152,14.33345,14.372681,14.415272,14.453667,14.484158,14.508559,14.526236,14.538359,14.548662,14.545654,14.532364,14.517039,14.503044,14.495058,14.4905205,14.487019,14.481615,14.47189,14.457689,14.439611,14.417617,14.391538,14.363175,14.333689,14.305693,14.280733,14.258533,14.238268,14.21933,14.2022,14.191512,14.18494,14.184393,14.184988,14.174397,14.15441,14.132719,14.120344,14.109321,14.074812,13.969532,13.774865,13.5101595,12.996226,12.541055,12.317715,12.205965,12.010286,11.606001,11.005425,10.308832,9.76957,9.5101185,9.408879,9.388273,9.409087,9.424631,9.415317,9.400816,9.40564,9.452984,9.55381,9.69642,9.859316,10.002321,10.092369,10.120735,10.115033,10.158814,10.325713,10.7554245,12.025174,14.0820265,15.138917,15.163882,15.2110405,15.184553,15.186045,15.292316,15.314833,15.309465,15.293261,15.248277,15.198521,15.170659,15.159422,15.161642,15.16851,15.177886,15.186289,15.194712,15.219727,15.2877035,15.337834,15.243378,15.231992,15.103966,14.112269,12.586418,11.524221,11.068523,10.97672,11.034149,11.082147,11.053979,10.974779,10.902559,10.856188,10.835939,10.82008,10.79512,10.764623,10.722548,10.659549,10.573813,10.470439,10.370025,10.288956,10.230947,10.194359,10.177168,10.171152,10.174547,10.181952,10.196069,10.216934,10.241388,10.264924,10.28364,10.297061,10.31183,10.333,10.360322,10.384797,10.406963,10.427131,10.446446,10.465619,10.485032,10.5059395,10.53006,10.555196,10.577971,10.595261,10.605893,10.615381,10.628252,10.641511,10.642545,10.618531,10.568567,10.519358,10.489662,10.493256,10.546288,10.656277,10.776394,10.720551,10.596349,10.357466,9.809691,9.119381,8.623029,8.420412,8.342687,8.30081,8.252462,8.180204,8.105961,8.045214,8.009501,7.9945164,7.9857965,7.979812,7.9735303,7.9656844,7.95342,7.9339495,7.908315,7.88023,7.852974,7.8234625,7.790799,7.757466,7.7247343,7.692752,7.658179,7.618999,7.5806775,7.5456023,7.5125475,7.4744415,7.4263906,7.3726826,7.317012,7.2628946,7.2058783,7.1403036,7.0708656,7.001779,6.93947,6.883545,6.8287044,6.774795,6.725582,6.6882625,6.667409,6.6554394,6.6371927,6.6109295,6.5813847,6.544876,6.544881,6.6211805,6.6202083,6.152279,5.3095407,4.7563953,4.582956,4.5588503
14.108446,14.08797,14.071265,14.054588,14.038404,14.021683,14.004804,13.986309,13.966131,13.944788,13.92115,13.894496,13.866633,13.840249,13.814301,13.7908325,13.769504,13.751457,13.7366295,13.72753,13.723591,13.725059,13.730246,13.739591,13.752217,13.766335,13.77993,13.792247,13.802333,13.807917,13.809242,13.805275,13.796402,13.784729,13.772362,13.759639,13.747567,13.7363615,13.727674,13.722061,13.719064,13.717465,13.717115,13.717791,13.7181015,13.71799,13.718302,13.720336,13.724954,13.733767,13.746116,13.762048,13.779259,13.797311,13.815909,13.834087,13.849685,13.861851,13.8710785,13.876725,13.879108,13.878904,13.877168,13.875171,13.874907,13.876493,13.879791,13.882672,13.884913,13.887212,13.888811,13.88747,13.882116,13.872774,13.860887,13.849503,13.840441,13.834921,13.833919,13.83795,13.845975,13.857109,13.869654,13.882348,13.896561,13.908128,13.922909,13.942786,13.964747,13.987434,14.009749,14.029707,14.04832,14.065963,14.082795,14.098923,14.113022,14.1210375,14.121913,14.1179085,14.111427,14.103843,14.094651,14.082684,14.069105,14.056901,14.044909,14.025806,14.005111,13.983519,13.9613,13.939457,13.918411,13.898103,13.878438,13.859472,13.841395,13.827104,13.819015,13.815439,13.812885,13.802179,13.783464,13.763832,13.75815,13.756486,13.735968,13.672516,13.543795,13.363022,13.03662,12.705175,12.524136,12.418309,12.190384,11.767877,11.095481,10.339846,9.765001,9.50431,9.403444,9.383562,9.404877,9.41904,9.4065275,9.387857,9.388432,9.432629,9.532953,9.679192,9.85052,10.004167,10.103693,10.135834,10.125806,10.156835,10.307526,10.7028475,11.821688,13.72951,14.89755,14.985947,15.049969,15.038096,15.047815,15.148857,15.171174,15.16782,15.154915,15.116533,15.076268,15.056997,15.049632,15.050718,15.052601,15.054419,15.05276,15.048115,15.053827,15.109499,15.160099,15.069769,15.070575,14.792564,13.909423,12.530939,11.550252,11.094204,11.000595,11.0551195,11.107114,11.0833235,11.006978,10.933169,10.882439,10.856996,10.83633,10.809081,10.779001,10.737096,10.671894,10.582044,10.473756,10.370684,10.289887,10.232783,10.19544,10.175866,10.168085,10.172296,10.184068,10.204576,10.2317095,10.261778,10.290094,10.313479,10.332091,10.346804,10.364264,10.3871,10.412121,10.436838,10.461213,10.48584,10.511519,10.538176,10.566107,10.597907,10.630698,10.65923,10.679195,10.689884,10.698652,10.711899,10.723286,10.717339,10.68041,10.611013,10.5435095,10.499943,10.498016,10.54846,10.650974,10.781891,10.7270775,10.599469,10.377002,9.846849,9.139121,8.634471,8.416433,8.337253,8.297206,8.25083,8.181328,8.10967,8.051591,8.018467,8.005455,7.99743,7.990999,7.984017,7.9758716,7.96437,7.946726,7.9234586,7.897752,7.872318,7.844206,7.8127556,7.780693,7.7496133,7.719388,7.686395,7.648239,7.6093826,7.5719776,7.5341067,7.4901595,7.438058,7.3832636,7.330236,7.2820206,7.2337813,7.178981,7.120912,7.061354,7.0052285,6.950767,6.893454,6.8332543,6.775977,6.7301917,6.702533,6.685972,6.664222,6.634572,6.6003046,6.562661,6.562541,6.6471004,6.6608996,6.2554517,5.4307604,4.806256,4.5910397,4.556215
13.769587,13.751386,13.737421,13.723707,13.710312,13.695997,13.679129,13.66066,13.641542,13.620341,13.596931,13.571228,13.544867,13.520316,13.496263,13.474454,13.45453,13.437718,13.424027,13.416031,13.413258,13.415629,13.421029,13.429621,13.44068,13.452765,13.464532,13.475563,13.485234,13.491387,13.493857,13.491514,13.4845,13.474926,13.464782,13.454294,13.444133,13.434225,13.425848,13.419674,13.415582,13.413041,13.412026,13.412237,13.41243,13.412592,13.413454,13.416113,13.421204,13.430185,13.442636,13.458554,13.47532,13.4921055,13.508572,13.52392,13.536608,13.546247,13.553455,13.55784,13.559584,13.559149,13.557358,13.555377,13.555274,13.55725,13.561176,13.564751,13.567653,13.570914,13.574254,13.575425,13.573156,13.567353,13.559013,13.550822,13.544249,13.53983,13.538352,13.540186,13.544318,13.550027,13.556746,13.564365,13.574035,13.586674,13.602282,13.621272,13.638888,13.6510935,13.661884,13.6707535,13.680641,13.693681,13.708329,13.723932,13.739307,13.752371,13.759927,13.762523,13.760386,13.755119,13.7472105,13.736134,13.72355,13.71248,13.705599,13.702629,13.69577,13.678524,13.659771,13.641521,13.623021,13.603992,13.584652,13.565049,13.546616,13.5299835,13.516506,13.505344,13.4957485,13.482135,13.464319,13.446613,13.440135,13.445636,13.44488,13.411588,13.33351,13.197813,13.03858,12.835606,12.700627,12.578507,12.328242,11.876531,11.141871,10.362671,9.765627,9.504079,9.400235,9.381927,9.404268,9.418212,9.403811,9.381927,9.378664,9.4198,9.519682,9.669774,9.850166,10.014677,10.122576,10.158091,10.144869,10.166935,10.306701,10.691479,11.702293,13.400439,14.566136,14.779974,14.85251,14.854896,14.899673,14.978584,14.989023,14.990235,14.960428,14.921958,14.889099,14.875242,14.869593,14.868073,14.863955,14.85733,14.845558,14.82936,14.819793,14.848955,14.907387,14.895818,14.796681,14.420711,13.692351,12.46962,11.603575,11.142814,11.045384,11.093452,11.144714,11.122343,11.050147,10.97576,10.921402,10.890483,10.865045,10.835553,10.805454,10.762933,10.693035,10.595175,10.478559,10.370094,10.28894,10.233251,10.196042,10.175447,10.167889,10.175638,10.194898,10.22492,10.2609625,10.298975,10.332037,10.352765,10.366966,10.383719,10.404421,10.428828,10.455879,10.485903,10.518169,10.551906,10.586252,10.622309,10.661913,10.705286,10.74757,10.781403,10.801904,10.809675,10.819716,10.837309,10.846335,10.823152,10.753533,10.657742,10.569442,10.510608,10.50001,10.545338,10.641276,10.788508,10.728876,10.599254,10.389395,9.874377,9.1501665,8.634992,8.406196,8.326202,8.288714,8.245423,8.179511,8.111065,8.056012,8.02565,8.014591,8.007218,8.000428,7.9930153,7.9849987,7.9747167,7.9593105,7.938689,7.9156203,7.892274,7.865918,7.8359895,7.8052225,7.7755165,7.746586,7.7148957,7.6781197,7.6385794,7.598802,7.5556817,7.505383,7.4485207,7.391388,7.3386583,7.293018,7.250329,7.2050047,7.1594224,7.113946,7.0714126,7.0278144,6.9777775,6.9204054,6.8622904,6.811817,6.7776732,6.7528,6.720146,6.675811,6.6270275,6.581772,6.5701494,6.647652,6.676518,6.3416147,5.5540257,4.8699675,4.606265,4.5556917
13.428991,13.41361,13.402163,13.390971,13.380427,13.369472,13.35592,13.338117,13.3168335,13.293581,13.270299,13.246046,13.221647,13.199507,13.177791,13.158056,13.140007,13.124926,13.1128435,13.1063,13.104941,13.108342,13.113942,13.121604,13.130855,13.140616,13.150276,13.159867,13.169063,13.1758585,13.179879,13.17994,13.176008,13.169868,13.163197,13.156025,13.14867,13.140854,13.133535,13.127378,13.122558,13.119137,13.1173,13.116716,13.116394,13.116326,13.117175,13.119873,13.124876,13.133452,13.14534,13.160403,13.17591,13.190759,13.204641,13.21706,13.227119,13.234936,13.241222,13.24577,13.248503,13.249679,13.249839,13.249802,13.251398,13.254941,13.260266,13.265169,13.269359,13.274034,13.279415,13.283564,13.285363,13.284672,13.281971,13.279333,13.277751,13.277297,13.278614,13.281895,13.286107,13.290524,13.294932,13.299718,13.30585,13.313917,13.323455,13.334669,13.346233,13.357251,13.366592,13.374126,13.379926,13.384171,13.392512,13.404692,13.417513,13.429272,13.436906,13.440806,13.441476,13.439568,13.434908,13.42698,13.417344,13.408558,13.401743,13.39793,13.3962555,13.394489,13.388992,13.378847,13.364193,13.348314,13.334733,13.323376,13.306772,13.287938,13.268971,13.249571,13.231617,13.214004,13.197472,13.184795,13.183178,13.190716,13.199272,13.188961,13.137694,13.04424,12.923699,12.804125,12.684566,12.539056,12.34896,11.898013,11.141085,10.377689,9.767588,9.506671,9.398732,9.381735,9.405512,9.420592,9.406071,9.382377,9.375969,9.414233,9.513655,9.667615,9.856953,10.032021,10.147528,10.186218,10.171089,10.187921,10.323376,10.7069435,11.646527,13.121571,14.191145,14.543107,14.615843,14.632037,14.725388,14.770172,14.749229,14.720613,14.688517,14.655206,14.627958,14.617859,14.613635,14.6105175,14.602746,14.59064,14.572321,14.549282,14.531001,14.54154,14.591319,14.618411,14.49789,14.095523,13.47884,12.415041,11.63767,11.209186,11.106196,11.1462145,11.192105,11.168804,11.099336,11.027163,10.970548,10.93532,10.906731,10.8751335,10.838502,10.790724,10.721847,10.615199,10.486864,10.371922,10.290834,10.238237,10.203039,10.183365,10.178009,10.191296,10.219939,10.261082,10.307462,10.347917,10.374449,10.396406,10.41635,10.436825,10.459202,10.485606,10.517459,10.555589,10.59784,10.643578,10.692059,10.741112,10.788608,10.8384075,10.887267,10.927731,10.95216,10.961026,10.970189,10.987549,10.9900675,10.951504,10.858643,10.722015,10.606298,10.52857,10.507211,10.544907,10.644738,10.797612,10.728733,10.597965,10.39764,9.893443,9.150684,8.626661,8.392202,8.312451,8.278287,8.238765,8.176616,8.111394,8.059129,8.031237,8.021781,8.014862,8.007734,8.000097,7.992483,7.9836144,7.970522,7.952539,7.932065,7.910854,7.886424,7.8581705,7.8286786,7.8000264,7.7719917,7.741376,7.7061195,7.6664143,7.624406,7.5763083,7.519906,7.458191,7.398078,7.34386,7.2979255,7.257412,7.218756,7.184702,7.15454,7.12903,7.1028676,7.069013,7.023674,6.972637,6.9228086,6.8845863,6.849453,6.8005853,6.735073,6.6639895,6.603701,6.5697517,6.6261606,6.667661,6.4081974,5.672141,4.951027,4.6314387,4.5585995
13.065625,13.054716,13.046299,13.038076,13.030404,13.022473,13.011955,12.996889,12.978094,12.956171,12.931863,12.906467,12.882208,12.8622055,12.84276,12.82529,12.809486,12.7966385,12.7867,12.78202,12.782343,12.786993,12.793091,12.800335,12.808468,12.81687,12.825556,12.834864,12.844536,12.852724,12.858862,12.861835,12.8615265,12.859449,12.8568535,12.853523,12.849575,12.844625,12.839354,12.834318,12.829803,12.826281,12.824177,12.823226,12.822666,12.822526,12.823442,12.826185,12.8312,12.839457,12.850687,12.864577,12.8784275,12.891036,12.902233,12.911882,12.919717,12.926282,12.932287,12.937527,12.94166,12.944798,12.947343,12.949726,12.953547,12.959083,12.966264,12.973105,12.979377,12.986281,12.994328,13.001941,13.0082445,13.013026,13.016385,13.019695,13.023483,13.027556,13.032484,13.038425,13.04434,13.04953,13.05375,13.05747,13.061499,13.0664425,13.071985,13.078497,13.085234,13.091403,13.096196,13.099377,13.102072,13.104818,13.108138,13.114095,13.12314,13.132629,13.140085,13.146674,13.148367,13.148325,13.145604,13.139475,13.130796,13.122274,13.11663,13.113314,13.110873,13.109901,13.108191,13.104557,13.099049,13.092978,13.087963,13.086752,13.085922,13.071136,13.053389,13.034019,13.015453,12.997694,12.981472,12.969129,12.966702,12.973107,12.982583,12.980103,12.948459,12.885287,12.800502,12.7102585,12.606384,12.478505,12.295236,11.897069,11.145535,10.393942,9.7767935,9.513122,9.3996725,9.382701,9.407679,9.424967,9.412103,9.388078,9.3791895,9.414666,9.5133505,9.670717,9.868242,10.052973,10.175417,10.217357,10.202004,10.217311,10.353195,10.732796,11.609907,12.8905945,13.819736,14.261583,14.334841,14.404221,14.485382,14.463987,14.408707,14.383558,14.3573265,14.327375,14.304526,14.297367,14.294962,14.292411,14.284672,14.272322,14.253921,14.231013,14.211485,14.214978,14.247277,14.265014,14.159512,13.811154,13.276177,12.365687,11.650157,11.283553,11.177098,11.2034,11.231755,11.195179,11.1303625,11.065073,11.0125675,10.976006,10.94362,10.907705,10.86982,10.820895,10.744855,10.641014,10.503475,10.381796,10.301982,10.254942,10.22402,10.20687,10.204504,10.22332,10.260796,10.3118305,10.358018,10.390419,10.419053,10.445347,10.469386,10.493961,10.520813,10.552942,10.591956,10.640289,10.698447,10.759188,10.815514,10.869241,10.92789,10.996592,11.06238,11.105372,11.122595,11.123603,11.127155,11.140478,11.139407,11.0952215,10.987379,10.816733,10.661704,10.562332,10.529138,10.560854,10.670123,10.797255,10.73176,10.598367,10.403922,9.903023,9.140262,8.612375,8.377608,8.299014,8.2685995,8.233098,8.174386,8.111859,8.061663,8.035496,8.027002,8.02017,8.012668,8.004841,7.997629,7.989998,7.978868,7.9630957,7.9448605,7.9255605,7.9029713,7.8764043,7.8481445,7.8203826,7.7930956,7.7635984,7.730168,7.691181,7.647228,7.5949545,7.533294,7.467287,7.404356,7.348057,7.3003044,7.2593822,7.2237587,7.197028,7.17877,7.168305,7.160014,7.1450043,7.1169286,7.0787606,7.0358014,6.998639,6.956717,6.8923445,6.803383,6.7086363,6.628972,6.5668077,6.594983,6.645869,6.4637346,5.787468,5.028819,4.662404,4.5650506
12.674084,12.666288,12.661294,12.656156,12.651426,12.646495,12.639067,12.6269865,12.610737,12.590974,12.5689745,12.546713,12.525012,12.505274,12.485689,12.47038,12.457023,12.446783,12.439397,12.436963,12.439281,12.445439,12.452321,12.459639,12.467549,12.475912,12.485161,12.49564,12.506923,12.517162,12.525711,12.531625,12.534817,12.536637,12.537962,12.53835,12.5378475,12.5360365,12.53342,12.530392,12.527204,12.524456,12.522781,12.522102,12.521851,12.522118,12.523527,12.526771,12.532232,12.540592,12.551402,12.564144,12.576404,12.587181,12.596473,12.604536,12.611448,12.617907,12.624408,12.630626,12.636051,12.640865,12.645552,12.650243,12.656284,12.663916,12.673216,12.68251,12.691552,12.701339,12.7124405,12.7236,12.734158,12.743744,12.752226,12.760495,12.7688465,12.776931,12.785229,12.793994,12.802277,12.809367,12.814819,12.818893,12.822229,12.825599,12.829248,12.833899,12.839165,12.844232,12.847917,12.849665,12.850369,12.850584,12.8514,12.853445,12.856755,12.860944,12.8647585,12.868724,12.87337,12.878626,12.877953,12.873056,12.865006,12.856381,12.8497925,12.846212,12.845289,12.845621,12.847331,12.84986,12.852781,12.855981,12.859884,12.865412,12.873292,12.866703,12.851565,12.833941,12.816453,12.799803,12.784603,12.772892,12.769564,12.773823,12.781592,12.781872,12.761436,12.717195,12.6578045,12.589438,12.5033,12.392075,12.219683,11.885616,11.146688,10.414432,9.797655,9.525443,9.402848,9.384168,9.409776,9.430167,9.420508,9.39735,9.386384,9.419095,9.517108,9.678169,9.884359,10.079403,10.209909,10.256592,10.24285,10.25869,10.395662,10.764728,11.584532,12.689788,13.466238,13.938074,14.03663,14.15494,14.14917,14.065159,14.030307,14.014095,13.99252,13.966846,13.948506,13.944962,13.945987,13.946924,13.943049,13.935209,13.922152,13.905037,13.88972,13.892434,13.91782,13.9268465,13.831781,13.540565,13.088602,12.311485,11.664838,11.347344,11.248837,11.25282,11.2590885,11.2241955,11.163004,11.100983,11.049855,11.014732,10.985159,10.953489,10.918428,10.866989,10.781216,10.665551,10.527047,10.40045,10.3239975,10.285705,10.261569,10.248181,10.248479,10.271019,10.31395,10.361528,10.395759,10.430136,10.462326,10.493103,10.522872,10.553928,10.588017,10.627635,10.678309,10.741279,10.812979,10.880043,10.948124,11.0205555,11.095593,11.169942,11.228498,11.257588,11.262782,11.252845,11.232727,11.213086,11.191568,11.154205,11.095843,10.927184,10.735104,10.610617,10.562518,10.594837,10.717342,10.79647,10.740404,10.603114,10.408503,9.902271,9.121321,8.595681,8.366158,8.288678,8.261364,8.229458,8.173317,8.112693,8.063913,8.038865,8.030833,8.023834,8.015858,8.007731,8.00067,7.993887,7.984237,7.9702587,7.9538937,7.9361787,7.91514,7.8899746,7.8627234,7.8356447,7.8089657,7.7806444,7.7492914,7.7116194,7.666504,7.6111245,7.54537,7.475992,7.4108825,7.3527184,7.3028393,7.260185,7.2247505,7.201171,7.189724,7.189133,7.1945915,7.195578,7.1839323,7.1596036,7.1258693,7.0944242,7.0513663,6.9779696,6.870139,6.7537837,6.6542797,6.568369,6.568462,6.6212115,6.4995623,5.89832,5.120123,4.7027245,4.5690103
12.252999,12.249068,12.247091,12.244712,12.242545,12.240222,12.235625,12.226662,12.213543,12.196821,12.177897,12.158832,12.140218,12.12304,12.105974,12.092609,12.081742,12.074174,12.069548,12.069704,12.074443,12.082498,12.090401,12.0980835,12.106451,12.115862,12.126955,12.1397705,12.153438,12.165954,12.176592,12.184746,12.190432,12.194977,12.199017,12.202081,12.20427,12.205187,12.205281,12.204718,12.203611,12.202536,12.202249,12.202805,12.203785,12.205368,12.208191,12.212839,12.219574,12.22874,12.239672,12.251761,12.263232,12.27358,12.28303,12.292001,12.300389,12.308611,12.3166485,12.3239765,12.330174,12.335742,12.341517,12.347635,12.355264,12.364609,12.375982,12.387824,12.399806,12.41255,12.426486,12.440565,12.45422,12.467036,12.47876,12.490078,12.50161,12.512486,12.523193,12.534495,12.54534,12.555006,12.562843,12.568956,12.573864,12.578359,12.582983,12.588671,12.595053,12.601221,12.605755,12.60813,12.609184,12.60931,12.60963,12.61097,12.613576,12.617008,12.620329,12.624081,12.628486,12.632782,12.63602,12.632685,12.625553,12.617256,12.610251,12.60706,12.607526,12.610627,12.614849,12.6202965,12.626765,12.633734,12.64139,12.650507,12.660097,12.666622,12.656433,12.641092,12.625467,12.610315,12.595958,12.583612,12.577686,12.57805,12.582299,12.582033,12.566916,12.535473,12.493818,12.446138,12.378002,12.281799,12.124802,11.843075,11.137676,10.439946,9.833549,9.54237,9.407967,9.385016,9.4103365,9.434385,9.429095,9.407545,9.394589,9.424593,9.522503,9.688666,9.905633,10.113486,10.255407,10.310186,10.300335,10.317161,10.452927,10.804543,11.549367,12.526357,13.14103,13.524258,13.736331,13.767958,13.703773,13.66026,13.642483,13.634987,13.620312,13.6013975,13.587986,13.589334,13.596241,13.604,13.606843,13.605962,13.599833,13.589482,13.580991,13.587676,13.612915,13.62125,13.541799,13.294935,12.913744,12.256161,11.678377,11.386333,11.295002,11.29501,11.299452,11.263584,11.203809,11.144141,11.095126,11.062294,11.037783,11.013127,10.982107,10.9270115,10.826897,10.693255,10.554877,10.426719,10.356782,10.331164,10.3162,10.306331,10.306805,10.327268,10.361999,10.397396,10.435037,10.470816,10.505175,10.539974,10.5761795,10.615605,10.6590185,10.710617,10.776353,10.844611,10.925283,11.013712,11.098697,11.171537,11.239197,11.304206,11.343754,11.337606,11.320044,11.29495,11.271813,11.256685,11.2387905,11.2007265,11.126685,11.017827,10.8219595,10.665379,10.605278,10.65072,10.774518,10.79961,10.749904,10.609662,10.408493,9.89112,9.096992,8.579898,8.362254,8.284072,8.257774,8.228238,8.1733055,8.113775,8.066023,8.041821,8.034091,8.026839,8.018326,8.009679,8.002366,7.9959636,7.9874806,7.975225,7.9606338,7.944219,7.9242616,7.8999424,7.873228,7.8464837,7.8202333,7.7930164,7.7637978,7.7278337,7.6824236,7.6246934,7.5556946,7.48372,7.4172144,7.3582015,7.307443,7.2639666,7.228277,7.2055225,7.1965213,7.2001667,7.2125263,7.221554,7.218528,7.2012143,7.173134,7.1498904,7.114563,7.0403833,6.9249644,6.793539,6.6780005,6.5843973,6.5616865,6.5978494,6.5267844,6.002215,5.247706,4.7589517,4.5704565
11.832958,11.8317585,11.831946,11.831508,11.831124,11.830638,11.828317,11.822308,11.812589,11.799503,11.7843895,11.769093,11.753867,11.739025,11.725578,11.71468,11.705877,11.700637,11.6984825,11.700802,11.707167,11.716064,11.724241,11.731979,11.74049,11.750789,11.763673,11.778625,11.794351,11.8087,11.820625,11.829817,11.836455,11.842103,11.847433,11.852029,11.856049,11.859024,11.86145,11.863192,11.864166,11.864937,11.8663025,11.86851,11.87126,11.874845,11.8799,11.886884,11.895685,11.906389,11.918097,11.930223,11.941962,11.953461,11.965079,11.977305,11.989465,12.001389,12.012352,12.02158,12.028837,12.035045,12.041542,12.048579,12.057336,12.0680485,12.081265,12.095523,12.110355,12.12602,12.14272,12.159466,12.175703,12.190929,12.204877,12.218281,12.231441,12.244428,12.257736,12.271441,12.284944,12.297461,12.308095,12.316802,12.32419,12.331022,12.337955,12.345938,12.354542,12.362811,12.369345,12.373463,12.375921,12.377202,12.378388,12.38035,12.383354,12.38711,12.391034,12.395423,12.40044,12.405413,12.408873,12.409178,12.403702,12.397428,12.392047,12.389334,12.391394,12.396099,12.402578,12.409315,12.416197,12.423237,12.431042,12.44067,12.450939,12.460735,12.464243,12.452976,12.43807,12.423597,12.4088745,12.393074,12.3818035,12.376935,12.379007,12.379934,12.369108,12.346674,12.317037,12.286641,12.23692,12.150184,12.013995,11.773598,11.116346,10.460909,9.877327,9.557204,9.4131975,9.382734,9.406475,9.434136,9.43385,9.414497,9.399992,9.428194,9.527809,9.701885,9.933251,10.157484,10.315493,10.3807955,10.376594,10.39276,10.519889,10.843068,11.488279,12.354729,12.867413,13.166012,13.33365,13.339399,13.29411,13.2681675,13.263219,13.264216,13.254486,13.241344,13.236372,13.244446,13.257032,13.270981,13.281762,13.287801,13.287405,13.283235,13.283126,13.296968,13.324786,13.336559,13.275243,13.070417,12.748665,12.203556,11.692223,11.430154,11.34755,11.347368,11.350565,11.313429,11.25448,11.196197,11.149217,11.120726,11.102935,11.08604,11.061161,11.000298,10.880595,10.724191,10.569314,10.452023,10.393635,10.381279,10.375436,10.366308,10.362259,10.372237,10.399926,10.437996,10.475289,10.510971,10.546938,10.58547,10.6282015,10.676174,10.731094,10.790266,10.858791,10.94244,11.044685,11.1389885,11.218626,11.283386,11.335222,11.362378,11.368143,11.360984,11.339614,11.31141,11.2870035,11.273436,11.2585745,11.224286,11.150317,11.04506,10.88753,10.719461,10.646713,10.701595,10.797619,10.798285,10.746582,10.613054,10.399661,9.868415,9.070463,8.567721,8.363341,8.284154,8.257734,8.229079,8.174112,8.115108,8.068283,8.044914,8.037537,8.030058,8.020919,8.01148,8.003462,7.9970026,7.989465,7.979054,7.966487,7.9515324,7.9325914,7.9087305,7.88195,7.8548193,7.8283663,7.8017864,7.7744765,7.7403994,7.695275,7.636008,7.564212,7.4900355,7.4224863,7.3631954,7.3124104,7.268742,7.232505,7.2089663,7.1994123,7.2030888,7.216889,7.227332,7.2260337,7.210435,7.186503,7.17073,7.1446514,7.0790186,6.964821,6.8262415,6.6987715,6.5981045,6.556606,6.577836,6.5303655,6.0942917,5.3843975,4.832632,4.5774837
11.440058,11.440225,11.441308,11.441631,11.4419155,11.442219,11.441343,11.437813,11.431436,11.422274,11.411449,11.400441,11.389136,11.377162,11.36593,11.35607,11.348941,11.345428,11.344843,11.3481455,11.35479,11.362881,11.369627,11.375933,11.383774,11.394271,11.407993,11.424322,11.441329,11.45643,11.468343,11.47707,11.48308,11.4883995,11.493765,11.498685,11.503361,11.507555,11.511637,11.515244,11.518145,11.520543,11.523214,11.526638,11.530738,11.536006,11.54309,11.552528,11.564035,11.576981,11.590229,11.603385,11.616623,11.630899,11.646527,11.66404,11.681854,11.699109,11.714546,11.727097,11.736612,11.744438,11.752283,11.760567,11.770445,11.78237,11.797167,11.813509,11.830853,11.849228,11.868574,11.887833,11.906329,11.923505,11.93911,11.954065,11.968863,11.983669,11.998943,12.014771,12.0303335,12.045278,12.058907,12.069817,12.079179,12.088262,12.097539,12.1079035,12.118896,12.129484,12.1384,12.144982,12.149533,12.152581,12.155233,12.1584,12.162292,12.166873,12.17169,12.177076,12.183051,12.188998,12.193543,12.195429,12.192598,12.188702,12.185547,12.184746,12.188419,12.193923,12.200704,12.207916,12.214397,12.220305,12.226898,12.235336,12.245082,12.253994,12.2626705,12.261048,12.246741,12.229501,12.211995,12.194566,12.180809,12.171581,12.167168,12.166037,12.163984,12.152237,12.132378,12.110835,12.077261,12.003125,11.888469,11.678233,11.081427,10.470293,9.915984,9.5711975,9.414255,9.373778,9.394543,9.425287,9.430099,9.413388,9.398242,9.42647,9.530653,9.716244,9.966464,10.212697,10.384535,10.459151,10.46554,10.481749,10.591897,10.865358,11.41499,12.173216,12.614026,12.823052,12.942458,12.947294,12.912454,12.895844,12.898203,12.902699,12.903263,12.90148,12.905943,12.921065,12.939153,12.958113,12.973722,12.984697,12.988449,12.987403,12.991343,13.01312,13.046952,13.063834,13.021852,12.858618,12.593459,12.157606,11.71231,11.481262,11.408756,11.408644,11.413129,11.374183,11.314939,11.2568035,11.210707,11.184874,11.172097,11.166273,11.155006,11.08293,10.930937,10.745655,10.576312,10.462893,10.417686,10.414167,10.41347,10.408911,10.404303,10.412343,10.440321,10.478811,10.51654,10.5530405,10.591719,10.636034,10.6851015,10.738703,10.793253,10.858694,10.940981,11.04011,11.140081,11.229966,11.2941475,11.331833,11.347428,11.361299,11.365326,11.351912,11.325065,11.292978,11.266512,11.253005,11.240456,11.210986,11.144528,11.041174,10.916779,10.749226,10.673103,10.726801,10.784147,10.784448,10.733167,10.604104,10.379726,9.833951,9.044463,8.567453,8.36612,8.286221,8.261897,8.232139,8.176053,8.11723,8.071484,8.04916,8.042303,8.034644,8.024744,8.014166,8.005008,7.998134,7.9914303,7.98312,7.973197,7.9604115,7.942975,7.919492,7.8918567,7.8631234,7.8353376,7.8084793,7.782447,7.750106,7.7054663,7.645051,7.570823,7.494317,7.4253964,7.3656445,7.315007,7.2715387,7.235118,7.2110662,7.200762,7.2036324,7.216924,7.2264414,7.2239747,7.208903,7.186755,7.175608,7.157238,7.1008377,6.9927454,6.852874,6.717256,6.6101,6.551359,6.5570235,6.5216336,6.1804028,5.5232563,4.90452,4.5896425
11.093536,11.094275,11.095419,11.095667,11.095804,11.096145,11.096062,11.094525,11.091177,11.085721,11.079016,11.072117,11.064629,11.055683,11.044041,11.032898,11.025583,11.021633,11.020358,11.0224495,11.027588,11.03422,11.039362,11.043573,11.049562,11.058955,11.072186,11.088289,11.10576,11.1213455,11.132939,11.140678,11.145328,11.149639,11.15465,11.159786,11.165277,11.17075,11.176381,11.181343,11.185089,11.187737,11.190144,11.193244,11.197256,11.203487,11.212648,11.224672,11.238729,11.253809,11.268733,11.283291,11.29847,11.315894,11.336129,11.35948,11.384239,11.408337,11.429818,11.447323,11.460467,11.470746,11.480087,11.489218,11.500427,11.513582,11.529642,11.547544,11.566764,11.587261,11.608787,11.630145,11.650536,11.669329,11.686306,11.7024975,11.718542,11.734655,11.751272,11.768435,11.785426,11.801868,11.81723,11.830128,11.841023,11.851801,11.863021,11.875547,11.888733,11.9016,11.912962,11.922146,11.929329,11.934773,11.939512,11.944453,11.949953,11.955895,11.961891,11.968287,11.975273,11.982351,11.988179,11.991598,11.991642,11.990021,11.98897,11.990295,11.994568,12.000183,12.006327,12.011947,12.016548,12.0209875,12.025836,12.031908,12.039267,12.04585,12.051055,12.05475,12.053006,12.037796,12.019258,12.000865,11.984882,11.972288,11.963844,11.958824,11.954303,11.949241,11.941553,11.927152,11.902531,11.8473,11.753619,11.566827,11.03583,10.461905,9.943734,9.582178,9.410151,9.358315,9.374843,9.407725,9.417125,9.403292,9.38888,9.419829,9.532386,9.733753,10.007698,10.275061,10.442473,10.521512,10.540933,10.564138,10.652071,10.870841,11.337225,11.98429,12.382031,12.53392,12.604408,12.60018,12.573845,12.560257,12.55686,12.56696,12.577212,12.585707,12.598681,12.619377,12.641719,12.664255,12.6833315,12.6972475,12.703283,12.704261,12.708473,12.730424,12.770088,12.796487,12.772439,12.649468,12.440992,12.115249,11.739123,11.540709,11.4785385,11.477912,11.482949,11.446109,11.385613,11.326163,11.278447,11.25213,11.247498,11.260656,11.254113,11.161414,10.970855,10.751877,10.570756,10.464947,10.432799,10.445912,10.457191,10.455839,10.448574,10.45228,10.479526,10.518936,10.558988,10.600511,10.643201,10.690762,10.737485,10.787112,10.848198,10.922222,11.013071,11.106482,11.198493,11.266313,11.289418,11.303922,11.315856,11.322977,11.319813,11.300606,11.269145,11.233678,11.204678,11.189668,11.178135,11.154171,11.098928,11.007946,10.901045,10.742886,10.669012,10.720511,10.757761,10.754824,10.700995,10.5723505,10.345234,9.790344,9.023829,8.577741,8.376405,8.292759,8.268926,8.236897,8.179176,8.120466,8.075829,8.054495,8.048044,8.040119,8.029363,8.017441,8.006873,7.999338,7.9933324,7.9872403,7.9804583,7.9706216,7.95539,7.9325504,7.903689,7.872527,7.842684,7.814957,7.789746,7.7588725,7.7145996,7.6529493,7.576186,7.496916,7.426075,7.3654475,7.314809,7.2717457,7.2355595,7.2114687,7.200717,7.2026825,7.214746,7.2227736,7.218891,7.2036676,7.183136,7.1743093,7.1608953,7.1123447,7.0117984,6.8746133,6.734856,6.621502,6.54509,6.534215,6.5091715,6.26303,5.664112,4.984006,4.613718
10.803105,10.804476,10.80549,10.805319,10.804947,10.804935,10.805241,10.8052845,10.804489,10.802119,10.798755,10.795142,10.790768,10.784172,10.774267,10.763096,10.752224,10.744362,10.739185,10.738127,10.740418,10.744126,10.745818,10.745844,10.747782,10.754111,10.76538,10.780534,10.798908,10.81609,10.828281,10.835501,10.838932,10.84232,10.847437,10.853451,10.860647,10.868408,10.87635,10.882887,10.8869705,10.888755,10.889267,10.890135,10.892047,10.89781,10.908346,10.922779,10.939377,10.956487,10.972805,10.988381,11.00514,11.025343,11.049331,11.077621,11.109182,11.141148,11.170476,11.1950445,11.213762,11.227498,11.238106,11.24702,11.258684,11.272072,11.288198,11.306163,11.325547,11.346609,11.369051,11.3915415,11.413067,11.432806,11.450546,11.467331,11.483731,11.499975,11.516687,11.534105,11.551464,11.568633,11.584475,11.598056,11.610364,11.622563,11.635553,11.650287,11.665899,11.68128,11.695315,11.707223,11.716963,11.724798,11.731692,11.738524,11.745831,11.753361,11.760648,11.768034,11.776012,11.784127,11.79108,11.795973,11.798352,11.799166,11.799804,11.802195,11.805468,11.80987,11.814381,11.817847,11.819924,11.821423,11.8240595,11.829524,11.836395,11.842922,11.848493,11.852055,11.854218,11.851019,11.833315,11.814137,11.797589,11.783779,11.773517,11.76707,11.763013,11.760416,11.756645,11.747371,11.728322,11.690529,11.615562,11.4507,10.984018,10.450213,9.967135,9.588927,9.401701,9.339242,9.350513,9.384288,9.397113,9.385994,9.373856,9.410808,9.536279,9.758007,10.0628,10.331658,10.50407,10.588577,10.606426,10.62506,10.695352,10.8767,11.259066,11.803827,12.167889,12.282843,12.323095,12.307905,12.290169,12.2739,12.270285,12.27911,12.290457,12.3040085,12.321331,12.343588,12.367009,12.390461,12.411177,12.427406,12.43614,12.439589,12.443884,12.460026,12.493509,12.525212,12.518311,12.435779,12.288003,12.069676,11.772583,11.610661,11.557472,11.553264,11.551584,11.5237665,11.465106,11.403492,11.350931,11.323613,11.33201,11.358846,11.350373,11.228926,10.993145,10.743988,10.552097,10.462645,10.44915,10.481195,10.50374,10.504332,10.492887,10.491011,10.517214,10.55945,10.604571,10.650482,10.692789,10.73244,10.778385,10.831192,10.892835,10.966973,11.049212,11.131208,11.199993,11.225179,11.237129,11.243855,11.246786,11.246075,11.236553,11.212696,11.178061,11.140721,11.109418,11.090769,11.078022,11.058668,11.015383,10.943379,10.844541,10.705249,10.635316,10.682415,10.712601,10.70763,10.652889,10.525475,10.294434,9.739784,9.011957,8.593927,8.38926,8.302389,8.277606,8.242874,8.183742,8.125404,8.081797,8.060998,8.054456,8.046038,8.034388,8.021146,8.009166,8.000853,7.995292,7.9911866,7.9876294,7.9812455,7.9688654,7.947142,7.917201,7.883512,7.8516054,7.823123,7.798663,7.768997,7.724677,7.661313,7.581508,7.49897,7.425823,7.3637366,7.312478,7.2693434,7.233114,7.208866,7.197577,7.1983433,7.2090483,7.2165055,7.2133746,7.2000146,7.1829247,7.175363,7.163667,7.1192284,7.024514,6.8922586,6.7517166,6.6322927,6.536802,6.5092525,6.494378,6.3381577,5.8111877,5.099185,4.656272
10.558481,10.560966,10.56218,10.561762,10.560911,10.560396,10.5609455,10.562363,10.563607,10.563616,10.562809,10.561821,10.559793,10.554714,10.545484,10.533684,10.521307,10.511115,10.502567,10.49706,10.494138,10.492437,10.489241,10.48498,10.4827,10.484512,10.492404,10.506403,10.524274,10.5414,10.553611,10.560595,10.563486,10.566396,10.571505,10.577965,10.586023,10.59489,10.60392,10.611347,10.616087,10.618437,10.619467,10.621088,10.62435,10.631106,10.6426115,10.659263,10.678408,10.697424,10.714782,10.730888,10.748775,10.771378,10.798748,10.830584,10.864524,10.89952,10.934187,10.965702,10.991456,11.011227,11.026014,11.037481,11.048318,11.0603895,11.075079,11.091399,11.10896,11.128596,11.150146,11.172166,11.193404,11.212799,11.2301655,11.246466,11.26207,11.277168,11.292818,11.309635,11.326822,11.343507,11.358714,11.372515,11.386115,11.400717,11.416631,11.434118,11.45268,11.471044,11.488089,11.502932,11.515461,11.525826,11.534932,11.543736,11.552889,11.562039,11.57057,11.5789385,11.587981,11.597374,11.605781,11.612438,11.616366,11.618477,11.619979,11.621206,11.622759,11.624852,11.627012,11.628604,11.629235,11.629454,11.630752,11.634514,11.640622,11.647111,11.652908,11.657191,11.660561,11.663815,11.657648,11.63859,11.622489,11.60865,11.598161,11.591714,11.588302,11.586993,11.58494,11.578267,11.561834,11.5308695,11.473956,11.336516,10.93034,10.434279,9.991873,9.597137,9.395473,9.322738,9.328397,9.361884,9.376475,9.367136,9.35791,9.403047,9.544957,9.791693,10.123872,10.392611,10.567098,10.65591,10.674165,10.685403,10.739851,10.880466,11.187129,11.638719,11.969381,12.053016,12.069958,12.042974,12.025937,12.01983,12.022275,12.034538,12.047502,12.05924,12.075912,12.100612,12.1205,12.141648,12.162624,12.181249,12.194181,12.201967,12.207279,12.217678,12.238561,12.260714,12.265539,12.225571,12.135517,12.009158,11.802369,11.676847,11.6330185,11.62917,11.628411,11.606844,11.554945,11.491235,11.432511,11.405034,11.418751,11.440227,11.422056,11.289675,11.017967,10.74086,10.54072,10.456966,10.466711,10.51616,10.548578,10.5500345,10.534014,10.526547,10.551964,10.595808,10.64326,10.688018,10.730089,10.772906,10.818414,10.867461,10.923543,10.987341,11.056514,11.120085,11.150626,11.157902,11.160081,11.157827,11.153094,11.145622,11.130888,11.103694,11.066368,11.022699,10.985335,10.969113,10.957988,10.941195,10.908985,10.855104,10.769977,10.653471,10.588221,10.627327,10.652887,10.647599,10.59376,10.469641,10.2365675,9.690667,9.006063,8.60551,8.399387,8.31483,8.287643,8.25037,8.190425,8.1327305,8.089964,8.069319,8.062387,8.053607,8.041502,8.027468,8.014591,8.005725,8.000447,7.99773,7.9966116,7.99301,7.982945,7.961993,7.93092,7.89503,7.8616786,7.8330646,7.8093452,7.780219,7.734922,7.6689487,7.5856752,7.499798,7.4244776,7.361099,7.3094473,7.2667317,7.2311897,7.207537,7.1961174,7.1957903,7.205102,7.2126565,7.2117023,7.201465,7.1873183,7.1797333,7.1670566,7.1243916,7.033961,6.907947,6.7688794,6.645156,6.5316586,6.485906,6.4788475,6.388932,5.949303,5.2543755,4.722983
