53.641685,53.66238,53.48233,53.283615,53.083008,52.87059,52.690323,52.562347,52.500008,52.304047,51.90614,51.559097,50.46982,48.257824,45.569347,43.69116,43.57027,45.088623,46.862022,49.102036,50.623615,51.039066,51.56042,51.90081,52.02411,52.07048,52.10309,52.030346,51.89499,51.80163,51.762867,51.690464,51.565945,51.464405,51.367584,51.30123,51.231327,51.02452,50.32383,49.34265,48.553696,47.418762,46.32572,45.595867,45.06807,44.52257,44.099075,43.91701,44.01882,44.635887,46.006424,47.787548,48.945724,49.78283,50.543648,51.472115,52.17785,52.03904,51.37994,52.69152,46.454334,35.662216,28.214863,25.621527,25.347351,26.527342,28.620264,43.446495,55.01242,54.804153,54.584133,54.874977,55.105816,54.595245,53.926693,53.555714,53.301193,52.64466,51.931572,51.410973,51.28138,51.426216,51.86657,52.349754,52.605423,52.813244,52.66801,51.958965,50.909924,49.37645,48.1539,48.087204,49.09777,50.767715,52.60418,53.874947,54.42415,54.668083,54.74772,54.837513,54.984123,55.11646,55.183662,55.206245,55.25019,55.301224,55.359238,55.45146,55.675247,55.970142,56.203987,56.34239,56.3118,56.08792,55.790863,54.879246,53.816006,53.069912,52.44285,51.87121,51.51749,51.346207,51.22531,50.174095,48.213753,46.20875,43.680977,42.33466,42.967632,44.523537,47.254128,49.961735,51.442154,51.954407,52.1954,52.418762,52.68571,52.988174,53.163033,53.227352,53.383976,53.53492,53.596405,53.58187,53.600647,53.773643,54.076717,54.37699,54.760433,55.222733,55.662277,56.022293,56.461647,56.947433,57.384277,57.75805,58.11855,58.414013,58.645744,58.895073,59.20086,59.50991,59.767708,59.965446,60.10299,60.177013,60.176735,60.139496,60.131332,60.209324,60.41013,60.864014,61.51091,62.1543,62.760143,62.921215,62.72435,62.737854,62.4515,62.255337,62.463364,62.97873,63.63928,64.15555,64.420364,64.785965,65.0461,65.09195,65.02478,64.789566,64.50818,64.33716,64.2527,64.21057,64.34905,64.66332,64.94613,65.25457,65.57153,65.88065,66.32239,66.99538,67.664406,67.96736,68.35109,68.63672,68.69284,68.63884,68.48025,68.29925,68.17026,71.36658,58.030235,33.07238,21.988297,17.302055,17.232922,17.107319,17.223476,17.417908,17.555542,17.644135,17.707901,17.734066,17.746183,17.785614,17.807339,17.800991,17.77916,17.75698,17.737572,17.73016,17.73333,17.741814,17.75119,17.757946,17.763935,17.771301,17.779255,17.785833,17.790565,17.792793,17.791489,17.788467,17.784971,17.779554,17.772621,17.765444,17.756437,17.746386,17.737556,17.73037,17.722807,17.715397,17.708462,17.700207,17.688148,17.67469,17.663342,17.649277,17.632298,17.616741,17.605495,17.595118,17.590397,17.592144,17.597958,17.608887,17.621796,17.632519,17.640179,17.646917,17.655949,17.67202,17.66485,17.63579,17.577711,17.385384,17.341599,17.672321,18.363956,19.797388,24.817373,32.302162,39.202316,40.93829,40.206787,40.234734,40.318497,40.39602,40.324818,39.976547,38.56289,36.83275,35.377914,34.19393,33.53937,33.672676,34.64035,36.37876,39.05557,42.701195,46.464058,50.238327,52.29692,52.62324,52.970177,52.880363,52.539055
53.884895,53.88678,53.673424,53.478363,53.23825,53.01178,52.84305,52.687756,52.612946,52.40466,51.985367,51.619675,50.52588,48.29966,45.571747,43.664467,43.65145,45.399445,47.411976,49.601147,50.9941,51.397957,51.925472,52.24176,52.291225,52.251038,52.29014,52.22653,52.081425,51.98714,51.94492,51.843243,51.67945,51.574215,51.474674,51.39981,51.321777,51.153557,50.44516,49.416855,48.60311,47.489326,46.388374,45.608982,45.05352,44.479362,44.040855,43.86459,43.9972,44.653137,46.020103,47.743286,48.89126,49.75055,50.524147,51.409092,52.21862,52.109047,51.332893,52.6595,46.432167,35.60856,28.105186,25.500744,25.229156,26.418251,28.525023,43.531868,55.168633,54.84653,54.604935,54.940872,55.23131,54.73282,54.047516,53.64582,53.34844,52.634514,51.86892,51.310707,51.1708,51.333702,51.809822,52.33361,52.610195,52.775887,52.60778,51.896034,50.827194,49.303444,48.130024,48.09471,49.038246,50.742645,52.626556,53.88675,54.45852,54.731438,54.834194,54.937004,55.07904,55.21262,55.28833,55.308746,55.353294,55.409256,55.470505,55.547867,55.781998,56.0841,56.294704,56.421104,56.387474,56.15774,55.83789,54.939163,53.877182,53.10475,52.46205,51.88926,51.538296,51.361202,51.231155,50.198387,48.257843,46.234756,43.757225,42.439266,43.035286,44.51326,47.357708,50.184082,51.619495,52.03436,52.250328,52.444496,52.57039,52.868362,53.13124,53.274185,53.42783,53.496315,53.494,53.510376,53.622658,53.883804,54.268826,54.65091,54.932716,55.19197,55.42782,55.62316,55.905884,56.27204,56.637444,56.967033,57.3075,57.613693,57.871353,58.15793,58.493378,58.857758,59.223167,59.827267,60.399223,60.678406,60.71776,60.67802,60.622074,60.617744,60.670895,60.833374,61.080303,61.326656,61.581017,61.419052,60.923637,60.610664,60.11841,59.985207,60.442474,61.18304,62.291058,63.275764,63.77912,64.121994,64.34769,64.43303,64.34794,64.08045,63.75856,63.573383,63.559326,63.584576,63.76623,64.113,64.43559,64.849915,65.36344,65.920586,66.77554,67.60836,68.068985,68.16196,68.336365,68.36946,68.145676,67.98227,67.81728,67.70946,67.713684,69.98486,52.07931,23.564198,18.992992,17.145367,17.04631,17.219368,17.3732,17.508204,17.55903,17.562534,17.622786,17.68031,17.710903,17.74796,17.763847,17.755371,17.73848,17.724098,17.71251,17.711153,17.719194,17.733387,17.750126,17.76422,17.775692,17.789175,17.803377,17.815527,17.825432,17.833534,17.837864,17.839361,17.839722,17.837267,17.831726,17.824759,17.814533,17.800997,17.787014,17.77375,17.757175,17.739077,17.722355,17.703573,17.681915,17.661396,17.644524,17.624414,17.601088,17.579771,17.563513,17.547909,17.537697,17.533875,17.533688,17.536213,17.538086,17.536835,17.532463,17.522491,17.507362,17.48898,17.462284,17.481924,17.512867,17.371479,17.237919,17.271498,17.540852,18.276096,21.689232,28.23753,36.558083,40.601284,40.997864,40.439842,40.421165,40.513107,40.583786,40.375412,38.713486,36.78987,35.335945,34.190422,33.552498,33.684372,34.639122,36.365284,38.963093,42.553513,46.329033,49.974136,52.129707,52.647804,52.983826,52.91159,52.57946
54.009262,54.011158,53.767223,53.521004,53.221725,53.003647,52.87495,52.67415,52.57998,52.362297,51.930485,51.582844,50.457825,48.169952,45.407345,43.510777,43.6215,45.568153,47.772293,49.903587,51.218994,51.671314,52.19005,52.470924,52.476894,52.406853,52.414955,52.31421,52.149525,52.069946,52.051033,51.959084,51.783363,51.662445,51.549408,51.462875,51.37361,51.19689,50.48871,49.457855,48.626648,47.55481,46.459755,45.631153,45.04731,44.449947,43.98758,43.8017,44.025658,44.713135,46.04305,47.737793,48.848644,49.70858,50.50262,51.358967,52.237453,52.145943,51.291294,52.641727,46.374184,35.502254,28.01949,25.411053,25.142408,26.352322,28.488705,43.560265,55.2019,54.826,54.600502,54.987457,55.327217,54.84404,54.149857,53.740883,53.40812,52.60013,51.79806,51.228977,51.08091,51.24164,51.76861,52.317097,52.54634,52.659546,52.509586,51.841805,50.75612,49.233406,48.10936,48.109,48.95801,50.709984,52.65497,53.88762,54.46328,54.76426,54.893776,54.99775,55.137306,55.26915,55.34597,55.36609,55.416466,55.483727,55.55168,55.614685,55.84778,56.13757,56.310303,56.436184,56.41601,56.182602,55.82469,54.945797,53.89801,53.107536,52.46476,51.90558,51.55918,51.364483,51.20676,50.176094,48.264175,46.261314,43.829796,42.51494,43.067543,44.516365,47.415253,50.294422,51.715645,52.138424,52.386024,52.553543,52.55111,52.701862,52.911762,53.08902,53.22397,53.330254,53.43349,53.570335,53.787704,54.02893,54.27894,54.507416,54.38327,54.123703,53.85453,53.54789,53.342506,53.308754,53.406166,53.547314,53.773243,54.063286,54.35514,54.701042,55.12583,55.648064,56.24567,57.44982,58.6249,59.19674,59.347816,59.36898,59.306847,59.240147,59.148643,59.00052,58.781162,58.5206,58.2182,57.889915,57.503036,56.91865,56.42773,56.625473,57.55503,58.89663,60.588615,62.165337,63.318115,63.614685,63.695805,63.805214,63.71251,63.424023,63.066025,62.853718,62.861923,62.91082,63.11812,63.498688,63.848907,64.338524,65.00395,65.76788,66.87088,67.731964,67.99281,67.97707,67.84763,67.67777,67.54265,67.4034,67.24359,67.24876,67.62681,64.65839,44.747932,19.925055,17.728386,17.072079,17.151419,17.377686,17.388004,17.420599,17.48396,17.52578,17.567976,17.62698,17.682106,17.702753,17.700245,17.6833,17.670383,17.661488,17.65776,17.664013,17.677475,17.696121,17.717926,17.735722,17.74709,17.75962,17.7728,17.78521,17.797142,17.810387,17.822077,17.830559,17.838356,17.84275,17.841488,17.836514,17.826836,17.811424,17.79375,17.776089,17.75254,17.725998,17.701649,17.675228,17.645424,17.617558,17.594683,17.569647,17.543467,17.520367,17.50104,17.481369,17.465752,17.455908,17.448484,17.44454,17.443302,17.441868,17.442226,17.428349,17.39767,17.360418,17.336224,17.312569,17.295807,17.360779,17.24944,17.13282,17.258965,17.660168,19.49336,24.422098,32.78472,39.67491,42.018288,40.756046,40.511124,40.463173,40.588886,40.535805,38.744415,36.70177,35.248283,34.149582,33.535973,33.672348,34.61664,36.327003,38.850655,42.38862,46.168495,49.664204,51.919582,52.645836,52.971455,52.906193,52.58805
54.02881,54.030075,53.754295,53.44489,53.087753,52.868683,52.769875,52.54527,52.43796,52.209938,51.772724,51.473114,50.30862,47.952408,45.195724,43.332428,43.557747,45.66397,48.01044,50.096252,51.360718,51.86164,52.370163,52.621567,52.590836,52.49314,52.49778,52.37935,52.192703,52.11705,52.08642,51.999107,51.840935,51.707146,51.578606,51.4777,51.375732,51.173958,50.483368,49.479473,48.627243,47.603104,46.523346,45.652447,45.041718,44.42507,43.940723,43.74717,44.093475,44.79527,46.0617,47.752693,48.81624,49.662212,50.48365,51.348694,52.27419,52.15207,51.200996,52.623398,46.3002,35.36024,27.948214,25.343594,25.077751,26.309698,28.474262,43.59261,55.2017,54.754852,54.631783,55.021408,55.345497,54.92755,54.235077,53.82081,53.461075,52.58079,51.7488,51.169823,51.01621,51.178642,51.74833,52.29091,52.437744,52.513313,52.398087,51.78001,50.680786,49.162235,48.078075,48.104324,48.88142,50.67106,52.665703,53.879307,54.44967,54.778896,54.92932,55.00913,55.1528,55.29271,55.377228,55.415222,55.47059,55.536217,55.60569,55.67994,55.892857,56.155106,56.324657,56.43788,56.419746,56.192505,55.820107,54.942314,53.90251,53.117012,52.475945,51.924397,51.574017,51.356853,51.169395,50.129646,48.251114,46.31074,43.834892,42.475243,43.047897,44.54851,47.44032,50.290695,51.722588,52.23139,52.519802,52.675472,52.666267,52.651825,52.70845,52.85445,53.01986,53.2159,53.41228,53.611626,54.00132,54.141518,53.873238,53.399284,52.536808,51.55185,50.554886,49.36103,48.389122,47.858727,47.70517,47.6446,47.683784,47.82139,47.997635,48.238266,48.656113,49.265938,49.95983,51.10897,52.13913,52.628624,52.85654,53.01291,53.086113,53.11666,53.157104,53.239113,53.315575,53.33062,52.8312,52.084972,51.507572,51.153297,51.104446,51.970013,53.70852,56.376137,58.916622,61.021378,62.979797,63.315704,63.209625,63.25949,63.19706,62.902622,62.559036,62.345207,62.104877,62.02036,62.31482,62.875153,63.32714,63.842896,64.50986,65.334175,66.38141,67.24742,67.6039,67.56863,67.40396,67.202156,67.04822,66.90263,66.7091,67.01052,68.371994,55.26201,33.765137,18.415304,17.271896,17.132591,17.245754,17.278736,17.32817,17.390131,17.444677,17.486229,17.556736,17.612587,17.629166,17.628006,17.618427,17.604382,17.593824,17.587727,17.588924,17.599625,17.614773,17.634314,17.656275,17.675186,17.68998,17.706951,17.724855,17.741161,17.756493,17.773285,17.788086,17.798954,17.809137,17.815887,17.816505,17.812864,17.804176,17.78888,17.770432,17.751526,17.725666,17.696026,17.668652,17.638924,17.605253,17.573715,17.54786,17.519571,17.490137,17.463982,17.441345,17.418278,17.399359,17.386574,17.376621,17.370241,17.367395,17.365051,17.354961,17.33633,17.313232,17.290775,17.251656,17.215904,17.202908,17.216213,17.212944,17.161251,17.110016,17.27699,18.300648,22.342424,30.44226,38.998077,42.56758,40.89689,40.53562,40.408695,40.50447,40.44182,38.663372,36.607456,35.14778,34.104736,33.515312,33.655586,34.592567,36.288094,38.73974,42.21651,45.997963,49.49016,51.800735,52.597145,52.93993,52.85588,52.5626
53.950947,53.945435,53.627544,53.243088,52.822556,52.564,52.459946,52.25507,52.147034,51.905075,51.480743,51.334618,50.09671,47.603027,44.911182,43.136086,43.521847,45.803833,48.282364,50.33343,51.53707,52.05249,52.54667,52.76592,52.694695,52.565605,52.564423,52.43303,52.224422,52.13497,52.087242,51.998497,51.847855,51.69861,51.551388,51.431145,51.313385,51.100952,50.454815,49.496605,48.620937,47.628777,46.570793,45.679535,45.031677,44.390854,43.892548,43.692665,44.066704,44.804848,46.099216,47.80332,48.787098,49.598305,50.46276,51.35562,52.33569,52.13813,51.032413,52.602837,46.17727,35.11175,27.84517,25.258202,24.996899,26.259827,28.469093,43.65545,55.21546,54.658638,54.66647,54.984818,55.255295,54.997467,54.320984,53.880325,53.486526,52.574894,51.71904,51.122936,50.960884,51.12384,51.73987,52.25766,52.281136,52.305206,52.239166,51.68534,50.557713,49.052048,47.992836,48.0278,48.780594,50.63701,52.678368,53.852943,54.40345,54.76152,54.935677,54.980263,55.130714,55.282734,55.37336,55.423496,55.4805,55.545395,55.61752,55.69178,55.897675,56.148888,56.309647,56.411064,56.384323,56.161064,55.805855,54.945473,53.91857,53.139492,52.504112,51.95639,51.590607,51.338478,51.104946,50.040764,48.22464,46.436836,43.937294,42.533737,43.135666,44.696728,47.510155,50.2518,51.68048,52.30248,52.65455,52.802704,52.788254,52.7228,52.71399,52.829464,53.01718,53.195606,53.493366,53.812683,53.88188,53.29081,51.83259,49.969845,47.22078,44.96323,43.804802,42.87301,42.107445,41.684135,41.537956,41.453526,41.396538,41.38617,41.418755,41.484474,41.66665,41.97254,42.321037,42.86966,43.433155,43.835243,44.161522,44.494728,44.75878,44.929672,45.086697,45.25654,45.396294,45.47534,45.182495,44.667473,44.31083,44.268852,44.617874,46.1484,48.696926,51.842148,55.68515,59.09327,61.374786,62.65265,62.960007,62.75959,62.62037,62.308342,61.964584,61.69825,61.28231,61.087677,61.405533,62.058823,62.65914,63.216354,63.784634,64.50159,65.25096,65.87175,66.227196,66.35013,66.542595,66.669815,66.623314,66.45036,66.5066,66.54381,66.50932,44.741516,23.546347,17.707378,17.125938,17.116629,17.208399,17.20121,17.27066,17.342457,17.401205,17.463512,17.526075,17.553375,17.543186,17.532387,17.521057,17.511606,17.506048,17.50428,17.509739,17.523232,17.539495,17.559866,17.582748,17.603336,17.620728,17.640862,17.66185,17.680452,17.697601,17.716084,17.732197,17.744026,17.755219,17.763111,17.764807,17.762032,17.754044,17.738956,17.720196,17.700724,17.673817,17.642792,17.614077,17.58287,17.547224,17.513426,17.485422,17.454472,17.421877,17.392323,17.366049,17.33721,17.312546,17.295868,17.281628,17.27081,17.264599,17.260254,17.24738,17.226618,17.204908,17.188766,17.156248,17.129755,17.120296,17.096518,17.124165,17.111229,17.014662,17.036411,17.50615,20.407383,26.74216,36.88944,42.698658,41.474384,40.73467,40.262833,40.256683,40.235268,38.52066,36.491955,35.041138,34.058365,33.489483,33.62819,34.556797,36.2421,38.59727,41.984016,45.759884,49.239506,51.617744,52.4934,52.830643,52.759583,52.49508
53.745567,53.72406,53.36154,52.9104,52.441963,52.10801,51.956467,51.830276,51.721497,51.477566,51.11079,51.058174,49.746647,47.179817,44.611763,43.006546,43.54921,45.934017,48.51129,50.540146,51.69287,52.20404,52.679176,52.86787,52.76146,52.60398,52.586903,52.44545,52.22391,52.112946,52.05348,51.94976,51.77912,51.617096,51.454163,51.3139,51.181137,50.988297,50.413532,49.51071,48.61283,47.642223,46.61197,45.718384,45.027267,44.366142,43.864994,43.6606,44.01519,44.790894,46.13494,47.831688,48.74845,49.535797,50.44481,51.37847,52.399033,52.14755,50.937164,52.605637,46.0213,34.82344,27.744,25.180336,24.921398,26.221403,28.49376,43.73825,55.222355,54.537727,54.682785,54.9392,55.14881,55.02829,54.381462,53.879078,53.445145,52.62632,51.76979,51.140587,50.964157,51.123775,51.762268,52.23044,52.12405,52.10531,52.061584,51.541687,50.400635,48.91926,47.87856,47.91816,48.68857,50.6325,52.705383,53.81652,54.380455,54.755085,54.9199,54.93253,55.07875,55.236916,55.33322,55.387367,55.44339,55.5044,55.575832,55.660408,55.86636,56.105606,56.25287,56.341972,56.306442,56.103493,55.81143,54.980858,53.964233,53.194622,52.577087,52.02671,51.629673,51.33426,51.04332,49.95215,48.18992,46.523235,44.089973,42.7073,43.315933,44.92489,47.58981,50.1758,51.61856,52.32134,52.729294,52.885616,52.873543,52.836033,52.83233,52.916992,53.06482,53.28109,53.526825,53.50818,52.773457,50.72722,47.65577,44.639954,41.24604,38.788494,37.888733,37.584602,37.356274,37.242672,37.1865,37.146835,37.067352,36.977158,36.91799,36.859108,36.812973,36.785805,36.765358,36.768536,36.90049,37.152847,37.432663,37.764565,38.068333,38.28491,38.465004,38.60698,38.68914,38.731422,38.75779,38.717995,38.72429,38.897182,39.419273,40.95202,43.383545,46.360996,51.118988,55.934494,58.984474,61.538506,62.604317,62.37537,62.11832,61.733627,61.359028,61.067837,60.582703,60.35054,60.667854,61.32639,61.97856,62.519257,62.941826,63.444218,63.758644,63.906242,64.04649,64.34576,64.800316,65.20655,65.401474,65.502914,65.9241,64.38515,59.72019,35.944977,18.11885,17.55919,17.16888,17.065538,17.105133,17.16726,17.225603,17.300476,17.380001,17.450184,17.47948,17.47359,17.455334,17.445244,17.436913,17.43314,17.433712,17.436672,17.44511,17.45939,17.475613,17.49582,17.518955,17.540287,17.558403,17.57927,17.600616,17.619099,17.635876,17.653648,17.668911,17.680046,17.690695,17.698341,17.700163,17.697697,17.690063,17.675362,17.656994,17.637966,17.611774,17.581692,17.553898,17.523655,17.488714,17.454952,17.426453,17.394447,17.359966,17.327911,17.298973,17.264791,17.23333,17.210844,17.191507,17.17512,17.164154,17.156784,17.145218,17.127071,17.107523,17.093094,17.076748,17.062408,17.051384,17.035036,17.036884,17.023493,16.981596,16.960133,17.17479,19.043528,23.114511,33.68216,41.69523,42.109978,41.068718,40.154125,39.93243,39.92003,38.256897,36.327744,34.97162,34.046516,33.49237,33.62105,34.52917,36.171783,38.433224,41.733948,45.48107,48.94028,51.393932,52.356007,52.6774,52.64081,52.40744
53.491673,53.450615,53.04772,52.538357,52.03181,51.62017,51.417114,51.390038,51.27932,51.05735,50.77574,50.656284,49.30389,46.801395,44.373726,42.97204,43.62519,46.01979,48.657925,50.663383,51.78601,52.306458,52.761517,52.924652,52.793575,52.615417,52.573128,52.42148,52.19887,52.075066,52.011597,51.88338,51.675514,51.50692,51.335182,51.17997,51.03663,50.876747,50.373123,49.52081,48.610725,47.661247,46.658577,45.76735,45.037357,44.365936,43.86815,43.660904,44.027596,44.81868,46.152954,47.808422,48.70046,49.49295,50.433205,51.40328,52.441193,52.198547,50.989513,52.63266,45.882374,34.604927,27.681566,25.132206,24.870739,26.205845,28.54602,43.817383,55.21087,54.414925,54.67653,54.951965,55.129097,55.02987,54.412643,53.83319,53.364452,52.736603,51.89929,51.2259,51.030605,51.18306,51.809402,52.21733,52.018383,51.98119,51.91616,51.381172,50.25525,48.800438,47.78543,47.84417,48.63543,50.65586,52.745075,53.792076,54.411484,54.788746,54.91239,54.910286,55.0338,55.183754,55.28601,55.34054,55.395416,55.44951,55.517563,55.632713,55.833633,56.045288,56.180336,56.259026,56.226707,56.061424,55.845154,55.047558,54.03939,53.27971,52.6865,52.128872,51.69456,51.358833,51.014267,49.907127,48.16119,46.49701,44.206734,42.913795,43.493477,45.115482,47.62445,50.084045,51.56988,52.295486,52.730656,52.908184,52.906815,52.877457,52.86972,52.921753,52.98932,53.35624,53.32882,52.43181,50.844696,47.279808,42.949707,39.785076,37.98739,36.8547,36.142876,35.81167,35.584236,35.446983,35.3399,35.260677,35.15879,35.060143,34.991913,34.926727,34.870262,34.836575,34.822968,34.831017,34.866062,34.9233,35.001328,35.123547,35.269592,35.399292,35.52294,35.648384,35.758526,35.84974,35.943207,36.032875,36.164124,36.371716,36.863518,37.750397,39.159454,41.975906,46.728912,52.24817,56.84118,60.174866,61.854446,62.053165,61.76098,61.274097,60.846535,60.595627,60.102165,59.89838,60.245842,60.887375,61.441742,61.889275,62.209587,62.537865,62.51323,62.20923,62.021084,62.34644,62.612892,62.90016,63.2993,63.90534,64.44294,60.51643,50.279716,30.284107,17.269705,17.345732,17.145456,17.047958,17.056324,17.157217,17.195051,17.284302,17.386372,17.432014,17.436567,17.417324,17.400093,17.390974,17.386246,17.388004,17.393524,17.400013,17.410389,17.424599,17.439892,17.458782,17.480598,17.501036,17.518559,17.538656,17.558914,17.576122,17.591597,17.60776,17.621449,17.631386,17.641035,17.648024,17.64967,17.647327,17.639967,17.625824,17.608261,17.59023,17.56562,17.537556,17.51171,17.48354,17.450638,17.418278,17.39048,17.358807,17.323933,17.290867,17.260796,17.2242,17.187588,17.158676,17.135015,17.11371,17.098154,17.087639,17.074635,17.061111,17.049417,17.039343,17.029163,17.011683,16.994997,17.01223,17.000587,16.973454,16.9679,16.933155,17.007915,18.247913,20.965614,30.71645,39.847816,42.32528,41.351135,40.17733,39.69433,39.595383,37.926914,36.13916,34.954205,34.08144,33.538147,33.651512,34.526974,36.087273,38.28102,41.527573,45.228428,48.67084,51.193405,52.23516,52.55067,52.541435,52.33723
53.207787,53.166393,52.697273,51.97499,51.31511,50.83733,50.6616,50.70691,50.64643,50.51563,50.340794,50.157867,48.752296,46.35151,44.16979,42.98912,43.786633,46.214684,48.840683,50.75979,51.846367,52.412075,52.84292,52.977234,52.821335,52.620773,52.536972,52.379684,52.175148,52.04266,51.94877,51.78103,51.548157,51.378334,51.19847,51.03289,50.88478,50.71058,50.2547,49.48577,48.62462,47.665825,46.69584,45.862408,45.084366,44.409195,43.92987,43.722805,44.068184,44.838905,46.16575,47.822002,48.672867,49.45534,50.433662,51.442894,52.50741,52.267906,51.039368,52.645615,45.77071,34.451015,27.661453,25.108955,24.83576,26.21775,28.658913,43.961433,55.22261,54.269768,54.672745,55.013622,55.168648,55.049866,54.450058,53.785168,53.324097,53.011814,52.169968,51.39917,51.17849,51.314884,51.88871,52.214256,51.945217,51.90445,51.79756,51.21328,50.094997,48.65503,47.68085,47.791473,48.620575,50.679733,52.786728,53.828808,54.44446,54.822662,54.96107,54.97991,55.01796,55.109245,55.218445,55.27173,55.315826,55.367016,55.450333,55.60096,55.791496,55.9692,56.096672,56.203445,56.209625,56.076103,55.884766,55.171944,54.221848,53.456234,52.863163,52.284542,51.80668,51.42206,51.01599,49.8897,48.153255,46.472313,44.38572,43.227962,43.73226,45.224094,47.565125,49.944534,51.470573,52.216816,52.69762,52.921185,52.937332,52.920616,52.829605,52.82332,53.101795,53.350433,52.48222,50.34704,47.752964,43.35681,39.22352,37.253593,36.029755,35.275917,34.7796,34.465485,34.21976,34.049706,33.92621,33.832222,33.737877,33.65753,33.597115,33.534805,33.47097,33.418995,33.382973,33.35419,33.340187,33.346634,33.372467,33.43759,33.532925,33.62642,33.726288,33.840595,33.948788,34.037884,34.147583,34.289154,34.473587,34.697384,35.10661,35.792095,36.817245,38.478996,42.412514,48.045662,53.339054,57.378647,60.284073,61.58451,61.38481,60.89125,60.34823,60.016922,59.6755,59.627365,59.99746,60.530396,60.89886,61.219795,61.4475,61.575836,61.334232,60.805187,60.448418,60.741947,60.856327,60.822136,60.810646,60.85048,60.596058,54.349102,39.554955,24.654758,16.952196,17.23439,17.08244,17.011154,17.031958,17.121925,17.190506,17.298584,17.389112,17.408714,17.401588,17.38047,17.366169,17.360365,17.362587,17.373596,17.386597,17.39644,17.407516,17.42014,17.433304,17.449593,17.468859,17.487453,17.50364,17.522144,17.540588,17.55603,17.569843,17.584085,17.596016,17.604683,17.613314,17.61969,17.621288,17.619259,17.61249,17.59937,17.583149,17.56668,17.544556,17.51969,17.496983,17.47224,17.443005,17.413635,17.387882,17.358042,17.324358,17.29168,17.26159,17.22416,17.18544,17.153124,17.122633,17.09372,17.071976,17.056993,17.042057,17.027637,17.015755,17.006794,16.99995,16.988907,16.97456,16.96854,16.962582,16.945688,16.917175,16.831022,16.859934,17.674156,19.250425,27.841124,37.581757,41.97695,41.449287,40.310463,39.57796,39.243412,37.58248,35.977192,34.991505,34.19679,33.649788,33.72576,34.55847,36.015953,38.126846,41.31019,44.96068,48.406094,50.993244,52.09663,52.408485,52.419594,52.242462
52.68959,52.576668,51.989227,51.09442,50.082123,49.37326,49.26245,49.52928,49.82554,49.88963,49.627083,49.28926,47.89309,45.75275,43.92535,43.033813,44.026886,46.499237,49.056625,50.8676,51.90651,52.49979,52.900093,53.00441,52.82798,52.609783,52.469723,52.31289,52.145035,52.00219,51.84704,51.63478,51.406437,51.239178,51.071693,50.91032,50.74759,50.531788,50.11772,49.45314,48.663345,47.69442,46.749947,45.983185,45.194504,44.52229,44.0716,43.890713,44.166466,44.962616,46.319096,47.876446,48.649517,49.414433,50.428467,51.46636,52.532402,52.27661,51.031296,52.61805,45.677418,34.36159,27.694838,25.11221,24.813843,26.240776,28.760925,44.114643,55.24539,54.106247,54.660477,55.07183,55.206615,55.074715,54.49857,53.807327,53.358246,53.20325,52.506466,51.76149,51.4628,51.578407,52.00093,52.19732,51.934715,51.886948,51.71952,51.06925,49.947014,48.51941,47.604156,47.7924,48.671494,50.75779,52.852955,53.867706,54.486492,54.881977,55.04567,55.084984,55.068176,55.09562,55.17634,55.220905,55.279392,55.36869,55.48534,55.632416,55.800102,55.955048,56.076027,56.181602,56.199608,56.071045,55.84996,55.308815,54.495564,53.711998,53.11695,52.51491,51.98757,51.543648,51.06181,49.89602,48.148327,46.435154,44.500202,43.443398,43.86604,45.197754,47.338936,49.5697,51.065704,51.96453,52.48506,52.648872,52.667324,52.62745,52.72062,52.85116,52.813164,52.050034,49.95717,46.97249,43.443604,39.44793,36.685806,35.724876,34.80787,34.188286,33.846313,33.59218,33.37436,33.22896,33.142094,33.065605,32.98816,32.922096,32.872208,32.82374,32.77074,32.72094,32.680435,32.640884,32.617615,32.618874,32.636,32.68463,32.7568,32.827118,32.903755,32.991283,33.069374,33.126854,33.202065,33.31215,33.46409,33.646294,33.94751,34.505226,35.30226,36.164886,38.690964,43.244576,48.475445,53.67096,57.875328,60.013092,60.72277,60.50994,59.842934,59.462555,59.273613,59.36255,59.728943,60.139446,60.399956,60.62194,60.73081,60.676132,60.3263,59.675686,59.1606,59.34776,59.30394,58.908096,58.331276,57.789024,55.254646,46.505558,31.080544,20.986141,17.105347,17.17287,17.028963,16.991177,17.037302,17.112177,17.213688,17.321793,17.382662,17.386314,17.376484,17.35838,17.348015,17.349293,17.360416,17.38163,17.402939,17.415318,17.425837,17.435623,17.445591,17.458105,17.473629,17.489342,17.503302,17.519173,17.534815,17.54775,17.559298,17.570984,17.580616,17.587626,17.594898,17.60043,17.601925,17.600279,17.594353,17.582756,17.568535,17.554323,17.53572,17.515314,17.496939,17.476902,17.452806,17.42784,17.405281,17.378563,17.347399,17.316307,17.287275,17.250385,17.21116,17.176998,17.141447,17.106087,17.077682,17.056425,17.035803,17.015808,17.0003,16.990969,16.98634,16.981627,16.969688,16.93906,16.929829,16.91563,16.86874,16.772846,16.770592,17.264584,18.101131,24.63953,34.16642,40.675873,41.160484,40.453766,39.51277,38.81578,37.16449,35.790123,35.071274,34.426735,33.906593,33.955116,34.73269,36.010887,37.989845,41.090584,44.677742,48.11448,50.7797,51.955135,52.23829,52.303116,52.173244
52.003757,51.70153,50.844303,49.79901,48.462627,47.523186,47.451687,47.931877,48.653797,48.98303,48.642574,48.131863,46.843376,45.073586,43.591675,43.005585,44.218338,46.748913,49.22734,50.960567,51.952522,52.531143,52.90084,52.981133,52.793625,52.568146,52.381363,52.21845,52.074997,51.924152,51.72049,51.487514,51.285614,51.12803,50.98459,50.832855,50.650414,50.39788,50.016304,49.438244,48.711433,47.75066,46.813377,46.08445,45.349197,44.69445,44.27073,44.13739,44.361008,45.2141,46.58483,47.95433,48.626648,49.368248,50.403263,51.449585,52.480568,52.182762,50.927685,52.533306,45.591496,34.304672,27.721045,25.117914,24.802467,26.256432,28.817825,44.208702,55.25395,53.98288,54.63545,55.075363,55.178856,55.04235,54.53213,53.90605,53.44732,53.19818,52.767868,52.20652,51.821846,51.90128,52.11639,52.172146,51.97438,51.90802,51.683235,50.984066,49.858444,48.449566,47.585342,47.837162,48.77515,50.879658,52.926174,53.876133,54.52274,54.94554,55.117332,55.158775,55.15238,55.155132,55.196617,55.239677,55.331528,55.466415,55.60012,55.710056,55.849346,55.992287,56.101963,56.170795,56.16426,56.021973,55.762817,55.379356,54.720474,53.959946,53.374996,52.76068,52.191895,51.6915,51.133224,49.905746,48.121315,46.37381,44.47519,43.427814,43.76848,44.95781,46.87155,48.934036,50.42921,51.527203,52.10038,52.194633,52.222706,52.134632,52.20909,52.09462,51.280525,49.146637,46.100094,43.109364,39.560143,36.81983,35.43567,34.63935,33.960754,33.482086,33.216053,33.06633,32.947258,32.884583,32.853928,32.80784,32.739964,32.67045,32.62084,32.57842,32.53324,32.48952,32.452873,32.417458,32.394203,32.390404,32.40097,32.43683,32.492905,32.548023,32.602867,32.66092,32.707405,32.736893,32.776253,32.833786,32.9189,33.02769,33.23317,33.633263,34.22684,35.04622,36.464294,39.43083,43.795063,49.689583,54.712753,57.45955,59.558968,60.016994,59.442863,59.059116,58.929626,59.072926,59.429714,59.77038,60.039673,60.21474,60.20786,60.04449,59.655983,58.97197,58.3547,58.33468,58.126,57.465134,56.450996,55.65765,50.6855,40.235115,27.283411,19.730536,17.179466,17.132439,17.016096,17.00014,17.061386,17.142195,17.247635,17.334934,17.371021,17.374344,17.366928,17.352633,17.34676,17.356293,17.375488,17.403069,17.428059,17.44113,17.450056,17.45658,17.46317,17.471828,17.483517,17.4962,17.50779,17.520895,17.53368,17.544113,17.553398,17.56253,17.5699,17.575344,17.581352,17.586002,17.587275,17.585947,17.58086,17.570862,17.558735,17.54684,17.531773,17.515759,17.50158,17.486067,17.466938,17.44631,17.426992,17.403545,17.37523,17.346209,17.318806,17.28333,17.244614,17.209919,17.173222,17.134413,17.100147,17.072378,17.04417,17.017118,16.997572,16.986992,16.984138,16.98286,16.972702,16.94231,16.914932,16.88549,16.846373,16.782848,16.731833,16.997742,17.53091,21.814455,30.40968,38.487446,40.28186,40.336388,39.38169,38.401592,36.76482,35.57344,35.098312,34.65409,34.23665,34.289524,34.98294,36.056072,37.895676,40.916553,44.435974,47.846634,50.585526,51.842903,52.10547,52.245373,52.167206
51.42475,50.82057,49.367226,47.939335,46.64189,45.80973,45.683186,46.016983,46.758064,47.425056,47.500824,46.87687,45.741898,44.355537,43.154232,42.859245,44.30748,46.921192,49.33573,51.011288,51.964355,52.52282,52.863327,52.92347,52.73015,52.502754,52.28888,52.09091,51.927578,51.778778,51.585583,51.369045,51.184692,51.05121,50.918518,50.76149,50.569042,50.30065,49.93869,49.420227,48.75988,47.816925,46.868416,46.158325,45.531693,44.912197,44.501427,44.41535,44.68995,45.552315,46.83445,48.04531,48.612556,49.319496,50.365356,51.407658,52.395287,52.042995,50.76729,52.4115,45.505238,34.237896,27.668766,25.097439,24.797592,26.264872,28.87738,44.262905,55.248516,53.925247,54.610794,55.045643,55.086723,54.891712,54.531296,54.029366,53.53298,53.12477,52.95887,52.63848,52.218082,52.22516,52.238457,52.16684,52.01866,51.930702,51.658257,50.929302,49.818302,48.439926,47.59646,47.873062,48.896835,51.009888,52.993153,53.88498,54.557575,54.998283,55.16752,55.207306,55.21997,55.235153,55.28508,55.358734,55.467716,55.585278,55.68106,55.771812,55.88675,56.00267,56.089584,56.139526,56.120857,55.981674,55.73989,55.380966,54.82341,54.190765,53.621967,53.002182,52.398964,51.844196,51.213264,49.91559,48.079033,46.289127,44.3981,43.316154,43.52765,44.520653,46.15139,48.202248,49.998486,51.161743,51.88157,52.186836,52.363144,52.300648,51.230064,49.489616,48.21264,45.255775,41.668083,38.986046,36.96683,35.34198,34.345665,33.76393,33.292995,32.969,32.81092,32.766426,32.753082,32.75071,32.729668,32.690025,32.62628,32.557327,32.50421,32.447662,32.388237,32.33687,32.296616,32.26532,32.25048,32.252804,32.265617,32.300728,32.350502,32.395752,32.438152,32.489853,32.536568,32.565823,32.600567,32.636604,32.675297,32.71753,32.807228,33.061584,33.498962,34.09214,35.201035,37.209023,39.90531,44.763756,50.38701,54.811234,58.03186,59.461803,59.23856,58.70718,58.61131,58.827995,59.220066,59.52009,59.75733,59.870956,59.791744,59.578194,59.139183,58.554703,58.026886,57.610336,57.14636,56.20259,54.706688,53.44221,47.658623,36.925034,24.90205,18.801785,17.15871,17.105934,17.021074,17.012966,17.083614,17.184008,17.274149,17.340359,17.366379,17.37186,17.368336,17.360657,17.362095,17.37851,17.405735,17.435287,17.455801,17.46788,17.474531,17.477491,17.480726,17.485737,17.493843,17.503716,17.51318,17.523935,17.534344,17.54266,17.54994,17.556702,17.56209,17.566406,17.571728,17.575668,17.576527,17.575474,17.571278,17.562944,17.552876,17.543137,17.531202,17.518974,17.508392,17.496735,17.481874,17.465038,17.44862,17.428192,17.402649,17.375816,17.350273,17.316826,17.27968,17.245625,17.208878,17.16629,17.125515,17.091953,17.058506,17.026121,17.002361,16.98947,16.987465,16.991802,16.989056,16.967922,16.922508,16.871922,16.837051,16.778896,16.698368,16.826782,17.171576,19.623962,26.988405,35.72889,38.86383,39.883423,39.157772,38.060703,36.439163,35.317863,34.993935,34.77521,34.56661,34.640892,35.1704,36.066975,37.81092,40.77775,44.226627,47.613735,50.40927,51.75141,52.04798,52.240852,52.191895
49.793938,48.85427,47.119034,45.391865,43.697212,42.76539,42.896812,43.52469,44.423805,45.192566,45.429756,45.03425,44.31581,43.357376,42.41201,42.452896,44.181496,46.8984,49.26201,50.96454,51.898403,52.36485,52.674824,52.722115,52.5325,52.312683,52.0885,51.880314,51.716812,51.574608,51.399372,51.20456,51.03732,50.92263,50.785896,50.620853,50.43603,50.168816,49.815006,49.33728,48.753242,47.863575,46.937794,46.24961,45.692787,45.172264,44.849674,44.81147,45.13808,45.94294,47.0505,48.07109,48.55327,49.23278,50.271538,51.320568,52.17965,51.711067,50.445644,52.16472,45.258804,34.00646,27.5575,25.058819,24.776363,26.264126,28.990189,44.238136,55.133106,53.881607,54.507027,54.906364,54.923164,54.702538,54.475517,54.089905,53.61747,53.191917,53.01286,52.814148,52.54326,52.448174,52.30047,52.155525,52.055367,51.928665,51.598663,50.858353,49.801834,48.470337,47.66098,47.96898,49.06151,51.130943,53.008522,53.83761,54.53327,54.965904,55.11476,55.17122,55.190155,55.2202,55.288704,55.36934,55.486023,55.595062,55.66664,55.7369,55.825188,55.912254,55.974678,56.004524,55.97404,55.842445,55.628036,55.282944,54.797813,54.280464,53.778164,53.18683,52.571037,51.983402,51.263985,49.83732,47.889572,46.041283,44.11255,42.952137,42.995018,43.728493,45.024666,46.66947,48.11077,49.202126,49.94281,50.076176,49.78336,49.357605,47.337646,44.36615,42.309376,39.673416,37.198547,35.600662,34.730007,33.914806,33.285202,32.947315,32.729805,32.627907,32.614124,32.645515,32.67324,32.671997,32.638176,32.593597,32.53301,32.476696,32.439316,32.400604,32.359596,32.320698,32.28577,32.25296,32.228695,32.21898,32.22148,32.245544,32.29065,32.33893,32.38422,32.441082,32.500824,32.551704,32.608994,32.654716,32.66651,32.63943,32.59643,32.655243,32.87776,33.242485,34.018234,35.298985,36.861908,39.81535,45.080296,50.610046,53.993336,57.27287,58.753414,58.46676,58.33542,58.544327,58.96583,59.239822,59.455727,59.517853,59.364887,59.08291,58.601906,57.984127,57.38623,56.80241,56.22499,55.02526,53.035095,51.1379,43.990753,32.878323,22.856182,18.165096,17.13895,17.091354,17.049643,17.059536,17.13134,17.229418,17.297922,17.346153,17.367718,17.375788,17.377655,17.381176,17.394552,17.41756,17.448599,17.477795,17.495775,17.505962,17.509056,17.507378,17.506456,17.507023,17.510775,17.517212,17.524092,17.532066,17.53955,17.545212,17.550243,17.555298,17.559324,17.562176,17.565878,17.569096,17.570122,17.569107,17.564987,17.556942,17.547829,17.540184,17.532057,17.524605,17.518345,17.51128,17.501516,17.489254,17.476387,17.459736,17.43775,17.413784,17.390669,17.36,17.3253,17.292858,17.257881,17.214039,17.167713,17.12667,17.083855,17.043146,17.014315,16.99743,16.9962,17.005238,17.007278,16.992111,16.937187,16.869766,16.826439,16.773197,16.6599,16.67242,16.898739,17.904793,23.401056,31.509426,36.432354,38.660713,38.376884,37.62796,36.057796,34.996582,34.829247,34.764893,34.709206,34.843422,35.318024,36.111305,37.76967,40.650696,44.00985,47.374016,50.19554,51.629707,52.064896,52.351715,52.32403
47.50154,46.396126,44.635033,42.628258,40.67491,39.699837,40.031013,40.91957,41.994957,42.794346,43.057205,43.0376,42.764656,42.151207,41.420982,41.72609,43.679558,46.49894,48.85163,50.713676,51.666664,51.95101,52.240128,52.29064,52.11715,51.91917,51.749622,51.587433,51.437775,51.29122,51.12373,50.95807,50.82395,50.716843,50.57454,50.406,50.23124,49.979855,49.636417,49.179768,48.64262,47.822906,46.95636,46.30506,45.789394,45.370205,45.156075,45.17308,45.537567,46.224045,47.110367,47.962044,48.40382,49.06353,50.065174,51.119225,51.75096,51.280144,50.291153,51.849533,44.716545,33.493195,27.37196,24.99826,24.739109,26.239134,29.05806,44.04159,54.832314,53.75974,54.231804,54.590836,54.68681,54.540695,54.343384,54.002853,53.60531,53.26744,52.94947,52.743668,52.6326,52.477287,52.272682,52.1152,52.030815,51.86342,51.48192,50.752975,49.789948,48.526714,47.764534,48.09536,49.207584,51.153065,52.886116,53.673763,54.376923,54.798523,54.918774,54.959427,54.98934,55.03664,55.10794,55.174416,55.276707,55.377586,55.44555,55.50299,55.57546,55.64621,55.694122,55.712387,55.672417,55.545288,55.355103,55.039986,54.60212,54.147247,53.72484,53.1894,52.594704,52.000282,51.194088,49.576794,47.456184,45.564846,43.521164,42.17832,41.972786,42.36442,43.308815,44.457497,45.316036,46.077087,46.4026,45.90631,44.854,43.80487,41.67424,38.960106,36.86042,35.252827,34.291992,33.720703,33.28648,32.83612,32.512917,32.394127,32.374794,32.433838,32.50532,32.551086,32.557808,32.520546,32.46638,32.4143,32.358593,32.32083,32.307262,32.301006,32.29506,32.282204,32.262894,32.23564,32.205368,32.184464,32.17648,32.186806,32.22082,32.26434,32.307148,32.36168,32.426846,32.49466,32.57728,32.65474,32.682404,32.64234,32.537823,32.451065,32.483154,32.681046,33.17495,34.058804,35.170883,36.647606,40.469223,45.51774,49.15161,53.886566,57.148636,57.860695,58.06241,58.31675,58.681988,58.98445,59.239418,59.28084,59.03942,58.660954,58.097553,57.368423,56.673805,56.145905,55.54575,54.159115,51.810738,48.952972,40.246845,28.970814,21.404385,17.877491,17.154152,17.101173,17.095348,17.12302,17.187946,17.267258,17.319113,17.35701,17.377281,17.387402,17.394573,17.408218,17.431345,17.458448,17.489697,17.516922,17.533283,17.540588,17.539436,17.533108,17.528252,17.5247,17.524384,17.527493,17.531782,17.536861,17.541458,17.544758,17.548042,17.551167,17.55337,17.554771,17.55683,17.559052,17.559757,17.558334,17.553825,17.545704,17.537117,17.530647,17.525043,17.521362,17.519037,17.516237,17.511238,17.50325,17.493698,17.480553,17.461937,17.440916,17.420643,17.39341,17.362152,17.332438,17.300003,17.257088,17.208069,17.161522,17.109985,17.060818,17.026495,17.005215,17.002455,17.012598,17.016506,17.00425,16.951546,16.876938,16.81724,16.765966,16.647017,16.605803,16.760658,17.12558,20.64706,26.798092,32.554146,36.25276,37.115982,36.758347,35.48655,34.64804,34.63793,34.673836,34.706085,34.915344,35.429176,36.19367,37.797874,40.5886,43.84867,47.1555,49.965508,51.511925,52.17861,52.559067,52.544308
45.545116,44.489784,42.662415,40.32924,38.717323,37.975826,38.12648,38.780537,39.889637,40.87314,41.28212,41.45172,41.384544,40.97696,40.44286,40.894432,42.96846,45.8657,48.236633,50.306797,51.302006,51.39225,51.66844,51.731506,51.58326,51.419,51.351448,51.262024,51.117886,50.954025,50.78233,50.651863,50.567913,50.465168,50.333458,50.170868,49.992332,49.757324,49.435654,48.994232,48.463028,47.69787,46.896873,46.295883,45.833466,45.457096,45.29814,45.37654,45.76335,46.33023,47.027027,47.76245,48.19194,48.832176,49.77966,50.82158,51.2125,50.924828,50.456436,51.56507,43.99916,32.829803,27.159363,24.92871,24.698456,26.195312,29.024508,43.71335,54.411697,53.535683,53.84787,54.189323,54.429817,54.422726,54.16453,53.805546,53.47547,53.192253,52.87995,52.653458,52.531578,52.389454,52.19993,52.041855,51.93869,51.746353,51.33154,50.621254,49.75373,48.56974,47.856636,48.191093,49.285557,51.06842,52.6541,53.427147,54.122406,54.55194,54.651566,54.627987,54.688408,54.75531,54.805367,54.861076,54.934135,55.01481,55.083904,55.138344,55.208458,55.276802,55.32173,55.339428,55.293674,55.165337,54.98912,54.724335,54.33239,53.90206,53.525368,53.04263,52.483368,51.887726,51.012436,49.194893,46.88783,44.976696,42.77816,41.18579,40.68695,40.717392,41.33531,42.27249,42.953438,43.235897,42.828312,41.643757,40.180668,38.657326,37.07237,35.728252,34.68505,33.740173,33.094337,32.731308,32.423542,32.162693,32.05271,32.086353,32.153057,32.237022,32.29311,32.31589,32.29981,32.245197,32.183376,32.131767,32.083767,32.058975,32.058327,32.0672,32.080322,32.08715,32.085083,32.076515,32.06201,32.049484,32.04383,32.04866,32.064213,32.082764,32.102955,32.13639,32.186375,32.24433,32.32892,32.43167,32.502666,32.514137,32.444122,32.321266,32.255547,32.355408,32.688217,33.328262,34.151806,35.394455,37.581207,41.07146,45.893707,50.78804,54.608833,56.7421,57.741062,58.185707,58.415596,58.789406,59.13851,59.18353,58.84092,58.35691,57.660957,56.876595,56.224144,55.754753,55.087708,53.55928,50.99948,46.974686,37.148865,26.138533,20.395557,17.725344,17.20325,17.127472,17.137835,17.171799,17.228909,17.294312,17.340027,17.37253,17.390064,17.401508,17.41256,17.430748,17.45678,17.485474,17.517172,17.542706,17.556019,17.560139,17.555222,17.545294,17.537533,17.531036,17.527754,17.528278,17.530449,17.532951,17.535297,17.537128,17.53938,17.539713,17.539028,17.539297,17.540554,17.541422,17.540653,17.538559,17.533936,17.526676,17.519245,17.513042,17.50793,17.50591,17.506279,17.506569,17.505083,17.50023,17.4931,17.482464,17.466305,17.447685,17.430138,17.406311,17.378754,17.352085,17.321354,17.279312,17.229809,17.181664,17.126408,17.071747,17.032373,17.007862,17.000933,17.009098,17.014568,17.005821,16.95943,16.883568,16.81199,16.758835,16.66708,16.623934,16.701046,16.937668,19.012291,23.043367,28.13778,33.26084,35.787003,35.486267,34.771492,34.33814,34.4684,34.62178,34.735588,35.00039,35.54323,36.288803,37.86574,40.594048,43.762497,46.970375,49.757996,51.42959,52.316406,52.744484,52.741127
43.528435,42.592857,40.924637,38.765564,37.43277,36.787163,36.759964,37.135742,38.206738,39.21118,39.550285,39.757782,39.67112,39.349243,39.106373,39.848427,42.072067,44.968224,47.353165,49.404938,50.46481,50.66037,50.817184,50.863678,50.865234,50.886932,50.756813,50.548553,50.360977,50.238472,50.140793,50.070843,50.021362,49.986206,49.94664,49.84319,49.66885,49.46141,49.115425,48.633835,48.11409,47.42208,46.713196,46.186096,45.79915,45.49457,45.403877,45.524162,45.849213,46.297802,46.83416,47.401,47.823723,48.447678,49.31023,50.271694,50.59462,50.507683,50.31787,50.990974,43.036255,32.009235,26.916832,24.813467,24.598015,26.120651,28.997402,43.005238,53.527138,53.240883,53.524803,53.82701,54.054016,54.032818,53.734398,53.393326,53.133694,52.90543,52.638874,52.43888,52.32644,52.191383,52.01352,51.84127,51.69831,51.498985,51.071457,50.3766,49.578217,48.539085,47.92022,48.2341,49.27539,50.84972,52.249664,52.988625,53.673416,54.035698,54.08454,54.104607,54.23754,54.356613,54.41959,54.49064,54.53087,54.559406,54.59676,54.64016,54.6858,54.72312,54.747917,54.762817,54.738167,54.643097,54.493248,54.24431,53.88195,53.504406,53.198174,52.765816,52.221657,51.611088,50.664307,48.631638,46.045097,43.92655,41.602303,39.831264,39.080437,38.91873,39.07357,39.35558,39.44921,39.227356,38.57428,37.579193,36.56043,35.38726,34.282364,33.50728,32.972546,32.46543,32.09178,31.867527,31.684414,31.61503,31.673702,31.769257,31.866589,31.942873,31.96994,31.963665,31.923336,31.856318,31.79418,31.748787,31.712702,31.70145,31.711432,31.731129,31.756462,31.775436,31.784266,31.787241,31.781189,31.771183,31.763165,31.763153,31.770405,31.778294,31.786076,31.791382,31.802513,31.825657,31.906553,32.039375,32.16336,32.24022,32.25425,32.17568,32.08184,32.09663,32.27137,32.68212,33.2464,34.141487,35.549942,37.992676,41.809727,46.774826,51.95511,55.68898,57.340115,58.012203,58.201466,58.57257,59.04788,59.116943,58.653015,58.041737,57.23629,56.4036,55.764633,55.34352,54.668457,52.931416,49.923996,44.67496,34.15635,23.810192,19.629112,17.656857,17.268074,17.16744,17.189295,17.22496,17.271835,17.323421,17.361687,17.38814,17.403145,17.416153,17.43145,17.454868,17.484276,17.514256,17.545513,17.568285,17.577831,17.578243,17.569197,17.555538,17.544859,17.535446,17.52924,17.527176,17.52718,17.526882,17.527348,17.528229,17.52758,17.525936,17.523636,17.521553,17.520267,17.518559,17.515896,17.512674,17.50737,17.50034,17.493885,17.488976,17.485386,17.484837,17.486576,17.489233,17.490818,17.48906,17.484608,17.477879,17.46587,17.450436,17.43515,17.414307,17.390118,17.36643,17.338348,17.298536,17.249687,17.200628,17.14251,17.083496,17.039776,17.011791,16.997578,17.00101,17.007935,17.002964,16.9628,16.888626,16.8113,16.749573,16.670704,16.627438,16.653841,16.843672,17.98212,20.466408,24.696152,29.249666,32.44168,33.84402,34.185173,34.10922,34.191345,34.559418,34.80601,35.147865,35.729,36.473152,38.032352,40.692352,43.74931,46.8021,49.561474,51.317944,52.259563,52.668102,52.692646
41.79406,41.076813,39.72544,37.932114,36.77134,36.133232,35.991913,36.173428,37.049774,37.923233,38.20661,38.375122,38.20115,37.912514,37.900337,38.80298,41.046303,43.824833,46.06849,47.97091,49.06556,49.43461,49.58396,49.645855,49.677322,49.70378,49.54097,49.3106,49.14745,49.0853,49.065643,49.064117,49.06227,49.08719,49.109203,49.057507,48.92131,48.74639,48.419914,47.96602,47.501858,46.923172,46.34003,45.908966,45.606255,45.39805,45.369564,45.486786,45.727764,46.069122,46.45948,46.839645,47.230656,47.814674,48.569145,49.4028,49.800552,49.876892,49.71637,50.1055,41.908142,31.110004,26.666054,24.704456,24.502865,26.064053,29.034714,41.992615,52.176247,52.69149,52.831833,53.161102,53.402733,53.184917,52.884575,52.61606,52.441574,52.27885,52.120224,52.00608,51.92551,51.81337,51.64662,51.450417,51.2648,51.072784,50.655357,49.98401,49.23854,48.381096,47.894073,48.17359,49.087914,50.390648,51.591194,52.29896,52.82791,53.13662,53.2677,53.391243,53.450634,53.46425,53.487637,53.56681,53.629498,53.681885,53.72854,53.764984,53.81,53.855385,53.889717,53.914925,53.910294,53.84726,53.736248,53.51252,53.194267,52.885876,52.649834,52.322746,51.806328,51.106056,50.08918,47.832397,44.94577,42.618336,40.142967,38.344788,37.61574,37.395046,37.26129,37.064903,36.725906,36.25251,35.618267,34.945374,34.35286,33.60994,32.856792,32.312027,31.986568,31.687113,31.455286,31.31026,31.252092,31.304363,31.417511,31.497238,31.56292,31.590874,31.5738,31.537277,31.482117,31.4197,31.372017,31.342281,31.32375,31.325344,31.341454,31.368048,31.400524,31.425198,31.437515,31.44331,31.443342,31.441662,31.438957,31.444695,31.45639,31.465357,31.467781,31.456238,31.439772,31.432653,31.47271,31.576618,31.712671,31.845486,31.972996,32.019524,31.986639,31.940279,32.01041,32.267845,32.633392,33.240726,34.30633,36.056488,38.39164,43.072548,48.97921,53.628418,56.274494,57.549904,57.853065,58.217354,58.76377,58.84836,58.32423,57.643517,56.793797,55.938866,55.29449,54.895912,54.269142,52.35196,48.823166,42.24991,31.457664,22.176765,19.1865,17.669128,17.327291,17.226263,17.246853,17.275307,17.310987,17.352007,17.382256,17.402073,17.414476,17.42889,17.44814,17.476307,17.508518,17.539185,17.569386,17.588974,17.594635,17.591454,17.578707,17.561935,17.548912,17.537144,17.528477,17.524054,17.521816,17.519804,17.518684,17.517788,17.515259,17.511372,17.50621,17.500887,17.496002,17.490711,17.485363,17.480331,17.473663,17.466267,17.460445,17.456804,17.45512,17.456337,17.459175,17.462875,17.46709,17.469126,17.468044,17.464931,17.4566,17.444252,17.431255,17.413452,17.392761,17.372318,17.347586,17.31126,17.264744,17.21644,17.157312,17.096092,17.049425,17.017853,16.99538,16.991161,16.996134,16.994167,16.961597,16.892765,16.814121,16.74995,16.675873,16.637772,16.66344,16.845377,17.491264,18.962454,21.91069,25.42572,28.893333,31.725357,33.35188,33.96669,34.106438,34.53304,34.943314,35.418404,36.034676,36.795715,38.377857,40.97944,43.87991,46.694443,49.47882,51.324787,52.06826,52.392048,52.433044
40.736954,40.22425,39.187706,37.741196,36.61858,35.92344,35.751152,35.888313,36.517086,37.199844,37.49588,37.61962,37.421165,37.17238,37.242455,38.107162,40.21769,42.7857,44.750137,46.502594,47.573112,47.980698,48.23029,48.324966,48.250916,48.116356,48.021065,47.92414,47.854973,47.834263,47.84775,47.88871,47.930332,47.96668,47.97944,47.942177,47.860603,47.719864,47.474342,47.133453,46.76409,46.31183,45.854164,45.515358,45.28293,45.1618,45.17375,45.262005,45.453053,45.718422,45.9898,46.22033,46.550957,47.074272,47.73429,48.454548,48.918972,49.067444,48.84297,49.088036,40.87755,30.39647,26.471722,24.648157,24.465359,26.059391,29.143476,41.02814,50.726982,51.86501,51.864487,52.22545,52.476997,52.063393,51.797203,51.620853,51.530083,51.439926,51.415573,51.38847,51.318253,51.238586,51.110794,50.929302,50.73056,50.544113,50.143936,49.506073,48.806778,48.103302,47.73661,47.98175,48.729504,49.7799,50.823338,51.509613,51.83346,52.129936,52.38595,52.54069,52.42918,52.260292,52.213913,52.281,52.39646,52.528725,52.62504,52.674026,52.75683,52.857285,52.933743,52.979416,52.978172,52.926445,52.855186,52.68666,52.433983,52.189106,52.01465,51.818993,51.337715,50.50804,49.410988,46.98288,43.896954,41.45382,38.90417,37.238503,36.72773,36.513527,36.36496,36.13056,35.757515,35.32293,34.75659,34.12803,33.53562,32.876003,32.26094,31.835913,31.566542,31.329239,31.16872,31.098598,31.135004,31.21098,31.276918,31.306387,31.31324,31.286293,31.236567,31.185999,31.132526,31.087437,31.060535,31.0486,31.04691,31.05754,31.074795,31.103197,31.136497,31.160454,31.170853,31.174633,31.179665,31.189686,31.198458,31.214657,31.234802,31.25005,31.253698,31.244957,31.22871,31.214376,31.204311,31.241465,31.343906,31.49222,31.696907,31.873024,31.948803,31.90764,31.943802,32.116177,32.35323,32.777046,33.63395,35.025757,36.671783,40.83789,46.419888,51.096176,54.77877,56.841255,57.36772,57.715363,58.237194,58.316746,57.823,57.168297,56.361565,55.53179,54.88205,54.473255,53.922226,51.849827,47.793617,40.144978,29.434593,21.259533,18.994228,17.70495,17.362902,17.283432,17.29477,17.311058,17.337101,17.372395,17.395569,17.409622,17.420012,17.435322,17.45743,17.488935,17.522873,17.553616,17.582584,17.59952,17.602243,17.59652,17.58138,17.562782,17.54842,17.535263,17.524986,17.518875,17.514956,17.512497,17.510303,17.507328,17.504372,17.497929,17.488922,17.480555,17.47233,17.46358,17.455433,17.448404,17.440144,17.432093,17.426525,17.423546,17.423439,17.426563,17.430803,17.435303,17.441626,17.446846,17.44859,17.447714,17.441551,17.431404,17.420456,17.40525,17.387527,17.369947,17.348341,17.31569,17.272366,17.226126,17.167774,17.106506,17.058609,17.024162,16.995922,16.983952,16.98349,16.982872,16.957336,16.895786,16.819832,16.761366,16.687515,16.653214,16.705164,16.860992,17.326324,18.31984,20.113419,23.05521,26.602432,29.689192,32.338066,33.880432,34.338593,34.708107,35.19983,35.770912,36.427593,37.212868,38.81332,41.359287,44.120968,46.69387,49.492363,51.383068,51.84151,52.072365,52.107086
40.061676,39.643757,38.885124,37.968353,36.855686,36.021286,35.784386,35.86782,36.35568,36.877136,37.072784,37.131737,36.929314,36.724052,36.829132,37.674976,39.62577,41.922585,43.60221,45.258553,46.279144,46.586006,46.79947,46.858536,46.795982,46.730423,46.69759,46.66661,46.64872,46.657986,46.693222,46.74212,46.78231,46.815014,46.830826,46.810177,46.75747,46.667843,46.505318,46.26769,45.999702,45.661556,45.31565,45.06289,44.89556,44.829903,44.869774,44.956017,45.115032,45.320953,45.49163,45.593983,45.858902,46.322468,46.907707,47.551777,47.900166,48.0884,47.995834,47.938736,39.852715,29.8623,26.322075,24.622375,24.462017,26.086504,29.286476,40.20524,49.253464,50.72912,51.044724,51.250034,51.228165,50.87536,50.64394,50.52337,50.50558,50.493477,50.63244,50.623055,50.438557,50.388474,50.405113,50.35649,50.175552,49.967278,49.566654,48.968594,48.320305,47.738995,47.462006,47.665768,48.242893,49.103203,50.030563,50.697193,51.014923,51.269554,51.39571,51.36662,51.23857,51.10582,51.07097,51.122536,51.222965,51.349655,51.46021,51.556595,51.69642,51.847153,51.95855,52.015457,52.01057,51.967403,51.933296,51.84759,51.674232,51.48396,51.397728,51.29422,50.826656,49.916344,48.68058,46.14001,42.948288,40.334724,37.952698,36.502647,36.04816,35.825226,35.66545,35.44872,35.113922,34.663025,34.106598,33.549988,33.065235,32.47679,31.931835,31.576838,31.35929,31.199009,31.129654,31.123478,31.150578,31.180658,31.182323,31.153072,31.098211,31.028027,30.967453,30.924273,30.881746,30.850698,30.836964,30.837086,30.847448,30.863857,30.87928,30.901848,30.924713,30.939909,30.94779,30.955177,30.96663,30.98182,30.996464,31.009937,31.026342,31.04514,31.05735,31.057112,31.04317,31.024952,31.013992,31.034388,31.109585,31.237408,31.462337,31.725075,31.918152,32.002796,32.02561,32.07782,32.226913,32.53699,33.19706,34.321,35.69741,39.273285,44.44899,49.25141,53.448143,56.08416,56.85635,57.08277,57.555088,57.636078,57.196625,56.60768,55.89816,55.153313,54.532906,54.09485,53.624413,51.271496,46.46032,38.06411,27.691666,20.562963,18.821987,17.725704,17.39711,17.328468,17.334827,17.339079,17.354063,17.384602,17.401896,17.411762,17.421034,17.436953,17.461386,17.495396,17.53027,17.560541,17.587942,17.60231,17.602457,17.594635,17.577682,17.55781,17.542534,17.52839,17.516869,17.509521,17.504707,17.501333,17.498703,17.495314,17.490334,17.481247,17.46941,17.45842,17.447214,17.43532,17.424603,17.415709,17.405973,17.3973,17.391926,17.38953,17.390633,17.39515,17.400635,17.408234,17.416527,17.422264,17.424759,17.426193,17.422794,17.414738,17.405363,17.391973,17.37635,17.36105,17.342422,17.313526,17.273766,17.230173,17.173634,17.113232,17.064724,17.028034,16.996185,16.977482,16.970448,16.970577,16.950855,16.898584,16.831179,16.774847,16.700356,16.664406,16.713772,16.88887,17.324064,18.08633,19.210926,21.34429,24.536907,27.924168,31.38758,33.78199,34.728622,35.31221,35.678513,36.150764,36.906116,37.722004,39.2416,41.7017,44.443035,46.826233,49.468597,51.26343,51.60894,51.776337,51.79738
39.51928,39.215435,38.6815,38.118248,37.226032,36.413803,36.064304,36.069725,36.409702,36.743034,36.787483,36.75964,36.559692,36.413055,36.551674,37.408287,39.134773,41.05408,42.452667,43.930046,44.843193,45.064613,45.219913,45.254036,45.21892,45.208473,45.218674,45.231598,45.248077,45.276344,45.3228,45.37126,45.40494,45.43157,45.45028,45.446373,45.421097,45.381195,45.298317,45.162582,44.999798,44.780785,44.55426,44.39585,44.30065,44.296185,44.370033,44.46182,44.60063,44.73934,44.815453,44.835228,45.000374,45.37595,45.89304,46.4616,46.69394,46.895844,46.890575,46.48443,38.656864,29.319431,26.16594,24.59659,24.467323,26.113417,29.38306,39.204437,47.493603,49.244926,49.667114,49.754665,49.598976,49.30991,49.122402,49.05255,49.12303,49.25596,49.400513,49.352097,49.16766,49.13861,49.209587,49.2545,49.170174,49.007454,48.64035,48.11003,47.57964,47.13888,46.949326,47.110924,47.521637,48.19201,48.946747,49.50488,49.82396,50.024837,50.035027,49.903732,49.78566,49.701996,49.693523,49.742233,49.833366,49.95417,50.07303,50.196423,50.36904,50.557007,50.707195,50.803,50.824684,50.80181,50.798233,50.79451,50.703903,50.57479,50.592346,50.567028,50.08013,49.070087,47.719627,45.10835,41.87748,39.190456,37.03174,35.812103,35.420967,35.235874,35.0875,34.867767,34.540936,34.12807,33.61003,33.110413,32.71585,32.220207,31.7684,31.487286,31.32196,31.212002,31.176388,31.175144,31.164143,31.129414,31.061535,30.978321,30.873531,30.77866,30.721321,30.68723,30.658775,30.64451,30.644127,30.651901,30.670004,30.689636,30.702171,30.717894,30.733383,30.744503,30.75145,30.758816,30.766914,30.778114,30.797024,30.81715,30.837257,30.854961,30.865185,30.87277,30.87531,30.87233,30.873362,30.892187,30.949978,31.049044,31.255726,31.570053,31.878935,32.103172,32.19761,32.19436,32.218315,32.400177,32.900887,33.823807,34.96913,37.99311,42.709057,47.48683,52.012287,55.088943,56.080105,56.209625,56.545155,56.59707,56.275677,55.822083,55.27781,54.64866,54.05535,53.608643,53.243446,50.48111,44.672882,35.737022,25.98096,19.987362,18.659813,17.735012,17.422546,17.356411,17.354603,17.352337,17.361828,17.386219,17.39788,17.404518,17.413588,17.430252,17.457201,17.493702,17.52932,17.558914,17.584736,17.596752,17.594685,17.585255,17.567215,17.546726,17.530878,17.516022,17.50332,17.49488,17.489767,17.486357,17.48309,17.478115,17.471004,17.459211,17.444368,17.430498,17.415926,17.400393,17.386642,17.375557,17.364101,17.354763,17.349712,17.34804,17.350243,17.357162,17.366047,17.376677,17.387953,17.39588,17.399628,17.40197,17.400103,17.394321,17.387188,17.37627,17.363209,17.350323,17.33414,17.30864,17.272629,17.232204,17.178452,17.11974,17.071245,17.033493,16.99873,16.973404,16.959183,16.957458,16.94145,16.898645,16.841497,16.783356,16.711597,16.682018,16.7304,16.900867,17.294159,17.89745,18.637133,20.041285,22.632622,25.963526,30.0895,33.57966,35.29143,35.909187,36.27363,36.746063,37.53546,38.356518,39.796257,42.085598,44.642036,46.87993,49.3608,51.01777,51.281086,51.425747,51.449432
39.189323,38.986267,38.569626,38.1068,37.51071,36.843052,36.39769,36.32165,36.525383,36.711624,36.65554,36.560326,36.372425,36.286903,36.46022,37.34504,38.837738,40.377476,41.57029,42.83181,43.60225,43.768818,43.8695,43.884125,43.86142,43.86634,43.896477,43.931522,43.962173,43.9936,44.036224,44.074272,44.09716,44.1152,44.133083,44.14295,44.14337,44.146633,44.133575,44.081482,43.996105,43.868683,43.737328,43.65706,43.623444,43.673424,43.7818,43.886578,44.024483,44.107025,44.10681,44.08413,44.171387,44.476204,44.94365,45.455616,45.615723,45.808357,45.812073,45.098812,37.529163,28.807102,26.020885,24.572325,24.479008,26.125893,29.371552,38.245686,45.878937,47.786263,48.085754,48.119225,47.989975,47.739845,47.590828,47.569126,47.712837,47.951786,48.004158,47.908333,47.800125,47.778416,47.821823,47.88614,47.896034,47.81118,47.522964,47.09615,46.704212,46.38566,46.26068,46.391006,46.68799,47.210403,47.792706,48.20985,48.500156,48.65242,48.622414,48.505157,48.41164,48.35996,48.373512,48.428185,48.519783,48.64105,48.764442,48.89238,49.071808,49.2742,49.4477,49.59623,49.660347,49.65522,49.663246,49.72132,49.697067,49.612766,49.699265,49.713753,49.221207,48.174297,46.688667,44.065582,40.93141,38.284897,36.343178,35.314713,34.988724,34.87355,34.744774,34.494133,34.13819,33.767,33.29464,32.83709,32.49478,32.096733,31.742409,31.518848,31.385513,31.283459,31.222227,31.178684,31.12333,31.035286,30.92252,30.813198,30.692108,30.596943,30.550495,30.52643,30.512661,30.51585,30.529566,30.544926,30.566635,30.58546,30.59533,30.606035,30.618443,30.629547,30.636854,30.642925,30.645771,30.650711,30.667381,30.691315,30.716145,30.734444,30.745138,30.75753,30.769861,30.777851,30.793633,30.825212,30.88337,30.966385,31.137108,31.457378,31.83407,32.14112,32.33725,32.367817,32.32521,32.41408,32.80772,33.609737,34.606983,37.26506,41.59131,46.187958,50.74623,54.024834,55.18966,55.307106,55.501755,55.507233,55.299046,54.981064,54.597687,54.061806,53.474113,53.05149,52.75309,49.568275,42.868923,33.71224,24.642052,19.580936,18.514616,17.720406,17.428844,17.360395,17.35062,17.347494,17.35682,17.375683,17.383532,17.38882,17.398636,17.415886,17.444807,17.48301,17.518803,17.547546,17.571945,17.582548,17.579653,17.569836,17.551529,17.530947,17.51516,17.500183,17.486847,17.478018,17.473755,17.470764,17.466667,17.459976,17.451511,17.437906,17.420883,17.40485,17.387642,17.369194,17.353035,17.340263,17.327602,17.31805,17.313656,17.312943,17.317223,17.32764,17.340324,17.353334,17.367548,17.378317,17.383738,17.386772,17.385065,17.379292,17.37178,17.361237,17.349237,17.337582,17.322807,17.300026,17.268251,17.232533,17.182465,17.125639,17.077217,17.039173,17.001925,16.971779,16.95261,16.946968,16.931595,16.895168,16.84594,16.788563,16.723278,16.700407,16.743784,16.898191,17.23912,17.741964,18.358662,19.338324,21.305992,24.191532,28.704662,33.270863,35.867798,36.489185,36.8537,37.31681,38.104992,38.88499,40.276413,42.365807,44.597057,46.689438,48.914703,50.408035,50.8114,51.013714,51.028214
38.98896,38.84314,38.48344,38.054924,37.60914,37.039536,36.56709,36.431797,36.523643,36.634544,36.578545,36.45833,36.289833,36.254044,36.458935,37.355865,38.66056,39.91472,40.97067,42.063087,42.705647,42.816883,42.87835,42.860477,42.82438,42.834812,42.882256,42.93639,42.97486,43.002426,43.033813,43.05512,43.06305,43.069504,43.082188,43.102253,43.12685,43.1708,43.224445,43.241188,43.202415,43.132774,43.06347,43.036434,43.046326,43.1357,43.27221,43.39261,43.54054,43.588417,43.525238,43.45541,43.523987,43.80636,44.237762,44.71529,44.832245,45.013443,45.004234,44.05784,36.62389,28.337526,25.894592,24.552559,24.493149,26.12664,29.292522,37.506462,44.675537,46.64842,46.8404,46.82879,46.723824,46.50759,46.383026,46.411617,46.596085,46.824787,46.85141,46.75432,46.67041,46.650337,46.684418,46.741283,46.761147,46.715477,46.521378,46.212635,45.913277,45.676872,45.59259,45.702927,45.93538,46.35755,46.828987,47.1629,47.39871,47.517548,47.492443,47.407745,47.339676,47.30706,47.329216,47.38513,47.475864,47.597897,47.725735,47.859596,48.04648,48.25303,48.428658,48.61557,48.707035,48.70403,48.709526,48.812843,48.83721,48.77318,48.875896,48.899765,48.45218,47.46472,45.78267,43.17437,40.232224,37.64669,35.887234,35.008682,34.733536,34.675293,34.556557,34.279236,33.89982,33.51564,33.063538,32.648506,32.340546,32.0184,31.733074,31.537506,31.409136,31.29469,31.203907,31.127537,31.040451,30.922459,30.793182,30.681423,30.567535,30.480017,30.440205,30.428242,30.428276,30.447334,30.475752,30.503353,30.52847,30.544292,30.55238,30.560123,30.569435,30.578854,30.58603,30.593813,30.600197,30.605839,30.61425,30.627289,30.64885,30.674864,30.70163,30.717377,30.717136,30.710945,30.735043,30.782806,30.84997,30.935747,31.086449,31.396687,31.792732,32.11878,32.36266,32.455437,32.458206,32.51655,32.822487,33.53147,34.478798,36.91098,40.941185,45.330475,49.7419,53.089725,54.418564,54.58361,54.722137,54.694695,54.53099,54.281837,53.991142,53.498573,52.898277,52.51455,52.21094,48.698612,41.440758,32.220676,23.669819,19.251446,18.378906,17.689827,17.422691,17.355347,17.341198,17.337227,17.34605,17.361645,17.367443,17.372578,17.38335,17.400835,17.430904,17.469872,17.505322,17.533127,17.556225,17.5662,17.56369,17.554361,17.53598,17.515251,17.499918,17.48524,17.471851,17.46331,17.460674,17.45762,17.452744,17.445604,17.436604,17.422197,17.404139,17.387012,17.368362,17.348324,17.330917,17.317339,17.304306,17.295094,17.291641,17.292038,17.299688,17.313808,17.328466,17.343513,17.35953,17.371773,17.378557,17.38357,17.381836,17.37323,17.361547,17.348152,17.334904,17.322931,17.309021,17.288708,17.261715,17.232138,17.185995,17.130657,17.081848,17.04319,17.003368,16.970215,16.948885,16.939548,16.923456,16.890121,16.84525,16.795948,16.737862,16.712967,16.742516,16.898417,17.209139,17.629654,18.14487,18.92231,20.443647,22.805693,27.54853,32.9362,36.307705,37.12821,37.33464,37.644577,38.46878,39.183712,40.548256,42.48728,44.417656,46.31202,48.153004,49.47735,50.25386,50.56269,50.534855
38.769962,38.671265,38.371597,37.995834,37.607536,37.121216,36.698364,36.50761,36.49876,36.516525,36.429653,36.349915,36.22987,36.23917,36.482243,37.29017,38.396774,39.44045,40.35401,41.274117,41.796936,41.86864,41.894707,41.859764,41.821487,41.828644,41.857952,41.894928,41.922302,41.93882,41.95523,41.95849,41.94852,41.936066,41.933525,41.951454,41.987648,42.05802,42.162785,42.252945,42.2941,42.29939,42.31049,42.351906,42.39795,42.523552,42.689636,42.82868,42.989502,43.02173,42.920235,42.81623,42.878136,43.145256,43.54344,43.990112,44.059616,44.22498,44.19874,42.9909,35.68741,27.846611,25.746851,24.519472,24.507542,26.119282,29.153801,36.692238,43.40595,45.45366,45.54064,45.477993,45.39241,45.212997,45.103065,45.200336,45.425976,45.57109,45.563713,45.474895,45.41156,45.39203,45.4152,45.466946,45.50213,45.49325,45.381897,45.18161,44.976578,44.814713,44.770058,44.869125,45.04493,45.37143,45.73628,45.99274,46.176216,46.272827,46.262432,46.20781,46.16716,46.156624,46.189163,46.246456,46.33506,46.45472,46.582672,46.71734,46.9041,47.107857,47.27996,47.47191,47.60221,47.63033,47.60572,47.72142,47.816444,47.814342,47.860237,47.825382,47.408302,46.51925,44.74512,42.147614,39.380405,37.000355,35.444412,34.715572,34.507423,34.479027,34.351883,34.040127,33.633965,33.239674,32.80643,32.43017,32.156265,31.890686,31.65152,31.471947,31.345985,31.223106,31.110086,31.007885,30.9004,30.769665,30.642384,30.542694,30.449081,30.382797,30.359419,30.362038,30.379513,30.413872,30.451475,30.484814,30.510513,30.521637,30.523695,30.52415,30.52671,30.532402,30.538406,30.546812,30.555817,30.564695,30.575539,30.594051,30.624071,30.658705,30.694195,30.714,30.711407,30.700493,30.711782,30.74697,30.810575,30.90151,31.062456,31.375854,31.765198,32.08405,32.36305,32.51671,32.56142,32.62848,32.889927,33.519333,34.400925,36.62566,40.37922,44.52562,48.63452,51.87245,53.32833,53.67086,53.843163,53.816334,53.67994,53.487366,53.247234,52.75563,52.1494,51.94794,51.40689,47.253475,39.410614,30.11747,22.339954,18.867449,18.221363,17.649673,17.413834,17.359709,17.329517,17.320614,17.330257,17.34253,17.346554,17.35221,17.364416,17.381943,17.41333,17.453098,17.487911,17.514145,17.537582,17.548725,17.546703,17.537628,17.519844,17.499561,17.48404,17.468939,17.45559,17.44767,17.445717,17.442427,17.436844,17.429264,17.420153,17.405651,17.387371,17.369884,17.350582,17.329796,17.311846,17.297974,17.284906,17.277025,17.276306,17.28015,17.29142,17.308659,17.325737,17.343878,17.359558,17.367798,17.37027,17.370747,17.364948,17.353645,17.340567,17.32402,17.307297,17.293455,17.27951,17.260233,17.235134,17.207901,17.168102,17.120567,17.078188,17.04512,17.006989,16.970764,16.943264,16.922895,16.897034,16.861053,16.820213,16.78228,16.7491,16.738504,16.748434,16.885094,17.156586,17.505375,17.917984,18.519176,19.636238,21.46569,25.978523,32.114906,36.548553,37.62466,37.808994,37.96338,38.71537,39.465836,40.695236,42.379265,44.08635,45.775417,47.335587,48.371662,48.941063,49.191208,49.16203
38.50602,38.436752,38.187614,37.8702,37.50906,37.104507,36.770557,36.55957,36.463978,36.390743,36.273766,36.209618,36.15171,36.23268,36.505768,37.150146,38.071243,38.98738,39.768085,40.52633,40.95273,41.014893,41.018787,40.965446,40.910164,40.898216,40.90432,40.918808,40.929424,40.93325,40.935955,40.926468,40.90597,40.882755,40.871857,40.8872,40.926216,41.005306,41.130867,41.26204,41.35977,41.427505,41.508415,41.613914,41.714493,41.880524,42.070477,42.224327,42.392136,42.424828,42.31601,42.200665,42.2603,42.51127,42.875877,43.287483,43.30063,43.47248,43.450085,41.8386,34.68441,27.384813,25.618395,24.498539,24.528847,26.11408,29.005024,35.842655,42.11817,44.29107,44.2706,44.15458,44.08967,43.94915,43.864166,44.029713,44.266335,44.270348,44.240986,44.18168,44.134777,44.117393,44.133316,44.179626,44.22284,44.238342,44.1895,44.07769,43.954617,43.841095,43.818336,43.91368,44.062256,44.31388,44.588627,44.78395,44.92391,45.00844,45.01899,44.993195,44.97879,44.9886,45.029896,45.08742,45.17186,45.284904,45.406864,45.53502,45.711784,45.902878,46.062828,46.233437,46.397083,46.47732,46.446213,46.533966,46.662262,46.736473,46.775772,46.67495,46.247288,45.445827,43.654907,41.109978,38.5379,36.434933,35.076702,34.478016,34.332985,34.309036,34.152493,33.795414,33.35903,32.954628,32.53608,32.191536,31.946617,31.714355,31.501942,31.333515,31.208729,31.074936,30.94379,30.828764,30.718822,30.59862,30.494982,30.422495,30.361286,30.328136,30.330215,30.350931,30.38491,30.43043,30.472256,30.50363,30.523148,30.52626,30.52156,30.51398,30.506798,30.504725,30.507225,30.514614,30.526112,30.540169,30.557919,30.587498,30.627846,30.668839,30.71336,30.749107,30.762764,30.760704,30.76094,30.769188,30.810452,30.897827,31.076534,31.388176,31.74535,32.056774,32.35623,32.548737,32.626472,32.72189,32.97455,33.563683,34.42294,36.48462,39.96379,43.823273,47.587727,50.60644,52.052406,52.48462,52.757828,52.7955,52.68113,52.523945,52.29735,51.788143,51.210693,51.374157,50.170044,44.921356,36.60975,27.42152,20.805794,18.566021,18.05764,17.586256,17.3849,17.346836,17.308908,17.298258,17.308588,17.31844,17.321857,17.329262,17.34436,17.363747,17.396,17.43621,17.471355,17.497614,17.521412,17.532902,17.531006,17.522192,17.50539,17.486168,17.471025,17.455875,17.444014,17.438236,17.436668,17.433657,17.428349,17.421146,17.412477,17.398525,17.380753,17.363607,17.344418,17.323868,17.30672,17.29422,17.283215,17.278395,17.281094,17.288425,17.302305,17.319279,17.333763,17.349365,17.36103,17.364609,17.363155,17.359406,17.350365,17.337246,17.322798,17.302994,17.282143,17.265015,17.247942,17.226479,17.201012,17.174679,17.13956,17.096458,17.05704,17.028618,16.99255,16.954678,16.922266,16.891449,16.855114,16.816814,16.782528,16.753977,16.738901,16.74393,16.756258,16.868446,17.092789,17.376833,17.69265,18.147572,18.923883,20.24898,24.084667,30.666252,36.276913,37.928608,38.15029,38.084103,38.702324,39.408188,40.456345,41.859985,43.316315,44.786766,46.17737,47.04586,47.387154,47.561783,47.533566
38.223923,38.169556,37.958878,37.69397,37.381935,37.049026,36.77942,36.58544,36.43369,36.29893,36.168266,36.065914,36.04745,36.197014,36.47647,36.98506,37.77571,38.6135,39.288994,39.92227,40.28296,40.351265,40.34556,40.27301,40.19332,40.162106,40.16342,40.173386,40.176388,40.173862,40.170677,40.15841,40.13897,40.11884,40.112755,40.131462,40.17045,40.24675,40.368263,40.501,40.608612,40.707516,40.827034,40.972298,41.13096,41.334175,41.537777,41.695263,41.85661,41.890152,41.793877,41.69328,41.73689,41.95811,42.28987,42.661785,42.617554,42.821568,42.826393,40.71157,33.76744,27.07941,25.54515,24.510452,24.56795,26.1317,28.937386,35.14768,41.018364,43.309166,43.216026,43.064682,43.016872,42.91024,42.89079,43.077896,43.258625,43.16884,43.135387,43.103416,43.065228,43.049583,43.059875,43.102345,43.152153,43.18471,43.175716,43.118332,43.04486,42.95568,42.93907,43.03151,43.176853,43.38524,43.600853,43.757378,43.873695,43.95352,43.979576,43.975296,43.98011,44.004173,44.050735,44.107277,44.18666,44.29118,44.40385,44.52162,44.68373,44.858192,45.003174,45.149265,45.321198,45.44477,45.460754,45.50688,45.610878,45.733677,45.839928,45.725655,45.269558,44.501213,42.73903,40.304657,37.93154,36.050026,34.83824,34.328888,34.223255,34.18727,33.99228,33.58994,33.126892,32.7156,32.307724,31.985434,31.761818,31.547108,31.35131,31.194206,31.07179,30.930008,30.789635,30.674713,30.573822,30.474144,30.39875,30.353188,30.320797,30.316858,30.340591,30.373657,30.414145,30.460968,30.501144,30.526222,30.536694,30.53225,30.523796,30.511858,30.49826,30.490414,30.490685,30.498024,30.512001,30.52972,30.551289,30.586391,30.631672,30.676897,30.733337,30.793537,30.834375,30.850117,30.85563,30.846825,30.861702,30.933853,31.117693,31.417454,31.738338,32.05385,32.360504,32.562515,32.65668,32.772125,33.029655,33.615112,34.498993,36.45596,39.694153,43.283203,46.80621,49.612625,50.92493,51.29483,51.64555,51.76626,51.681446,51.54741,51.316475,50.813232,50.301872,50.81156,48.61605,42.014343,33.38285,24.82638,19.579943,18.393467,17.916382,17.516691,17.345985,17.314692,17.284369,17.277233,17.287106,17.295897,17.299982,17.31001,17.329018,17.351978,17.38517,17.425903,17.462318,17.490116,17.513664,17.524174,17.522083,17.513645,17.497742,17.479734,17.465736,17.45169,17.442608,17.43985,17.43895,17.437004,17.43306,17.427128,17.419384,17.40644,17.38963,17.373268,17.354794,17.334919,17.318552,17.307064,17.297804,17.294659,17.298138,17.305557,17.318674,17.332035,17.34056,17.349306,17.355984,17.35789,17.356121,17.351921,17.342474,17.328568,17.312319,17.290628,17.267685,17.248146,17.227386,17.202757,17.176086,17.150002,17.115686,17.070732,17.027876,16.998478,16.96186,16.923481,16.889584,16.854258,16.812778,16.775208,16.748466,16.723671,16.70898,16.72129,16.759623,16.857409,17.035637,17.259905,17.49839,17.836273,18.371906,19.32452,22.311523,28.914513,35.46212,37.95654,38.279213,37.99468,38.476067,39.029495,39.924934,41.1063,42.28488,43.542557,44.813057,45.67285,46.044914,46.20675,46.160397
37.93148,37.889782,37.720535,37.503544,37.24456,36.95954,36.72207,36.554253,36.386185,36.222218,36.08167,35.970078,35.948013,36.089523,36.348145,36.818188,37.534225,38.274956,38.856533,39.386322,39.681107,39.73311,39.714478,39.63938,39.56568,39.54043,39.54261,39.551758,39.554207,39.55179,39.54979,39.540707,39.52559,39.50969,39.507973,39.528915,39.567345,39.64067,39.75836,39.892082,40.007446,40.1251,40.270622,40.43924,40.61489,40.842087,41.05889,41.210346,41.354225,41.37751,41.305172,41.256126,41.24604,41.405983,41.70774,42.03717,41.932964,42.17941,42.218506,39.513775,32.928608,26.970463,25.499022,24.551023,24.63898,26.183575,28.981165,34.629757,40.035355,42.323627,42.22519,42.072166,42.027878,41.946815,42.11392,42.232674,42.219276,42.185684,42.147514,42.093803,42.044064,42.022465,42.01269,42.05153,42.12945,42.201195,42.23786,42.2117,42.148643,42.089672,42.08746,42.17076,42.311172,42.49877,42.679947,42.806946,42.91786,42.999985,43.035965,43.046627,43.06569,43.10067,43.151154,43.20637,43.280666,43.376354,43.478973,43.585655,43.732376,43.88981,44.020008,44.15049,44.29648,44.436703,44.55867,44.56314,44.614662,44.756805,44.87081,44.78901,44.35937,43.600006,41.919537,39.6564,37.490845,35.78035,34.67737,34.237747,34.16734,34.114662,33.873062,33.423225,32.939724,32.524044,32.12674,31.824568,31.620245,31.424715,31.243053,31.091854,30.970152,30.83586,30.70388,30.59385,30.499752,30.41463,30.359459,30.332865,30.320915,30.33665,30.36898,30.39576,30.424608,30.455406,30.481958,30.500172,30.506393,30.499722,30.489628,30.47748,30.468414,30.468561,30.476086,30.49112,30.5089,30.525558,30.544645,30.577255,30.625912,30.681526,30.75315,30.83525,30.898724,30.932209,30.948202,30.940754,30.94735,30.999985,31.189425,31.481647,31.76617,32.063786,32.361065,32.56996,32.683678,32.81652,33.080364,33.66516,34.565105,36.45118,39.49178,42.833626,46.14987,48.72848,49.89618,50.242767,50.58206,50.72422,50.682976,50.596535,50.34801,49.854908,49.424606,50.228912,46.877098,38.54431,29.246845,22.428392,18.842,18.183062,17.76939,17.458958,17.322342,17.28524,17.26329,17.259003,17.267578,17.275862,17.281256,17.294653,17.317902,17.344255,17.38042,17.422935,17.459883,17.487782,17.512093,17.523441,17.52185,17.514309,17.499811,17.483248,17.470356,17.458988,17.45348,17.453644,17.454245,17.454185,17.452362,17.448605,17.443474,17.433529,17.419495,17.405338,17.389475,17.370754,17.352314,17.336157,17.321568,17.312214,17.309368,17.31034,17.315947,17.324377,17.331707,17.338501,17.34362,17.344498,17.341793,17.33599,17.324547,17.309395,17.2935,17.272732,17.251022,17.232727,17.214186,17.190561,17.16188,17.131752,17.096394,17.051783,17.008015,16.974556,16.936064,16.896275,16.859673,16.820602,16.772732,16.73294,16.711367,16.689596,16.675495,16.695175,16.758514,16.849628,16.97781,17.1308,17.307497,17.556879,17.92723,18.591637,20.539074,26.862617,34.203857,37.66407,38.279305,37.875572,38.19837,38.652466,39.386566,40.335293,41.26538,42.264114,43.295326,44.000256,44.290108,44.39944,44.32695
37.57038,37.53972,37.41462,37.253906,37.05712,36.828518,36.6269,36.480904,36.312973,36.13871,35.99356,35.878986,35.850346,35.975136,36.207436,36.63327,37.26107,37.88777,38.364826,38.786278,39.009373,39.038483,39.01175,38.944054,38.885727,38.871155,38.878036,38.890694,38.897114,38.89853,38.901627,38.899246,38.890804,38.88044,38.88282,38.904015,38.939194,39.005714,39.113968,39.24231,39.359665,39.489803,39.652073,39.83389,40.020126,40.256317,40.468742,40.600624,40.710888,40.703316,40.623646,40.58786,40.562366,40.676727,40.918327,41.18989,41.040176,41.30716,41.33981,38.150536,32.04877,26.886654,25.478527,24.639118,24.786276,26.318777,29.076672,34.13346,38.974747,41.147034,41.086548,40.958443,40.93712,40.903534,41.102886,41.132942,41.00333,40.979424,40.958946,40.928745,40.88771,40.846634,40.823944,40.862682,40.949215,41.037624,41.105846,41.117588,41.08608,41.065643,41.081924,41.152805,41.265385,41.433083,41.60177,41.71845,41.815605,41.903465,41.965446,42.003777,42.0429,42.08809,42.139267,42.19236,42.26094,42.34635,42.43683,42.53127,42.661633,42.801544,42.916946,43.03287,43.156796,43.294136,43.45464,43.5188,43.565063,43.64799,43.770546,43.730583,43.334824,42.59204,41.04355,39.052044,37.16371,35.60029,34.60994,34.22583,34.1429,34.001213,33.7256,33.264473,32.75225,32.33284,31.948158,31.668818,31.486443,31.31312,31.14885,31.006317,30.887754,30.758326,30.635569,30.537895,30.457026,30.387384,30.345467,30.327272,30.320904,30.335693,30.362095,30.383255,30.407375,30.432652,30.45337,30.467796,30.47213,30.465023,30.454578,30.442924,30.437162,30.441471,30.450878,30.467636,30.48804,30.508371,30.531395,30.568329,30.623589,30.688198,30.770592,30.868744,30.952318,31.006037,31.043053,31.054127,31.064718,31.099443,31.255524,31.514874,31.781006,32.063156,32.353477,32.571953,32.70681,32.862343,33.139313,33.736267,34.676727,36.54165,39.366013,42.36779,45.451622,47.612823,48.52086,48.982384,49.298252,49.454525,49.456978,49.355293,49.049335,48.82116,48.63018,48.77051,43.09629,33.004997,24.304249,20.053953,18.302156,17.929317,17.603382,17.392513,17.293076,17.248203,17.235397,17.234684,17.24284,17.251795,17.259886,17.278297,17.307325,17.338299,17.378862,17.424576,17.463093,17.491772,17.517315,17.529926,17.528954,17.520988,17.505238,17.487782,17.475231,17.465723,17.461891,17.462833,17.464195,17.46565,17.465857,17.462975,17.455105,17.441896,17.425018,17.408596,17.39034,17.369362,17.349232,17.331902,17.315517,17.303652,17.297993,17.295984,17.2979,17.303772,17.31036,17.315989,17.319778,17.319263,17.315197,17.307457,17.293596,17.276367,17.259293,17.237236,17.214308,17.19509,17.175955,17.15229,17.124989,17.097523,17.065332,17.02581,16.98473,16.946548,16.902596,16.858301,16.818838,16.775726,16.728119,16.68983,16.666576,16.643646,16.640034,16.673157,16.736992,16.820988,16.908884,16.998959,17.133581,17.301468,17.514177,17.89539,18.697845,24.358868,32.28763,37.126617,38.21971,37.658627,37.70909,38.076553,38.64505,39.342064,40.006805,40.72201,41.475677,42.003418,42.22429,42.28766,42.19455
37.20971,37.187355,37.099747,36.988937,36.847473,36.67416,36.510185,36.379642,36.223427,36.055595,35.91349,35.801537,35.770905,35.882042,36.08934,36.46083,36.99642,37.517284,37.900497,38.230278,38.393906,38.403816,38.37506,38.31923,38.277077,38.271782,38.28399,38.301357,38.312584,38.31814,38.32609,38.329285,38.325752,38.318924,38.32212,38.33989,38.36892,38.42572,38.52065,38.638287,38.75136,38.88379,39.05154,39.23727,39.42642,39.656624,39.84999,39.951363,40.003124,39.93939,39.81629,39.744072,39.759804,39.86629,40.030296,40.240738,40.099197,40.336357,40.25437,36.83495,31.28559,26.842169,25.498047,24.770962,24.987133,26.517426,29.237865,33.800407,38.055878,39.9759,40.015724,39.941833,39.96192,40.007343,40.06257,40.000835,39.879204,39.83998,39.843895,39.852364,39.831,39.782845,39.76421,39.804375,39.880013,39.960392,40.037346,40.07932,40.085922,40.096428,40.127556,40.18875,40.268585,40.41131,40.571255,40.688805,40.776375,40.872246,40.95948,41.02234,41.080933,41.139763,41.1967,41.2501,41.31609,41.397446,41.483498,41.570145,41.68857,41.815563,41.92078,42.02709,42.14276,42.267296,42.40039,42.571392,42.66593,42.679512,42.788147,42.791443,42.437965,41.706753,40.308136,38.573925,36.954964,35.593002,34.69647,34.284554,34.11276,33.879814,33.59764,33.148643,32.60445,32.1822,31.809406,31.550667,31.388054,31.234768,31.087343,30.954613,30.840815,30.712543,30.59436,30.507202,30.437397,30.37737,30.339663,30.320923,30.309946,30.31296,30.327787,30.345814,30.369984,30.396992,30.41859,30.432816,30.437923,30.432894,30.424873,30.415672,30.412235,30.417812,30.427254,30.44397,30.467655,30.494764,30.525242,30.570187,30.632381,30.70234,30.790104,30.897434,30.99533,31.065897,31.124638,31.158049,31.178623,31.2068,31.31496,31.526922,31.7809,32.052982,32.345642,32.57968,32.73371,32.908184,33.203857,33.832573,34.8435,36.680355,39.288136,41.96607,44.767647,46.51823,47.197533,47.765137,48.06431,48.193947,48.161736,47.97593,47.72567,47.99878,47.855377,45.643814,37.07647,26.642128,20.634407,18.590603,17.997059,17.700216,17.461315,17.320877,17.24894,17.206299,17.200336,17.202911,17.212383,17.223778,17.236036,17.26062,17.296085,17.332035,17.377113,17.426437,17.466879,17.496073,17.51879,17.527508,17.524342,17.514774,17.497578,17.479546,17.4674,17.458168,17.453098,17.45184,17.451866,17.452148,17.451244,17.446589,17.434727,17.416916,17.395893,17.376171,17.354275,17.330648,17.310303,17.294765,17.279827,17.268976,17.263836,17.262108,17.263905,17.268982,17.2744,17.278843,17.281088,17.278934,17.273453,17.264046,17.24826,17.229053,17.209959,17.18531,17.159592,17.137966,17.116154,17.091633,17.067215,17.045105,17.017128,16.982267,16.944506,16.90624,16.859684,16.812397,16.771675,16.727547,16.683048,16.645355,16.616024,16.594925,16.605827,16.649014,16.698889,16.77335,16.843061,16.902985,17.007137,17.115417,17.227142,17.425808,17.503134,22.00906,29.691502,36.020527,37.9222,37.40023,37.111053,37.407867,37.846718,38.343224,38.793945,39.28401,39.8188,40.210625,40.384937,40.41525,40.32049
36.903244,36.887787,36.829605,36.753914,36.653748,36.524086,36.392693,36.279694,36.137054,35.978737,35.843582,35.736435,35.70511,35.80318,35.986504,36.310566,36.76963,37.205788,37.516064,37.777214,37.899307,37.89807,37.868233,37.82087,37.790207,37.791534,37.8069,37.826458,37.839657,37.846664,37.856125,37.860966,37.858673,37.852325,37.85318,37.86532,37.88729,37.93435,38.01632,38.12245,38.22876,38.356293,38.52498,38.713036,38.89756,39.119987,39.29687,39.36695,39.342255,39.210674,39.038834,38.921997,38.99865,39.116726,39.21136,39.370346,39.28415,39.460205,39.177605,35.657196,30.6615,26.848507,25.54215,24.91473,25.180859,26.710497,29.447523,33.642265,37.35045,38.95338,39.137486,39.130672,39.191555,39.334286,39.235146,39.077568,38.99089,38.991737,39.001984,39.004158,38.987675,38.963253,38.95831,38.99743,39.066,39.139847,39.21678,39.26873,39.29004,39.31449,39.35293,39.41007,39.47817,39.59098,39.722878,39.832855,39.92984,40.034573,40.126762,40.194847,40.26553,40.34397,40.41748,40.47511,40.54275,40.629005,40.722137,40.806732,40.91817,41.036816,41.136276,41.23783,41.349663,41.468494,41.58947,41.804886,41.95024,41.96965,42.025955,42.07675,41.7797,41.038124,39.77117,38.183334,36.761475,35.709114,34.879307,34.34693,34.042778,33.79944,33.52655,33.07274,32.50093,32.076374,31.712908,31.469772,31.322027,31.183651,31.04884,30.923649,30.813591,30.688133,30.571487,30.485262,30.416683,30.358269,30.322023,30.30413,30.293354,30.29519,30.306908,30.32035,30.338097,30.359047,30.377514,30.391659,30.39853,30.397394,30.39417,30.389917,30.391275,30.40194,30.417679,30.441212,30.471008,30.502365,30.535875,30.58382,30.649458,30.72355,30.81694,30.933353,31.042828,31.124847,31.196,31.239761,31.265568,31.297323,31.384935,31.559908,31.784443,32.0455,32.345757,32.59937,32.769882,32.952736,33.26729,33.940353,35.03569,36.778305,39.181038,41.647972,44.12384,45.675407,46.28336,46.779198,47.068207,47.118866,46.95421,46.67312,46.663864,47.47603,46.99516,41.368145,30.325993,21.163998,19.031494,18.106586,17.787947,17.533573,17.35929,17.248983,17.19183,17.164127,17.16267,17.167736,17.179436,17.194302,17.211288,17.242104,17.283539,17.323845,17.372543,17.424877,17.466639,17.495152,17.509289,17.507061,17.497993,17.487068,17.471655,17.456528,17.445911,17.436388,17.428986,17.4244,17.42144,17.417713,17.411957,17.403912,17.393364,17.377335,17.357769,17.339222,17.318604,17.296114,17.276375,17.26094,17.245817,17.234241,17.227943,17.224815,17.224628,17.227585,17.231276,17.234056,17.234589,17.230984,17.224419,17.213833,17.196856,17.176584,17.156559,17.13077,17.103817,17.081123,17.058376,17.033928,17.00996,16.98757,16.959585,16.923243,16.885426,16.852997,16.81149,16.766699,16.726711,16.685978,16.639753,16.596252,16.563114,16.5529,16.571404,16.613358,16.66249,16.725582,16.789396,16.844265,16.906689,16.97326,17.050926,17.185974,17.075043,20.143852,26.78184,34.390755,37.36902,37.181915,36.577793,36.80905,37.15558,37.519024,37.823982,38.162807,38.561165,38.86386,38.984627,38.98001,38.89702
36.53748,36.527348,36.49654,36.454643,36.3955,36.31118,36.215904,36.124825,36.002037,35.86001,35.736977,35.638565,35.607536,35.689262,35.842995,36.110905,36.482822,36.82617,37.059746,37.250557,37.331627,37.32041,37.29033,37.251717,37.23191,37.238632,37.2554,37.274605,37.286865,37.292557,37.299965,37.302475,37.297817,37.288643,37.283375,37.286392,37.298645,37.333336,37.399338,37.490334,37.58569,37.69984,37.87142,38.068237,38.235588,38.4439,38.59884,38.632046,38.54748,38.349163,38.12829,37.984318,37.992218,38.124428,38.274475,38.37235,38.35197,38.351234,37.72227,34.395405,30.079544,26.853954,25.584751,25.00877,25.352535,26.975674,29.789783,33.576836,36.669487,37.92009,38.1939,38.255867,38.33907,38.50003,38.313736,38.105766,38.03028,38.03322,38.059544,38.083298,38.084167,38.076103,38.080772,38.117973,38.178246,38.243362,38.3161,38.37296,38.40487,38.440067,38.484993,38.54013,38.5998,38.693115,38.8042,38.903076,38.996918,39.102116,39.19825,39.272194,39.34963,39.43315,39.510307,39.57331,39.648827,39.742966,39.842323,39.93514,40.05268,40.174194,40.275093,40.376938,40.487144,40.601097,40.713745,40.915054,41.113396,41.218647,41.258057,41.297997,41.01412,40.316055,39.2068,37.79158,36.562485,35.76741,34.973526,34.376244,34.024117,33.746254,33.44445,32.97388,32.395584,31.968971,31.613441,31.386196,31.254211,31.132027,31.011684,30.896008,30.791367,30.670277,30.55663,30.472507,30.405724,30.348549,30.312326,30.293438,30.280453,30.27801,30.284065,30.291748,30.302677,30.317654,30.332985,30.346561,30.35577,30.360249,30.363829,30.36748,30.378145,30.39793,30.421757,30.453575,30.490664,30.527237,30.56456,30.61599,30.685104,30.763054,30.861412,30.985897,31.10625,31.19967,31.28392,31.33994,31.37289,31.407164,31.48615,31.64209,31.848162,32.099316,32.396088,32.656086,32.83992,33.045815,33.40533,34.12157,35.242004,36.834175,39.035587,41.32214,43.36915,44.680916,45.24005,45.67734,45.979042,45.939484,45.66262,45.425133,46.01711,46.228634,43.349205,33.79575,23.567755,18.121101,18.042301,17.737995,17.556866,17.372562,17.269104,17.18405,17.13603,17.119999,17.114601,17.119225,17.133877,17.152067,17.174019,17.211432,17.259216,17.304237,17.356556,17.404964,17.437218,17.458496,17.467178,17.459322,17.44387,17.428442,17.409521,17.393154,17.383125,17.373877,17.366405,17.361422,17.358082,17.353748,17.347124,17.338436,17.32829,17.31244,17.292904,17.27457,17.25436,17.232256,17.212597,17.196953,17.181126,17.167862,17.159763,17.15622,17.155298,17.157148,17.15971,17.161215,17.16039,17.155865,17.148987,17.138319,17.122166,17.103483,17.085155,17.061214,17.035957,17.014568,16.993015,16.968393,16.94403,16.922657,16.897282,16.864353,16.829117,16.797836,16.75806,16.713442,16.671396,16.62783,16.57726,16.53461,16.509632,16.5042,16.526306,16.570236,16.61994,16.678104,16.726282,16.760925,16.812178,16.853893,16.883833,16.937757,16.830065,18.152458,23.1133,31.671597,36.150467,36.86767,36.103165,36.121117,36.33071,36.597282,36.773083,36.977585,37.242744,37.466896,37.57328,37.587517,37.5632
36.11564,36.11035,36.101055,36.0859,36.060577,36.016174,35.955704,35.888794,35.790855,35.671303,35.565033,35.47842,35.448,35.510883,35.632023,35.841545,36.127457,36.384644,36.552532,36.68412,36.732384,36.71497,36.686016,36.65496,36.642902,36.652046,36.667107,36.68234,36.69008,36.691383,36.69306,36.689392,36.679096,36.664402,36.650505,36.642426,36.643356,36.66346,36.710396,36.781578,36.859894,36.950684,37.106796,37.2991,37.46189,37.64776,37.770134,37.77546,37.662987,37.43035,37.19318,37.059246,36.96258,37.098743,37.335907,37.37792,37.424683,37.217415,36.2294,33.294647,29.605576,26.80902,25.593138,25.05905,25.492184,27.207628,30.031992,33.42006,35.99404,36.987343,37.309715,37.477684,37.574394,37.628403,37.402004,37.18554,37.11446,37.112755,37.15116,37.19493,37.21148,37.21354,37.224823,37.260895,37.314495,37.371704,37.439243,37.497616,37.53567,37.578056,37.628857,37.68537,37.74253,37.827232,37.92649,38.01595,38.10276,38.203552,38.299454,38.375572,38.454147,38.535133,38.608833,38.67266,38.750443,38.844116,38.941208,39.038242,39.163765,39.294617,39.40336,39.514374,39.629982,39.746155,39.86376,40.041275,40.255245,40.42166,40.500427,40.517563,40.2315,39.621025,38.680145,37.45278,36.381424,35.7196,35.03647,34.470306,34.07643,33.749672,33.382065,32.875286,32.304317,31.87313,31.520367,31.304735,31.18599,31.078346,30.972534,30.867887,30.77063,30.656227,30.54779,30.467396,30.403519,30.348476,30.312878,30.293444,30.278677,30.272446,30.273483,30.276228,30.281477,30.291565,30.304337,30.31733,30.328953,30.339258,30.34993,30.362217,30.383717,30.414234,30.44698,30.487854,30.532795,30.574835,30.61596,30.670376,30.741825,30.822067,30.92312,31.051865,31.178291,31.278557,31.37069,31.434954,31.473755,31.510374,31.589592,31.742268,31.944042,32.19424,32.492935,32.768745,32.984093,33.242565,33.6868,34.41906,35.387985,36.842438,38.933235,41.05404,42.585167,43.658867,44.22738,44.61714,44.876236,44.749214,44.477108,44.473534,45.786667,43.972294,37.121964,26.046982,18.942871,17.367462,17.676285,17.54487,17.38995,17.254799,17.183294,17.124495,17.09241,17.078959,17.060741,17.057573,17.072636,17.09489,17.119995,17.15985,17.208239,17.252365,17.301888,17.341415,17.360981,17.37074,17.372272,17.360859,17.342705,17.325317,17.305828,17.289871,17.280045,17.27118,17.264257,17.259861,17.257023,17.253473,17.248013,17.240593,17.231289,17.218338,17.20253,17.186712,17.168842,17.148884,17.130817,17.11626,17.101398,17.08854,17.080254,17.076382,17.074345,17.074394,17.075153,17.074802,17.072407,17.067352,17.060902,17.051418,17.037376,17.021074,17.004818,16.98331,16.960495,16.941149,16.921623,16.898262,16.874557,16.854052,16.829895,16.798954,16.764954,16.73229,16.692665,16.649103,16.607834,16.564396,16.515022,16.476738,16.45821,16.453083,16.475584,16.521477,16.572449,16.631126,16.668337,16.684742,16.72676,16.778217,16.78828,16.76562,16.760998,16.905617,20.08028,27.758453,34.20501,36.650093,35.67427,35.392517,35.467957,35.69685,35.777885,35.884583,36.059494,36.24917,36.38024,36.40763,36.402435
35.706917,35.70657,35.711193,35.71292,35.709663,35.693024,35.65898,35.612534,35.537308,35.439407,35.349323,35.27379,35.243576,35.289436,35.382584,35.544388,35.763184,35.957165,36.08155,36.173996,36.20154,36.18152,36.154285,36.12841,36.12052,36.129726,36.141647,36.151787,36.154133,36.150444,36.14589,36.13568,36.119644,36.09964,36.077896,36.060074,36.051132,36.058582,36.087948,36.139183,36.19895,36.265495,36.388885,36.557602,36.729202,36.89566,36.98935,36.982964,36.871174,36.645164,36.42899,36.32853,36.19786,36.323235,36.578377,36.592686,36.67999,36.34172,35.150055,32.563095,29.272123,26.713272,25.571651,25.093487,25.593193,27.324316,30.051426,33.120686,35.390324,36.29135,36.641747,36.915123,37.01364,36.91044,36.660458,36.45273,36.391026,36.39672,36.435562,36.48015,36.50166,36.5092,36.524967,36.561462,36.612,36.6653,36.73091,36.79143,36.83407,36.88221,36.938725,36.998627,37.056885,37.139343,37.234093,37.319504,37.402878,37.499657,37.592346,37.666878,37.744087,37.82333,37.894035,37.953545,38.024445,38.10798,38.19507,38.285248,38.409683,38.54526,38.66017,38.781708,38.90841,39.034595,39.163406,39.34487,39.538452,39.688652,39.82472,39.842415,39.57013,39.05144,38.253937,37.196274,36.238815,35.605804,35.085945,34.607483,34.161346,33.7969,33.360634,32.809204,32.242897,31.803062,31.447048,31.23653,31.125906,31.028358,30.934256,30.839859,30.750364,30.643545,30.541576,30.466112,30.406301,30.354977,30.321934,30.303883,30.289602,30.282326,30.28108,30.281279,30.28336,30.290558,30.301748,30.314354,30.327482,30.34161,30.357117,30.375439,30.404793,30.443445,30.483269,30.531418,30.582695,30.629055,30.673,30.729183,30.80137,30.882046,30.983322,31.112211,31.239216,31.340729,31.434608,31.501064,31.542202,31.581375,31.662956,31.819815,32.028805,32.289314,32.609497,32.92044,33.176743,33.487167,33.999092,34.70937,35.459,36.849064,38.896664,40.838127,41.937996,42.826836,43.423264,43.784588,43.948196,43.7751,43.622818,43.928345,45.335716,40.931885,30.789722,21.570581,17.359491,17.46064,17.520905,17.434284,17.311506,17.187433,17.107895,17.075706,17.064373,17.044865,17.014101,16.998363,17.008572,17.033415,17.058678,17.096323,17.139282,17.176283,17.215897,17.246063,17.258276,17.25941,17.253845,17.240269,17.224182,17.209354,17.19427,17.181587,17.171925,17.16322,17.156296,17.151905,17.149122,17.146013,17.141714,17.136044,17.128551,17.120687,17.111088,17.099417,17.085278,17.068806,17.053616,17.041302,17.028984,17.018736,17.011984,17.007458,17.003628,17.001215,16.999752,16.997314,16.993385,16.988014,16.982155,16.974112,16.961842,16.946835,16.931343,16.910921,16.889378,16.871258,16.853138,16.832417,16.811108,16.791264,16.766539,16.7347,16.700294,16.667446,16.628517,16.587894,16.551407,16.513857,16.471851,16.436941,16.415909,16.409746,16.431503,16.477104,16.528305,16.589119,16.627518,16.638693,16.655987,16.73244,16.758125,16.690243,16.721363,16.648376,18.620539,23.880512,31.850147,36.22598,35.29817,34.79673,34.76657,34.974,35.00128,35.048485,35.187866,35.380325,35.53048,35.5298,35.476677
35.2716,35.276443,35.2918,35.30613,35.319523,35.324722,35.312775,35.284847,35.23097,35.154167,35.080162,35.015694,34.985634,35.015343,35.08279,35.201912,35.362152,35.50308,35.59364,35.655758,35.667046,35.644558,35.61855,35.59693,35.592667,35.60218,35.612286,35.619064,35.61727,35.60915,35.599014,35.582832,35.561462,35.536636,35.50582,35.476612,35.4578,35.456326,35.47017,35.501324,35.542995,35.59067,35.682724,35.81719,35.968445,36.141994,36.240013,36.218292,36.112484,35.90766,35.716904,35.63386,35.537743,35.645508,35.854374,35.87982,35.988743,35.56478,34.27616,31.99065,28.988804,26.605572,25.57386,25.144966,25.675507,27.392693,30.03078,32.818134,34.85525,35.721542,36.081356,36.374096,36.436447,36.242157,35.972473,35.774338,35.724724,35.728973,35.76317,35.806183,35.831642,35.84401,35.86272,35.898933,35.947636,35.999763,36.065636,36.129444,36.177742,36.232994,36.296547,36.360752,36.4205,36.502106,36.59407,36.676456,36.756645,36.84885,36.93719,37.00908,37.083942,37.160767,37.228836,37.28566,37.352524,37.429787,37.509525,37.592426,37.70823,37.83641,37.94716,38.06687,38.212826,38.35903,38.478104,38.65487,38.852894,39.011032,39.144455,39.152428,38.91561,38.492615,37.83162,36.9364,36.10354,35.53294,35.051376,34.63108,34.245975,33.881393,33.384808,32.774117,32.198425,31.744026,31.380625,31.172009,31.066883,30.977303,30.893757,30.809574,30.728352,30.629887,30.535282,30.46554,30.410618,30.364006,30.334593,30.318882,30.306137,30.298952,30.296482,30.295052,30.294868,30.299751,30.309437,30.321354,30.33511,30.351725,30.370712,30.393608,30.429218,30.474619,30.52045,30.574741,30.631329,30.681202,30.727322,30.784466,30.856472,30.936642,31.037148,31.164192,31.288336,31.386787,31.482357,31.550053,31.591692,31.63567,31.72359,31.890797,32.114407,32.38926,32.776237,33.1571,33.425423,33.71401,34.14995,34.793755,35.56504,36.929382,38.815834,40.504524,41.363243,42.09987,42.652367,42.99681,43.110138,42.9533,42.93553,43.5427,43.476494,36.16208,24.541527,19.101292,17.015617,17.314316,17.420235,17.348999,17.227114,17.117634,17.04876,17.036236,17.03352,17.007881,16.976242,16.946045,16.939991,16.959263,16.982632,17.01989,17.058964,17.086746,17.111221,17.127941,17.134487,17.134478,17.132256,17.124054,17.111473,17.098677,17.083477,17.069511,17.059334,17.051067,17.045061,17.04171,17.040054,17.038738,17.037262,17.034859,17.030922,17.024643,17.015326,17.004547,16.991581,16.976574,16.962772,16.951569,16.94027,16.93061,16.923874,16.918976,16.91437,16.910988,16.908726,16.905605,16.901207,16.895779,16.890194,16.88277,16.871592,16.857933,16.8438,16.825111,16.805447,16.78904,16.772747,16.754467,16.736134,16.719355,16.698524,16.671436,16.641624,16.612816,16.576311,16.538055,16.504765,16.46987,16.43068,16.397516,16.37668,16.369488,16.388853,16.43216,16.482285,16.545078,16.588743,16.598694,16.58609,16.663698,16.710495,16.645933,16.65894,16.583942,17.55516,20.169582,28.227974,34.423416,34.94716,34.369423,34.17348,34.278244,34.283386,34.28608,34.420307,34.60981,34.70485,34.678345,34.592796
