7.2381353,7.2382355,7.236904,7.2357554,7.2340407,7.2306523,7.2292027,7.230192,7.233677,7.2385993,7.243599,7.2482104,7.25231,7.2560377,7.2591867,7.2596035,7.2564893,7.250887,7.2443833,7.2390633,7.23358,7.227619,7.221094,7.2141714,7.2073436,7.2011213,7.1956024,7.190619,7.1859818,7.1820145,7.178526,7.175319,7.1725864,7.170434,7.167898,7.1639895,7.15845,7.1513915,7.1441913,7.138541,7.134858,7.1326895,7.130431,7.125182,7.1153574,7.101282,7.0844812,7.0675173,7.0544147,7.0449476,7.042095,7.0475826,7.062498,7.0849433,7.1101418,7.1346483,7.15762,7.1768494,7.1939354,7.2117105,7.2302475,7.248721,7.26898,7.2920046,7.314992,7.3375707,7.3575315,7.3766866,7.3967896,7.4141216,7.430951,7.4487157,7.467183,7.486444,7.5064845,7.527111,7.548253,7.570291,7.5850215,7.5969095,7.606996,7.6150265,7.621659,7.628352,7.63521,7.6435432,7.655987,7.6703186,7.687297,7.7078915,7.7304344,7.753663,7.7833247,7.8317175,7.949836,8.045979,8.083436,8.125267,8.179539,8.171517,8.155802,8.066687,7.9004335,7.537155,7.015234,6.653302,6.5313478,6.5703354,6.702637,6.879344,7.1210866,7.447816,7.7596316,7.857126,7.975678,8.032325,8.066412,8.089029,8.091852,8.084223,8.07757,8.083815,8.084843,8.065823,8.044071,8.03481,8.034364,8.037939,8.041838,8.044174,8.044428,8.042952,8.041163,8.041049,8.043894,8.049104,8.057771,8.059124,8.054622,8.048558,8.043922,8.041059,8.035286,8.021795,7.971586,7.917031,7.8854103,7.883624,7.910033,7.960517,8.044169,8.096872,8.129789,8.159198,8.181465,8.182657,8.163121,8.1460495,8.129618,8.118322,8.114529,8.119202,8.130405,8.141312,8.142147,8.139082,8.120735,8.089384,8.037836,7.951956,7.850354,7.804639,7.7955065,7.839475,7.9411373,8.031472,8.06708,8.076513,8.080128,8.080791,8.08061,8.075045,8.049835,8.013626,7.9895725,7.9806604,7.9852657,7.9988394,8.001811,7.9826546,7.943591,7.8862295,7.8051414,7.7024713,7.6255045,7.601884,7.6004815,7.6259875,7.702047,7.8096566,7.905532,7.9254923,7.9155607,7.832697,7.599954,7.2892966,7.076191,6.9929266,6.957836,7.0290575,7.2176914,7.484889,7.727504,7.86267,7.9064593,7.865776,7.8430896,7.8390746,7.8432164,7.849587,7.857341,7.8645506,7.871537,7.879488,7.888957,7.8990445,7.9090853,7.919215,7.929654,7.9403834,7.9521174,7.9656005,7.9807367,7.99805,8.016923,8.035831,8.0549,8.075228,8.099045,8.124208,8.149611,8.175143,8.2006855,8.225859,8.250412,8.276125,8.302883,8.330587,8.358398,8.385217,8.410543,8.434608,8.459252,8.48367,8.505494,8.532141,8.5377,8.468923,8.331015,8.262344,8.19721,8.206547,8.2899685,8.432829,8.627003,8.768391,8.814241,8.844506,8.875268,8.906581,8.934232,8.958141,8.982154,9.006886,9.033938,9.063036,9.092737,9.122082,9.150316,9.176238,9.200886,9.22772,9.255527,9.280909,9.299528,9.305035,9.295286,9.282858,9.275646,9.274986,9.274216,9.257485,9.210594,9.133013,9.040747,8.98472,8.959545,8.986364,9.05768,9.167881,9.294172,9.369903,9.41011,9.419575,9.411789,9.408708,9.423109,9.450641,9.479666,9.508217
7.2373004,7.2386513,7.2383184,7.23782,7.2362757,7.233,7.231557,7.2325263,7.2359896,7.2408314,7.245682,7.250127,7.2538233,7.257077,7.2599916,7.260427,7.257038,7.2510037,7.2446957,7.2394533,7.234185,7.2285304,7.222277,7.2155094,7.208665,7.2022347,7.1964207,7.1912365,7.1865454,7.182765,7.1796975,7.1770515,7.174905,7.1732965,7.1713033,7.1679516,7.1629043,7.1561794,7.1489716,7.1428204,7.138215,7.134945,7.1316195,7.125633,7.1156816,7.101691,7.0849276,7.0684023,7.05619,7.047949,7.046494,7.053252,7.0689445,7.0915546,7.116566,7.1408706,7.163924,7.1832237,7.2012296,7.2198186,7.2385693,7.257388,7.277692,7.2976403,7.3175554,7.3354216,7.352807,7.371152,7.389394,7.406118,7.422678,7.4402294,7.458584,7.4779053,7.4981623,7.5197077,7.542283,7.5621686,7.576619,7.5893455,7.60021,7.6084423,7.6145425,7.619706,7.6242304,7.6294246,7.64018,7.6551247,7.6720314,7.690772,7.7116165,7.733243,7.760833,7.8066063,7.9201927,8.018868,8.061552,8.103857,8.163183,8.157171,8.144411,8.0737915,7.9096727,7.5324016,6.9921994,6.598894,6.476269,6.5342016,6.695425,6.8895454,7.132865,7.449889,7.7463803,7.842799,7.9553633,8.016394,8.058367,8.083651,8.087224,8.083967,8.078125,8.084978,8.083373,8.0635605,8.043024,8.034485,8.033731,8.0371895,8.041044,8.04405,8.045618,8.045794,8.04594,8.04756,8.051001,8.05607,8.064439,8.066407,8.061728,8.054749,8.049971,8.04777,8.04204,8.034909,7.981234,7.917616,7.8788137,7.874593,7.90307,7.960437,8.054355,8.114737,8.1545315,8.181467,8.196088,8.19462,8.171671,8.154203,8.140633,8.132185,8.129314,8.131466,8.136282,8.140012,8.139881,8.139607,8.125338,8.094606,8.045252,7.9603257,7.8476963,7.791112,7.7755327,7.814149,7.9275436,8.027688,8.060717,8.070433,8.073553,8.07473,8.074606,8.072079,8.056761,8.026793,7.9979677,7.9876165,7.991109,8.000912,7.9982452,7.976275,7.9380727,7.8815937,7.8014174,7.709881,7.647422,7.6242714,7.6030293,7.6138735,7.6993027,7.820196,7.902684,7.8916273,7.686168,7.196329,6.5369234,5.978866,5.6880455,5.574313,5.5199327,5.5527725,5.690213,5.9602175,6.3814034,6.9413958,7.538602,7.7599854,7.822945,7.822939,7.820154,7.826561,7.8346815,7.8420405,7.8490815,7.8568287,7.8655586,7.874796,7.884178,7.8938093,7.903861,7.914361,7.925838,7.939064,7.95383,7.9705143,7.988637,8.006978,8.025655,8.04557,8.06895,8.093691,8.118738,8.143957,8.16918,8.194038,8.218238,8.24349,8.269724,8.296815,8.32399,8.350258,8.375135,8.398806,8.423127,8.44726,8.468891,8.495411,8.500721,8.430376,8.286627,8.222121,8.149627,8.156467,8.248209,8.387141,8.560673,8.715888,8.77389,8.8064165,8.837278,8.869393,8.897337,8.921087,8.945,8.969633,8.99596,9.024364,9.05368,9.082863,9.111593,9.139336,9.165952,9.193401,9.221462,9.250736,9.279062,9.29986,9.307176,9.302544,9.300016,9.294198,9.286081,9.265833,9.215864,9.131921,9.036561,8.986662,8.958314,8.97793,9.049601,9.163061,9.286203,9.361507,9.401445,9.409086,9.398962,9.393997,9.407294,9.434332,9.463168,9.491581
7.237521,7.239807,7.2402706,7.2399454,7.238434,7.235897,7.2345743,7.235561,7.238904,7.243676,7.2486305,7.2528434,7.2561364,7.2588344,7.260982,7.261654,7.258653,7.2524176,7.2465334,7.2416935,7.2370033,7.232015,7.226317,7.219887,7.213108,7.206461,7.200281,7.1947823,7.189882,7.1861167,7.1833076,7.181079,7.1793966,7.178214,7.1766343,7.173703,7.1690083,7.162486,7.1551676,7.14845,7.142873,7.138463,7.133915,7.127876,7.1178946,7.103425,7.0859437,7.068454,7.056547,7.049123,7.0490727,7.057587,7.074867,7.098547,7.124133,7.1486177,7.171758,7.1911955,7.2098484,7.2285843,7.2474737,7.2671165,7.2863073,7.3030252,7.318712,7.3329763,7.3489304,7.3666573,7.3838634,7.4008837,7.417634,7.435484,7.454256,7.4740553,7.4954057,7.518283,7.540513,7.557312,7.573148,7.5876327,7.599883,7.609316,7.6161156,7.620805,7.623534,7.6263437,7.6343327,7.6464977,7.661682,7.679292,7.6983185,7.718109,7.74364,7.787484,7.898209,7.9975643,8.045008,8.091005,8.150633,8.145704,8.13281,8.084265,7.9185658,7.527237,6.981337,6.5599995,6.434081,6.5090647,6.686042,6.8896246,7.1357408,7.4460692,7.7296915,7.8245573,7.9316015,8.002567,8.048204,8.073348,8.080528,8.079067,8.07412,8.080715,8.078089,8.059288,8.040837,8.033708,8.033531,8.037002,8.040742,8.044082,8.046085,8.047213,8.048604,8.050969,8.054363,8.058764,8.066942,8.069871,8.065456,8.058222,8.0540085,8.052721,8.046587,8.041496,7.9858804,7.9156303,7.870906,7.8656063,7.8974595,7.96192,8.065269,8.133773,8.174475,8.191594,8.196645,8.195121,8.1719055,8.153431,8.14289,8.137928,8.13641,8.135918,8.13529,8.135539,8.13699,8.139959,8.129879,8.1012335,8.056297,7.9725847,7.8462725,7.7770834,7.753416,7.7886677,7.9080243,8.013176,8.04912,8.065716,8.065542,8.066267,8.0648365,8.060352,8.052464,8.034254,8.008426,7.996731,7.9984837,8.000007,7.991409,7.968252,7.930332,7.8734345,7.7954364,7.717103,7.666547,7.633877,7.6011977,7.6134872,7.704932,7.8210177,7.878191,7.6606755,6.9629107,6.036667,5.240373,4.76478,4.56449,4.4716816,4.4302564,4.418153,4.4548845,4.5824947,4.9111505,5.5559015,6.461591,7.263646,7.664838,7.7950797,7.8058505,7.799779,7.808992,7.816536,7.823675,7.8312073,7.8390875,7.8473444,7.85598,7.865055,7.8746777,7.8849277,7.896057,7.9087553,7.9230137,7.939384,7.9573164,7.9754286,7.993868,8.013562,8.036738,8.061281,8.086143,8.111119,8.135902,8.160117,8.183731,8.208418,8.235064,8.25584,8.276031,8.302635,8.326975,8.349794,8.382508,8.409062,8.429753,8.454964,8.463064,8.401082,8.248424,8.189222,8.118647,8.119201,8.209103,8.3449,8.502228,8.658827,8.729553,8.764848,8.795754,8.828524,8.856522,8.879799,8.90344,8.927973,8.954252,8.98279,9.012358,9.041923,9.071038,9.098846,9.125475,9.153192,9.181444,9.209768,9.23784,9.265844,9.290615,9.300537,9.307732,9.30529,9.2942505,9.272196,9.218969,9.125307,9.031864,8.98188,8.955475,8.969508,9.040323,9.1553,9.272459,9.352566,9.390835,9.396129,9.383363,9.376248,9.388347,9.414896,9.443548,9.471834
7.238925,7.2418327,7.2428536,7.2426734,7.2411585,7.2394514,7.2386007,7.2398367,7.243135,7.247733,7.252494,7.256234,7.2591763,7.2615175,7.263188,7.263954,7.2615967,7.255945,7.2504706,7.2461967,7.242261,7.238075,7.2330327,7.2270164,7.220363,7.2135406,7.2070284,7.2012014,7.1960063,7.192086,7.1893177,7.187276,7.1858306,7.18486,7.183461,7.180689,7.1760864,7.1695356,7.161973,7.154708,7.1483097,7.142945,7.1377687,7.1321707,7.1218615,7.106415,7.087948,7.068701,7.056005,7.048746,7.0497575,7.0600452,7.079235,7.1044254,7.130948,7.155759,7.1788006,7.198345,7.216878,7.2356396,7.2551193,7.2746162,7.290791,7.305107,7.3162203,7.329397,7.345561,7.3630295,7.3807344,7.3981934,7.4155054,7.4340296,7.4535875,7.47451,7.4974923,7.5205064,7.5398,7.556754,7.5740438,7.5903635,7.6048117,7.6159763,7.6232996,7.62759,7.6293163,7.630762,7.6353073,7.6434226,7.6563425,7.6733055,7.6913114,7.7095156,7.7334557,7.7766314,7.886135,7.9840875,8.035704,8.088405,8.143482,8.139323,8.124861,8.099655,7.9290266,7.522419,6.9786763,6.535408,6.4066153,6.496661,6.6787186,6.8855,7.1354966,7.4423704,7.7166767,7.8102427,7.915742,7.995938,8.042559,8.065713,8.07531,8.074308,8.069462,8.07547,8.07239,8.05567,8.039997,8.034454,8.034967,8.038531,8.042095,8.045468,8.047672,8.049257,8.05114,8.053585,8.056501,8.060072,8.0678425,8.071222,8.067045,8.060303,8.057537,8.057381,8.050173,8.043077,7.9890714,7.9149566,7.8648624,7.8594837,7.895609,7.967804,8.078783,8.151621,8.185099,8.193313,8.195951,8.1964655,8.177732,8.157461,8.145676,8.139769,8.137255,8.135779,8.134588,8.1350975,8.13784,8.143262,8.135271,8.107933,8.068443,7.988291,7.8507853,7.76583,7.7326374,7.764514,7.8829556,7.9912214,8.034818,8.057098,8.054449,8.055806,8.053246,8.047922,8.040577,8.029402,8.014813,8.00299,8.000305,7.9920216,7.979952,7.958894,7.9216223,7.86381,7.7904315,7.723962,7.678445,7.627266,7.5968595,7.6274004,7.717449,7.7937813,7.7327156,7.0939317,5.9290686,4.9536448,4.4771795,4.295903,4.18143,4.1053576,4.0664244,4.055141,4.0902805,4.1973886,4.3789415,4.6815395,5.25447,6.3885555,7.3048935,7.7063303,7.777511,7.776177,7.7780037,7.7829466,7.7967796,7.804695,7.811557,7.8188972,7.82685,7.835409,7.844552,7.8544054,7.8650427,7.8770213,7.8906956,7.9069843,7.9251056,7.943155,7.9613237,7.980797,8.004164,8.026201,8.048847,8.075088,8.102104,8.125319,8.148306,8.172798,8.191887,8.233387,8.280546,8.295414,8.296913,8.343669,8.342979,8.36063,8.388266,8.414537,8.425819,8.379779,8.238844,8.173627,8.114732,8.113149,8.189302,8.316033,8.461939,8.601429,8.684261,8.722954,8.750196,8.783327,8.814617,8.837072,8.8605385,8.8850975,8.911463,8.940266,8.970202,9.00021,9.029842,9.058129,9.085222,9.113422,9.142187,9.171045,9.199044,9.22582,9.251929,9.277044,9.292772,9.300638,9.295283,9.276529,9.222995,9.121946,9.029173,8.971857,8.9498005,8.961914,9.032955,9.149324,9.259897,9.344013,9.380818,9.383344,9.367503,9.358041,9.368978,9.395248,9.423958,9.452354
7.2413664,7.244817,7.246092,7.246009,7.2445765,7.243164,7.2435055,7.2454367,7.2490625,7.253274,7.256676,7.259394,7.2620068,7.26447,7.2665634,7.266771,7.2647815,7.26106,7.256193,7.252557,7.2494783,7.2461905,7.241819,7.236202,7.2297163,7.2228265,7.2161093,7.210045,7.204563,7.2003746,7.1974444,7.1953564,7.193905,7.192919,7.191469,7.1885896,7.183815,7.1770096,7.1691008,7.161376,7.154414,7.1484523,7.1438513,7.1384153,7.127604,7.1110024,7.091066,7.070532,7.0556927,7.0478487,7.0493407,7.06099,7.0818768,7.108511,7.13599,7.1612396,7.1840534,7.2033844,7.221018,7.239788,7.2597027,7.2774696,7.290112,7.299439,7.3121395,7.3268304,7.343189,7.3608994,7.3790555,7.3971357,7.4151874,7.434572,7.4551096,7.477931,7.501387,7.5220795,7.5395794,7.557785,7.576185,7.594096,7.6105933,7.622445,7.62844,7.631147,7.6319895,7.6323204,7.6346536,7.641654,7.6542864,7.67085,7.6883945,7.705718,7.728863,7.773648,7.880642,7.9744825,8.031097,8.092682,8.140032,8.136539,8.119645,8.113276,7.938097,7.5192823,6.9779134,6.5160255,6.3943233,6.4947176,6.6761546,6.8818254,7.134469,7.4407864,7.709734,7.8026953,7.9096117,7.988559,8.035918,8.060124,8.069583,8.069227,8.064214,8.070679,8.067112,8.052425,8.039499,8.035489,8.036852,8.040603,8.04407,8.04744,8.050064,8.05209,8.054168,8.056498,8.058819,8.061539,8.068647,8.071788,8.067638,8.062008,8.061242,8.0620575,8.054046,8.04485,7.994034,7.9171453,7.8623686,7.857283,7.8973026,7.9778986,8.0950575,8.164898,8.192948,8.196081,8.195665,8.19849,8.186772,8.164818,8.152351,8.146082,8.142923,8.140476,8.138428,8.138902,8.143423,8.146589,8.139275,8.110235,8.073034,8.001239,7.8625865,7.757724,7.7137146,7.741019,7.8542213,7.9690075,8.019949,8.032001,8.034107,8.0384655,8.040417,8.0358,8.026968,8.017082,8.006849,7.9972057,7.9878273,7.977747,7.9656415,7.946947,7.9127836,7.857286,7.7880683,7.727325,7.683913,7.6150103,7.589553,7.636787,7.7220716,7.72988,7.401252,6.27678,5.1355524,4.492564,4.2030745,4.0144987,3.9399428,3.9160838,3.8998876,3.8868525,3.8890162,3.930069,4.069948,4.350668,4.7708054,5.538289,6.849021,7.5177183,7.695858,7.7644887,7.761425,7.7720866,7.770459,7.7765436,7.7832184,7.7899,7.79741,7.8050537,7.812659,7.8231606,7.833059,7.843978,7.856957,7.873538,7.8924303,7.910595,7.9282923,7.9474,7.969718,7.996423,8.022648,8.045027,8.06623,8.089367,8.111781,8.134939,8.145561,8.262821,8.386133,8.40366,8.457573,8.461271,8.346327,8.327845,8.353792,8.374327,8.386925,8.354105,8.266333,8.156443,8.111962,8.128443,8.192536,8.300386,8.432524,8.550831,8.640064,8.679274,8.71336,8.745888,8.769493,8.793175,8.816832,8.841719,8.868477,8.897822,8.928341,8.958828,8.988865,9.017624,9.045294,9.07419,9.104019,9.133919,9.162393,9.189056,9.214766,9.238912,9.264532,9.281441,9.286138,9.276847,9.228105,9.126568,9.029148,8.965334,8.940569,8.951969,9.027008,9.146244,9.252655,9.336436,9.371754,9.371281,9.352325,9.3406315,9.350586,9.376885,9.405941,9.434523
7.2443953,7.248198,7.249602,7.2495923,7.248284,7.247056,7.2477303,7.2501116,7.253853,7.257926,7.261303,7.2639694,7.2664547,7.2686715,7.269865,7.270236,7.268746,7.2652254,7.2618113,7.259391,7.257779,7.2564373,7.2531652,7.247776,7.241372,7.2345343,7.227808,7.221651,7.2159595,7.211443,7.2081947,7.205911,7.2043605,7.2032676,7.2016554,7.1984644,7.193269,7.186035,7.1777782,7.16978,7.1626253,7.156968,7.153038,7.147595,7.1370287,7.119753,7.0977044,7.075571,7.0581064,7.048526,7.0493927,7.0614204,7.0831785,7.1106853,7.138899,7.164857,7.187327,7.2055945,7.222357,7.2402296,7.2592,7.27553,7.2847953,7.296555,7.310006,7.324958,7.341672,7.359787,7.3784804,7.3973536,7.416543,7.4372587,7.4595532,7.4834814,7.5045004,7.521603,7.540373,7.559,7.577984,7.5982656,7.612407,7.6208544,7.6274242,7.63136,7.6323814,7.6328077,7.634813,7.6412582,7.654122,7.6712594,7.688658,7.706123,7.7291923,7.7787247,7.8790474,7.963776,8.02697,8.100906,8.138598,8.135717,8.116945,8.10808,7.9345036,7.520706,6.9769335,6.5017657,6.388018,6.500365,6.6793776,6.88012,7.132409,7.4386196,7.7059197,7.7996006,7.9102483,7.987177,8.033226,8.056389,8.064404,8.064484,8.058543,8.065807,8.062343,8.04941,8.038657,8.036066,8.038473,8.042587,8.046253,8.049943,8.053576,8.056429,8.058777,8.060972,8.0625725,8.064295,8.070351,8.072794,8.068617,8.064472,8.066108,8.068325,8.060749,8.04847,8.002562,7.924385,7.8637867,7.8574924,7.901764,7.9898176,8.1102085,8.178589,8.193858,8.192743,8.196798,8.199959,8.195292,8.173588,8.160908,8.154495,8.151063,8.148104,8.145683,8.146519,8.153036,8.148392,8.135599,8.114274,8.078884,8.005622,7.8805695,7.7501097,7.694151,7.71441,7.823119,7.943318,8.005538,8.02165,8.023992,8.0157795,8.025438,8.0226,8.011608,8.002867,7.9928684,7.9834094,7.974185,7.963704,7.9512606,7.9320745,7.9015336,7.8537173,7.7880116,7.728594,7.673558,7.616053,7.601334,7.6447763,7.7066326,7.6303444,7.0890684,5.6628447,4.759047,4.276311,4.005866,3.8976474,3.8739285,3.8729095,3.8562472,3.8416786,3.834264,3.8426986,3.9107282,4.1131706,4.50151,5.0493317,6.329412,7.2779408,7.5843105,7.691086,7.917101,8.027101,7.752221,7.7391944,7.7557316,7.7623444,7.7708035,7.738356,7.673683,7.7887506,7.803813,7.8113174,7.8235426,7.840645,7.8606634,7.879079,7.896228,7.9149246,7.92598,8.026122,8.088932,8.052388,8.026239,8.054136,8.0759735,8.084599,8.20665,8.307188,8.2649,8.583321,9.5598755,8.623856,8.587024,8.551225,8.391335,8.316704,8.352423,8.328768,8.233633,8.161872,8.110407,8.11297,8.177101,8.281742,8.407486,8.5438,8.602823,8.616632,8.789511,8.819206,8.706772,8.749678,8.773567,8.798848,8.826067,8.856042,8.887215,8.918194,8.9486065,8.977851,9.006151,9.035814,9.066851,9.097922,9.126814,9.153259,9.178844,9.202787,9.22769,9.25304,9.269807,9.269527,9.228535,9.134541,9.033174,8.960715,8.932217,8.942961,9.019299,9.139701,9.24523,9.328244,9.36096,9.357688,9.337197,9.324513,9.333998,9.360922,9.390847,9.419797
7.247781,7.2518578,7.253336,7.2534103,7.252267,7.251277,7.2522516,7.2549267,7.258922,7.2632356,7.266823,7.269605,7.2721434,7.2743764,7.2755275,7.275696,7.274623,7.2723465,7.269936,7.268141,7.267419,7.2669907,7.2644176,7.2597284,7.25441,7.2487855,7.242406,7.236759,7.230979,7.2264824,7.223178,7.220202,7.2174997,7.2155304,7.2134223,7.210411,7.2058096,7.1987066,7.1900983,7.1820493,7.1755066,7.171113,7.168459,7.163642,7.15377,7.1355677,7.1104856,7.085866,7.065346,7.0521812,7.050789,7.0616455,7.083253,7.111534,7.140342,7.165414,7.187151,7.205188,7.2204266,7.237808,7.2559195,7.2693934,7.280735,7.2936063,7.307853,7.323494,7.340947,7.3601055,7.380121,7.400119,7.420356,7.442354,7.4669676,7.4876723,7.504671,7.5227027,7.5416403,7.5602326,7.5806093,7.5966635,7.608303,7.61778,7.6257515,7.630986,7.632827,7.6333,7.6350784,7.641806,7.6553373,7.6732745,7.6917357,7.7104034,7.7343655,7.785482,7.880862,7.956664,8.02337,8.109248,8.138132,8.138042,8.117801,8.104174,7.9317265,7.5249615,6.980398,6.4934306,6.393051,6.508299,6.685917,6.8809094,7.1282377,7.433984,7.7021475,7.7963705,7.9121294,7.98584,8.029622,8.05272,8.059589,8.059343,8.056328,8.060806,8.056698,8.044832,8.035641,8.034357,8.037645,8.042376,8.046681,8.051357,8.056604,8.061167,8.06451,8.066618,8.067253,8.067543,8.072006,8.073662,8.069744,8.067488,8.072065,8.076418,8.06974,8.054415,8.01204,7.933678,7.8683558,7.85954,7.906643,8.001656,8.125419,8.181274,8.196804,8.200142,8.200617,8.200324,8.199058,8.182245,8.170099,8.163803,8.1606655,8.157797,8.156179,8.157767,8.157151,8.149122,8.137857,8.116346,8.079767,8.012619,7.8947372,7.7395115,7.6699815,7.6790876,7.785816,7.91175,7.9796505,7.9976997,8.000436,7.994178,8.002784,7.9988947,7.988427,7.981059,7.97237,7.964195,7.9563,7.946311,7.933728,7.914096,7.886352,7.8450537,7.7839823,7.72754,7.6626825,7.6073065,7.604579,7.651161,7.677599,7.4737163,6.6432705,5.303317,4.558487,4.15942,3.9435966,3.8940084,3.8773582,3.861321,3.8439832,3.8251176,3.8130975,3.8168416,3.8578959,3.9951792,4.3017597,4.7593203,5.8815556,6.8418226,8.324077,8.818014,7.7443585,7.903228,7.8262606,7.7258224,7.69142,7.6004086,7.6003017,8.208568,9.065801,7.801553,7.736311,7.7724724,7.7842393,7.8006496,7.8199186,7.8378077,7.854657,7.873047,7.8437634,8.145873,8.737619,8.688906,7.908305,8.010231,8.031713,8.035857,8.188679,8.292858,8.275795,8.381811,8.745347,8.97983,8.607914,8.492256,8.378651,8.262803,8.312698,8.313768,8.218984,8.146824,8.094774,8.094141,8.153603,8.2623625,8.402191,8.537159,8.565758,8.582212,8.656094,8.686522,8.669829,8.702677,8.737827,8.775049,8.815543,8.8556595,8.890869,8.916696,8.929394,8.933989,8.962265,8.992528,9.024912,9.057461,9.087504,9.114768,9.140888,9.164818,9.189329,9.214621,9.239949,9.251587,9.226162,9.15082,9.040552,8.958323,8.924207,8.935282,9.008611,9.125994,9.235731,9.317192,9.347963,9.342337,9.320814,9.307814,9.317627,9.346037,9.377586,9.406971
7.2512455,7.2557116,7.257394,7.257679,7.25678,7.2560782,7.2573404,7.2602367,7.264557,7.269213,7.2730284,7.2761,7.2788897,7.281268,7.282711,7.2829666,7.282009,7.2804704,7.279375,7.278805,7.2785635,7.27759,7.2749376,7.2709618,7.266279,7.261035,7.25576,7.251111,7.2465553,7.242032,7.2379165,7.2346535,7.2322187,7.2300367,7.227131,7.223302,7.2182484,7.211488,7.204022,7.197466,7.1922417,7.1886787,7.1861153,7.181388,7.1728163,7.157419,7.132601,7.1023016,7.0792255,7.061124,7.055819,7.064124,7.0843534,7.112551,7.142024,7.1667995,7.1869373,7.2035437,7.217719,7.234424,7.251339,7.2635694,7.2767997,7.2907677,7.3062296,7.3232174,7.3420873,7.3625593,7.383708,7.404809,7.4261665,7.4508853,7.4721236,7.4892626,7.506313,7.5253887,7.5445547,7.562642,7.578518,7.591114,7.602626,7.613842,7.6234207,7.629975,7.6329117,7.633924,7.635932,7.6431813,7.657917,7.6779175,7.699133,7.72049,7.746609,7.7953224,7.88299,7.9509716,8.016496,8.105536,8.132358,8.131304,8.1164875,8.099249,7.9323835,7.5292463,6.9760723,6.4952264,6.411709,6.5286875,6.696592,6.887272,7.1311855,7.431177,7.7012563,7.794516,7.910552,7.9830275,8.025814,8.048597,8.054451,8.053413,8.053448,8.055199,8.05011,8.038553,8.030284,8.029909,8.033838,8.039509,8.045104,8.051693,8.059515,8.066425,8.071092,8.073259,8.072639,8.07022,8.072514,8.0738,8.070623,8.070181,8.0776615,8.084978,8.080488,8.062113,8.02096,7.941864,7.872213,7.8598757,7.9085155,8.010893,8.137211,8.185257,8.202082,8.20463,8.199799,8.200263,8.199116,8.1883545,8.178953,8.1743145,8.1727085,8.170532,8.167332,8.164614,8.159003,8.150198,8.13879,8.123104,8.088907,8.01655,7.8940387,7.7230844,7.64095,7.6383934,7.7329826,7.861806,7.9449034,7.9680285,7.966937,7.9705544,7.969943,7.9647193,7.958403,7.9523735,7.945765,7.9395466,7.9331694,7.924681,7.912694,7.8936234,7.8675795,7.83162,7.7796545,7.722719,7.644755,7.605193,7.6159306,7.642916,7.6208344,7.3255243,6.286255,5.1292415,4.4650993,4.1170015,3.9528098,3.9153194,3.8899622,3.8731894,3.85714,3.8368745,3.8162603,3.8099513,3.8371997,3.9362264,4.167388,4.5747433,5.4750395,6.5782914,7.846527,8.290049,7.7495537,7.795683,7.828553,7.76937,7.829477,8.383236,8.329532,7.8881927,8.515156,7.7466125,7.720982,7.75685,7.773227,7.7884793,7.803194,7.815677,7.827344,7.8386927,7.8269167,7.988515,8.334049,8.332519,7.8984528,7.9692526,7.9927845,8.008758,8.08001,8.1357,8.16104,8.155634,8.124788,8.5343895,8.336768,8.294817,8.290897,8.264972,8.293364,8.271292,8.187635,8.092237,8.030901,8.030848,8.094856,8.206997,8.339058,8.456928,8.530218,8.592754,8.620804,8.652159,8.701582,8.725344,8.701731,8.6779785,8.652943,8.644623,8.662302,8.715624,8.816792,8.937515,8.9266205,8.946514,8.979435,9.014158,9.04597,9.074919,9.102095,9.126089,9.150381,9.173411,9.198439,9.221929,9.218775,9.158068,9.041899,8.952768,8.915441,8.928839,8.997163,9.108131,9.222383,9.302582,9.332344,9.326212,9.304623,9.29252,9.304096,9.3341465,9.366585,9.396917
7.2547836,7.259843,7.262018,7.262742,7.2622194,7.2618833,7.263439,7.266577,7.2711105,7.275897,7.279853,7.2833223,7.286459,7.289032,7.2905703,7.2910485,7.290308,7.2890797,7.288802,7.2890244,7.288899,7.2873755,7.284461,7.2806478,7.2762127,7.2714834,7.267399,7.263683,7.260131,7.2560844,7.251983,7.248437,7.2454495,7.242858,7.2397704,7.235696,7.2305584,7.224519,7.218416,7.2132373,7.209324,7.2066936,7.2044964,7.2004375,7.193001,7.180186,7.1579924,7.1263976,7.0983734,7.075833,7.065707,7.070225,7.0882745,7.1158943,7.1461086,7.1712275,7.190146,7.2042103,7.21737,7.232005,7.246562,7.259742,7.274001,7.2893085,7.3062334,7.324812,7.345253,7.366982,7.3890705,7.4113026,7.4349294,7.457196,7.4743605,7.491803,7.5116787,7.5305324,7.546501,7.5613537,7.573147,7.5853024,7.5979156,7.610394,7.6214967,7.6294184,7.633522,7.635597,7.6383686,7.6466866,7.6628795,7.684746,7.7079725,7.7304707,7.758704,7.8072267,7.884388,7.9444532,8.007941,8.093485,8.119173,8.115906,8.112329,8.093703,7.937251,7.5327497,6.9633617,6.5106897,6.451988,6.567926,6.7128725,6.895965,7.138094,7.4305277,7.7045493,7.7945213,7.907913,7.979724,8.022085,8.044357,8.049353,8.046879,8.046797,8.048887,8.042438,8.030706,8.023027,8.022868,8.027194,8.034215,8.041795,8.051283,8.062073,8.071415,8.077482,8.079582,8.07723,8.071323,8.070511,8.072089,8.070371,8.071183,8.080787,8.091539,8.089879,8.069109,8.026798,7.9443703,7.8698764,7.8546615,7.9046206,8.013454,8.144005,8.18968,8.206146,8.204329,8.195543,8.199574,8.197647,8.192003,8.186216,8.183074,8.181164,8.178148,8.173164,8.166416,8.158739,8.148807,8.136157,8.127947,8.094739,8.010927,7.881776,7.700176,7.6081953,7.5951233,7.6746798,7.806239,7.9040675,7.9267235,7.928503,7.9316845,7.9262238,7.9240065,7.9232063,7.919379,7.9141135,7.9084353,7.904238,7.898321,7.888316,7.871069,7.84677,7.815134,7.7717743,7.7127614,7.6422796,7.618724,7.633176,7.6277466,7.5464544,7.191002,6.0765657,5.053399,4.428446,4.110985,3.9699442,3.9209824,3.895286,3.8851604,3.8665767,3.8461952,3.826212,3.8108053,3.8215485,3.895286,4.0721836,4.43521,5.132435,6.2947845,7.038085,7.38496,7.7617035,7.774755,7.7812033,7.7295218,7.851701,8.448344,8.360487,7.517044,7.53563,7.7068667,7.6768384,7.64226,7.631067,7.637608,7.657838,7.687539,7.7227316,7.765897,7.815743,7.8242493,7.783358,7.8068695,7.916975,7.915024,7.928033,7.950926,7.9668694,7.9868526,8.010183,8.026909,8.032839,7.975954,8.030449,8.056185,8.077656,8.1001215,8.085451,8.033859,7.9704213,7.890173,7.8356934,7.8361545,7.8940682,7.9861393,8.08123,8.160986,8.246956,8.312563,8.34635,8.362476,8.367512,8.33643,8.241905,8.119195,7.9684496,7.8603535,7.842748,7.9638596,8.2743225,8.703811,8.857031,8.902798,8.93395,8.969731,9.002977,9.033128,9.061216,9.085622,9.1101,9.132332,9.154535,9.182543,9.196509,9.154844,9.045015,8.949973,8.90658,8.917492,8.982092,9.089733,9.205503,9.285356,9.31573,9.311366,9.291127,9.280838,9.294639,9.326103,9.359196,9.389641
7.2588997,7.264906,7.2678947,7.2693567,7.269397,7.2695374,7.271467,7.27476,7.2791567,7.2838025,7.2879324,7.291752,7.295149,7.2977915,7.299053,7.2993126,7.2986655,7.2976303,7.297373,7.2975917,7.297516,7.2961845,7.29323,7.289139,7.284898,7.2811356,7.2776227,7.2743864,7.270774,7.267335,7.2640924,7.260476,7.256524,7.2532845,7.250553,7.2471085,7.2428284,7.2376347,7.2321577,7.2275686,7.224639,7.223361,7.2227106,7.2203794,7.2138376,7.200922,7.1805954,7.1535406,7.1214743,7.0952654,7.0804834,7.080764,7.0963945,7.123603,7.1542997,7.178887,7.1958094,7.20789,7.219296,7.231042,7.2436123,7.2581873,7.273752,7.290305,7.3087025,7.328831,7.3506813,7.373582,7.3968487,7.4202757,7.443199,7.459902,7.477827,7.497691,7.5173254,7.5338593,7.545618,7.557003,7.5694466,7.582373,7.5960064,7.6099205,7.622529,7.632,7.6374598,7.639977,7.6431,7.652137,7.669942,7.6926794,7.7154713,7.740233,7.771235,7.8188186,7.883311,7.9382095,8.003725,8.08307,8.102215,8.095575,8.09878,8.088474,7.9381638,7.522073,6.943862,6.5297713,6.5011873,6.61077,6.727553,6.9005766,7.144694,7.436944,7.717206,7.8019156,7.912511,7.9811916,8.02274,8.044994,8.048496,8.043464,8.040621,8.043791,8.035978,8.024328,8.016698,8.015533,8.019785,8.028191,8.038055,8.050812,8.064278,8.075313,8.082672,8.085133,8.080715,8.071245,8.066561,8.068766,8.069008,8.070576,8.081495,8.095516,8.09553,8.073892,8.028768,7.940486,7.860402,7.843893,7.89692,8.010595,8.14735,8.191497,8.208725,8.206169,8.194759,8.199146,8.19698,8.19418,8.190705,8.1873865,8.183506,8.1783695,8.171943,8.164187,8.154907,8.143607,8.130838,8.124065,8.087986,7.9969654,7.862849,7.6734076,7.5753517,7.5541162,7.6241994,7.7555165,7.8570943,7.8767166,7.8844976,7.8814273,7.879906,7.883486,7.88383,7.879258,7.8748693,7.869116,7.8672123,7.864795,7.8589354,7.8457527,7.824876,7.7973638,7.7597637,7.7004204,7.653475,7.6384134,7.6487837,7.619513,7.478613,7.0547924,5.9488773,5.0114117,4.413787,4.1065803,3.9691262,3.9159448,3.8963804,3.8824632,3.8605871,3.840517,3.829018,3.816362,3.816305,3.8658912,3.997339,4.3039722,4.846094,5.8639574,6.838331,7.581749,7.9954343,7.729448,7.752833,7.620896,7.652686,7.5636477,7.5194073,7.6289816,7.539257,7.4371786,7.28994,7.190201,7.160473,7.1816974,7.231591,7.2984242,7.3702793,7.4620547,7.558295,7.637418,7.6794124,7.6873713,7.6791205,7.6642823,7.6605062,7.673775,7.699704,7.717754,7.715496,7.6975994,7.673032,7.644573,7.6184483,7.6021852,7.5889797,7.5661826,7.5294647,7.4869223,7.4501295,7.4225373,7.4032626,7.4089084,7.4392223,7.479295,7.513653,7.5302277,7.542741,7.5480595,7.5483437,7.5377493,7.493639,7.407896,7.305819,7.1571636,6.967518,6.8227463,6.790727,6.9416842,7.3631334,8.0351715,8.629576,8.848675,8.899668,8.925298,8.959793,8.990067,9.018625,9.04389,9.06912,9.091829,9.11413,9.139673,9.160439,9.144556,9.053633,8.953796,8.899015,8.902552,8.965485,9.073212,9.188604,9.268837,9.301576,9.300669,9.282866,9.274492,9.289951,9.322197,9.3551445,9.383316
7.263987,7.271509,7.275537,7.277956,7.2786264,7.279278,7.2816105,7.2848463,7.288839,7.29334,7.29777,7.301773,7.305211,7.307585,7.308216,7.3076496,7.3062773,7.304885,7.304739,7.3053555,7.305654,7.3044863,7.3014426,7.2971334,7.2927194,7.288927,7.285521,7.2824364,7.2788973,7.275201,7.2717137,7.268881,7.2666163,7.2639627,7.261386,7.25794,7.2538114,7.248873,7.244053,7.240605,7.2386227,7.2383013,7.23894,7.2378893,7.232327,7.2197437,7.1999807,7.1752553,7.1464047,7.1172576,7.0989656,7.0956993,7.109083,7.1357975,7.1656027,7.1875277,7.2004375,7.2116632,7.2211065,7.23125,7.2442155,7.2593703,7.2758017,7.293595,7.3135004,7.335262,7.358605,7.3827667,7.4070807,7.4303656,7.4467716,7.464283,7.4842114,7.5033603,7.51853,7.530857,7.543574,7.555824,7.5689745,7.583094,7.5983715,7.6140213,7.6281443,7.6388383,7.645262,7.6472397,7.6500225,7.65903,7.6783257,7.7018194,7.724306,7.755247,7.7888,7.8271937,7.8791037,7.936652,8.007929,8.076731,8.086369,8.090745,8.095443,8.088886,7.922188,7.4835615,6.9138055,6.5361557,6.532155,6.6333385,6.7338,6.9031773,7.156952,7.459461,7.7423615,7.8234444,7.929676,7.993489,8.03401,8.055866,8.056257,8.047321,8.041227,8.041566,8.033442,8.023065,8.014523,8.010793,8.014191,8.023234,8.035009,8.050447,8.066053,8.077914,8.086391,8.090084,8.083882,8.070997,8.062586,8.065058,8.06715,8.069691,8.081902,8.098505,8.098479,8.077053,8.028477,7.9338846,7.8484287,7.831961,7.890402,8.008621,8.148983,8.194117,8.213463,8.213076,8.199911,8.200065,8.197821,8.194996,8.192131,8.187815,8.183135,8.1765175,8.166793,8.15696,8.147887,8.136679,8.122841,8.114891,8.076937,7.979871,7.8365192,7.646632,7.546171,7.520435,7.5834618,7.7066956,7.8075914,7.833921,7.8357515,7.8394976,7.842082,7.847857,7.8426366,7.831084,7.8281975,7.8243656,7.823316,7.824006,7.8231974,7.816197,7.801056,7.7789,7.7475986,7.691766,7.652523,7.650797,7.66101,7.616482,7.429508,6.934287,5.8582997,4.967477,4.3921394,4.0887823,3.953801,3.9050581,3.8861735,3.87091,3.8538404,3.8376331,3.8252203,3.8160653,3.8171763,3.8492596,3.9436097,4.161868,4.57886,5.4845986,6.448018,7.675498,8.564864,7.653606,7.6994348,7.60007,7.5671062,7.5796757,7.5781164,7.422269,7.0176992,6.6767645,6.4987984,6.43412,6.466296,6.549016,6.640331,6.725989,6.7974854,6.8829174,6.990476,7.0757456,7.1233864,7.1378183,7.1309795,7.125562,7.120102,7.120699,7.1219707,7.1068897,7.070134,7.0216265,6.972169,6.929842,6.8996363,6.878871,6.864852,6.850191,6.8299623,6.809441,6.7992277,6.8006477,6.813768,6.828823,6.8320465,6.8167987,6.785017,6.7404966,6.696994,6.664352,6.6402965,6.618092,6.5904145,6.547777,6.482546,6.4055657,6.3237877,6.260385,6.2495546,6.3356647,6.616435,7.214855,8.193304,8.733272,8.870109,8.884285,8.917664,8.947866,8.976791,9.00296,9.029036,9.0525055,9.07535,9.0991,9.1226635,9.124264,9.057459,8.958429,8.89312,8.892332,8.954124,9.059556,9.17526,9.255947,9.291088,9.295047,9.280299,9.273317,9.289669,9.321487,9.351461,9.374215
7.2697067,7.279407,7.284562,7.2878394,7.28873,7.2896757,7.2920775,7.2952332,7.299308,7.3040543,7.3086586,7.3126993,7.3159976,7.3178005,7.3174095,7.3156586,7.3132763,7.311317,7.3111515,7.3120875,7.312762,7.3117876,7.308647,7.3040404,7.299362,7.295513,7.292209,7.28931,7.285911,7.282221,7.2786293,7.2755957,7.2734156,7.271906,7.2705307,7.2686234,7.264913,7.2597585,7.2551293,7.25243,7.251362,7.251999,7.2536225,7.252756,7.246685,7.2345,7.215527,7.1905885,7.166252,7.1390567,7.1191053,7.112957,7.1248302,7.150024,7.175276,7.1911545,7.204148,7.213914,7.222744,7.233261,7.2465076,7.2621098,7.279374,7.2983613,7.3197384,7.34311,7.367874,7.3936443,7.4176917,7.4357414,7.4518423,7.4711494,7.4875574,7.5020733,7.515974,7.5290656,7.5420704,7.554875,7.5692835,7.5856085,7.6031165,7.6211467,7.636729,7.6461773,7.650703,7.65403,7.6585236,7.6715865,7.690877,7.714383,7.7428493,7.7699604,7.795052,7.8274517,7.8780727,7.9445667,8.019695,8.071795,8.073172,8.171444,8.199759,8.11627,7.8849125,7.4333153,6.872857,6.531068,6.5442905,6.6353207,6.7460814,6.921835,7.1860347,7.4999514,7.7686977,7.855774,7.956772,8.01864,8.056457,8.074619,8.071001,8.056595,8.045742,8.039255,8.032683,8.025673,8.015795,8.008289,8.010194,8.018593,8.031475,8.048795,8.065692,8.079099,8.088937,8.092699,8.085529,8.069991,8.058671,8.06043,8.0639305,8.06863,8.082928,8.101307,8.101871,8.079248,8.027264,7.927065,7.838377,7.823724,7.8868966,8.010349,8.14724,8.196514,8.2206745,8.222018,8.2056,8.200027,8.197699,8.194508,8.1916685,8.186567,8.1782875,8.167974,8.157451,8.147767,8.138933,8.12756,8.113109,8.1051235,8.063145,7.9566097,7.8066845,7.6213984,7.5200214,7.4919195,7.550657,7.6692247,7.7690277,7.7969313,7.7952213,7.80698,7.8108606,7.814142,7.8043833,7.7890024,7.7861576,7.784546,7.783654,7.783825,7.783541,7.780203,7.772683,7.758243,7.731578,7.690718,7.659445,7.6599097,7.6608353,7.602343,7.389947,6.854375,5.786625,4.92486,4.3615828,4.064891,3.9343054,3.885106,3.8667827,3.8560793,3.8433614,3.8328185,3.823832,3.8170662,3.8177338,3.8391638,3.9044948,4.0536556,4.3940463,5.002516,5.966614,6.9360104,7.4544344,7.5503597,7.541341,7.537431,7.551784,7.5238485,7.361869,6.973712,6.42657,6.108638,5.966681,5.9655323,6.047809,6.1556244,6.256328,6.342082,6.416704,6.4872284,6.5732346,6.64468,6.6872606,6.7020273,6.6975517,6.689266,6.6788855,6.67076,6.661498,6.645644,6.6199884,6.586029,6.549595,6.518922,6.494726,6.4796286,6.4730105,6.4715366,6.470023,6.4666348,6.469222,6.476162,6.4876447,6.496029,6.4907227,6.4697647,6.4395022,6.403607,6.3686304,6.3417063,6.3252797,6.315897,6.3069534,6.2921658,6.267504,6.2273936,6.1787443,6.136428,6.1178637,6.164755,6.3587637,6.8140182,7.72615,8.4639015,8.787727,8.854771,8.874185,8.904947,8.93443,8.961159,8.987779,9.01174,9.034996,9.058516,9.082653,9.093014,9.05213,8.959886,8.888044,8.884876,8.945613,9.048374,9.164835,9.24566,9.280125,9.291714,9.281132,9.274343,9.29035,9.320529,9.345182,9.357787
7.2757626,7.286889,7.2934747,7.2976875,7.299329,7.300796,7.3035417,7.3068705,7.3111277,7.316146,7.320965,7.3249826,7.3279734,7.3288927,7.3270645,7.323717,7.320018,7.3173456,7.3171782,7.318546,7.3197384,7.3190737,7.315875,7.3109193,7.305875,7.3018804,7.298641,7.2959566,7.292776,7.289194,7.2856026,7.2825193,7.2803526,7.2790747,7.278002,7.27632,7.273525,7.2697086,7.2661724,7.26415,7.263546,7.264246,7.2653713,7.263712,7.256612,7.2434387,7.225649,7.204914,7.180645,7.1567216,7.139619,7.132898,7.141507,7.1612196,7.1797924,7.194975,7.207097,7.2172146,7.2266455,7.2375236,7.2510815,7.267232,7.28549,7.3059115,7.329068,7.3543134,7.38169,7.407963,7.429023,7.4450483,7.458459,7.473294,7.4880095,7.5024147,7.516326,7.529684,7.543185,7.5572557,7.573802,7.5926313,7.6136303,7.6329966,7.6480894,7.6594963,7.665798,7.670248,7.6772194,7.6897397,7.7053976,7.723692,7.7470274,7.773228,7.7989945,7.8341436,7.886773,7.959214,8.027444,8.052665,8.043375,8.1645565,8.2032,8.067615,7.808147,7.360599,6.80199,6.4915357,6.528928,6.6176543,6.7450323,6.9285355,7.2082024,7.5417457,7.799675,7.9077806,7.990838,8.056286,8.091665,8.097349,8.087641,8.074948,8.062203,8.048235,8.036983,8.028542,8.019788,8.011519,8.009195,8.015941,8.028793,8.047276,8.065638,8.080927,8.092436,8.096666,8.088687,8.071092,8.057605,8.05789,8.062383,8.0700035,8.0874815,8.107901,8.107084,8.083618,8.029216,7.9225655,7.8314486,7.8215146,7.890073,8.017509,8.147247,8.20443,8.223551,8.223949,8.212197,8.201037,8.19882,8.194611,8.189076,8.180201,8.169276,8.158012,8.147192,8.137367,8.128506,8.116865,8.101712,8.094675,8.049811,7.932371,7.772848,7.5955944,7.489499,7.464677,7.5231895,7.63764,7.7356973,7.7644815,7.765818,7.7803273,7.7836046,7.786024,7.776519,7.759939,7.753333,7.7490864,7.746279,7.745961,7.7466993,7.7452707,7.7429523,7.7350497,7.711425,7.685807,7.662425,7.656261,7.6476836,7.5831375,7.3505783,6.7772894,5.715023,4.8755608,4.3248644,4.0376096,3.912829,3.863772,3.846333,3.840164,3.8322356,3.8283172,3.8245006,3.8216236,3.823586,3.8369093,3.8753076,3.9651756,4.1962967,4.6055675,5.3384686,6.2892528,7.0578637,7.3776894,7.5110154,7.522175,7.5070124,7.3519745,7.029991,6.5713387,6.050514,5.7992387,5.7245216,5.7458096,5.8440847,5.9751587,6.089043,6.1701336,6.2291965,6.2851048,6.3483214,6.40621,6.4462876,6.4658766,6.470928,6.468878,6.4632874,6.457475,6.4487076,6.4302034,6.4026194,6.3721814,6.342188,6.3160515,6.2946773,6.280031,6.2723823,6.2705855,6.272459,6.2762184,6.2826185,6.289932,6.298152,6.302944,6.298976,6.2860394,6.2677274,6.244877,6.2209606,6.200385,6.1866426,6.1811333,6.1810274,6.1799097,6.1717954,6.1526737,6.1223392,6.092374,6.078802,6.10556,6.2357006,6.5889506,7.3594103,8.260079,8.733244,8.825893,8.824875,8.858328,8.888462,8.915686,8.942806,8.967211,8.990887,9.014589,9.038572,9.056978,9.049522,8.960386,8.889099,8.883539,8.939421,9.039839,9.155518,9.227062,9.249106,9.266043,9.276564,9.282035,9.294487,9.3154335,9.327259,9.333294
7.2822156,7.2943745,7.3022456,7.3075047,7.3098164,7.3116665,7.314636,7.318041,7.322446,7.327799,7.3329515,7.337015,7.339679,7.3395853,7.3361197,7.331017,7.3259506,7.3226314,7.3226385,7.324644,7.3265543,7.3263416,7.3231363,7.317807,7.3123384,7.308155,7.3049803,7.302561,7.2997084,7.2963676,7.292899,7.289857,7.287714,7.2865214,7.2855844,7.2839394,7.281454,7.278104,7.274942,7.2731957,7.2728276,7.273498,7.2740135,7.271308,7.262856,7.248416,7.230435,7.211693,7.1918097,7.1710835,7.1543765,7.147272,7.153045,7.167689,7.183332,7.1977863,7.2105875,7.221927,7.232316,7.2437754,7.2578607,7.2748203,7.2944145,7.3166676,7.342169,7.371417,7.40036,7.422065,7.435919,7.4491796,7.461709,7.475557,7.490288,7.505037,7.51904,7.532796,7.547672,7.5637226,7.582777,7.605489,7.628411,7.6487837,7.664323,7.673627,7.67934,7.6851807,7.691946,7.699238,7.711135,7.72866,7.750787,7.7811093,7.81112,7.849414,7.8989115,7.97097,8.024158,8.046361,8.110057,8.15012,8.1905,7.9749017,7.678275,7.2439876,6.6742797,6.3847227,6.455783,6.5674586,6.703706,6.8962426,7.2008324,7.554268,7.8034053,7.9200635,8.00319,8.070166,8.097372,8.100481,8.098507,8.087997,8.074701,8.058926,8.04023,8.031275,8.024296,8.014813,8.010479,8.014456,8.025896,8.044994,8.065269,8.083006,8.096685,8.102095,8.094044,8.075352,8.060539,8.058742,8.063524,8.074404,8.095516,8.117652,8.116339,8.090433,8.0301285,7.9180274,7.8274155,7.82185,7.8939342,8.027021,8.148274,8.210695,8.222225,8.216629,8.209201,8.199478,8.196096,8.1899185,8.181661,8.170496,8.158379,8.14659,8.135315,8.125181,8.116177,8.104208,8.089338,8.078957,8.018633,7.887744,7.738121,7.568734,7.459527,7.439469,7.49841,7.6091666,7.7056723,7.7354956,7.7419567,7.7530947,7.7570233,7.763668,7.758687,7.741596,7.7289133,7.720334,7.714981,7.7125616,7.712136,7.711801,7.713576,7.70983,7.6865754,7.662279,7.6490526,7.642823,7.632675,7.5632486,7.308423,6.7040834,5.646737,4.825303,4.286634,4.0097957,3.892479,3.8457217,3.8299446,3.8270469,3.824257,3.8273168,3.8297873,3.8298225,3.8315897,3.8383932,3.8532825,3.9000876,4.023724,4.2945085,4.7498503,5.499793,6.4356637,7.10738,7.2650805,7.387529,7.3123264,7.117122,6.764234,6.274585,5.8818893,5.6843863,5.6414566,5.688651,5.806052,5.952741,6.070697,6.1359997,6.18189,6.2238503,6.2701225,6.315242,6.352791,6.3764944,6.3855753,6.388342,6.389834,6.3917475,6.3850765,6.3670664,6.343124,6.319273,6.296769,6.276164,6.2579656,6.242626,6.2302732,6.2219644,6.2185636,6.2191896,6.222085,6.225322,6.2289295,6.230875,6.2290196,6.2236876,6.216094,6.2050924,6.191948,6.179516,6.170782,6.168714,6.172652,6.176937,6.1746836,6.162084,6.13387,6.1011496,6.082817,6.103795,6.2120004,6.4960966,7.1136713,7.9773197,8.521157,8.728762,8.785356,8.807921,8.838898,8.866463,8.893992,8.9189,8.943119,8.96734,8.991575,9.013035,9.01963,8.958433,8.890974,8.878708,8.930998,9.029797,9.136906,9.190566,9.208576,9.227026,9.246384,9.26208,9.276466,9.291176,9.299633,9.3069515
7.2883396,7.3010926,7.309811,7.3159204,7.3186455,7.320659,7.323666,7.3269863,7.3314652,7.3372097,7.3428526,7.347138,7.3496027,7.348596,7.3435926,7.336897,7.3307104,7.327032,7.3274765,7.3303337,7.333109,7.3334227,7.330215,7.324477,7.318559,7.314191,7.311118,7.3090434,7.3066444,7.3036885,7.300481,7.2975907,7.295557,7.294551,7.2938147,7.2922735,7.2896857,7.286063,7.282615,7.2806807,7.2801743,7.280513,7.2801323,7.275996,7.2658753,7.250231,7.2317657,7.213479,7.1972313,7.1800194,7.164604,7.156971,7.159841,7.171018,7.185925,7.20037,7.214685,7.2274833,7.2390356,7.251422,7.266385,7.2844863,7.305765,7.3304625,7.359049,7.388597,7.4122677,7.427661,7.43942,7.4524713,7.4660344,7.4811068,7.4967003,7.5120354,7.5266123,7.541178,7.557444,7.5757914,7.597803,7.622473,7.645254,7.6640806,7.678254,7.687242,7.6934304,7.6983414,7.7023077,7.707242,7.719482,7.7412605,7.768853,7.7995353,7.8303895,7.86688,7.916218,7.9794273,8.011513,8.03552,8.150265,8.136475,8.180726,7.912739,7.5809155,7.1460085,6.5734596,6.305667,6.4033213,6.5235624,6.6411705,6.845987,7.1893625,7.5551925,7.783848,7.8996572,7.991375,8.060635,8.083336,8.087357,8.095484,8.092785,8.076633,8.062314,8.043581,8.031951,8.026457,8.0206375,8.015072,8.016026,8.024555,8.04276,8.064461,8.08466,8.100832,8.107822,8.099603,8.080994,8.06556,8.061434,8.066418,8.081023,8.105055,8.126032,8.122499,8.09597,8.028276,7.913138,7.824643,7.8204274,7.8942037,8.034346,8.1490135,8.208611,8.215701,8.206608,8.20093,8.194377,8.188688,8.181249,8.171674,8.159668,8.146887,8.134334,8.122373,8.111843,8.102686,8.090381,8.077414,8.055471,7.968717,7.8286066,7.7055197,7.5445814,7.4353256,7.418939,7.477563,7.5851307,7.6814375,7.7140875,7.7235184,7.728468,7.7352386,7.744418,7.744722,7.7307854,7.712118,7.7001634,7.692173,7.686722,7.6838737,7.684168,7.6878424,7.684332,7.6603484,7.6335955,7.6300383,7.631852,7.6249123,7.546197,7.2640104,6.626997,5.559512,4.76362,4.2426186,3.979487,3.8730493,3.831644,3.818739,3.8182368,3.8201327,3.829115,3.8372607,3.839766,3.8400965,3.8414855,3.8427076,3.8592649,3.9100618,4.059966,4.3375564,4.814328,5.5773067,6.4899025,6.9314075,7.102072,7.0466294,6.9112883,6.5944138,6.1319933,5.841094,5.6801043,5.651053,5.7175493,5.8625627,6.0151367,6.118659,6.1801457,6.2201276,6.246867,6.2748823,6.305964,6.338131,6.363536,6.377084,6.3845663,6.3872285,6.391141,6.3894386,6.378004,6.36161,6.346429,6.3321314,6.318346,6.3043804,6.2896967,6.274358,6.261181,6.2527246,6.248378,6.2465744,6.2443933,6.2426295,6.240904,6.238763,6.2370033,6.2361097,6.2340097,6.2300262,6.2251835,6.2210846,6.221409,6.2272415,6.2332335,6.2309756,6.2170267,6.1836114,6.142171,6.110676,6.1208105,6.2199187,6.4676704,6.961729,7.6627145,8.276941,8.640745,8.753495,8.754734,8.788017,8.815649,8.843396,8.868807,8.89364,8.918509,8.943377,8.965143,8.973123,8.9531555,8.888529,8.869215,8.922293,9.016619,9.105808,9.146382,9.166079,9.184726,9.203794,9.222336,9.238937,9.252523,9.262958,9.272945
7.293272,7.306119,7.3151994,7.3217583,7.3246984,7.32673,7.3296657,7.33284,7.3373823,7.343587,7.349893,7.3546305,7.3571215,7.355469,7.3492413,7.341322,7.334426,7.3307753,7.3319416,7.3358393,7.3395696,7.3404236,7.337178,7.3309994,7.3246355,7.320135,7.317237,7.31561,7.3137884,7.311358,7.3085413,7.3059106,7.3040786,7.3033338,7.302843,7.3014026,7.2986946,7.2947245,7.2907724,7.288288,7.2872014,7.286693,7.2848263,7.2787266,7.2666044,7.2497053,7.2312756,7.2139244,7.198287,7.1841097,7.1717043,7.163908,7.1644335,7.1735444,7.187478,7.2029023,7.2183847,7.23257,7.245511,7.2591677,7.27536,7.294899,7.3180504,7.345038,7.3743343,7.3980255,7.4143276,7.4280667,7.4432526,7.4587193,7.474059,7.4903746,7.5072556,7.5237985,7.5395546,7.555454,7.57304,7.5925455,7.6159983,7.639186,7.660631,7.677764,7.69051,7.701314,7.708496,7.712836,7.7160916,7.7235565,7.74128,7.767727,7.7955856,7.8217754,7.8506556,7.8851166,7.9303827,7.97707,7.9931316,8.013334,8.119251,8.118753,8.135632,7.886786,7.5471063,7.1073656,6.5751257,6.3038654,6.379525,6.4921093,6.6033177,6.818302,7.167901,7.52483,7.7525406,7.8685193,7.9637165,8.038328,8.066747,8.071871,8.081332,8.085775,8.070526,8.055567,8.042627,8.029377,8.025408,8.02669,8.023062,8.022518,8.027582,8.042797,8.064252,8.085964,8.104046,8.111979,8.102797,8.084763,8.06896,8.063486,8.06922,8.087038,8.112084,8.128958,8.122351,8.097237,8.021915,7.9047756,7.819212,7.815496,7.8900194,8.035341,8.14743,8.200517,8.20613,8.197817,8.192308,8.186142,8.178793,8.171074,8.16113,8.14859,8.135157,8.121872,8.109203,8.098174,8.08868,8.075863,8.065681,8.027056,7.916624,7.776733,7.6760077,7.5273924,7.4191623,7.404444,7.4620214,7.567028,7.6624613,7.6965184,7.710385,7.712273,7.7190847,7.725626,7.728014,7.720006,7.7017455,7.6872635,7.676705,7.668475,7.663387,7.6640882,7.6670766,7.6599283,7.6358986,7.61456,7.6201344,7.6261425,7.623429,7.5353165,7.214263,6.5242834,5.428932,4.67529,4.186223,3.9446955,3.8536067,3.820488,3.8120902,3.8130393,3.818486,3.831307,3.8433275,3.848572,3.8479967,3.8454733,3.8426337,3.839591,3.8544836,3.912604,4.0859914,4.3915434,4.879856,5.6288033,6.4387026,6.769779,6.846381,6.7568083,6.476026,6.0996895,5.844306,5.715026,5.6976852,5.769417,5.9272776,6.077277,6.169365,6.2396507,6.273597,6.2885933,6.301506,6.3199544,6.3422694,6.3630238,6.3795958,6.3914127,6.392513,6.3914833,6.392294,6.3873625,6.3772526,6.369074,6.362138,6.354867,6.345315,6.3322277,6.317602,6.305135,6.2969546,6.2923183,6.289381,6.2850122,6.279817,6.2747025,6.2704973,6.26857,6.269445,6.270769,6.2713113,6.2706614,6.26898,6.2699065,6.275137,6.2795925,6.275174,6.2603817,6.2269273,6.1824894,6.142911,6.1394787,6.2232857,6.4462013,6.8392134,7.414788,8.0860615,8.529083,8.678938,8.712966,8.737856,8.765158,8.792041,8.817848,8.843553,8.869275,8.895016,8.917027,8.924786,8.934166,8.879978,8.86142,8.914171,9.000348,9.072136,9.103921,9.124531,9.143721,9.162811,9.180543,9.196625,9.210976,9.222227,9.232595
7.296954,7.3095098,7.3185782,7.325288,7.3283343,7.3303356,7.3331614,7.336197,7.340811,7.3474994,7.354559,7.359897,7.3625937,7.360548,7.353422,7.3446407,7.3374004,7.3340974,7.3361983,7.34126,7.345995,7.3473735,7.344055,7.337413,7.330624,7.3260517,7.3233967,7.3222895,7.3211226,7.3193083,7.3169546,7.314636,7.3130603,7.312622,7.3124,7.3110824,7.3082285,7.303821,7.2992196,7.2959957,7.2941284,7.292577,7.289029,7.280799,7.2665524,7.2483244,7.229892,7.213629,7.1995096,7.1867623,7.175661,7.168214,7.1680117,7.175939,7.189015,7.2046175,7.2208424,7.236202,7.25057,7.2656803,7.2832856,7.3044157,7.329381,7.356379,7.381414,7.3989096,7.414457,7.4315395,7.44829,7.465251,7.4825335,7.5010047,7.5197754,7.53792,7.5548353,7.571724,7.590514,7.6097703,7.631604,7.653023,7.673562,7.691805,7.7060013,7.715808,7.721655,7.7290583,7.7355146,7.7469797,7.771344,7.79858,7.817337,7.842287,7.8698387,7.901126,7.9290156,7.9593573,7.9719043,7.994336,8.10099,8.1051855,8.044647,7.8424044,7.5196,7.0915885,6.633741,6.338423,6.34653,6.459302,6.6024237,6.816534,7.1201553,7.451249,7.711969,7.8336906,7.9299746,8.009222,8.047944,8.05926,8.065601,8.067411,8.060828,8.045697,8.033676,8.024549,8.02236,8.026844,8.031495,8.032928,8.035629,8.046896,8.066139,8.087706,8.106166,8.113658,8.103306,8.085421,8.069074,8.063517,8.070279,8.089844,8.113901,8.125767,8.118584,8.09508,8.011394,7.8919573,7.810586,7.8093853,7.8843184,8.029985,8.142834,8.192793,8.197004,8.188759,8.182787,8.176053,8.168534,8.160389,8.150078,8.137276,8.123507,8.109708,8.096419,8.084747,8.074585,8.061457,8.0501,7.9913416,7.8694806,7.7412825,7.6476483,7.514913,7.4088964,7.3948727,7.4511642,7.554396,7.6470623,7.6787863,7.7009234,7.7024403,7.704507,7.707787,7.7088013,7.7048063,7.6943865,7.6780376,7.6655188,7.6552076,7.6483035,7.649576,7.6504984,7.6374207,7.6142645,7.604638,7.616751,7.6153364,7.617159,7.527153,7.1545477,6.3802595,5.2608447,4.5616436,4.119728,3.9087262,3.8359642,3.813027,3.810398,3.811181,3.8187993,3.8331883,3.847096,3.8547,3.8547125,3.8503318,3.8458498,3.8366685,3.8323808,3.8536096,3.9227676,4.1226645,4.480036,4.937705,5.6641765,6.3897333,6.6712246,6.610528,6.382345,6.0869207,5.8514595,5.7478867,5.731,5.805402,5.949312,6.090969,6.192481,6.2643366,6.290497,6.3027005,6.312956,6.324536,6.3364244,6.347835,6.3594236,6.3699036,6.3720694,6.3656034,6.3606977,6.35658,6.3522377,6.3500185,6.3491955,6.346959,6.34086,6.329606,6.318079,6.3098526,6.305216,6.303288,6.3019238,6.2991242,6.293752,6.2869735,6.280157,6.2751846,6.2732267,6.272424,6.2718945,6.272003,6.272122,6.2733297,6.2754426,6.275437,6.2700143,6.2570896,6.230009,6.190837,6.1553864,6.151828,6.22277,6.4090424,6.7145033,7.2468104,7.8632994,8.286699,8.5145445,8.649905,8.675135,8.706355,8.739695,8.767443,8.793781,8.820822,8.847294,8.868501,8.875164,8.894234,8.867608,8.860456,8.906059,8.98116,9.042071,9.063211,9.084702,9.104078,9.1230755,9.140822,9.157031,9.171749,9.18372,9.194729
7.300308,7.3123345,7.3211737,7.3279266,7.3310933,7.3331165,7.3358755,7.338768,7.3433695,7.350405,7.358095,7.3639603,7.366839,7.3644714,7.3566027,7.3471565,7.339759,7.336939,7.340032,7.346249,7.3519588,7.3538113,7.3503704,7.3432436,7.3360295,7.3313847,7.328972,7.328373,7.3278384,7.326618,7.3247137,7.3227043,7.321398,7.3212824,7.3213506,7.320191,7.317238,7.3124275,7.307205,7.3032947,7.3007298,7.2982826,7.2933054,7.283223,7.267089,7.247612,7.229064,7.213711,7.2010007,7.1896334,7.179743,7.1728315,7.1716647,7.1779356,7.1903543,7.205679,7.2222366,7.2384825,7.2541475,7.270672,7.289631,7.3122635,7.338668,7.36145,7.380506,7.398056,7.4157724,7.4338455,7.4520903,7.4705772,7.4892564,7.5095263,7.5305133,7.551248,7.5691967,7.584938,7.602953,7.623069,7.6429157,7.666035,7.6881905,7.7056494,7.7187414,7.7292404,7.7372484,7.7459517,7.7534924,7.7719135,7.7983875,7.8206162,7.838953,7.8670797,7.8898,7.8988037,7.91601,7.943206,7.952986,7.9763927,8.083707,8.090418,7.9722085,7.7712507,7.4660416,7.047239,6.629306,6.3918686,6.3721685,6.4626446,6.598447,6.800619,7.094038,7.419241,7.668716,7.8073983,7.9054446,7.984994,8.030409,8.0467825,8.0519085,8.053155,8.049352,8.044556,8.027479,8.019838,8.018601,8.023023,8.035969,8.043816,8.046357,8.05484,8.070614,8.0903225,8.10767,8.113761,8.103123,8.084974,8.06785,8.06134,8.068508,8.089481,8.111916,8.118141,8.110817,8.092155,8.001928,7.8821173,7.8052216,7.8061543,7.881897,8.023217,8.137255,8.1851845,8.188338,8.180044,8.173689,8.1665,8.15857,8.1500225,8.139405,8.1264515,8.112463,8.098244,8.08439,8.072061,8.06116,8.049171,8.025255,7.93542,7.8099594,7.7074413,7.6166916,7.4978657,7.3997545,7.3880816,7.443546,7.545907,7.638257,7.6701226,7.694607,7.689094,7.6902046,7.6932344,7.693175,7.6905823,7.6841564,7.6693583,7.656196,7.6446447,7.636565,7.6387453,7.637168,7.6174765,7.5955687,7.598694,7.6040745,7.59171,7.595034,7.5089235,7.0861454,6.204608,5.0897284,4.443266,4.0544662,3.878027,3.8235784,3.81115,3.8139396,3.8136277,3.8220146,3.8360162,3.849925,3.8589733,3.861001,3.8565726,3.848999,3.8459032,3.8278894,3.824636,3.8515441,3.947775,4.1780396,4.564332,5.0231047,5.749702,6.3067245,6.4555793,6.298173,6.052461,5.8393593,5.7548976,5.7467356,5.8184037,5.9445615,6.074919,6.177917,6.248081,6.275711,6.288437,6.2967567,6.304429,6.3139496,6.3254323,6.335095,6.3379526,6.3363333,6.3237834,6.315796,6.3139486,6.315434,6.3190107,6.321531,6.320444,6.3160477,6.3086133,6.3016233,6.2965,6.293419,6.2927065,6.2915926,6.2881546,6.281761,6.273366,6.2647295,6.2584248,6.256088,6.256117,6.255848,6.2565627,6.256969,6.2571163,6.256749,6.254077,6.2471266,6.2332125,6.205918,6.1755,6.1523366,6.155651,6.2157764,6.362054,6.61567,7.1026797,7.5678606,7.974818,8.283106,8.4613,8.568339,8.619357,8.685792,8.721207,8.746614,8.775336,8.801142,8.818511,8.826961,8.84613,8.854732,8.864117,8.901081,8.959111,9.00377,9.025278,9.047567,9.066914,9.085709,9.103468,9.1198635,9.134951,9.147585,9.159203
7.3043995,7.315813,7.3243775,7.3311715,7.3345156,7.3366175,7.3393087,7.342,7.3464575,7.353657,7.3617907,7.36801,7.3709126,7.3680673,7.359327,7.3491483,7.3415985,7.33932,7.343502,7.350977,7.357749,7.3601017,7.3565054,7.348815,7.341093,7.3363237,7.3341193,7.334007,7.3340893,7.3334494,7.3319693,7.3302402,7.3291903,7.3294005,7.329771,7.3288107,7.3258047,7.3206363,7.314853,7.310364,7.307286,7.304202,7.2981496,7.28657,7.2688007,7.2481537,7.2294226,7.2148705,7.203485,7.1935205,7.1845484,7.1776285,7.1755114,7.1804028,7.191687,7.2064023,7.222971,7.239851,7.2566586,7.27446,7.294918,7.3181257,7.3413014,7.3612437,7.3784065,7.3959923,7.414698,7.4337096,7.452833,7.472336,7.492548,7.515129,7.538395,7.5592737,7.5773053,7.595181,7.614622,7.6326885,7.6562552,7.6802754,7.70187,7.7204666,7.7361045,7.748381,7.757326,7.766142,7.7751775,7.7931824,7.8185825,7.8467584,7.8718643,7.881815,7.885618,7.886658,7.899147,7.924685,7.929243,7.946799,8.065317,8.05533,7.9436216,7.750367,7.471792,7.1066923,6.7367773,6.5080543,6.484461,6.552637,6.6665487,6.859164,7.1481695,7.4570303,7.6775646,7.8006434,7.9022665,7.9840145,8.021179,8.031064,8.039694,8.046727,8.045833,8.041063,8.033262,8.021043,8.017641,8.022741,8.030944,8.051098,8.060485,8.065725,8.077684,8.095341,8.1104355,8.114247,8.103291,8.0844555,8.066263,8.058588,8.065313,8.086817,8.107983,8.10983,8.102278,8.087154,7.9952536,7.8785315,7.8084545,7.8131223,7.8867826,8.019143,8.132365,8.177044,8.1789875,8.170809,8.163963,8.156127,8.147663,8.138617,8.127708,8.114776,8.100719,8.08611,8.071623,8.058481,8.046595,8.035118,8.002491,7.892272,7.7613964,7.669265,7.577668,7.473955,7.3877335,7.380745,7.436968,7.5365114,7.6281004,7.6643004,7.6838155,7.6792526,7.6746626,7.677387,7.6789246,7.6755166,7.669961,7.658499,7.6438913,7.631948,7.6242237,7.6251965,7.6206036,7.597307,7.5743637,7.592844,7.5833187,7.5648403,7.5704813,7.4912095,7.0022526,5.9622755,4.8961973,4.31299,3.9880714,3.8513184,3.8163974,3.8136454,3.817916,3.819968,3.8284063,3.8407357,3.853506,3.863523,3.8682418,3.866322,3.8589303,3.8507116,3.836964,3.8166142,3.8123631,3.8463604,3.9611166,4.2098875,4.562644,5.0869746,5.7358465,6.1620307,6.194159,5.995337,5.813916,5.7398148,5.7361593,5.7981825,5.9112973,6.0338626,6.136281,6.210902,6.242607,6.261161,6.273248,6.2817745,6.2899637,6.2976403,6.3023562,6.303684,6.2998495,6.2859516,6.275402,6.278321,6.2889786,6.2971325,6.3019896,6.3020296,6.298398,6.2941546,6.290425,6.2876196,6.2868767,6.2885027,6.289214,6.287396,6.2822437,6.273799,6.2617483,6.249667,6.2427454,6.239909,6.240347,6.243259,6.2460513,6.247266,6.245959,6.241022,6.232045,6.2188306,6.1948733,6.170598,6.1555386,6.163189,6.2159157,6.3379683,6.545692,6.9436364,7.344852,7.7391906,8.018379,8.156393,8.322147,8.494181,8.593514,8.661934,8.700962,8.728546,8.752272,8.76243,8.773764,8.797783,8.827805,8.8636265,8.900482,8.933443,8.9614525,8.985173,9.007819,9.027283,9.04619,9.064275,9.08113,9.096662,9.109763,9.121847
7.3095818,7.320334,7.3286123,7.3354774,7.3390737,7.3413286,7.3439856,7.3464384,7.3506184,7.3577805,7.366141,7.3725066,7.375264,7.3718157,7.362137,7.351216,7.343547,7.341872,7.3472185,7.3560424,7.3639984,7.3669405,7.3632383,7.355009,7.3467712,7.3418293,7.339746,7.339971,7.340474,7.340188,7.338893,7.3372335,7.3362913,7.336722,7.3373356,7.3365726,7.3335686,7.3281183,7.321909,7.317093,7.3138657,7.310645,7.3041925,7.2917895,7.27287,7.251217,7.2321563,7.218081,7.207639,7.1986876,7.190255,7.182971,7.179631,7.1829185,7.192786,7.206643,7.222972,7.24028,7.258136,7.2772846,7.2988424,7.321825,7.342275,7.3582726,7.3749814,7.392988,7.4121823,7.4316726,7.4511614,7.471586,7.4934707,7.520048,7.5436087,7.5650535,7.5850606,7.6035566,7.623258,7.645253,7.6698017,7.695306,7.718803,7.737953,7.7528296,7.764991,7.7748413,7.7848043,7.793681,7.8151712,7.846417,7.8714952,7.881351,7.8808336,7.8783236,7.874567,7.8855104,7.8912644,7.9302406,8.015021,8.043772,8.0326605,7.9266224,7.721492,7.496847,7.2229323,6.891264,6.656342,6.6130514,6.6546297,6.7403064,6.9337454,7.215188,7.488364,7.6906676,7.814543,7.909706,7.9820614,8.009472,8.015441,8.025799,8.036104,8.043304,8.0474615,8.043722,8.034751,8.025607,8.022704,8.030636,8.047903,8.0665,8.07834,8.089665,8.103024,8.114983,8.1176815,8.105974,8.085579,8.066021,8.056871,8.062456,8.083939,8.104197,8.102669,8.095234,8.082724,7.996068,7.8852763,7.821488,7.832766,7.9056787,8.017969,8.12879,8.169106,8.1696,8.161657,8.154198,8.145519,8.136389,8.126735,8.115533,8.102766,8.0887785,8.073806,8.058625,8.044525,8.031429,8.02309,7.957515,7.8329067,7.705759,7.6088943,7.5202684,7.431394,7.365774,7.368614,7.4285717,7.5257998,7.617718,7.661978,7.673259,7.6710596,7.6599984,7.662712,7.6662407,7.661456,7.655867,7.6460323,7.6303577,7.6181793,7.6120205,7.6111345,7.602562,7.5800204,7.5613604,7.57232,7.5570564,7.537352,7.5446534,7.4661226,6.86581,5.6026993,4.6835265,4.183507,3.930881,3.8349166,3.817133,3.8223977,3.826315,3.8307476,3.8382883,3.8476806,3.8580174,3.8679838,3.8751607,3.876911,3.8722754,3.8616364,3.8466763,3.8222933,3.7976403,3.7939548,3.837009,3.9581785,4.2123165,4.5670166,5.1025834,5.6613865,5.9487786,5.9055004,5.7756777,5.7131605,5.7154922,5.774355,5.873176,5.9823923,6.081892,6.1605406,6.1998186,6.226551,6.245897,6.258696,6.2672787,6.2709036,6.268524,6.2642193,6.2587585,6.2441616,6.2369146,6.247376,6.263563,6.272106,6.2778797,6.280137,6.2797155,6.2767935,6.271164,6.2668276,6.2670183,6.26939,6.2707324,6.268875,6.262521,6.252214,6.238081,6.2230234,6.211856,6.205334,6.203344,6.20618,6.2096343,6.2113743,6.210712,6.2064905,6.1976986,6.1857347,6.167636,6.1485205,6.1373672,6.1459637,6.190466,6.289012,6.4566393,6.7498617,7.084162,7.4258585,7.724054,7.9393816,8.099546,8.259183,8.472193,8.610079,8.657247,8.67727,8.705331,8.720039,8.72109,8.752942,8.79204,8.83333,8.86734,8.89322,8.91835,8.942661,8.965429,8.985125,9.004345,9.022984,9.040531,9.056593,9.07004,9.082527
7.313059,7.323093,7.331088,7.3380613,7.341976,7.344472,7.347168,7.3494053,7.3532395,7.360203,7.368588,7.3749323,7.3774104,7.3733187,7.362735,7.351115,7.343331,7.3422117,7.3486347,7.358713,7.3678265,7.3714004,7.3677077,7.359099,7.350465,7.3453655,7.3433576,7.3437376,7.3443956,7.3441343,7.342666,7.340757,7.339693,7.340184,7.3409653,7.340418,7.337537,7.3319855,7.3256187,7.320881,7.3180118,7.3153143,7.309313,7.2969174,7.2774324,7.254925,7.2352324,7.2210617,7.2108593,7.20218,7.193655,7.1855555,7.1806993,7.182206,7.1905637,7.20349,7.2194605,7.2371216,7.2559476,7.2769804,7.2990847,7.3194113,7.337282,7.3517075,7.368739,7.3872247,7.406697,7.4263783,7.4461503,7.4677258,7.4923477,7.5189586,7.544622,7.5678167,7.589417,7.6108193,7.6326394,7.656234,7.681645,7.7085514,7.7323,7.751485,7.7668724,7.778842,7.789246,7.799485,7.811782,7.8437204,7.875149,7.884612,7.8800907,7.874913,7.869108,7.86508,7.856036,7.8985643,7.9860086,8.036708,8.020546,8.022948,7.9132996,7.699648,7.5209503,7.3050795,6.98971,6.7653847,6.6966543,6.7106714,6.7816677,6.9486513,7.2175217,7.494282,7.684844,7.840533,7.9267664,7.980603,7.994005,7.996231,8.007992,8.019045,8.030493,8.041288,8.046743,8.047996,8.038306,8.025295,8.024567,8.036132,8.060558,8.080689,8.096909,8.109093,8.117199,8.11764,8.105287,8.084408,8.064107,8.052936,8.057432,8.078945,8.098457,8.095381,8.08866,8.077469,8.003716,7.902808,7.8411345,7.856965,7.932582,8.018582,8.122843,8.15707,8.155907,8.148374,8.140442,8.131096,8.121433,8.111298,8.099825,8.087108,8.073055,8.05764,8.041729,8.026684,8.0124235,8.007538,7.9099984,7.7667575,7.6339774,7.5281625,7.447769,7.3710713,7.3283844,7.3432226,7.412221,7.511404,7.602274,7.652232,7.6598024,7.659876,7.648155,7.648178,7.650254,7.6454296,7.6398544,7.631021,7.614497,7.6023703,7.6001506,7.5967073,7.5816984,7.5618577,7.550931,7.5439286,7.5139456,7.4909897,7.5117316,7.373005,6.606612,5.236623,4.4910154,4.0765977,3.8885794,3.8298688,3.8268712,3.836437,3.8397655,3.845519,3.8510375,3.856217,3.8626108,3.8708367,3.8791337,3.8844595,3.8844314,3.876235,3.858672,3.8368719,3.805298,3.7805703,3.7844517,3.8271155,3.9618468,4.22935,4.5898123,5.08259,5.5370417,5.7374287,5.717025,5.678684,5.702598,5.7635927,5.8455405,5.9410295,6.0364733,6.110795,6.1577263,6.1942654,6.2246304,6.243785,6.250877,6.246335,6.2328978,6.2191553,6.212718,6.193931,6.187133,6.201845,6.222275,6.233506,6.2400355,6.241631,6.2404213,6.2343664,6.2244883,6.2145157,6.208499,6.2071705,6.206159,6.202249,6.194169,6.1822824,6.1673717,6.151952,6.1393275,6.1302094,6.1243973,6.1229973,6.121254,6.1182094,6.1144133,6.108651,6.0998,6.088187,6.0741377,6.060729,6.053869,6.0603766,6.0942945,6.173273,6.297664,6.4767265,6.6967835,6.931793,7.18583,7.457174,7.7232304,8.007945,8.257618,8.503532,8.613457,8.630232,8.65527,8.679218,8.681247,8.702414,8.748819,8.788692,8.817946,8.846085,8.873081,8.89695,8.919603,8.939524,8.959081,8.978222,8.996365,9.0128975,9.026669,9.039515
7.3140574,7.3233414,7.3310175,7.3380866,7.3423595,7.3451977,7.3480806,7.3502703,7.3538733,7.3606434,7.3689947,7.3752832,7.3774867,7.372862,7.361558,7.349375,7.3414707,7.3407545,7.3480034,7.359065,7.369151,7.3733273,7.3697877,7.361042,7.352211,7.3470087,7.345035,7.3454,7.3459654,7.3454714,7.3436117,7.3413057,7.340045,7.3405633,7.341505,7.341222,7.338546,7.332987,7.3265853,7.3221025,7.3198204,7.3180003,7.3129625,7.3011475,7.281524,7.25823,7.2375674,7.222667,7.2119436,7.2027545,7.1935253,7.184302,7.1779275,7.177846,7.1849566,7.1972036,7.213007,7.231183,7.2515574,7.2737837,7.295001,7.312435,7.32742,7.3426356,7.3602037,7.378915,7.3983097,7.417774,7.4377728,7.460557,7.4870996,7.5126753,7.5404677,7.5669003,7.5914335,7.6159425,7.63951,7.662196,7.689481,7.7165437,7.7409163,7.7618003,7.778598,7.791428,7.802638,7.8163114,7.8386164,7.8658605,7.879174,7.8756294,7.8700676,7.8648205,7.8586583,7.8493214,7.885397,7.965902,8.011616,7.993415,7.9961567,8.013935,7.8896265,7.68688,7.4471846,7.16029,6.858474,6.6487465,6.577237,6.5863132,6.6648045,6.813916,7.0475855,7.3097353,7.518627,7.720787,7.8432055,7.969347,8.0236435,8.013223,7.996764,7.996908,8.009274,8.020365,8.034048,8.044968,8.043108,8.028329,8.016107,8.023204,8.047782,8.0717125,8.092945,8.106724,8.112362,8.110042,8.097674,8.079035,8.059219,8.047006,8.051502,8.072681,8.09083,8.088026,8.082436,8.070135,8.014385,7.9260607,7.8662605,7.8791933,7.9457607,8.018665,8.113932,8.140617,8.137602,8.130641,8.12245,8.112705,8.10272,8.092285,8.080567,8.067717,8.053396,8.037445,8.020797,8.004883,7.989683,7.984893,7.8703413,7.7080617,7.5598755,7.4398766,7.355055,7.2937775,7.2786694,7.3069315,7.389073,7.4943132,7.582164,7.633996,7.643467,7.6459284,7.638487,7.631419,7.629657,7.62801,7.6216373,7.613512,7.598243,7.587809,7.5865154,7.578913,7.558305,7.53881,7.529661,7.5006037,7.534771,7.54243,7.5157385,7.193222,6.243498,4.93227,4.3465767,4.0014005,3.8618698,3.8320725,3.839518,3.851437,3.8563857,3.8618069,3.8642159,3.8643584,3.8658824,3.8709974,3.8787732,3.8865223,3.8913746,3.8883872,3.8736157,3.853446,3.825564,3.793549,3.772926,3.7803493,3.8213987,3.9981198,4.263605,4.6216936,5.0712004,5.4666767,5.6282864,5.6534395,5.7043276,5.7678823,5.8407445,5.9248466,6.008316,6.073105,6.1251383,6.1684256,6.2042747,6.223901,6.2251673,6.2081785,6.179556,6.1555567,6.133045,6.103489,6.0913725,6.104375,6.128089,6.1450477,6.151053,6.149431,6.1401157,6.123419,6.103611,6.083851,6.06772,6.058551,6.052191,6.044592,6.0351157,6.023343,6.0087233,5.9926376,5.9779825,5.965961,5.9568377,5.950293,5.94305,5.9353943,5.927928,5.9194484,5.9096837,5.898779,5.8874865,5.8790436,5.876322,5.881117,5.9038196,5.9586353,6.03397,6.119848,6.2081385,6.300729,6.4197187,6.622748,6.962087,7.4080744,7.8570995,8.274097,8.510175,8.582847,8.606943,8.630752,8.647806,8.660393,8.703913,8.741215,8.76931,8.798729,8.825788,8.849123,8.871462,8.891548,8.911397,8.930883,8.949416,8.966314,8.980431,8.993605
7.3138165,7.3223324,7.329595,7.3366747,7.3413,7.3445654,7.3478374,7.3502645,7.3539104,7.360677,7.369093,7.375409,7.3774676,7.372525,7.360775,7.3482122,7.340172,7.3396435,7.3473787,7.3590574,7.3698387,7.374527,7.371255,7.3625956,7.3537407,7.3484674,7.346449,7.346654,7.3469734,7.3461924,7.344034,7.341529,7.340296,7.341021,7.3422356,7.342284,7.3397946,7.3341236,7.327505,7.3230233,7.3210526,7.3199143,7.315838,7.3045645,7.284853,7.2608194,7.2389784,7.222909,7.211145,7.200945,7.1907306,7.180457,7.172967,7.1718836,7.1783504,7.190469,7.2065954,7.2258863,7.2480125,7.269717,7.288448,7.3042593,7.317685,7.3334084,7.351157,7.369505,7.387945,7.406315,7.4260273,7.449583,7.4752703,7.502853,7.531601,7.562548,7.5915346,7.615334,7.638011,7.6628904,7.691069,7.717885,7.7457476,7.7701387,7.7881184,7.804274,7.818948,7.835164,7.8589497,7.8624697,7.8542485,7.849781,7.8462677,7.844874,7.844555,7.8231564,7.955574,8.013786,7.9614563,7.9729614,7.973879,7.9331274,7.7876396,7.502656,7.036811,6.584317,6.31002,6.1300135,6.0851564,6.1074476,6.1822076,6.3181987,6.4736776,6.641541,6.8589983,7.0712976,7.262801,7.555797,7.786563,7.905271,7.965344,7.9928546,7.9894123,7.9991183,8.010633,8.025242,8.034052,8.026609,8.011383,8.01274,8.032403,8.057524,8.080038,8.095247,8.101332,8.097583,8.085297,8.069557,8.052703,8.041866,8.047601,8.067314,8.082771,8.081699,8.077307,8.062893,8.020958,7.94534,7.892047,7.8959827,7.9395523,8.016745,8.103889,8.122595,8.11751,8.111128,8.102763,8.092759,8.082559,8.071924,8.059996,8.046942,8.032278,8.0157585,7.9983883,7.9817176,7.9658537,7.9579887,7.834448,7.6620865,7.498523,7.354724,7.25426,7.214136,7.2293415,7.272509,7.365257,7.4769073,7.5637608,7.614299,7.62685,7.631756,7.6278925,7.6147375,7.6081047,7.6084595,7.603067,7.594411,7.5829334,7.5748568,7.5674896,7.5543756,7.534771,7.505722,7.4724274,7.493572,7.6208944,7.673607,7.5377812,6.9700418,5.8737645,4.6903515,4.2358937,3.9512877,3.8499718,3.838831,3.850778,3.8647187,3.8732433,3.8765259,3.8749926,3.8699985,3.866736,3.8683991,3.8746424,3.8834097,3.8921032,3.894899,3.8873925,3.8690236,3.8462915,3.8175764,3.786625,3.7728653,3.77921,3.836721,4.0552607,4.3369007,4.6944385,5.135237,5.4910965,5.6351523,5.7161684,5.7868032,5.859583,5.929907,5.9928,6.048911,6.1006126,6.1438675,6.1740084,6.1834617,6.1718,6.139251,6.0907626,6.040402,5.9809837,5.932504,5.910696,5.9154773,5.934842,5.951911,5.9543257,5.9484396,5.9294147,5.899291,5.864588,5.83333,5.8093996,5.7915783,5.77842,5.766534,5.755432,5.744186,5.730641,5.7141504,5.697084,5.682602,5.671702,5.6631002,5.655814,5.649084,5.64213,5.63385,5.6239595,5.615687,5.6091604,5.6050653,5.6052027,5.6112013,5.6259494,5.6520195,5.684203,5.717213,5.720559,5.703166,5.7106266,5.797412,6.007653,6.3768816,7.1106586,7.761303,8.241753,8.4944515,8.557079,8.580765,8.606119,8.63097,8.660405,8.691522,8.7222,8.751703,8.778692,8.801518,8.823542,8.843782,8.863899,8.883665,8.902504,8.919713,8.9341545,8.947632
7.312949,7.3206625,7.3273907,7.334355,7.3392687,7.342982,7.3467875,7.3496904,7.353647,7.3606234,7.3692436,7.375697,7.377747,7.372676,7.3607087,7.3479023,7.3396707,7.339093,7.346962,7.35888,7.370046,7.375108,7.3721294,7.3636656,7.3548594,7.349473,7.3473115,7.347266,7.347321,7.3464136,7.34431,7.342059,7.3412714,7.3425093,7.344181,7.3446436,7.3422832,7.33632,7.3291807,7.3242493,7.3220043,7.320881,7.3173857,7.3062983,7.286315,7.2615485,7.2385216,7.221163,7.20821,7.1969156,7.185832,7.1749024,7.1669426,7.1655836,7.172053,7.184603,7.201549,7.2226133,7.2448177,7.265248,7.281356,7.294018,7.3085923,7.324482,7.3418436,7.3589244,7.3753138,7.3916054,7.410325,7.434097,7.457641,7.4855366,7.5198956,7.555418,7.58434,7.6068606,7.630763,7.65827,7.686022,7.714308,7.743841,7.771505,7.79543,7.817765,7.838127,7.841261,7.8389153,7.8354244,7.8316183,7.827173,7.822961,7.8204584,7.8186703,7.804159,7.8903465,7.9511824,7.940226,7.948181,7.931526,7.6521773,7.445087,6.8497105,6.1119566,5.5938683,5.3539987,5.276684,5.2642546,5.2731533,5.290146,5.31682,5.3643827,5.4405613,5.5472226,5.6881123,5.877262,6.231247,6.7212973,7.279246,7.7536497,7.9801927,7.966077,7.9776516,7.989604,8.002352,8.018566,8.018721,7.999649,8.001786,8.012669,8.038818,8.063909,8.082308,8.090169,8.0851965,8.072044,8.055832,8.045447,8.037712,8.045181,8.062455,8.073975,8.0759735,8.0726795,8.059059,8.017342,7.952649,7.906448,7.902562,7.936365,8.01278,8.092292,8.103622,8.096441,8.090435,8.0819235,8.071787,8.061474,8.050743,8.038654,8.025382,8.0103445,7.9932346,7.9751844,7.95796,7.941695,7.9320774,7.8060474,7.6281548,7.4431067,7.2762218,7.1826963,7.159255,7.1910205,7.2475967,7.3423305,7.458938,7.551563,7.595056,7.6100125,7.616638,7.6141434,7.6037674,7.5891275,7.582462,7.5844145,7.5744553,7.5653915,7.5563145,7.541665,7.52396,7.5056953,7.48265,7.477848,7.6141944,7.608758,7.6261916,7.467083,6.754002,5.5604925,4.5216513,4.126641,3.9154825,3.8502398,3.8503566,3.8640172,3.8779178,3.8881283,3.8881676,3.8823085,3.8726287,3.8652697,3.8638997,3.8684435,3.8773708,3.8886576,3.8966138,3.897067,3.8865142,3.863939,3.8401167,3.8163228,3.7834582,3.7774103,3.7890663,3.886085,4.126134,4.4460707,4.828471,5.2917686,5.587964,5.7308455,5.8209014,5.885007,5.9366846,5.9848633,6.031163,6.0743923,6.1130867,6.134622,6.1290874,6.094328,6.037854,5.957267,5.841543,5.74783,5.6761045,5.6400414,5.6305814,5.6342316,5.640217,5.6372595,5.6241746,5.6015773,5.566993,5.525605,5.4874687,5.4578276,5.434429,5.415839,5.4014544,5.3898344,5.378525,5.3662443,5.3535123,5.3412313,5.3297462,5.3198547,5.3118105,5.3053503,5.2989855,5.292226,5.2847824,5.275676,5.270403,5.269602,5.2724338,5.2783165,5.2872057,5.299863,5.3153296,5.325269,5.322217,5.305808,5.281948,5.2732973,5.3054523,5.3994207,5.586487,5.9755373,6.8128033,7.729662,8.293766,8.478177,8.536205,8.556625,8.583458,8.614106,8.645931,8.676737,8.7059355,8.732723,8.75538,8.777307,8.797725,8.818083,8.838098,8.857199,8.874675,8.889392,8.903135
7.312996,7.3199873,7.3260665,7.33276,7.3378334,7.34193,7.346265,7.349723,7.354107,7.361378,7.3702583,7.3769336,7.37909,7.374071,7.3620944,7.3491583,7.340667,7.339789,7.3474274,7.359191,7.3704014,7.375613,7.372817,7.3644633,7.3555617,7.349841,7.3472996,7.346894,7.346751,7.346072,7.3446627,7.3434005,7.343675,7.345868,7.348267,7.3495836,7.3475885,7.341241,7.3333054,7.3274856,7.3239765,7.320285,7.3153486,7.306758,7.2873116,7.2607136,7.23665,7.218028,7.20401,7.1919146,7.1804795,7.1696773,7.162118,7.161211,7.1681557,7.181345,7.199711,7.220223,7.2412634,7.2577314,7.2701116,7.2837477,7.2983017,7.3137956,7.3300323,7.345088,7.3587427,7.3725853,7.390466,7.414839,7.435837,7.467714,7.507429,7.545208,7.574271,7.5987754,7.6267176,7.654464,7.6783504,7.7034054,7.742244,7.78732,7.8154774,7.8192835,7.8202944,7.819166,7.816338,7.8131437,7.8093243,7.8048773,7.7983503,7.78623,7.775062,7.8686113,7.8980227,7.9126186,7.9200306,7.86105,7.7184157,7.035891,6.1033354,5.39179,4.986591,4.7787724,4.6809483,4.646077,4.6440773,4.6525254,4.6550493,4.654051,4.6622486,4.6843123,4.7170506,4.7660146,4.844403,4.965523,5.170941,5.612421,6.4402246,7.4328437,7.9618106,7.9789667,7.971344,7.9797325,7.9966993,8.001712,7.99051,7.9881763,7.9935045,8.021419,8.049654,8.069874,8.079142,8.075136,8.060914,8.044165,8.03617,8.03449,8.046242,8.06008,8.0665,8.07119,8.068449,8.0543,8.018649,7.955335,7.903532,7.8968034,7.933145,8.0043335,8.075608,8.08292,8.074959,8.068985,8.060293,8.049998,8.039568,8.028767,8.016521,8.003018,7.9875774,7.969815,7.9510427,7.9333134,7.9164286,7.912976,7.790292,7.5966573,7.3869605,7.2090187,7.1209564,7.104002,7.1449356,7.2142725,7.3111286,7.438694,7.543586,7.576254,7.593918,7.602005,7.599972,7.588969,7.574791,7.5666223,7.564228,7.555091,7.5432935,7.5291386,7.512619,7.49467,7.3863535,7.769616,8.9848795,7.681076,7.536706,7.598875,7.4373436,6.5586643,5.2183094,4.382718,4.052259,3.890366,3.8512542,3.8581858,3.8743982,3.8922205,3.9015827,3.8976417,3.8875437,3.8739715,3.8635278,3.8598447,3.862746,3.87104,3.883395,3.8947978,3.9020653,3.8997264,3.88349,3.8589447,3.834283,3.8095493,3.7803025,3.7741861,3.8126802,3.9670725,4.231801,4.5944443,5.061063,5.508142,5.732299,5.825862,5.877384,5.925228,5.9699907,6.013021,6.0509014,6.075548,6.0778604,6.049861,5.995971,5.885743,5.7015305,5.512772,5.3976746,5.3313074,5.306618,5.3053846,5.310834,5.3129044,5.3063197,5.2910404,5.2676764,5.235342,5.1995945,5.167508,5.142946,5.125854,5.1143627,5.103834,5.0957127,5.0890417,5.0825896,5.0761385,5.0698643,5.063448,5.057768,5.05179,5.0454745,5.039003,5.0314693,5.0222573,5.0134163,5.0085454,5.0078635,5.0106287,5.0177755,5.0304313,5.0467052,5.061489,5.0705657,5.068576,5.0546494,5.035997,5.0265408,5.0394745,5.0871553,5.188404,5.371551,5.825154,6.7758408,7.7892447,8.351411,8.499651,8.508324,8.535864,8.567511,8.600225,8.63105,8.659654,8.686134,8.708733,8.730635,8.7512455,8.771849,8.792107,8.81146,8.829195,8.844182,8.858188
7.31308,7.319392,7.3246894,7.3309464,7.336052,7.3404455,7.3452854,7.349291,7.354108,7.3616695,7.3707895,7.3777413,7.3801727,7.375471,7.363816,7.350977,7.342231,7.3408413,7.3478966,7.359125,7.370022,7.375141,7.3723736,7.3639736,7.354739,7.3483677,7.345109,7.344191,7.3439627,7.3440447,7.344221,7.3449273,7.347171,7.351209,7.354991,7.353636,7.34883,7.3412623,7.332543,7.32512,7.3197074,7.3153687,7.3097587,7.301138,7.2834644,7.257739,7.2320967,7.212368,7.197645,7.1853256,7.1743984,7.1648464,7.1587834,7.1591067,7.1670084,7.1811047,7.197634,7.21448,7.23035,7.2434697,7.2553062,7.2687297,7.2825203,7.29683,7.311121,7.323859,7.334895,7.346671,7.3650646,7.392481,7.4092073,7.447242,7.4955044,7.535137,7.5651608,7.591629,7.6121283,7.6336546,7.6561193,7.6921234,7.7494187,7.791891,7.7989416,7.7959833,7.79325,7.7917557,7.7894545,7.7864256,7.783309,7.7691994,7.769252,7.852172,7.845915,7.8701763,8.036606,8.04007,7.7590747,7.196563,6.2151113,5.4823294,4.8939123,4.5033054,4.3021917,4.2251596,4.205948,4.213245,4.2307878,4.2456465,4.2478824,4.2410784,4.233408,4.2290277,4.2279806,4.2308984,4.246481,4.287754,4.4051,4.647206,5.1200895,5.9673424,7.1501555,7.8350325,7.97311,7.9610815,7.969347,7.9829106,7.986063,7.9764223,7.9799175,8.004819,8.036217,8.056341,8.064854,8.065319,8.052448,8.034324,8.025612,8.030562,8.04554,8.053938,8.054804,8.061096,8.058737,8.042037,8.009466,7.942787,7.878056,7.866333,7.914183,7.9882994,8.052693,8.057856,8.04933,8.042979,8.034497,8.024709,8.014547,8.003904,7.9915752,7.9777517,7.9619045,7.9437504,7.924555,7.906267,7.88865,7.8855205,7.772688,7.56726,7.3251753,7.1252093,7.0370417,7.0233746,7.068489,7.159749,7.264763,7.4100704,7.536786,7.560182,7.580323,7.5885773,7.587088,7.573619,7.559129,7.549012,7.538722,7.5272913,7.5124235,7.4966383,7.4797153,7.4614143,7.40148,7.561508,8.107847,7.590805,7.5223036,7.576286,7.378071,6.3479195,4.9279156,4.275688,3.9994307,3.8771544,3.857862,3.8685071,3.8860607,3.906654,3.9133966,3.9048991,3.8909295,3.8746917,3.862529,3.8574944,3.858942,3.8657067,3.8771625,3.8896236,3.901145,3.9059567,3.8980055,3.877834,3.8525567,3.8279662,3.8004563,3.7770934,3.7856016,3.8677535,4.076209,4.4031057,4.803241,5.322854,5.6940174,5.829286,5.875234,5.9219227,5.961405,5.9876323,6.012422,6.0267673,6.002204,5.9492354,5.8084803,5.5724545,5.336617,5.1869574,5.110652,5.0743656,5.06592,5.0703554,5.0750866,5.0732756,5.0643783,5.051899,5.0348654,5.0128736,4.9891396,4.968074,4.9526157,4.943106,4.937771,4.9333615,4.9302597,4.92815,4.9264426,4.923646,4.91884,4.9138536,4.908619,4.9014506,4.892569,4.882816,4.8729954,4.8638167,4.8562317,4.8515644,4.849862,4.852227,4.859625,4.871928,4.887085,4.9014997,4.911888,4.9139724,4.905292,4.8875813,4.870734,4.8704147,4.9007645,4.9687567,5.0718246,5.2731028,5.832312,6.8791723,7.9255137,8.367609,8.458773,8.485634,8.515469,8.549276,8.580375,8.608839,8.635288,8.657897,8.679843,8.700632,8.72145,8.741913,8.761471,8.7794285,8.794655,8.808896
7.31343,7.3188305,7.32331,7.329183,7.3342767,7.3389254,7.344207,7.348683,7.353861,7.361618,7.370877,7.378105,7.3809786,7.3768916,7.3659525,7.353567,7.3447394,7.3427896,7.3490653,7.3595285,7.3698955,7.3748,7.3719873,7.3634353,7.353695,7.3464556,7.342287,7.340824,7.340695,7.341926,7.344346,7.348066,7.352824,7.3568215,7.357547,7.3537254,7.346946,7.337978,7.3282776,7.3197837,7.3131347,7.3083477,7.3022585,7.292618,7.2773285,7.253757,7.2264805,7.205741,7.190503,7.1782846,7.16833,7.1605873,7.1564074,7.1579747,7.165987,7.178047,7.1887064,7.2020464,7.2139044,7.224568,7.2362595,7.2489963,7.262056,7.2759523,7.290045,7.3020782,7.312304,7.325779,7.3469057,7.372879,7.3946342,7.4445305,7.4945955,7.5230703,7.539442,7.5606833,7.585418,7.6133533,7.652919,7.7138586,7.759132,7.7712603,7.7669106,7.764535,7.763335,7.7623696,7.7600303,7.7579846,7.741871,7.74522,7.802695,7.853778,7.8796606,7.788089,7.9703336,7.7701406,6.8543715,5.7382174,4.87267,4.4159327,4.1965494,4.069604,4.0026045,3.990557,4.0062456,4.0285225,4.050563,4.066057,4.070832,4.067754,4.0612593,4.0544996,4.0485964,4.0415487,4.0266204,4.024698,4.0714808,4.1800957,4.3877554,4.8619814,5.8258433,7.189212,7.856544,7.9694943,7.941305,7.957736,7.9714594,7.974222,7.9763136,7.9982715,8.022336,8.036022,8.042973,8.048318,8.045435,8.027354,8.017234,8.024776,8.038686,8.042053,8.039507,8.044582,8.040572,8.021099,7.9861565,7.910839,7.827279,7.796093,7.843631,7.94644,8.026552,8.031636,8.020527,8.013696,8.005791,7.997141,7.9876027,7.9773192,7.965043,7.9508305,7.9345574,7.916232,7.8968434,7.8779097,7.8593144,7.855982,7.7396846,7.5178576,7.2386684,7.007415,6.922945,6.903778,6.930027,7.049551,7.188165,7.376278,7.534849,7.5447273,7.569809,7.5828733,7.556223,7.542859,7.4800243,7.448097,7.517122,7.4934697,7.4774694,7.461593,7.4444504,7.4270916,7.3964996,7.374199,7.4184074,7.5128355,7.501611,7.5704765,7.1848297,5.995688,4.694556,4.188258,3.957313,3.8718314,3.8644338,3.8782628,3.8985748,3.9189239,3.9217863,3.908915,3.89213,3.874876,3.862605,3.857353,3.857739,3.8623748,3.8712525,3.882269,3.894693,3.9038274,3.9036093,3.8911715,3.8687222,3.8425462,3.822157,3.7906146,3.7818644,3.8198395,3.9633474,4.2266836,4.5789976,5.0861306,5.604642,5.815441,5.883591,5.930272,5.9545746,5.963971,5.971481,5.961599,5.9101124,5.7795954,5.5236835,5.2346544,5.055278,4.9752917,4.947883,4.9391217,4.937619,4.9391356,4.938918,4.9337044,4.9269557,4.920532,4.912858,4.9035974,4.8935866,4.885131,4.8797226,4.87636,4.8730326,4.87043,4.8680325,4.865986,4.8643255,4.862254,4.8591394,4.8559527,4.852316,4.846558,4.8391805,4.8311043,4.823907,4.818144,4.8123703,4.8084354,4.804536,4.8031,4.806711,4.8151197,4.8264217,4.8387184,4.8473234,4.8502755,4.8447447,4.8295555,4.8097153,4.7973404,4.8054085,4.8392096,4.917541,5.0470514,5.2911634,5.985366,7.122792,8.099788,8.406944,8.435013,8.459923,8.494848,8.526477,8.555269,8.581957,8.604614,8.62665,8.647606,8.668608,8.689238,8.708955,8.727098,8.742543,8.756997
7.310609,7.316158,7.3213086,7.3267307,7.3319893,7.3369865,7.342726,7.3476477,7.3531246,7.361017,7.3704515,7.378126,7.381414,7.3780904,7.36825,7.3567753,7.3482265,7.3459244,7.351514,7.3612633,7.371224,7.3761406,7.3734303,7.3647294,7.3544683,7.346424,7.3414087,7.3395686,7.339879,7.3428106,7.3473186,7.3517056,7.354739,7.355504,7.352887,7.348727,7.3424273,7.3332005,7.322571,7.3131886,7.3059387,7.3005204,7.2940874,7.2840166,7.269474,7.248644,7.223125,7.200032,7.1839747,7.1714983,7.161998,7.1552935,7.1517725,7.1529493,7.1586347,7.1640315,7.168826,7.1787753,7.1898108,7.200097,7.211155,7.2242727,7.23891,7.2551346,7.272222,7.2881355,7.3046217,7.3226347,7.3433,7.370555,7.4063783,7.444337,7.4713836,7.490521,7.5115757,7.542412,7.5850277,7.6324487,7.686657,7.733347,7.7444057,7.737136,7.73254,7.7244368,7.7237253,7.7297077,7.7287073,7.719023,7.730934,7.8098545,7.911089,7.8832874,7.7926807,7.759894,7.656453,6.8366404,5.500003,4.558113,4.2583675,4.068638,3.9488513,3.9153361,3.9287848,3.955147,3.9835773,4.005892,4.0246224,4.0391035,4.046278,4.047372,4.045602,4.0428257,4.0375214,4.0254145,3.9964955,3.9627447,3.9317696,3.9576683,4.104874,4.3938646,4.8549304,6.132204,7.412467,7.9188128,7.9348836,7.928233,7.945484,7.963022,7.9701986,7.988517,8.002516,8.010484,8.016645,8.023537,8.029053,8.02134,8.01114,8.016237,8.025179,8.024725,8.020308,8.020876,8.012821,7.991532,7.948415,7.859865,7.762642,7.714992,7.745816,7.8541155,7.9825573,8.003321,7.9915495,7.983222,7.9758906,7.9682503,7.9592752,7.949333,7.937067,7.9223423,7.905611,7.88729,7.8679695,7.848562,7.8291054,7.8276615,7.698415,7.4232054,7.0928283,6.8366146,6.711727,6.6388044,6.6232357,6.750211,7.0085664,7.297044,7.483242,7.5337315,7.5611954,7.5565834,7.615879,7.5776777,7.7522087,7.8030663,7.4295535,7.458091,7.441803,7.425417,7.4077773,7.3828983,7.3812723,7.4353104,7.507784,7.482347,7.4737525,7.453657,6.8616,5.6270313,4.503198,4.1084056,3.9241595,3.870566,3.869225,3.8867083,3.9106598,3.9282708,3.9266915,3.9101171,3.8916733,3.8747802,3.8636374,3.8590608,3.858812,3.8611252,3.8664773,3.87433,3.8848965,3.895317,3.9008467,3.8966105,3.8805447,3.8566048,3.836114,3.8105898,3.7887542,3.801105,3.8863459,4.0834694,4.4109316,4.840924,5.4486694,5.761512,5.8808603,5.9317245,5.945404,5.9432697,5.927622,5.88684,5.78842,5.5429482,5.230727,5.007122,4.9186935,4.888628,4.8847246,4.8846397,4.8840423,4.8831835,4.880476,4.8756332,4.873104,4.872278,4.871949,4.8719544,4.872121,4.8725233,4.873104,4.873088,4.8710637,4.8685026,4.865116,4.8615694,4.858285,4.855746,4.854231,4.852899,4.8514986,4.848571,4.844592,4.840296,4.83671,4.8337364,4.829631,4.826173,4.8209457,4.816074,4.813962,4.815935,4.8217883,4.8295956,4.835294,4.838422,4.83619,4.826688,4.8113303,4.7947106,4.782896,4.781807,4.8225384,4.929206,5.095101,5.440996,6.2850657,7.526228,8.178686,8.364178,8.411833,8.439562,8.473067,8.496374,8.510123,8.534025,8.555998,8.575127,8.608427,8.6373625,8.655558,8.673863,8.689486,8.704111
7.303024,7.309868,7.317297,7.3234262,7.3290114,7.334564,7.340873,7.3462753,7.3520927,7.3602767,7.3699393,7.3776307,7.3811293,7.379205,7.370788,7.360509,7.3526535,7.350341,7.355567,7.3649254,7.3744807,7.379257,7.376952,7.36889,7.358806,7.350301,7.3449183,7.342968,7.34317,7.3462367,7.349839,7.350808,7.348775,7.345923,7.3432026,7.3389044,7.332905,7.324172,7.3137636,7.304331,7.2970133,7.291611,7.285491,7.2758436,7.260627,7.2417183,7.2201996,7.1962395,7.1785636,7.164731,7.154273,7.14679,7.1417975,7.140276,7.1415863,7.13974,7.14147,7.147728,7.1599483,7.172639,7.1846523,7.200687,7.220174,7.242132,7.2668915,7.2883124,7.3092365,7.329151,7.347827,7.373546,7.4062395,7.4201975,7.432635,7.465312,7.5163755,7.5723557,7.6287203,7.6777,7.713905,7.7133217,7.7052746,7.701433,7.7068768,7.726355,7.7237296,7.701174,7.693982,7.6786385,7.728202,7.838837,7.9024725,7.8880477,7.690887,7.714,7.0777073,5.679083,4.5421963,4.23287,3.9947653,3.9100394,3.9043593,3.9317646,3.9558675,3.9754055,4.0007515,4.0264997,4.0469666,4.0632153,4.072487,4.075489,4.0747166,4.071436,4.062804,4.04245,4.0136795,3.9888263,3.948154,3.9121728,3.9461057,4.126968,4.515341,5.1966753,6.7358875,7.7422247,7.9489646,7.900424,7.9171896,7.934635,7.95076,7.9652247,7.9766645,7.9846573,7.9907794,7.9964895,8.001708,8.007426,8.001661,8.003463,8.006773,8.003691,7.9972878,7.9917784,7.9794393,7.956822,7.902972,7.804634,7.704917,7.6541796,7.666991,7.742778,7.9159517,7.9674935,7.963258,7.953558,7.9462533,7.9390507,7.93034,7.9205995,7.9081764,7.8927875,7.875571,7.8574057,7.83844,7.8188887,7.798874,7.8040214,7.6475487,7.274046,6.8557916,6.5563874,6.3580904,6.2164273,6.1622744,6.2722793,6.664396,7.0975046,7.370736,7.5277166,7.5442076,7.508956,7.707597,7.6662445,8.076438,8.217221,7.3900537,7.4221373,7.4059925,7.3891315,7.370839,7.333455,7.3961077,7.523066,7.46419,7.4438457,7.45761,7.2668285,6.5137033,5.320942,4.3509903,4.036755,3.9027224,3.870762,3.8741338,3.8952613,3.920865,3.9345026,3.9285755,3.9092813,3.8902225,3.8746028,3.8652723,3.8618798,3.861395,3.861627,3.863399,3.8675585,3.874868,3.8844056,3.8932629,3.8958116,3.887197,3.8682957,3.8457766,3.8278265,3.8015008,3.795991,3.8436265,3.991465,4.2703233,4.611553,5.222014,5.658503,5.8475304,5.9061055,5.926137,5.911899,5.8728065,5.8018427,5.628293,5.3091383,5.0287232,4.902892,4.8645926,4.8621535,4.8654356,4.8683076,4.872684,4.8754616,4.874522,4.8723316,4.8722553,4.8746824,4.878476,4.8834696,4.8889685,4.8935966,4.896884,4.899313,4.899856,4.898951,4.8962126,4.8926644,4.8890066,4.8858624,4.883835,4.882547,4.881501,4.8794165,4.876443,4.872923,4.869442,4.8662286,4.8626184,4.858355,4.8524566,4.8464155,4.8397856,4.83473,4.834117,4.836873,4.841158,4.8460674,4.8486347,4.8446393,4.834081,4.818989,4.8012123,4.78617,4.7835026,4.8374853,4.987314,5.21136,5.734071,6.7483435,7.773629,8.273108,8.373703,8.386375,8.411636,8.4545145,8.524471,8.543687,8.566542,8.594188,8.575508,8.573887,8.603666,8.621391,8.637133,8.651875
7.2938967,7.3013163,7.3105164,7.31985,7.326094,7.33239,7.3393593,7.3453274,7.351613,7.3601284,7.3694797,7.3758903,7.3793983,7.3798237,7.373633,7.3648834,7.357909,7.3557887,7.3606796,7.3695593,7.377884,7.381344,7.3794355,7.3733397,7.3648567,7.35666,7.3516197,7.3495326,7.347984,7.3473063,7.345566,7.342288,7.3389807,7.3353467,7.3313036,7.325014,7.316885,7.307605,7.2988005,7.2915483,7.285262,7.2804723,7.275318,7.2667127,7.2523518,7.2329836,7.212187,7.192831,7.1733465,7.157121,7.144226,7.1342463,7.126403,7.121317,7.118866,7.1151056,7.115452,7.1209126,7.135233,7.151406,7.1675496,7.1895323,7.2153683,7.2436385,7.276332,7.296238,7.305057,7.319917,7.3419857,7.351164,7.354009,7.3863845,7.4410276,7.5016475,7.5616755,7.6223373,7.673626,7.686822,7.6828084,7.6780167,7.6743727,7.6627016,7.696827,7.799087,7.790576,7.682478,7.6570296,7.659139,7.652212,7.6423826,7.6342435,7.630554,7.664875,7.3758473,6.1744337,4.9285145,4.287149,4.0053115,3.9031532,3.9079964,3.920302,3.9475758,3.978701,4.0037003,4.0247793,4.046056,4.062853,4.0759525,4.084075,4.088662,4.0899515,4.0869927,4.078015,4.0592804,4.0327206,4.004065,3.9625978,3.9261575,3.920557,4.0059366,4.2966213,4.77143,6.1767254,7.48397,7.9421473,7.8778524,7.8904257,7.9084787,7.9240074,7.939355,7.9514484,7.9595184,7.965455,7.9708924,7.9755497,7.9792857,7.982932,7.9846497,7.984546,7.98071,7.972537,7.961909,7.9475703,7.9234686,7.862232,7.7663774,7.6684213,7.6110706,7.6167636,7.679841,7.8499026,7.9234567,7.933659,7.925684,7.9176865,7.910718,7.9021473,7.892523,7.8799133,7.86389,7.8462305,7.828245,7.80967,7.7900944,7.769971,7.7799354,7.561043,7.075305,6.535737,6.1529164,5.938237,5.803322,5.7378297,5.8313646,6.2015815,6.7504086,7.241876,7.502601,7.5095553,7.4802217,7.621935,7.670705,7.621722,7.607485,7.5772715,7.3851275,7.3708324,7.3543015,7.335328,7.3002744,7.3498387,7.4617543,7.4293633,7.4076033,7.428659,7.2075443,6.20354,4.9563503,4.243468,3.9805636,3.8903272,3.870532,3.8798542,3.9041643,3.9282446,3.9371054,3.9273567,3.906574,3.8879473,3.87426,3.8670878,3.8651302,3.8647985,3.8635707,3.8624663,3.8633585,3.8672132,3.8746085,3.8843808,3.8911557,3.8887148,3.8757641,3.8559155,3.8330417,3.813891,3.799222,3.8204808,3.9245982,4.131444,4.4266796,4.9546347,5.511197,5.783225,5.852594,5.8838406,5.8569045,5.807641,5.6952887,5.451174,5.146386,4.931993,4.85711,4.8476357,4.849039,4.8633485,4.880956,4.8929834,4.89694,4.894902,4.8915596,4.892054,4.8962994,4.9027276,4.9109526,4.919464,4.9275565,4.9353604,4.9417853,4.9434237,4.943081,4.940286,4.936126,4.9314976,4.9273443,4.924591,4.9230022,4.921929,4.9202385,4.9178724,4.914929,4.91175,4.908249,4.903528,4.8976398,4.8890505,4.8797317,4.86942,4.8595247,4.8536057,4.8532543,4.85613,4.8622017,4.868202,4.869051,4.8606424,4.84145,4.8156056,4.795447,4.780642,4.7933493,4.898093,5.0814056,5.4240847,6.164958,7.39443,8.142612,8.323462,8.337053,8.350685,8.475376,8.7099285,8.714855,8.740399,8.793844,8.624034,8.510527,8.551424,8.57134,8.587145,8.60198
7.2840085,7.2918777,7.3019214,7.313444,7.3229556,7.330098,7.3377905,7.3448186,7.3517637,7.359005,7.3656445,7.370705,7.373996,7.3749876,7.3749437,7.3700614,7.3633256,7.361123,7.364088,7.3699126,7.374715,7.3751497,7.3722105,7.3671775,7.3611526,7.355591,7.3510103,7.3474636,7.3442497,7.341281,7.337861,7.3335295,7.32853,7.323127,7.3168077,7.3081417,7.2982836,7.2879353,7.2782936,7.270783,7.265637,7.261849,7.25774,7.250646,7.238349,7.221298,7.201903,7.182501,7.1647477,7.146606,7.130427,7.1170177,7.1061087,7.0988693,7.095993,7.093854,7.0970125,7.1101274,7.124952,7.1419,7.165333,7.195411,7.229121,7.2567177,7.2679234,7.273015,7.275667,7.2767153,7.28679,7.3199024,7.3651943,7.4206734,7.4848757,7.548868,7.611102,7.6562824,7.6616383,7.657805,7.6528225,7.6484303,7.6443634,7.6398573,7.640952,7.6497235,7.6472025,7.6377134,7.6390247,7.6424537,7.6421065,7.6388464,7.6404643,7.6371546,7.436966,6.862303,5.5970554,4.565237,4.1520834,3.942325,3.9218557,3.9227705,3.9519253,3.976701,4.0012684,4.0277195,4.049118,4.066704,4.079756,4.089466,4.0960045,4.1010456,4.104821,4.1060677,4.101346,4.083996,4.05434,4.01756,3.9837408,3.9488168,3.9306045,3.9853535,4.1762457,4.605317,5.6925435,7.1291885,7.8675456,7.8659773,7.862604,7.8811293,7.896868,7.9122095,7.9244375,7.9329205,7.9391246,7.944312,7.9484806,7.951968,7.955386,7.957306,7.9579754,7.9551215,7.9459667,7.9320173,7.9184675,7.8933573,7.833847,7.744438,7.6483593,7.585664,7.5857744,7.6423306,7.80721,7.8832955,7.9009724,7.8966055,7.887943,7.8812985,7.8727894,7.8630514,7.850326,7.8341885,7.816412,7.798316,7.779594,7.7599792,7.7424307,7.6992702,7.412011,6.80214,6.186562,5.827823,5.62967,5.518113,5.4571304,5.503706,5.758478,6.3280325,6.995142,7.3807135,7.475583,7.4467463,7.599394,7.641338,7.5952406,7.584802,7.536435,7.3523083,7.33748,7.3201838,7.300606,7.278962,7.255763,7.2879353,7.4103694,7.381266,7.4392786,7.020853,5.81005,4.650568,4.172348,3.942874,3.886914,3.8721523,3.8867457,3.9129708,3.9331322,3.9364567,3.923291,3.9020672,3.884677,3.873415,3.8687096,3.8684442,3.8686543,3.8666334,3.8634734,3.8616595,3.8622155,3.8668327,3.875708,3.8843777,3.886488,3.8792117,3.863356,3.8400617,3.823813,3.8052375,3.8058033,3.8692946,4.024742,4.2866364,4.69429,5.3027945,5.6744003,5.778827,5.804661,5.7830215,5.732543,5.5713625,5.2992134,5.0408945,4.8922644,4.848092,4.8495398,4.8648653,4.893162,4.9167404,4.9263706,4.923755,4.9154453,4.9082575,4.90758,4.912387,4.920012,4.9295635,4.9390545,4.947494,4.954999,4.9611955,4.9644566,4.9658732,4.9649987,4.9609528,4.9551845,4.9500628,4.9465866,4.944517,4.9431887,4.941526,4.939356,4.936668,4.9336934,4.9302464,4.92539,4.919119,4.909731,4.899154,4.8870516,4.8744335,4.864769,4.860529,4.8605223,4.8662844,4.874316,4.8799706,4.877165,4.860452,4.831406,4.8027472,4.78271,4.78477,4.8457866,5.00159,5.2676744,5.7678967,6.7638664,7.7291327,8.204652,8.285522,8.410515,8.607808,8.631727,8.638117,8.662252,8.706863,8.745445,8.601095,8.460841,8.523319,8.537528,8.552477
7.273271,7.2816935,7.292366,7.304649,7.315262,7.323706,7.3315735,7.338415,7.344761,7.351054,7.357006,7.3619814,7.365383,7.3667507,7.367257,7.3664694,7.3642764,7.3626437,7.363615,7.365445,7.3671093,7.3664775,7.3635645,7.358975,7.3538237,7.3492985,7.345331,7.341918,7.338503,7.334648,7.329694,7.323347,7.3159304,7.3079414,7.2991486,7.288467,7.27699,7.26548,7.255081,7.2470493,7.2417235,7.238856,7.2361116,7.230721,7.2201395,7.2042847,7.1853356,7.166078,7.148897,7.132417,7.113966,7.097191,7.0854607,7.080698,7.0820704,7.0839186,7.090657,7.103961,7.1218576,7.1438265,7.1718655,7.2022347,7.22138,7.2204585,7.214718,7.2113943,7.216242,7.240236,7.2832127,7.327258,7.3817234,7.4412274,7.5041723,7.560667,7.6097455,7.6426473,7.646105,7.6529417,7.659522,7.660219,7.6591654,7.659541,7.658965,7.657446,7.662958,7.635705,7.567955,7.4887333,7.420331,7.3685083,7.320456,7.2396016,7.0919847,6.2695823,5.1670256,4.391007,4.0657787,3.9448876,3.9361875,3.9570909,3.9804487,4.0059843,4.0331345,4.0558987,4.0701904,4.079546,4.0862722,4.090914,4.094616,4.0990124,4.1047063,4.1109977,4.1136084,4.10326,4.0784945,4.0403643,3.9977987,3.9660144,3.9517598,3.9791558,4.1209373,4.494068,5.3163567,6.8048363,7.7660513,7.8534575,7.831855,7.850749,7.8665705,7.881715,7.894106,7.903349,7.9101276,7.9150157,7.918474,7.9216084,7.924784,7.9265847,7.927158,7.9250593,7.91642,7.900639,7.885312,7.86653,7.8077507,7.726147,7.642394,7.581664,7.572853,7.627145,7.7784567,7.847739,7.866409,7.863797,7.855047,7.848806,7.840308,7.830304,7.817471,7.8014574,7.783716,7.7653656,7.7462263,7.7264357,7.7113276,7.624192,7.2019567,6.4932976,5.885065,5.584504,5.4254494,5.3325677,5.2696276,5.2799306,5.440523,5.9125285,6.6252527,7.223748,7.4551725,7.425899,7.42883,7.528383,7.5762887,7.5597267,7.5158415,7.3162575,7.3012896,7.283438,7.2632747,7.2435875,7.216653,7.200825,7.2240424,7.21089,7.222456,6.542985,5.3284674,4.4144783,4.098131,3.91851,3.8888311,3.8788753,3.896418,3.9213848,3.935498,3.9326067,3.9165757,3.8959699,3.8806746,3.872354,3.870336,3.8718512,3.8727887,3.8704033,3.8657684,3.8617244,3.859148,3.8605218,3.8671591,3.8759003,3.8811607,3.8793201,3.8686166,3.8483303,3.8294785,3.8129048,3.8039522,3.83411,3.9474306,4.1576176,4.4657063,5.0022335,5.497647,5.708719,5.7120953,5.700876,5.6226864,5.4294395,5.1783237,4.9767075,4.875516,4.85277,4.86761,4.9005427,4.935951,4.9572163,4.956359,4.941308,4.9238486,4.911931,4.9098024,4.914907,4.923128,4.932851,4.9417624,4.948922,4.954798,4.95957,4.962144,4.96325,4.9622016,4.9591603,4.9550385,4.9504356,4.945997,4.9433966,4.941644,4.9396944,4.937327,4.934556,4.931655,4.9284735,4.924113,4.9184456,4.9097314,4.8996267,4.8874407,4.8740234,4.862258,4.854271,4.8519936,4.855294,4.8631406,4.8726416,4.8766775,4.8669834,4.842354,4.8128376,4.7859745,4.781965,4.8193297,4.9371886,5.141218,5.4922333,6.2105074,7.3661613,8.123658,8.262467,8.370899,8.5574665,8.567256,8.824327,8.868122,8.67344,8.660498,8.698116,8.569656,8.4212475,8.484861,8.499046
