6.2695446,6.3086443,6.352865,6.3950844,6.4280744,6.4529576,6.478815,6.5100217,6.541154,6.564052,6.5752983,6.579838,6.583317,6.590886,6.598528,6.6023273,6.603959,6.6074705,6.6169844,6.6306734,6.645154,6.6598454,6.677894,6.705395,6.7444105,6.7811165,6.7969275,6.779024,6.718689,6.6274376,6.5917153,6.623876,6.6909385,6.7561255,6.793886,6.8121176,6.838239,6.899659,6.9977055,7.1219826,7.2424135,7.3157463,7.3571186,7.37704,7.386612,7.3935103,7.408061,7.431236,7.4453373,7.4541235,7.4537497,7.416506,7.30715,7.1181307,6.8891115,6.721728,6.649622,6.6370916,6.6499004,6.6693864,6.700819,6.773965,6.949686,7.328843,8.0112095,8.738245,9.20341,9.412482,9.498352,9.556073,9.587854,9.643255,9.696001,9.720319,9.716579,9.715464,9.722093,9.735964,9.75485,9.773453,9.791555,9.811073,9.827252,9.837461,9.848673,9.862108,9.876922,9.890762,9.900721,9.906839,9.91098,9.914677,9.916371,9.913595,9.903736,9.888168,9.870077,9.851552,9.833422,9.816595,9.801334,9.788043,9.776477,9.766668,9.75832,9.75043,9.740135,9.722427,9.69124,9.643995,9.58272,9.514118,9.44714,9.385998,9.327496,9.26383,9.190344,9.107552,9.020538,8.940412,8.86874,8.798138,8.724113,8.652573,8.59219,8.568852,8.55772,8.543039,8.527392,8.502098,8.465733,8.416744,8.372678,8.335688,8.2866,8.225579,8.162895,8.097541,8.01577,7.9247985,7.825263,7.704332,7.584881,7.5032673,7.437825,7.362591,7.22605,6.804545,5.92188,4.8166986,4.272601,3.9326158,3.7170978,3.6084082,3.5378232,3.4843097,3.4328146,3.3728676,3.305581,3.2372797,3.1737218,3.1214147,3.0783281,3.0396035,3.0029693,2.9641037,2.9224067,2.8765643,2.8239884,2.7590637,2.678907,2.600572,2.5308444,2.4726527,2.4323516,2.4150789,2.4132423,2.4209273,2.432356,2.442918,2.4547086,2.4679942,2.485001,2.5070345,2.5337033,2.5587013,2.5767474,2.5884333,2.594234,2.5961714,2.596297,2.596986,2.5987263,2.6010244,2.6026754,2.6032267,2.6017034,2.5999157,2.5986123,2.5992312,2.5992618,2.5991797,2.5992744,2.5996194,2.6001153,2.6007419,2.601501,2.6022866,2.603122,2.6039884,2.6045966,2.6042418,2.6026406,2.5996456,2.5959702,2.5919533,2.5879924,2.583918,2.5795653,2.5747623,2.5695353,2.5644114,2.5592632,2.5538821,2.5477633,2.5391011,2.5292754,2.5219765,2.5174265,2.517909,2.519868,2.524138,2.5446324,2.599333,2.7031875,2.8364177,2.9430861,2.975521,2.9659693,2.9511206,2.9333322,2.925262,2.9263802,2.9319196,2.9341626,2.9313326,2.9273515,2.9263053,2.9263744,2.925663,2.9222918,2.916469,2.910534,2.9062378,2.9041958,2.9032433,2.901866,2.8989468,2.894888,2.8914208,2.8899503,2.8903356,2.8918552,2.8949127,2.8991077,2.9058037,2.9158762,2.9273949,2.9406052,2.9684653,3.023859,3.1174505,3.2483435,3.4078276,3.5435505,3.613299,3.6464667,3.6525226,3.6469302,3.634328,3.6113055,3.5889876,3.5654492,3.5449533,3.5290198,3.5212574,3.5216632,3.5258567,3.526879,3.5202675,3.506086,3.488657,3.4727886,3.4579268,3.4409347,3.4160438,3.3848639,3.349931,3.3131576,3.2789392,3.2520423,3.2334557,3.225172,3.224718,3.229333,3.2324004,3.231093
6.2594547,6.2982073,6.3446474,6.38925,6.4238176,6.4494333,6.4763045,6.5078826,6.538923,6.560403,6.56904,6.57201,6.5786715,6.5889044,6.599046,6.606634,6.6070232,6.60767,6.616503,6.6298428,6.6422167,6.6520867,6.6641703,6.6865444,6.7217517,6.75714,6.7717924,6.7526646,6.688177,6.5987067,6.57138,6.6107535,6.680576,6.7452564,6.7795906,6.793282,6.812504,6.863908,6.952275,7.0670547,7.181484,7.2598386,7.3044944,7.325136,7.333975,7.341838,7.3643208,7.3922796,7.409956,7.42323,7.412025,7.3300138,7.1230793,6.806267,6.5235343,6.3564196,6.278817,6.251293,6.2453966,6.2395945,6.242957,6.274886,6.349319,6.505653,6.862914,7.577076,8.4533415,9.102716,9.399509,9.521965,9.580612,9.6191435,9.677701,9.726747,9.732906,9.7250395,9.724182,9.732224,9.748156,9.766038,9.785458,9.804456,9.82332,9.837802,9.84803,9.859602,9.872176,9.883875,9.892063,9.897165,9.901274,9.905727,9.908165,9.905607,9.895225,9.8784275,9.858885,9.838985,9.81991,9.802932,9.788532,9.776985,9.767376,9.7591715,9.75099,9.740162,9.723398,9.696789,9.657382,9.605586,9.543668,9.476593,9.411161,9.350981,9.293489,9.232045,9.162304,9.081238,8.996355,8.921646,8.85742,8.794347,8.72567,8.658155,8.605604,8.57309,8.54496,8.525075,8.50634,8.481466,8.444698,8.393532,8.345456,8.291904,8.229854,8.172642,8.124089,8.068858,7.9962754,7.905009,7.7966037,7.6797676,7.578562,7.495134,7.414836,7.290103,6.986904,6.260575,5.079681,4.3951273,4.0339837,3.77872,3.6562228,3.5835536,3.5297675,3.4748669,3.411491,3.3444042,3.274518,3.2032566,3.1344714,3.0765352,3.0272484,2.9837117,2.9404666,2.8965683,2.8508072,2.8022108,2.7485952,2.6852703,2.6156406,2.5511274,2.4937844,2.448522,2.4217687,2.4124281,2.4150033,2.4248726,2.4324849,2.4407146,2.45068,2.4618382,2.476976,2.4976854,2.5236132,2.5483787,2.5666437,2.578691,2.5862753,2.5898592,2.5905294,2.591092,2.592442,2.5944893,2.595884,2.5961719,2.5944257,2.5925646,2.591405,2.592166,2.5920334,2.5916843,2.5915134,2.5916157,2.5921307,2.5928273,2.593374,2.5936117,2.5936565,2.593657,2.5935135,2.5926816,2.5908995,2.5880694,2.5847764,2.581381,2.5782313,2.5751863,2.5719633,2.5683599,2.5642648,2.560265,2.5562172,2.55174,2.545869,2.5386353,2.5311604,2.526468,2.5230682,2.5241117,2.5268803,2.5293975,2.5488324,2.6082516,2.724421,2.876186,2.982679,3.0102906,3.0014215,2.9847925,2.970835,2.9684482,2.971656,2.971624,2.966375,2.958475,2.9524765,2.9490309,2.946673,2.944237,2.9404564,2.935203,2.9296727,2.9250402,2.9213924,2.9180655,2.9130197,2.9062002,2.8988094,2.8918595,2.886499,2.8826156,2.8789291,2.8741164,2.8692675,2.8654091,2.8639107,2.8669415,2.8752356,2.8899486,2.9120336,2.943623,2.998198,3.086144,3.22111,3.3793273,3.515421,3.5869951,3.6173406,3.6192794,3.6151705,3.5946016,3.5774016,3.5576277,3.5392237,3.5273604,3.5238435,3.526741,3.5278425,3.5212612,3.5064034,3.488039,3.471474,3.4562695,3.4402447,3.4179268,3.3879051,3.353358,3.316375,3.2814703,3.2538075,3.2348115,3.226355,3.2258594,3.2305818,3.2336197,3.2319584
6.252572,6.293231,6.3406706,6.381325,6.414337,6.4442463,6.474454,6.5050764,6.5328474,6.5522585,6.5600505,6.5609217,6.5661144,6.5773063,6.58736,6.5928097,6.595769,6.597809,6.605654,6.617255,6.6270556,6.631195,6.635449,6.6503997,6.679634,6.709799,6.72452,6.6985354,6.6220036,6.5507727,6.531852,6.5757685,6.64837,6.7114916,6.74246,6.7496967,6.760518,6.8052273,6.8865204,6.9891253,7.0945206,7.178672,7.2277126,7.2510705,7.2581224,7.26768,7.3033066,7.3418856,7.3663673,7.382542,7.361248,7.22539,6.9119997,6.553939,6.3021584,6.163829,6.105857,6.0845156,6.0833654,6.0908175,6.095633,6.118448,6.1748943,6.2778845,6.47705,6.8913865,7.6905713,8.597809,9.190446,9.446447,9.557609,9.597834,9.644819,9.703327,9.729364,9.71983,9.708904,9.710123,9.723208,9.742066,9.76516,9.7896185,9.811027,9.83004,9.846388,9.859032,9.870062,9.87896,9.883848,9.886316,9.888922,9.892666,9.894324,9.890583,9.878962,9.861769,9.84346,9.826274,9.810487,9.796399,9.7836895,9.772099,9.76049,9.748425,9.734493,9.715708,9.689554,9.653635,9.607919,9.554945,9.496611,9.435646,9.375603,9.318508,9.261986,9.20108,9.132944,9.053066,8.9712105,8.902964,8.84684,8.79116,8.728245,8.662838,8.606251,8.559626,8.525703,8.503134,8.484322,8.458751,8.4085,8.347088,8.2894,8.2246475,8.172379,8.134646,8.091115,8.034429,7.960705,7.8679256,7.7828484,7.687326,7.5867167,7.488882,7.3632135,7.109683,6.5202684,5.415483,4.536544,4.123474,3.826903,3.6956244,3.6217804,3.5735276,3.5218658,3.4605289,3.3970754,3.3276048,3.2521615,3.1741376,3.0994716,3.0326774,2.9753008,2.9232976,2.873592,2.825274,2.7772887,2.7289643,2.6778953,2.6208096,2.5655704,2.5142612,2.4690642,2.4372933,2.4197655,2.4161625,2.4230323,2.42899,2.434834,2.442018,2.451416,2.4619584,2.4759703,2.4956493,2.5199728,2.543022,2.5617328,2.576438,2.584227,2.5864067,2.586154,2.5859826,2.5868025,2.5884447,2.5894332,2.5893574,2.587315,2.585239,2.5839586,2.5846243,2.584386,2.5839305,2.5836937,2.583847,2.5841718,2.5844288,2.5844235,2.5838332,2.58291,2.5819635,2.5809393,2.5794263,2.57725,2.5744298,2.571393,2.56849,2.565977,2.5637183,2.5613737,2.5587525,2.5557764,2.5528774,2.5498283,2.5463212,2.5411386,2.5340862,2.5261188,2.5204096,2.5195074,2.5210252,2.5236273,2.526508,2.5467362,2.608691,2.732792,2.890265,2.992895,3.0280945,3.0244174,3.0068417,2.9937615,2.9904537,2.991063,2.9918022,2.9894419,2.981499,2.9742332,2.9690332,2.9646187,2.9602466,2.955092,2.949209,2.943331,2.9383276,2.9339557,2.9294434,2.923772,2.9169083,2.9093442,2.901835,2.8953133,2.8897624,2.885444,2.8811755,2.8772645,2.8737836,2.8686438,2.8636513,2.8578558,2.8537533,2.8575554,2.8724918,2.8858151,2.9065957,2.9651566,3.0739279,3.2287793,3.3846655,3.5058007,3.5609646,3.5870275,3.5898943,3.5852432,3.5707731,3.552598,3.5365877,3.5297122,3.5277472,3.5267344,3.5194895,3.5040147,3.4853086,3.4687047,3.453731,3.438376,3.4180331,3.3902218,3.3563998,3.3194149,3.2839692,3.2556767,3.2363257,3.2276683,3.2271326,3.2318301,3.2345948,3.2323213
6.243538,6.288603,6.333026,6.37051,6.404666,6.435583,6.46632,6.4960966,6.52104,6.537303,6.545639,6.5479383,6.5514326,6.561451,6.570622,6.574295,6.5743847,6.5768166,6.583523,6.5911636,6.5959992,6.5953765,6.5862284,6.5886397,6.6080523,6.633171,6.6427584,6.6116667,6.5510387,6.495136,6.4820547,6.53188,6.604887,6.6625237,6.688302,6.6897545,6.6931925,6.730242,6.811324,6.9077168,7.004326,7.086865,7.1395264,7.165193,7.175909,7.1943836,7.242854,7.293541,7.325268,7.3419065,7.3060026,7.118741,6.7613726,6.4182396,6.195633,6.0789266,6.021442,5.985339,5.975175,5.977066,6.0048704,6.054368,6.1225233,6.2219205,6.3773627,6.675199,7.289931,8.164253,8.957233,9.364286,9.520296,9.569249,9.60648,9.66756,9.7061825,9.704126,9.677069,9.666527,9.675587,9.696417,9.725422,9.757801,9.788282,9.813687,9.836762,9.856377,9.870287,9.87767,9.878481,9.876589,9.875507,9.876726,9.876129,9.87071,9.859055,9.8449745,9.833374,9.824442,9.815169,9.802241,9.783655,9.759555,9.731844,9.703188,9.6746855,9.644832,9.611124,9.571051,9.524824,9.475655,9.425243,9.374508,9.323835,9.273175,9.220415,9.162714,9.099067,9.025778,8.952831,8.893654,8.844222,8.788638,8.723356,8.654324,8.592102,8.541134,8.506935,8.485178,8.464657,8.420719,8.35277,8.286325,8.21731,8.162088,8.122535,8.078299,8.026229,7.966358,7.89235,7.831195,7.7515445,7.661537,7.5567565,7.4177766,7.186838,6.7266173,5.8429976,4.7760324,4.239663,3.8956661,3.7269444,3.6476324,3.602177,3.5602608,3.5094604,3.4533548,3.3882709,3.3136098,3.2318635,3.1441774,3.0590947,2.9812326,2.9153476,2.8577113,2.8054962,2.756864,2.710256,2.6648602,2.6189227,2.5734,2.5299265,2.4888816,2.4549155,2.4325557,2.422347,2.4244533,2.4273872,2.4320352,2.4379463,2.4446034,2.453542,2.464683,2.4791863,2.4980195,2.520628,2.5425673,2.5625365,2.5767112,2.5824983,2.5833273,2.582158,2.5812936,2.5816078,2.5828052,2.5833673,2.582971,2.5807002,2.5784218,2.576921,2.5772758,2.5766306,2.5757728,2.575233,2.5752916,2.5757513,2.5762699,2.5764647,2.575893,2.5746217,2.5728407,2.5709229,2.5686355,2.5659282,2.5631166,2.5602183,2.5575056,2.555144,2.5530145,2.5507517,2.5481744,2.545305,2.542673,2.5401902,2.537563,2.5333488,2.527117,2.5195246,2.5136552,2.5119085,2.514873,2.516994,2.520832,2.5421338,2.6035137,2.730083,2.8882146,2.9890845,3.0251732,3.0275946,3.0130706,2.9997168,2.995028,2.9954448,2.997462,2.9964566,2.9920607,2.9855585,2.980029,2.9748163,2.9695191,2.9639523,2.958561,2.9537263,2.9499855,2.9467075,2.9431825,2.9381545,2.9314387,2.9233947,2.9148011,2.9066792,2.8993,2.8932614,2.8885,2.8854213,2.8832228,2.8812578,2.8781943,2.8703294,2.8565555,2.8387346,2.8255079,2.8223548,2.8307307,2.848248,2.8948507,2.9818935,3.120515,3.2758846,3.4229207,3.5173113,3.5615256,3.5761685,3.574531,3.5650744,3.5504165,3.5395696,3.5339751,3.5283003,3.5189185,3.5028348,3.4827409,3.4657116,3.450974,3.4360971,3.4177957,3.3920867,3.3601189,3.3234274,3.2875233,3.258652,3.238865,3.229818,3.229009,3.2334113,3.235649,3.2325702
6.2314262,6.282626,6.323281,6.362394,6.3987203,6.4316063,6.463623,6.492523,6.5133767,6.523802,6.529666,6.533498,6.536219,6.546558,6.555634,6.5579314,6.5549355,6.5530357,6.5561066,6.560553,6.5576553,6.5397415,6.5205603,6.51656,6.5319653,6.5515194,6.5589895,6.5357547,6.490265,6.4433646,6.4349227,6.4893837,6.558321,6.6092005,6.6302967,6.62446,6.625231,6.657961,6.7330894,6.8313813,6.9237843,7.0023856,7.056075,7.0854597,7.103034,7.131153,7.1914425,7.2488337,7.2892256,7.310894,7.259525,7.0352354,6.668516,6.348424,6.1508427,6.0400963,5.9619164,5.922974,5.9086523,5.9133024,5.941818,6.003987,6.0885496,6.200988,6.369092,6.6277614,7.136832,7.9602714,8.786004,9.273089,9.471905,9.543785,9.571877,9.625692,9.67715,9.679224,9.631287,9.603719,9.607376,9.630266,9.665445,9.705941,9.746032,9.782687,9.816035,9.8429985,9.859898,9.866399,9.864708,9.858987,9.853077,9.850216,9.846668,9.840303,9.831205,9.824816,9.825708,9.829772,9.827197,9.808169,9.769001,9.713524,9.653259,9.597992,9.551498,9.51268,9.477045,9.439692,9.398735,9.35679,9.314806,9.2748375,9.235405,9.194259,9.149512,9.100357,9.047192,8.989002,8.9334545,8.885838,8.834709,8.776101,8.708084,8.636928,8.571909,8.521713,8.491156,8.470949,8.433281,8.362124,8.290752,8.222258,8.154631,8.080189,7.9968185,7.912098,7.837888,7.7879534,7.7362957,7.6770573,7.612319,7.529293,7.410547,7.1799,6.802391,6.1516533,5.079991,4.435726,4.036941,3.7934594,3.6801224,3.6255488,3.584412,3.544881,3.4995315,3.4439025,3.3762393,3.2970605,3.2075944,3.1084814,3.0088053,2.9207835,2.8499625,2.7913961,2.7412214,2.6960797,2.6536298,2.6133513,2.5762317,2.5402384,2.5048883,2.4729033,2.4477546,2.4332552,2.42928,2.4286308,2.431418,2.4361129,2.4414809,2.4477043,2.456511,2.4679637,2.482974,2.5021102,2.5240579,2.5468178,2.566214,2.5781255,2.5821407,2.5816338,2.579703,2.5783198,2.5782423,2.5790315,2.5791905,2.578499,2.5760696,2.5736444,2.5719218,2.5719113,2.57073,2.5693283,2.5683627,2.5683086,2.569016,2.5700614,2.570859,2.5707812,2.569823,2.5681515,2.5662785,2.5640438,2.561435,2.558518,2.5555553,2.552627,2.549882,2.5473344,2.5444708,2.5411139,2.5374653,2.5341,2.531251,2.5287547,2.525168,2.51976,2.5127938,2.507113,2.5052369,2.5087643,2.5110145,2.516315,2.5378728,2.598452,2.7252173,2.8807805,2.978653,3.0163877,3.021543,3.0075922,2.9927206,2.9873924,2.9882073,2.9921105,2.9932995,2.9906635,2.9877732,2.9838963,2.9795308,2.9746256,2.9696054,2.9653249,2.9620502,2.9600606,2.958452,2.9565525,2.9528527,2.9469543,2.93893,2.9295602,2.9198756,2.9105442,2.9025102,2.8958213,2.8915203,2.8888507,2.8871887,2.8843386,2.8774152,2.8667083,2.8507257,2.8277664,2.8027105,2.788632,2.7945266,2.8151965,2.8508613,2.9183466,3.0328116,3.1995912,3.3664098,3.494535,3.5499043,3.566586,3.5677526,3.5646398,3.556597,3.5460725,3.5360868,3.5229008,3.5048418,3.4822407,3.4630232,3.4478192,3.433414,3.4174008,3.393444,3.3634858,3.3284569,3.2922497,3.262769,3.2422414,3.232431,3.2310038,3.234786,3.2362635,3.2322407
6.2111797,6.2652006,6.3097577,6.350156,6.3870373,6.422773,6.455864,6.482024,6.4973087,6.503001,6.5070934,6.512518,6.517741,6.5299673,6.540206,6.541507,6.5359406,6.528378,6.524383,6.523908,6.508543,6.478661,6.4610624,6.4602118,6.4746695,6.4940357,6.501443,6.4812503,6.440191,6.399472,6.3996816,6.451086,6.513012,6.5579395,6.5738034,6.5661097,6.565792,6.5958385,6.6671696,6.7590675,6.8517118,6.925212,6.9773283,7.0086613,7.031121,7.0690527,7.142994,7.208029,7.2626724,7.28903,7.221154,6.9703684,6.6079254,6.297948,6.109725,5.988539,5.907532,5.8664227,5.855301,5.8629847,5.892999,5.9565525,6.0500383,6.1619062,6.3206983,6.5640707,7.033577,7.826095,8.659206,9.199511,9.430479,9.526628,9.563866,9.5874405,9.644954,9.65217,9.583353,9.540304,9.540665,9.567543,9.609518,9.65642,9.703483,9.749592,9.794169,9.831783,9.854603,9.859084,9.848808,9.835903,9.826119,9.818392,9.811769,9.806015,9.802344,9.806623,9.822041,9.837459,9.832211,9.791834,9.714989,9.617258,9.519508,9.438435,9.3808155,9.338942,9.305229,9.273006,9.239174,9.205288,9.168395,9.134853,9.102467,9.070569,9.036918,9.000901,8.963651,8.92864,8.895994,8.859806,8.816212,8.760117,8.690495,8.617508,8.551382,8.504728,8.477466,8.450867,8.37712,8.298824,8.229893,8.147755,8.043026,7.8827953,7.671736,7.4993615,7.3947635,7.346554,7.3415217,7.280636,7.253054,7.1826296,7.0165977,6.7378016,6.235622,5.329116,4.647871,4.22845,3.9055674,3.7416854,3.6622305,3.611642,3.5723505,3.5335062,3.4861956,3.428428,3.357822,3.271834,3.169025,3.056502,2.9470818,2.8584886,2.7904177,2.7370932,2.692649,2.6524732,2.61481,2.5798388,2.5472596,2.5159054,2.4867148,2.4618964,2.4440813,2.4356341,2.431532,2.4312286,2.4342332,2.4379945,2.442468,2.448359,2.4573665,2.4696896,2.4856112,2.5056233,2.5284135,2.551836,2.5704737,2.580496,2.583013,2.5814276,2.5789208,2.577114,2.576607,2.5768614,2.5764813,2.5754058,2.5727868,2.570228,2.568325,2.5679812,2.5662842,2.564354,2.5629814,2.5628529,2.5638785,2.5655565,2.5671089,2.5677238,2.567302,2.5659835,2.5643923,2.5624075,2.560071,2.5574698,2.554804,2.5520709,2.5492818,2.546085,2.5421557,2.5376148,2.5328858,2.5283997,2.5247178,2.5218797,2.51861,2.5138962,2.507553,2.5020328,2.4998999,2.50323,2.5056527,2.5111253,2.5319462,2.5916247,2.7177577,2.870612,2.9678738,3.0055838,3.0108638,2.996275,2.9790816,2.9721484,2.973333,2.9788375,2.9820833,2.9819613,2.9820964,2.982172,2.9802394,2.9770403,2.9732957,2.9700563,2.967888,2.9671192,2.9668446,2.9664135,2.9640498,2.9590964,2.9512634,2.9412403,2.929994,2.918542,2.907877,2.8983867,2.8917112,2.8874621,2.8857927,2.8840728,2.8793178,2.8692863,2.8528194,2.8339067,2.807615,2.7787328,2.7615657,2.7651587,2.7867656,2.8231425,2.8869772,2.999086,3.1744595,3.358946,3.4952445,3.5453105,3.5647566,3.5631022,3.564838,3.5594602,3.548964,3.530847,3.5102432,3.4842408,3.4605522,3.4433208,3.4291961,3.4145975,3.3940182,3.3658862,3.332777,3.2971559,3.2668366,3.245337,3.234548,3.2323337,3.2354121,3.2361155,3.2311764
6.18029,6.241991,6.290264,6.3335357,6.3707733,6.4046803,6.435892,6.4593024,6.4714494,6.474862,6.477721,6.4836116,6.492489,6.5093374,6.520592,6.5191708,6.509509,6.4985104,6.4885883,6.4833646,6.458501,6.4276066,6.413313,6.416436,6.433411,6.452613,6.459332,6.439684,6.400411,6.3650455,6.3677416,6.4144115,6.4692116,6.509082,6.5215864,6.5154037,6.5153384,6.5439444,6.60855,6.6934047,6.778756,6.847393,6.894701,6.9233284,6.9488754,7.0006075,7.0865,7.169004,7.244544,7.270292,7.184367,6.9142294,6.557377,6.25132,6.062928,5.9278398,5.839369,5.8002377,5.790844,5.8009586,5.8323483,5.8940315,5.9895115,6.104095,6.2537613,6.481874,6.9166718,7.7079716,8.561283,9.141436,9.402113,9.51246,9.565346,9.571923,9.610968,9.619883,9.540262,9.48576,9.484669,9.515629,9.565411,9.618031,9.667908,9.719812,9.776552,9.82651,9.855805,9.857916,9.838559,9.812588,9.792057,9.781309,9.773476,9.770586,9.775162,9.791515,9.8185005,9.835131,9.814781,9.738415,9.614653,9.477009,9.339247,9.20826,9.132367,9.100246,9.079569,9.056526,9.031779,9.006393,8.985409,8.963381,8.936165,8.912363,8.8914795,8.871363,8.853579,8.844126,8.833496,8.815342,8.785252,8.73581,8.669355,8.596332,8.533657,8.490493,8.463618,8.405076,8.313671,8.249909,8.170914,8.017289,7.7379417,7.344837,6.924351,6.647008,6.5386724,6.52757,6.581775,6.686818,6.721776,6.6399345,6.427595,5.99042,5.363253,4.7942224,4.3955693,4.053418,3.8411632,3.726653,3.656815,3.607638,3.5664833,3.5229714,3.4717302,3.4095368,3.3304415,3.2328014,3.11344,2.9897895,2.8832633,2.8007946,2.7409563,2.6961017,2.6581073,2.6221938,2.5873342,2.5545661,2.5245466,2.49707,2.4729517,2.4541273,2.442039,2.4358587,2.4327104,2.4329414,2.4352493,2.4376316,2.4410062,2.44656,2.4558115,2.469151,2.4863331,2.5079653,2.5326045,2.5566669,2.5744944,2.5831518,2.584549,2.5821986,2.5793185,2.5772066,2.5762458,2.5758746,2.5748308,2.5732703,2.5704012,2.5676925,2.5656552,2.5650682,2.562984,2.5606496,2.558971,2.5588126,2.5601516,2.5624175,2.5646796,2.565984,2.566147,2.5652976,2.5641189,2.5624852,2.5604563,2.5581055,2.5556626,2.5530844,2.5503912,2.5472116,2.543169,2.537836,2.5315404,2.5256796,2.521024,2.5176313,2.5144577,2.510252,2.504397,2.4988809,2.4962382,2.4986668,2.5015383,2.5066059,2.5259674,2.58504,2.7105522,2.8615534,2.9584517,2.9949212,2.9993036,2.9845946,2.9643369,2.955731,2.9570944,2.963752,2.968748,2.9710307,2.973837,2.976787,2.9789453,2.97889,2.9772298,2.9748735,2.9731798,2.972869,2.973363,2.9740088,2.9728928,2.9691648,2.9619353,2.9516246,2.9392016,2.9259543,2.912589,2.8998797,2.889742,2.882441,2.8788657,2.876604,2.8735433,2.8666291,2.8534555,2.834847,2.8133426,2.7876391,2.7612872,2.7463505,2.7461362,2.7708697,2.8105528,2.8746233,2.9912205,3.1879408,3.386601,3.506237,3.5473313,3.560088,3.561828,3.5641484,3.560742,3.543727,3.5177054,3.48758,3.4584837,3.4368925,3.4222937,3.4095016,3.392325,3.367365,3.3351498,3.3009977,3.2700005,3.247267,3.235382,3.2322812,3.234716,3.2348256,3.2291224
6.1280417,6.198083,6.2535467,6.2990646,6.3360987,6.369574,6.398058,6.419113,6.429533,6.433079,6.4376783,6.4443617,6.4568396,6.476099,6.486264,6.4820695,6.468996,6.4540644,6.443113,6.4354362,6.409275,6.384263,6.372759,6.379368,6.3984566,6.417541,6.4228716,6.4035826,6.3661914,6.335946,6.339321,6.3782773,6.424638,6.4595666,6.47023,6.463916,6.4636984,6.488044,6.542337,6.616099,6.68948,6.750165,6.7892914,6.8135414,6.8438683,6.9084144,7.0119534,7.121285,7.2196302,7.2464805,7.148255,6.8704963,6.5127573,6.204959,6.0089273,5.856412,5.7682533,5.7309422,5.7207613,5.7312527,5.7629304,5.821706,5.9161506,6.0313187,6.170001,6.37948,6.787363,7.588868,8.469821,9.094782,9.369276,9.479271,9.544073,9.562014,9.572718,9.583321,9.499215,9.439517,9.439241,9.476818,9.529193,9.580065,9.627991,9.68293,9.752012,9.810186,9.8424635,9.847324,9.830969,9.794151,9.760288,9.741442,9.734703,9.737177,9.751165,9.776684,9.803902,9.808815,9.765078,9.646548,9.485266,9.304021,9.111644,8.941814,8.875597,8.895386,8.91614,8.909084,8.888657,8.857953,8.831305,8.811932,8.79686,8.782877,8.769878,8.759525,8.752829,8.759311,8.7637,8.76079,8.745825,8.7057295,8.648564,8.581034,8.521891,8.481382,8.435984,8.341,8.270866,8.197355,8.052595,7.7147923,7.1283092,6.5298624,6.2000103,6.044303,5.981364,5.9684296,5.9572945,5.9527674,5.940529,5.8515596,5.6093407,5.2564135,4.865987,4.524988,4.205139,3.9742823,3.8158402,3.7224302,3.6562395,3.6072598,3.561802,3.5117035,3.4540267,3.3811836,3.2896304,3.1728191,3.0411892,2.922383,2.8254905,2.7554502,2.706096,2.6669033,2.63196,2.5984442,2.565112,2.5335803,2.5054345,2.4812055,2.4615717,2.4477906,2.4391813,2.4346538,2.432993,2.4330842,2.4343219,2.435375,2.4378128,2.4430933,2.4525151,2.4666097,2.4847972,2.5077198,2.5343738,2.5594513,2.5763106,2.5840316,2.5846858,2.5818834,2.5788066,2.57646,2.574988,2.57387,2.5720358,2.5698953,2.566721,2.5638766,2.5618107,2.5611835,2.5590148,2.5566006,2.5548892,2.5548465,2.5565002,2.5592432,2.5620785,2.563982,2.564721,2.5643902,2.5636606,2.5623465,2.5604966,2.5581846,2.5557446,2.5531867,2.550572,2.5474963,2.5434945,2.5381274,2.5312483,2.5239353,2.5181007,2.514103,2.510838,2.5068908,2.5012605,2.4955015,2.4920306,2.4931808,2.496192,2.4996681,2.5167031,2.5748067,2.6986241,2.8493,2.9472153,2.9829247,2.985456,2.9704938,2.9487014,2.93864,2.9395924,2.9464946,2.9523854,2.9565134,2.9619336,2.9683912,2.9742353,2.9774356,2.9781203,2.9771223,2.9761004,2.9760592,2.9769702,2.9782069,2.978111,2.9759407,2.9701324,2.9606378,2.9482687,2.934465,2.9197295,2.905045,2.8922515,2.8820548,2.8755517,2.8707218,2.8663702,2.859903,2.8495321,2.834188,2.814269,2.7939596,2.771479,2.750821,2.7371383,2.7367973,2.7604659,2.804287,2.8771267,3.0232515,3.2397466,3.4282708,3.5092797,3.5410106,3.5524402,3.5570984,3.5609436,3.5540037,3.5294607,3.4956741,3.4597187,3.4309092,3.4140615,3.4027214,3.3887491,3.3673286,3.3374095,3.3032448,3.2727513,3.2489066,3.2358494,3.2319922,3.234007,3.233756,3.2274768
6.0458636,6.1126547,6.179625,6.2319846,6.2697773,6.3019485,6.330289,6.3523703,6.3646693,6.370285,6.375149,6.3836417,6.400406,6.419033,6.42717,6.419987,6.40527,6.39205,6.3815403,6.369355,6.3501463,6.3379593,6.328829,6.3366933,6.357054,6.3762555,6.3795443,6.359688,6.3255386,6.3011303,6.304746,6.336198,6.3748813,6.404955,6.413419,6.405888,6.403529,6.420742,6.460969,6.5185213,6.5784006,6.626749,6.657383,6.6779556,6.7153788,6.7926826,6.917799,7.057732,7.175593,7.2090626,7.107972,6.828456,6.4610844,6.1540003,5.9448185,5.785593,5.6993723,5.6631722,5.655274,5.669359,5.701241,5.7554464,5.8386016,5.9469833,6.0724106,6.25964,6.638425,7.4415703,8.360167,9.046583,9.328066,9.442407,9.50572,9.536112,9.523693,9.53798,9.451078,9.387745,9.389318,9.427409,9.474595,9.517095,9.557818,9.613869,9.695396,9.772049,9.821037,9.832318,9.810022,9.773735,9.729516,9.701761,9.692589,9.700695,9.721802,9.747665,9.769819,9.7637205,9.68793,9.532593,9.343389,9.12044,8.874179,8.751753,8.749533,8.794833,8.818802,8.80933,8.782635,8.75307,8.733599,8.720569,8.706756,8.688419,8.671902,8.665298,8.675276,8.690814,8.699165,8.706051,8.702156,8.669113,8.621079,8.563543,8.510546,8.458159,8.369389,8.295832,8.230066,8.117171,7.8240137,7.206695,6.531561,6.1506033,5.9688144,5.888036,5.8454933,5.7946672,5.733857,5.6614985,5.534236,5.3619666,5.1515465,4.899225,4.6355186,4.3712573,4.128832,3.9456067,3.8132286,3.722821,3.65701,3.6048772,3.552637,3.4972959,3.428873,3.3435762,3.2324276,3.0974445,2.969039,2.860747,2.7790928,2.7225323,2.6804304,2.6449523,2.6124015,2.580111,2.5471973,2.5163732,2.4898949,2.4686816,2.4531722,2.4429238,2.437255,2.4341888,2.4330616,2.4325066,2.43252,2.4324327,2.434112,2.4391823,2.4487126,2.4630413,2.4815588,2.505872,2.5343876,2.5598154,2.5757527,2.5826247,2.5827003,2.5796428,2.576484,2.573995,2.5720222,2.5701423,2.5674996,2.5647593,2.5612836,2.558339,2.5563464,2.5558524,2.5538578,2.551629,2.5500894,2.5502179,2.5520797,2.5550647,2.5582056,2.560508,2.561615,2.5616288,2.5611944,2.5600123,2.558125,2.555611,2.552968,2.550311,2.5477505,2.5448694,2.5411043,2.5359464,2.529178,2.5214534,2.5145426,2.5098698,2.5064516,2.5025778,2.4969819,2.4908705,2.4864614,2.486116,2.4883955,2.4892445,2.503441,2.5586295,2.6784115,2.8299632,2.9311414,2.9675317,2.9694529,2.9538872,2.9310145,2.9195924,2.9194248,2.9254875,2.9311388,2.9361258,2.9434905,2.953391,2.963542,2.9709358,2.974809,2.9755697,2.9754136,2.9756567,2.9767735,2.9782043,2.9785533,2.9771233,2.972889,2.9656625,2.9552789,2.9429755,2.929279,2.9147635,2.9008687,2.8887517,2.8790283,2.8701844,2.861385,2.8515773,2.8404818,2.8272023,2.8113616,2.7940214,2.778603,2.7637572,2.7474923,2.7342734,2.7329667,2.7627633,2.809752,2.9079282,3.0825465,3.2981634,3.441498,3.5040555,3.5337596,3.5464776,3.5534306,3.553394,3.5402117,3.5084853,3.4663703,3.428498,3.4066556,3.395412,3.3843799,3.3657255,3.3388422,3.3053257,3.2744508,3.2504978,3.2365365,3.2320726,3.2339272,3.2333832,3.2263293
5.936902,5.9990463,6.059596,6.1116896,6.151268,6.1834373,6.213499,6.2406864,6.259334,6.26962,6.2770863,6.2896175,6.308797,6.326071,6.3321533,6.3264,6.3106337,6.2953496,6.2848754,6.2719107,6.2673006,6.264063,6.2623277,6.272244,6.2926764,6.3112555,6.314019,6.292345,6.261282,6.2436934,6.2507563,6.278799,6.313366,6.340173,6.3473525,6.3397226,6.335776,6.346895,6.375443,6.4183626,6.464589,6.5052953,6.5331793,6.553543,6.593814,6.680381,6.8224792,6.983755,7.1158338,7.1569624,7.0552244,6.76904,6.3975716,6.090059,5.8748965,5.7217927,5.642313,5.6083703,5.606247,5.6228275,5.654251,5.7032146,5.775097,5.8731065,5.9830933,6.145276,6.478183,7.257141,8.23302,8.983304,9.283072,9.402838,9.465736,9.4913025,9.465153,9.483039,9.392667,9.314864,9.309545,9.335949,9.368082,9.395616,9.428106,9.485925,9.582859,9.695757,9.780491,9.81166,9.792698,9.746237,9.700529,9.665951,9.654896,9.665787,9.689011,9.714563,9.736207,9.7146,9.600027,9.421278,9.224184,8.946016,8.746263,8.710556,8.750519,8.797415,8.80096,8.781908,8.749058,8.716297,8.693108,8.67747,8.660994,8.641922,8.626996,8.62177,8.63089,8.642536,8.650484,8.662225,8.661473,8.638151,8.594364,8.542464,8.486595,8.403643,8.318499,8.262793,8.170941,7.967186,7.4523764,6.733859,6.260354,6.036805,5.9281473,5.8736267,5.8199444,5.7442646,5.645149,5.5235367,5.3482475,5.1482453,4.939167,4.721044,4.5088573,4.283475,4.0983024,3.9371805,3.8126173,3.7225857,3.654813,3.5958023,3.5397377,3.4759893,3.3958573,3.2965887,3.1645954,3.0277462,2.9073217,2.812495,2.745719,2.6978946,2.6605134,2.6274314,2.5958705,2.5638556,2.5318327,2.502265,2.4778469,2.459939,2.447763,2.4401743,2.4359434,2.4338732,2.432762,2.431363,2.430314,2.4294844,2.4307377,2.4357,2.4451861,2.4589732,2.4776788,2.5039315,2.5337386,2.5577545,2.5724945,2.5783153,2.5777833,2.5745196,2.5713255,2.568757,2.5663686,2.563843,2.5605297,2.5573068,2.5536022,2.550613,2.5487523,2.5484915,2.546811,2.5448842,2.5435462,2.543723,2.5455108,2.5483854,2.5513394,2.5535154,2.5545623,2.5546117,2.5542493,2.553078,2.5511127,2.5484428,2.5456977,2.543078,2.5407043,2.538134,2.5347495,2.5300322,2.5237117,2.516378,2.509167,2.5039866,2.5004532,2.4967203,2.491266,2.4850519,2.480064,2.4785194,2.4795303,2.479478,2.4913907,2.5422714,2.6559966,2.80674,2.9112377,2.9507747,2.9528732,2.9367352,2.9129987,2.9004753,2.898816,2.9031746,2.9074416,2.9118967,2.9197865,2.931909,2.9456437,2.9572577,2.9649413,2.968566,2.9703982,2.9718342,2.973668,2.975451,2.976294,2.9758382,2.9730637,2.967383,2.959402,2.9499378,2.938801,2.9260216,2.9124684,2.8995848,2.8872075,2.874313,2.8601139,2.8454127,2.831748,2.8189628,2.8066497,2.794498,2.7833352,2.7726378,2.7590613,2.7403631,2.7239485,2.7281523,2.7675195,2.833373,2.963914,3.1572022,3.3365555,3.4445047,3.5040479,3.5331025,3.5488415,3.5493445,3.5425978,3.521298,3.4798367,3.4332647,3.4037404,3.3895178,3.3795695,3.3635974,3.3387794,3.307648,3.2763562,3.251865,3.2379003,3.2332249,3.2348287,3.2335904,3.2252684
5.784228,5.849905,5.911393,5.958771,5.992696,6.019327,6.047249,6.0776243,6.105975,6.128047,6.144834,6.162811,6.1812563,6.192163,6.190336,6.1785364,6.156839,6.1382074,6.1344028,6.140399,6.1465197,6.1477394,6.1498523,6.160576,6.17881,6.1953945,6.1983876,6.182541,6.161542,6.1530595,6.167744,6.199578,6.234563,6.261817,6.270868,6.2654767,6.26229,6.271313,6.2961407,6.3336697,6.376049,6.4161305,6.446691,6.4707646,6.511114,6.595871,6.7388225,6.903405,7.0436,7.088827,6.9793577,6.6820726,6.3080864,6.010214,5.8040595,5.6665564,5.596291,5.570075,5.5740843,5.5929165,5.6232214,5.666972,5.72715,5.80793,5.9037647,6.039016,6.3195734,7.0536666,8.093635,8.907154,9.232246,9.358832,9.422927,9.445965,9.415239,9.412666,9.314642,9.212645,9.189495,9.193394,9.201719,9.21983,9.250153,9.307531,9.420853,9.572415,9.705,9.764853,9.771467,9.721405,9.6680765,9.632038,9.617697,9.628431,9.651148,9.682813,9.703351,9.660247,9.515325,9.318031,9.102686,8.845305,8.716398,8.734901,8.787069,8.812498,8.800554,8.771662,8.736549,8.704777,8.677984,8.654921,8.63629,8.622053,8.610722,8.607889,8.610724,8.610697,8.616699,8.627571,8.627718,8.611982,8.571526,8.517757,8.435616,8.34758,8.2866745,8.21467,8.068666,7.694004,7.032901,6.449909,6.1572504,6.0157843,5.941369,5.8859463,5.831027,5.7444434,5.6212807,5.4664454,5.2527237,5.0304837,4.823378,4.632231,4.4300714,4.240695,4.0750937,3.9270842,3.8090985,3.7180357,3.6448536,3.5829353,3.5208037,3.447417,3.357265,3.2419543,3.1008039,2.9668996,2.8567812,2.7758427,2.7198703,2.6786203,2.6439817,2.6122441,2.5799966,2.548359,2.5183458,2.4910514,2.4691572,2.454451,2.444498,2.4385147,2.4353917,2.433658,2.4320984,2.4298363,2.4279032,2.4266164,2.4276247,2.4324684,2.441661,2.4551377,2.4750776,2.5024042,2.5319133,2.554308,2.5675602,2.5721946,2.5710413,2.5676227,2.5644271,2.5618181,2.559091,2.5560377,2.5521984,2.5486104,2.5447407,2.5417213,2.53997,2.5399098,2.5385048,2.536813,2.5355577,2.5355875,2.5370133,2.5392704,2.54143,2.5428758,2.5435653,2.543652,2.5433702,2.5422869,2.5404253,2.5378656,2.5352478,2.5327816,2.5306592,2.52849,2.5256367,2.5215273,2.5156758,2.5086532,2.5019116,2.4965286,2.4928963,2.4894798,2.4844413,2.4786172,2.4736054,2.4713392,2.471027,2.4716587,2.480905,2.5266404,2.6326728,2.781515,2.890133,2.933371,2.936148,2.918582,2.8935804,2.8810616,2.877947,2.880031,2.8820868,2.884744,2.891551,2.9040837,2.9197783,2.934691,2.9460855,2.9533224,2.9582078,2.9618926,2.9651644,2.967729,2.9693255,2.970015,2.969006,2.9654481,2.95974,2.9523811,2.9429698,2.9318686,2.9197216,2.9071927,2.893422,2.8779764,2.8603897,2.8424468,2.8263032,2.813609,2.8037443,2.7956958,2.7893014,2.7803054,2.76749,2.7463446,2.7228281,2.7110167,2.728284,2.7850761,2.8774972,3.0308995,3.2125936,3.362623,3.4595299,3.513359,3.543697,3.5524914,3.5417948,3.5270283,3.4935882,3.4446173,3.4067354,3.3861785,3.3750284,3.3600879,3.3375444,3.3091764,3.2782516,3.2531414,3.2389276,3.2345777,3.2358072,3.2339032,3.224913
5.5480394,5.6296854,5.7003927,5.7505436,5.7792068,5.798045,5.8209105,5.85097,5.8842263,5.9125195,5.933403,5.9523606,5.967475,5.9703445,5.957252,5.934526,5.9178467,5.9174743,5.9321647,5.9503384,5.9644566,5.972871,5.980748,5.992015,6.0064096,6.0195236,6.025156,6.0214157,6.018814,6.030264,6.060855,6.103318,6.144094,6.174369,6.1866674,6.187542,6.1898594,6.201914,6.227624,6.265259,6.309805,6.355356,6.3938913,6.425767,6.4690695,6.5474896,6.6753607,6.827094,6.95722,6.9866323,6.8585443,6.5405226,6.1689134,5.907261,5.725502,5.6141973,5.5596476,5.544322,5.5535975,5.575405,5.6048083,5.643631,5.69232,5.755308,5.83924,5.9489164,6.1710367,6.8248234,7.9311795,8.827414,9.173733,9.304838,9.372595,9.3964815,9.359944,9.3313875,9.200472,9.082264,9.044188,9.016574,8.98231,8.968599,8.9943495,9.083785,9.240124,9.425068,9.60541,9.69892,9.734315,9.703655,9.642877,9.602701,9.583423,9.590801,9.619262,9.654507,9.665277,9.60074,9.436249,9.232067,9.013521,8.803839,8.730225,8.762399,8.80123,8.805227,8.785949,8.754381,8.718155,8.685071,8.659854,8.642433,8.630508,8.619086,8.607418,8.598408,8.589689,8.585777,8.590296,8.600366,8.598293,8.582298,8.537518,8.463854,8.378063,8.311229,8.237272,8.129162,7.852947,7.277923,6.67128,6.2870502,6.0952287,5.990154,5.930915,5.898569,5.8450727,5.747572,5.6071606,5.4204597,5.170745,4.937108,4.7376113,4.548477,4.3661404,4.197396,4.0459704,3.9105315,3.7963781,3.7038877,3.6291988,3.5628114,3.4931724,3.4112687,3.3130965,3.1845207,3.0425828,2.9153833,2.8175862,2.7474046,2.699457,2.6619086,2.629504,2.5967398,2.5645673,2.5345335,2.5064836,2.4819493,2.4629302,2.4503174,2.441938,2.4370694,2.4345787,2.432671,2.4304473,2.4275193,2.4250622,2.4236386,2.4246016,2.4293623,2.4382067,2.4522576,2.4739337,2.502232,2.5296485,2.5504508,2.5621977,2.565805,2.5642543,2.5608525,2.5577178,2.5550804,2.5520306,2.5485013,2.5441976,2.5402522,2.5361345,2.532917,2.531025,2.5308995,2.5294883,2.5277534,2.52631,2.5258265,2.5263891,2.5274525,2.528514,2.529203,2.5293436,2.5291007,2.5285552,2.5273714,2.525631,2.5233922,2.5211716,2.519085,2.517382,2.5157747,2.513675,2.5104976,2.5056353,2.4995275,2.493455,2.4883556,2.4847102,2.4816318,2.4772403,2.472146,2.4676309,2.4652817,2.4643056,2.4658618,2.4719312,2.5115857,2.6104155,2.7569873,2.8700237,2.9170651,2.9205794,2.9022226,2.8755758,2.8630395,2.858492,2.8580809,2.8573945,2.8570585,2.8608885,2.8711457,2.8857613,2.901195,2.9142725,2.9241557,2.9317648,2.937663,2.94249,2.9461136,2.9487777,2.950913,2.9519367,2.9507809,2.9476695,2.9428504,2.9358401,2.926735,2.9158206,2.9037166,2.8894238,2.8732324,2.855875,2.83916,2.8236709,2.812104,2.804082,2.7980113,2.7934718,2.7853854,2.7715473,2.7486677,2.721911,2.70183,2.7024746,2.74481,2.815261,2.9301524,3.0830095,3.251895,3.389173,3.479036,3.5303774,3.5530818,3.5480216,3.5266714,3.5035353,3.4609685,3.4164867,3.3885825,3.3730915,3.3560803,3.3348045,3.30777,3.278445,3.2529655,3.238447,3.2343106,3.2361379,3.23453,3.225206
5.2607894,5.3574047,5.43833,5.4934793,5.5211163,5.5365305,5.55104,5.570575,5.5952177,5.6213655,5.645767,5.6654243,5.6782446,5.681113,5.671422,5.6612263,5.6622214,5.68051,5.7137194,5.745256,5.7697086,5.785869,5.798131,5.81048,5.8238134,5.8364496,5.8461876,5.8529367,5.86617,5.8962827,5.9469166,6.006189,6.0571814,6.0928535,6.1108303,6.1187534,6.126712,6.142452,6.1707573,6.210805,6.2601266,6.313896,6.363696,6.4073277,6.4581165,6.5316467,6.637369,6.7635813,6.8623786,6.854332,6.683957,6.347502,6.0088468,5.7998285,5.6495676,5.5691767,5.5313435,5.5270853,5.5406075,5.5638604,5.593569,5.628935,5.667536,5.715697,5.7869663,5.8777237,6.051511,6.6094446,7.768575,8.746527,9.106663,9.2400055,9.312199,9.339435,9.290855,9.240922,9.067215,8.94162,8.858103,8.762583,8.698252,8.661991,8.695772,8.827646,9.059745,9.300138,9.510965,9.631855,9.692011,9.693424,9.631807,9.583567,9.559391,9.566179,9.597441,9.628984,9.62342,9.538452,9.362553,9.15996,8.96153,8.7946205,8.739939,8.765828,8.780123,8.773745,8.753777,8.723732,8.691393,8.663654,8.644243,8.634526,8.623173,8.604635,8.587004,8.573734,8.562918,8.559443,8.562998,8.572505,8.5742,8.546766,8.486713,8.409132,8.34207,8.262341,8.174709,7.956908,7.4843245,6.858328,6.4187794,6.1771727,6.025011,5.9466515,5.9138308,5.882881,5.820488,5.716407,5.5594788,5.335467,5.069829,4.839164,4.642003,4.4614654,4.300723,4.154254,4.013875,3.8855748,3.7756047,3.6836498,3.6064718,3.5350242,3.4589,3.370008,3.2629285,3.128415,2.990096,2.8722615,2.7857413,2.7253606,2.6821623,2.6479335,2.6150813,2.581872,2.550959,2.5221968,2.4958425,2.4737506,2.4574504,2.4466636,2.439734,2.435655,2.433178,2.4308033,2.4280684,2.4249015,2.422428,2.4212418,2.4223986,2.4272308,2.4361901,2.4515538,2.4747455,2.5026162,2.5278807,2.5468936,2.5571465,2.5599327,2.5582538,2.5550885,2.552115,2.5494742,2.5461063,2.5421252,2.5373921,2.5331042,2.5287008,2.525231,2.5230572,2.522583,2.5209475,2.5190148,2.5172586,2.5161734,2.5158212,2.5159419,2.5159783,2.515777,2.5152159,2.5142555,2.5132241,2.5119486,2.5103822,2.5085392,2.5067978,2.5052166,2.5040407,2.5030046,2.5015678,2.4991593,2.4953094,2.490478,2.485527,2.4813385,2.4779062,2.4747703,2.4708986,2.4665508,2.4627266,2.460684,2.4592633,2.460281,2.4649673,2.498364,2.5902987,2.7341096,2.8512213,2.902357,2.9068232,2.888825,2.861432,2.8473282,2.8414736,2.8391347,2.83601,2.8325024,2.8325534,2.8388553,2.8500361,2.8633158,2.8755383,2.8859506,2.894651,2.901724,2.9074578,2.9118881,2.915529,2.9189186,2.9214635,2.9222126,2.9213598,2.9189482,2.914595,2.908225,2.899805,2.8896337,2.8767612,2.8620753,2.8467932,2.8337305,2.8229795,2.8140192,2.807613,2.801734,2.7958636,2.7864013,2.771535,2.748993,2.7198794,2.697268,2.6882532,2.7115874,2.7700467,2.852027,2.9688702,3.118268,3.2798252,3.413769,3.4999268,3.5447075,3.5530982,3.5320826,3.50706,3.4769754,3.4341593,3.3978217,3.3748734,3.3534498,3.3309803,3.3039575,3.276589,3.25067,3.2362103,3.2328157,3.23557,3.234176,3.2249422
4.9911556,5.0856867,5.174286,5.233648,5.2668004,5.284896,5.3005896,5.3210363,5.3489523,5.379991,5.4097586,5.43429,5.449789,5.456581,5.4575295,5.46439,5.485956,5.522874,5.5691805,5.608774,5.638147,5.65798,5.673157,5.6870885,5.699211,5.7085676,5.7158213,5.7263927,5.7507253,5.795306,5.8598766,5.9332876,5.9937787,6.035611,6.0590057,6.0710783,6.081827,6.099168,6.128701,6.1701384,6.2230105,6.283658,6.344373,6.4013634,6.462298,6.5335836,6.622032,6.719801,6.7781005,6.7335777,6.502741,6.1612616,5.876665,5.7122917,5.592618,5.5357943,5.511635,5.5146894,5.5301285,5.5521154,5.581928,5.6164007,5.6486473,5.6836066,5.7394714,5.8257036,5.9732313,6.4427843,7.621929,8.667955,9.023813,9.165055,9.24184,9.272522,9.217877,9.140884,8.930782,8.776087,8.597078,8.466346,8.429124,8.43798,8.509611,8.658321,8.915631,9.20445,9.435194,9.578175,9.659929,9.685727,9.638634,9.581104,9.55023,9.555365,9.584677,9.605474,9.581221,9.479418,9.298791,9.1032095,8.925697,8.788748,8.74578,8.749409,8.745579,8.734692,8.7139,8.68762,8.662082,8.641579,8.6312685,8.621153,8.599014,8.576103,8.556437,8.538866,8.530453,8.530064,8.535673,8.5465145,8.541826,8.499933,8.438957,8.380467,8.311446,8.211254,8.065888,7.7113647,7.100484,6.581341,6.273588,6.08449,5.9708242,5.912094,5.8775992,5.8349533,5.760746,5.648408,5.480428,5.221921,4.9580336,4.737932,4.5360885,4.37914,4.2365513,4.104779,3.9749694,3.8536143,3.7475274,3.6562672,3.5772576,3.5018923,3.4200187,3.3254964,3.2091637,3.0738034,2.9420443,2.8351746,2.7588365,2.7058356,2.6668882,2.634504,2.6012716,2.5695317,2.5392385,2.5111508,2.4863396,2.4664273,2.4524,2.4434023,2.4374075,2.4334667,2.4307046,2.4279823,2.4251537,2.4222693,2.4202468,2.4195986,2.4211292,2.4262004,2.4360704,2.4528673,2.4768786,2.502646,2.5259976,2.5429354,2.5517068,2.5538645,2.5523224,2.549618,2.546924,2.5443234,2.5406573,2.5362654,2.5311844,2.5266805,2.522173,2.5183895,2.5158477,2.514994,2.5131636,2.5111728,2.5093372,2.5080569,2.5073576,2.5068398,2.5063026,2.5054903,2.5041916,2.5026054,2.5011678,2.4998374,2.498448,2.496944,2.4955435,2.494215,2.4932518,2.4924664,2.4914212,2.489603,2.4865346,2.482594,2.4786677,2.4752936,2.4722996,2.4689946,2.4650617,2.4611197,2.458141,2.456699,2.455094,2.4547582,2.45962,2.4870996,2.5717473,2.7119765,2.8321056,2.8874662,2.8933926,2.876511,2.8492556,2.8329268,2.8261678,2.8229976,2.8186727,2.8131247,2.810165,2.8125966,2.819779,2.829639,2.8393226,2.8481688,2.855834,2.8623185,2.8675883,2.8717663,2.875567,2.8794544,2.8825293,2.884234,2.8847818,2.8842397,2.8826323,2.8796244,2.8749013,2.8681407,2.8584123,2.8470414,2.8356354,2.8271122,2.8217993,2.817021,2.812031,2.8057704,2.7979221,2.7864249,2.7707398,2.7484136,2.7219958,2.6958022,2.680976,2.6885548,2.7290885,2.793343,2.873862,2.9861794,3.1330771,3.2995648,3.4384294,3.5192838,3.5505006,3.5409565,3.5094783,3.4831316,3.4533472,3.415132,3.3813066,3.353265,3.3270247,3.2990437,3.2721028,3.2462635,3.2316444,3.2291136,3.2327394,3.231268,3.2226377
4.800975,4.877584,4.9625826,5.029154,5.0713725,5.1008334,5.127193,5.1551876,5.187351,5.2222247,5.256757,5.2871227,5.3101196,5.3272943,5.342883,5.366041,5.4016867,5.4484653,5.500037,5.544463,5.577976,5.600773,5.6185784,5.6342697,5.6462984,5.65361,5.6587653,5.6687336,5.6949844,5.744088,5.8141513,5.895116,5.9614954,6.006323,6.0315666,6.044525,6.05562,6.0730896,6.102948,6.144873,6.199431,6.263649,6.3307667,6.3979588,6.4674497,6.5390987,6.62043,6.699573,6.72191,6.635461,6.3620453,6.022136,5.7831807,5.651231,5.5579233,5.5134363,5.500208,5.506172,5.519729,5.5386133,5.5675673,5.6030035,5.6335745,5.6584673,5.7047224,5.7940817,5.926021,6.3173304,7.5096817,8.597161,8.934008,9.087687,9.167598,9.199341,9.147408,9.033123,8.797878,8.593137,8.379525,8.302047,8.31379,8.362011,8.454194,8.606394,8.855276,9.148618,9.383879,9.542629,9.63826,9.680786,9.654434,9.595968,9.558787,9.55862,9.58205,9.591227,9.547373,9.429016,9.247131,9.058807,8.898658,8.786032,8.741961,8.723634,8.710959,8.695153,8.67338,8.651722,8.634407,8.623185,8.617245,8.594194,8.566282,8.540159,8.515318,8.498024,8.49452,8.496714,8.513315,8.521152,8.496281,8.455317,8.410671,8.366755,8.28423,8.163769,7.925964,7.431696,6.817444,6.410177,6.1849794,6.0274854,5.9381504,5.8772125,5.8270187,5.7656794,5.6812534,5.562744,5.3734846,5.107623,4.855252,4.640935,4.4475613,4.3048315,4.176633,4.0540867,3.9329114,3.8182507,3.7154975,3.6256204,3.5451574,3.466059,3.3787298,3.2789187,3.1568947,3.0215616,2.89838,2.8018026,2.7350767,2.6874352,2.6530857,2.6207356,2.5894537,2.5585322,2.528203,2.5008092,2.477605,2.4596736,2.4474268,2.4396768,2.4341862,2.4301603,2.4271047,2.4242625,2.4216847,2.4194083,2.41809,2.4181027,2.4200778,2.425561,2.436885,2.454497,2.47761,2.5014234,2.5226536,2.537355,2.5446746,2.5463266,2.5450609,2.5429292,2.5405772,2.5380652,2.5341735,2.529502,2.5243073,2.5195951,2.5146418,2.5105147,2.507741,2.5069494,2.505301,2.5035872,2.5020761,2.5009952,2.5002832,2.499744,2.4992146,2.4981601,2.4965348,2.4946866,2.4931016,2.4918265,2.4906192,2.4893317,2.4880538,2.4866476,2.4855325,2.4846907,2.4837687,2.482285,2.4797273,2.4764125,2.473064,2.470102,2.4672537,2.4640245,2.4597945,2.4556394,2.4529724,2.4518895,2.4505792,2.4500108,2.45506,2.4773545,2.5544448,2.6900094,2.8117678,2.8717275,2.8793414,2.8638265,2.8375401,2.8196607,2.8120658,2.80896,2.8047755,2.7986364,2.7939749,2.7934322,2.797068,2.8033514,2.8099155,2.8162568,2.8217754,2.8263512,2.8301215,2.8332813,2.8364935,2.840057,2.8430772,2.845065,2.8461225,2.8466551,2.8472962,2.847447,2.8466597,2.8438606,2.8380647,2.8307214,2.8236036,2.8192925,2.8183694,2.8181667,2.8155622,2.8093867,2.8000886,2.7873812,2.771423,2.750094,2.725515,2.6993532,2.6775918,2.6747026,2.6947927,2.745321,2.8002777,2.87494,2.9838982,3.1448221,3.3316689,3.470652,3.5363407,3.5457406,3.5204697,3.487526,3.4615967,3.4319587,3.3943338,3.3555837,3.3243144,3.293768,3.2652254,3.2403746,3.2252846,3.2233424,3.227581,3.2267895,3.2189016
4.699293,4.760808,4.835146,4.901592,4.9525576,4.9939723,5.029301,5.063669,5.1002293,5.1390595,5.1782393,5.2141886,5.2440104,5.268918,5.2931194,5.325941,5.371801,5.4278774,5.486888,5.535636,5.571288,5.5958366,5.615812,5.6341486,5.647853,5.6542883,5.6565523,5.6626477,5.6860576,5.7343144,5.8053603,5.887071,5.953825,5.998579,6.023064,6.0353107,6.046586,6.0644875,6.094813,6.136791,6.1906548,6.2541037,6.322542,6.394587,6.47054,6.547943,6.6283827,6.6967983,6.6978173,6.570097,6.269345,5.9353538,5.727274,5.617362,5.5424767,5.503746,5.496257,5.501283,5.510005,5.5241528,5.5509806,5.5887804,5.6223183,5.644148,5.6833887,5.7721577,5.8992004,6.2422485,7.4333663,8.52886,8.851137,9.008356,9.087302,9.117951,9.061349,8.915691,8.667438,8.454927,8.291618,8.2659645,8.30945,8.379667,8.4713335,8.613083,8.849228,9.11257,9.346168,9.5185585,9.61405,9.667375,9.67111,9.618065,9.576338,9.572687,9.590079,9.584583,9.521688,9.391465,9.204575,9.015346,8.869594,8.771983,8.721472,8.696556,8.67852,8.658073,8.636046,8.61928,8.607449,8.600441,8.583525,8.554309,8.523243,8.492822,8.467581,8.452039,8.4541,8.466128,8.490375,8.480467,8.451076,8.427348,8.3985815,8.357538,8.255096,8.091121,7.746631,7.1417685,6.6196604,6.308688,6.1191635,5.9938955,5.9074883,5.832448,5.7606606,5.6832647,5.590809,5.4675655,5.2593837,5.007921,4.7719526,4.5565515,4.380686,4.2437124,4.125033,4.0067754,3.892209,3.7830443,3.6827703,3.59399,3.5117576,3.428658,3.3360476,3.2307758,3.1047158,2.9730115,2.8590806,2.7728324,2.713387,2.6711876,2.6394055,2.6087356,2.578989,2.547943,2.5179772,2.4917932,2.4699516,2.4534645,2.4424787,2.435544,2.430338,2.4262397,2.4230838,2.4203765,2.418255,2.4166658,2.4160268,2.416584,2.4188535,2.4251332,2.4368124,2.4549203,2.476341,2.4983044,2.5171328,2.5296159,2.535582,2.536821,2.5358696,2.5342994,2.5322888,2.5298865,2.5259376,2.5210829,2.5154204,2.5103276,2.5052414,2.501348,2.4989398,2.4986572,2.4975874,2.4964457,2.49547,2.494971,2.4948926,2.4949074,2.4946856,2.4938376,2.4923692,2.4906275,2.489141,2.4880288,2.4870076,2.4858646,2.484593,2.4829378,2.4814386,2.4802475,2.4791563,2.477728,2.4753976,2.4724178,2.4694047,2.466681,2.4638286,2.460392,2.455904,2.4514556,2.4484386,2.447043,2.4454083,2.444829,2.4507098,2.4690447,2.5386648,2.6677074,2.7894197,2.8542178,2.8645077,2.84955,2.8255422,2.8071895,2.799009,2.7967923,2.793884,2.7885609,2.7836552,2.7815237,2.7827408,2.7861857,2.790018,2.7938604,2.7971394,2.7997916,2.802135,2.804442,2.8071015,2.8100688,2.812541,2.8140917,2.8149123,2.8156748,2.8174925,2.819707,2.8219228,2.8224788,2.8202884,2.816553,2.8129485,2.8118367,2.8136382,2.8162858,2.8166418,2.8125763,2.8039758,2.7912736,2.7756824,2.7557347,2.7318301,2.7064767,2.68219,2.6699483,2.6764703,2.7082436,2.7513793,2.7959359,2.8660617,2.9861937,3.1775274,3.3761635,3.495554,3.537642,3.5283308,3.499238,3.4662457,3.439744,3.4056916,3.361043,3.32311,3.2884345,3.2584233,3.2335567,3.2189806,3.217256,3.221631,3.2217584,3.214074
4.6524887,4.703609,4.765257,4.8255434,4.8794117,4.9254675,4.9650073,5.0027027,5.0418587,5.083787,5.127511,5.169549,5.206725,5.2401037,5.2735734,5.315874,5.3711023,5.4351673,5.500678,5.552041,5.587962,5.6134,5.6356134,5.657137,5.674373,5.6822357,5.681983,5.683177,5.70175,5.74639,5.816036,5.893608,5.956477,5.999192,6.021069,6.031621,6.043153,6.062999,6.0954027,6.1383777,6.190814,6.2511187,6.3174973,6.390069,6.471585,6.555007,6.6381693,6.7009907,6.6911373,6.53726,6.2097416,5.876837,5.6873536,5.593629,5.5297184,5.4980063,5.4940996,5.4970036,5.5003214,5.509501,5.533553,5.5746527,5.6144514,5.63881,5.670594,5.753454,5.8806105,6.194102,7.366869,8.456543,8.7732525,8.92779,9.002887,9.031408,8.953699,8.790857,8.552975,8.371868,8.267353,8.274132,8.32906,8.404026,8.492931,8.632193,8.834712,9.068232,9.31221,9.488892,9.583483,9.634394,9.656741,9.634171,9.602747,9.59544,9.6003895,9.575233,9.492661,9.357169,9.164471,8.972396,8.841286,8.750596,8.699398,8.673846,8.650583,8.623686,8.600111,8.584685,8.576286,8.561421,8.538269,8.510519,8.477476,8.443863,8.417244,8.404743,8.412651,8.438406,8.453036,8.432867,8.414654,8.402681,8.39056,8.332581,8.197508,7.9505143,7.4659348,6.867327,6.4550724,6.222148,6.0687447,5.9623957,5.870097,5.7788987,5.6900787,5.602768,5.5051994,5.3756466,5.1676655,4.9275637,4.7013454,4.484674,4.320963,4.189081,4.0763235,3.9623623,3.853016,3.748099,3.6500468,3.56186,3.477328,3.3898463,3.2922034,3.1818638,3.0544267,2.9295366,2.8249242,2.7481909,2.6946874,2.6578844,2.6266403,2.5982046,2.5687642,2.537809,2.508929,2.4838638,2.463223,2.4479,2.4378307,2.4314437,2.4264398,2.4223545,2.4192767,2.4168472,2.4152136,2.4142132,2.4140868,2.415007,2.4178543,2.4246418,2.436223,2.454105,2.4741087,2.494031,2.5105453,2.5210257,2.5258143,2.5267076,2.526,2.5248356,2.523045,2.5207717,2.5164607,2.5109727,2.504884,2.4997883,2.4952104,2.4918685,2.49005,2.490334,2.4898324,2.4894242,2.4893808,2.4897227,2.4904432,2.4910846,2.4913697,2.4909618,2.4898672,2.4884222,2.4871461,2.4862237,2.4853637,2.4843163,2.4829946,2.4810352,2.479065,2.4773722,2.4759417,2.4743857,2.4721248,2.4693677,2.4666262,2.4641216,2.4612732,2.4576323,2.4527888,2.447927,2.4446273,2.4430532,2.4409885,2.4397519,2.4452271,2.4617782,2.5234327,2.6430619,2.7624955,2.8313074,2.8463335,2.8324332,2.811522,2.7940466,2.7862816,2.7856889,2.7847266,2.781083,2.7769353,2.7743487,2.7742379,2.7758148,2.777718,2.7796474,2.7811747,2.7823715,2.7837896,2.7857153,2.7882726,2.7911096,2.7932162,2.7943342,2.794684,2.7951488,2.7971573,2.8002086,2.8040895,2.8068242,2.8072586,2.8060668,2.8046417,2.8051376,2.8081446,2.8120227,2.8142562,2.8127427,2.8066683,2.7957544,2.7811415,2.762707,2.7403965,2.7147129,2.69068,2.673666,2.67059,2.6868813,2.7166486,2.7464676,2.784798,2.8608623,3.0169702,3.233978,3.420433,3.5130053,3.5277987,3.5112073,3.4773273,3.4472861,3.4100795,3.3708158,3.3234549,3.2845006,3.2530413,3.2270308,3.2135768,3.2120633,3.2167883,3.2172942,3.2092943
4.630157,4.6723413,4.722432,4.775978,4.8265276,4.871335,4.90998,4.946908,4.986044,5.0295496,5.0774455,5.126135,5.1716614,5.2141438,5.2567463,5.30769,5.3709745,5.4425945,5.509593,5.560831,5.5955634,5.620368,5.6431913,5.66787,5.6886926,5.69995,5.701492,5.700844,5.714819,5.756336,5.82181,5.8936806,5.95268,5.9925566,6.0119143,6.022094,6.0354667,6.059149,6.0955334,6.1411,6.1928453,6.249442,6.3111677,6.3808517,6.4672503,6.5552783,6.640733,6.704717,6.685606,6.5112123,6.152169,5.81311,5.640939,5.5615845,5.5090895,5.487237,5.487838,5.4903603,5.4902325,5.495741,5.5174847,5.562577,5.6101065,5.640276,5.667387,5.74189,5.8633223,6.146407,7.2910705,8.380215,8.700897,8.849285,8.9193325,8.944716,8.843243,8.679131,8.4626665,8.312461,8.245525,8.26873,8.328304,8.400587,8.488112,8.61816,8.794048,9.015809,9.270255,9.448047,9.544495,9.582786,9.595789,9.597773,9.590576,9.585293,9.577782,9.545194,9.461239,9.315222,9.1207285,8.931257,8.806103,8.727232,8.682865,8.650207,8.617884,8.587309,8.564035,8.55298,8.53619,8.518877,8.49789,8.469357,8.434252,8.397328,8.368582,8.362139,8.377869,8.409929,8.414909,8.39051,8.380251,8.385484,8.365198,8.2741585,8.0783,7.6737537,7.068331,6.564147,6.2839427,6.113552,6.007393,5.9161043,5.8203545,5.7211246,5.62723,5.5380473,5.4401474,5.3100343,5.103047,4.86456,4.6342487,4.4157133,4.2599053,4.137621,4.0298986,3.9212418,3.8163586,3.7146153,3.6188736,3.5303478,3.4426336,3.3502123,3.2476888,3.1337109,3.0084105,2.8905058,2.7958975,2.726988,2.6793315,2.645513,2.6154943,2.5879922,2.5579488,2.5278,2.4998672,2.4760056,2.4565988,2.4423609,2.433098,2.427196,2.42244,2.4184756,2.4155636,2.413413,2.4121633,2.4115715,2.4117951,2.4129858,2.416817,2.4237022,2.4357042,2.4529276,2.4716523,2.4897175,2.5041943,2.5129805,2.5167832,2.5173368,2.5166774,2.5156446,2.5138185,2.5110378,2.5058959,2.4998865,2.4938664,2.4890084,2.4847412,2.4817722,2.480373,2.4813375,2.4817777,2.4821696,2.4827728,2.483628,2.4847202,2.4857345,2.486349,2.4861867,2.4853213,2.4840803,2.482953,2.4821472,2.4813612,2.480339,2.47895,2.4767675,2.4744737,2.4725087,2.4709582,2.4694486,2.4673805,2.4649205,2.462514,2.4603324,2.457703,2.4541225,2.449232,2.4442806,2.4409618,2.4394588,2.437359,2.4355965,2.439341,2.4547849,2.5067208,2.61473,2.7303448,2.8000798,2.8216228,2.8114748,2.794006,2.779173,2.7732449,2.7745712,2.7755296,2.7735023,2.7702065,2.7675734,2.7667398,2.7672462,2.7680328,2.7688346,2.769361,2.7698245,2.7710156,2.7732444,2.7763653,2.779734,2.7820961,2.7832327,2.783277,2.783295,2.784833,2.7877035,2.7919426,2.795599,2.7975142,2.7977448,2.7972212,2.7978644,2.8006763,2.8048608,2.8082376,2.8083613,2.8042235,2.7956276,2.7824485,2.7661095,2.74654,2.7229972,2.6990957,2.6809156,2.672834,2.6776726,2.6928837,2.7130222,2.7327588,2.7720037,2.8750257,3.070026,3.3009696,3.455937,3.5104342,3.5170546,3.4944456,3.4566565,3.4189587,3.375114,3.3273635,3.2833638,3.2490926,3.2221048,3.2090125,3.2082372,3.2138236,3.2145326,3.2060256
4.6199656,4.652833,4.693206,4.737446,4.7805195,4.819289,4.8526907,4.8851957,4.9217825,4.965273,5.0169,5.0729218,5.1281533,5.180908,5.233136,5.292452,5.3636146,5.438244,5.5046597,5.555954,5.590111,5.611326,5.633414,5.660759,5.6854424,5.6992807,5.7035437,5.7048187,5.718977,5.757557,5.8175097,5.885344,5.9417877,5.9781513,5.9968204,6.0083094,6.0245066,6.052001,6.092035,6.140111,6.1913424,6.2443714,6.301033,6.3682775,6.4563146,6.5512424,6.6368036,6.6955776,6.6722536,6.483201,6.0841017,5.7351213,5.579556,5.515133,5.4770164,5.4652066,5.472248,5.4774437,5.477036,5.481459,5.5029125,5.551405,5.6074114,5.644452,5.6685967,5.7303524,5.8366594,6.0813856,7.1888657,8.298887,8.632271,8.773172,8.838224,8.860971,8.738033,8.583153,8.385639,8.261616,8.212168,8.241621,8.298821,8.36561,8.449541,8.570589,8.742363,8.962513,9.22208,9.403545,9.490932,9.511458,9.517482,9.521288,9.522069,9.518466,9.509227,9.488966,9.419077,9.268386,9.073087,8.882395,8.758284,8.692808,8.654448,8.620014,8.590778,8.56294,8.539316,8.51647,8.498634,8.484056,8.464861,8.434318,8.395285,8.355814,8.328819,8.328184,8.351109,8.386524,8.37681,8.347312,8.358078,8.36397,8.299255,8.151369,7.826873,7.2244606,6.630431,6.277753,6.106011,5.998279,5.9312663,5.8547363,5.7620564,5.66588,5.5782466,5.496048,5.4008865,5.26583,5.0483866,4.8006907,4.550762,4.329425,4.1820755,4.0763254,3.9777067,3.8763866,3.7773747,3.6801586,3.5867639,3.4978516,3.4067001,3.3093166,3.20224,3.0865026,2.9651933,2.8546722,2.7698064,2.7080593,2.6659975,2.6331105,2.604442,2.5767097,2.5465007,2.5171037,2.4903102,2.4678726,2.44987,2.4367566,2.4282525,2.422754,2.4181895,2.414313,2.4115138,2.4095392,2.4084973,2.4081087,2.4085271,2.4103236,2.414669,2.4218507,2.434248,2.4508429,2.468391,2.484736,2.4974024,2.5047474,2.5077186,2.507928,2.5071487,2.505991,2.503563,2.4997704,2.494176,2.4881234,2.4821463,2.4773908,2.4732985,2.4707422,2.4700923,2.471838,2.4728994,2.4737177,2.4745097,2.4755106,2.4767103,2.4778268,2.4785686,2.4785738,2.4778981,2.4768386,2.4758306,2.4750688,2.4742613,2.4731965,2.4717596,2.4695277,2.467166,2.465186,2.463712,2.4623988,2.4606447,2.45858,2.4565945,2.4548178,2.4525404,2.44921,2.4445136,2.4397526,2.43671,2.4356785,2.434064,2.4321878,2.4347458,2.448639,2.4892993,2.5827491,2.6924524,2.7616785,2.7890518,2.7851129,2.7728677,2.7626324,2.7597084,2.763111,2.7658036,2.7651095,2.7625206,2.7599673,2.7587018,2.75864,2.7588534,2.7590451,2.7590396,2.75913,2.760365,2.7631297,2.767088,2.771368,2.7744303,2.7759902,2.7760334,2.775792,2.776809,2.7792463,2.7833538,2.7873955,2.7902951,2.7915232,2.791441,2.7916737,2.7937071,2.797616,2.8016257,2.8030133,2.7999845,2.792489,2.7803228,2.7661731,2.749807,2.7298284,2.7080002,2.6885796,2.6771414,2.6751199,2.6800957,2.6886144,2.6986217,2.7142696,2.7673554,2.9064577,3.1372178,3.3595855,3.4730985,3.5029063,3.5004525,3.4698443,3.4266443,3.3777578,3.3351407,3.2849417,3.247923,3.218561,3.2051415,3.2052064,3.2118785,3.2128584,3.203868
4.6124077,4.6365566,4.66658,4.7002225,4.733337,4.7628827,4.7878523,4.8130083,4.844649,4.8864727,4.940962,5.0046234,5.0713634,5.136606,5.200405,5.2695065,5.350173,5.427184,5.496668,5.5498605,5.580864,5.600608,5.621044,5.6482563,5.675206,5.6917696,5.6969957,5.6999454,5.7157803,5.7540092,5.8131905,5.8793564,5.932033,5.9655066,5.984765,5.997376,6.0148897,6.0441713,6.08593,6.1353083,6.186125,6.2368503,6.2897468,6.355441,6.442912,6.541282,6.6289186,6.675372,6.652618,6.4412746,6.001626,5.645329,5.5022335,5.4553933,5.4306316,5.4286785,5.443881,5.454997,5.4579506,5.464279,5.4875107,5.5392113,5.6035247,5.6465015,5.667597,5.7093477,5.7923822,5.9934826,7.022143,8.203785,8.565808,8.698562,8.759443,8.774294,8.64343,8.499599,8.318667,8.212967,8.1704235,8.19816,8.24975,8.311791,8.3957405,8.515838,8.692844,8.921724,9.179163,9.360639,9.417373,9.428755,9.435257,9.438086,9.437193,9.432914,9.424211,9.411779,9.361492,9.221317,9.020574,8.82631,8.705734,8.643295,8.602826,8.576168,8.553684,8.528358,8.504703,8.48288,8.47036,8.459598,8.441222,8.408258,8.365524,8.325285,8.3034,8.302914,8.339355,8.366034,8.333982,8.332201,8.350696,8.305449,8.195066,7.926124,7.3925614,6.7443337,6.3062806,6.0791693,5.960742,5.8995376,5.8537893,5.7881308,5.7041245,5.620723,5.548011,5.478647,5.3817167,5.2293453,4.9889674,4.7056103,4.4279957,4.2039824,4.0698814,3.9884946,3.909751,3.8199728,3.7304306,3.6398058,3.550395,3.4621916,3.3682516,3.2662907,3.1571832,3.040495,2.923361,2.821989,2.7456872,2.6909328,2.652998,2.620852,2.59261,2.5639935,2.5340528,2.5055475,2.4802475,2.4594862,2.4431357,2.4312272,2.4234443,2.4182224,2.4136875,2.4097345,2.4068627,2.4048667,2.4038045,2.4033885,2.4038138,2.4062507,2.4108324,2.4183602,2.4308307,2.4467344,2.4629889,2.4775958,2.4885912,2.49471,2.4970274,2.4969559,2.4960928,2.4943595,2.4909463,2.48668,2.4810956,2.4751272,2.4694037,2.4649239,2.4611855,2.4592967,2.4591913,2.461274,2.4625447,2.4635634,2.4645166,2.4656148,2.4668813,2.4681077,2.4690297,2.4692962,2.4689307,2.4681816,2.4674058,2.4667246,2.465873,2.4647102,2.4632254,2.4610324,2.4587374,2.4568253,2.4554186,2.4542127,2.4526625,2.4508677,2.4491727,2.447671,2.4456701,2.4426136,2.4382486,2.4338849,2.4314141,2.4312449,2.4306731,2.4293318,2.4307642,2.4420881,2.4729624,2.5481071,2.6474073,2.7163253,2.7487617,2.7524366,2.747563,2.7436492,2.7449195,2.7507865,2.755302,2.7559223,2.754066,2.751659,2.7501328,2.7497163,2.7495928,2.7493534,2.748858,2.7484713,2.7494817,2.752428,2.7568967,2.7618573,2.765585,2.7676892,2.768023,2.7679281,2.7689438,2.7714467,2.7757792,2.7804632,2.7845883,2.7871299,2.787877,2.7880824,2.7895823,2.7932117,2.7976403,2.7998896,2.7975044,2.7902098,2.7780654,2.7650685,2.7510617,2.734363,2.7150302,2.6953638,2.6803155,2.6725595,2.6701803,2.6715002,2.6757302,2.6805232,2.7005424,2.7764926,2.9514642,3.2005336,3.395166,3.47542,3.4876192,3.4770606,3.4318316,3.386983,3.3399005,3.2945461,3.2491703,3.2164817,3.2018833,3.2022452,3.2097547,3.2111177,3.2022362
4.6011024,4.6179075,4.639033,4.6632915,4.6871433,4.707738,4.72421,4.7415547,4.7661734,4.801925,4.857896,4.927862,5.003663,5.0803,5.155651,5.235173,5.3257675,5.410494,5.4860125,5.54214,5.5727725,5.5921955,5.6116347,5.63726,5.6640024,5.6831846,5.6905994,5.6944733,5.711787,5.7521605,5.8123264,5.8767734,5.9259357,5.9578934,5.977508,5.991561,6.009624,6.0385623,6.080173,6.1296806,6.18011,6.229823,6.280048,6.344729,6.4344296,6.5311127,6.616207,6.6562004,6.630117,6.3852987,5.912285,5.557029,5.4247875,5.3863153,5.37747,5.384201,5.4076138,5.426199,5.4347563,5.4448576,5.471351,5.527458,5.598303,5.6460295,5.6623125,5.6812124,5.7373066,5.892544,6.8078938,8.100981,8.499773,8.624401,8.682646,8.665703,8.557083,8.430731,8.266825,8.172546,8.133209,8.151533,8.197027,8.25938,8.352875,8.472393,8.650002,8.89633,9.149727,9.304882,9.334524,9.343429,9.34921,9.351531,9.350592,9.346594,9.337423,9.3265705,9.294292,9.172365,8.969582,8.771795,8.651195,8.586868,8.554436,8.5373955,8.51825,8.495121,8.473452,8.459993,8.452589,8.443229,8.4129095,8.374655,8.333333,8.2957115,8.274834,8.289901,8.339018,8.339858,8.320238,8.350291,8.333942,8.235086,8.001926,7.593058,6.914151,6.4005623,6.119132,5.952523,5.872512,5.8297143,5.789016,5.7275133,5.652664,5.5850725,5.530225,5.4700027,5.3676367,5.192573,4.91683,4.589474,4.2797985,4.0650625,3.951105,3.8891835,3.8321543,3.757002,3.6781006,3.59508,3.5107026,3.4229627,3.3264985,3.2214537,3.110509,2.9932365,2.881647,2.7901626,2.7223742,2.6741748,2.638627,2.6077797,2.5794237,2.5503082,2.5208554,2.493464,2.4696968,2.451139,2.4367332,2.4259462,2.4187481,2.4136224,2.408924,2.4047308,2.4016218,2.3994403,2.3981578,2.3974812,2.3977044,2.4003615,2.405007,2.4125633,2.424439,2.4392421,2.4538746,2.4666123,2.4760199,2.4811041,2.4829319,2.4827166,2.4814925,2.4790366,2.4750533,2.471003,2.46592,2.4604757,2.4552479,2.451362,2.4482045,2.4466538,2.4467638,2.449038,2.4505706,2.4518228,2.4529371,2.4541273,2.4554656,2.456843,2.4580247,2.458663,2.4587348,2.4584184,2.4579842,2.457453,2.4566033,2.4553761,2.4539247,2.4519134,2.4498503,2.448117,2.446793,2.4456263,2.4441736,2.442525,2.4409864,2.439618,2.4377694,2.4349313,2.4309082,2.4269776,2.425125,2.4258819,2.4265704,2.4261687,2.4266455,2.4350047,2.4586313,2.5132985,2.5987332,2.6667538,2.7024083,2.7145653,2.7161512,2.717952,2.7232695,2.7312002,2.7370229,2.738833,2.7378783,2.7358184,2.7342346,2.7336178,2.733317,2.7327914,2.7318685,2.7309353,2.731388,2.7338762,2.7383301,2.7439837,2.7485304,2.7512383,2.7518854,2.7519698,2.7531152,2.7560248,2.7612553,2.7672095,2.7732227,2.7778687,2.7804503,2.7817645,2.7837865,2.7878933,2.7931848,2.796471,2.7946775,2.7879257,2.776322,2.7637115,2.7510266,2.7367191,2.7194777,2.7000787,2.6827898,2.6702218,2.6624105,2.6576827,2.6575265,2.6592307,2.6609597,2.6930442,2.7953863,2.9974499,3.2512631,3.4184062,3.4653344,3.4659681,3.4389534,3.390408,3.3472888,3.3039052,3.2573657,3.2184443,3.2006488,3.1999397,3.207282,3.2083697,3.1995854
4.5858936,4.5971622,4.611764,4.6293144,4.646618,4.660883,4.670966,4.6817493,4.7001667,4.730532,4.78147,4.851595,4.931929,5.0168,5.102026,5.1919317,5.2930903,5.3894997,5.4727297,5.532797,5.5659075,5.586065,5.606021,5.6319017,5.6582065,5.6784725,5.6895294,5.694536,5.7132015,5.7554665,5.8151207,5.8762903,5.9234476,5.954712,5.974619,5.989113,6.0075417,6.0363235,6.0768576,6.1251926,6.174632,6.2227383,6.272256,6.336892,6.4269114,6.5213947,6.600739,6.6406336,6.6080003,6.327186,5.8293667,5.4811945,5.3593445,5.324566,5.3263016,5.3405113,5.3707895,5.3965626,5.4111557,5.425657,5.4560804,5.5172286,5.594056,5.6455855,5.6550565,5.651106,5.679159,5.792262,6.5751324,7.9148226,8.418135,8.550317,8.606672,8.552796,8.473889,8.379129,8.240089,8.145016,8.109953,8.124439,8.160748,8.224405,8.319374,8.449609,8.629056,8.886027,9.126509,9.22962,9.247826,9.255785,9.260831,9.262816,9.261858,9.258091,9.249178,9.238238,9.217749,9.117352,8.920118,8.727215,8.599501,8.538708,8.517249,8.507448,8.492571,8.472498,8.454263,8.441672,8.425535,8.40164,8.371649,8.332189,8.291511,8.258766,8.250608,8.293929,8.328508,8.30901,8.348551,8.362101,8.30281,8.107403,7.780184,7.1646094,6.555439,6.2199473,6.0170975,5.897214,5.836564,5.792801,5.744055,5.6790457,5.6092634,5.554819,5.514222,5.4546666,5.343004,5.1412687,4.81017,4.452404,4.130354,3.9403844,3.8432417,3.7954402,3.7542677,3.69239,3.6237783,3.5485115,3.4685404,3.3805895,3.2818341,3.1755283,3.0605152,2.9436095,2.8398504,2.7586136,2.6995573,2.6575828,2.6238723,2.5941987,2.5654852,2.5363336,2.5075905,2.481391,2.459916,2.4437044,2.4308481,2.4210901,2.4142957,2.4090865,2.4040756,2.3995638,2.396172,2.3937612,2.3921642,2.3910513,2.391007,2.3933415,2.3976955,2.4047728,2.4153304,2.4285104,2.4411378,2.4519017,2.459826,2.4640527,2.4655204,2.4651995,2.4634657,2.460523,2.4568648,2.4533896,2.4490442,2.4444833,2.4400425,2.4367588,2.4341016,2.4328823,2.4333053,2.4358966,2.4377475,2.4392648,2.440551,2.4418344,2.4432569,2.4448333,2.446352,2.4474602,2.448061,2.4482527,2.4482417,2.447939,2.4471877,2.4460201,2.4447565,2.443112,2.4414587,2.4400115,2.4387887,2.4375906,2.4361122,2.4344597,2.4329224,2.431527,2.4296713,2.4269242,2.4231467,2.4195485,2.4181364,2.4195538,2.421267,2.4217463,2.4215524,2.4270177,2.4443727,2.4812624,2.547667,2.6118226,2.6516862,2.6708083,2.6782532,2.6845307,2.69274,2.7020507,2.708723,2.7110705,2.710772,2.7092967,2.707982,2.7073646,2.7069607,2.7061553,2.7048218,2.7033894,2.703284,2.705316,2.709402,2.7147563,2.7195687,2.7227612,2.7237873,2.7244306,2.7263913,2.730256,2.7365384,2.7440157,2.7523842,2.759965,2.7656374,2.769565,2.7736142,2.7792997,2.7861543,2.7911336,2.7907588,2.7847183,2.7748504,2.7640107,2.752281,2.7392888,2.7233632,2.704113,2.685329,2.669723,2.6583128,2.6491404,2.6428835,2.640822,2.6372619,2.6430082,2.69172,2.8138425,3.0536444,3.2977352,3.423999,3.4473014,3.4376912,3.3985846,3.3533778,3.3140182,3.272761,3.2264218,3.2043126,3.1997995,3.2050571,3.2043471,3.1942928
4.5693736,4.57631,4.586208,4.599315,4.612708,4.623584,4.6301994,4.6368904,4.650108,4.674973,4.7186894,4.782033,4.8605175,4.947683,5.039526,5.1388583,5.2500196,5.361122,5.451456,5.512918,5.550796,5.5749226,5.5986814,5.627042,5.6551948,5.6767397,5.6900053,5.698311,5.716639,5.756838,5.814682,5.8742385,5.9205446,5.9515896,5.9709044,5.9863415,6.004559,6.032816,6.0725393,6.1199503,6.167815,6.215086,6.2658114,6.3319826,6.419859,6.5106535,6.5870876,6.6250644,6.58278,6.268589,5.7576737,5.4220924,5.309687,5.279538,5.28226,5.3010635,5.335879,5.367444,5.3874865,5.4062138,5.440337,5.506287,5.589076,5.6440496,5.6462755,5.625473,5.630095,5.70762,6.3561993,7.699636,8.325462,8.473722,8.532728,8.447256,8.374549,8.339008,8.224224,8.122726,8.098536,8.104821,8.145403,8.208762,8.292901,8.422247,8.611792,8.856651,9.082113,9.147817,9.159739,9.16713,9.171616,9.173475,9.172521,9.168896,9.160513,9.149588,9.1334,9.052645,8.880468,8.701174,8.568068,8.507336,8.490232,8.485117,8.474387,8.451326,8.427872,8.405708,8.38441,8.362913,8.334211,8.295898,8.257856,8.232395,8.248138,8.296655,8.301249,8.321283,8.339985,8.299738,8.237379,7.9871035,7.547332,6.8108797,6.3654237,6.1240635,5.9795227,5.891735,5.83454,5.7798386,5.7168756,5.645108,5.577449,5.529669,5.4962616,5.436309,5.3117824,5.0752172,4.698312,4.3126087,4.0120616,3.8450227,3.7617502,3.7256188,3.6893187,3.6354718,3.5740213,3.5036044,3.4251847,3.3358588,3.2357862,3.1255717,3.0072536,2.8950958,2.8011632,2.7297473,2.6786964,2.6409392,2.6095767,2.580688,2.551673,2.5228548,2.4951365,2.4709177,2.451844,2.437119,2.4254582,2.4163728,2.4096808,2.404202,2.398807,2.3940077,2.3904119,2.3878517,2.3859804,2.3843923,2.383913,2.3855174,2.38906,2.3949914,2.4035578,2.4146423,2.425157,2.4341593,2.4409409,2.444604,2.4459538,2.4452038,2.4430852,2.4405866,2.4373195,2.4341862,2.4304512,2.4266524,2.4229653,2.420291,2.418135,2.4173527,2.4181256,2.4210062,2.4231017,2.4247928,2.4261577,2.4274535,2.428889,2.4306068,2.4324079,2.4339423,2.4350376,2.4357183,2.4361548,2.4361563,2.4356327,2.4346843,2.4337487,2.432579,2.4314194,2.430336,2.429308,2.4281604,2.4267206,2.4251199,2.4236443,2.4222977,2.4205127,2.41793,2.4144375,2.411149,2.4099953,2.4117005,2.4139953,2.4150667,2.414454,2.4169943,2.42834,2.4525757,2.4990935,2.5528164,2.5924125,2.6158,2.628608,2.6393042,2.650936,2.6602755,2.6667738,2.6698449,2.6704264,2.66963,2.6686935,2.6682453,2.6680322,2.6675465,2.6664705,2.6651096,2.664584,2.6656497,2.6687305,2.6732454,2.6775184,2.6807785,2.6824284,2.6837554,2.6863382,2.6909184,2.698087,2.7067559,2.7169871,2.7269583,2.735476,2.7425714,2.7493715,2.7570343,2.765458,2.7719076,2.7728276,2.7682896,2.760623,2.751854,2.742265,2.7316747,2.7185767,2.7019231,2.6830273,2.6663628,2.6533942,2.6424758,2.6320438,2.6234355,2.6153073,2.6112318,2.6284394,2.6928253,2.8580055,3.1235635,3.3402715,3.4167197,3.4215298,3.4019156,3.3614893,3.3187053,3.279399,3.2440813,3.2131057,3.2054086,3.2071762,3.2024794,3.1896074
4.553779,4.5569954,4.56338,4.5736036,4.5852704,4.595545,4.6020184,4.6077614,4.6174693,4.635977,4.6705036,4.723298,4.7923346,4.874161,4.966924,5.0716896,5.190903,5.3119917,5.4118347,5.4768944,5.5179224,5.5501356,5.581419,5.617323,5.6516776,5.6763315,5.6900973,5.698105,5.7131677,5.749676,5.805114,5.863555,5.9098186,5.9411793,5.9607277,5.9768925,5.9964714,6.025469,6.06524,6.1112857,6.1579547,6.205068,6.2579556,6.327385,6.414678,6.501182,6.574627,6.60563,6.5440407,6.2009354,5.6930823,5.377387,5.274763,5.249216,5.2499394,5.266062,5.302472,5.3378954,5.362223,5.3843303,5.4212627,5.491231,5.57934,5.6381435,5.636275,5.600573,5.590619,5.6415205,6.1608443,7.4924736,8.225539,8.394142,8.430044,8.348183,8.289932,8.294712,8.200703,8.121834,8.0812435,8.090638,8.120432,8.173201,8.270971,8.397803,8.574825,8.8018875,8.99965,9.056091,9.066181,9.073257,9.0778055,9.078762,9.076998,9.073197,9.065436,9.055737,9.038706,8.975533,8.840509,8.679717,8.56103,8.500326,8.478615,8.460812,8.436883,8.411701,8.387955,8.365932,8.347235,8.327623,8.300315,8.26572,8.233503,8.220099,8.248231,8.272837,8.277029,8.299328,8.270419,8.216891,8.163635,7.8589563,7.3031087,6.615631,6.258143,6.0712757,5.9735804,5.904294,5.8423343,5.774649,5.7000694,5.6231976,5.554629,5.512115,5.481455,5.4207497,5.283093,5.008742,4.606412,4.213277,3.9403486,3.790456,3.719539,3.6898494,3.6452072,3.5937002,3.5333803,3.4624033,3.3816884,3.2897716,3.1865847,3.0710695,2.953832,2.8494415,2.7666156,2.7048585,2.6607394,2.6258974,2.5962784,2.5676994,2.5385203,2.510604,2.4845304,2.4625642,2.4451504,2.4316053,2.4207335,2.4118314,2.4048924,2.3989727,2.393167,2.3881607,2.3844912,2.3819141,2.379871,2.377838,2.3767772,2.3773386,2.3795495,2.3837414,2.3900664,2.398402,2.406939,2.4145732,2.420658,2.4241567,2.4251962,2.424201,2.4222107,2.4199054,2.4166524,2.41359,2.4102187,2.4069314,2.4037883,2.4015994,2.3998458,2.3993797,2.4003568,2.4033437,2.4054708,2.4071288,2.4083962,2.4095554,2.410866,2.412568,2.4144812,2.4162617,2.417694,2.418735,2.4195132,2.419798,2.4195447,2.4188905,2.4183145,2.4176054,2.416925,2.416266,2.415595,2.4147525,2.413635,2.4123945,2.411311,2.410361,2.40899,2.4068902,2.403924,2.4010878,2.400113,2.4018233,2.404259,2.4056005,2.4047775,2.4050417,2.4113882,2.4267755,2.4558797,2.4952598,2.529605,2.5526376,2.5676126,2.5792236,2.5909271,2.6014853,2.609548,2.6135297,2.6152534,2.6156774,2.61555,2.6153827,2.6156764,2.6158993,2.6157398,2.615365,2.6154814,2.6163123,2.6180816,2.621282,2.6247716,2.6277652,2.6296573,2.6313486,2.6343522,2.638998,2.645763,2.6540592,2.6641872,2.6746788,2.6845398,2.69286,2.7007303,2.7094707,2.7191308,2.7269115,2.7294664,2.7272298,2.7227225,2.7173982,2.7117357,2.7053018,2.6964955,2.6838746,2.6692204,2.654241,2.6417732,2.6311767,2.620081,2.6074395,2.5965776,2.5890648,2.5940006,2.625287,2.7205946,2.9238212,3.172871,3.347318,3.3921146,3.387893,3.3645353,3.3249674,3.2821026,3.2477593,3.2282395,3.2148702,3.210628,3.203198,3.1894088
4.539113,4.538852,4.5422726,4.550274,4.56106,4.571928,4.5800953,4.587119,4.5955086,4.609018,4.6344147,4.675668,4.7325764,4.8025517,4.8874493,4.996662,5.1236477,5.253431,5.363948,5.4343057,5.4798937,5.5180616,5.56028,5.6066,5.650711,5.67958,5.69163,5.6959305,5.707101,5.7381163,5.7901683,5.8479834,5.8937826,5.925409,5.9463787,5.9642787,5.986566,6.017844,6.05809,6.1037498,6.1495085,6.196903,6.253147,6.324127,6.4081445,6.492505,6.560416,6.5806804,6.5003614,6.13699,5.6436086,5.350253,5.2556734,5.2347345,5.225218,5.236634,5.2717347,5.3089542,5.336481,5.3613987,5.400579,5.474056,5.5652537,5.6250687,5.627387,5.581829,5.564872,5.599018,6.002241,7.311516,8.0892,8.306711,8.316154,8.25345,8.206804,8.218992,8.175877,8.121961,8.07686,8.068565,8.092215,8.150406,8.243195,8.357323,8.51856,8.711712,8.86642,8.952635,8.973773,8.976588,8.975929,8.98286,8.985191,8.978878,8.970062,8.960088,8.9361,8.878254,8.777922,8.64591,8.539358,8.478755,8.443223,8.417881,8.394552,8.368134,8.343506,8.323576,8.305582,8.286541,8.2615795,8.233278,8.2106,8.207858,8.225482,8.2250185,8.238399,8.238089,8.187624,8.137362,8.082415,7.7256913,7.110997,6.4964533,6.1897755,6.044358,5.972082,5.91105,5.8449306,5.7663484,5.6824126,5.6041446,5.5400624,5.501333,5.469034,5.409877,5.260543,4.9553394,4.5396338,4.152094,3.8979113,3.7626388,3.7004359,3.6633554,3.6147354,3.5606227,3.4966345,3.4211226,3.3355358,3.2405996,3.131703,3.0131097,2.9021358,2.8086572,2.7367887,2.6837096,2.6441274,2.6121228,2.5835354,2.5549731,2.5259,2.4991364,2.4749365,2.4548411,2.4388964,2.426178,2.415524,2.4063733,2.398952,2.3925827,2.3865094,2.381497,2.3779583,2.3755498,2.3735223,2.3712144,2.3696141,2.3690395,2.3696666,2.3717756,2.3756192,2.380961,2.3875427,2.393917,2.399426,2.4028225,2.4038482,2.402972,2.4009883,2.3983598,2.3951209,2.3920527,2.3888187,2.385756,2.3828402,2.3808112,2.3791566,2.3787184,2.3796391,2.3824782,2.384404,2.3858294,2.386849,2.3877559,2.38883,2.3903651,2.3921957,2.3940086,2.3955812,2.3968203,2.3978083,2.3983102,2.398303,2.3979192,2.3976035,2.3971653,2.3967514,2.3963885,2.3960829,2.3956656,2.3950374,2.3943462,2.393862,2.3935394,2.3928347,2.3914723,2.3892512,2.3870425,2.386308,2.3879576,2.3903878,2.3919735,2.3913784,2.3905363,2.3930187,2.402114,2.419908,2.4446054,2.4698915,2.489461,2.503501,2.514254,2.5242093,2.5328913,2.5401788,2.545133,2.5482416,2.5495677,2.550302,2.5511394,2.5523996,2.5538168,2.5550401,2.5560536,2.5568838,2.5577364,2.5591125,2.5614424,2.5645182,2.56748,2.569374,2.570784,2.5727196,2.5760179,2.5809617,2.587438,2.5961337,2.6058636,2.615923,2.6250286,2.6332529,2.6410453,2.649941,2.6579833,2.6627316,2.6636896,2.6626434,2.6615126,2.6603866,2.6586328,2.654766,2.6470861,2.6371708,2.6254673,2.6153917,2.6068392,2.5976624,2.5860815,2.574315,2.5665817,2.5660727,2.58152,2.633205,2.7548985,2.972142,3.1865904,3.3236485,3.3539534,3.3473334,3.322647,3.2804928,3.243083,3.2223525,3.2183151,3.2140236,3.2035975,3.1881356
4.5252066,4.521537,4.522099,4.527837,4.5374928,4.5486736,4.5587997,4.5680757,4.5769114,4.5874743,4.6055307,4.6362214,4.680993,4.7384076,4.811509,4.9165306,5.05435,5.197795,5.3198724,5.398789,5.451189,5.4948854,5.544044,5.5999002,5.6525507,5.6869802,5.6982903,5.697504,5.704093,5.7284956,5.777114,5.833929,5.8794994,5.911249,5.933958,5.9547234,5.9805794,6.0151834,6.0576735,6.1040535,6.1495275,6.1972218,6.257421,6.327565,6.405323,6.488966,6.5511875,6.558676,6.457549,6.0861907,5.615365,5.342287,5.25346,5.225904,5.2076645,5.2121572,5.2430916,5.280201,5.3101482,5.337923,5.379621,5.4567394,5.551323,5.6130314,5.6203947,5.5708265,5.5557017,5.577998,5.876441,7.1285806,7.925495,8.19123,8.206923,8.162039,8.122965,8.1396675,8.141205,8.095046,8.070444,8.05727,8.073963,8.128397,8.2045,8.308543,8.446238,8.593661,8.706216,8.774771,8.803886,8.808159,8.797371,8.7889,8.798388,8.823013,8.833315,8.825318,8.803823,8.75363,8.682661,8.589672,8.4999695,8.441162,8.403214,8.37468,8.347187,8.318748,8.293161,8.273048,8.253934,8.23522,8.213985,8.19169,8.177509,8.176668,8.172789,8.166828,8.17892,8.158016,8.104246,8.057917,7.976182,7.60056,6.962036,6.4123816,6.1490436,6.031119,5.972395,5.909143,5.8336983,5.7476606,5.6619806,5.587723,5.5308347,5.497134,5.465266,5.4060097,5.246867,4.921687,4.498523,4.117328,3.8732553,3.7486405,3.6902604,3.6407719,3.5888789,3.5293903,3.4592376,3.3769884,3.2857928,3.184855,3.0700507,2.9545832,2.8533049,2.7721815,2.7109666,2.664741,2.6291862,2.5993667,2.5710635,2.5422423,2.5134583,2.4879856,2.465618,2.4471493,2.4322999,2.4199204,2.409015,2.3993168,2.3913245,2.3846164,2.3784852,2.3736882,2.3704941,2.3684444,2.366633,2.3642757,2.3623028,2.3606915,2.359716,2.359634,2.3609145,2.3633595,2.3676283,2.3725233,2.3772128,2.3804746,2.3816795,2.3809152,2.3789558,2.3761125,2.372977,2.3699365,2.366736,2.3637,2.360722,2.3585348,2.3566496,2.3559337,2.3565288,2.3589873,2.360517,2.3615496,2.3622072,2.3627763,2.363525,2.364766,2.3663602,2.36803,2.369566,2.370856,2.3719344,2.37258,2.37277,2.3725858,2.372397,2.3720045,2.3716097,2.3713388,2.3712912,2.3712938,2.371192,2.3711028,2.371272,2.3716543,2.3717194,2.3712215,2.3698745,2.3684072,2.3679938,2.3696175,2.3720555,2.374023,2.37416,2.3732853,2.3735988,2.3778095,2.3881347,2.4027262,2.418407,2.432351,2.4430509,2.4510365,2.4578824,2.4646802,2.4710293,2.4763274,2.4806647,2.4836478,2.4859293,2.4880247,2.4904232,2.492796,2.494965,2.4971485,2.4987376,2.499649,2.5004644,2.5017557,2.5037167,2.505962,2.5077615,2.509163,2.5106168,2.512497,2.5151517,2.5188642,2.5243363,2.530488,2.536715,2.5427287,2.5481222,2.5534902,2.5608008,2.5684772,2.5747125,2.5794625,2.582149,2.5844984,2.587233,2.5898762,2.5910487,2.5885944,2.5834756,2.577538,2.5722315,2.5678222,2.5627408,2.555048,2.545575,2.53832,2.537948,2.543882,2.5701308,2.6342258,2.7671256,2.962119,3.1549003,3.278636,3.3001335,3.295414,3.2661,3.2345853,3.2105951,3.2019134,3.2026968,3.1993814,3.1860368
4.5121737,4.5058193,4.5040007,4.5075283,4.5155287,4.5260763,4.5372796,4.548484,4.558632,4.568248,4.5817146,4.604439,4.638312,4.6841793,4.743399,4.835976,4.9747806,5.137952,5.27995,5.3743615,5.4361877,5.4861383,5.535391,5.5928583,5.6484795,5.686392,5.70094,5.699506,5.7018337,5.7222834,5.7675295,5.822679,5.8684573,5.9011145,5.926174,5.950824,5.981286,6.0206385,6.0668397,6.1128874,6.1568704,6.204669,6.263838,6.331452,6.410578,6.4895687,6.546869,6.545016,6.4204664,6.050578,5.607126,5.3500433,5.2557764,5.222006,5.195508,5.1934004,5.218264,5.254092,5.286105,5.3168426,5.361109,5.4404025,5.53628,5.602259,5.6189737,5.574108,5.5542817,5.5672026,5.7917852,6.9094515,7.769956,8.0662155,8.101295,8.071311,8.041996,8.058186,8.084858,8.056089,8.0406685,8.036812,8.054607,8.094322,8.159243,8.24925,8.354843,8.461775,8.536255,8.575045,8.587315,8.5756645,8.554899,8.542782,8.547909,8.572634,8.602831,8.627225,8.63081,8.601631,8.548836,8.479116,8.415061,8.36602,8.3291645,8.298109,8.268837,8.240473,8.215202,8.193909,8.174736,8.15764,8.140253,8.1234665,8.113118,8.10638,8.0946245,8.091761,8.1014805,8.074488,8.020138,7.976284,7.8802395,7.482653,6.8490305,6.351015,6.1248903,6.0232663,5.967413,5.9012103,5.81896,5.7292366,5.6450343,5.5764003,5.526782,5.496747,5.4659386,5.4015284,5.236839,4.90316,4.4747696,4.0996075,3.8599248,3.7392533,3.6786427,3.6204808,3.563321,3.4967158,3.4184718,3.3277745,3.2306762,3.1221366,3.0047326,2.8976717,2.8089612,2.74021,2.6881576,2.6474466,2.614987,2.5864062,2.5577316,2.528575,2.500626,2.4765706,2.4558766,2.4387178,2.424564,2.412209,2.4008875,2.3906765,2.3823366,2.3756316,2.3698015,2.3654904,2.3628254,2.3612309,2.35974,2.357523,2.3554697,2.3532214,2.3511057,2.3493047,2.3484669,2.3482547,2.3497167,2.3530781,2.3562808,2.358635,2.359593,2.3588333,2.3567927,2.3539066,2.3507986,2.3477964,2.3446233,2.3415368,2.3383827,2.3359265,2.3337033,2.3326235,2.332848,2.3349166,2.3360682,2.3367376,2.3370643,2.3373141,2.33773,2.3386166,2.3398817,2.341268,2.342585,2.3437166,2.3446743,2.3452811,2.345509,2.345395,2.345213,2.3447404,2.344236,2.3439357,2.3440237,2.3443418,2.3446445,2.344995,2.3456001,2.3464293,2.3470192,2.3471904,2.3466024,2.3458266,2.3457575,2.3473828,2.349823,2.3521647,2.3532271,2.3529968,2.3526077,2.3539677,2.3590012,2.3675914,2.377224,2.3858657,2.3928673,2.3981974,2.4029584,2.4079657,2.4131045,2.4181108,2.4228878,2.426674,2.4297915,2.4323602,2.434976,2.4376056,2.4400525,2.4427075,2.444685,2.4456947,2.4461899,2.4469156,2.4483318,2.450109,2.4516735,2.4528437,2.4537158,2.4543982,2.4551177,2.456428,2.458963,2.4619107,2.4641495,2.4652007,2.466538,2.4687881,2.4724345,2.4768305,2.4813843,2.486144,2.4907198,2.495622,2.5016356,2.508572,2.5146008,2.518036,2.5181603,2.517683,2.5173116,2.5173223,2.5167565,2.514267,2.5098028,2.5044925,2.504047,2.5081499,2.5193143,2.5534046,2.6217806,2.7409635,2.925683,3.0986135,3.206706,3.2342994,3.2249432,3.2042108,3.18755,3.1814952,3.1774144,3.1727,3.1676216
4.499729,4.491936,4.4885244,4.4901385,4.4959726,4.5047245,4.5154943,4.527498,4.539236,4.5498753,4.5621576,4.580341,4.6052036,4.640605,4.6850634,4.7574935,4.881688,5.065297,5.2394295,5.358091,5.434854,5.4858513,5.533401,5.5879993,5.641618,5.6795373,5.694669,5.6940327,5.6960807,5.715885,5.759035,5.813468,5.8600397,5.895055,5.9229383,5.951399,5.9860992,6.0297337,6.0751486,6.1192107,6.164143,6.2114,6.2685413,6.3405066,6.4231644,6.500018,6.552397,6.5378637,6.394245,6.0344677,5.619049,5.3726225,5.2659264,5.2167397,5.184714,5.1778603,5.1976166,5.2316575,5.2655907,5.2989316,5.3452663,5.42297,5.515276,5.5907516,5.6196575,5.586602,5.5571585,5.5650024,5.744821,6.6772437,7.5928245,7.9402504,7.997551,7.9802666,7.9552984,7.967289,8.0135,8.001125,7.99439,7.994632,8.013819,8.049707,8.104448,8.1754,8.251009,8.318102,8.36252,8.379717,8.3699665,8.350298,8.327087,8.308121,8.308767,8.327689,8.358263,8.384083,8.397116,8.389587,8.362211,8.322072,8.278804,8.240265,8.208724,8.1800995,8.1524935,8.125826,8.100801,8.078613,8.058901,8.042709,8.027731,8.014139,8.004122,7.9926057,7.984533,7.981452,7.99457,7.9791064,7.9305143,7.882824,7.7442293,7.3538876,6.754752,6.2995663,6.101781,6.013076,5.961815,5.8941746,5.8080626,5.7169743,5.634719,5.570342,5.525659,5.4957485,5.461524,5.394348,5.2287483,4.8942375,4.4646034,4.0949574,3.8541913,3.7294278,3.662424,3.6000915,3.5356462,3.459651,3.372067,3.2728739,3.1658785,3.0495882,2.9397886,2.8453703,2.7703137,2.712194,2.6677868,2.6311831,2.600472,2.5719569,2.54256,2.5138516,2.487054,2.46448,2.4452958,2.429163,2.4154258,2.4029875,2.3913255,2.380866,2.372556,2.36628,2.3611324,2.3575437,2.355473,2.3542843,2.3530989,2.3511271,2.3493237,2.3469977,2.3444571,2.341743,2.3395367,2.3377142,2.33676,2.3371983,2.3384223,2.3390076,2.3390374,2.3378932,2.3354485,2.3324902,2.3292081,2.3262494,2.323158,2.3200612,2.3167877,2.3141456,2.3116875,2.3103538,2.3103347,2.312156,2.3130784,2.3135214,2.31362,2.3136184,2.3137422,2.31428,2.3151639,2.316162,2.3171053,2.3178768,2.3185039,2.3188686,2.3189628,2.318799,2.3185534,2.3179772,2.3173451,2.316977,2.3171055,2.31754,2.3180277,2.3185644,2.3192449,2.3200877,2.3207855,2.321286,2.3211536,2.320851,2.3210478,2.3226128,2.3249087,2.3273997,2.3292105,2.3299015,2.3298059,2.330083,2.3322253,2.336714,2.342595,2.3483527,2.352979,2.3562665,2.3593402,2.3630447,2.3672383,2.3716378,2.375923,2.3792439,2.3818295,2.3836656,2.3854275,2.3874679,2.389864,2.3926191,2.3948178,2.3960862,2.3967307,2.39734,2.398426,2.399753,2.4009454,2.4019191,2.4025493,2.4028845,2.4029598,2.4033265,2.4044704,2.4059153,2.4070554,2.407633,2.4079328,2.409028,2.4109015,2.4132614,2.4161,2.419445,2.4227629,2.426179,2.4303243,2.4354994,2.4415226,2.4473782,2.4521897,2.456452,2.4596422,2.4625168,2.4651961,2.466926,2.4674811,2.4659739,2.4663525,2.470662,2.4797044,2.4952054,2.536456,2.5972724,2.705933,2.8618178,3.0122871,3.1106849,3.140117,3.1412077,3.1392727,3.141708,3.140932,3.1360044,3.1284966
4.487897,4.4797716,4.4755106,4.4756136,4.479259,4.485779,4.4952736,4.507208,4.5203013,4.532968,4.546423,4.562989,4.581687,4.6055927,4.637101,4.689221,4.7897305,4.9680896,5.180426,5.337577,5.434085,5.4901686,5.537522,5.5859227,5.6327763,5.6672716,5.681815,5.6820707,5.685459,5.7052393,5.7475977,5.801949,5.849361,5.885275,5.9167404,5.9505444,5.9874387,6.0281305,6.071419,6.114551,6.1583858,6.205849,6.2698984,6.3485937,6.4284506,6.50478,6.548108,6.5322475,6.3706303,6.024991,5.6393557,5.394162,5.2793045,5.21356,5.176051,5.1606336,5.1757116,5.2088156,5.2454557,5.282342,5.328277,5.399931,5.489972,5.573582,5.6156588,5.59368,5.561303,5.569015,5.7069645,6.450325,7.4146233,7.8020744,7.882703,7.880681,7.860132,7.864546,7.924095,7.929675,7.931674,7.9382443,7.95559,7.9868665,8.030601,8.080541,8.127697,8.162297,8.177921,8.176546,8.163706,8.135133,8.112334,8.098139,8.094147,8.101253,8.117045,8.136927,8.153839,8.158888,8.1479,8.124988,8.097952,8.07275,8.048134,8.023477,7.9993787,7.9752836,7.951706,7.931925,7.91541,7.8972354,7.88068,7.86766,7.8572536,7.846854,7.833232,7.836442,7.842309,7.8416615,7.8079705,7.728902,7.5847797,7.225646,6.6707993,6.253881,6.0771146,5.999441,5.9519672,5.8854218,5.799982,5.7103944,5.631296,5.570572,5.529153,5.495897,5.4566736,5.3865633,5.222883,4.893777,4.4661,4.103358,3.8568077,3.7239308,3.6481402,3.579105,3.5053835,3.4186378,3.319975,3.2091768,3.0918925,2.9801588,2.882095,2.8018904,2.7386417,2.6895003,2.6500154,2.6159449,2.5858734,2.556161,2.526891,2.4990401,2.4736495,2.4525652,2.4346952,2.4193492,2.4058795,2.3934107,2.3816419,2.3712716,2.3633466,2.3577888,2.3535104,2.350682,2.3490968,2.348102,2.3470008,2.3452687,2.343736,2.341661,2.3392544,2.336371,2.3335252,2.3305318,2.3277907,2.3258915,2.3249664,2.3236527,2.3220825,2.3200164,2.317141,2.3137455,2.310045,2.3070145,2.3039298,2.3008037,2.2974687,2.2947602,2.2922254,2.2907968,2.290696,2.2924356,2.2932925,2.2936642,2.2936687,2.2935195,2.293438,2.2936902,2.2942295,2.294839,2.2953634,2.2956872,2.2958736,2.2958808,2.295722,2.2954152,2.2950559,2.2943757,2.2936378,2.2931323,2.293015,2.2933471,2.2938418,2.2943115,2.294791,2.2953267,2.2957568,2.296249,2.296626,2.2969425,2.297254,2.2986014,2.300509,2.3027668,2.3048637,2.3062525,2.3067908,2.307,2.307873,2.3100443,2.3131194,2.3161526,2.3184476,2.320129,2.3219037,2.3244128,2.3274279,2.3306699,2.3337889,2.336299,2.3383293,2.3396935,2.3409882,2.3426023,2.3446941,2.347229,2.3493795,2.3507977,2.3517046,2.3525777,2.3538187,2.3551602,2.3562706,2.357138,2.3577797,2.3581069,2.3581424,2.358386,2.359266,2.3605235,2.3619692,2.3635502,2.365367,2.3675456,2.3695998,2.3714337,2.3736649,2.376186,2.3783832,2.3802264,2.3824077,2.385492,2.3897772,2.3947628,2.3997338,2.4053595,2.409987,2.4143968,2.4182198,2.4217691,2.4248424,2.4266186,2.4290276,2.433938,2.4430196,2.4571462,2.4748049,2.5099273,2.568593,2.6571965,2.7817333,2.9069989,2.9879453,3.0340471,3.0562174,3.06974,3.0798907,3.082048,3.076692
4.477317,4.4696074,4.464963,4.4638634,4.465498,4.469837,4.4778543,4.4893336,4.503495,4.5184555,4.534291,4.551168,4.5660095,4.579777,4.6006327,4.6354327,4.7040167,4.850899,5.085559,5.2878675,5.421809,5.4973583,5.5447445,5.585848,5.6239743,5.652364,5.664956,5.666313,5.671359,5.6915603,5.733943,5.789154,5.8342457,5.8706064,5.90518,5.9421697,5.9807477,6.022808,6.06552,6.105381,6.1462283,6.195521,6.2692556,6.3559847,6.428381,6.4914675,6.53259,6.5078526,6.3417273,6.012961,5.6564865,5.415987,5.2887053,5.210143,5.1630936,5.144253,5.1544003,5.185791,5.2241135,5.2626133,5.3080134,5.3745117,5.460086,5.5489902,5.603886,5.5961876,5.564914,5.5719995,5.668661,6.2171936,7.214372,7.607394,7.7492437,7.769186,7.7679195,7.772092,7.818824,7.8351755,7.851634,7.8651247,7.882058,7.9057817,7.934781,7.963379,7.984974,7.9951353,7.9941,7.9767227,7.9545784,7.9337006,7.9170074,7.9060373,7.9008713,7.9021225,7.9068766,7.913962,7.920737,7.9233837,7.9189177,7.9073095,7.891859,7.875488,7.858985,7.8415766,7.8224735,7.8014665,7.780398,7.7615175,7.7430716,7.727422,7.7156515,7.7024555,7.6886683,7.6786776,7.671579,7.6638155,7.670962,7.665559,7.6436625,7.585207,7.4217644,7.0960913,6.5889444,6.2082663,6.0441103,5.976865,5.9320655,5.868066,5.787032,5.704056,5.631134,5.5746403,5.5338564,5.498617,5.458357,5.3839374,5.221241,4.8988886,4.4776964,4.1244364,3.8693867,3.726194,3.638533,3.5596132,3.474369,3.3764734,3.2612867,3.137074,3.019061,2.917826,2.8340979,2.7664764,2.713292,2.6712759,2.6345325,2.6013668,2.5698123,2.5399325,2.5111961,2.484444,2.4606507,2.4410849,2.4244418,2.4098105,2.3966377,2.3843155,2.3727288,2.3627625,2.3554926,2.3508048,2.347416,2.3452325,2.3439066,2.3427987,2.3414583,2.3397608,2.3383324,2.336583,2.3345804,2.3320432,2.3292096,2.3257399,2.3219771,2.3185067,2.315751,2.3127675,2.3098493,2.3067265,2.3026876,2.2983937,2.2942843,2.2910352,2.287797,2.2845416,2.281139,2.2784352,2.2759552,2.2745824,2.2745538,2.2763615,2.2772923,2.2777216,2.2777386,2.2775273,2.2773094,2.2773323,2.2775717,2.277821,2.2779398,2.277802,2.2775197,2.2771173,2.2766395,2.276111,2.275581,2.2747674,2.2738879,2.2732978,2.2732806,2.2737265,2.2742343,2.2746272,2.2748623,2.2750373,2.2751517,2.275465,2.2757888,2.2758694,2.2760844,2.2770588,2.278382,2.2801178,2.282084,2.28382,2.284937,2.28546,2.2859173,2.286828,2.2880692,2.2890992,2.289536,2.2896743,2.2900877,2.291267,2.2929106,2.2947826,2.2966056,2.2981248,2.299409,2.3002832,2.3011615,2.302388,2.3040962,2.3062108,2.3080907,2.309475,2.310557,2.3116946,2.3131304,2.3145504,2.3156457,2.3165247,2.3173118,2.3179185,2.318357,2.3190165,2.3202748,2.3219566,2.3239431,2.3261495,2.328629,2.331367,2.3342688,2.337232,2.3403268,2.3432617,2.3457093,2.3476214,2.3492682,2.351098,2.3538795,2.3575668,2.3610578,2.3654876,2.369931,2.3741927,2.3780482,2.381692,2.3855276,2.3892274,2.3940356,2.400518,2.408098,2.4199142,2.4367657,2.4528022,2.4835246,2.5348287,2.606381,2.6967134,2.8038414,2.8876944,2.9459572,2.9803321,2.9957628,3.0055315,3.0072494
4.4669523,4.460247,4.4556327,4.4537697,4.453936,4.4566455,4.463455,4.4743485,4.4890413,4.505748,4.524034,4.542429,4.556037,4.563665,4.5723114,4.5945034,4.636075,4.744522,4.9445233,5.1997585,5.3789,5.4901915,5.5537863,5.5912647,5.6209316,5.6414413,5.6508803,5.6524057,5.658498,5.679759,5.723626,5.777131,5.8214793,5.8590775,5.8963118,5.936347,5.976566,6.0175223,6.055504,6.090434,6.12893,6.1824417,6.2656755,6.349409,6.4110594,6.474187,6.5072203,6.4703856,6.3051634,5.9955373,5.661358,5.431423,5.2941937,5.2052565,5.149799,5.1262174,5.1321044,5.160212,5.1986513,5.239402,5.2843637,5.3452725,5.4278173,5.518255,5.58312,5.590246,5.5629005,5.568887,5.6278715,6.0110373,6.9276724,7.428056,7.598871,7.63925,7.647773,7.66908,7.695122,7.7194967,7.743186,7.7599316,7.7755623,7.791944,7.807358,7.8191853,7.8243833,7.8179154,7.801611,7.7834954,7.766364,7.7517605,7.741193,7.7345734,7.7304974,7.728753,7.7281036,7.728615,7.729531,7.7291007,7.7253437,7.7176876,7.706856,7.693979,7.6798067,7.6641827,7.6465836,7.626718,7.605771,7.585926,7.5693607,7.556331,7.5432234,7.5277963,7.5128374,7.4976387,7.491398,7.4945364,7.5003767,7.4944315,7.4674253,7.4209437,7.254742,6.9666433,6.518645,6.1716957,6.0173655,5.9531646,5.9107904,5.852207,5.778614,5.703234,5.637881,5.587326,5.548353,5.5112557,5.4645295,5.3826904,5.224641,4.90839,4.495677,4.1454363,3.885713,3.7301846,3.6283448,3.5362558,3.4378948,3.323236,3.1896443,3.0613928,2.9540818,2.866235,2.7949777,2.738199,2.6930637,2.6546865,2.619314,2.5854034,2.5536952,2.5241826,2.496242,2.4708009,2.4486358,2.4304621,2.414842,2.4007835,2.3878844,2.3758206,2.3646207,2.3552527,2.3487363,2.3448548,2.3421412,2.3402996,2.3388953,2.3373485,2.3354867,2.3334956,2.3320222,2.3305573,2.329039,2.3271093,2.3247495,2.3214986,2.3175855,2.3135576,2.310121,2.3066144,2.302411,2.297717,2.2928634,2.2880552,2.2835522,2.2800083,2.2765331,2.2730803,2.2695665,2.266852,2.2644284,2.263124,2.2631748,2.2650557,2.2660575,2.266529,2.2665362,2.2662323,2.265849,2.2656298,2.265572,2.2654934,2.2652612,2.2647414,2.2640667,2.2632928,2.2624846,2.261675,2.2609022,2.2598822,2.2587905,2.2579758,2.2577274,2.2579672,2.2583027,2.258566,2.258659,2.258664,2.2586343,2.2587361,2.2587988,2.2588186,2.2588682,2.2594461,2.260178,2.261314,2.2629008,2.2646358,2.266039,2.2668157,2.2671344,2.2673252,2.267437,2.2672057,2.2664952,2.2656507,2.2650924,2.2651582,2.265551,2.2661169,2.2666998,2.267221,2.267705,2.2680442,2.2684603,2.26917,2.2703867,2.2720199,2.2734313,2.2745314,2.2755337,2.2766879,2.2780962,2.2794204,2.2803645,2.281128,2.281931,2.2826986,2.283423,2.284378,2.285887,2.2878108,2.2900643,2.2925467,2.2953198,2.2983308,2.3014674,2.3045835,2.3077345,2.3105855,2.3129005,2.3146152,2.316227,2.318091,2.3204656,2.3233423,2.326476,2.3305812,2.3347983,2.3387609,2.3422122,2.345334,2.3488936,2.353229,2.3593593,2.3671203,2.3744762,2.381608,2.3913016,2.4035509,2.4203696,2.4486678,2.4959831,2.5517447,2.6372368,2.7428617,2.8272486,2.8875098,2.9170356,2.9310338,2.9377966
4.456399,4.451416,4.4475,4.4454975,4.4450016,4.446881,4.4529257,4.4632063,4.4776087,4.4947987,4.514618,4.5350037,4.550146,4.556262,4.5572014,4.5705905,4.5952806,4.659191,4.803833,5.0490294,5.294948,5.4592867,5.5534525,5.59659,5.6160946,5.62885,5.637717,5.6445875,5.650856,5.673975,5.720478,5.7717376,5.81364,5.8540225,5.894919,5.937016,5.976241,6.0125213,6.044008,6.0734825,6.112209,6.174756,6.2641163,6.3364983,6.401108,6.4523416,6.4718084,6.4275923,6.2605762,5.9686575,5.6591296,5.441182,5.2973413,5.199998,5.1379194,5.1094437,5.112026,5.138136,5.1759143,5.2167206,5.2611504,5.3191166,5.3972044,5.485976,5.5568113,5.576679,5.556094,5.558793,5.5928116,5.8587933,6.6345572,7.247061,7.4130993,7.499297,7.523115,7.5400715,7.564468,7.5908294,7.611338,7.627572,7.6383343,7.647965,7.6561146,7.657902,7.649084,7.6354036,7.6141167,7.594477,7.5816965,7.573533,7.568656,7.5658865,7.564369,7.563491,7.5618258,7.5604286,7.56081,7.5590305,7.555516,7.5495358,7.540928,7.5300236,7.517214,7.5025377,7.485755,7.4667234,7.4463086,7.4258394,7.406683,7.3914385,7.3783255,7.365321,7.350401,7.332906,7.322528,7.3268313,7.338702,7.3341637,7.307258,7.2721024,7.1042194,6.848757,6.4707026,6.156619,6.0103707,5.9466944,5.9032516,5.8465576,5.7806435,5.7165055,5.6608043,5.616735,5.576275,5.532049,5.479334,5.392289,5.2312646,4.9250884,4.515803,4.1670074,3.903709,3.7330995,3.6145692,3.507606,3.3899086,3.2516317,3.1109622,2.9926856,2.8992176,2.8255,2.766492,2.7186568,2.6778755,2.6406775,2.60494,2.5713336,2.5400524,2.511109,2.4842656,2.460265,2.4396482,2.4226613,2.4077854,2.3940873,2.3813424,2.3695297,2.3587666,2.3500242,2.344207,2.340935,2.3386087,2.3367977,2.3350472,2.3328824,2.3303936,2.3279305,2.3263335,2.3251054,2.3240867,2.322857,2.3212512,2.318717,2.3154175,2.3119733,2.3084598,2.3041487,2.2995582,2.2946806,2.28953,2.2844234,2.2796435,2.2758455,2.2721276,2.268458,2.2647815,2.2619736,2.2595208,2.2581975,2.258246,2.2601218,2.261116,2.261559,2.2614822,2.2610216,2.2604203,2.259922,2.2595618,2.2591922,2.2586877,2.2578988,2.2569463,2.2558818,2.2547712,2.2536492,2.2525752,2.2512717,2.2498846,2.2487488,2.2481532,2.248064,2.2481332,2.2481737,2.2480507,2.2478476,2.2476604,2.2476635,2.2476707,2.2476065,2.2474816,2.2477384,2.2480168,2.24863,2.2497177,2.2511172,2.2523704,2.2530556,2.2531333,2.2528186,2.252246,2.2513742,2.2501853,2.248962,2.2479439,2.2473059,2.246829,2.2464356,2.2461033,2.2458444,2.2456603,2.245501,2.2454805,2.2458043,2.2464542,2.2472935,2.2480614,2.2486696,2.249321,2.2501824,2.251261,2.2522085,2.2527623,2.2531796,2.2537298,2.2543323,2.2549536,2.2557817,2.2570581,2.2586894,2.2605739,2.2626462,2.265004,2.2676325,2.2704194,2.2731898,2.2759714,2.2784686,2.280548,2.2822871,2.2840886,2.2862782,2.288932,2.2919166,2.2950077,2.298922,2.3029966,2.3067622,2.309904,2.312453,2.315179,2.3190176,2.32472,2.331814,2.338449,2.3437648,2.348042,2.3537073,2.3614378,2.3764205,2.4152005,2.460434,2.5190682,2.6075742,2.7154915,2.796184,2.8481722,2.8691435,2.8796406
