10.137826,10.151131,10.167646,10.182866,10.193077,10.203367,10.214338,10.22473,10.236843,10.252024,10.266601,10.280491,10.295849,10.308115,10.316311,10.324757,10.334562,10.345417,10.36248,10.388952,10.416809,10.445492,10.475109,10.496723,10.511664,10.5301285,10.553274,10.578091,10.625989,10.692046,10.752861,10.824474,10.901773,10.964792,11.025841,11.097401,11.165247,11.226875,11.306637,11.390759,11.463254,11.556522,11.646509,11.705505,11.749502,11.771524,11.778162,11.788649,11.828394,11.901674,11.99029,12.114362,12.2222,12.278187,12.291644,12.252953,12.199907,12.149971,12.13599,12.178791,12.262995,12.399656,12.545143,12.666287,12.792902,12.8866825,12.938919,12.990083,13.009485,12.991043,12.945211,12.837076,12.69334,12.53609,12.356617,12.217596,12.129547,12.062435,12.024651,11.998831,11.960495,11.920269,11.892712,11.855609,11.888489,12.040785,12.302258,12.676788,13.031239,13.280218,13.511881,13.644142,13.681638,13.716787,13.7101,13.661239,13.583165,13.415791,13.215055,13.047861,12.849255,12.699735,12.628994,12.61698,12.665791,12.721251,12.765675,12.782328,12.771963,12.755649,12.765862,12.827044,12.928331,13.073193,13.22139,13.336573,13.434339,13.47124,13.455542,13.4332905,13.402296,13.37862,13.363142,13.3584385,13.363505,13.368446,13.371733,13.3679085,13.358188,13.3346195,13.304763,13.284662,13.278393,13.291384,13.317192,13.348194,13.3825865,13.402945,13.406872,13.402002,13.389523,13.377694,13.370266,13.374795,13.388327,13.404066,13.423515,13.439405,13.450383,13.45989,13.467621,13.475561,13.487108,13.50089,13.51324,13.52692,13.539633,13.548377,13.556145,13.566015,13.576479,13.586279,13.599434,13.613434,13.6258955,13.640742,13.656972,13.671793,13.690083,13.712389,13.733155,13.755129,13.779938,13.800601,13.817462,13.833445,13.844354,13.8513155,13.858419,13.865597,13.87262,13.883448,13.899715,13.917465,13.937989,13.964734,13.991262,14.015635,14.046369,14.076435,14.100403,14.128168,14.153739,14.171513,14.188271,14.203066,14.21372,14.223325,14.234827,14.2462845,14.256923,14.27033,14.283882,14.29508,14.308483,14.3236065,14.337647,14.355684,14.380411,14.406166,14.433262,14.467858,14.500755,14.527899,14.558561,14.586161,14.607069,14.629972,14.653161,14.672515,14.693163,14.717527,14.740313,14.762072,14.787864,14.811182,14.829887,14.850888,14.870258,14.8853445,14.902067,14.918631,14.931299,14.943064,14.953369,14.9597645,14.964036,14.967852,14.970589,14.972667,14.974596,14.975155,14.974327,14.971672,14.966293,14.95999,14.952705,14.943659,14.9353485,14.927967,14.919773,14.912875,14.907748,14.902382,14.897699,14.894188,14.890795,14.886725,14.882668,14.878834,14.874154,14.870083,14.867334,14.86376,14.8598995,14.85647,14.852236,14.848053,14.844962,14.84165,14.838392,14.835809,14.833234,14.829974,14.8265915,14.823298,14.81918,14.815104,14.811749,14.8078575,14.803616,14.799928,14.796141,14.792395,14.789648,14.787467,14.785426,14.78392,14.782707,14.781429,14.78035,14.779544,14.778612,14.77733,14.775803,14.773418,14.769461,14.764767,14.759543,14.752437,14.745115,14.7386875,14.7308855,14.723181,14.717022,14.709874,14.702371,14.696185,14.689839
10.135097,10.1498165,10.167978,10.184584,10.195649,10.206907,10.219408,10.2318125,10.2467785,10.266365,10.285597,10.30378,10.323215,10.338156,10.347956,10.357954,10.369931,10.383709,10.406964,10.44102,10.474231,10.506046,10.538195,10.561869,10.578822,10.599226,10.627237,10.660345,10.725349,10.8210335,10.914201,11.019455,11.129838,11.215935,11.293541,11.378243,11.453638,11.520142,11.605495,11.693546,11.767452,11.861091,11.943719,11.988206,12.008471,11.994456,11.966085,11.94636,11.960651,12.022945,12.111359,12.231804,12.336725,12.394379,12.398207,12.338624,12.264296,12.198174,12.170088,12.204922,12.289053,12.42683,12.573153,12.695273,12.821465,12.911602,12.958175,13.00268,13.016382,12.994965,12.9465275,12.835941,12.69128,12.536129,12.35886,12.22015,12.130501,12.061235,12.021194,11.993727,11.955469,11.918352,11.89549,11.862349,11.905682,12.070377,12.340651,12.709211,13.047256,13.284687,13.498901,13.614666,13.642967,13.671993,13.666765,13.625283,13.557136,13.401943,13.21138,13.053214,12.85866,12.705672,12.628514,12.607893,12.649071,12.700932,12.746113,12.768137,12.763897,12.752476,12.76384,12.819084,12.908775,13.03753,13.166437,13.26212,13.34253,13.373701,13.363458,13.349694,13.326618,13.306943,13.296847,13.295965,13.3024235,13.30854,13.31341,13.31251,13.30678,13.2897835,13.267514,13.252447,13.246724,13.254441,13.271693,13.293103,13.31748,13.332361,13.335476,13.333021,13.325382,13.317774,13.31324,13.317146,13.327267,13.33847,13.3523035,13.363979,13.372557,13.381165,13.389411,13.397911,13.409983,13.42404,13.436437,13.450449,13.464275,13.474722,13.484907,13.497987,13.511445,13.523872,13.540077,13.556839,13.571522,13.588857,13.607352,13.6238365,13.643725,13.667149,13.688326,13.710381,13.734693,13.754477,13.770444,13.785257,13.7952,13.801632,13.8085575,13.816093,13.823721,13.835568,13.853139,13.871937,13.89329,13.92078,13.9477005,13.972143,14.002611,14.031992,14.055143,14.081549,14.105425,14.121756,14.136858,14.150168,14.16,14.169125,14.180515,14.1923685,14.203678,14.218422,14.233967,14.247234,14.263754,14.282975,14.300824,14.322764,14.351297,14.379576,14.408289,14.443127,14.474665,14.499922,14.527956,14.552713,14.571269,14.591029,14.610617,14.626865,14.644033,14.664124,14.682901,14.700975,14.722582,14.742241,14.758016,14.7757435,14.792063,14.804725,14.818684,14.832262,14.8423395,14.851342,14.85845,14.861935,14.863518,14.864033,14.863596,14.86302,14.861864,14.859705,14.8570595,14.852733,14.846279,14.839609,14.832161,14.823349,14.815619,14.80897,14.801803,14.796005,14.791872,14.787397,14.783201,14.779816,14.776644,14.772755,14.768799,14.765,14.761091,14.757994,14.755432,14.751851,14.7477665,14.744041,14.739232,14.73415,14.730112,14.725486,14.720694,14.716894,14.713297,14.70927,14.705657,14.702444,14.698666,14.695129,14.692291,14.6889515,14.685272,14.682041,14.678633,14.675167,14.672525,14.670313,14.668025,14.666132,14.66455,14.662788,14.6612625,14.660164,14.658881,14.657234,14.655409,14.652679,14.648376,14.643459,14.6381035,14.63096,14.62374,14.617495,14.609961,14.602596,14.596764,14.59005,14.583071,14.577364,14.571548
10.143388,10.159735,10.17999,10.19867,10.211287,10.224438,10.239528,10.25477,10.273205,10.297497,10.321167,10.343082,10.365391,10.381392,10.391293,10.401018,10.413262,10.428527,10.45881,10.5006895,10.537262,10.568419,10.597689,10.619033,10.636019,10.654713,10.685917,10.729819,10.817997,10.950843,11.0807495,11.213131,11.348865,11.4548435,11.54384,11.634052,11.709777,11.77603,11.863657,11.954203,12.028311,12.114271,12.178592,12.20182,12.199928,12.157394,12.101013,12.053089,12.0459795,12.099168,12.180433,12.3034115,12.4149,12.473663,12.469201,12.393215,12.303513,12.224739,12.186014,12.215508,12.3000345,12.439028,12.585623,12.707167,12.831709,12.917551,12.958126,12.995949,13.004347,12.980623,12.9310465,12.819395,12.675461,12.526496,12.354822,12.218449,12.129353,12.059563,12.017933,11.988931,11.950551,11.915764,11.89716,11.870901,11.925942,12.100725,12.375887,12.733749,13.0532055,13.280537,13.477915,13.577379,13.596748,13.619482,13.61498,13.580074,13.521246,13.379421,13.201319,13.053483,12.86483,12.710604,12.62924,12.601889,12.636214,12.6842375,12.728897,12.754304,12.754605,12.747038,12.75919,12.809397,12.88937,13.004826,13.120078,13.204624,13.271685,13.298674,13.294895,13.281725,13.261848,13.247942,13.240528,13.24044,13.246803,13.25411,13.259792,13.259755,13.255356,13.242924,13.227089,13.216742,13.212516,13.217523,13.229367,13.2443905,13.262064,13.273409,13.27626,13.2759,13.272236,13.268257,13.266681,13.271215,13.279819,13.288822,13.299679,13.309015,13.316296,13.324299,13.332486,13.340804,13.352327,13.36553,13.377128,13.390587,13.404582,13.4159,13.42762,13.442904,13.458469,13.472763,13.491122,13.509785,13.525934,13.544853,13.564688,13.582081,13.602751,13.626566,13.647707,13.669491,13.693144,13.712113,13.727316,13.741278,13.750671,13.756928,13.764059,13.772257,13.780651,13.7935505,13.8122835,13.831896,13.853752,13.881561,13.908489,13.932694,13.962663,13.991371,14.013894,14.039501,14.062443,14.077946,14.092289,14.105176,14.115067,14.124502,14.136602,14.149431,14.16178,14.178032,14.195411,14.2104225,14.229471,14.251917,14.272657,14.297218,14.327573,14.356199,14.38409,14.417346,14.447155,14.470898,14.4974575,14.520532,14.537123,14.554138,14.570227,14.583215,14.596844,14.612767,14.627785,14.642437,14.660187,14.6764965,14.689598,14.70433,14.717855,14.728295,14.7397175,14.750655,14.7585745,14.765358,14.7700405,14.771473,14.771282,14.769724,14.767378,14.765225,14.762341,14.7588005,14.75536,14.750427,14.7438545,14.737483,14.730545,14.722657,14.7159195,14.710077,14.703698,14.698572,14.695098,14.690951,14.6866045,14.682859,14.679106,14.675433,14.67251,14.669544,14.666281,14.663441,14.660963,14.65739,14.653277,14.649563,14.644673,14.639334,14.634929,14.629678,14.6241,14.6196785,14.615591,14.61129,14.607754,14.604807,14.601481,14.598465,14.596059,14.59314,14.5898,14.586775,14.583456,14.5798855,14.576976,14.5744095,14.571543,14.5690365,14.566967,14.56465,14.562668,14.56129,14.559669,14.55768,14.5555935,14.55259,14.548063,14.54306,14.537712,14.530688,14.523691,14.5176935,14.510471,14.503445,14.497904,14.491539,14.484945,14.4795685,14.4740925
10.175326,10.194164,10.217642,10.2396345,10.254864,10.271271,10.290726,10.310561,10.3344755,10.365879,10.3953495,10.420201,10.445746,10.462763,10.470465,10.477574,10.487812,10.502243,10.530151,10.570045,10.606283,10.6383915,10.667228,10.686969,10.702585,10.724237,10.765449,10.822371,10.94083,11.114032,11.2773,11.446058,11.624762,11.763477,11.861485,11.946527,12.007799,12.058332,12.125874,12.197916,12.259054,12.331694,12.379457,12.384267,12.35747,12.2867775,12.207956,12.1385,12.114355,12.1600065,12.23694,12.363708,12.481982,12.542572,12.533255,12.443254,12.337568,12.246399,12.197589,12.222371,12.308205,12.447894,12.593636,12.714908,12.836582,12.9157715,12.948284,12.9774685,12.979317,12.952973,12.902117,12.790541,12.650057,12.512165,12.348185,12.214065,12.127249,12.057941,12.014704,11.983693,11.94482,11.912589,11.898989,11.8799925,11.94857,12.13545,12.415764,12.759876,13.0551605,13.267183,13.442318,13.52129,13.529307,13.543531,13.538961,13.511539,13.464202,13.340284,13.179306,13.043972,12.866792,12.716402,12.631466,12.597143,12.623355,12.666233,12.709064,12.7370615,12.741837,12.738266,12.750948,12.7951565,12.863911,12.96509,13.06562,13.136997,13.194263,13.21749,13.214283,13.203985,13.189765,13.180626,13.17424,13.172869,13.176695,13.181608,13.185947,13.186969,13.185097,13.17952,13.172135,13.16722,13.165718,13.169426,13.176985,13.186541,13.1984415,13.206921,13.209906,13.2120285,13.212727,13.21278,13.21479,13.220804,13.228702,13.23642,13.24523,13.252807,13.259068,13.266403,13.274065,13.281609,13.291723,13.30315,13.313253,13.325495,13.339149,13.351037,13.364031,13.381287,13.398779,13.414756,13.435026,13.455305,13.472633,13.492769,13.513509,13.531393,13.552347,13.57603,13.596724,13.617853,13.640503,13.658466,13.6728115,13.685993,13.69507,13.70141,13.709154,13.718491,13.728039,13.742345,13.762465,13.782922,13.805195,13.833096,13.859762,13.88348,13.912739,13.940728,13.962712,13.987677,14.010094,14.025347,14.039633,14.052959,14.063694,14.074234,14.087887,14.102355,14.11622,14.13454,14.154234,14.171318,14.19319,14.21817,14.240232,14.265564,14.295964,14.324059,14.351109,14.383079,14.41128,14.433226,14.457319,14.477407,14.491108,14.504293,14.515759,14.524574,14.533684,14.544389,14.554802,14.565344,14.578451,14.590712,14.600594,14.611727,14.621956,14.62983,14.638363,14.646361,14.651933,14.656355,14.658642,14.658235,14.656557,14.653429,14.649839,14.646817,14.6431265,14.638815,14.634632,14.629293,14.622885,14.617073,14.610842,14.603958,14.598334,14.593825,14.588684,14.583979,14.5801525,14.575739,14.571469,14.568111,14.564648,14.561492,14.5592,14.556782,14.553959,14.551336,14.54899,14.545604,14.541796,14.538474,14.534029,14.529001,14.524675,14.519299,14.5133915,14.508655,14.50436,14.500034,14.496736,14.494187,14.491386,14.488877,14.48686,14.48425,14.481067,14.478069,14.47464,14.470683,14.467231,14.464065,14.460358,14.457039,14.454364,14.451401,14.448908,14.447197,14.445187,14.442789,14.440357,14.437021,14.43224,14.427153,14.421854,14.415033,14.408348,14.402676,14.395879,14.389294,14.384113,14.378168,14.372011,14.3669815,14.361856
10.259573,10.279947,10.305859,10.330758,10.348511,10.368471,10.393047,10.418142,10.447601,10.48489,10.517826,10.543339,10.566406,10.577288,10.577529,10.575291,10.577363,10.587088,10.609104,10.644909,10.680241,10.712938,10.740708,10.757648,10.769503,10.796622,10.851297,10.920103,11.06729,11.275059,11.46377,11.676314,11.89109,12.039328,12.133631,12.202568,12.241905,12.271044,12.313309,12.364275,12.412142,12.473125,12.508998,12.500969,12.454857,12.362155,12.26774,12.188914,12.157496,12.199818,12.275979,12.407103,12.531463,12.594889,12.581589,12.479794,12.36116,12.259327,12.201502,12.22183,12.308662,12.4462385,12.587885,12.708223,12.824909,12.895332,12.919119,12.9393425,12.935068,12.90698,12.855745,12.746524,12.612633,12.488895,12.335841,12.206747,12.124792,12.058081,12.01425,11.981468,11.942062,11.912155,11.903563,11.89278,11.976433,12.174849,12.454536,12.7812395,13.0502405,13.2428055,13.392398,13.448922,13.444485,13.448631,13.442392,13.421568,13.385552,13.281931,13.142088,13.022415,12.861853,12.720083,12.634014,12.594149,12.612078,12.648859,12.688267,12.717031,12.725054,12.7246685,12.73711,12.774752,12.831877,12.9187355,13.004984,13.06378,13.112316,13.131915,13.128271,13.121658,13.112328,13.105778,13.100578,13.097878,13.098341,13.099616,13.101297,13.102587,13.10308,13.103701,13.104079,13.104443,13.106678,13.111475,13.11758,13.124565,13.133823,13.141543,13.145661,13.150698,13.1555195,13.159213,13.164604,13.172327,13.180094,13.187304,13.194973,13.20139,13.206871,13.213446,13.220215,13.226603,13.234881,13.244165,13.252516,13.263195,13.27598,13.287814,13.301239,13.319311,13.337601,13.354258,13.375272,13.396138,13.4138565,13.434336,13.455162,13.472892,13.493437,13.516352,13.53619,13.556368,13.577911,13.594995,13.608675,13.6214695,13.63072,13.6375475,13.646378,13.657309,13.668333,13.684287,13.705917,13.727243,13.749895,13.777843,13.804279,13.827631,13.85651,13.884363,13.906466,13.931749,13.954946,13.971249,13.9870205,14.002463,14.015354,14.028145,14.044367,14.06103,14.076754,14.096516,14.116952,14.134484,14.156832,14.18185,14.203456,14.228001,14.25693,14.283264,14.308468,14.33783,14.363108,14.382233,14.402531,14.418424,14.428453,14.437122,14.443529,14.447981,14.452457,14.457972,14.463896,14.470442,14.479029,14.487341,14.494097,14.501744,14.508815,14.514282,14.520185,14.525627,14.529252,14.531847,14.532454,14.530918,14.5285,14.524335,14.519793,14.516236,14.512093,14.507637,14.503578,14.498752,14.493444,14.488935,14.484168,14.478966,14.474578,14.470697,14.466138,14.461731,14.457874,14.45352,14.449556,14.446666,14.443617,14.4407215,14.438506,14.4361725,14.433361,14.430747,14.428505,14.425421,14.422173,14.419516,14.4159565,14.411799,14.408054,14.403187,14.397638,14.393097,14.389023,14.385012,14.382086,14.3799515,14.377588,14.37539,14.373534,14.370945,14.367567,14.364264,14.360366,14.355661,14.351397,14.34742,14.342698,14.338486,14.335164,14.331554,14.3285675,14.326522,14.324143,14.321373,14.31864,14.315041,14.310106,14.305044,14.299883,14.29336,14.287071,14.281793,14.275515,14.269464,14.264709,14.259256,14.253595,14.248945,14.244192
10.380732,10.400703,10.426781,10.452577,10.471531,10.493832,10.522423,10.551743,10.585255,10.62572,10.659031,10.683126,10.697643,10.694965,10.683116,10.6655655,10.654244,10.656498,10.674353,10.709459,10.745268,10.777074,10.80179,10.814556,10.821538,10.851819,10.916062,10.992434,11.15708,11.385939,11.590759,11.837078,12.063324,12.192411,12.272699,12.323349,12.345369,12.360052,12.389011,12.432034,12.476333,12.533208,12.563837,12.5499,12.495417,12.391897,12.289909,12.21137,12.181318,12.224993,12.303234,12.438167,12.566637,12.632847,12.614652,12.503072,12.376261,12.266507,12.201317,12.2172985,12.303627,12.4363985,12.571471,12.68949,12.799827,12.86163,12.878405,12.891754,12.883468,12.855035,12.804506,12.699354,12.573176,12.461656,12.320174,12.1986885,12.122816,12.060211,12.017149,11.983484,11.943915,11.915704,11.9109955,11.908108,12.004601,12.210327,12.483427,12.792854,13.039703,13.213778,13.340807,13.378341,13.363459,13.358511,13.349497,13.332755,13.304739,13.219042,13.099751,12.995257,12.851105,12.719143,12.634602,12.591787,12.603177,12.634455,12.669985,12.697943,12.707518,12.708931,12.720455,12.75227,12.799732,12.873943,12.948042,12.997569,13.037688,13.054069,13.052172,13.048342,13.041523,13.036143,13.033297,13.0308895,13.029325,13.028492,13.028043,13.028812,13.030504,13.034417,13.039547,13.043874,13.049642,13.057016,13.064174,13.07145,13.081172,13.090078,13.096025,13.103835,13.111728,13.117851,13.125448,13.134192,13.141757,13.148563,13.155397,13.160921,13.1656885,13.171491,13.17741,13.182817,13.189697,13.197437,13.204544,13.214014,13.225875,13.237215,13.250268,13.267914,13.285753,13.301985,13.3224945,13.342907,13.360279,13.380341,13.400642,13.41782,13.437582,13.459496,13.478432,13.497723,13.518448,13.535051,13.548447,13.561327,13.571144,13.578687,13.588745,13.601274,13.6137085,13.631153,13.654123,13.676231,13.699255,13.727374,13.75386,13.777216,13.806295,13.834717,13.857601,13.884119,13.909113,13.92728,13.945439,13.963795,13.979271,13.994534,14.013246,14.03166,14.0486965,14.068648,14.088012,14.10426,14.12468,14.147688,14.16792,14.191057,14.217923,14.241764,14.264176,14.289558,14.31071,14.326338,14.342376,14.354024,14.360578,14.365259,14.367544,14.368631,14.36964,14.371412,14.374165,14.377853,14.383203,14.3887005,14.393236,14.3984165,14.403276,14.40708,14.41118,14.4149475,14.417402,14.4190235,14.418851,14.416897,14.414341,14.409678,14.404509,14.400615,14.396117,14.391914,14.388742,14.385112,14.38138,14.378353,14.375221,14.371767,14.368341,14.364245,14.359507,14.355418,14.352352,14.34866,14.345032,14.342184,14.3391,14.335954,14.333399,14.330772,14.327658,14.324902,14.322735,14.319972,14.3173065,14.315294,14.312653,14.309482,14.30648,14.302412,14.2976,14.293562,14.28993,14.286343,14.283729,14.2818365,14.2796545,14.277466,14.275501,14.2726555,14.268818,14.265003,14.260461,14.254927,14.249889,14.245192,14.239651,14.234767,14.230972,14.226906,14.223574,14.221287,14.218661,14.21567,14.21278,14.209078,14.204151,14.199209,14.194229,14.18801,14.182095,14.177181,14.171386,14.165839,14.161492,14.156513,14.151323,14.147034,14.142633
10.525661,10.544479,10.569138,10.5943575,10.613958,10.638153,10.670431,10.703981,10.742663,10.788819,10.824504,10.846821,10.852061,10.833164,10.804113,10.765789,10.736509,10.728399,10.738684,10.7701,10.804659,10.834456,10.855076,10.862724,10.864724,10.891785,10.958656,11.042336,11.216972,11.4614105,11.682462,11.934515,12.159809,12.283744,12.351843,12.3849945,12.391181,12.393877,12.412157,12.449565,12.492266,12.54784,12.577261,12.561821,12.504486,12.4011,12.302317,12.225157,12.1989975,12.248065,12.330681,12.470907,12.603584,12.671974,12.6485815,12.52739,12.3928795,12.27575,12.203529,12.214823,12.299337,12.425655,12.55255,12.666601,12.768955,12.821554,12.831842,12.838833,12.827163,12.79895,12.749517,12.649546,12.532187,12.432352,12.302793,12.190069,12.12114,12.063612,12.022095,11.987969,11.94848,11.921764,11.920454,11.925487,12.031744,12.240736,12.507021,12.799145,13.023762,13.17927,13.284616,13.304503,13.280056,13.266321,13.253651,13.239336,13.216608,13.150227,13.054627,12.963056,12.834829,12.714296,12.632939,12.588577,12.594172,12.620083,12.6513815,12.677742,12.688116,12.690719,12.700937,12.727085,12.765849,12.825857,12.88666,12.9291115,12.963334,12.977257,12.975645,12.972926,12.969086,12.967029,12.966675,12.964988,12.962237,12.959997,12.95811,12.958405,12.960662,12.966751,12.975506,12.983253,12.9924755,13.003128,13.012516,13.021421,13.033029,13.043982,13.052071,13.062582,13.0730095,13.080921,13.090062,13.099339,13.106506,13.112782,13.118732,13.123356,13.127348,13.132298,13.137375,13.141922,13.147676,13.154257,13.160442,13.168976,13.179977,13.190665,13.202977,13.219599,13.236368,13.251598,13.2709465,13.290358,13.307,13.326229,13.3456745,13.362089,13.380852,13.401609,13.419596,13.438032,13.458075,13.474392,13.487698,13.500927,13.511544,13.519955,13.53137,13.54556,13.55942,13.578344,13.602615,13.625483,13.648894,13.677261,13.703932,13.727453,13.756992,13.786313,13.810291,13.838604,13.865921,13.88619,13.906843,13.927864,13.945407,13.962566,13.982744,14.001625,14.018482,14.038286,14.05731,14.072947,14.092295,14.113608,14.131992,14.152727,14.176168,14.196376,14.215017,14.235497,14.251892,14.263564,14.274933,14.282172,14.28529,14.286209,14.284813,14.283015,14.281122,14.279861,14.280102,14.2815,14.284292,14.287624,14.290504,14.293906,14.297188,14.299777,14.302169,14.304264,14.305651,14.306339,14.3054,14.303028,14.300175,14.29599,14.291858,14.288787,14.285303,14.28219,14.279976,14.277702,14.275118,14.272612,14.269987,14.266823,14.263704,14.2605095,14.256561,14.252924,14.250182,14.246786,14.24325,14.240305,14.237009,14.233396,14.230301,14.227222,14.223728,14.220875,14.218864,14.216564,14.2146225,14.213339,14.211729,14.2096615,14.207497,14.204388,14.200489,14.197056,14.193911,14.190714,14.188287,14.186468,14.184228,14.181812,14.179559,14.17626,14.171791,14.167359,14.162115,14.1557665,14.150033,14.144745,14.138599,14.133268,14.129179,14.124828,14.121286,14.118856,14.116091,14.112982,14.110021,14.10631,14.101472,14.096692,14.091909,14.08601,14.080471,14.075916,14.070606,14.0655775,14.061649,14.057136,14.052404,14.048464,14.044392
10.738741,10.754685,10.77573,10.797766,10.815487,10.839159,10.873718,10.911442,10.956074,11.008753,11.045789,11.06263,11.051016,11.0071335,10.95446,10.885959,10.830372,10.807726,10.80711,10.83309,10.865879,10.893139,10.908825,10.910272,10.906266,10.928789,10.994506,11.078642,11.261992,11.521147,11.753742,12.002247,12.218505,12.334518,12.388506,12.403903,12.395725,12.388544,12.398507,12.432398,12.475161,12.531183,12.561484,12.5468,12.489291,12.393131,12.305611,12.231846,12.212393,12.269371,12.356211,12.501404,12.637061,12.705561,12.675203,12.543646,12.40164,12.277271,12.197518,12.202297,12.280512,12.399342,12.517401,12.620733,12.710913,12.753098,12.7564535,12.759112,12.746716,12.7201605,12.673564,12.583664,12.479969,12.390571,12.274488,12.174637,12.115731,12.06633,12.028533,11.9951515,11.956633,11.931747,11.933924,11.948488,12.062624,12.269678,12.524632,12.793709,12.990971,13.124325,13.205635,13.207207,13.1731415,13.148699,13.131328,13.120512,13.105072,13.059745,12.989073,12.912495,12.802522,12.696328,12.62188,12.578617,12.57943,12.599968,12.626556,12.650526,12.661112,12.664524,12.673044,12.693161,12.722949,12.768385,12.814808,12.84831,12.875429,12.887098,12.886955,12.886818,12.887114,12.888753,12.890985,12.890579,12.887588,12.884764,12.882305,12.882652,12.8855915,12.893571,12.905596,12.916736,12.929676,12.944359,12.956982,12.968643,12.983349,12.99715,13.007756,13.021032,13.033638,13.04285,13.052963,13.062256,13.068723,13.0742235,13.079094,13.082661,13.085698,13.089619,13.093761,13.097443,13.102201,13.10784,13.113283,13.120953,13.130964,13.140688,13.151745,13.166569,13.181511,13.195103,13.212586,13.230429,13.245953,13.263969,13.28224,13.297657,13.315199,13.334646,13.351632,13.369244,13.38879,13.40513,13.418691,13.432785,13.444765,13.45451,13.467821,13.484164,13.499791,13.52047,13.546233,13.569962,13.5938225,13.622477,13.649368,13.673119,13.703171,13.7335415,13.758919,13.78892,13.817744,13.839017,13.861573,13.885138,13.904896,13.923987,13.945663,13.964993,13.981625,14.00084,14.018768,14.033081,14.050371,14.068737,14.084084,14.101019,14.119438,14.134659,14.148282,14.162528,14.173133,14.180116,14.186129,14.18856,14.188107,14.18527,14.180386,14.17595,14.171425,14.1675,14.1656,14.1651125,14.165735,14.1669655,14.167859,14.169134,14.170603,14.171882,14.173124,14.174431,14.175451,14.176016,14.175343,14.1734705,14.171051,14.167654,14.164466,14.162197,14.159664,14.157446,14.1558895,14.154474,14.152943,14.151389,14.149673,14.147288,14.144745,14.142323,14.138954,14.135553,14.132935,14.12966,14.126099,14.122981,14.119371,14.115168,14.111448,14.107905,14.10413,14.101372,14.099743,14.098209,14.097242,14.096817,14.096345,14.095455,14.09418,14.092108,14.089201,14.086412,14.083723,14.080776,14.078304,14.076304,14.073687,14.070711,14.067896,14.063875,14.058557,14.053373,14.047376,14.040311,14.034094,14.028494,14.022142,14.016739,14.012623,14.008258,14.00468,14.002172,13.999328,13.996159,13.993177,13.989506,13.984811,13.980234,13.975658,13.970082,13.9649315,13.960747,13.955961,13.951513,13.948069,13.944102,13.939915,13.936387,13.932714
10.9774,10.9883995,11.0027485,11.017792,11.0301695,11.049644,11.0841255,11.125743,11.177101,11.237598,11.2773485,11.290969,11.263391,11.188406,11.098162,10.99335,10.911188,10.873817,10.86221,10.883039,10.9145565,10.93993,10.951662,10.947845,10.938705,10.956825,11.018742,11.098114,11.285273,11.553391,11.791614,12.0322695,12.235216,12.340647,12.382493,12.385241,12.368664,12.356787,12.364646,12.399041,12.442497,12.499101,12.530596,12.517881,12.463568,12.377535,12.302384,12.233909,12.222015,12.285754,12.3744335,12.522084,12.6579,12.723377,12.685339,12.54504,12.397668,12.267818,12.181423,12.179075,12.248445,12.359962,12.469927,12.559105,12.636054,12.669794,12.6690855,12.669975,12.658701,12.634701,12.591564,12.513668,12.424704,12.341196,12.237554,12.153034,12.105404,12.066029,12.034063,12.003054,11.966705,11.943832,11.9488735,11.973022,12.091452,12.290421,12.528551,12.772207,12.943217,13.05554,13.116007,13.103343,13.0627365,13.033835,13.015654,13.007304,12.997549,12.96654,12.913378,12.850252,12.75684,12.664953,12.599932,12.560627,12.559187,12.575846,12.598633,12.62027,12.630645,12.634506,12.641552,12.656847,12.679481,12.713882,12.748901,12.774048,12.794758,12.8048935,12.806892,12.809954,12.814097,12.818508,12.822805,12.824085,12.822066,12.819851,12.818165,12.819494,12.823477,12.833097,12.84767,12.861549,12.877585,12.895866,12.911612,12.926077,12.94386,12.960232,12.9728775,12.988085,13.001839,13.0114565,13.021618,13.03026,13.035757,13.040287,13.044011,13.046551,13.048652,13.051615,13.054993,13.058044,13.062216,13.067383,13.072458,13.079563,13.088711,13.097431,13.107086,13.119883,13.132801,13.144642,13.160173,13.176422,13.190844,13.2077055,13.224916,13.23946,13.255995,13.274443,13.290746,13.307888,13.327358,13.344105,13.358274,13.373608,13.38724,13.398525,13.413866,13.432372,13.449703,13.47199,13.499084,13.523579,13.547817,13.576664,13.603649,13.627502,13.657753,13.688393,13.714042,13.743987,13.772728,13.794218,13.817764,13.84302,13.864372,13.884735,13.907326,13.926758,13.942972,13.960953,13.976884,13.989164,14.003519,14.018087,14.029806,14.04241,14.055475,14.065659,14.074338,14.082729,14.088157,14.091057,14.0925865,14.0912285,14.088123,14.082647,14.075515,14.069489,14.06341,14.057913,14.0546665,14.05282,14.051886,14.051638,14.051139,14.05095,14.051237,14.051741,14.052729,14.05416,14.0553875,14.056408,14.056574,14.055635,14.054071,14.051495,14.048914,14.047138,14.045134,14.04332,14.042002,14.040817,14.039925,14.039301,14.0385,14.037029,14.035038,14.032818,14.029495,14.026029,14.023373,14.020106,14.016514,14.013285,14.009445,14.004808,14.00065,13.996824,13.992998,13.990511,13.989349,13.988604,13.988509,13.988749,13.989103,13.989035,13.988382,13.987061,13.984891,13.982574,13.980162,13.977261,13.9745655,13.972227,13.969072,13.965439,13.962011,13.957256,13.951171,13.945379,13.938851,13.931447,13.925176,13.919695,13.913658,13.908617,13.904775,13.900675,13.897233,13.894737,13.891889,13.888725,13.88579,13.8822,13.877682,13.873321,13.868931,13.863628,13.858795,13.854914,13.850548,13.846577,13.843552,13.840067,13.836365,13.833208,13.829887
11.192974,11.197834,11.203224,11.208719,11.214029,11.22724,11.260505,11.306398,11.3658285,11.436375,11.482967,11.501692,11.468004,11.360614,11.215467,11.072567,10.970455,10.921101,10.900746,10.917879,10.948919,10.973389,10.982723,10.975379,10.962886,10.976315,11.033903,11.110554,11.294809,11.564816,11.808362,12.040197,12.2297325,12.325952,12.359268,12.3546295,12.334551,12.321647,12.333061,12.371716,12.415432,12.471474,12.503137,12.492541,12.444517,12.366985,12.298861,12.236767,12.231657,12.299271,12.387907,12.535949,12.669991,12.730799,12.68553,12.538576,12.387834,12.254227,12.162436,12.153753,12.215832,12.320358,12.422604,12.500296,12.566257,12.594686,12.594282,12.593964,12.582855,12.561071,12.520178,12.451812,12.374484,12.29309,12.200033,12.130711,12.093357,12.063763,12.038231,12.010378,11.976761,11.955774,11.962937,11.995892,12.116439,12.304404,12.522333,12.742517,12.892988,12.988064,13.032654,13.010216,12.966075,12.943599,12.931255,12.922204,12.912977,12.887038,12.843025,12.789715,12.709522,12.630159,12.574333,12.53993,12.538026,12.552268,12.572468,12.592343,12.602465,12.606649,12.612712,12.624668,12.6422825,12.668961,12.696259,12.71611,12.732878,12.742136,12.745433,12.750347,12.7568245,12.763105,12.769016,12.772093,12.771637,12.770676,12.770495,12.773293,12.778467,12.789546,12.806078,12.822018,12.840357,12.8613825,12.879578,12.896236,12.916351,12.934529,12.948492,12.964738,12.9788,12.98822,12.997845,13.005493,13.009945,13.013458,13.016108,13.017765,13.019077,13.0212755,13.024122,13.026804,13.030718,13.035767,13.040754,13.047564,13.056078,13.063963,13.07242,13.08347,13.094673,13.105064,13.119015,13.134017,13.147601,13.163614,13.180082,13.1940365,13.209917,13.227782,13.2437525,13.260761,13.280457,13.297783,13.31267,13.329245,13.344406,13.357077,13.374156,13.39444,13.413138,13.436661,13.464806,13.489944,13.514469,13.543413,13.570375,13.594219,13.624413,13.654331,13.678498,13.7064085,13.734375,13.756889,13.781399,13.807719,13.829819,13.850653,13.873281,13.892091,13.907275,13.923523,13.937218,13.947381,13.958784,13.969698,13.978043,13.986719,13.9951315,14.001104,14.0057125,14.009506,14.01106,14.010972,14.009352,14.005501,14.000759,13.993784,13.985563,13.978895,13.972292,13.966183,13.9621315,13.959009,13.956739,13.955757,13.955137,13.954891,13.95524,13.955863,13.956997,13.958515,13.959758,13.960924,13.961325,13.960707,13.959597,13.957854,13.956133,13.954889,13.953409,13.951969,13.950864,13.949948,13.949314,13.948877,13.948265,13.946949,13.944994,13.942696,13.939236,13.935652,13.932943,13.929724,13.926203,13.922974,13.91906,13.914226,13.909853,13.905892,13.902123,13.89991,13.899092,13.898887,13.899326,13.899918,13.900696,13.90104,13.90071,13.899816,13.898113,13.896114,13.893854,13.890942,13.888054,13.885431,13.881849,13.877722,13.87385,13.868559,13.861952,13.855799,13.848992,13.84154,13.835466,13.830312,13.824799,13.820269,13.816791,13.813019,13.809757,13.807321,13.804509,13.801397,13.79855,13.795086,13.790769,13.786617,13.78241,13.777349,13.772775,13.769121,13.765042,13.76139,13.758662,13.75552,13.752161,13.749269,13.746187
11.425209,11.422449,11.416244,11.408257,11.402607,11.408259,11.439049,11.486542,11.549064,11.628341,11.680741,11.692769,11.645393,11.511507,11.328442,11.151852,11.027288,10.966258,10.937677,10.951845,10.983011,11.007,11.014286,11.00367,10.988213,10.996337,11.048965,11.123472,11.304364,11.572208,11.814794,12.034164,12.206417,12.289995,12.314052,12.302973,12.283138,12.277292,12.293577,12.332775,12.375011,12.4296875,12.461733,12.453795,12.412273,12.345103,12.287033,12.233989,12.237089,12.308416,12.396738,12.544269,12.675041,12.729671,12.676294,12.524226,12.372885,12.234249,12.135251,12.119349,12.173056,12.266306,12.357412,12.425756,12.482434,12.503498,12.497839,12.493465,12.4818,12.462699,12.426718,12.368949,12.302956,12.226656,12.146626,12.093933,12.068493,12.050964,12.034468,12.01199,11.983212,11.965543,11.974939,12.014381,12.134662,12.309711,12.504679,12.693035,12.815252,12.892257,12.921932,12.897561,12.861632,12.8412895,12.828202,12.818415,12.809771,12.790148,12.755924,12.710029,12.642323,12.576909,12.532072,12.504205,12.502942,12.5153055,12.533327,12.551755,12.561899,12.5667305,12.572274,12.581373,12.594379,12.613892,12.634052,12.649098,12.66239,12.671014,12.675611,12.682255,12.69091,12.699051,12.706713,12.712275,12.714519,12.715979,12.718884,12.724769,12.732414,12.746192,12.765619,12.7841015,12.80492,12.82848,12.848646,12.866878,12.888427,12.907518,12.922059,12.938449,12.95196,12.960509,12.968829,12.974779,12.977727,12.979804,12.981066,12.9817095,12.98217,12.983654,12.986126,12.988615,12.992563,12.997841,13.003035,13.009863,13.018023,13.025259,13.032672,13.042112,13.051723,13.060837,13.073431,13.087395,13.100307,13.115704,13.131712,13.145344,13.160959,13.178745,13.194859,13.212194,13.232594,13.250879,13.266813,13.284983,13.301998,13.316349,13.33547,13.357899,13.378332,13.403238,13.431845,13.456634,13.480869,13.509375,13.5355835,13.558311,13.586111,13.613205,13.635302,13.661242,13.687911,13.709857,13.733828,13.7596245,13.781157,13.801224,13.822489,13.839502,13.852783,13.866348,13.876987,13.884417,13.892214,13.898945,13.903618,13.908136,13.911842,13.913771,13.914639,13.914371,13.912643,13.910112,13.9060135,13.90037,13.894606,13.886904,13.878435,13.871704,13.864427,13.85759,13.853043,13.849268,13.846325,13.844959,13.844245,13.843985,13.844406,13.845118,13.846418,13.848362,13.850189,13.852003,13.853258,13.853466,13.853106,13.852221,13.85115,13.850256,13.849039,13.847684,13.846554,13.845566,13.844781,13.844172,13.843374,13.841808,13.839589,13.837012,13.8332615,13.829481,13.826664,13.823437,13.819985,13.816797,13.81287,13.807962,13.803516,13.79954,13.795914,13.793972,13.793431,13.793635,13.7944565,13.79527,13.796301,13.7969055,13.796805,13.796214,13.794842,13.7930565,13.790867,13.787891,13.784809,13.781927,13.777975,13.773439,13.769215,13.763516,13.756565,13.750231,13.743395,13.736215,13.730633,13.726076,13.721382,13.717592,13.714629,13.711306,13.708281,13.705919,13.703138,13.700057,13.697283,13.69393,13.689803,13.685866,13.6818495,13.677053,13.672771,13.669387,13.665659,13.662384,13.659983,13.657205,13.654194,13.651548,13.648681
11.607586,11.596718,11.5775795,11.555204,11.538881,11.535917,11.561657,11.608057,11.67217,11.7599535,11.818521,11.8227825,11.760824,11.609588,11.411358,11.212767,11.069392,11.000087,10.966222,10.9794445,11.011798,11.036238,11.042706,11.030226,11.01343,11.016424,11.065066,11.141318,11.321739,11.582468,11.812958,12.015362,12.167817,12.237075,12.252196,12.238892,12.224392,12.227537,12.248806,12.287142,12.326643,12.379314,12.4114685,12.405922,12.370773,12.314027,12.266298,12.223062,12.234756,12.309057,12.395355,12.540031,12.665631,12.713232,12.652622,12.498852,12.350711,12.207504,12.101293,12.078339,12.122345,12.203528,12.283392,12.342029,12.38838,12.401571,12.391371,12.383585,12.371805,12.355717,12.327402,12.27635,12.214981,12.147266,12.08144,12.043886,12.030049,12.025139,12.019398,12.004346,11.982438,11.969297,11.980706,12.024721,12.141279,12.30056,12.471455,12.629527,12.725406,12.783203,12.803423,12.783615,12.757385,12.736492,12.719908,12.709255,12.700838,12.684984,12.657225,12.617391,12.561415,12.509747,12.4756565,12.454928,12.455498,12.466973,12.483746,12.501419,12.511964,12.517801,12.52364,12.53118,12.541107,12.555674,12.570892,12.582678,12.593738,12.602126,12.6077385,12.615597,12.625847,12.635564,12.644907,12.653469,12.659463,12.664501,12.672042,12.682577,12.693903,12.711493,12.734423,12.755489,12.778419,12.803587,12.824559,12.843071,12.864429,12.882925,12.89682,12.911987,12.923784,12.9306755,12.9368515,12.940481,12.9416275,12.942029,12.941838,12.941593,12.9414,12.942492,12.944972,12.947631,12.952078,12.958084,12.963909,12.971237,12.979557,12.986586,12.993446,13.001877,13.010473,13.01886,13.030727,13.044188,13.056815,13.072048,13.088066,13.10178,13.117681,13.13605,13.152872,13.17105,13.192614,13.212149,13.229322,13.249216,13.268149,13.284256,13.305401,13.32933,13.350357,13.375615,13.4037895,13.427576,13.450696,13.477636,13.502012,13.522732,13.547208,13.570684,13.590094,13.613157,13.636938,13.6564045,13.677788,13.700859,13.720039,13.7376995,13.755947,13.769962,13.780508,13.790616,13.797721,13.802191,13.806278,13.809025,13.810431,13.811402,13.811384,13.810368,13.808716,13.805948,13.80247,13.798822,13.793783,13.787823,13.782236,13.77478,13.766738,13.760376,13.752824,13.745672,13.741125,13.737549,13.734875,13.733799,13.733398,13.73361,13.734547,13.735657,13.737409,13.740011,13.742567,13.745111,13.747269,13.748272,13.748508,13.748101,13.747192,13.746241,13.744803,13.74308,13.741596,13.740114,13.738712,13.73754,13.736147,13.733952,13.7312565,13.728312,13.724292,13.720418,13.717581,13.714433,13.711158,13.708151,13.704383,13.699641,13.69534,13.691483,13.687994,13.686144,13.6856,13.685758,13.68648,13.687168,13.688042,13.688555,13.688475,13.687931,13.686653,13.684948,13.682766,13.679762,13.676628,13.673683,13.669643,13.665024,13.660738,13.654982,13.648073,13.641899,13.6353855,13.628829,13.623999,13.620249,13.616536,13.613569,13.611173,13.608327,13.605539,13.603247,13.600486,13.597415,13.594692,13.591427,13.587449,13.583684,13.579849,13.575305,13.571304,13.56819,13.564813,13.561905,13.559795,13.557329,13.554592,13.552118,13.549378
11.704896,11.687969,11.658479,11.625381,11.602335,11.591682,11.611492,11.656194,11.723526,11.8189,11.883398,11.887948,11.81794,11.657223,11.457401,11.248488,11.094002,11.020649,10.984768,10.998692,11.03273,11.058172,11.064906,11.052052,11.035385,11.035101,11.082398,11.1638155,11.346587,11.597614,11.809202,11.993788,12.128223,12.185009,12.192901,12.1815605,12.174584,12.181435,12.20591,12.244755,12.28226,12.3325405,12.363857,12.360069,12.330819,12.282478,12.242165,12.2065935,12.225594,12.302205,12.385218,12.525223,12.644918,12.686503,12.621162,12.468796,12.326025,12.180249,12.068991,12.040706,12.075497,12.148043,12.220232,12.268737,12.304317,12.311679,12.301603,12.293209,12.282106,12.268343,12.246249,12.196405,12.133795,12.075097,12.021238,11.994576,11.989532,11.9947815,11.998597,11.990822,11.975784,11.967107,11.979994,12.026752,12.137145,12.2805195,12.430997,12.569679,12.649885,12.691075,12.707555,12.692144,12.667551,12.645931,12.627846,12.616587,12.6082325,12.593006,12.56797,12.534166,12.488533,12.447838,12.421688,12.406651,12.409151,12.420376,12.436621,12.454074,12.465178,12.472092,12.478762,12.485958,12.494447,12.506502,12.519133,12.52922,12.539207,12.547611,12.553856,12.562387,12.573634,12.584551,12.595312,12.6066885,12.616387,12.625051,12.637269,12.652453,12.667422,12.68869,12.714703,12.737745,12.7620125,12.787746,12.808497,12.826284,12.846321,12.863258,12.875751,12.888943,12.898525,12.903523,12.907396,12.90876,12.908318,12.90728,12.905995,12.905245,12.904779,12.905909,12.908769,12.911895,12.917141,12.92415,12.93084,12.938962,12.94784,12.955082,12.961919,12.970057,12.978319,12.986563,12.998337,13.011795,13.024467,13.039883,13.056204,13.070226,13.086683,13.105907,13.123613,13.14274,13.165447,13.186047,13.204172,13.225337,13.24564,13.262991,13.2854595,13.309666,13.329815,13.35415,13.381333,13.404207,13.425919,13.450745,13.472887,13.491622,13.513618,13.534311,13.550995,13.570452,13.590288,13.606548,13.624463,13.643874,13.660006,13.674682,13.689515,13.700461,13.708353,13.715296,13.719381,13.721445,13.72263,13.722448,13.721598,13.720228,13.717949,13.7153225,13.712393,13.708554,13.704597,13.7008915,13.696096,13.690836,13.686136,13.679387,13.6719055,13.66597,13.658842,13.652097,13.647962,13.645048,13.643134,13.642743,13.642972,13.643991,13.645733,13.647457,13.649812,13.652928,13.655844,13.65872,13.661251,13.662539,13.662901,13.662455,13.661272,13.659945,13.657972,13.6556635,13.6537075,13.651619,13.649522,13.647757,13.645731,13.642929,13.639858,13.636687,13.632608,13.628854,13.626163,13.623234,13.6202545,13.617537,13.614059,13.6096325,13.605583,13.601883,13.598429,13.59643,13.595609,13.595306,13.59552,13.595812,13.596228,13.596405,13.596193,13.595526,13.594193,13.592503,13.590332,13.5873995,13.584398,13.581608,13.577782,13.5734005,13.569326,13.563823,13.557255,13.551455,13.5454235,13.53955,13.535423,13.532377,13.529454,13.5271,13.525125,13.522622,13.51999,13.51774,13.514984,13.511921,13.509237,13.506046,13.50218,13.498539,13.494865,13.490539,13.486765,13.483874,13.480783,13.478162,13.476271,13.47403,13.471475,13.469105,13.466421
11.775625,11.755629,11.719247,11.676884,11.64609,11.628681,11.644316,11.688393,11.7588215,11.858393,11.925935,11.933873,11.861361,11.695023,11.493189,11.276471,11.113997,11.037835,11.000881,11.015837,11.051489,11.077873,11.085141,11.072451,11.055885,11.0563545,11.10654,11.193127,11.376095,11.611723,11.797868,11.961508,12.076452,12.120102,12.120224,12.114917,12.119469,12.1264305,12.152548,12.193356,12.231332,12.275824,12.303095,12.3025675,12.282631,12.244312,12.210125,12.181496,12.208195,12.287886,12.367323,12.501182,12.613766,12.649605,12.580217,12.431536,12.297064,12.149788,12.034469,12.002033,12.02837,12.093353,12.159527,12.200037,12.228945,12.233175,12.222501,12.213047,12.2020035,12.188985,12.163986,12.11352,12.05508,12.003458,11.959467,11.942438,11.94503,11.959522,11.972679,11.972483,11.964716,11.961106,11.97514,12.0192175,12.118164,12.244744,12.3777275,12.501062,12.571027,12.603039,12.616547,12.601288,12.574845,12.55147,12.532179,12.520721,12.512654,12.499594,12.479335,12.452702,12.41721,12.386138,12.366704,12.356482,12.360534,12.371421,12.387088,12.404308,12.415983,12.424053,12.431904,12.439376,12.447151,12.457691,12.468628,12.477559,12.486855,12.495338,12.502089,12.511131,12.523305,12.535513,12.547853,12.562323,12.576019,12.588549,12.605629,12.625495,12.644034,12.668821,12.6976185,12.722295,12.747512,12.773348,12.793445,12.810056,12.828202,12.843021,12.853605,12.864226,12.871068,12.8738,12.875019,12.873944,12.871931,12.869556,12.8674555,12.866562,12.866186,12.8677845,12.871422,12.875356,12.881793,12.890182,12.898041,12.907299,12.917112,12.924913,12.932098,12.940371,12.948671,12.957095,12.969131,12.982852,12.995729,13.01148,13.028221,13.04263,13.059757,13.080042,13.098856,13.119133,13.143009,13.164357,13.182789,13.204347,13.225031,13.242661,13.26512,13.288692,13.307831,13.33062,13.356291,13.378204,13.398841,13.422037,13.4422035,13.458911,13.477819,13.494867,13.508251,13.523549,13.538928,13.55154,13.565559,13.58094,13.593796,13.60537,13.616763,13.624733,13.630142,13.63419,13.635586,13.6355505,13.6342125,13.631512,13.628744,13.625509,13.621514,13.61765,13.613545,13.608614,13.604132,13.600414,13.596014,13.591433,13.587331,13.581512,13.57501,13.569844,13.564209,13.559099,13.556103,13.554117,13.553108,13.55345,13.554319,13.55604,13.558384,13.560531,13.563229,13.566564,13.569583,13.572507,13.57506,13.576307,13.576529,13.575707,13.573977,13.5721035,13.569463,13.566542,13.564169,13.56159,13.5589695,13.556771,13.554287,13.55109,13.54785,13.544653,13.5407505,13.537331,13.534956,13.532411,13.529861,13.527532,13.524439,13.520415,13.516661,13.513096,13.509548,13.507193,13.505874,13.504824,13.504269,13.503986,13.50379,13.503528,13.503117,13.502279,13.50087,13.499197,13.497082,13.494324,13.491596,13.489115,13.485715,13.481787,13.478094,13.473039,13.466978,13.461644,13.456153,13.450933,13.447398,13.444899,13.442537,13.440586,13.438875,13.436569,13.434019,13.431789,13.429041,13.426011,13.423403,13.420337,13.41665,13.413201,13.409739,13.40568,13.402171,13.399514,13.396723,13.394396,13.392734,13.390738,13.388405,13.386179,13.383593
11.8142395,11.7950115,11.755242,11.706211,11.669357,11.644913,11.655962,11.699846,11.772943,11.875512,11.945616,11.958486,11.887491,11.720185,11.519273,11.2986145,11.131275,11.053683,11.016647,11.032984,11.0701885,11.097342,11.105366,11.0935545,11.078047,11.079288,11.133247,11.228651,11.402559,11.613831,11.776203,11.91964,12.013315,12.041581,12.040823,12.03739,12.042532,12.048465,12.076889,12.1221895,12.1636715,12.204641,12.228598,12.23085,12.219528,12.188798,12.15852,12.138727,12.175296,12.259209,12.336355,12.4595,12.559849,12.590191,12.521294,12.381893,12.258419,12.111534,11.99402,11.958891,11.977301,12.032915,12.09199,12.127789,12.1518135,12.15329,12.1423025,12.132347,12.119326,12.103155,12.074011,12.024319,11.97209,11.927015,11.891893,11.883425,11.892581,11.915316,11.9375925,11.945526,11.945894,11.948106,11.96319,12.00273,12.08735,12.193974,12.304809,12.412361,12.475052,12.49968,12.509321,12.494606,12.470203,12.448623,12.431728,12.422591,12.415714,12.405054,12.389245,12.368909,12.342178,12.31934,12.305628,12.299445,12.304646,12.3150215,12.329976,12.346912,12.359207,12.3685665,12.37806,12.386532,12.394378,12.404446,12.414635,12.42302,12.432085,12.4408455,12.448127,12.457691,12.470907,12.484658,12.498912,12.517013,12.535297,12.552221,12.574674,12.599522,12.621729,12.649919,12.681036,12.706724,12.7321005,12.757018,12.7755,12.79002,12.805172,12.816874,12.824751,12.831892,12.835219,12.835194,12.833286,12.829549,12.8260145,12.822462,12.819925,12.819378,12.819609,12.822332,12.827391,12.832687,12.840973,12.851398,12.860978,12.871981,12.883398,12.8923435,12.900487,12.90962,12.918603,12.927748,12.940622,12.955035,12.968361,12.984777,13.002256,13.01726,13.035141,13.056007,13.075048,13.095547,13.119635,13.141155,13.159771,13.181486,13.2019,13.2187805,13.239998,13.262294,13.280594,13.301884,13.325735,13.346085,13.365078,13.385919,13.403342,13.417252,13.432007,13.444254,13.453346,13.463352,13.473154,13.481237,13.490473,13.500977,13.509969,13.51802,13.52565,13.53054,13.533527,13.534878,13.533901,13.532068,13.5286665,13.524073,13.5199375,13.514868,13.5090685,13.504003,13.498843,13.493053,13.488388,13.485058,13.481557,13.478354,13.475635,13.471758,13.46736,13.463836,13.460257,13.457237,13.4557,13.4548645,13.45493,13.456054,13.457536,13.459821,13.462505,13.46479,13.467478,13.470592,13.473307,13.475864,13.477948,13.478712,13.478421,13.476818,13.474236,13.471649,13.468227,13.464721,13.462055,13.459162,13.4562435,13.453808,13.451071,13.44769,13.444456,13.4414215,13.437889,13.43494,13.432965,13.430855,13.428766,13.426861,13.424223,13.420687,13.417286,13.413897,13.410202,13.40736,13.405399,13.403395,13.4019,13.400962,13.400084,13.399345,13.398727,13.397704,13.396194,13.394531,13.392508,13.390013,13.387696,13.385675,13.382924,13.379702,13.376611,13.37227,13.366966,13.362268,13.357445,13.352911,13.3498955,13.347813,13.345799,13.344042,13.342443,13.340187,13.33763,13.335394,13.33264,13.329647,13.327128,13.324222,13.3207655,13.317564,13.314374,13.310661,13.307485,13.305103,13.302675,13.300718,13.29934,13.29767,13.295658,13.29366,13.291243
11.824472,11.807657,11.768199,11.716597,11.676107,11.64624,11.652381,11.694456,11.768836,11.873049,11.944979,11.962257,11.895139,11.730916,11.533752,11.31333,11.144526,11.066713,11.030088,11.047398,11.085463,11.112778,11.121391,11.11083,11.097,11.099284,11.155588,11.256701,11.417192,11.605256,11.75115,11.877999,11.95407,11.9706135,11.972574,11.965628,11.962863,11.968702,11.998876,12.047273,12.091758,12.133777,12.158104,12.161488,12.152626,12.124848,12.098246,12.086984,12.130846,12.216938,12.294634,12.404221,12.488935,12.515692,12.45385,12.327931,12.214243,12.0726,11.957752,11.921942,11.93467,11.980782,12.031994,12.065068,12.085628,12.084591,12.07283,12.06196,12.046172,12.026407,11.996351,11.950076,11.903959,11.864386,11.836044,11.833532,11.846811,11.874626,11.9030285,11.917065,11.923901,11.930844,11.94662,11.982125,12.054188,12.142801,12.232389,12.324459,12.380877,12.400927,12.407597,12.3951645,12.376784,12.361034,12.349823,12.344508,12.339497,12.330866,12.317976,12.301533,12.280384,12.26292,12.2529745,12.249313,12.254976,12.264703,12.278873,12.295433,12.308171,12.318595,12.32966,12.339392,12.347834,12.358271,12.368578,12.377033,12.386373,12.395685,12.40361,12.413841,12.428186,12.443451,12.459518,12.480812,12.502943,12.52347,12.550113,12.578553,12.603193,12.633278,12.665087,12.690466,12.714752,12.737606,12.75372,12.765669,12.777475,12.785942,12.791141,12.794981,12.795171,12.792799,12.78834,12.782614,12.778133,12.773998,12.7716255,12.771884,12.773123,12.777404,12.784246,12.791188,12.801624,12.814369,12.825895,12.838951,12.852391,12.862923,12.872556,12.883251,12.893568,12.903936,12.91817,12.933661,12.947696,12.964714,12.982601,12.997883,13.0160675,13.036869,13.055452,13.07535,13.098463,13.119067,13.137201,13.158333,13.177868,13.1936035,13.213173,13.2339325,13.251318,13.2711315,13.292885,13.311082,13.327843,13.345711,13.35996,13.370766,13.381244,13.388827,13.393852,13.399008,13.403856,13.408002,13.413129,13.41951,13.42529,13.430468,13.435099,13.43763,13.4388485,13.438352,13.4358635,13.432938,13.428471,13.422888,13.417889,13.4116,13.404365,13.398249,13.392542,13.386583,13.382299,13.379687,13.377367,13.375835,13.374863,13.373236,13.3712845,13.369685,13.36799,13.366783,13.366571,13.366833,13.3679085,13.3696785,13.371576,13.374105,13.376724,13.378781,13.381053,13.383515,13.385564,13.387409,13.388619,13.388565,13.387526,13.384966,13.3815,13.3782625,13.3742,13.37031,13.367535,13.364565,13.361612,13.359146,13.356373,13.352989,13.349838,13.346992,13.343759,13.341125,13.339392,13.337519,13.335688,13.334051,13.331752,13.328618,13.325527,13.322317,13.318527,13.315298,13.312834,13.310063,13.307822,13.306393,13.305012,13.303932,13.303177,13.302046,13.300495,13.29888,13.297001,13.294832,13.292974,13.291458,13.28941,13.286952,13.284515,13.280956,13.276453,13.272383,13.268176,13.264185,13.261503,13.259627,13.257713,13.255947,13.25432,13.252007,13.249399,13.2471485,13.244402,13.2414665,13.23904,13.236301,13.233093,13.230148,13.227245,13.223892,13.22105,13.218938,13.21686,13.215254,13.2141485,13.212797,13.211108,13.209355,13.207132
11.831044,11.814352,11.776363,11.724214,11.680003,11.647016,11.648053,11.685066,11.759987,11.8649845,11.937647,11.958579,11.89542,11.735214,11.54277,11.32423,11.155281,11.077535,11.041151,11.058774,11.097021,11.124015,11.132928,11.123537,11.111099,11.11664,11.173978,11.271643,11.424669,11.599338,11.73044,11.840314,11.903294,11.914876,11.913918,11.903751,11.899048,11.906433,11.936097,11.982691,12.026195,12.071578,12.099642,12.103278,12.090184,12.063217,12.04368,12.038618,12.084018,12.168243,12.24855,12.344343,12.413206,12.438665,12.387606,12.275478,12.168484,12.03738,11.930016,11.894419,11.903152,11.941482,11.9850025,12.01327,12.030607,12.027611,12.013708,12.000107,11.982986,11.964092,11.936024,11.894093,11.853256,11.818753,11.796028,11.797747,11.813499,11.84395,11.875576,11.8932,11.904079,11.91408,11.930143,11.962339,12.024553,12.099476,12.174259,12.251466,12.299948,12.318994,12.325672,12.316099,12.30226,12.2930355,12.287669,12.285088,12.281839,12.275015,12.264378,12.250856,12.233736,12.2200165,12.212633,12.210577,12.216341,12.225415,12.238819,12.254929,12.267893,12.279067,12.29132,12.302086,12.311126,12.322088,12.332785,12.341552,12.351418,12.361494,12.370192,12.381262,12.396776,12.413367,12.430929,12.45459,12.479378,12.502309,12.5315075,12.561806,12.587444,12.617815,12.648817,12.67285,12.695211,12.715448,12.729036,12.738513,12.747357,12.753157,12.756245,12.75762,12.755607,12.751669,12.745579,12.738735,12.733883,12.72967,12.727833,12.729061,12.731375,12.737229,12.74582,12.7543545,12.766865,12.78183,12.795215,12.810279,12.825785,12.838015,12.849333,12.861889,12.873827,12.88562,12.901479,12.9183235,12.933354,12.950502,12.967838,12.982664,13.000517,13.021305,13.040013,13.059746,13.081603,13.100288,13.116766,13.136118,13.1544075,13.169571,13.188139,13.207399,13.223194,13.24095,13.260139,13.275956,13.290314,13.305162,13.316385,13.324339,13.331159,13.335026,13.336945,13.338558,13.339974,13.341476,13.343893,13.347603,13.351311,13.354591,13.35722,13.358166,13.358214,13.356534,13.353127,13.349558,13.344749,13.338501,13.33245,13.3258505,13.317879,13.310825,13.305113,13.299657,13.2961855,13.294373,13.293199,13.2930355,13.293331,13.293308,13.293098,13.292919,13.292749,13.2931,13.294065,13.295341,13.297345,13.299673,13.301876,13.304461,13.306808,13.308487,13.310186,13.311865,13.31316,13.314199,13.314439,13.3134985,13.311697,13.308243,13.304022,13.30027,13.295742,13.291598,13.2887535,13.285776,13.282838,13.280363,13.277591,13.274205,13.271069,13.268271,13.265099,13.262508,13.2608,13.258938,13.257154,13.255613,13.253492,13.2506275,13.247768,13.244703,13.240892,13.237448,13.234699,13.231461,13.228739,13.226991,13.225281,13.223978,13.223133,13.221967,13.220465,13.218967,13.217295,13.215494,13.214102,13.213063,13.211666,13.209898,13.208035,13.205169,13.201355,13.1978,13.194075,13.190465,13.187977,13.186194,13.184282,13.182453,13.18077,13.178403,13.175777,13.173542,13.170841,13.167993,13.165676,13.163112,13.160149,13.157457,13.154823,13.1518,13.149259,13.147381,13.145585,13.144249,13.143349,13.14223,13.140778,13.13921,13.137142
11.837256,11.822036,11.786422,11.734045,11.686176,11.649376,11.645971,11.679188,11.750593,11.853292,11.926666,11.951336,11.89302,11.738439,11.552437,11.337336,11.16901,11.091321,11.054783,11.071976,11.109724,11.135729,11.14463,11.136589,11.125724,11.1363945,11.195388,11.286739,11.43055,11.590546,11.705573,11.797409,11.847388,11.854612,11.849235,11.835653,11.829604,11.837408,11.865374,11.908123,11.947603,11.990261,12.017302,12.021164,12.009991,11.989,11.9766,11.976902,12.021047,12.100935,12.183743,12.268751,12.322266,12.340935,12.304787,12.211443,12.111078,11.994813,11.899084,11.865059,11.869783,11.899542,11.933926,11.955526,11.967265,11.961269,11.946123,11.930871,11.913305,11.895718,11.870737,11.83486,11.800913,11.772747,11.756409,11.762156,11.779653,11.811319,11.844548,11.864647,11.878752,11.891375,11.907562,11.936243,11.9882145,12.049032,12.108969,12.170353,12.20933,12.225925,12.233614,12.229552,12.222306,12.22016,12.220745,12.221294,12.220249,12.215673,12.20759,12.197212,12.184257,12.174273,12.169363,12.168757,12.174416,12.182655,12.195084,12.210539,12.223606,12.235476,12.248917,12.260799,12.270582,12.282301,12.293668,12.303011,12.313764,12.325029,12.334883,12.347245,12.364367,12.382556,12.401802,12.427822,12.454986,12.479935,12.510916,12.541952,12.56748,12.596627,12.6250725,12.646294,12.665314,12.68158,12.691715,12.698114,12.703537,12.706491,12.70747,12.70652,12.70261,12.697462,12.6902,12.682772,12.678016,12.674202,12.673413,12.676041,12.6798115,12.687677,12.698433,12.708929,12.723974,12.741647,12.757311,12.774876,12.793028,12.80751,12.821141,12.836334,12.850656,12.864836,12.882517,12.899982,12.914997,12.932781,12.950785,12.965691,12.982685,13.001984,13.019317,13.037409,13.057549,13.074816,13.089847,13.10747,13.124067,13.137782,13.154284,13.170905,13.184143,13.198741,13.2141485,13.226566,13.237568,13.248353,13.255695,13.260143,13.262755,13.262667,13.261455,13.259649,13.257967,13.257219,13.257371,13.2588825,13.260889,13.262632,13.263626,13.263269,13.262333,13.259723,13.255793,13.252081,13.246938,13.240248,13.233822,13.2267685,13.2187,13.21203,13.206899,13.20228,13.199686,13.198669,13.19859,13.199694,13.201149,13.202642,13.204107,13.205303,13.206641,13.2085495,13.210711,13.213019,13.215944,13.218746,13.2211075,13.22349,13.225233,13.226244,13.227045,13.2276,13.227875,13.227884,13.22691,13.224899,13.222228,13.217846,13.212944,13.208799,13.203989,13.19977,13.196972,13.19412,13.191298,13.188854,13.186117,13.1826935,13.179441,13.176527,13.17313,13.170237,13.16823,13.166032,13.163984,13.162319,13.160223,13.157527,13.154867,13.152002,13.148329,13.144892,13.142086,13.13869,13.135773,13.133881,13.132036,13.130648,13.129779,13.128666,13.127312,13.126022,13.124657,13.123341,13.122501,13.122002,13.121344,13.120354,13.119141,13.117056,13.11402,13.111035,13.107811,13.104576,13.102259,13.100532,13.098582,13.096668,13.094919,13.0925045,13.089874,13.087669,13.085021,13.082279,13.080095,13.077734,13.075058,13.072666,13.070356,13.06774,13.065566,13.063957,13.062489,13.061459,13.060781,13.059915,13.058731,13.057383,13.055531
11.835783,11.822958,11.790475,11.73884,11.688549,11.648566,11.641911,11.672484,11.738241,11.835964,11.908725,11.936737,11.884004,11.736765,11.558945,11.349434,11.183208,11.105861,11.068844,11.084805,11.121379,11.145959,11.1547985,11.148457,11.139731,11.155212,11.215341,11.300684,11.435198,11.581572,11.682822,11.758781,11.797638,11.801218,11.790065,11.773345,11.76701,11.773929,11.798837,11.836233,11.869959,11.906067,11.929274,11.933649,11.927385,11.9139805,11.907171,11.910796,11.950953,12.023102,12.102787,12.182106,12.228604,12.241295,12.218271,12.141886,12.048796,11.949688,11.868116,11.836935,11.838335,11.860068,11.885453,11.900076,11.905573,11.896473,11.880886,11.865068,11.848124,11.832503,11.811417,11.782381,11.755762,11.734104,11.7236595,11.732283,11.750282,11.781221,11.813826,11.834625,11.8505,11.864987,11.881386,11.907438,11.951387,12.001032,12.049343,12.097979,12.128872,12.14291,12.151878,12.15329,12.151969,12.155176,12.159998,12.1629505,12.163765,12.161323,12.155731,12.148325,12.1392,12.132582,12.129886,12.130638,12.136341,12.14399,12.155657,12.170561,12.18368,12.196087,12.2104645,12.223266,12.233719,12.246199,12.258337,12.268387,12.280195,12.292861,12.304058,12.317911,12.3367,12.35634,12.376994,12.404665,12.433168,12.459068,12.490317,12.520407,12.544359,12.57058,12.594774,12.611935,12.626585,12.638173,12.644628,12.648034,12.6504345,12.651178,12.650721,12.648396,12.643653,12.638197,12.630829,12.623823,12.619844,12.617073,12.617825,12.6220875,12.62747,12.637412,12.650288,12.662673,12.680091,12.700251,12.717996,12.737896,12.7586155,12.775375,12.791472,12.809715,12.826607,12.842437,12.861421,12.879307,12.894051,12.912079,12.930235,12.944742,12.960754,12.978326,12.9938,13.00979,13.027888,13.043592,13.057022,13.072582,13.086884,13.098379,13.111942,13.125116,13.135219,13.146055,13.157133,13.165776,13.173119,13.179665,13.183172,13.1842785,13.183138,13.179823,13.176235,13.17197,13.168274,13.166216,13.1650505,13.165243,13.1661625,13.166875,13.166723,13.16544,13.163824,13.16062,13.156403,13.152657,13.147169,13.140407,13.134393,13.127714,13.120691,13.115436,13.111479,13.10811,13.106525,13.106277,13.107117,13.109118,13.111294,13.113764,13.11628,13.118308,13.120577,13.123458,13.126371,13.129338,13.132823,13.135818,13.138098,13.140051,13.141023,13.141251,13.141105,13.140558,13.139872,13.138941,13.136913,13.134038,13.13073,13.125805,13.120645,13.116451,13.111737,13.107721,13.105093,13.102457,13.099794,13.0974,13.094715,13.091228,13.087772,13.08459,13.080708,13.0771885,13.074579,13.071706,13.069075,13.067038,13.064737,13.062033,13.059494,13.056849,13.053502,13.050394,13.047889,13.04482,13.042156,13.040419,13.038731,13.037463,13.036673,13.035717,13.034597,13.033567,13.03253,13.031657,13.031268,13.031177,13.031063,13.030655,13.029935,13.028464,13.02605,13.023531,13.02071,13.017776,13.015593,13.013903,13.011932,13.009985,13.008232,13.005854,13.003304,13.001188,12.998666,12.996092,12.994089,12.99197,12.989632,12.987589,12.985642,12.983479,12.981709,12.980396,12.979267,12.978536,12.978072,12.977438,12.976494,12.975353,12.973714
11.826284,11.815586,11.786088,11.735935,11.6847105,11.642829,11.633755,11.662161,11.724073,11.816799,11.887208,11.917749,11.870415,11.730724,11.56097,11.357777,11.194565,11.117893,11.080424,11.094976,11.130281,11.15362,11.162626,11.158129,11.15189,11.170005,11.230155,11.312625,11.439669,11.575251,11.667012,11.731526,11.761804,11.761875,11.745543,11.726534,11.72039,11.725954,11.747506,11.779978,11.808975,11.839745,11.86014,11.865295,11.861959,11.853222,11.849857,11.855077,11.890947,11.954248,12.024888,12.101148,12.1490965,12.161852,12.145306,12.078863,11.994355,11.910254,11.841041,11.812771,11.811819,11.827314,11.845684,11.855043,11.856005,11.8447895,11.828987,11.813009,11.797081,11.783594,11.76606,11.742838,11.722219,11.705786,11.699696,11.709954,11.7277155,11.757085,11.788081,11.80859,11.825266,11.841089,11.857968,11.88275,11.921997,11.964779,12.005783,12.046711,12.072943,12.085573,12.095118,12.099303,12.101006,12.106727,12.113412,12.11743,12.119201,12.118258,12.114724,12.10978,12.10384,12.100057,12.099276,12.101383,12.107506,12.115043,12.126416,12.141092,12.154299,12.16708,12.182042,12.195393,12.206259,12.219237,12.231943,12.242558,12.255224,12.269056,12.2813835,12.296455,12.3164835,12.337056,12.358534,12.386943,12.415754,12.441651,12.472093,12.500336,12.522121,12.544961,12.564774,12.578006,12.588699,12.596333,12.599902,12.601152,12.601608,12.601186,12.600169,12.597541,12.592979,12.587967,12.581339,12.575432,12.572565,12.571098,12.573421,12.5791235,12.585867,12.597445,12.611888,12.625633,12.644677,12.666469,12.685557,12.707011,12.729494,12.747875,12.765871,12.786535,12.8051605,12.821091,12.840578,12.85912,12.874086,12.891584,12.908501,12.921791,12.937109,12.953838,12.968147,12.982759,12.99889,13.012548,13.02413,13.037351,13.0492,13.058483,13.069208,13.079222,13.086571,13.09417,13.101631,13.107208,13.111612,13.114897,13.115602,13.114333,13.11068,13.105385,13.100452,13.094873,13.090244,13.087677,13.085966,13.085513,13.085777,13.085793,13.084811,13.082827,13.080699,13.077024,13.072432,13.068347,13.062603,13.056082,13.050791,13.045408,13.040028,13.036135,13.033422,13.031374,13.030791,13.031208,13.032719,13.035194,13.037625,13.04045,13.043289,13.045515,13.048012,13.051128,13.054226,13.057354,13.060951,13.063885,13.065949,13.067475,13.067837,13.06748,13.06669,13.065447,13.064169,13.0626745,13.060069,13.056785,13.053244,13.048271,13.0432825,13.039318,13.034955,13.031275,13.028838,13.026391,13.023849,13.021488,13.018851,13.015329,13.011709,13.008276,13.003922,12.999784,12.996576,12.993021,12.989774,12.987318,12.984716,12.981895,12.97941,12.976946,12.97398,12.971346,12.969312,12.966812,12.96463,12.963207,12.961819,12.960764,12.960104,12.959328,12.958437,12.957628,12.956826,12.956224,12.956063,12.95615,12.956255,12.956084,12.955579,12.954405,12.95232,12.95006,12.947487,12.944753,12.942675,12.941036,12.939102,12.937206,12.93553,12.933277,12.930891,12.92893,12.9265995,12.924252,12.922454,12.920595,12.918606,12.916912,12.915315,12.913572,12.912173,12.911144,12.910313,12.909828,12.90954,12.909081,12.908314,12.90732,12.905836
11.812581,11.803896,11.77765,11.729581,11.677942,11.633328,11.6209545,11.647516,11.708642,11.795662,11.860201,11.893129,11.852591,11.7220955,11.56078,11.36499,11.205839,11.130192,11.092268,11.105145,11.138971,11.161042,11.170431,11.168135,11.164791,11.185488,11.245485,11.325335,11.44463,11.569093,11.651499,11.706309,11.727585,11.722036,11.702731,11.682575,11.675898,11.679751,11.697452,11.724556,11.748571,11.773945,11.791503,11.79729,11.796689,11.792228,11.791764,11.79789,11.828876,11.881813,11.939939,12.008762,12.05781,12.075608,12.060712,12.003361,11.935582,11.867903,11.81101,11.785961,11.78289,11.792341,11.803839,11.80809,11.804737,11.79167,11.775883,11.760057,11.745502,11.734438,11.720732,11.703521,11.688944,11.677694,11.675784,11.687353,11.704486,11.73176,11.760643,11.780522,11.797742,11.814957,11.832706,11.856918,11.892801,11.930281,11.965466,12.00024,12.02269,12.034075,12.043734,12.049502,12.052906,12.059657,12.066849,12.071144,12.073361,12.073795,12.072525,12.070248,12.06782,12.067236,12.068661,12.07248,12.079395,12.087119,12.098467,12.113068,12.126379,12.13949,12.154879,12.168581,12.17971,12.193018,12.206154,12.217254,12.230724,12.245695,12.259126,12.275387,12.296539,12.317841,12.339879,12.368564,12.397092,12.422369,12.451205,12.476837,12.495895,12.51455,12.529212,12.538112,12.544958,12.548821,12.549598,12.548998,12.54801,12.546978,12.545906,12.543639,12.539932,12.535888,12.530635,12.526407,12.525014,12.525173,12.529274,12.5364685,12.544589,12.557706,12.573521,12.588435,12.608786,12.631854,12.652031,12.67485,12.698816,12.718472,12.738373,12.759958,12.778482,12.795151,12.815186,12.833849,12.848785,12.866142,12.882587,12.895174,12.909388,12.924433,12.936949,12.94954,12.96309,12.974264,12.983626,12.994083,13.003098,13.009874,13.01746,13.0240965,13.028593,13.032879,13.036718,13.03928,13.0408,13.040947,13.039062,13.035688,13.029989,13.023288,13.017523,13.011286,13.006411,13.003863,13.002104,13.001426,13.001302,13.000798,12.999221,12.9965925,12.993614,12.989053,12.983717,12.979033,12.973588,12.968126,12.963933,12.9599285,12.956255,12.953875,12.952486,12.951794,12.952154,12.953112,12.9550495,12.957657,12.960011,12.96275,12.965446,12.967513,12.969854,12.972843,12.975864,12.978919,12.982433,12.985211,12.987032,12.988161,12.98803,12.987234,12.985975,12.984251,12.982582,12.980728,12.977789,12.974322,12.970749,12.965979,12.961372,12.95777,12.953878,12.950589,12.948334,12.94606,12.943633,12.941341,12.93881,12.935354,12.931676,12.928072,12.923351,12.918688,12.914938,12.910767,12.906947,12.904083,12.901167,12.898201,12.895758,12.893469,12.890932,12.888861,12.887381,12.885551,12.883932,12.882861,12.881793,12.880961,12.880438,12.879852,12.879206,12.87863,12.878061,12.877701,12.877697,12.877857,12.878046,12.8779545,12.877514,12.876469,12.8745575,12.872448,12.87002,12.867411,12.865405,12.863797,12.861923,12.860125,12.85857,12.85652,12.854395,12.852686,12.850652,12.848635,12.847137,12.845644,12.844112,12.842855,12.841688,12.84045,12.839483,12.838776,12.838262,12.838021,12.837896,12.837614,12.8370075,12.836151,12.834831
11.79329,11.786695,11.763863,11.718548,11.667526,11.620916,11.605036,11.629073,11.690205,11.772746,11.831209,11.863014,11.82878,11.709393,11.557163,11.370401,11.216982,11.143162,11.1052,11.116432,11.148681,11.169514,11.179413,11.179513,11.179341,11.202482,11.261822,11.338585,11.449358,11.561225,11.632668,11.678415,11.690989,11.679264,11.658338,11.637808,11.630244,11.631976,11.64509,11.66603,11.684502,11.7038555,11.718123,11.724363,11.726398,11.726336,11.729088,11.7365675,11.763356,11.806311,11.852072,11.90934,11.953758,11.973425,11.962597,11.918327,11.868376,11.816689,11.77155,11.749944,11.745266,11.7496605,11.755537,11.755899,11.749683,11.735964,11.72089,11.705848,11.692991,11.684356,11.674286,11.662769,11.653974,11.647713,11.649893,11.6628685,11.679577,11.705105,11.732247,11.751748,11.769804,11.788728,11.807679,11.83184,11.865345,11.898724,11.929247,11.959177,11.978645,11.988918,11.998292,12.0046215,12.008603,12.015081,12.021639,12.025613,12.027941,12.029709,12.03088,12.031464,12.03277,12.035577,12.039348,12.045048,12.052925,12.060962,12.0723095,12.086725,12.09994,12.113134,12.128628,12.142416,12.153646,12.16715,12.180625,12.192135,12.2063,12.222237,12.236577,12.25374,12.275522,12.296943,12.318855,12.3467865,12.373898,12.397495,12.423581,12.445442,12.460646,12.474344,12.483771,12.488712,12.491962,12.492586,12.49131,12.489655,12.488237,12.487587,12.487298,12.486469,12.484741,12.482605,12.479854,12.478392,12.479237,12.481747,12.48822,12.497248,12.507019,12.521801,12.53893,12.554913,12.576403,12.600204,12.620595,12.643482,12.667418,12.687078,12.707052,12.728643,12.747229,12.764376,12.784496,12.802698,12.817054,12.833557,12.848776,12.860027,12.872305,12.884703,12.894606,12.904362,12.914461,12.922464,12.929083,12.936224,12.942022,12.946114,12.950442,12.953729,12.955491,12.956657,12.957187,12.9570675,12.956059,12.9535475,12.949572,12.944584,12.93745,12.929936,12.923801,12.9174,12.912709,12.91049,12.908934,12.908234,12.907881,12.90707,12.905088,12.901854,12.897878,12.892477,12.886841,12.882229,12.8775835,12.873537,12.8707,12.868255,12.86647,12.865765,12.865809,12.866589,12.867931,12.869358,12.871517,12.873884,12.875748,12.877857,12.8797865,12.881166,12.882757,12.884955,12.887324,12.889739,12.892588,12.894811,12.896141,12.896747,12.896175,12.895065,12.893524,12.891571,12.889747,12.887764,12.884787,12.881433,12.878079,12.873792,12.869785,12.86668,12.863365,12.860525,12.858494,12.856435,12.854219,12.852125,12.849833,12.846642,12.843119,12.839533,12.83468,12.829716,12.825607,12.820997,12.816733,12.813528,12.81032,12.8072,12.804785,12.802655,12.800556,12.799086,12.798204,12.79714,12.796192,12.795551,12.794888,12.794342,12.793987,12.793578,12.793112,12.792675,12.792212,12.791878,12.791792,12.791803,12.791788,12.791507,12.7909355,12.789812,12.787911,12.78587,12.783535,12.781048,12.779146,12.777618,12.775896,12.774306,12.772955,12.771207,12.7694435,12.768059,12.766394,12.764788,12.763655,12.762592,12.761605,12.760876,12.7602215,12.759586,12.759134,12.75881,12.758677,12.75873,12.758806,12.758733,12.758337,12.757668,12.756577
11.773156,11.768169,11.748083,11.705467,11.655825,11.608961,11.5908375,11.612228,11.672129,11.752064,11.807234,11.835781,11.805095,11.694815,11.550597,11.372612,11.225466,11.154078,11.116789,11.12701,11.158022,11.177923,11.188225,11.19017,11.19248,11.217294,11.275429,11.348827,11.451791,11.55213,11.613234,11.651147,11.657205,11.641436,11.619944,11.599533,11.591186,11.590966,11.599871,11.615219,11.628742,11.6426525,11.653788,11.6601925,11.664278,11.668106,11.674185,11.683778,11.708647,11.745122,11.782894,11.828962,11.864618,11.881239,11.876137,11.844645,11.8064785,11.765919,11.729132,11.71027,11.704891,11.706548,11.709606,11.708463,11.701809,11.689031,11.675306,11.661513,11.650156,11.643197,11.63554,11.627933,11.623284,11.620716,11.626148,11.640636,11.657583,11.682624,11.709324,11.72916,11.748487,11.769203,11.789339,11.813717,11.845833,11.876589,11.9040165,11.930826,11.948359,11.9577675,11.966595,11.972668,11.976364,11.981786,11.987144,11.990549,11.992817,11.99568,11.998936,12.001919,12.006306,12.01186,12.0175085,12.024704,12.033333,12.04159,12.052797,12.066793,12.079634,12.092562,12.1077585,12.121326,12.132463,12.145982,12.159622,12.171359,12.185905,12.202345,12.217106,12.234568,12.256216,12.277022,12.298067,12.324343,12.349235,12.370537,12.393265,12.4110985,12.4225445,12.43212,12.437841,12.440291,12.441179,12.440029,12.438087,12.436493,12.43579,12.4363985,12.437513,12.438815,12.439699,12.4399605,12.440266,12.442045,12.445412,12.450491,12.459446,12.470293,12.481679,12.497995,12.516105,12.532659,12.554289,12.577511,12.59698,12.618597,12.641147,12.659765,12.678433,12.699526,12.718326,12.735144,12.754477,12.771488,12.784587,12.799289,12.812319,12.821571,12.831364,12.840673,12.847666,12.854372,12.860914,12.8657875,12.869778,12.8738785,12.876932,12.878885,12.880724,12.881596,12.881479,12.880575,12.879004,12.877248,12.87475,12.870756,12.865719,12.860001,12.852331,12.844675,12.838629,12.832452,12.828165,12.82635,12.825052,12.824414,12.823959,12.823048,12.820726,12.816992,12.812468,12.806877,12.80168,12.797831,12.794132,12.791273,12.78957,12.7883835,12.788103,12.788716,12.7898655,12.791792,12.793871,12.795572,12.797685,12.799515,12.800632,12.801771,12.80257,12.802976,12.803483,12.804484,12.805819,12.8071995,12.808954,12.810333,12.811037,12.811111,12.810255,12.80904,12.807461,12.805569,12.8038435,12.801964,12.799215,12.796188,12.7932,12.789472,12.786037,12.783361,12.780489,12.777977,12.776136,12.774271,12.772324,12.770534,12.768576,12.76581,12.762657,12.759331,12.75469,12.749809,12.745692,12.741011,12.736612,12.733273,12.729925,12.726721,12.724327,12.722303,12.720505,12.719459,12.719008,12.718536,12.7181425,12.717876,12.717581,12.717308,12.717112,12.716813,12.7164,12.715948,12.715406,12.714849,12.714445,12.714126,12.713686,12.713018,12.712184,12.710838,12.7088375,12.7068,12.704533,12.702177,12.700418,12.699028,12.697527,12.696198,12.695086,12.693663,12.692254,12.691168,12.689844,12.688609,12.687807,12.687121,12.686623,12.686377,12.6861925,12.686111,12.686138,12.686174,12.686401,12.686737,12.687008,12.687138,12.686962,12.686501,12.685663
11.754807,11.750797,11.732838,11.692587,11.644339,11.598179,11.579262,11.598698,11.655338,11.73247,11.786555,11.81419,11.785137,11.680105,11.542853,11.372766,11.231609,11.162804,11.126609,11.136333,11.166412,11.185601,11.196146,11.199375,11.203434,11.22916,11.285793,11.355999,11.452115,11.542999,11.595981,11.626444,11.627474,11.610114,11.588329,11.568098,11.55924,11.557402,11.562798,11.573484,11.582878,11.592217,11.600651,11.607076,11.612711,11.619812,11.629008,11.640972,11.665422,11.697859,11.730048,11.768522,11.798157,11.812382,11.809237,11.784467,11.753693,11.720409,11.6893015,11.672486,11.66697,11.667404,11.6694145,11.668173,11.6623955,11.6512785,11.639072,11.6266,11.616394,11.610452,11.604269,11.599183,11.597362,11.597419,11.605371,11.6213455,11.638916,11.664293,11.69141,11.712016,11.732793,11.755207,11.7764,11.801058,11.832325,11.861355,11.886673,11.911395,11.927595,11.936284,11.944447,11.949871,11.952877,11.957005,11.961065,11.963876,11.966036,11.969812,11.974804,11.979713,11.986559,11.994278,12.001378,12.0097,12.018858,12.027237,12.03821,12.05168,12.064014,12.076492,12.091183,12.104374,12.115299,12.128693,12.142357,12.154186,12.168898,12.185505,12.20034,12.217705,12.238799,12.258667,12.278545,12.3028965,12.32547,12.344568,12.363751,12.377775,12.386445,12.393209,12.396511,12.397313,12.39687,12.395033,12.393223,12.392246,12.3927355,12.394864,12.397494,12.401039,12.404579,12.407215,12.410522,12.4154415,12.421196,12.428675,12.439887,12.452354,12.4651985,12.483021,12.501892,12.518423,12.538555,12.559502,12.577344,12.597443,12.618712,12.636505,12.654829,12.675419,12.693399,12.709266,12.727118,12.742363,12.753813,12.766281,12.77682,12.783945,12.79116,12.797384,12.801554,12.805386,12.808666,12.810757,12.812464,12.8140335,12.814933,12.81529,12.815342,12.814592,12.813297,12.811177,12.808447,12.805843,12.802631,12.797987,12.792583,12.786742,12.779104,12.771702,12.766012,12.760302,12.756542,12.755155,12.754149,12.753662,12.753208,12.752266,12.74941,12.745138,12.740757,12.735658,12.73117,12.727934,12.725018,12.72308,12.7221985,12.7218895,12.722624,12.724115,12.725967,12.728617,12.731119,12.732902,12.734756,12.735901,12.73621,12.7362995,12.735925,12.735361,12.734783,12.734585,12.7348795,12.735213,12.735855,12.736404,12.736546,12.736214,12.735252,12.734099,12.732655,12.730993,12.729507,12.727847,12.72543,12.722782,12.72015,12.716902,12.713899,12.7114935,12.708864,12.706512,12.704771,12.703019,12.701309,12.699846,12.698235,12.695953,12.693277,12.690342,12.686128,12.681591,12.677717,12.673238,12.66895,12.665659,12.662307,12.659098,12.656741,12.654781,12.653151,12.652349,12.652153,12.652045,12.652021,12.652031,12.652013,12.651964,12.651909,12.651685,12.651259,12.6507225,12.650032,12.649166,12.648361,12.647671,12.6467705,12.645682,12.6445465,12.642949,12.64081,12.638739,12.6365185,12.634281,12.632661,12.63142,12.630131,12.629036,12.628145,12.627014,12.625909,12.625074,12.624043,12.623126,12.622608,12.622236,12.622145,12.622307,12.622523,12.622917,12.623358,12.62371,12.624245,12.624813,12.625244,12.625558,12.625582,12.625305,12.624702
11.731203,11.727967,11.712131,11.674623,11.628407,11.584114,11.5654125,11.583147,11.636288,11.709709,11.761559,11.787258,11.758845,11.659178,11.5302925,11.369978,11.236746,11.171887,11.137829,11.147596,11.176842,11.195349,11.205885,11.209908,11.215212,11.240955,11.294886,11.360712,11.448591,11.528896,11.573219,11.596193,11.592598,11.5741625,11.552637,11.533081,11.523888,11.5203495,11.52195,11.527555,11.532454,11.536774,11.54212,11.548366,11.5554905,11.56614,11.579007,11.594021,11.619032,11.648312,11.675508,11.706522,11.729622,11.740697,11.737966,11.71796,11.693094,11.665965,11.639824,11.624966,11.619755,11.619936,11.62211,11.621908,11.618345,11.609961,11.599859,11.589163,11.580229,11.575161,11.57025,11.567467,11.5683975,11.571148,11.581943,11.599931,11.618649,11.645075,11.673246,11.695007,11.717573,11.741882,11.764193,11.78917,11.819727,11.847234,11.870616,11.893448,11.908424,11.916386,11.923794,11.928429,11.930655,11.933456,11.93628,11.938589,11.940712,11.945392,11.951994,11.958644,11.967672,11.977245,11.985514,11.994694,12.0041485,12.012449,12.022917,12.03551,12.046995,12.05864,12.072371,12.084795,12.095228,12.108192,12.121599,12.133287,12.147859,12.164305,12.17893,12.195862,12.215965,12.234465,12.252741,12.274674,12.294272,12.310087,12.325138,12.335439,12.34161,12.345789,12.347034,12.346665,12.345452,12.34366,12.342651,12.342856,12.345144,12.349347,12.354064,12.36001,12.366184,12.371384,12.377958,12.386286,12.394607,12.404638,12.418284,12.432339,12.446176,12.464041,12.482111,12.4979,12.516902,12.536425,12.55294,12.571616,12.591371,12.607882,12.625074,12.644134,12.660341,12.674334,12.689583,12.702002,12.710907,12.72025,12.727589,12.73211,12.736172,12.738732,12.739641,12.740194,12.739876,12.738991,12.738279,12.73727,12.736086,12.734959,12.733384,12.73122,12.72894,12.725823,12.722174,12.718924,12.715204,12.710169,12.704634,12.698843,12.691486,12.684645,12.679608,12.674698,12.671755,12.670977,12.670495,12.670269,12.669781,12.668652,12.665656,12.661575,12.65774,12.653532,12.650072,12.64769,12.645693,12.644667,12.644526,12.644917,12.646373,12.648433,12.650718,12.653788,12.6564665,12.658153,12.659526,12.659798,12.659193,12.658136,12.656564,12.655077,12.653495,12.652168,12.651424,12.650676,12.650096,12.649696,12.649214,12.64842,12.647364,12.646345,12.645113,12.643795,12.642654,12.641325,12.639367,12.637198,12.63499,12.6322,12.629527,12.627298,12.624749,12.622405,12.620686,12.6189995,12.617532,12.61643,12.615228,12.613514,12.611412,12.608992,12.605394,12.601418,12.597969,12.593893,12.589884,12.58674,12.5834675,12.5802965,12.577971,12.576036,12.574481,12.573803,12.57374,12.573846,12.574051,12.57424,12.574413,12.574519,12.574543,12.574329,12.573816,12.573119,12.5722065,12.570953,12.569705,12.568606,12.567221,12.5657215,12.564323,12.562527,12.560341,12.558336,12.556259,12.55426,12.552893,12.551905,12.550953,12.550194,12.549589,12.548826,12.548088,12.5475445,12.546835,12.546251,12.5460205,12.545963,12.546275,12.546841,12.547449,12.548304,12.549135,12.549784,12.550575,12.551306,12.551832,12.55225,12.552411,12.552292,12.551914
11.703309,11.701384,11.687369,11.652561,11.609341,11.568342,11.551306,11.568123,11.618248,11.687183,11.735423,11.758848,11.729717,11.634221,11.513956,11.363934,11.239566,11.179672,11.148735,11.159291,11.188002,11.205992,11.216111,11.219966,11.225361,11.249619,11.299553,11.360202,11.439662,11.510162,11.5470495,11.56421,11.557665,11.539175,11.5186615,11.500407,11.491341,11.486523,11.484993,11.486275,11.487303,11.487207,11.489645,11.495443,11.50354,11.517145,11.533422,11.551567,11.578129,11.605922,11.629833,11.655125,11.672457,11.680098,11.675919,11.65745,11.63553,11.611906,11.588835,11.57544,11.570957,11.572029,11.57571,11.57761,11.577277,11.572243,11.564463,11.555718,11.54797,11.543473,11.539376,11.538221,11.541315,11.546368,11.55987,11.580127,11.600443,11.628574,11.658331,11.681409,11.705692,11.731587,11.754712,11.779831,11.809778,11.836142,11.858054,11.879425,11.893409,11.90073,11.907419,11.911377,11.913054,11.915014,11.9171715,11.919342,11.921622,11.927,11.934624,11.942301,11.952547,11.96303,11.971729,11.981121,11.990406,11.998329,12.008026,12.019494,12.0299,12.04044,12.052884,12.064245,12.07394,12.086159,12.098982,12.110248,12.124312,12.140188,12.154268,12.170423,12.189239,12.206198,12.222812,12.242141,12.258575,12.271048,12.282633,12.290297,12.294775,12.297306,12.29755,12.296965,12.296066,12.295334,12.29575,12.297539,12.30191,12.308129,12.31448,12.322504,12.331104,12.338661,12.348166,12.3595085,12.370016,12.381857,12.396845,12.41148,12.425516,12.442778,12.459732,12.474615,12.492724,12.51115,12.526374,12.543455,12.561214,12.575817,12.590942,12.607325,12.620773,12.631992,12.643721,12.652661,12.658625,12.664562,12.668631,12.670582,12.671654,12.670874,12.668892,12.6666,12.663277,12.660008,12.657392,12.654474,12.651884,12.649839,12.647316,12.644405,12.641655,12.6381035,12.634079,12.630587,12.626749,12.621714,12.616364,12.610931,12.604191,12.598156,12.593914,12.589924,12.587829,12.587618,12.587717,12.587627,12.586872,12.585566,12.582783,12.579359,12.576315,12.573189,12.570829,12.569321,12.568119,12.567719,12.567999,12.568686,12.570335,12.572493,12.574831,12.577915,12.580503,12.582012,12.582899,12.582459,12.581203,12.579342,12.577002,12.574989,12.572853,12.570824,12.569326,12.567739,12.566099,12.564788,12.563691,12.562384,12.561144,12.560205,12.559139,12.558134,12.557346,12.5564,12.554977,12.55334,12.551586,12.549217,12.5467825,12.544657,12.542084,12.539661,12.537931,12.536291,12.535028,12.534231,12.533365,12.532108,12.530479,12.528514,12.525496,12.522076,12.519075,12.515432,12.511742,12.508789,12.50564,12.502532,12.500232,12.498289,12.496718,12.496038,12.495983,12.496121,12.496385,12.496641,12.496891,12.497049,12.497081,12.496807,12.496131,12.49522,12.494047,12.492402,12.490742,12.489286,12.487513,12.485738,12.484209,12.482376,12.480331,12.478558,12.476791,12.475204,12.474218,12.473601,12.473089,12.472729,12.472445,12.472063,12.471682,12.471404,12.470976,12.470661,12.470644,12.470812,12.471394,12.472221,12.473096,12.474244,12.475309,12.476113,12.477007,12.477743,12.47823,12.4786,12.478746,12.478682,12.4784355
11.675953,11.675978,11.663414,11.630932,11.591208,11.553949,11.539196,11.555746,11.603628,11.668158,11.712448,11.734189,11.703886,11.611176,11.498294,11.357161,11.240692,11.185487,11.157705,11.169338,11.197762,11.215389,11.224873,11.227934,11.232599,11.254543,11.300226,11.356009,11.428314,11.491176,11.522701,11.536121,11.528244,11.510427,11.491263,11.4745655,11.466024,11.460547,11.457054,11.455433,11.453774,11.45052,11.450705,11.455921,11.4643955,11.47987,11.498568,11.51912,11.547276,11.574614,11.596664,11.6182165,11.6313305,11.636076,11.629914,11.611223,11.590296,11.568209,11.546715,11.534294,11.530586,11.53289,11.538371,11.542399,11.545063,11.542944,11.537107,11.530024,11.523237,11.519119,11.515512,11.515406,11.520008,11.526787,11.542442,11.564663,11.58651,11.616342,11.647598,11.671758,11.697304,11.724222,11.747759,11.772795,11.80217,11.827664,11.848503,11.868738,11.881884,11.888651,11.894732,11.898239,11.899699,11.901377,11.903439,11.905765,11.908324,11.914131,11.922171,11.930201,11.940786,11.951372,11.959927,11.969047,11.977879,11.985296,11.9942255,12.004675,12.014125,12.023672,12.034958,12.04535,12.054323,12.065767,12.077927,12.088694,12.102135,12.117306,12.130732,12.146055,12.163687,12.179367,12.1946945,12.211767,12.225603,12.235857,12.245405,12.251661,12.255187,12.257015,12.257178,12.257028,12.257132,12.257912,12.259802,12.263044,12.269162,12.276763,12.28377,12.293317,12.303991,12.313339,12.324975,12.338431,12.350378,12.362996,12.377974,12.392147,12.405926,12.423134,12.4399605,12.454356,12.471426,12.488293,12.501972,12.517174,12.532652,12.54511,12.557903,12.57135,12.581904,12.5903,12.598655,12.604515,12.608034,12.611231,12.612747,12.612733,12.611656,12.608576,12.604644,12.600488,12.595259,12.590538,12.586783,12.582809,12.579553,12.577147,12.574299,12.571204,12.568396,12.564836,12.560835,12.557385,12.553686,12.548862,12.543853,12.538963,12.53297,12.527721,12.524149,12.520897,12.519405,12.519548,12.52002,12.519819,12.518633,12.517298,12.514736,12.511799,12.509434,12.507181,12.505665,12.504782,12.50407,12.503953,12.504353,12.505032,12.506552,12.508551,12.510759,12.513678,12.516104,12.517498,12.518109,12.517328,12.515829,12.513659,12.511072,12.508942,12.506682,12.504383,12.502476,12.500393,12.498024,12.496002,12.494392,12.492584,12.491066,12.490077,12.489031,12.488196,12.487658,12.487036,12.486092,12.48493,12.483595,12.481609,12.479397,12.477386,12.474821,12.472368,12.470664,12.469089,12.467976,12.467367,12.466688,12.465673,12.4643,12.462596,12.459919,12.456839,12.454131,12.450759,12.447276,12.44446,12.441408,12.438355,12.436079,12.434137,12.432543,12.431831,12.431761,12.431866,12.432117,12.432402,12.432671,12.432829,12.432846,12.432501,12.43167,12.4305725,12.429185,12.427235,12.425274,12.423573,12.421558,12.419661,12.418121,12.416385,12.4145975,12.413139,12.411764,12.410645,12.410065,12.409832,12.409741,12.409734,12.409735,12.409668,12.409557,12.409474,12.40925,12.409115,12.409225,12.409514,12.410215,12.411146,12.412138,12.413401,12.414524,12.415352,12.416208,12.416834,12.417191,12.417398,12.417417,12.417309,12.417088
11.642063,11.64361,11.632578,11.603567,11.569034,11.536396,11.524272,11.540594,11.585957,11.645292,11.684811,11.704344,11.673466,11.585008,11.480774,11.349819,11.242195,11.19216,11.167896,11.180708,11.20875,11.225912,11.234523,11.2364235,11.239922,11.258758,11.299133,11.349022,11.413124,11.4677305,11.493839,11.503824,11.495247,11.478752,11.461601,11.447187,11.439788,11.434194,11.429418,11.425484,11.421505,11.415398,11.413299,11.417591,11.425907,11.442439,11.462748,11.484922,11.513975,11.5405035,11.560557,11.578428,11.58761,11.5898,11.58198,11.563345,11.543608,11.523267,11.503557,11.492266,11.489483,11.493074,11.500273,11.506298,11.51178,11.512467,11.508581,11.503271,11.497679,11.4941635,11.491272,11.492367,11.498508,11.507012,11.52474,11.548786,11.572025,11.603388,11.635976,11.661089,11.687813,11.715744,11.739748,11.76479,11.793709,11.818383,11.838081,11.856958,11.868938,11.874855,11.879973,11.882784,11.883951,11.885345,11.887312,11.889725,11.892427,11.89834,11.906372,11.914335,11.924786,11.935072,11.943184,11.951818,11.960104,11.966993,11.975199,11.984769,11.993419,12.002103,12.012381,12.021909,12.030201,12.040875,12.052318,12.062493,12.075173,12.089458,12.1020775,12.1163845,12.132761,12.147202,12.161189,12.176083,12.187792,12.1967945,12.205046,12.210419,12.213548,12.21535,12.2161045,12.216883,12.218419,12.221251,12.225025,12.229665,12.23732,12.246405,12.254828,12.266134,12.278313,12.288555,12.301236,12.315481,12.3277855,12.340815,12.355967,12.369953,12.383354,12.399832,12.415583,12.428774,12.444033,12.458616,12.470154,12.482782,12.495307,12.5051155,12.514975,12.524874,12.532119,12.537422,12.542282,12.545147,12.546383,12.547117,12.546463,12.5448475,12.542013,12.537102,12.531661,12.52607,12.519381,12.513544,12.508904,12.504112,12.500343,12.497655,12.4945755,12.491364,12.488514,12.484959,12.481055,12.477779,12.474358,12.469959,12.4655075,12.461319,12.45626,12.451985,12.44924,12.446943,12.446295,12.446928,12.447376,12.446943,12.445622,12.444163,12.441866,12.439563,12.437877,12.436438,12.435632,12.435242,12.434818,12.434761,12.435114,12.435635,12.436849,12.438524,12.440464,12.443022,12.44512,12.44631,12.446618,12.44557,12.443945,12.441624,12.438942,12.436794,12.434534,12.432112,12.429949,12.427574,12.424715,12.422163,12.420148,12.417883,12.416035,12.414904,12.413778,12.413031,12.4127035,12.412401,12.411938,12.411255,12.410346,12.408758,12.406789,12.404916,12.402391,12.399932,12.398262,12.396732,12.395706,12.395206,12.394657,12.393812,12.392626,12.391137,12.388754,12.385984,12.383545,12.380426,12.377142,12.374466,12.371527,12.368574,12.366368,12.364466,12.362865,12.362117,12.362019,12.362046,12.362208,12.362446,12.362677,12.362812,12.362808,12.36243,12.361543,12.360368,12.358881,12.356777,12.3546505,12.3527975,12.3506565,12.348736,12.3472595,12.345705,12.34425,12.343151,12.342202,12.341578,12.341425,12.341581,12.341902,12.342229,12.342495,12.342735,12.342899,12.343011,12.343014,12.3430805,12.343323,12.343729,12.344533,12.345535,12.346584,12.3478775,12.348978,12.349743,12.350447,12.350824,12.350927,12.350843,12.350588,12.350305,12.349974
11.6003,11.603218,11.594111,11.569603,11.541456,11.514389,11.505416,11.521494,11.563742,11.616919,11.650803,11.667034,11.637701,11.556107,11.459717,11.339806,11.242418,11.198128,11.177855,11.191981,11.219486,11.2359705,11.243336,11.24357,11.245331,11.260078,11.293886,11.3366585,11.391434,11.43733,11.45827,11.465523,11.457277,11.442992,11.4286785,11.417425,11.41194,11.406956,11.401873,11.396559,11.39092,11.382565,11.378288,11.381262,11.388702,11.405119,11.425833,11.44847,11.477364,11.502566,11.520512,11.534945,11.540739,11.540892,11.53191,11.513723,11.495413,11.477053,11.459401,11.449482,11.447821,11.45273,11.461451,11.469182,11.4770775,11.480259,11.478228,11.474777,11.4707,11.468165,11.466328,11.468893,11.476682,11.486941,11.506634,11.532297,11.55675,11.589378,11.622992,11.64879,11.676425,11.7051735,11.729557,11.754574,11.782996,11.806734,11.825104,11.842169,11.852387,11.856937,11.860527,11.8622675,11.863044,11.864187,11.866129,11.868603,11.871332,11.876963,11.88443,11.8918,11.901493,11.910953,11.918268,11.926193,11.933886,11.940285,11.947955,11.95698,11.965166,11.97332,11.982958,11.991898,11.999685,12.009693,12.020398,12.029915,12.041679,12.054845,12.066437,12.079569,12.094554,12.107658,12.120063,12.133291,12.143913,12.152399,12.160208,12.165543,12.168997,12.171609,12.173783,12.176092,12.179501,12.184664,12.190416,12.196493,12.205338,12.215263,12.22455,12.236839,12.249953,12.260955,12.274278,12.288761,12.300922,12.313747,12.328373,12.341537,12.353886,12.36869,12.382402,12.393616,12.406101,12.417475,12.426165,12.435443,12.444211,12.45071,12.456942,12.462632,12.466183,12.468246,12.469664,12.469836,12.469196,12.468042,12.46589,12.463261,12.459405,12.453556,12.447415,12.441168,12.433861,12.427572,12.422535,12.417406,12.413471,12.410728,12.407604,12.404418,12.40166,12.39831,12.394716,12.391778,12.3888035,12.38505,12.381352,12.377993,12.374023,12.370857,12.369035,12.36758,12.367443,12.368228,12.368472,12.367826,12.3665085,12.3650055,12.362938,12.361128,12.359977,12.359118,12.358724,12.358534,12.35807,12.3577385,12.357786,12.357977,12.358736,12.359966,12.36155,12.363634,12.365329,12.366314,12.366461,12.365431,12.363971,12.361864,12.359412,12.357431,12.355389,12.3530655,12.350847,12.348448,12.345404,12.342526,12.340195,12.33746,12.335125,12.333647,12.3322315,12.3313675,12.331116,12.331076,12.33106,12.330849,12.330387,12.329269,12.327654,12.326028,12.323718,12.321404,12.319835,12.318394,12.317404,12.316902,12.31637,12.31554,12.31439,12.312994,12.310767,12.308176,12.305892,12.302936,12.299801,12.297238,12.294439,12.291652,12.289593,12.287817,12.286312,12.285586,12.285487,12.285442,12.285503,12.285676,12.285835,12.285917,12.2858925,12.285528,12.284691,12.283567,12.282118,12.280024,12.277875,12.275978,12.273825,12.271978,12.270634,12.2693405,12.268301,12.267635,12.267166,12.267073,12.267356,12.2679,12.268611,12.2692375,12.269743,12.27026,12.270675,12.270976,12.271214,12.271502,12.271889,12.272413,12.273291,12.274309,12.275354,12.276583,12.277545,12.278154,12.278578,12.278571,12.278303,12.277782,12.277086,12.276484,12.275902
11.559679,11.563965,11.557085,11.5369625,11.514414,11.492321,11.486063,11.501663,11.540547,11.58787,11.616585,11.628986,11.602852,11.5292015,11.438171,11.327902,11.240017,11.200747,11.183869,11.198843,11.225527,11.241186,11.247335,11.246063,11.2462015,11.257168,11.284929,11.321142,11.367655,11.406307,11.423386,11.429079,11.421973,11.410188,11.398783,11.390701,11.387314,11.3833885,11.378853,11.3732395,11.366873,11.357294,11.351443,11.353079,11.35924,11.374546,11.394495,11.416437,11.444151,11.467689,11.4837265,11.495541,11.499089,11.498093,11.488772,11.471558,11.454851,11.43852,11.422981,11.414507,11.413951,11.419917,11.4296055,11.438353,11.447709,11.452515,11.451832,11.449907,11.447338,11.445967,11.445353,11.449427,11.4587,11.470442,11.49161,11.518322,11.543506,11.576782,11.610785,11.63678,11.664765,11.693825,11.718286,11.743084,11.77086,11.793556,11.810551,11.825629,11.83382,11.836767,11.838554,11.838999,11.839261,11.840086,11.841927,11.844347,11.846962,11.852068,11.858711,11.865274,11.873995,11.882536,11.889078,11.896439,11.903822,11.910055,11.917684,11.926807,11.935129,11.943355,11.953033,11.961941,11.969628,11.979357,11.989599,11.998627,12.009642,12.021801,12.032417,12.044386,12.057969,12.06981,12.080908,12.093298,12.103767,12.112152,12.120121,12.126015,12.130205,12.13404,12.137848,12.141645,12.146618,12.153412,12.160396,12.167426,12.176949,12.187119,12.196472,12.208836,12.222261,12.233809,12.247364,12.261666,12.273363,12.285353,12.29863,12.310274,12.321018,12.333616,12.344936,12.35395,12.363486,12.371649,12.377643,12.383774,12.389065,12.39254,12.39551,12.397539,12.3980465,12.397603,12.3965,12.394889,12.393175,12.391048,12.388287,12.385355,12.381302,12.375432,12.369373,12.363221,12.356077,12.349937,12.344963,12.339929,12.336111,12.333475,12.330462,12.327455,12.324935,12.321984,12.318891,12.316411,12.313978,12.310965,12.308057,12.305479,12.302534,12.300296,12.299088,12.298086,12.297997,12.298561,12.298632,12.297853,12.296494,12.294987,12.29299,12.291346,12.290434,12.289787,12.289421,12.289099,12.288316,12.287508,12.287138,12.286974,12.287346,12.288223,12.289532,12.291238,12.292618,12.293468,12.2936325,12.292843,12.291718,12.290029,12.287942,12.2861595,12.284359,12.282194,12.280043,12.2778,12.274857,12.271924,12.269434,12.266352,12.263538,12.26164,12.259832,12.258705,12.258383,12.258472,12.258752,12.258879,12.258771,12.258091,12.256886,12.255589,12.253645,12.251627,12.250221,12.248907,12.247919,12.247318,12.2466955,12.245735,12.244476,12.243031,12.2407875,12.238207,12.235934,12.233019,12.229956,12.227473,12.224819,12.222234,12.220361,12.218778,12.217463,12.216856,12.216816,12.216784,12.216814,12.216967,12.217083,12.217132,12.217106,12.216808,12.2161045,12.2151165,12.213801,12.211834,12.209764,12.207899,12.205805,12.204069,12.202865,12.201821,12.201163,12.200882,12.200824,12.201156,12.201771,12.202594,12.20356,12.204367,12.205011,12.205691,12.206258,12.20669,12.2071,12.207562,12.208069,12.208688,12.209604,12.210602,12.21161,12.21273,12.213528,12.21397,12.214115,12.213746,12.213137,12.212197,12.211066,12.21014,12.209284
11.522454,11.528646,11.524319,11.508139,11.490114,11.472014,11.467722,11.482533,11.517984,11.559874,11.583909,11.592381,11.569554,11.503604,11.416906,11.315042,11.23545,11.200329,11.185998,11.201138,11.226662,11.241446,11.246695,11.244461,11.243457,11.251482,11.274315,11.305063,11.344782,11.377696,11.391972,11.396822,11.391129,11.381735,11.372957,11.367659,11.366156,11.363338,11.359652,11.354254,11.347679,11.337513,11.3305645,11.331009,11.335844,11.349686,11.368395,11.389164,11.415319,11.437157,11.451511,11.461318,11.463366,11.4617195,11.4525175,11.436535,11.421484,11.4071245,11.393663,11.386647,11.387143,11.393989,11.404308,11.413646,11.423843,11.42967,11.429948,11.429224,11.427998,11.427767,11.428384,11.433886,11.444447,11.457435,11.479705,11.507042,11.532579,11.566031,11.599955,11.625782,11.653681,11.682609,11.706818,11.731152,11.758087,11.779661,11.79529,11.808428,11.814648,11.816033,11.816017,11.815077,11.814684,11.815014,11.81654,11.818732,11.821102,11.825638,11.831505,11.837329,11.845228,11.853074,11.859079,11.866169,11.873611,11.880045,11.888096,11.89786,11.906788,11.915556,11.925814,11.935133,11.943051,11.952868,11.962971,11.971752,11.982365,11.993868,12.003713,12.014389,12.026333,12.036944,12.047477,12.059466,12.069761,12.078152,12.08639,12.092881,12.097763,12.102804,12.10798,12.112739,12.11857,12.125967,12.133215,12.140362,12.150402,12.161243,12.170945,12.183599,12.197084,12.2085,12.221586,12.234997,12.245699,12.256449,12.268063,12.278002,12.286997,12.297392,12.306466,12.313416,12.32032,12.325788,12.329621,12.333201,12.335716,12.336824,12.337239,12.336466,12.33471,12.332468,12.329597,12.326812,12.324478,12.321829,12.318844,12.31592,12.311955,12.306316,12.300533,12.294661,12.287846,12.281968,12.277157,12.272324,12.268669,12.2661085,12.2632885,12.260613,12.258467,12.256031,12.25358,12.251703,12.24992,12.247761,12.245714,12.243937,12.24206,12.240547,12.239413,12.238646,12.238646,12.239063,12.239054,12.238106,12.236523,12.2348385,12.232746,12.231112,12.230263,12.229621,12.229094,12.228481,12.227268,12.2259655,12.225218,12.2247715,12.2248955,12.22558,12.226738,12.228201,12.229371,12.230148,12.230387,12.229842,12.229003,12.227655,12.225812,12.2240925,12.222354,12.220205,12.218077,12.21598,12.213232,12.210399,12.207868,12.204593,12.201434,12.199179,12.197021,12.195621,12.195183,12.195311,12.195757,12.196106,12.196252,12.19594,12.195136,12.194194,12.192667,12.190994,12.189787,12.188616,12.187613,12.18688,12.186117,12.184975,12.18355,12.181978,12.179621,12.17697,12.1746435,12.171711,12.168686,12.166271,12.163755,12.161369,12.159685,12.158304,12.157212,12.156784,12.156871,12.156942,12.15703,12.157204,12.157356,12.157438,12.15744,12.157255,12.156715,12.155877,12.154709,12.152889,12.150906,12.149082,12.147043,12.145402,12.144326,12.143499,12.1431465,12.143163,12.143421,12.144064,12.144894,12.145886,12.146981,12.147854,12.148546,12.149279,12.149908,12.150404,12.150914,12.151488,12.152071,12.152743,12.153676,12.154648,12.155603,12.15663,12.1573105,12.157635,12.157582,12.15695,12.15609,12.154842,12.153385,12.15221,12.151138
