9.857393,9.847498,9.836281,9.817091,9.806667,9.801564,9.805866,9.839832,9.86899,9.8988285,9.930557,9.961683,9.990449,10.016092,10.038431,10.05851,10.076555,10.09198,10.104307,10.112027,10.1170845,10.118572,10.106403,10.080042,10.053206,10.028001,10.003824,9.981745,9.9633465,9.94768,9.933838,9.919937,9.906016,9.892659,9.880594,9.87046,9.862513,9.856211,9.851031,9.846952,9.84396,9.842047,9.840389,9.837923,9.835109,9.831355,9.826612,9.820761,9.814249,9.807607,9.801172,9.7953205,9.7895775,9.783411,9.776535,9.769119,9.761404,9.753801,9.747044,9.741022,9.73563,9.730609,9.726227,9.722609,9.719608,9.717049,9.714568,9.71166,9.708225,9.704245,9.700002,9.696018,9.692707,9.690144,9.688431,9.687144,9.686259,9.685661,9.685221,9.684832,9.684292,9.68364,9.682474,9.68038,9.677383,9.67392,9.6705475,9.667677,9.665514,9.663666,9.662123,9.660852,9.659859,9.659042,9.658158,9.657378,9.656788,9.656766,9.657405,9.658569,9.65988,9.660901,9.66148,9.661833,9.662236,9.662956,9.663968,9.665024,9.665865,9.666277,9.666305,9.666237,9.666065,9.665999,9.666117,9.666283,9.666429,9.666603,9.6667595,9.666822,9.666721,9.666558,9.666555,9.666939,9.667935,9.669592,9.671831,9.674093,9.675737,9.676424,9.6762085,9.675315,9.673976,9.6722765,9.670403,9.668577,9.666894,9.6652975,9.66371,9.661922,9.6597595,9.65741,9.6552925,9.653798,9.653067,9.652974,9.653259,9.653618,9.653858,9.654034,9.654239,9.654572,9.655064,9.65555,9.655733,9.655466,9.65457,9.652954,9.650718,9.648113,9.645481,9.643068,9.64134,9.640797,9.641319,9.642345,9.643324,9.643946,9.6441,9.643858,9.643187,9.642144,9.640734,9.638931,9.636785,9.6342125,9.630568,9.62571,9.619814,9.613392,9.607151,9.601761,9.5975485,9.594114,9.591524,9.589656,9.588047,9.586313,9.584421,9.582336,9.579908,9.577038,9.573505,9.569166,9.564093,9.558744,9.5538845,9.549326,9.545176,9.541531,9.538391,9.535969,9.534597,9.534494,9.535948,9.538897,9.542945,9.547567,9.551933,9.555388,9.557953,9.559781,9.56118,9.561945,9.56185,9.561016,9.559792,9.558434,9.557325,9.556284,9.555098,9.553612,9.551931,9.550474,9.5495405,9.548964,9.548438,9.547525,9.546114,9.5443,9.54233,9.5404,9.5385275,9.536211,9.533194,9.529669,9.526147,9.523422,9.521954,9.521395,9.521059,9.520393,9.518963,9.516886,9.514566,9.512442,9.5107155,9.50909,9.5072155,9.505169,9.50294,9.500874,9.49938,9.4984045,9.49752,9.496525,9.4941845,9.490608,9.486335,9.482506,9.480087,9.478807,9.477611,9.476051,9.473648,9.471209,9.469715,9.469418,9.469913,9.470256,9.470167,9.470035,9.470085,9.4705925,9.471092,9.470493,9.46876,9.465687,9.461666,9.456816,9.451274,9.445412,9.439789,9.434917,9.431222,9.428379,9.426126,9.423953,9.421638,9.419498,9.418015,9.4171095,9.416409,9.415476,9.414177,9.412826,9.41197,9.411904,9.41207,9.412155,9.412095,9.411877,9.411649,9.411505,9.411313,9.410833,9.409849
9.789211,9.788317,9.7838955,9.776209,9.766011,9.751365,9.73405,9.717577,9.691484,9.650781,9.663173,9.711956,9.766493,9.815594,9.858469,9.891991,9.921719,9.94829,9.972189,9.992284,10.008749,10.022226,10.030334,10.03186,10.030178,10.030191,10.018626,9.99271,9.965528,9.944229,9.9256315,9.907976,9.8898735,9.872302,9.8564415,9.8428955,9.832033,9.823423,9.816311,9.810849,9.806969,9.804646,9.803007,9.800819,9.798342,9.7948065,9.790092,9.784033,9.777132,9.770023,9.763132,9.756884,9.7507515,9.74411,9.736647,9.728535,9.720051,9.711674,9.704189,9.697523,9.691558,9.686131,9.681616,9.678134,9.675436,9.67326,9.671149,9.668627,9.665581,9.661991,9.658135,9.654474,9.651348,9.648861,9.647167,9.645861,9.6449585,9.644354,9.64389,9.643454,9.642876,9.642241,9.641136,9.639166,9.636389,9.633259,9.630307,9.627888,9.626188,9.624802,9.623633,9.622623,9.621815,9.621153,9.620404,9.619736,9.619345,9.619605,9.620592,9.622122,9.623756,9.625021,9.625717,9.626127,9.626631,9.627516,9.6287775,9.630182,9.631438,9.632275,9.632759,9.633263,9.6337,9.634219,9.634878,9.635533,9.636069,9.636564,9.637066,9.637513,9.637835,9.638134,9.638625,9.639507,9.640973,9.643156,9.645979,9.648773,9.650782,9.65164,9.65142,9.650383,9.648876,9.647068,9.645164,9.64341,9.641905,9.640514,9.639102,9.637371,9.6350765,9.632418,9.62985,9.627874,9.626736,9.626303,9.626204,9.626093,9.625813,9.625458,9.625193,9.625188,9.625471,9.625789,9.625763,9.625302,9.624207,9.622338,9.61977,9.616781,9.613798,9.61111,9.609355,9.609179,9.610374,9.612171,9.613849,9.614973,9.6154175,9.615299,9.614616,9.613444,9.611826,9.609825,9.607559,9.604933,9.601281,9.596441,9.590549,9.584118,9.577915,9.5726795,9.568779,9.565754,9.563627,9.562183,9.560858,9.559277,9.557517,9.555561,9.553292,9.550566,9.547176,9.543015,9.538201,9.533211,9.528755,9.52457,9.52072,9.517303,9.514412,9.512281,9.511198,9.511333,9.512898,9.515761,9.51958,9.52383,9.527664,9.530411,9.53212,9.533085,9.533598,9.5335655,9.532875,9.531626,9.530063,9.528397,9.527026,9.525773,9.524374,9.522652,9.520674,9.518846,9.517511,9.516604,9.51585,9.514758,9.513147,9.511091,9.508839,9.506628,9.50453,9.502013,9.498756,9.494955,9.491147,9.488171,9.486494,9.485706,9.4850445,9.484005,9.482266,9.480001,9.477671,9.475658,9.47402,9.47241,9.470514,9.468471,9.46628,9.464296,9.462948,9.462212,9.461632,9.461067,9.459243,9.45611,9.4521885,9.44866,9.446544,9.445644,9.444954,9.443941,9.441953,9.439594,9.437857,9.43711,9.4370365,9.436922,9.436649,9.4366,9.437031,9.438168,9.439321,9.439126,9.437475,9.434217,9.429652,9.423984,9.417486,9.410639,9.404064,9.398278,9.393599,9.3897915,9.386589,9.383602,9.380709,9.378197,9.3765,9.375467,9.374625,9.373598,9.3722515,9.3709545,9.370287,9.370416,9.370741,9.370952,9.3709755,9.370798,9.370552,9.370354,9.370113,9.369564,9.368544
9.894974,9.848146,9.811221,9.776375,9.738979,9.704223,9.678144,9.659063,9.644278,9.623572,9.615927,9.621527,9.619598,9.601219,9.594755,9.641568,9.696136,9.749253,9.799997,9.841083,9.870666,9.894901,9.914793,9.931122,9.944138,9.955971,9.961241,9.957025,9.94862,9.942244,9.935613,9.918566,9.902424,9.88237,9.859451,9.840074,9.824171,9.81134,9.800255,9.791796,9.785606,9.781469,9.778577,9.77561,9.772594,9.768526,9.763158,9.7563,9.748545,9.740625,9.7330265,9.726215,9.719593,9.712423,9.70438,9.695625,9.686483,9.67749,9.669438,9.662259,9.655851,9.650137,9.645599,9.642357,9.640076,9.638414,9.636812,9.634821,9.63233,9.629332,9.626051,9.622843,9.619986,9.61759,9.615875,9.614485,9.613481,9.612774,9.612175,9.611558,9.610844,9.610155,9.609116,9.607411,9.605163,9.602834,9.600876,9.599503,9.598862,9.598521,9.598288,9.598064,9.597948,9.597969,9.5979185,9.597973,9.5984535,9.599678,9.60164,9.604057,9.606403,9.608168,9.609159,9.6097355,9.610418,9.611565,9.613216,9.61515,9.617044,9.618589,9.619873,9.62134,9.622839,9.624371,9.625901,9.62722,9.628147,9.628805,9.629335,9.629698,9.629902,9.630131,9.630655,9.631715,9.633446,9.636108,9.639671,9.643362,9.646317,9.648058,9.648552,9.648063,9.6470585,9.645763,9.644342,9.643003,9.641812,9.640625,9.63928,9.637413,9.634711,9.631374,9.627959,9.625136,9.623303,9.622349,9.621792,9.621206,9.620512,9.619859,9.619432,9.619379,9.619632,9.619766,9.619311,9.6181965,9.616243,9.613329,9.6096,9.605484,9.601547,9.598064,9.595928,9.595955,9.597824,9.600504,9.603037,9.604822,9.605691,9.60577,9.605078,9.603702,9.601746,9.599401,9.596924,9.594204,9.590607,9.585926,9.580231,9.574028,9.568143,9.563361,9.560078,9.557774,9.556366,9.555523,9.554586,9.553238,9.551726,9.5501175,9.548286,9.546079,9.5432625,9.539718,9.5356045,9.531406,9.527746,9.524273,9.521011,9.518076,9.515654,9.514009,9.513355,9.5138,9.515472,9.518171,9.521603,9.525233,9.528161,9.529692,9.529943,9.529417,9.528396,9.526976,9.52523,9.523224,9.521067,9.518911,9.517156,9.515675,9.514162,9.512417,9.510447,9.508586,9.507194,9.506294,9.505657,9.504715,9.5031395,9.500946,9.498408,9.495813,9.493315,9.49034,9.486496,9.481954,9.477324,9.473553,9.471134,9.469598,9.468119,9.466246,9.463814,9.461088,9.458572,9.456556,9.454906,9.45322,9.45126,9.449258,9.447244,9.445541,9.44454,9.444184,9.444029,9.444007,9.442813,9.44029,9.436914,9.433879,9.432234,9.431826,9.431726,9.431262,9.429512,9.426897,9.424479,9.422834,9.421812,9.420988,9.420389,9.420383,9.421217,9.423014,9.424831,9.425028,9.423428,9.41996,9.41484,9.408361,9.400931,9.393091,9.385468,9.378592,9.372745,9.367779,9.363485,9.359631,9.356222,9.353497,9.35171,9.350616,9.349623,9.348391,9.346777,9.345215,9.344307,9.344141,9.34413,9.343927,9.343444,9.342715,9.3418865,9.3411255,9.340458,9.339594,9.338446
9.963589,9.976949,9.918258,9.857639,9.8293295,9.813264,9.77052,9.701476,9.665961,9.640469,9.615436,9.59474,9.57165,9.540348,9.517098,9.530125,9.552877,9.568767,9.573349,9.597465,9.648539,9.700015,9.7429085,9.780097,9.806576,9.827652,9.845772,9.859682,9.869345,9.877243,9.883129,9.880344,9.877301,9.871703,9.858457,9.840252,9.824976,9.812887,9.80325,9.793371,9.78388,9.776215,9.770222,9.7646675,9.759487,9.75335,9.745765,9.736518,9.726351,9.716232,9.706942,9.699202,9.691757,9.683834,9.675072,9.665622,9.655842,9.646292,9.637749,9.630152,9.62336,9.617334,9.612652,9.60943,9.60729,9.605856,9.604506,9.602818,9.600672,9.598103,9.595272,9.592417,9.589741,9.587333,9.585455,9.583859,9.582647,9.581754,9.580957,9.580118,9.579241,9.578463,9.5774555,9.576015,9.574326,9.572864,9.571989,9.571729,9.572184,9.572855,9.573452,9.573844,9.574234,9.574808,9.575447,9.576315,9.5778675,9.580339,9.58363,9.587321,9.590786,9.593472,9.5952,9.596402,9.597748,9.599621,9.602053,9.604874,9.607762,9.610183,9.61232,9.614746,9.617457,9.620188,9.622717,9.624817,9.626165,9.626928,9.627333,9.627421,9.627401,9.627649,9.628573,9.630464,9.63334,9.637678,9.643591,9.650099,9.655911,9.660318,9.663317,9.665049,9.6661415,9.666818,9.6669655,9.6666565,9.66601,9.665004,9.663574,9.661401,9.658085,9.653852,9.649316,9.645296,9.642382,9.640536,9.639139,9.637712,9.636272,9.635024,9.634129,9.633638,9.633354,9.63266,9.630943,9.628291,9.624639,9.620016,9.614616,9.60878,9.60309,9.598148,9.59511,9.594992,9.597324,9.600782,9.604174,9.606678,9.608086,9.608547,9.60808,9.606777,9.604807,9.602518,9.600275,9.597924,9.594842,9.590703,9.585516,9.579847,9.574682,9.570927,9.568966,9.56807,9.567887,9.56789,9.567375,9.566192,9.564898,9.563697,9.562395,9.560709,9.5585,9.555714,9.552554,9.549537,9.547171,9.544977,9.542889,9.540947,9.539395,9.5385,9.53839,9.53915,9.540836,9.543135,9.545808,9.548323,9.549738,9.549376,9.547499,9.5449,9.541857,9.538768,9.5358925,9.533192,9.530579,9.528131,9.526227,9.52491,9.523827,9.522684,9.521336,9.519933,9.518795,9.518124,9.517712,9.516865,9.515068,9.512297,9.50893,9.505435,9.502119,9.498379,9.493656,9.488178,9.482563,9.477933,9.474895,9.472805,9.470715,9.467988,9.464596,9.461027,9.45789,9.455391,9.453264,9.451069,9.448673,9.446482,9.4445915,9.443274,9.442816,9.443085,9.4435625,9.4442425,9.443789,9.4417515,9.438677,9.435917,9.43453,9.434389,9.434658,9.434517,9.432753,9.429662,9.426289,9.423274,9.420717,9.418634,9.417015,9.41622,9.416432,9.417841,9.419376,9.419022,9.416504,9.411739,9.404909,9.396896,9.388203,9.379162,9.370367,9.362341,9.355322,9.349295,9.3441515,9.339789,9.336264,9.333685,9.332077,9.331161,9.330231,9.328966,9.327211,9.325399,9.324133,9.323442,9.322798,9.321831,9.320417,9.318682,9.316807,9.315025,9.3135,9.311991,9.310442
8.558319,8.943459,9.288689,9.586681,9.746432,9.749376,9.705082,9.706741,9.665841,9.647409,9.636966,9.607103,9.569794,9.545794,9.527938,9.505568,9.491539,9.472843,9.447504,9.450638,9.486591,9.519511,9.538627,9.55379,9.595642,9.642403,9.683153,9.714058,9.735582,9.754507,9.770391,9.78503,9.797684,9.809483,9.813865,9.8087845,9.803516,9.798821,9.79381,9.784843,9.774444,9.765039,9.756588,9.748516,9.741447,9.73403,9.725817,9.716621,9.707136,9.697855,9.68837,9.678394,9.669318,9.659994,9.649972,9.639401,9.628695,9.618429,9.609353,9.601361,9.594225,9.58782,9.582749,9.57913,9.5765915,9.574839,9.573231,9.571369,9.56908,9.566473,9.563694,9.56086,9.558085,9.555435,9.553135,9.551089,9.549539,9.548443,9.547498,9.5465145,9.545555,9.544739,9.543783,9.542559,9.541319,9.540552,9.540532,9.541117,9.542328,9.54356,9.544395,9.544842,9.545231,9.545912,9.547004,9.548708,9.551571,9.555824,9.560997,9.566406,9.571393,9.575438,9.578345,9.580738,9.583375,9.586576,9.590282,9.593731,9.59626,9.598221,9.599893,9.601515,9.602088,9.602102,9.6021385,9.601997,9.601498,9.600785,9.59993,9.598981,9.598077,9.597422,9.597233,9.597674,9.598753,9.600813,9.604116,9.608081,9.611829,9.61488,9.617177,9.6186,9.619498,9.619974,9.619875,9.619295,9.618465,9.617458,9.616224,9.614501,9.611956,9.6087055,9.605086,9.601595,9.5986595,9.596337,9.59417,9.591843,9.589466,9.58724,9.585331,9.583857,9.582741,9.581556,9.579842,9.577843,9.575579,9.573101,9.570501,9.567824,9.565226,9.563243,9.562592,9.563856,9.566542,9.569639,9.572351,9.574173,9.574972,9.574938,9.574163,9.572771,9.570908,9.568857,9.56691,9.564922,9.562421,9.559201,9.5552635,9.550955,9.546885,9.543642,9.541529,9.539818,9.538194,9.536337,9.533801,9.530584,9.527282,9.524159,9.520996,9.517712,9.514524,9.511594,9.50906,9.507139,9.5059805,9.504938,9.5038185,9.502531,9.501221,9.500088,9.499261,9.498884,9.499081,9.499475,9.5001335,9.500879,9.501074,9.5002,9.498453,9.49626,9.493637,9.490824,9.487999,9.485125,9.482147,9.479183,9.4765835,9.474323,9.472197,9.470124,9.468079,9.466105,9.464342,9.462998,9.461952,9.46072,9.4590225,9.456802,9.454213,9.451507,9.448953,9.446315,9.44322,9.439917,9.436723,9.434325,9.433069,9.432354,9.431545,9.430238,9.428318,9.426147,9.424175,9.422562,9.421137,9.419591,9.417995,9.416634,9.415508,9.414669,9.414198,9.413967,9.413661,9.413458,9.412376,9.41004,9.406844,9.403839,9.401954,9.401317,9.401493,9.402242,9.4026375,9.40277,9.403037,9.403497,9.404062,9.404758,9.405614,9.406759,9.408094,9.4093,9.409417,9.407449,9.403872,9.3985405,9.391558,9.382097,9.371405,9.361021,9.35116,9.342242,9.334483,9.3279915,9.322853,9.319022,9.316408,9.314817,9.313997,9.313803,9.313496,9.312762,9.311375,9.309666,9.308147,9.306813,9.305178,9.302923,9.299887,9.296366,9.292609,9.288925,9.285752,9.283031,9.280501
5.736316,6.340839,7.0561247,7.7452736,8.211417,8.453546,8.728437,9.17912,9.410667,9.507773,9.533021,9.535428,9.533703,9.522166,9.5042,9.505164,9.488312,9.4693985,9.46136,9.4572935,9.446951,9.427616,9.398151,9.370949,9.406191,9.447113,9.478683,9.516751,9.562992,9.601076,9.63312,9.661215,9.686697,9.708042,9.724441,9.736119,9.743173,9.746819,9.745674,9.740631,9.734386,9.728121,9.721426,9.7140465,9.70623,9.698046,9.69025,9.682781,9.676031,9.6696825,9.661929,9.651498,9.642317,9.633097,9.623392,9.613287,9.603095,9.593306,9.584605,9.5769005,9.570026,9.563759,9.558723,9.55503,9.552328,9.5504265,9.548724,9.546925,9.544922,9.542843,9.540726,9.5385,9.536058,9.533329,9.53068,9.528251,9.526085,9.524223,9.522492,9.52071,9.519049,9.5175,9.515783,9.513931,9.512281,9.51133,9.511287,9.511879,9.513013,9.513941,9.514263,9.513358,9.511864,9.510866,9.510477,9.51084,9.512243,9.514907,9.518183,9.521438,9.524279,9.526409,9.527665,9.528496,9.529427,9.530668,9.5321665,9.532781,9.531705,9.530275,9.528755,9.526827,9.522578,9.517335,9.5125265,9.508092,9.504196,9.500906,9.497963,9.495337,9.492861,9.490317,9.487507,9.484394,9.481085,9.47747,9.473886,9.470524,9.467605,9.465231,9.463207,9.461212,9.459081,9.4567795,9.454436,9.452312,9.450654,9.449473,9.448582,9.447691,9.446625,9.445292,9.4436245,9.441589,9.439241,9.43672,9.433939,9.430795,9.427491,9.4242,9.421162,9.418692,9.416985,9.416037,9.415726,9.41634,9.417896,9.420277,9.423384,9.427006,9.430699,9.434517,9.438332,9.441923,9.444902,9.446952,9.448028,9.448267,9.447687,9.446491,9.444885,9.443041,9.441046,9.438992,9.437008,9.435022,9.432786,9.430378,9.427795,9.42496,9.421746,9.418142,9.414354,9.409885,9.404781,9.399225,9.393189,9.386736,9.380236,9.373901,9.367544,9.361572,9.35658,9.3529625,9.350721,9.349571,9.349205,9.348828,9.348158,9.346982,9.345224,9.342997,9.340496,9.337982,9.335759,9.333483,9.33162,9.330515,9.329979,9.329702,9.32965,9.32947,9.32883,9.3274765,9.325364,9.32255,9.319193,9.315485,9.311712,9.307555,9.303058,9.298544,9.294398,9.290756,9.287538,9.284828,9.282558,9.280659,9.279362,9.278612,9.278131,9.277685,9.2773075,9.277283,9.277643,9.278553,9.279854,9.281412,9.283069,9.28451,9.285713,9.286888,9.287741,9.288272,9.288622,9.28891,9.289167,9.28925,9.289411,9.289619,9.289697,9.2894535,9.288768,9.287569,9.285873,9.284067,9.281697,9.27881,9.275497,9.272242,9.269812,9.268658,9.268837,9.271002,9.274817,9.280138,9.286518,9.293236,9.299772,9.305834,9.311669,9.31717,9.321831,9.324793,9.325472,9.324283,9.322571,9.320341,9.317567,9.311527,9.303841,9.297045,9.290968,9.285764,9.28146,9.278301,9.276372,9.275579,9.275654,9.276211,9.276989,9.278168,9.279255,9.280027,9.280194,9.2798815,9.279406,9.278719,9.277464,9.275513,9.272685,9.269339,9.265661,9.261903,9.258474,9.255032,9.252232
3.6877856,3.8001468,3.9830775,4.308673,4.8750124,5.635027,6.544737,7.564761,8.316857,8.626014,8.744965,8.953851,9.227733,9.3997965,9.461161,9.514471,9.52021,9.492401,9.460332,9.433716,9.4105,9.393458,9.38571,9.38209,9.375202,9.338306,9.292175,9.302044,9.373192,9.425323,9.471185,9.516296,9.558121,9.593494,9.62195,9.64336,9.656766,9.665007,9.669039,9.671321,9.6720495,9.671499,9.669982,9.666326,9.658104,9.647841,9.638079,9.628923,9.620602,9.613102,9.606138,9.600049,9.594227,9.588337,9.582134,9.575539,9.568489,9.561182,9.554258,9.54781,9.541971,9.536575,9.532344,9.529381,9.527304,9.525992,9.524883,9.523908,9.522783,9.52174,9.520807,9.519672,9.517907,9.5151825,9.512226,9.50939,9.505947,9.502072,9.498089,9.493991,9.490108,9.486219,9.481988,9.477711,9.473789,9.4706745,9.468553,9.46715,9.466276,9.465084,9.463507,9.459242,9.453344,9.448193,9.443308,9.438552,9.433456,9.428101,9.422478,9.4167385,9.411087,9.405575,9.400194,9.39443,9.388153,9.381536,9.374704,9.367968,9.361732,9.35606,9.350478,9.344831,9.339282,9.333914,9.328767,9.323918,9.319497,9.315526,9.311697,9.308003,9.304403,9.300829,9.297172,9.293411,9.2896185,9.285625,9.281817,9.278334,9.275325,9.27288,9.270836,9.268866,9.26687,9.264841,9.262838,9.261023,9.259571,9.258488,9.25758,9.256565,9.255264,9.253567,9.25144,9.248915,9.24612,9.243231,9.24011,9.236618,9.23302,9.229492,9.226295,9.22373,9.221889,9.220707,9.220009,9.220109,9.221094,9.2228985,9.225452,9.228546,9.23168,9.234927,9.238209,9.241344,9.24398,9.2458,9.246737,9.246893,9.246237,9.244957,9.243225,9.241227,9.239101,9.237007,9.235102,9.233331,9.231417,9.229401,9.227237,9.224821,9.222031,9.218847,9.215464,9.211347,9.20652,9.201128,9.195154,9.188732,9.182325,9.17616,9.170042,9.164348,9.159655,9.156361,9.154491,9.153787,9.15394,9.154116,9.153931,9.153088,9.151438,9.149103,9.146372,9.14356,9.141008,9.138353,9.136061,9.134411,9.13315,9.131951,9.130844,9.129548,9.127792,9.125431,9.122505,9.1190815,9.115261,9.111193,9.107086,9.102643,9.097845,9.093011,9.088602,9.084811,9.0815735,9.079022,9.076979,9.075272,9.0740385,9.073214,9.0726185,9.072129,9.071804,9.071909,9.072357,9.07324,9.074327,9.075509,9.0767,9.077631,9.078299,9.078878,9.07914,9.079216,9.079292,9.079458,9.079694,9.079798,9.080008,9.080341,9.080696,9.080914,9.0808735,9.080452,9.07953,9.078421,9.076616,9.074065,9.070974,9.068047,9.066149,9.065646,9.066559,9.069387,9.073587,9.078977,9.085194,9.091611,9.09782,9.10372,9.109547,9.115355,9.120453,9.124855,9.12855,9.131067,9.1331005,9.134926,9.136549,9.138412,9.140718,9.143507,9.146855,9.150618,9.155342,9.160536,9.165586,9.170206,9.174208,9.177465,9.180217,9.182987,9.185856,9.188794,9.1915455,9.194061,9.196436,9.19858,9.20041,9.202091,9.203436,9.2045555,9.205372,9.205784,9.205551,9.203352,9.202372
3.492732,3.5046163,3.5228288,3.5485277,3.639088,3.8047562,4.0589786,4.446575,4.913495,5.5412874,6.253051,7.0823994,7.9631357,8.692585,9.072971,9.073127,9.319916,9.45758,9.521023,9.535814,9.489737,9.4119215,9.368605,9.334387,9.313085,9.304907,9.301956,9.29553,9.283585,9.27293,9.277891,9.34223,9.412277,9.468962,9.512453,9.544335,9.566025,9.580453,9.590311,9.596594,9.599722,9.59993,9.597582,9.593553,9.589108,9.584272,9.579025,9.573449,9.568003,9.562914,9.557312,9.549996,9.543264,9.536543,9.529516,9.522047,9.51406,9.505835,9.498135,9.491079,9.484817,9.478926,9.474043,9.470297,9.467421,9.465466,9.463968,9.462601,9.457758,9.451318,9.444988,9.438892,9.432996,9.427359,9.421679,9.415738,9.409529,9.403135,9.3965435,9.38974,9.382941,9.376045,9.368731,9.361078,9.353203,9.345269,9.337513,9.330068,9.322289,9.313955,9.3055725,9.297194,9.289018,9.2813,9.273871,9.266628,9.258848,9.250622,9.241938,9.232997,9.224102,9.215433,9.207073,9.198357,9.18903,9.179302,9.16918,9.160114,9.154707,9.15362,9.151965,9.149764,9.149398,9.150543,9.151619,9.151737,9.150637,9.148535,9.145468,9.141542,9.13752,9.134178,9.13195,9.130985,9.131035,9.13248,9.135918,9.141052,9.147529,9.154835,9.162057,9.168406,9.174121,9.179068,9.182541,9.184422,9.185225,9.185488,9.185401,9.185066,9.184454,9.183684,9.1829,9.182383,9.182417,9.18293,9.183294,9.183516,9.183819,9.184135,9.184337,9.184301,9.183673,9.18176,9.178009,9.172786,9.166483,9.159708,9.153294,9.147843,9.14336,9.139383,9.136505,9.135229,9.135229,9.135887,9.136756,9.137375,9.137377,9.136851,9.135925,9.134633,9.133123,9.131731,9.130691,9.129836,9.128884,9.127886,9.126926,9.126194,9.125981,9.126511,9.127822,9.129299,9.130641,9.131335,9.130707,9.128767,9.126407,9.124199,9.121956,9.119568,9.117071,9.114508,9.112175,9.110619,9.1101265,9.109938,9.10931,9.108033,9.106361,9.104757,9.10369,9.1035595,9.104338,9.105368,9.106675,9.107984,9.108499,9.107553,9.105282,9.102085,9.097832,9.092766,9.08733,9.081764,9.076292,9.071305,9.067314,9.06435,9.062278,9.061129,9.060825,9.061169,9.062029,9.0635395,9.065533,9.067322,9.068016,9.067114,9.064547,9.060698,9.056392,9.0518465,9.046675,9.0411415,9.035744,9.03134,9.028308,9.026108,9.024366,9.0228,9.02118,9.019562,9.018062,9.016715,9.015462,9.014089,9.013027,9.012468,9.0121155,9.01177,9.0113945,9.010899,9.010175,9.00952,9.008127,9.005516,9.002017,8.998781,8.996902,8.996624,8.997812,9.000469,9.003323,9.006055,9.008875,9.011631,9.013834,9.015436,9.015843,9.014906,9.011724,9.006765,9.000635,8.993123,8.985267,8.976395,8.966837,8.957779,8.950119,8.94402,8.939232,8.935981,8.941762,8.949641,8.957317,8.964125,8.969976,8.974846,8.978988,8.982943,8.98683,8.990543,8.993839,8.996733,8.999391,9.001785,9.003864,9.005785,9.007326,9.008627,9.009621,9.010216,9.010552,9.01043,9.010359
3.4365692,3.4355302,3.4317274,3.4207504,3.412729,3.4137435,3.4305494,3.4784987,3.5662894,3.760633,4.0317774,4.413512,4.899398,5.4647746,6.086523,6.711837,7.606716,8.618124,9.261789,9.463903,9.50399,9.551715,9.5186405,9.482874,9.407833,9.3320465,9.285609,9.268593,9.263796,9.260071,9.258324,9.264164,9.260185,9.273279,9.323498,9.389197,9.434698,9.45949,9.477961,9.490952,9.498718,9.502173,9.502316,9.500124,9.497316,9.493684,9.4888525,9.483069,9.476975,9.470842,9.46447,9.457848,9.4512825,9.444445,9.437315,9.429887,9.421998,9.413582,9.4049425,9.395988,9.386478,9.376234,9.366003,9.356138,9.346621,9.337715,9.329403,9.320053,9.308982,9.297489,9.286364,9.275684,9.2653885,9.255056,9.244131,9.232735,9.2211,9.209273,9.197235,9.185076,9.173036,9.160876,9.148035,9.134678,9.121115,9.107561,9.093882,9.081794,9.0818615,9.0850525,9.088845,9.092634,9.09676,9.101494,9.106777,9.112423,9.118639,9.125109,9.131224,9.136581,9.141116,9.144925,9.148048,9.15087,9.153776,9.156818,9.158993,9.160088,9.161314,9.163332,9.164987,9.16639,9.167864,9.169182,9.169994,9.169949,9.168613,9.166252,9.162927,9.158868,9.154966,9.152004,9.150301,9.149857,9.150305,9.151995,9.155537,9.160715,9.167326,9.174991,9.182799,9.189819,9.196331,9.202153,9.206457,9.209068,9.210503,9.211348,9.211864,9.212238,9.212503,9.212683,9.212704,9.2126465,9.212733,9.212971,9.212833,9.212412,9.212063,9.211725,9.211248,9.210506,9.209129,9.206472,9.201979,9.196156,9.189617,9.183062,9.177313,9.172836,9.169275,9.165896,9.163043,9.161012,9.159571,9.158466,9.157643,9.15687,9.155769,9.154467,9.153086,9.15165,9.150269,9.149357,9.149338,9.149694,9.150173,9.150776,9.151421,9.152195,9.153261,9.154638,9.156339,9.157821,9.158847,9.159062,9.157879,9.155323,9.1523075,9.149433,9.146497,9.143406,9.140306,9.137391,9.135042,9.133811,9.1339855,9.134651,9.134851,9.134098,9.132431,9.130302,9.128338,9.12715,9.126879,9.126865,9.12724,9.127733,9.127598,9.126313,9.124102,9.121162,9.117401,9.113056,9.108517,9.104015,9.099733,9.095908,9.092875,9.090634,9.089066,9.088284,9.088426,9.089407,9.090982,9.093096,9.095472,9.097355,9.097816,9.096361,9.093026,9.0883665,9.083338,9.078364,9.073095,9.067694,9.062342,9.057611,9.053883,9.05084,9.04835,9.0462475,9.0443535,9.042648,9.041119,9.0397215,9.038382,9.036858,9.035604,9.034811,9.034206,9.033748,9.033443,9.033014,9.0322075,9.031237,9.029239,9.025713,9.02114,9.016913,9.014356,9.0138645,9.015348,9.018719,9.022593,9.026508,9.030474,9.034132,9.036917,9.0388365,9.039397,9.03822,9.034069,9.027624,9.019762,9.010216,9.000406,8.989622,8.978304,8.967855,8.959354,8.952949,8.94784,8.94299,8.941665,8.941477,8.942228,8.943667,8.945168,8.946119,8.946503,8.947123,8.948107,8.949463,8.95082,8.952131,8.953482,8.954592,8.955412,8.955765,8.955141,8.953839,8.951778,8.94897,8.94619,8.943863,8.9420395
3.4017627,3.4064736,3.4111447,3.416265,3.4181557,3.4156475,3.4071167,3.3883653,3.360363,3.3327081,3.3189168,3.3421016,3.412455,3.5612803,3.8410559,4.262698,4.8083735,5.5469418,6.30853,7.082698,7.942992,8.746407,9.1627,9.362875,9.408894,9.444687,9.414915,9.327595,9.273425,9.238067,9.225767,9.215422,9.1986685,9.198632,9.214069,9.215731,9.205163,9.251814,9.295323,9.332205,9.354739,9.365341,9.370171,9.371305,9.370249,9.367155,9.361872,9.354877,9.346952,9.338483,9.329735,9.321377,9.312697,9.303531,9.292755,9.280652,9.267843,9.254469,9.240658,9.226194,9.210308,9.193146,9.174644,9.155107,9.135372,9.116302,9.097964,9.084425,9.073686,9.063974,9.054881,9.04645,9.039793,9.038942,9.04197,9.04513,9.047819,9.050104,9.051668,9.052186,9.051938,9.051167,9.05002,9.048804,9.046613,9.043557,9.040573,9.038687,9.044077,9.051613,9.059665,9.067682,9.0759945,9.085018,9.094665,9.104679,9.115473,9.126507,9.136856,9.146242,9.155354,9.164854,9.17409,9.182973,9.191855,9.200989,9.209389,9.216047,9.221075,9.224932,9.227671,9.230002,9.231661,9.232763,9.233639,9.23428,9.234358,9.234289,9.232552,9.229118,9.224066,9.218935,9.215244,9.212736,9.2106905,9.209536,9.209818,9.211483,9.214574,9.21901,9.224131,9.229029,9.233904,9.238579,9.242065,9.244057,9.244999,9.245466,9.245816,9.246293,9.246922,9.247536,9.247753,9.247361,9.246497,9.245344,9.243571,9.241352,9.239229,9.237267,9.235369,9.233426,9.231091,9.227834,9.223225,9.218035,9.213135,9.209181,9.206655,9.20553,9.204892,9.203815,9.20224,9.2000675,9.197138,9.193674,9.190188,9.186901,9.183529,9.18018,9.176985,9.173979,9.171465,9.168997,9.165245,9.161985,9.158991,9.156865,9.155214,9.153275,9.150846,9.148444,9.146645,9.144545,9.141832,9.138386,9.13373,9.128054,9.122631,9.11825,9.114576,9.111515,9.109032,9.107285,9.10651,9.106878,9.108453,9.110309,9.111236,9.110536,9.108187,9.104691,9.100769,9.097147,9.094097,9.089878,9.08474,9.079182,9.072829,9.065085,9.056447,9.047892,9.038817,9.029629,9.020468,9.011482,9.002417,8.992853,8.983643,8.974657,8.96567,8.95676,8.948742,8.942312,8.937493,8.934294,8.932464,8.93121,8.929651,8.927336,8.924486,8.921659,8.919372,8.917919,8.917139,8.917204,8.918457,8.921236,8.925272,8.929579,8.933569,8.937581,8.94091,8.94322,8.944359,8.944563,8.944395,8.944004,8.9443245,8.946427,8.949871,8.953348,8.955975,8.957624,8.958324,8.958963,8.958408,8.956161,8.953122,8.951069,8.951179,8.95336,8.957499,8.965098,8.97485,8.98609,8.998414,9.011053,9.02309,9.034189,9.043411,9.050508,9.054785,9.053991,9.048208,9.040924,9.033172,9.024684,9.01606,9.00895,9.00448,9.001618,8.99852,8.995387,8.992565,8.989952,8.987808,8.9865265,8.985696,8.984412,8.982637,8.981262,8.980415,8.980225,8.98032,8.980734,8.981617,8.982579,8.983588,8.984232,8.983921,8.983008,8.981302,8.978697,8.976017,8.973711,8.971975
3.3612347,3.3635821,3.3665764,3.371079,3.3760915,3.380784,3.3852,3.389504,3.39372,3.3944736,3.3906698,3.3770642,3.3512158,3.313392,3.2758913,3.2690554,3.2723353,3.3486402,3.6886735,4.335132,5.1854,6.06913,6.8194156,7.54903,8.285726,8.855518,9.196595,9.320617,9.314499,9.3169365,9.293273,9.247835,9.208763,9.188431,9.172409,9.141994,9.107425,9.113579,9.114621,9.107742,9.119933,9.145514,9.163991,9.174199,9.179078,9.179684,9.176069,9.168963,9.159289,9.14772,9.134837,9.121386,9.1071,9.090557,9.077632,9.067501,9.057159,9.045881,9.033941,9.021232,9.006344,8.988981,8.974173,8.963891,8.955811,8.948319,8.941698,8.940937,8.94396,8.949079,8.9545145,8.95948,8.965763,8.977203,8.992469,9.008623,9.024492,9.039961,9.054728,9.068301,9.080793,9.093324,9.10605,9.118341,9.129017,9.138369,9.147177,9.154431,9.158922,9.162731,9.166791,9.17123,9.176081,9.181539,9.187494,9.193612,9.199886,9.205496,9.209903,9.21088,9.20512,9.193146,9.182255,9.17655,9.174673,9.172156,9.168333,9.164209,9.159597,9.1546545,9.148575,9.141639,9.133921,9.1256485,9.117118,9.108219,9.098572,9.088045,9.081279,9.076725,9.078183,9.085987,9.096235,9.10676,9.117769,9.128363,9.13847,9.147896,9.157083,9.166287,9.174967,9.182438,9.189148,9.195086,9.200151,9.204697,9.209255,9.214096,9.2190895,9.2242985,9.229809,9.235069,9.239292,9.2418,9.242439,9.241547,9.239286,9.236065,9.232572,9.22915,9.225937,9.222924,9.219815,9.21626,9.211744,9.206795,9.202293,9.199024,9.197415,9.197178,9.197189,9.196083,9.193352,9.188846,9.182914,9.176485,9.1706085,9.165749,9.161707,9.158806,9.1574745,9.1577,9.159462,9.161736,9.162535,9.163692,9.165733,9.165792,9.164875,9.163597,9.161119,9.157624,9.154013,9.149654,9.144259,9.137272,9.129269,9.121784,9.116297,9.113834,9.113471,9.114458,9.11548,9.115358,9.1145115,9.114355,9.115219,9.116558,9.116792,9.115279,9.112276,9.10857,9.10511,9.102653,9.100851,9.097685,9.092238,9.084525,9.0747175,9.062593,9.048335,9.033362,9.018541,9.004919,8.991765,8.97583,8.956741,8.937793,8.919041,8.899755,8.880537,8.861329,8.840319,8.818773,8.801378,8.790472,8.785604,8.785197,8.787637,8.790455,8.792633,8.794929,8.798111,8.802256,8.806728,8.812642,8.819344,8.827782,8.839154,8.851887,8.86483,8.8757715,8.8846245,8.891415,8.896046,8.899009,8.901592,8.904574,8.909838,8.915716,8.922712,8.929594,8.934646,8.937595,8.93863,8.936285,8.93252,8.928888,8.926247,8.925631,8.928205,8.934147,8.943777,8.957933,8.9746685,8.992655,9.010466,9.026176,9.03883,9.050876,9.056824,9.060028,9.060232,9.053818,9.03992,9.022419,9.003468,8.981724,8.957434,8.932054,8.908036,8.8904705,8.882244,8.877764,8.875418,8.877081,8.884459,8.894023,8.902163,8.908552,8.913584,8.918142,8.92296,8.927468,8.931101,8.933626,8.935284,8.936552,8.937492,8.937819,8.936829,8.934998,8.932211,8.928452,8.924778,8.921834,8.919716
3.3281052,3.327621,3.3279078,3.330484,3.334135,3.3382592,3.3428192,3.347061,3.351058,3.3551543,3.3593745,3.3636115,3.368063,3.372348,3.3738394,3.3681955,3.3574765,3.3254251,3.3074954,3.2978978,3.3213148,3.5057578,3.9973354,4.8007565,5.8312874,6.736673,7.5894804,8.356007,8.869076,9.1942005,9.302472,9.303114,9.269169,9.220621,9.177122,9.158349,9.147101,9.099642,9.046537,8.980099,8.955442,8.968018,8.979469,8.982625,8.983618,8.981559,8.977203,8.970843,8.963226,8.954697,8.945353,8.935972,8.926092,8.913792,8.909338,8.910576,8.911623,8.911017,8.909143,8.906554,8.902002,8.894913,8.893602,8.90118,8.913011,8.925375,8.938986,8.953995,8.969908,8.987938,9.006355,9.023183,9.038561,9.051675,9.063985,9.075817,9.087618,9.09792,9.104357,9.106508,9.106157,9.101552,9.095542,9.088194,9.079543,9.070192,9.0629835,9.062273,9.069372,9.079742,9.0906315,9.101054,9.11133,9.121925,9.132845,9.143932,9.155312,9.166238,9.176382,9.182677,9.177737,9.152212,9.100241,9.028397,8.946975,8.867609,8.798616,8.742035,8.695898,8.658577,8.626183,8.595628,8.566158,8.536388,8.50538,8.4718895,8.434223,8.3914795,8.35104,8.312027,8.283682,8.260478,8.233885,8.210962,8.193662,8.17676,8.160793,8.145643,8.1315,8.118553,8.106653,8.095966,8.085878,8.076241,8.067154,8.058394,8.04986,8.0418,8.034553,8.028013,8.022274,8.017763,8.014327,8.011679,8.009762,8.008574,8.007907,8.007938,8.008649,8.009733,8.010908,8.012129,8.013433,8.014793,8.016245,8.017887,8.019873,8.02222,8.024835,8.027452,8.029581,8.030477,8.029949,8.028024,8.025223,8.0225525,8.020934,8.020564,8.021266,8.022949,8.025379,8.027863,8.029857,8.031332,8.032419,8.032861,8.033259,8.0284605,8.02069,8.01248,8.003586,7.994095,7.9846525,7.9748936,7.964757,7.9535546,7.942672,7.934122,7.928629,7.926816,7.926978,7.927685,7.927142,7.923807,7.918704,7.9144564,7.9117966,7.9105463,7.9095526,7.908396,7.9072323,7.9062605,7.9055667,7.9052515,7.9044,7.9021425,7.896968,7.887905,7.875255,7.8592396,7.8396263,7.8178163,7.795661,7.7752266,7.7561693,7.7337685,7.70792,7.684286,7.6617956,7.6392164,7.6177454,7.597254,7.573846,7.548513,7.5284224,7.517106,7.514162,7.5176187,7.5254526,7.5338497,7.5407147,7.5467463,7.5529857,7.559433,7.5653048,7.57226,7.5792246,7.5876575,7.5999393,7.614731,7.6308794,7.6445274,7.6563997,7.6666436,7.6750975,7.6821995,7.6892376,7.697231,7.7083855,7.718782,7.729221,7.739274,7.7474136,7.753232,7.75694,7.755833,7.754323,7.7555017,7.759871,7.7670617,7.7775483,7.7918067,7.810282,7.8323464,7.855854,7.879191,7.9007897,7.918733,7.932449,7.9462395,7.9542875,7.9622326,7.9717293,7.9827595,7.995152,8.008437,8.022022,8.0384245,8.059319,8.085835,8.111984,8.141891,8.184874,8.22859,8.26911,8.308336,8.350517,8.390931,8.424358,8.451878,8.475526,8.496222,8.51555,8.531475,8.543579,8.552035,8.557769,8.562743,8.567661,8.572125,8.574001,8.57242,8.566908,8.558367,8.549365,8.541439,8.534856
3.297922,3.2991326,3.2991266,3.2982173,3.2979631,3.3003733,3.3049054,3.308971,3.31293,3.3171144,3.321549,3.326232,3.330813,3.3347511,3.338224,3.3424194,3.3466544,3.3517418,3.3541481,3.3536148,3.3468094,3.338737,3.3545897,3.4076095,3.5256634,3.9656763,4.8432393,6.050581,7.256446,8.103152,8.645988,9.059979,9.254965,9.265196,9.2039585,9.150921,9.1148615,9.097743,9.083326,9.052586,9.00915,8.970121,8.939582,8.910535,8.891994,8.876743,8.866747,8.861115,8.8601,8.862989,8.868163,8.875836,8.884722,8.895058,8.905077,8.913182,8.918993,8.922896,8.924868,8.923946,8.922076,8.920656,8.919607,8.918936,8.919317,8.921112,8.923658,8.925816,8.931506,8.939627,8.948555,8.958115,8.968472,8.978983,8.9890585,8.996699,8.998056,8.9880085,8.964467,8.928141,8.878876,8.8134775,8.740206,8.662973,8.585911,8.511181,8.446507,8.40742,8.398664,8.400511,8.402643,8.403079,8.402937,8.40284,8.403507,8.405339,8.407465,8.409592,8.411165,8.413563,8.4147835,8.392572,8.301949,8.140652,7.940713,7.750848,7.5940127,7.4696364,7.3731585,7.3002896,7.241457,7.189903,7.1438217,7.0993795,7.053442,7.0030813,6.9450493,6.878333,6.7971716,6.7054424,6.610556,6.5020494,6.379304,6.2679787,6.1701045,6.0769258,5.991252,5.9135666,5.8428507,5.778598,5.72134,5.672255,5.6282616,5.588599,5.551388,5.51371,5.474126,5.433593,5.3945265,5.357079,5.3211675,5.289597,5.2639837,5.2455597,5.2350545,5.231638,5.233501,5.2399197,5.24946,5.2602415,5.270774,5.280697,5.2904906,5.3003607,5.311642,5.324598,5.338331,5.3511896,5.361891,5.370279,5.3770084,5.3833895,5.3905296,5.398487,5.406913,5.4155846,5.42439,5.4328885,5.4409256,5.4471188,5.4494286,5.446122,5.436924,5.423236,5.4070425,5.388793,5.36749,5.343643,5.317812,5.2911067,5.265357,5.2423515,5.2224708,5.2044706,5.1883907,5.1744995,5.1630216,5.153801,5.146349,5.1403437,5.134074,5.1264944,5.117601,5.1082106,5.0995255,5.0925226,5.087592,5.0844936,5.0835085,5.0844584,5.0868564,5.089382,5.0901747,5.088068,5.082677,5.0739317,5.062145,5.0471325,5.028673,5.006488,4.980768,4.9534087,4.9235287,4.8936577,4.8658714,4.8410606,4.8191843,4.7999487,4.783422,4.7688923,4.7563543,4.745656,4.7365036,4.729143,4.7241645,4.7217607,4.722269,4.724926,4.7288623,4.7329993,4.7367973,4.740293,4.743542,4.746401,4.749216,4.7524214,4.7573566,4.7648735,4.7746687,4.7857924,4.797359,4.809576,4.8221183,4.834011,4.844743,4.8545804,4.86417,4.874116,4.8856297,4.899124,4.913366,4.9268312,4.938823,4.9495735,4.959583,4.970901,4.984172,5.0001135,5.019275,5.0410337,5.0641594,5.0878754,5.1117334,5.1369934,5.1630163,5.1891365,5.215537,5.242686,5.2702866,5.2983675,5.330488,5.367874,5.4156256,5.477808,5.556141,5.648629,5.746477,5.8618383,5.9995756,6.1606293,6.323868,6.4753284,6.619921,6.7516375,6.867858,6.965453,7.047689,7.117217,7.174263,7.220893,7.2612505,7.2960815,7.3270063,7.3512135,7.369255,7.3830323,7.394676,7.406681,7.420643,7.4355745,7.447256,7.452037,7.4484386,7.4384556,7.426173,7.4137926,7.40222
3.2671795,3.2683,3.2687364,3.2686925,3.269004,3.270098,3.2720103,3.2748647,3.2786164,3.2835472,3.2896626,3.2977605,3.304514,3.3044426,3.2999625,3.3045177,3.3084073,3.3130836,3.3184323,3.3233461,3.3272295,3.3309784,3.3360257,3.340946,3.3690712,3.4530056,3.6051717,3.9068131,4.5295515,5.5663023,6.8311386,8.13261,8.784868,8.970053,9.061867,9.136496,9.131901,9.10544,9.060805,9.0265,8.998016,8.971842,8.947534,8.924326,8.911373,8.900072,8.892746,8.88882,8.88891,8.892887,8.899149,8.90683,8.914997,8.923285,8.929474,8.931776,8.930826,8.9282875,8.92205,8.8994255,8.871319,8.843585,8.815975,8.785105,8.752816,8.723525,8.689827,8.640224,8.614068,8.5981455,8.57948,8.567083,8.5731125,8.592891,8.610381,8.632048,8.620142,8.56319,8.483789,8.389788,8.253876,8.098946,7.9241786,7.732525,7.545384,7.3729305,7.2112703,7.065433,6.94151,6.817707,6.690954,6.5671563,6.4464445,6.326081,6.2092257,6.096356,5.978535,5.853547,5.722675,5.5880594,5.453605,5.324586,5.2049637,5.089036,4.9799323,4.882866,4.800803,4.7340536,4.6810303,4.6398573,4.60562,4.5759516,4.5493674,4.525196,4.502743,4.481387,4.4612665,4.4400992,4.415385,4.391034,4.3668604,4.3426743,4.3199472,4.299925,4.2829256,4.2675447,4.2543154,4.243368,4.2342196,4.2263017,4.219379,4.2134395,4.207757,4.202095,4.1960564,4.18917,4.1813636,4.173058,4.164834,4.1567583,4.148896,4.142014,4.1367507,4.1335716,4.132589,4.133378,4.135312,4.1380777,4.141166,4.144079,4.1464753,4.1483374,4.1498938,4.151273,4.1527777,4.1544685,4.156001,4.157019,4.1573906,4.157301,4.1572876,4.157941,4.1598263,4.16308,4.167411,4.1723223,4.177322,4.182003,4.1864414,4.190445,4.193453,4.1950216,4.1950035,4.19359,4.191165,4.187918,4.1837683,4.178965,4.1738105,4.1687202,4.1641483,4.1603937,4.157441,4.1548424,4.1525707,4.1505446,4.148774,4.1472754,4.145955,4.144674,4.1432476,4.14167,4.140234,4.1393003,4.13894,4.138892,4.1388865,4.1387033,4.1385202,4.138443,4.1384606,4.1384606,4.138126,4.137041,4.135206,4.1328077,4.129959,4.1267433,4.1230373,4.118528,4.113059,4.106901,4.0998893,4.092697,4.0858636,4.079727,4.0744543,4.070103,4.0668,4.064539,4.063342,4.0630302,4.063079,4.0631113,4.0630865,4.0630026,4.0628905,4.062549,4.0618715,4.0610275,4.060401,4.060298,4.060725,4.061323,4.061986,4.0628877,4.0644956,4.0670567,4.070323,4.073784,4.077093,4.0801806,4.0830374,4.0855827,4.0877776,4.089678,4.091387,4.092944,4.0945034,4.096,4.0973687,4.098625,4.099928,4.1014986,4.103447,4.1059327,4.1089916,4.112905,4.117736,4.1231637,4.128746,4.1341934,4.1395025,4.145091,4.1510067,4.156929,4.162607,4.1679544,4.1728354,4.177308,4.181857,4.187067,4.1939774,4.2039404,4.2177963,4.2351665,4.254781,4.279636,4.3098826,4.344217,4.3883457,4.439986,4.48743,4.5292997,4.5674887,4.6067824,4.646756,4.6840954,4.715739,4.7418365,4.76449,4.7835636,4.8001137,4.8127193,4.822149,4.829808,4.836832,4.8442745,4.852586,4.8613806,4.868537,4.872238,4.871731,4.867928,4.862583,4.856225,4.849287
3.235415,3.236705,3.2376165,3.238314,3.2391756,3.2404754,3.242537,3.2456415,3.249383,3.2543256,3.2603097,3.2679863,3.2762156,3.2829301,3.288669,3.2971709,3.3063848,3.3048735,3.2894154,3.2802658,3.285275,3.2915845,3.2953463,3.2966123,3.2997093,3.3004315,3.308135,3.355483,3.5105343,3.837194,4.2931347,5.1189356,6.3166323,7.660592,8.515886,8.738562,8.8759,8.787972,8.816423,8.858162,8.887141,8.901418,8.903332,8.897784,8.892471,8.8863,8.8799515,8.875042,8.873701,8.8723345,8.865444,8.854031,8.833099,8.798199,8.775511,8.765699,8.742124,8.695761,8.64765,8.574171,8.46316,8.338357,8.243902,8.182093,8.118037,8.031555,7.9329967,7.7564173,7.5502777,7.321621,7.086941,6.855086,6.626521,6.43589,6.2532263,6.0874476,5.934282,5.789893,5.6567307,5.534756,5.416932,5.3005643,5.1821012,5.0713673,4.9699,4.878374,4.797703,4.7256885,4.665288,4.6126604,4.5630026,4.516837,4.4735947,4.4312572,4.389824,4.3491526,4.306286,4.260598,4.2131424,4.1648064,4.1171956,4.073292,4.0358577,4.0030293,3.974163,3.9488692,3.92703,3.9087033,3.8936381,3.8814895,3.8710837,3.8617454,3.853291,3.8456705,3.8388,3.8326025,3.8271198,3.8217509,3.8159127,3.8104634,3.80516,3.800558,3.7972698,3.7947836,3.7932305,3.792718,3.7933688,3.7950654,3.7973318,3.7996142,3.8015738,3.8030765,3.803986,3.8042374,3.8037462,3.8025012,3.800671,3.7985425,3.7963333,3.7940655,3.791832,3.7900002,3.78896,3.7889595,3.7899644,3.791648,3.7936337,3.7957153,3.7975454,3.7988603,3.7995367,3.7996764,3.7995243,3.799238,3.7989464,3.7987034,3.7982852,3.7974896,3.7962978,3.7948942,3.793679,3.793007,3.7932382,3.794536,3.7967403,3.799471,3.8023376,3.8050947,3.8078718,3.8107326,3.8134644,3.8158467,3.8176703,3.8188076,3.8192794,3.8191824,3.818596,3.8176856,3.816617,3.8156052,3.814854,3.8144317,3.814276,3.8142693,3.814425,3.8146853,3.815052,3.8155255,3.8160243,3.816403,3.8167007,3.8170285,3.8176103,3.818668,3.8201258,3.8216252,3.8228645,3.82369,3.8242297,3.8245502,3.8246894,3.8246996,3.8244905,3.8238096,3.8227315,3.8214333,3.820034,3.8186831,3.8173437,3.8158026,3.81393,3.8117867,3.8093994,3.8071387,3.8052294,3.8038158,3.802959,3.8026214,3.8028555,3.8038113,3.805471,3.807598,3.8097343,3.811493,3.8126936,3.813273,3.8132393,3.8124442,3.8109741,3.8092132,3.8076878,3.806754,3.8064213,3.8063717,3.8064713,3.8068151,3.8076754,3.8091354,3.8109548,3.8127742,3.8143582,3.8156362,3.8166265,3.8173387,3.8177767,3.8179605,3.8179388,3.8177147,3.817237,3.8164318,3.8153968,3.8143768,3.8136775,3.8135183,3.8139153,3.8147533,3.815865,3.8173714,3.8192751,3.821381,3.8234415,3.8253121,3.8270237,3.8287613,3.8306375,3.8324456,3.833956,3.835031,3.8355403,3.835483,3.8348312,3.8338175,3.832797,3.8325233,3.8336024,3.8360314,3.839632,3.844826,3.8516784,3.859924,3.8716345,3.8862815,3.900103,3.912456,3.9240537,3.9362707,3.948461,3.9597054,3.9693017,3.9771974,3.9839225,3.9895463,3.9943419,3.9982028,4.001402,4.004386,4.0073147,4.0099773,4.0124,4.01445,4.015436,4.014953,4.0130424,4.0101385,4.006713,4.002788,3.9984245
3.2073426,3.208263,3.208822,3.2092187,3.2095377,3.2100518,3.211297,3.2135842,3.2164483,3.2204967,3.2256463,3.2318075,3.2388117,3.2466297,3.2548795,3.2622366,3.270205,3.2732775,3.2694178,3.2701993,3.2710958,3.261586,3.2574837,3.2551181,3.2573397,3.2584157,3.260778,3.2625442,3.2630043,3.2759008,3.309369,3.5430765,4.0924587,4.9452124,5.846484,6.653611,7.4324884,7.9468894,8.233015,8.408714,8.533423,8.612143,8.645757,8.660255,8.671342,8.659897,8.640463,8.605753,8.541939,8.451216,8.355717,8.2759905,8.206261,8.128533,8.039226,7.913452,7.7464895,7.565271,7.3893185,7.186388,6.9762344,6.756316,6.53533,6.3240266,6.128157,5.9496217,5.7891254,5.602517,5.404661,5.2027354,5.011732,4.8415985,4.6904893,4.561837,4.439684,4.327695,4.2307262,4.1485257,4.0781,4.018239,3.970348,3.9275577,3.8872783,3.854169,3.8262968,3.8026166,3.7840412,3.7687216,3.7566872,3.7488518,3.7434955,3.73977,3.737234,3.7351542,3.7326922,3.729631,3.7260437,3.7220783,3.7181864,3.7146406,3.7116194,3.7092333,3.7072167,3.7054944,3.7039404,3.7026668,3.70153,3.7003548,3.69914,3.697909,3.6966133,3.695068,3.6935074,3.6920156,3.6906826,3.6895676,3.6885622,3.6877356,3.6871657,3.6866899,3.686417,3.6863651,3.686551,3.6872048,3.6884367,3.6905437,3.6936939,3.6976643,3.7018557,3.7057607,3.7091627,3.7118154,3.7137828,3.7151272,3.7158504,3.716008,3.7157717,3.7153623,3.7148867,3.7143748,3.7139306,3.7137892,3.7142065,3.7152972,3.716963,3.7189422,3.720961,3.7228768,3.7243786,3.7252522,3.7254245,3.725048,3.7244246,3.7237344,3.7230752,3.722536,3.7218976,3.7209275,3.7195632,3.7179286,3.7163358,3.715005,3.714194,3.7140727,3.7145815,3.7154841,3.7165458,3.7176754,3.719008,3.7206516,3.7225337,3.7244844,3.7262437,3.7275789,3.728407,3.728779,3.7287822,3.7285373,3.7281628,3.7278051,3.7275996,3.72759,3.727738,3.7280235,3.728522,3.729226,3.7301788,3.7313776,3.7326877,3.7339318,3.7351527,3.7364292,3.7378993,3.739719,3.7418363,3.7439594,3.7457938,3.7472458,3.748394,3.7492409,3.7498288,3.7502232,3.7503495,3.7500052,3.7492664,3.748303,3.7472553,3.7462878,3.7454138,3.744471,3.7433386,3.7421072,3.7408981,3.7400446,3.739685,3.7398481,3.7404869,3.74148,3.7428093,3.7446656,3.7469854,3.749516,3.7518995,3.7538497,3.7552137,3.7559223,3.7559738,3.7552342,3.753843,3.7521954,3.750748,3.7497797,3.7493062,3.7490692,3.7489858,3.7491393,3.7496831,3.750647,3.751843,3.7529926,3.7539535,3.7546554,3.7551317,3.7553911,3.7554076,3.7551877,3.754794,3.7542243,3.7534108,3.7522686,3.7509053,3.7495508,3.748505,3.7479968,3.7480233,3.7484245,3.7489858,3.7497487,3.7507381,3.7518444,3.7529047,3.7538488,3.7546892,3.7554932,3.7563684,3.757154,3.7576911,3.757861,3.757492,3.7565799,3.7549987,3.7528753,3.7504244,3.7481518,3.746556,3.7457504,3.7455664,3.7458167,3.7468002,3.7488806,3.7515645,3.7545884,3.7582464,3.7621045,3.765801,3.7690463,3.771575,3.7736342,3.7754195,3.7768512,3.7779408,3.7788415,3.7795258,3.7802024,3.7809176,3.7817974,3.7827573,3.7833061,3.7833757,3.782881,3.7815542,3.7794347,3.7768238,3.7740242,3.771155,3.76815,3.7649617
3.1865528,3.1854215,3.1834497,3.1805248,3.178668,3.1781418,3.1782415,3.1793437,3.1811118,3.1840677,3.1880546,3.193008,3.1987226,3.2050061,3.2114139,3.2168953,3.2220988,3.2293692,3.239209,3.25039,3.25415,3.2478156,3.2466936,3.2487507,3.2517934,3.249548,3.2441082,3.2388263,3.2375631,3.2455335,3.2563515,3.2604656,3.2354434,3.3168461,3.6864567,4.3187933,4.988476,5.610303,6.0354013,6.3921843,6.716834,6.9615164,7.1015224,7.1800556,7.219032,7.2149553,7.1799374,7.110133,6.997397,6.8432684,6.669798,6.51031,6.372221,6.2350855,6.082995,5.902276,5.707971,5.5253115,5.355658,5.1812143,5.018319,4.8640356,4.7000284,4.528015,4.3707485,4.2427597,4.136874,4.0468264,3.967259,3.8987808,3.8433917,3.8065376,3.7887392,3.7742727,3.7611256,3.7487733,3.7372408,3.7267194,3.717618,3.7101884,3.7041845,3.6991448,3.6941977,3.6888707,3.6846719,3.6822543,3.680943,3.680535,3.6803198,3.6796103,3.6791606,3.679224,3.6795683,3.679824,3.6796975,3.679057,3.6781597,3.6771808,3.6762884,3.6756587,3.6753616,3.675447,3.676128,3.6774611,3.679408,3.6818109,3.6842823,3.6864815,3.6882834,3.689649,3.6906164,3.69116,3.6913846,3.6914692,3.691617,3.691993,3.6926441,3.693502,3.6948147,3.696621,3.6988976,3.7015376,3.7044737,3.7077506,3.7114105,3.715839,3.720467,3.7248645,3.7291403,3.732894,3.7354379,3.7375417,3.7392626,3.7406056,3.7416472,3.7424858,3.743258,3.744078,3.7449121,3.7457495,3.746675,3.7477326,3.748895,3.7501893,3.751635,3.7530909,3.754413,3.7555628,3.7563782,3.7567477,3.7566586,3.7562516,3.755745,3.755268,3.7548726,3.7546163,3.7543883,3.7540255,3.7534509,3.7527115,3.7519376,3.7512395,3.7507617,3.7505856,3.7506225,3.7506769,3.7506094,3.7504447,3.7503269,3.7503915,3.7507024,3.751204,3.7517543,3.7522001,3.7524395,3.7524686,3.7523289,3.7521071,3.7518835,3.751744,3.7517452,3.75188,3.7520976,3.752344,3.7526488,3.753,3.7534332,3.7539792,3.7546055,3.755238,3.7559156,3.756747,3.7578723,3.7594018,3.7612414,3.7631173,3.7647913,3.7661414,3.767176,3.767902,3.7683542,3.7686129,3.7686734,3.76842,3.7679155,3.7672582,3.7665954,3.7660937,3.765779,3.7655292,3.7652473,3.7649386,3.7646904,3.7646394,3.7648141,3.765172,3.7656484,3.7661765,3.7668047,3.7676482,3.7686436,3.7696466,3.7705016,3.7711096,3.7714238,3.7714272,3.7711015,3.7703738,3.7693696,3.7683797,3.7676854,3.767387,3.7674074,3.7675982,3.7678494,3.7681766,3.7686312,3.769208,3.769803,3.7702856,3.7705922,3.770705,3.7706413,3.7704363,3.770094,3.7696433,3.7691474,3.7685642,3.7678347,3.766882,3.7658072,3.764771,3.7639666,3.7635446,3.7634845,3.7636256,3.7637749,3.7639685,3.7642446,3.764576,3.764903,3.765207,3.7655501,3.7660282,3.766786,3.7677412,3.76873,3.7695854,3.7701313,3.7703,3.770083,3.7695699,3.768773,3.7679405,3.7671146,3.7660422,3.7649868,3.7639427,3.7630122,3.7624836,3.7625835,3.7630575,3.7633488,3.7632713,3.763389,3.763506,3.7636263,3.7638106,3.7640107,3.7641003,3.7640634,3.7640088,3.7638185,3.7635617,3.763308,3.7632086,3.763212,3.7629666,3.7624283,3.761423,3.7597482,3.7574937,3.75494,3.7523613,3.7498791,3.7473974,3.7449176
3.172236,3.1696415,3.1658676,3.1605952,3.1566923,3.15445,3.1526308,3.1516585,3.1513593,3.1520686,3.1546364,3.158658,3.163508,3.1688068,3.1742349,3.1793556,3.1840966,3.1897416,3.1971736,3.2054806,3.2142081,3.2234945,3.2323365,3.2436047,3.2490044,3.2454636,3.2417383,3.2376733,3.227568,3.21737,3.2149928,3.2191532,3.2333121,3.2422767,3.2425659,3.2520895,3.3077812,3.4710429,3.74122,4.061758,4.3904343,4.6577473,4.831373,4.9393935,4.993638,5.0142984,4.9981127,4.9489355,4.8727818,4.7703643,4.645768,4.517356,4.3981,4.2795196,4.1648016,4.0674896,3.9936838,3.9367168,3.8904126,3.8564436,3.8206403,3.797659,3.7843113,3.772451,3.7599442,3.7483654,3.7370872,3.7259579,3.7151575,3.70518,3.6959805,3.686985,3.6781688,3.6708016,3.6636348,3.6562402,3.6492114,3.6431906,3.6384544,3.6348839,3.6321964,3.630186,3.6287813,3.6283283,3.6290512,3.631061,3.6341734,3.6378138,3.641685,3.6459575,3.6506572,3.6549673,3.6587784,3.6622462,3.6649685,3.6673062,3.6695852,3.6719854,3.6746025,3.677496,3.6806445,3.6839874,3.687499,3.6915007,3.6959023,3.7005117,3.7049541,3.7088685,3.712109,3.714676,3.7167454,3.7183495,3.7194972,3.720366,3.72118,3.722117,3.7232656,3.7245626,3.726306,3.7285066,3.7311227,3.7340274,3.737102,3.7403345,3.7437482,3.7476573,3.751186,3.7539096,3.756413,3.7584682,3.7592335,3.760004,3.760766,3.7614713,3.7622151,3.7630677,3.7640958,3.7653294,3.7666497,3.7680025,3.7694395,3.7708693,3.7720902,3.7730832,3.7739635,3.7746997,3.7752545,3.7756763,3.77595,3.7760463,3.7759893,3.7758782,3.7758102,3.7758448,3.7760072,3.7763264,3.776792,3.7772946,3.7777472,3.778136,3.7784305,3.7786813,3.778943,3.7792,3.7793212,3.779159,3.7786667,3.777924,3.777038,3.7761197,3.7752643,3.7745335,3.7739477,3.7734733,3.7730274,3.7725832,3.77212,3.7716885,3.7713356,3.771105,3.7710032,3.770985,3.7709785,3.7708898,3.7706866,3.7703586,3.7699332,3.7694702,3.769051,3.7687263,3.7684965,3.7684982,3.7688828,3.7697258,3.7708998,3.7721572,3.773346,3.7743044,3.7749708,3.7753592,3.7755146,3.7755299,3.7754521,3.7752323,3.7749076,3.77449,3.7741096,3.7739158,3.773922,3.7740467,3.7742429,3.7744355,3.7746422,3.7748208,3.7749293,3.7748935,3.7746625,3.7742476,3.7737708,3.7732518,3.772654,3.7719402,3.771153,3.7703602,3.7695951,3.7689023,3.768263,3.7676501,3.7671328,3.766848,3.7669082,3.7672727,3.767786,3.7684011,3.7689714,3.7694316,3.7697966,3.7700443,3.770143,3.770111,3.769919,3.7696052,3.769174,3.768674,3.768152,3.767672,3.7672858,3.7669077,3.766488,3.7659779,3.7654455,3.764964,3.7646122,3.7644525,3.7644491,3.7644925,3.7644296,3.7643347,3.764258,3.764222,3.764234,3.7642872,3.7644954,3.7650125,3.7660198,3.767498,3.769257,3.771093,3.772863,3.7744403,3.7760034,3.777619,3.7791848,3.7807872,3.782188,3.7828803,3.7832587,3.7835274,3.7836733,3.7838197,3.7841463,3.7843506,3.7837985,3.7824073,3.7813,3.7802274,3.7792737,3.7784896,3.7778358,3.7772403,3.776689,3.776258,3.7758088,3.7753043,3.774813,3.7744226,3.7740455,3.7734597,3.7726378,3.7714305,3.7697687,3.767832,3.7658703,3.7640505,3.7624068,3.760824,3.7593217
3.1600814,3.1585727,3.1561475,3.1527138,3.148623,3.1442354,3.1399765,3.1363323,3.133276,3.1309204,3.13162,3.133772,3.136054,3.1384115,3.1411157,3.1445174,3.148326,3.152745,3.158005,3.1634493,3.168886,3.1748137,3.1811528,3.188295,3.1968343,3.2105124,3.2306528,3.2424698,3.2337432,3.2164736,3.2063198,3.1985493,3.1955924,3.2007704,3.2142024,3.2333908,3.2582479,3.2943866,3.327552,3.3597035,3.3930418,3.4314642,3.4753647,3.519998,3.560556,3.5970654,3.6261122,3.6442072,3.6474624,3.6445563,3.6472564,3.6502814,3.6521075,3.6535475,3.6553726,3.6582677,3.6618223,3.665209,3.6683836,3.6716592,3.6752887,3.6772323,3.676229,3.6729665,3.668923,3.6648679,3.6611035,3.6576958,3.654525,3.6515012,3.6482394,3.6449766,3.6423893,3.64014,3.6377497,3.6350713,3.632289,3.6297255,3.6278124,3.6267962,3.6264627,3.6267805,3.6277685,3.6296365,3.6325269,3.6364408,3.6411092,3.6460094,3.6509426,3.6561909,3.6618245,3.6656842,3.6679163,3.669615,3.670199,3.6706953,3.6711106,3.6715126,3.6718845,3.6722453,3.672617,3.6729875,3.6733565,3.6739793,3.6747131,3.6755838,3.6765442,3.6774545,3.6782289,3.678883,3.6794462,3.679841,3.679982,3.6799707,3.6799536,3.6800113,3.6801841,3.680486,3.6810203,3.6817844,3.6827197,3.6837358,3.6847258,3.6856203,3.686428,3.6872673,3.6882646,3.6893983,3.6905537,3.6916585,3.6927137,3.6936839,3.6946163,3.6956172,3.6967359,3.6979542,3.6992774,3.7007163,3.702177,3.7036533,3.7051978,3.706709,3.7081056,3.7093287,3.7103543,3.7111933,3.711851,3.7123904,3.712802,3.713054,3.713163,3.7132177,3.713304,3.7134638,3.7137198,3.7141469,3.7146778,3.7151608,3.7155042,3.7156985,3.7157388,3.715671,3.7155385,3.7153087,3.7149184,3.7143488,3.7136488,3.7128985,3.7121053,3.7113123,3.7105427,3.7098813,3.7093782,3.7089782,3.70859,3.7082176,3.7078185,3.7074273,3.7070959,3.7068663,3.7067287,3.7066278,3.7064996,3.7062848,3.7059805,3.705631,3.7053077,3.70506,3.7049098,3.7048752,3.7049232,3.7051623,3.7057042,3.7066126,3.7078018,3.7090778,3.710291,3.7113152,3.7120788,3.7125642,3.7128587,3.7130818,3.7132635,3.7133412,3.713327,3.7132452,3.7131891,3.7132797,3.7135172,3.713818,3.7141366,3.714428,3.7147403,3.715054,3.715351,3.7155695,3.715651,3.7155757,3.7154045,3.715183,3.714876,3.714436,3.7139354,3.7134519,3.7129908,3.712594,3.7122476,3.711934,3.71169,3.711595,3.7117062,3.7119803,3.712315,3.7126646,3.712921,3.7130203,3.7129664,3.7127469,3.71237,3.711904,3.7113552,3.7107472,3.7101235,3.709536,3.709023,3.7086315,3.708384,3.708149,3.7078686,3.7074885,3.7070518,3.7066002,3.7062068,3.7059495,3.7057981,3.7056713,3.7054276,3.7051482,3.7048886,3.7046728,3.7044983,3.7043395,3.704292,3.704445,3.7050023,3.7059298,3.707057,3.7082334,3.7093563,3.7103462,3.7113729,3.7125077,3.713676,3.7149124,3.7162657,3.7176194,3.718832,3.7199323,3.7209935,3.72202,3.7229543,3.7238193,3.724731,3.7256942,3.7266228,3.7275023,3.728312,3.729063,3.7297492,3.7303789,3.731019,3.7316685,3.732307,3.7327743,3.7330914,3.7332797,3.733283,3.73308,3.7326365,3.731994,3.7311392,3.7302465,3.7294943,3.7289085,3.7284,3.7278938,3.7273805
3.1460152,3.1452234,3.1436362,3.1408381,3.1374998,3.1341815,3.1309795,3.1279645,3.1251788,3.1229377,3.1211941,3.1196923,3.1179965,3.1160817,3.114814,3.1154625,3.11737,3.1201825,3.1241205,3.1285393,3.1332607,3.1387053,3.1445727,3.151308,3.1590638,3.1726756,3.1896544,3.205113,3.2180204,3.228895,3.232211,3.215805,3.190739,3.1736417,3.1706707,3.176466,3.1852708,3.19662,3.2096038,3.226712,3.250618,3.2780166,3.304597,3.33012,3.3549137,3.3801248,3.4063444,3.430932,3.4519167,3.4685626,3.4811535,3.490784,3.4989302,3.507023,3.515534,3.5253024,3.5365844,3.5488563,3.5614858,3.5744748,3.5882,3.601666,3.6132264,3.6226487,3.6309114,3.6380024,3.6417542,3.6453319,3.6487312,3.6523054,3.6520238,3.647473,3.643581,3.6399727,3.6360998,3.6317713,3.6272237,3.622779,3.6188488,3.615686,3.6131182,3.6111107,3.6094947,3.608404,3.60787,3.6079187,3.6084654,3.609228,3.610124,3.6110873,3.6122408,3.6135883,3.6150544,3.616497,3.6176867,3.618466,3.6191978,3.619923,3.6205983,3.621189,3.6216803,3.6221662,3.6229186,3.6238942,3.6252007,3.6266494,3.628123,3.6295586,3.63091,3.632193,3.6334305,3.634574,3.635487,3.6362271,3.6369185,3.6376352,3.6383986,3.6392088,3.640204,3.6413813,3.642712,3.6441574,3.6456318,3.6470275,3.6482968,3.6495838,3.65092,3.6522913,3.6536503,3.6549568,3.6561983,3.6573458,3.658492,3.6597219,3.6610665,3.6624908,3.6639645,3.6654792,3.666976,3.6684804,3.670081,3.6716766,3.6731625,3.6744626,3.6755571,3.676474,3.6772494,3.6779609,3.678586,3.6790612,3.6793957,3.6796854,3.6799912,3.68033,3.6807108,3.68119,3.6817079,3.6821337,3.6824086,3.6825442,3.6825223,3.6823735,3.6821263,3.6816716,3.6809988,3.6801703,3.679256,3.678351,3.6774335,3.6765523,3.675774,3.6751227,3.6746097,3.6742086,3.6738355,3.673466,3.6730509,3.6726255,3.6722503,3.6719747,3.6717849,3.6716197,3.67142,3.6711621,3.6708503,3.6705632,3.6703944,3.6703691,3.6704588,3.6706371,3.6708531,3.6711907,3.6717243,3.6725209,3.67355,3.674674,3.6757631,3.6767132,3.6774921,3.6781063,3.6785998,3.6790552,3.6794991,3.6798584,3.6801324,3.6803226,3.6805031,3.6807697,3.6811454,3.6815708,3.681977,3.682309,3.6826367,3.6829576,3.6832926,3.6836061,3.6838388,3.6839447,3.6839461,3.6838846,3.6837392,3.6834779,3.6831388,3.682804,3.682526,3.6823292,3.682211,3.6821675,3.6822,3.6823153,3.6825247,3.6827939,3.6830535,3.6832721,3.6833582,3.68325,3.6829302,3.6824036,3.6817284,3.6810129,3.6802816,3.6795661,3.678904,3.678337,3.6778865,3.6775765,3.6774025,3.6772377,3.6770444,3.6767771,3.67646,3.676095,3.675725,3.675426,3.6751862,3.6749563,3.674617,3.6742454,3.6738834,3.6735466,3.6732366,3.6729348,3.6727223,3.672662,3.6729596,3.6735706,3.6743345,3.6751454,3.6759577,3.676712,3.6775851,3.678626,3.6798081,3.681076,3.682352,3.6835327,3.6845193,3.6854243,3.6862755,3.687067,3.6877277,3.6882136,3.6886005,3.6890006,3.6893835,3.6897573,3.6900904,3.6903791,3.6906319,3.6908832,3.6912062,3.691565,3.6918888,3.692,3.6919413,3.6917572,3.6914349,3.6910233,3.6904817,3.6898446,3.6891212,3.688439,3.6879272,3.687598,3.687356,3.6871133,3.6868978
3.1268067,3.1256204,3.1249096,3.1240122,3.1229372,3.1217332,3.12037,3.118966,3.1176004,3.1165898,3.1157727,3.1146483,3.112728,3.1101758,3.1076503,3.1054723,3.103723,3.1024563,3.1019197,3.1020172,3.1027884,3.1048598,3.1088777,3.1140676,3.1206686,3.1323168,3.1474538,3.1630611,3.1772585,3.1882477,3.1951048,3.1997232,3.2001877,3.1944833,3.1805787,3.1634722,3.153029,3.1481154,3.1482084,3.1538668,3.1636972,3.1766567,3.1921444,3.2096958,3.2295918,3.2522953,3.278657,3.3060741,3.3324327,3.3561983,3.3765411,3.3940182,3.409821,3.4262574,3.4430966,3.4607615,3.4795115,3.4992175,3.5186799,3.532475,3.5463111,3.560225,3.5737045,3.5840054,3.5884538,3.5881495,3.587827,3.587348,3.5866585,3.5855627,3.5834048,3.580412,3.5776086,3.574861,3.5717902,3.5682273,3.564353,3.5604846,3.5570526,3.5543175,3.5521228,3.5504632,3.5493164,3.5486712,3.5486517,3.549262,3.550304,3.5515647,3.5529437,3.5543408,3.55584,3.557493,3.559239,3.5609455,3.5624704,3.5637646,3.5650587,3.566424,3.5676904,3.5688257,3.5698776,3.5708885,3.572005,3.5732927,3.5747838,3.576377,3.577981,3.5795412,3.581059,3.582559,3.5840569,3.585525,3.5868082,3.5879455,3.5890508,3.590198,3.59142,3.592699,3.5942173,3.595961,3.5978851,3.5999508,3.6020498,3.60402,3.6058176,3.607579,3.6093192,3.6110272,3.6126742,3.6142406,3.6157331,3.617135,3.6185656,3.6200843,3.6217031,3.6233652,3.6250155,3.6266367,3.628189,3.6297343,3.6313725,3.6330137,3.6345525,3.6358972,3.637012,3.6379275,3.6387002,3.6394148,3.6400676,3.6406136,3.6410508,3.6414495,3.6418686,3.6423354,3.6428757,3.6434941,3.644115,3.6446106,3.6449232,3.6450663,3.645028,3.6448202,3.6444561,3.6439002,3.6431584,3.6422966,3.641405,3.6405656,3.6397462,3.6389723,3.638297,3.6377463,3.6373396,3.637056,3.636808,3.63657,3.636291,3.6359944,3.635737,3.6355722,3.6354809,3.635385,3.6352358,3.6350412,3.6348124,3.6346455,3.6346478,3.6348321,3.6351385,3.6355271,3.635945,3.6364632,3.6371322,3.638011,3.6390944,3.6402836,3.6414557,3.6425247,3.6434655,3.6442618,3.6449418,3.6455808,3.6462073,3.6467628,3.6472423,3.6476312,3.6479764,3.648357,3.6488109,3.6493044,3.6497843,3.6502042,3.6506362,3.6510706,3.6515384,3.6520114,3.6524312,3.652744,3.6529388,3.6530523,3.6530824,3.6530004,3.652844,3.6526937,3.6525998,3.6525722,3.6526132,3.6527371,3.6529317,3.6531754,3.6534548,3.653741,3.6539903,3.654179,3.6542459,3.6541162,3.6537561,3.6531675,3.6524153,3.6516209,3.6508262,3.6500483,3.649341,3.6487446,3.6482697,3.6479359,3.6477447,3.64756,3.6473513,3.647066,3.646721,3.646307,3.6458738,3.645511,3.645213,3.6449127,3.6445045,3.6440434,3.6435733,3.643118,3.6426768,3.642221,3.641819,3.6414933,3.6414678,3.6417103,3.6420794,3.6424983,3.6429377,3.6433525,3.64389,3.6445973,3.6454573,3.6463923,3.6472917,3.6480477,3.6485908,3.6490238,3.6493795,3.649635,3.6497207,3.649599,3.6493545,3.6491492,3.6489735,3.6488335,3.6487234,3.648615,3.6485124,3.6484718,3.6485407,3.6486726,3.6487665,3.6486342,3.6483066,3.6478415,3.6472728,3.6466925,3.646058,3.6453915,3.6447306,3.6441731,3.6438146,3.6436455,3.6435513,3.6434402,3.6433406
3.1133924,3.1111465,3.1098022,3.109052,3.1086524,3.1089087,3.1098833,3.110992,3.1121004,3.112834,3.1133828,3.1132817,3.1120806,3.109817,3.1068568,3.1034222,3.099617,3.0956411,3.0919583,3.087901,3.0839906,3.0817542,3.0811982,3.0826275,3.0865827,3.095097,3.1075554,3.1221528,3.1366682,3.1488445,3.1594858,3.1712918,3.1819918,3.1886878,3.190443,3.1907272,3.1924572,3.1885672,3.1841736,3.1799736,3.1775448,3.178837,3.1846797,3.194965,3.2102032,3.229878,3.2551205,3.2837806,3.3137388,3.3428652,3.3696105,3.3940704,3.4172251,3.4350586,3.450642,3.4661956,3.4824357,3.4992075,3.514337,3.5206547,3.52739,3.5340223,3.5397365,3.5431638,3.5434518,3.541602,3.5401206,3.5385485,3.5366907,3.5342484,3.5315075,3.5288284,3.5261564,3.5234747,3.520484,3.5170283,3.513318,3.5096803,3.5064988,3.5039747,3.501954,3.5004594,3.4994135,3.4988637,3.4988666,3.499415,3.5003693,3.5015092,3.5027514,3.5039902,3.5052834,3.5066633,3.508092,3.5094712,3.5106864,3.511767,3.5128727,3.5140815,3.5152903,3.516446,3.5175452,3.5185983,3.5196936,3.5209196,3.5222898,3.5237417,3.5252123,3.5266638,3.528118,3.5296106,3.531157,3.5327554,3.5342684,3.5357194,3.5371995,3.5387688,3.5404427,3.5422041,3.5442705,3.5466256,3.5492067,3.5519552,3.5547435,3.5573819,3.559803,3.56217,3.5644894,3.5667176,3.5688186,3.5707817,3.5726175,3.5743191,3.5760329,3.577805,3.57963,3.581436,3.5831594,3.5847836,3.586297,3.58779,3.5893893,3.5910244,3.5925937,3.5939941,3.5951724,3.596143,3.596968,3.5977302,3.5984159,3.5989876,3.5994515,3.5998821,3.60035,3.6008937,3.6015458,3.602284,3.6030226,3.6036315,3.6040459,3.6042647,3.604276,3.6040816,3.6037025,3.6031365,3.602413,3.601612,3.6008325,3.6001382,3.599493,3.5989175,3.5984397,3.5980988,3.5979245,3.5978794,3.5978599,3.597836,3.5977592,3.597652,3.5975723,3.5975664,3.597602,3.5975938,3.5975084,3.5973825,3.5972412,3.5972013,3.5973816,3.5977826,3.5983198,3.5989456,3.5996165,3.6003783,3.6012623,3.602315,3.6035423,3.6048746,3.6062012,3.6074755,3.6086516,3.6096854,3.61059,3.6114304,3.6122327,3.6129446,3.6135664,3.6140718,3.614513,3.6149406,3.615401,3.6159072,3.6164315,3.6169415,3.6175122,3.6181302,3.6188226,3.6195674,3.6203012,3.620942,3.621451,3.621871,3.6221914,3.6223943,3.62252,3.6226377,3.6227808,3.6229444,3.6231368,3.623385,3.623677,3.62398,3.624273,3.6245356,3.6247497,3.6249125,3.6249938,3.6249175,3.624638,3.6241345,3.6234555,3.6227164,3.6219616,3.6212182,3.620524,3.6199055,3.619374,3.6189551,3.6186566,3.6183677,3.618051,3.617657,3.6171942,3.6166558,3.616099,3.6156259,3.6152372,3.6148705,3.614406,3.6138802,3.6133246,3.612768,3.6122122,3.6116176,3.6110287,3.6104288,3.6100492,3.6098714,3.6097927,3.6097753,3.6098046,3.6098394,3.6099706,3.610239,3.6106348,3.6110795,3.6114626,3.6116953,3.6117377,3.6116495,3.6114588,3.6111538,3.6106746,3.6099863,3.609177,3.60844,3.6077754,3.6071987,3.6067338,3.6063406,3.6060061,3.6057749,3.605671,3.605636,3.6055503,3.605229,3.604693,3.6040077,3.6032403,3.6025152,3.6017919,3.6010876,3.600447,3.59994,3.599636,3.599511,3.5994396,3.5993245,3.5991845
3.1130967,3.106367,3.1016693,3.097967,3.0962918,3.0963578,3.09696,3.098096,3.1002111,3.1025772,3.1049018,3.106632,3.1069193,3.1056688,3.1035671,3.1007764,3.0972862,3.093276,3.089087,3.084164,3.0787306,3.0738573,3.0699186,3.0682411,3.0690277,3.0736504,3.082086,3.0931697,3.1053247,3.117113,3.1280937,3.1385655,3.1487236,3.158853,3.1697795,3.1816165,3.1920617,3.19669,3.1995864,3.2015958,3.2044969,3.209463,3.2170439,3.2271237,3.2384021,3.2536077,3.2739322,3.2982583,3.3251154,3.3522327,3.3771434,3.3989282,3.4195268,3.4349353,3.447194,3.4577813,3.4672582,3.4758358,3.482859,3.4857733,3.4892871,3.4930804,3.4956746,3.4965787,3.496632,3.4965699,3.4962263,3.4957395,3.4949498,3.4936814,3.4919305,3.4899197,3.4878807,3.4858289,3.4835289,3.4808674,3.4779642,3.475106,3.4726515,3.4707508,3.4692187,3.468131,3.4673903,3.4671,3.4672642,3.4678845,3.468884,3.4700234,3.4712472,3.4724932,3.4737878,3.4751582,3.476562,3.4779022,3.4790788,3.4801161,3.4811878,3.48237,3.4836197,3.484873,3.4860778,3.4872258,3.4883776,3.4896178,3.4909773,3.4923964,3.4938388,3.4952912,3.4967813,3.498351,3.5000234,3.5018277,3.5036411,3.505448,3.507294,3.5092125,3.511193,3.5132337,3.5155685,3.5181813,3.5210085,3.5239892,3.5270176,3.5299344,3.532651,3.535361,3.5380673,3.5407019,3.54321,3.5455704,3.5477753,3.5498104,3.5518365,3.5538988,3.5559688,3.5579667,3.5598183,3.561503,3.5630255,3.5644925,3.5660424,3.567649,3.5692291,3.5706842,3.5719547,3.573031,3.5739627,3.5748286,3.5755992,3.5762322,3.5767436,3.57722,3.5777369,3.5783398,3.579064,3.579874,3.5806825,3.5813632,3.5818448,3.5821176,3.5821743,3.5820088,3.5816467,3.5811017,3.5804086,3.5796432,3.5788932,3.5782008,3.577532,3.5768995,3.5763402,3.575911,3.5756514,3.5755324,3.5754633,3.575406,3.5753126,3.5752275,3.5752149,3.5753098,3.5754566,3.5755477,3.5755515,3.5755181,3.575482,3.5755653,3.5758848,3.576428,3.5770972,3.5778494,3.5786524,3.5795388,3.5805368,3.5816956,3.5830321,3.584498,3.5859904,3.5874548,3.5888715,3.5901577,3.591304,3.5923624,3.5933523,3.594235,3.5950165,3.5956783,3.5962574,3.5967813,3.5972962,3.5978427,3.598415,3.5989876,3.5996313,3.6003234,3.6010818,3.6018949,3.6027105,3.603447,3.6040616,3.6045961,3.6050382,3.605388,3.6056833,3.6059818,3.6063027,3.606619,3.6069498,3.6073189,3.60772,3.6081102,3.6084552,3.6087384,3.6089575,3.6091232,3.609232,3.6092076,3.6090028,3.6085806,3.6079702,3.6072798,3.606553,3.605825,3.6051126,3.604436,3.6038103,3.6032662,3.6028225,3.6024034,3.601954,3.6014404,3.600863,3.600211,3.59955,3.5989897,3.5985293,3.5981147,3.5976038,3.5970237,3.596402,3.5957782,3.5951645,3.5945098,3.5938325,3.593089,3.5924964,3.5920424,3.591659,3.5913439,3.5910945,3.5908635,3.5906997,3.5906296,3.5906415,3.5906746,3.5906467,3.5904975,3.5901995,3.5897827,3.5892668,3.5886471,3.587874,3.5869038,3.5858068,3.5847821,3.5838273,3.5829694,3.5822575,3.5816462,3.5811024,3.580657,3.5803332,3.58007,3.5797696,3.579278,3.57861,3.5778239,3.5769925,3.5762386,3.575507,3.5748181,3.5742059,3.5737123,3.5733867,3.5732033,3.5730484,3.5728295,3.5725524
3.138626,3.1219487,3.1084113,3.0994163,3.0943463,3.0907419,3.0875869,3.0861297,3.0862637,3.0875547,3.0899277,3.0926375,3.0945525,3.0952039,3.0948772,3.093635,3.0918305,3.0894022,3.0864315,3.0828896,3.0786824,3.0740004,3.0695207,3.0660276,3.0638132,3.064381,3.06814,3.0743134,3.081902,3.090219,3.0983825,3.1070986,3.1160178,3.1246789,3.1329966,3.141076,3.1491807,3.1583505,3.168318,3.1792946,3.1907468,3.2020478,3.2133625,3.2246375,3.2340784,3.2457023,3.260541,3.2784038,3.298746,3.3203382,3.3410306,3.3587794,3.3752956,3.39094,3.404423,3.4149575,3.4224625,3.4275885,3.4315448,3.4358816,3.440379,3.4451623,3.449067,3.4514456,3.452732,3.4535437,3.4541237,3.4546013,3.4549103,3.4548965,3.4545135,3.4539075,3.4532607,3.4525912,3.4517634,3.450728,3.449422,3.448049,3.4469311,3.4461675,3.4455812,3.445324,3.4453678,3.445787,3.4466054,3.4478517,3.4494476,3.4511442,3.452902,3.4547176,3.4565768,3.458457,3.4603035,3.4620452,3.4636052,3.465005,3.466446,3.468009,3.4696388,3.4712749,3.4728644,3.474371,3.475808,3.4772868,3.478871,3.480506,3.48217,3.48386,3.485591,3.4873972,3.4893155,3.4914098,3.49356,3.4957056,3.4978447,3.499985,3.5021038,3.5042162,3.5065627,3.5091343,3.5118742,3.5147386,3.5176528,3.5204978,3.52322,3.5260186,3.5288782,3.5317178,3.5344775,3.5371203,3.5396194,3.5419443,3.544261,3.5466127,3.5489545,3.5511982,3.5532486,3.5550678,3.5566828,3.5582073,3.5597668,3.5613766,3.5629864,3.564516,3.5659058,3.5671196,3.5681837,3.5691805,3.5700662,3.570798,3.5713968,3.5719528,3.5725389,3.5732079,3.5739987,3.574864,3.5757198,3.5764418,3.5769525,3.5772405,3.5773075,3.5771446,3.5767725,3.5762196,3.5755064,3.5746884,3.5738397,3.572989,3.5720892,3.5711439,3.57022,3.5693994,3.5687351,3.5682225,3.5678127,3.5674622,3.5671167,3.566855,3.5667472,3.5668182,3.566989,3.5671172,3.5671659,3.567185,3.5672102,3.5673585,3.567739,3.5683308,3.5690317,3.5698009,3.5706172,3.5715044,3.572504,3.573681,3.5750673,3.5766253,3.57825,3.57986,3.581458,3.5829306,3.5842674,3.5855107,3.5866666,3.587717,3.5886776,3.5895426,3.590323,3.5910244,3.5916796,3.5923295,3.5929775,3.593605,3.5942707,3.5949373,3.5956125,3.5963008,3.5969825,3.5976017,3.598135,3.5986109,3.5990272,3.5994034,3.59977,3.6001706,3.6006155,3.6010494,3.601502,3.601985,3.6024938,3.6029754,3.6033826,3.6036959,3.6039252,3.6040852,3.6041934,3.6041718,3.6039834,3.603591,3.6030083,3.6023364,3.6016178,3.6008856,3.60014,3.5994015,3.598683,3.5980134,3.597427,3.5968747,3.5962894,3.5956483,3.5949502,3.5941823,3.5934203,3.592781,3.5922627,3.5918024,3.5912497,3.590625,3.5899632,3.5893216,3.5887213,3.5880969,3.5874398,3.5866828,3.586023,3.5854402,3.5848927,3.584414,3.5840092,3.5836277,3.5832882,3.5830016,3.5827541,3.582508,3.5822196,3.5818543,3.5813766,3.5808036,3.58015,3.5794053,3.5785258,3.5774586,3.5762458,3.5750732,3.573923,3.5728376,3.571886,3.5710273,3.5702162,3.5694747,3.568842,3.5682774,3.5677109,3.5670457,3.5662935,3.5654988,3.5647206,3.5640447,3.5633962,3.5627956,3.562258,3.5618,3.5614498,3.5611904,3.5609355,3.5605989,3.5601845
3.182835,3.159348,3.1374526,3.1224954,3.1113496,3.1011186,3.0925684,3.0864139,3.0812771,3.077937,3.0767922,3.077293,3.0788608,3.080678,3.081798,3.0821612,3.08208,3.0814679,3.0803308,3.0784104,3.0758333,3.0728679,3.0692291,3.0650563,3.0613372,3.0594544,3.059825,3.0622675,3.0662923,3.0711408,3.0765333,3.0828938,3.089838,3.0971537,3.1048975,3.1130528,3.1212015,3.128699,3.1360865,3.1433163,3.1503818,3.157131,3.1637454,3.1709452,3.1792374,3.1888328,3.2008052,3.2153304,3.232668,3.2527766,3.2745283,3.2958174,3.3163414,3.3365636,3.3551722,3.3707538,3.382728,3.391542,3.3980277,3.4031818,3.4079597,3.4120345,3.4151478,3.4173484,3.4189487,3.4202957,3.4215977,3.4230247,3.424416,3.4255419,3.4263434,3.4269495,3.42749,3.4279735,3.4283724,3.4286842,3.428763,3.4287434,3.4288497,3.429113,3.4294164,3.4299555,3.43075,3.4318504,3.433288,3.4351058,3.437233,3.439416,3.441624,3.4438767,3.4461365,3.4483638,3.4505157,3.45255,3.454404,3.4561005,3.457847,3.4597228,3.4616628,3.463604,3.465489,3.4672685,3.468926,3.470608,3.4724064,3.4742675,3.476171,3.478102,3.4800544,3.4820466,3.4841304,3.4863877,3.4887044,3.4909964,3.4932332,3.4954128,3.4975178,3.4995666,3.5018086,3.5042465,3.5068336,3.5095425,3.5123143,3.5150456,3.5177193,3.5205245,3.523427,3.5263376,3.529204,3.5319896,3.5346556,3.53716,3.5396662,3.54221,3.5447378,3.547157,3.5493598,3.551299,3.5530176,3.5546277,3.5562568,3.5579333,3.5596251,3.5612636,3.5627875,3.5641441,3.5653439,3.5664778,3.5674906,3.568346,3.5690684,3.5697358,3.5704093,3.5711417,3.571982,3.5728855,3.573779,3.5745382,3.5750747,3.5753708,3.5754333,3.5752563,3.574862,3.5742793,3.573514,3.5726066,3.571624,3.5705943,3.569449,3.5681906,3.5668955,3.5656674,3.5645833,3.5636616,3.5628743,3.5621834,3.5615249,3.5610118,3.5607162,3.5606508,3.5607166,3.5607505,3.56071,3.5606468,3.5606017,3.5607018,3.5610633,3.5616555,3.5623603,3.5631323,3.5639455,3.5648072,3.565774,3.5669208,3.5682943,3.5698667,3.5715227,3.5731921,3.5748463,3.5763645,3.5777597,3.5790792,3.5803185,3.5814734,3.5825672,3.583602,3.584571,3.585452,3.5862582,3.5870159,3.5877295,3.5883915,3.5890548,3.589673,3.5902526,3.5908175,3.5913808,3.591907,3.5923867,3.5928435,3.5932775,3.59372,3.5941896,3.5947123,3.5952876,3.5958414,3.5964046,3.5969796,3.5975492,3.598058,3.5984547,3.5987236,3.598896,3.5989916,3.5990398,3.5989723,3.5987659,3.5983894,3.5978448,3.5972185,3.5965495,3.5958652,3.595151,3.5944233,3.5936866,3.592959,3.5922816,3.5916224,3.5909157,3.590135,3.5892935,3.5883856,3.5874965,3.5867543,3.5861588,3.5856435,3.585056,3.5844054,3.583737,3.5831225,3.582581,3.5820322,3.5814452,3.5807204,3.580039,3.579364,3.578679,3.5780582,3.5775166,3.5770144,3.5765402,3.5760946,3.575669,3.5752451,3.57481,3.574348,3.573803,3.5731869,3.5725043,3.5717425,3.570859,3.5697875,3.568542,3.5672932,3.5659928,3.5647035,3.5635147,3.5624003,3.5613198,3.560298,3.5593822,3.5585556,3.5577557,3.5569477,3.5561423,3.5553713,3.5546775,3.5541043,3.5535746,3.5531058,3.5526924,3.552329,3.5520182,3.5517447,3.5514557,3.5510745,3.5506058
3.2135391,3.1982605,3.1807156,3.1617136,3.1438026,3.1284356,3.1146054,3.1008763,3.088135,3.0792272,3.072176,3.0672832,3.0648527,3.0645995,3.0658145,3.0675213,3.0686212,3.0698357,3.0709605,3.0714414,3.0709167,3.069338,3.0668325,3.0643444,3.0621157,3.0607924,3.0602994,3.0607595,3.0623498,3.0646107,3.0673199,3.0706303,3.0742922,3.0782776,3.0828836,3.0882177,3.093841,3.0991793,3.1045103,3.1098137,3.114684,3.1187053,3.1224537,3.1270573,3.1324897,3.139225,3.1484463,3.1606002,3.1767368,3.1967905,3.2192097,3.2425153,3.2661529,3.2904134,3.3139367,3.3347208,3.3515158,3.364235,3.3733304,3.3801384,3.3859138,3.3906488,3.3943546,3.397213,3.3996649,3.402166,3.4047418,3.4075599,3.4102967,3.4126184,3.4145026,3.4160857,3.417439,3.4186296,3.4197435,3.4208174,3.4217227,3.4225543,3.4234679,3.4244604,3.4254084,3.4264865,3.4277802,3.429344,3.4311957,3.4333568,3.4357505,3.438139,3.4404888,3.4428458,3.445168,3.4474514,3.449689,3.451843,3.4538374,3.4556832,3.4575834,3.4595954,3.4616385,3.4636421,3.4655547,3.4673443,3.4690194,3.47075,3.4725933,3.4744935,3.4764295,3.4783869,3.4803624,3.4823606,3.4844398,3.4866793,3.4889627,3.4911928,3.493325,3.49536,3.4972982,3.499146,3.5011497,3.5033212,3.5056345,3.5080853,3.510654,3.5132613,3.5158186,3.5185266,3.5213566,3.5242367,3.5271187,3.529962,3.5327196,3.535335,3.5379562,3.540607,3.543226,3.5457191,3.5480037,3.5500517,3.5518625,3.5535464,3.555255,3.5570345,3.5588403,3.5605893,3.562223,3.5636969,3.5650144,3.5662823,3.5674462,3.5684793,3.5693927,3.5702298,3.5710216,3.5717914,3.5726228,3.573491,3.574335,3.5750444,3.5755363,3.5757885,3.575817,3.575611,3.575189,3.5745893,3.5738068,3.572861,3.571807,3.570664,3.569374,3.5679235,3.5663772,3.5648344,3.563406,3.5621438,3.5610223,3.5600162,3.5590472,3.5582702,3.557754,3.5574903,3.557365,3.557209,3.5569777,3.5567317,3.5565271,3.5565078,3.5568075,3.5573866,3.5580912,3.5588713,3.559671,3.5604832,3.561374,3.56242,3.563675,3.5651295,3.5666738,3.5682352,3.5697865,3.571217,3.5725412,3.5738144,3.5750453,3.5762331,3.5774019,3.5785565,3.5796576,3.5806618,3.5815592,3.5823572,3.5830576,3.5836627,3.5842276,3.5847178,3.5851517,3.5855732,3.5860176,3.5864666,3.5869074,3.5873616,3.587831,3.5883482,3.5889168,3.5895462,3.5902295,3.5908852,3.5915391,3.592186,3.5927854,3.593275,3.5936067,3.5937815,3.5938587,3.5938635,3.593814,3.5936787,3.593449,3.593093,3.5926065,3.5920608,3.5914907,3.590912,3.5903058,3.5896835,3.5890348,3.5883613,3.5876951,3.5870075,3.5862384,3.5853562,3.5843987,3.5833766,3.5823824,3.5815516,3.5808816,3.5803318,3.579732,3.579084,3.5784435,3.577886,3.5774202,3.576961,3.5764666,3.5758104,3.5751548,3.5744393,3.5736582,3.5729165,3.5722494,3.5716438,3.5710697,3.5705323,3.5700326,3.569566,3.5691395,3.5687463,3.5683107,3.567844,3.5673478,3.5667982,3.5661469,3.5653043,3.564244,3.563116,3.5618505,3.5605159,3.5592136,3.5579386,3.5566812,3.555487,3.5544074,3.5534177,3.552473,3.5515873,3.5507677,3.550031,3.5494094,3.54892,3.548491,3.548149,3.5478694,3.547631,3.547412,3.5471768,3.546887,3.5465193,3.5460548
3.2156758,3.2054276,3.1964717,3.1872811,3.1762784,3.1627674,3.1468327,3.129447,3.1131454,3.0960784,3.0795736,3.0672765,3.0603461,3.0569086,3.0550768,3.0549672,3.0567462,3.0592208,3.0619986,3.064495,3.0661745,3.066753,3.066137,3.0648212,3.0632296,3.0618348,3.0609307,3.060628,3.0608196,3.0611167,3.060845,3.060836,3.0611677,3.0619903,3.0635984,3.0660954,3.0691051,3.0720062,3.0751863,3.078821,3.0825007,3.0855832,3.0881732,3.0910234,3.094326,3.0989356,3.105741,3.115429,3.129143,3.1471672,3.1685967,3.1922646,3.217523,3.2450075,3.273071,3.2990682,3.3209548,3.3378916,3.349927,3.3588195,3.3661847,3.3719556,3.3764942,3.3803244,3.3840437,3.3880646,3.3920355,3.3962927,3.4005795,3.4043303,3.4075124,3.410069,3.411806,3.41328,3.4147627,3.4163156,3.4178538,3.4193926,3.4209976,3.4226427,3.4241786,3.4258134,3.4276705,3.42978,3.4321191,3.434665,3.437336,3.439928,3.442441,3.4449587,3.447463,3.4499245,3.45231,3.4545689,3.4566169,3.4584727,3.4603238,3.4622135,3.464089,3.4659138,3.4676695,3.469351,3.4709644,3.4725919,3.4743295,3.47612,3.4779477,3.4798255,3.4817648,3.4837599,3.4858696,3.488164,3.4905393,3.492885,3.4951243,3.4972343,3.499204,3.5010219,3.5029223,3.5049105,3.506999,3.5092402,3.5116553,3.514186,3.5167537,3.5195436,3.5225387,3.525637,3.5287266,3.5317497,3.5346951,3.537497,3.5402997,3.5431137,3.545856,3.5484424,3.5508156,3.5529556,3.5548587,3.5566401,3.5583792,3.560191,3.5620809,3.5639822,3.565803,3.5674262,3.568884,3.5703015,3.5716138,3.5728045,3.573874,3.5748258,3.575675,3.5764847,3.5773215,3.5781045,3.5787125,3.5790591,3.5791578,3.5790718,3.5788426,3.5784292,3.5778399,3.5771027,3.5762281,3.575259,3.5742497,3.573187,3.5719767,3.5705762,3.568994,3.5673316,3.5656672,3.5640326,3.5625005,3.5611768,3.5599203,3.5588555,3.558062,3.5575204,3.5571158,3.556738,3.5563946,3.5561278,3.555989,3.5559824,3.5562296,3.5567636,3.5574386,3.558195,3.5589612,3.55971,3.5605392,3.5615058,3.5626516,3.5639997,3.5654445,3.5668654,3.5682447,3.5696094,3.5709686,3.5722933,3.5735607,3.57479,3.576034,3.577307,3.5785582,3.5796893,3.5806472,3.5814252,3.5820255,3.582481,3.582841,3.5830994,3.58329,3.583487,3.5837555,3.584083,3.5844603,3.5848675,3.5853171,3.5858498,3.5864506,3.5871148,3.5878334,3.588518,3.5891805,3.5898209,3.5903645,3.590755,3.5909686,3.5910256,3.591011,3.5909505,3.5907903,3.590583,3.590363,3.5901074,3.589798,3.5894685,3.589144,3.5888226,3.5884676,3.5880685,3.5875738,3.5869732,3.5863233,3.5855844,3.5846796,3.583582,3.5823774,3.5811381,3.5799787,3.5790324,3.578308,3.5777378,3.5771942,3.5766668,3.5761886,3.5758061,3.575509,3.5752206,3.5749097,3.5744603,3.5740142,3.5734448,3.5727043,3.571899,3.571083,3.5703053,3.5695496,3.5688543,3.5682597,3.5677733,3.5674014,3.5671387,3.566895,3.5666876,3.5665069,3.5662832,3.565918,3.565321,3.5644908,3.5635452,3.5624137,3.5611422,3.559772,3.5583835,3.5570102,3.5556633,3.5544298,3.5532928,3.5522192,3.5512414,3.5503902,3.549683,3.5491152,3.5486732,3.548318,3.548059,3.5478458,3.5476785,3.547531,3.5472913,3.5468426,3.546206,3.545436
3.2302985,3.2222538,3.214416,3.2072961,3.1984773,3.1874828,3.1757677,3.1629944,3.146207,3.1264873,3.1058683,3.0851896,3.0665684,3.0538096,3.0484092,3.046459,3.0460696,3.0471282,3.0499902,3.053405,3.0563016,3.0584903,3.0594654,3.0595822,3.0590606,3.0582561,3.0575707,3.0571766,3.056943,3.0565906,3.0557518,3.0550065,3.054443,3.053752,3.0533752,3.0540218,3.055563,3.0573115,3.059415,3.0618176,3.064355,3.0664692,3.0680432,3.069673,3.0717182,3.0745277,3.0792408,3.086564,3.0976658,3.1129756,3.132021,3.154283,3.179253,3.2080853,3.2391396,3.2695107,3.2963564,3.317937,3.3339152,3.345881,3.3553767,3.362305,3.367319,3.371304,3.3751683,3.379527,3.3839483,3.3887222,3.3936455,3.3975356,3.4003692,3.4026613,3.4044762,3.4060812,3.4076843,3.409417,3.4112384,3.4131508,3.415183,3.4172778,3.4192553,3.421318,3.423606,3.4261239,3.4288247,3.4316645,3.4345481,3.4372778,3.4398634,3.4424088,3.4449189,3.4473724,3.449745,3.451999,3.4540558,3.4559283,3.457803,3.4597096,3.461596,3.4634242,3.4651833,3.4668825,3.4685369,3.4702187,3.4720163,3.4738564,3.4757137,3.4775991,3.4795256,3.4814835,3.48355,3.4857802,3.488087,3.4903703,3.492554,3.4946141,3.4965456,3.4983165,3.5001657,3.5020995,3.5041585,3.506417,3.508885,3.5114746,3.5141191,3.517043,3.5202172,3.5235534,3.5269156,3.530185,3.5333118,3.5362482,3.5391483,3.542017,3.5447888,3.5474145,3.5498629,3.5521111,3.5541341,3.556053,3.558001,3.5600176,3.5620708,3.5640635,3.5658894,3.567482,3.568968,3.5704784,3.571943,3.573312,3.5745125,3.5754802,3.5762148,3.5767965,3.5772843,3.577657,3.577889,3.5779586,3.5778608,3.5776048,3.5772195,3.576656,3.5759115,3.5750241,3.5740175,3.5729637,3.5719419,3.570928,3.5698016,3.5685005,3.5670075,3.5653982,3.5637856,3.5622718,3.5609038,3.5594425,3.5580025,3.5568056,3.5558722,3.5550983,3.554385,3.5536995,3.5530534,3.5525298,3.5522003,3.5521605,3.552567,3.5534184,3.554501,3.5556445,3.5565548,3.5573812,3.558292,3.5593147,3.5603547,3.5614033,3.5625916,3.5638542,3.5651388,3.5664406,3.567779,3.5691285,3.570452,3.5717678,3.573093,3.5744157,3.5756445,3.5767288,3.5776422,3.5783396,3.5787983,3.5790849,3.5792441,3.5793028,3.5793283,3.5794027,3.5796003,3.5799224,3.580331,3.5808182,3.5813723,3.5820208,3.5827336,3.5834813,3.5842433,3.584934,3.5855727,3.586153,3.5865898,3.5868437,3.586907,3.5868118,3.5866704,3.5865142,3.5863361,3.5861623,3.5860257,3.5859056,3.5857673,3.5856218,3.5854878,3.5853624,3.5851982,3.5849786,3.5846496,3.5841825,3.5836048,3.5828564,3.5819225,3.5807602,3.5794735,3.5781538,3.5769274,3.575929,3.5751715,3.5745776,3.5740356,3.5735216,3.5730653,3.5727084,3.5724316,3.5721617,3.5718703,3.571433,3.5709915,3.5703921,3.5695853,3.568688,3.567757,3.566863,3.5659976,3.565206,3.5645375,3.5640035,3.563613,3.5633636,3.563154,3.563003,3.562901,3.562783,3.562563,3.562152,3.5615242,3.560766,3.55977,3.5585608,3.55719,3.5557232,3.5542326,3.5528018,3.5515265,3.5503745,3.5492878,3.5483265,3.5475025,3.5467954,3.5461812,3.54565,3.5451908,3.5448043,3.5444522,3.5441685,3.5438929,3.5435147,3.5429955,3.5423179,3.5415075
3.2478914,3.2406454,3.2324388,3.223703,3.214942,3.2067027,3.1983166,3.1879172,3.174655,3.1585622,3.1377764,3.1150491,3.0916224,3.070875,3.0570626,3.0472112,3.0429847,3.0417356,3.0423837,3.044422,3.0472574,3.049846,3.051378,3.052484,3.0531912,3.053457,3.0533967,3.053307,3.053299,3.053142,3.0528271,3.052506,3.051766,3.0507636,3.0499902,3.0496774,3.0497646,3.0505066,3.0517015,3.0532174,3.0548651,3.0562067,3.0572064,3.0583935,3.0600524,3.0621772,3.0654082,3.0706086,3.0789664,3.0909276,3.1064637,3.12582,3.1487322,3.17703,3.2093701,3.2430744,3.274613,3.3011184,3.3217256,3.3376803,3.3499017,3.3585773,3.3644257,3.3684907,3.372082,3.3762138,3.3805733,3.3852544,3.389547,3.3929882,3.3956683,3.3978622,3.3997037,3.4013138,3.4028773,3.4045634,3.4063773,3.4083347,3.4104848,3.4127865,3.4150226,3.4173722,3.4199805,3.4228272,3.4258268,3.4288936,3.4319096,3.4346852,3.4372613,3.4397497,3.4421694,3.4445236,3.446795,3.4489484,3.4509163,3.4527164,3.4545298,3.456406,3.4583044,3.4601998,3.462086,3.4639573,3.4657936,3.4675508,3.4694028,3.471264,3.4730964,3.4749203,3.4767637,3.4786227,3.4805818,3.4826736,3.4848533,3.487049,3.489191,3.4912508,3.493207,3.495008,3.496865,3.4987805,3.5008295,3.5031118,3.505651,3.5083685,3.5111647,3.514224,3.5175128,3.5209565,3.524452,3.5278769,3.5311437,3.5342076,3.5372272,3.5402226,3.5430791,3.5457525,3.548254,3.5505872,3.5527277,3.5547943,3.556949,3.5591593,3.5613346,3.5633721,3.5652022,3.5668073,3.5683155,3.5698814,3.571428,3.5728931,3.574157,3.5751085,3.5757427,3.576151,3.5763838,3.5764687,3.5764427,3.5763185,3.5760784,3.5756884,3.5751672,3.5744548,3.5735388,3.5724745,3.5713234,3.5701814,3.5691373,3.568181,3.5671816,3.566061,3.5647864,3.5633903,3.5619786,3.560688,3.5595584,3.5582447,3.556871,3.5557048,3.5547123,3.5537467,3.5526943,3.5515313,3.5503955,3.5494537,3.548852,3.5487885,3.5493982,3.550568,3.5520043,3.5535161,3.5549116,3.556082,3.5570765,3.558024,3.5589733,3.559948,3.5610495,3.5621183,3.5633113,3.5646083,3.5660017,3.5674276,3.5688045,3.5701404,3.5714345,3.5727248,3.5739288,3.5749817,3.5758414,3.5764532,3.576788,3.5769372,3.5769417,3.576861,3.5767841,3.5767984,3.5769768,3.577312,3.5777426,3.5782676,3.5788674,3.5795534,3.5802848,3.5810337,3.5817814,3.5824523,3.5830653,3.5836053,3.5839865,3.584177,3.584174,3.5840173,3.5838375,3.5836744,3.583549,3.5834646,3.5834403,3.5834532,3.5834627,3.5834632,3.583465,3.5834684,3.583425,3.583324,3.5831165,3.5827618,3.5822597,3.581542,3.5806303,3.5794735,3.57818,3.5768523,3.5756164,3.5746021,3.573825,3.5732026,3.57263,3.5720835,3.57159,3.571189,3.5708652,3.5705519,3.5702205,3.5697474,3.5692704,3.5686293,3.5677693,3.5668135,3.5658245,3.56488,3.563965,3.5631247,3.562406,3.5618193,3.561373,3.5610673,3.5608058,3.5606065,3.5604637,3.5603378,3.5601625,3.5598462,3.5593407,3.5587096,3.5578227,3.5567036,3.55541,3.5539942,3.5525417,3.5511684,3.5499616,3.548882,3.5478706,3.5469549,3.5461307,3.5453725,3.5446634,3.544011,3.5434146,3.5428762,3.5423703,3.5419574,3.5415668,3.5410953,3.540545,3.5398736,3.5390615
3.258438,3.252667,3.2461543,3.2382355,3.2302103,3.2224803,3.213943,3.204351,3.1959233,3.1844902,3.1670604,3.1472707,3.1264918,3.104628,3.0836024,3.065771,3.0547888,3.047248,3.0430312,3.0420132,3.0428371,3.04389,3.045007,3.0462322,3.0474205,3.0486493,3.0497293,3.0504608,3.0508995,3.051229,3.0514166,3.051416,3.0508823,3.0501196,3.0494552,3.0489252,3.0485013,3.0482712,3.0485833,3.0493746,3.0503378,3.0510848,3.0516567,3.0525117,3.0539064,3.0558984,3.05861,3.0624545,3.068453,3.0771375,3.0888147,3.104321,3.1236498,3.1491673,3.1800942,3.2144847,3.2488952,3.2796364,3.3047705,3.3249533,3.3408945,3.3527389,3.3608863,3.366323,3.3706126,3.375009,3.3793669,3.3840942,3.3880093,3.3913183,3.394247,3.3966632,3.398535,3.4000754,3.4015012,3.4030323,3.4047194,3.4065895,3.4087033,3.4110346,3.4133573,3.4158301,3.4186084,3.4216495,3.4248257,3.4280093,3.4310684,3.4338284,3.43635,3.4387565,3.4410868,3.443362,3.4455662,3.4476573,3.4495714,3.4513228,3.4530816,3.4549077,3.45677,3.458656,3.4605732,3.462512,3.4644222,3.4662251,3.4680672,3.4698339,3.4714909,3.4730895,3.4747043,3.4763684,3.4781682,3.4801419,3.482271,3.4845,3.4867537,3.4889736,3.4910915,3.4930296,3.494972,3.4969172,3.4989696,3.5012565,3.5038276,3.5066218,3.5095043,3.5126386,3.5159755,3.5194435,3.5229838,3.5264997,3.5298762,3.5330477,3.5361717,3.5393007,3.5423012,3.545095,3.5476937,3.5501356,3.5524182,3.5546594,3.5570102,3.5593991,3.5616937,3.5637913,3.5656562,3.5672848,3.5687897,3.5703516,3.571898,3.5733814,3.5746696,3.5756304,3.5762591,3.576652,3.5768523,3.576901,3.5768337,3.5766635,3.5763707,3.5759153,3.5753138,3.5744972,3.5734372,3.5722127,3.5709143,3.5696673,3.5685892,3.5676837,3.5667577,3.565801,3.5647595,3.563614,3.5624375,3.5612931,3.5601354,3.558933,3.5576937,3.5565853,3.5555003,3.5542674,3.5527878,3.5510876,3.5494173,3.5480433,3.5471916,3.5470948,3.5478477,3.549266,3.5509944,3.552808,3.5545897,3.5561066,3.5572834,3.5582266,3.559161,3.5602453,3.5613985,3.5624027,3.5635962,3.5649714,3.566497,3.5680594,3.56953,3.570903,3.5721807,3.573459,3.5746703,3.5757043,3.576493,3.5769954,3.5771956,3.5772076,3.577066,3.5768538,3.5766754,3.5766234,3.5767612,3.5770636,3.5774534,3.5779245,3.5784612,3.5790658,3.5797036,3.5803645,3.5810463,3.5816803,3.5822783,3.582817,3.5832105,3.5834231,3.5834494,3.583333,3.5832095,3.583122,3.5830855,3.5830996,3.5831733,3.583281,3.5833812,3.5834618,3.583527,3.583581,3.5835795,3.5835216,3.5833638,3.583059,3.5826006,3.581923,3.581045,3.579919,3.5786557,3.5773606,3.5761538,3.5751545,3.574377,3.5737329,3.5731235,3.572536,3.5719929,3.5715322,3.5711522,3.570796,3.5704374,3.569961,3.5695012,3.568892,3.5680654,3.5671344,3.5661688,3.5652466,3.564345,3.5635076,3.56278,3.5621686,3.561682,3.5613227,3.5610042,3.5607433,3.5605397,3.5603771,3.5602028,3.5599232,3.559484,3.5589347,3.5581398,3.557137,3.555975,3.5547116,3.5534325,3.5522342,3.551186,3.5502524,3.5493937,3.548582,3.5477986,3.5470266,3.5462627,3.5455394,3.5448558,3.5442238,3.5436263,3.5431376,3.5426998,3.5422049,3.5416348,3.540943,3.5400786
3.265039,3.2618308,3.2581205,3.2538295,3.2480211,3.240261,3.2318094,3.2244644,3.2180614,3.2081392,3.1956956,3.1799574,3.162832,3.1444516,3.1234016,3.1037598,3.0856972,3.0700493,3.0590835,3.0526018,3.0488768,3.0468583,3.046495,3.0467536,3.0471845,3.0486712,3.0508494,3.0527089,3.053965,3.0550787,3.0557063,3.0559638,3.0560932,3.0557892,3.0551987,3.0549664,3.0551987,3.054838,3.0547934,3.054903,3.0550737,3.05512,3.0550833,3.0553527,3.0562584,3.0578835,3.0604386,3.0637167,3.0682325,3.0743933,3.0825634,3.0937378,3.1083822,3.1290953,3.155834,3.1877718,3.2224054,3.2559426,3.2852483,3.3099918,3.3304753,3.3467834,3.3586886,3.3668633,3.37293,3.3782089,3.382819,3.3878398,3.3924034,3.3962545,3.3993971,3.401873,3.4037805,3.4052796,3.4065728,3.4079425,3.409473,3.4112067,3.413198,3.4154193,3.41767,3.4200995,3.4228668,3.4259152,3.4290948,3.4322603,3.435275,3.4379778,3.4404202,3.4427423,3.4450102,3.4472547,3.4494634,3.4515953,3.453572,3.455389,3.4571998,3.4590416,3.4608734,3.46268,3.4644852,3.4663067,3.4681048,3.4698997,3.471674,3.4732726,3.4746635,3.475933,3.4772139,3.478596,3.480184,3.4820533,3.484205,3.4865797,3.489047,3.4914813,3.493798,3.495926,3.4980154,3.5000672,3.5022116,3.5045538,3.5071235,3.5098982,3.5127444,3.5158308,3.519063,3.52242,3.5259256,3.529512,3.5330305,3.5363889,3.539711,3.5429268,3.5460343,3.5489645,3.551683,3.5542483,3.5566766,3.5590925,3.5616467,3.564219,3.5666447,3.5688002,3.5706432,3.572196,3.5736194,3.5751047,3.5766006,3.5780783,3.5793996,3.580413,3.5811057,3.581572,3.5818586,3.5820217,3.5821006,3.5821,3.581973,3.581645,3.5811038,3.5802696,3.5791254,3.5777316,3.576194,3.5747147,3.5735102,3.572639,3.5718865,3.5711255,3.5703573,3.569501,3.568544,3.5674741,3.566195,3.5649521,3.5637364,3.5625994,3.5613246,3.5596752,3.5576189,3.5553498,3.5531154,3.5512972,3.5502279,3.5501442,3.5511112,3.552813,3.5547607,3.5568466,3.5588224,3.5605354,3.5620046,3.563242,3.5643969,3.5656605,3.5669003,3.5680013,3.569305,3.5707998,3.5724607,3.5741694,3.5757742,3.577255,3.5785997,3.5799143,3.581122,3.5821037,3.5827987,3.583179,3.5832381,3.5831094,3.5828247,3.5824816,3.5822015,3.5820765,3.5821571,3.582407,3.5827303,3.5831146,3.5835419,3.5840158,3.5845165,3.5850568,3.585648,3.586226,3.586802,3.5873413,3.587762,3.5880203,3.5881019,3.5880497,3.5879955,3.5879817,3.5880215,3.588108,3.588243,3.5883942,3.5885172,3.5886047,3.5886607,3.588696,3.5886679,3.588583,3.5884051,3.5880911,3.5876312,3.5869627,3.586103,3.585009,3.5837893,3.5825415,3.5813766,3.5804062,3.57964,3.5789857,3.5783453,3.577713,3.5771134,3.5765934,3.5761642,3.5757778,3.5754151,3.5749621,3.5745585,3.5740385,3.5733194,3.572497,3.5716329,3.5707974,3.569965,3.56918,3.5684834,3.5678837,3.567389,3.5670023,3.5666451,3.5663297,3.5660634,3.5658522,3.565659,3.5653949,3.5649986,3.5645134,3.563799,3.562903,3.561871,3.5607643,3.5596669,3.5586658,3.5578122,3.5570722,3.5564132,3.555777,3.555118,3.5544043,3.5536385,3.5528784,3.5521302,3.5514193,3.5507386,3.5501804,3.549701,3.5491893,3.548615,3.547918,3.547008
