17.83417,18.024052,18.19207,18.270748,18.320679,18.390575,18.508106,18.626022,18.648285,18.665907,18.68184,18.689602,18.682823,18.718403,18.771557,18.820398,18.855892,18.86706,18.868189,18.86628,18.873852,18.879822,18.886532,18.88329,18.861713,18.819513,18.768005,18.719955,18.684448,18.66638,18.657963,18.64049,18.610035,18.565884,18.51046,18.438965,18.355389,18.25766,18.151709,18.030304,17.89592,17.771511,17.699615,17.59256,17.375679,17.204945,17.154062,17.14075,17.094484,17.031277,16.949547,16.859398,16.757965,16.660007,16.58823,16.54181,16.480747,16.42827,16.39459,16.40343,16.457644,16.52896,16.59766,16.646976,16.693096,16.736963,16.78143,16.833475,17.013926,17.198147,17.346283,17.506205,17.66627,17.805006,17.951736,18.094244,18.241955,18.42009,18.59807,18.772202,18.952986,19.126122,19.291096,19.443357,19.577835,19.680454,19.76751,19.799652,19.805696,19.818497,19.843771,19.878656,19.908695,19.935211,19.937763,19.909863,19.890305,19.87682,19.85331,19.84518,19.832287,19.84098,19.841541,19.892864,19.952255,20.001797,20.046541,20.082901,20.11185,20.13355,20.150085,20.16299,20.173332,20.183697,20.19502,20.209023,20.22798,20.252075,20.279732,20.309906,20.339855,20.367577,20.391811,20.41085,20.42302,20.427265,20.426785,20.42475,20.423859,20.423973,20.421726,20.414999,20.405586,20.397728,20.395191,20.397764,20.402407,20.406982,20.41103,20.414814,20.419006,20.422693,20.425365,20.427822,20.431025,20.435066,20.441301,20.449783,20.460888,20.47543,20.49139,20.506378,20.51608,20.51854,20.514698,20.508446,20.503517,20.500809,20.499535,20.49858,20.497871,20.497066,20.498116,20.497437,20.4931,20.485092,20.474293,20.462803,20.450024,20.4357,20.420343,20.405537,20.38701,20.369549,20.354008,20.338337,20.319855,20.296476,20.267254,20.23643,20.207563,20.183609,20.16454,20.149582,20.137772,20.128645,20.121574,20.113394,20.101912,20.086023,20.067965,20.052673,20.0448,20.046612,20.059837,20.079647,20.103424,20.131962,20.163692,20.194336,20.21914,20.230549,20.219673,20.18367,20.12782,20.060974,19.997414,19.94405,19.902706,19.873234,19.854343,19.842146,19.834911,19.825672,19.812313,19.795341,19.777227,19.761692,19.749172,19.735813,19.71575,19.687164,19.652523,19.614094,19.580008,19.555431,19.538166,19.52731,19.521595,19.518093,19.508587,19.489363,19.472971,19.459808,19.44776,19.435493,19.422112,19.40955,19.39746,19.385948,19.37633,19.367111,19.357685,19.3475,19.334827,19.321249,19.308712,19.298811,19.292725,19.29039,19.290329,19.290127,19.290142,19.289043,19.28793,19.288342,19.288923,19.289417,19.288704,19.286919,19.286583,19.28561,19.277714,19.268742,19.258018,19.24575,19.234869,19.225899,19.218319,19.211945,19.203728,19.190386,19.175728,19.16188,19.148369,19.134232,19.118036,19.100842,19.081295,19.060339,19.038475,19.02052,19.00645,18.994858,18.984879,18.977762,18.975624,18.977043,18.978024,18.974588,18.967352,18.958874,18.954233,18.954937,18.957418,18.958942,18.951681,18.932272,18.904537,18.874905,18.855778,18.84103,18.8236,18.808102,18.787354,18.76024,18.729542,18.697077,18.665825
13.395,13.721454,14.03046,14.2202635,14.346478,14.481596,14.674334,14.951991,15.300457,15.705774,16.08743,16.44814,16.77683,17.032463,17.291376,17.47562,17.578524,17.637367,17.652523,17.624249,17.583748,17.539047,17.516603,17.503977,17.429478,17.341778,17.264076,17.204218,17.177965,17.184399,17.208904,17.244608,17.297293,17.329828,17.283978,17.213753,17.137268,17.051605,16.962189,16.818756,16.528008,16.228384,15.891441,15.473795,15.08121,14.733755,14.464857,14.207287,13.920701,13.620227,13.338657,13.12692,12.998185,12.937685,12.947671,13.015266,13.136303,13.32,13.535635,13.751369,13.945618,14.163343,14.39163,14.624729,14.870176,15.160822,15.482264,15.7792,16.045166,16.297768,16.574774,16.843597,16.936186,17.046383,17.13954,17.082125,17.054798,17.139595,17.47834,17.842041,18.079197,18.28719,18.439999,18.584621,18.725243,18.847939,18.944593,19.044079,19.141914,19.222874,19.285686,19.361738,19.437754,19.501282,19.581337,19.6646,19.707458,19.736252,19.735668,19.708008,19.66689,19.628534,19.597736,19.579021,19.552866,19.55724,19.54987,19.57497,19.606266,19.632309,19.673748,19.710304,19.734083,19.755562,19.778719,19.80444,19.835135,19.870094,19.906027,19.940762,19.972065,19.999544,20.021553,20.035795,20.04158,20.038605,20.030182,20.019768,20.010944,20.004278,19.996418,19.985542,19.972038,19.959969,19.953344,19.95269,19.955578,19.960386,19.966322,19.973186,19.981504,19.989544,19.996876,20.00388,20.011444,20.019604,20.028858,20.038502,20.048538,20.060139,20.072456,20.084324,20.091694,20.092098,20.086254,20.077831,20.070278,20.064365,20.059452,20.05449,20.050518,20.048,20.046436,20.042336,20.034315,20.022957,20.010262,19.998478,19.987278,19.975407,19.962282,19.948772,19.936295,19.926233,19.9172,19.907253,19.893646,19.875809,19.854773,19.832561,19.81186,19.794174,19.7786,19.766136,19.756336,19.748438,19.742313,19.734966,19.723804,19.707314,19.688477,19.672222,19.664112,19.667255,19.682884,19.705906,19.733692,19.7682,19.80596,19.843046,19.877285,19.901207,19.90655,19.88984,19.854755,19.807486,19.759525,19.716879,19.680103,19.650093,19.626501,19.60775,19.59373,19.57853,19.559832,19.537395,19.513378,19.491394,19.47313,19.455986,19.428541,19.390577,19.348824,19.306637,19.269794,19.244007,19.226713,19.216267,19.211437,19.21009,19.209808,19.208786,19.20549,19.19573,19.18784,19.179882,19.170437,19.15961,19.147846,19.1362,19.125572,19.114544,19.102436,19.089558,19.074665,19.059732,19.04647,19.03636,19.030394,19.028297,19.028751,19.028868,19.02861,19.027334,19.025059,19.02257,19.019905,19.017105,19.01297,19.00835,19.005259,19.002821,18.996326,18.988436,18.978306,18.966755,18.956913,18.948315,18.939169,18.931047,18.923326,18.91397,18.903662,18.889637,18.8727,18.856194,18.841827,18.828533,18.81025,18.788412,18.76427,18.742523,18.723318,18.706608,18.693422,18.686909,18.68832,18.695011,18.70262,18.707935,18.712858,18.72118,18.737392,18.760683,18.786087,18.808012,18.816334,18.804838,18.78347,18.755287,18.73188,18.71585,18.70515,18.697212,18.684753,18.66494,18.640505,18.614786,18.592001
6.710121,6.7373967,6.7637777,6.7832108,6.796097,6.819927,6.8662014,6.944214,7.054439,7.1877446,7.3199773,7.4332523,7.5242786,7.5987935,7.690008,7.812849,7.9636097,8.120952,8.246347,8.329914,8.360183,8.348993,8.326917,8.316575,8.325489,8.344791,8.353266,8.333136,8.287367,8.237539,8.199973,8.178509,8.165559,8.1490555,8.12088,8.083222,8.039562,7.988048,7.9284945,7.8529015,7.7581925,7.6586766,7.553021,7.4423094,7.3375006,7.246618,7.176628,7.1203327,7.0699573,7.019817,6.9721355,6.938397,6.926303,6.934089,6.962244,7.0065126,7.065716,7.136996,7.214502,7.2934203,7.373949,7.461781,7.5569086,7.6610184,7.778989,7.9249973,8.107107,8.317281,8.546933,8.808695,9.118446,9.441884,9.823669,10.312485,10.949037,11.65082,12.465166,13.404862,14.518782,15.634644,16.468752,16.891556,17.046646,17.068974,17.29114,17.543552,17.958982,18.118773,18.204765,18.293148,18.410856,18.549105,18.663033,18.764324,18.890224,19.017296,19.146645,19.278028,19.402857,19.495096,19.533949,19.56157,19.566738,19.54317,19.52861,19.522587,19.512081,19.506512,19.483685,19.423098,19.35405,19.30511,19.315186,19.324596,19.33923,19.360708,19.384693,19.408287,19.447193,19.509502,19.573633,19.609516,19.629093,19.637783,19.636585,19.626406,19.609592,19.58972,19.571342,19.556175,19.54142,19.525497,19.507566,19.491053,19.4797,19.474903,19.47536,19.48037,19.489273,19.501099,19.515995,19.531223,19.545712,19.559092,19.571701,19.583496,19.594505,19.603497,19.610031,19.61562,19.621017,19.626705,19.629517,19.627045,19.619135,19.608856,19.599194,19.590343,19.58148,19.571697,19.562778,19.556057,19.55111,19.544449,19.534636,19.522017,19.508904,19.497448,19.487024,19.476007,19.46339,19.449757,19.437311,19.427214,19.417994,19.408314,19.395836,19.380077,19.361866,19.34203,19.322613,19.305756,19.291866,19.281261,19.273487,19.26788,19.264545,19.260979,19.255589,19.246517,19.234596,19.224821,19.222755,19.231762,19.254776,19.28714,19.324883,19.369633,19.41972,19.467968,19.51564,19.556988,19.581825,19.585289,19.570162,19.541855,19.507866,19.476961,19.449123,19.424314,19.40176,19.3805,19.361872,19.341814,19.317936,19.28973,19.258038,19.225904,19.193634,19.16204,19.127848,19.08776,19.044588,19.001842,18.964237,18.938274,18.921337,18.911245,18.906513,18.904846,18.905403,18.906347,18.90683,18.906647,18.9053,18.901394,18.893204,18.882755,18.872185,18.863457,18.85771,18.852625,18.846268,18.839138,18.827496,18.811989,18.797745,18.786455,18.779232,18.774364,18.763287,18.744398,18.727364,18.712986,18.702724,18.697073,18.692657,18.688221,18.683369,18.678415,18.675098,18.672356,18.66606,18.658928,18.65004,18.640089,18.631767,18.625954,18.622158,18.620018,18.616524,18.609331,18.60017,18.59046,18.580395,18.571331,18.564026,18.553284,18.539814,18.524319,18.508265,18.48605,18.464832,18.447025,18.434929,18.431404,18.436056,18.445553,18.455784,18.46499,18.47621,18.494122,18.523144,18.56018,18.583416,18.604084,18.615541,18.614185,18.602589,18.58329,18.56668,18.556599,18.552176,18.551228,18.547543,18.537113,18.522205,18.506285,18.494213
5.2123756,5.2372274,5.263063,5.2872095,5.30877,5.3283296,5.348363,5.3672924,5.386424,5.407301,5.430257,5.452068,5.4700108,5.484844,5.5010223,5.5216074,5.545266,5.568262,5.5900135,5.613796,5.6353145,5.647463,5.6524105,5.6527777,5.653013,5.654968,5.658179,5.660511,5.6610146,5.6599627,5.6585464,5.6571455,5.6555815,5.654463,5.6539893,5.6542144,5.65438,5.656851,5.6662345,5.6748853,5.6829624,5.6906815,5.6981916,5.705592,5.7125316,5.7196865,5.727345,5.735454,5.7438483,5.752285,5.76066,5.7698956,5.780081,5.7911897,5.8030806,5.815688,5.8286915,5.841898,5.8552465,5.8689923,5.8830557,5.8974204,5.9121194,5.927267,5.9429917,5.959673,5.977915,5.997658,6.018638,6.0411263,6.065752,6.091072,6.1330843,6.2157183,6.336873,6.4836774,6.6963444,6.993319,7.357403,7.8104916,8.386796,9.05423,9.795963,10.782012,11.93231,13.452671,14.4703045,15.557329,16.322102,16.88042,16.975597,17.100502,17.591476,17.869312,18.023392,18.191748,18.356468,18.49844,18.628721,18.771042,18.910212,19.030655,19.149628,19.268646,19.381214,19.465796,19.509525,19.522747,19.47883,19.428268,19.39135,19.338223,19.276842,19.198183,19.112164,19.028423,19.012608,19.036018,19.056118,19.075623,19.100292,19.132204,19.17981,19.210468,19.223083,19.211985,19.191158,19.164349,19.137312,19.113838,19.092527,19.071371,19.04906,19.028397,19.012466,19.003674,19.00211,19.008223,19.021523,19.040562,19.064602,19.0896,19.11309,19.133575,19.15064,19.164635,19.1758,19.182453,19.18388,19.18172,19.17862,19.176996,19.174644,19.169521,19.160896,19.150848,19.141993,19.133293,19.123226,19.111092,19.09917,19.09011,19.084076,19.077724,19.069405,19.05933,19.04942,19.04126,19.033943,19.025776,19.015553,19.003475,18.991772,18.981754,18.97242,18.963276,18.952599,18.939804,18.925194,18.90832,18.890549,18.874296,18.860676,18.850761,18.844385,18.840776,18.840088,18.839558,18.83735,18.831562,18.822105,18.813744,18.812042,18.821318,18.843678,18.874744,18.911055,18.954796,19.006062,19.061422,19.116745,19.164759,19.197414,19.212149,19.212942,19.205942,19.199284,19.197197,19.19571,19.192547,19.180435,19.161358,19.141499,19.118343,19.090153,19.055992,19.015669,18.972198,18.927908,18.883492,18.839758,18.797398,18.754341,18.712154,18.674314,18.647795,18.630653,18.620415,18.615108,18.612741,18.61306,18.614128,18.615181,18.617256,18.618557,18.616463,18.608902,18.59835,18.587431,18.573631,18.561005,18.550049,18.539743,18.531452,18.52364,18.515682,18.506647,18.496016,18.48312,18.468895,18.452444,18.433035,18.414597,18.398697,18.386875,18.379478,18.373138,18.366283,18.359066,18.351986,18.34674,18.342241,18.334435,18.326206,18.316446,18.305668,18.29593,18.288454,18.28307,18.279612,18.276857,18.272156,18.265278,18.25879,18.252476,18.247051,18.24342,18.239317,18.235012,18.231527,18.227276,18.224518,18.225525,18.227386,18.221478,18.222557,18.23141,18.24173,18.250782,18.259262,18.270996,18.292612,18.310493,18.329586,18.350466,18.372799,18.388256,18.394188,18.391457,18.381857,18.373505,18.369396,18.366291,18.36319,18.361477,18.359016,18.357033,18.355667,18.356316
4.937263,4.9629326,4.987439,5.0102777,5.032403,5.055586,5.078096,5.0983095,5.116684,5.1338,5.15075,5.1677084,5.1849003,5.2022133,5.2197504,5.2373557,5.2542167,5.2702103,5.2857184,5.3017125,5.3174963,5.3271093,5.332616,5.336123,5.3394794,5.345743,5.3605037,5.376343,5.391237,5.4053106,5.4190426,5.4325876,5.445844,5.4589343,5.4719553,5.4850535,5.497281,5.5091753,5.5207195,5.531993,5.5427933,5.55338,5.5637903,5.573942,5.583556,5.5929985,5.602391,5.611704,5.620947,5.630153,5.63928,5.6490517,5.6593094,5.67006,5.6811132,5.6924396,5.703793,5.715066,5.7263393,5.73794,5.749674,5.7615213,5.7734575,5.7855,5.7976174,5.8097754,5.8221817,5.834846,5.8477573,5.860856,5.87416,5.8876343,5.901374,5.915497,5.9302864,5.945406,5.9610343,5.977617,5.995254,6.012969,6.036094,6.091666,6.1719933,6.2747965,6.4785776,6.7778406,7.234364,7.9332647,8.821833,9.929512,11.565786,13.239101,14.2692995,15.246468,16.272087,16.811928,17.006336,17.530628,17.851025,18.01353,18.168179,18.331932,18.484535,18.60082,18.72603,18.834072,18.932114,19.017132,19.0837,19.127542,19.1251,19.063955,18.979855,18.94049,18.913528,18.886314,18.84502,18.793224,18.75186,18.737621,18.731659,18.721718,18.724936,18.734695,18.734383,18.723778,18.714317,18.712105,18.706762,18.695034,18.669888,18.646832,18.623035,18.600264,18.58127,18.569801,18.567791,18.576782,18.597702,18.61298,18.634937,18.666058,18.70166,18.736376,18.766796,18.788837,18.798922,18.802307,18.798748,18.789658,18.777458,18.761574,18.748999,18.73994,18.73254,18.726503,18.717175,18.708324,18.698483,18.687096,18.675137,18.66512,18.657928,18.653198,18.64932,18.644234,18.643051,18.647121,18.654232,18.65765,18.651545,18.640678,18.629677,18.619715,18.610367,18.602306,18.593983,18.584896,18.574654,18.561464,18.546078,18.531075,18.51804,18.509008,18.504086,18.502144,18.503315,18.504692,18.504227,18.500378,18.492355,18.484509,18.48254,18.490845,18.5116,18.540482,18.574127,18.614353,18.661232,18.711151,18.760391,18.803558,18.835361,18.85477,18.8656,18.872631,18.881378,18.89447,18.90662,18.914589,18.916334,18.912724,18.906654,18.896069,18.876328,18.8447,18.803406,18.752996,18.695763,18.639297,18.585274,18.536554,18.492256,18.450249,18.411348,18.383076,18.359009,18.342754,18.332277,18.327423,18.328304,18.333057,18.33903,18.343191,18.344902,18.34124,18.328709,18.31146,18.293293,18.276222,18.262066,18.250095,18.239826,18.232819,18.227158,18.221443,18.214409,18.205517,18.194126,18.18095,18.165577,18.14698,18.128767,18.112545,18.099796,18.090645,18.082174,18.072586,18.06253,18.052626,18.044455,18.036945,18.026268,18.015614,18.003862,17.991158,17.978987,17.968826,17.960918,17.955505,17.951485,17.946188,17.9393,17.933342,17.927923,17.923355,17.920574,17.917326,17.914291,17.912506,17.91182,17.913834,17.918911,17.927437,17.941412,17.962393,17.986248,18.005617,18.019955,18.034616,18.051443,18.070515,18.091707,18.107874,18.12415,18.143562,18.158852,18.168053,18.164606,18.156487,18.148392,18.14272,18.139362,18.138466,18.139477,18.140957,18.144098,18.14912,18.157421
4.8531775,4.877435,4.90117,4.931033,4.9617925,4.9926248,5.0204153,5.0415154,5.0581036,5.0737805,5.090858,5.107786,5.122335,5.134197,5.1448784,5.156085,5.1703615,5.184653,5.1983404,5.2125745,5.226739,5.235615,5.241292,5.2455387,5.250373,5.255791,5.2641973,5.278303,5.2933435,5.3072934,5.320896,5.3343115,5.3474355,5.3603826,5.3732824,5.386303,5.398447,5.4102163,5.4215384,5.4325876,5.443166,5.453531,5.4637127,5.4736824,5.483261,5.4926558,5.501919,5.5110793,5.52016,5.5292015,5.538169,5.547723,5.557724,5.5681486,5.5788383,5.5898056,5.600806,5.6117463,5.622692,5.633957,5.6453514,5.656863,5.6684456,5.6800942,5.691813,5.703585,5.7156034,5.727865,5.740431,5.753243,5.7661676,5.7791986,5.792204,5.805088,5.8182707,5.8315525,5.8447742,5.8580246,5.8715115,5.8850408,5.898486,5.9111423,5.922891,5.93398,5.9436283,5.951832,5.9578414,5.960415,5.966883,6.05394,6.2056284,6.4829865,7.000078,7.8341427,8.971566,10.559534,12.598888,14.767502,16.472992,16.610607,16.90482,17.429941,17.624628,17.799538,17.954311,18.08545,18.20922,18.297314,18.381828,18.41346,18.438873,18.462852,18.491076,18.505753,18.487202,18.47647,18.48133,18.507051,18.526005,18.513039,18.513142,18.500107,18.473202,18.450214,18.432205,18.410114,18.37635,18.335083,18.293812,18.259914,18.24751,18.250967,18.242937,18.228756,18.21438,18.211803,18.216269,18.222588,18.229725,18.253601,18.290102,18.333307,18.377857,18.411766,18.433952,18.447403,18.4525,18.445183,18.435486,18.427073,18.41854,18.413136,18.407345,18.399498,18.387949,18.374424,18.368698,18.363558,18.354542,18.341244,18.326813,18.316921,18.314285,18.319864,18.325424,18.32763,18.326603,18.322102,18.312084,18.294764,18.269016,18.241467,18.216991,18.193916,18.185146,18.180908,18.179401,18.181862,18.18481,18.186256,18.186237,18.185581,18.18436,18.184504,18.18808,18.196238,18.210827,18.22982,18.251389,18.264221,18.257647,18.248245,18.244175,18.24944,18.266617,18.291115,18.31939,18.352959,18.391546,18.431475,18.469921,18.503681,18.52992,18.548618,18.563278,18.577435,18.594526,18.616257,18.636967,18.65281,18.661366,18.663134,18.660732,18.652847,18.634766,18.604897,18.56297,18.5127,18.458752,18.405743,18.352667,18.299957,18.250435,18.2029,18.156857,18.11961,18.091763,18.072536,18.058699,18.051323,18.050144,18.054358,18.06154,18.068176,18.070986,18.065151,18.051535,18.034855,18.016758,17.99962,17.985493,17.974342,17.965927,17.961643,17.958954,17.955679,17.950424,17.942993,17.932846,17.92073,17.906605,17.889114,17.87157,17.855381,17.84172,17.830494,17.820045,17.807755,17.794659,17.781595,17.769966,17.758692,17.744312,17.73043,17.716026,17.700775,17.685547,17.672285,17.661602,17.654158,17.648754,17.642818,17.635899,17.630272,17.625458,17.621235,17.618607,17.615332,17.612656,17.61168,17.612223,17.61533,17.621067,17.629704,17.643406,17.663383,17.687195,17.71399,17.743486,17.773706,17.801355,17.821182,17.839203,17.858007,17.876545,17.893864,17.905268,17.910805,17.910545,17.906727,17.903065,17.900995,17.900358,17.90167,17.905132,17.909515,17.916183,17.926376,17.94124
4.8318033,4.8565655,4.8849845,4.9070916,4.928754,4.953012,4.975541,4.9932404,5.007764,5.021367,5.0368195,5.0549326,5.074624,5.095046,5.115237,5.1348095,5.1523495,5.1676965,5.1817374,5.195619,5.2096047,5.21934,5.225712,5.229659,5.232028,5.233428,5.2353745,5.237541,5.2419934,5.2484403,5.2541866,5.2595034,5.264328,5.2689834,5.276394,5.288508,5.300426,5.3119984,5.3231163,5.3339624,5.34434,5.3545055,5.3644867,5.3742795,5.3837495,5.393035,5.402155,5.4111595,5.4200726,5.4289446,5.437749,5.4470873,5.4568377,5.466957,5.4773083,5.487936,5.498605,5.509238,5.5198827,5.5308075,5.541849,5.5530005,5.56421,5.575468,5.586789,5.5981655,5.609771,5.6216025,5.633732,5.6461015,5.6585655,5.671117,5.683628,5.6960115,5.7086005,5.7212687,5.734013,5.7467995,5.759669,5.7725744,5.7855763,5.7981434,5.8099933,5.8214593,5.832734,5.8436413,5.8542757,5.864732,5.874896,5.8819857,5.886408,5.886437,5.8773146,5.869633,5.9156933,6.005539,6.2471085,6.800588,7.961982,9.728138,11.969131,14.693146,16.017553,16.183516,16.45057,16.687407,17.065823,17.206615,17.331535,17.45581,17.570923,17.68095,17.779388,17.865355,17.934227,17.994772,17.998703,18.037361,18.14735,18.243927,18.336273,18.351215,18.324295,18.284664,18.27307,18.26413,18.249825,18.230722,18.189686,18.124302,18.073524,18.039268,18.012966,17.992588,17.980007,17.981403,18.004211,18.040606,18.089596,18.14236,18.19508,18.245512,18.28418,18.30812,18.317942,18.321434,18.32457,18.323034,18.324453,18.332384,18.333912,18.334728,18.335438,18.334354,18.330519,18.323338,18.315956,18.309004,18.300419,18.290436,18.281132,18.276806,18.27913,18.284075,18.278894,18.273159,18.268436,18.26213,18.251993,18.236607,18.214375,18.185547,18.154224,18.123268,18.093872,18.069174,18.04787,18.030418,18.0156,17.999626,17.981892,17.963955,17.945738,17.929937,17.91906,17.91136,17.90998,17.90171,17.899925,17.922817,17.95024,17.97937,18.012405,18.030264,18.049799,18.067535,18.08841,18.112654,18.139545,18.166008,18.19091,18.213272,18.23216,18.247784,18.262943,18.280014,18.300423,18.325146,18.34914,18.368671,18.381613,18.388123,18.389778,18.3858,18.371159,18.34406,18.30332,18.252773,18.201275,18.15366,18.108046,18.063856,18.014946,17.966625,17.918785,17.877506,17.84496,17.821487,17.803448,17.79317,17.789272,17.792112,17.799171,17.80717,17.812214,17.80929,17.796045,17.778225,17.762232,17.748154,17.73685,17.72892,17.72438,17.724129,17.72517,17.724646,17.721058,17.714638,17.704556,17.692205,17.678116,17.660782,17.642876,17.625755,17.61072,17.597744,17.585073,17.5703,17.554352,17.537605,17.521385,17.504765,17.485527,17.467405,17.449614,17.431896,17.414648,17.399923,17.388494,17.380928,17.375534,17.369583,17.361984,17.355412,17.349966,17.34515,17.341957,17.33829,17.33574,17.335457,17.337183,17.341372,17.347607,17.35606,17.368916,17.387543,17.409832,17.43482,17.461714,17.490051,17.520172,17.551931,17.585014,17.614532,17.632378,17.648027,17.660736,17.668406,17.67136,17.67175,17.672855,17.67501,17.67799,17.682816,17.6901,17.698519,17.709175,17.723106,17.7424
4.7871304,4.8056087,4.818862,4.83453,4.8539963,4.8772287,4.8995442,4.9178414,4.932858,4.9465923,4.9620056,4.980018,4.9996247,5.0196714,5.0394454,5.0587926,5.0766153,5.0927534,5.107486,5.1216793,5.135604,5.1453056,5.152048,5.1567545,5.160056,5.1623116,5.164956,5.168067,5.171279,5.1742096,5.1774635,5.1808486,5.183712,5.1865087,5.1892204,5.1946936,5.2044764,5.2155166,5.226385,5.236925,5.246951,5.2568007,5.2666173,5.276222,5.2854724,5.294547,5.3034935,5.312325,5.3210564,5.3297477,5.3383756,5.3475,5.357005,5.366846,5.3768997,5.3872304,5.397606,5.407983,5.4183745,5.428976,5.439666,5.4504423,5.461276,5.4721737,5.4831266,5.4941216,5.505321,5.5167284,5.5283504,5.540142,5.552099,5.5641975,5.5764046,5.5885553,5.600692,5.612818,5.6250935,5.637371,5.6495,5.6616554,5.6740656,5.6861086,5.6974792,5.7084317,5.7191167,5.729552,5.7398405,5.749957,5.759991,5.7697215,5.7791452,5.788286,5.7972918,5.8054647,5.810176,5.8116364,5.8038216,5.776844,5.755439,5.8038626,6.0676,6.6635714,7.8689365,9.366486,10.900823,13.108239,14.491083,15.238096,15.478108,15.607813,15.903416,16.361374,16.660328,16.880184,17.047882,17.214973,17.387966,17.555023,17.701035,17.802666,17.870152,17.980701,18.08757,18.1386,18.148346,18.156164,18.137753,18.114567,18.08905,18.063717,18.022907,17.951988,17.897741,17.86222,17.845922,17.853254,17.895042,17.948349,18.003443,18.066105,18.138771,18.209381,18.256,18.284872,18.29644,18.296694,18.291372,18.282764,18.280788,18.293545,18.307167,18.32045,18.334595,18.34173,18.34645,18.349562,18.350798,18.347282,18.336185,18.318579,18.297379,18.277733,18.262547,18.254013,18.250671,18.249079,18.2462,18.238628,18.223904,18.201664,18.1711,18.133604,18.093866,18.054813,18.016773,17.9832,17.95274,17.927094,17.904907,17.882427,17.859348,17.836586,17.815195,17.79828,17.786062,17.776093,17.767256,17.756783,17.742535,17.728027,17.706032,17.692926,17.702736,17.708263,17.739603,17.764568,17.790539,17.817463,17.840925,17.854286,17.866665,17.879913,17.893837,17.908142,17.924587,17.94451,17.967113,17.992414,18.016815,18.03777,18.054115,18.06575,18.072866,18.075054,18.067516,18.048542,18.015694,17.972486,17.927582,17.88649,17.849709,17.814798,17.77227,17.72697,17.681099,17.63896,17.603672,17.57623,17.55347,17.53888,17.530209,17.52938,17.533604,17.541012,17.547598,17.54789,17.539661,17.526867,17.513702,17.50357,17.497383,17.494034,17.494055,17.497822,17.502245,17.503784,17.500805,17.49429,17.484177,17.47202,17.458832,17.443447,17.427486,17.411823,17.397085,17.382565,17.36723,17.348625,17.32787,17.305847,17.284283,17.262533,17.23941,17.218103,17.197617,17.17781,17.158428,17.141493,17.128086,17.118713,17.11131,17.103428,17.094627,17.08715,17.080902,17.075508,17.072035,17.06894,17.067862,17.069572,17.073132,17.078201,17.084625,17.092556,17.10419,17.121119,17.141611,17.164501,17.188705,17.21362,17.239668,17.266676,17.294498,17.327124,17.360954,17.392906,17.41893,17.435173,17.444153,17.448898,17.455034,17.462433,17.470428,17.479836,17.490906,17.502266,17.515339,17.53175,17.553852
4.739747,4.7626433,4.779593,4.794621,4.8102064,4.830058,4.8491755,4.864764,4.8776655,4.8895965,4.9029245,4.91883,4.9364414,4.955131,4.973658,4.9913826,5.0075884,5.022524,5.03627,5.0495377,5.0624332,5.071094,5.0770364,5.0812325,5.084211,5.0862627,5.0886316,5.0914097,5.094324,5.0971594,5.1004534,5.1040125,5.107445,5.111394,5.115567,5.1201525,5.124138,5.1302166,5.139411,5.14748,5.1544085,5.161944,5.171623,5.180882,5.189809,5.1986094,5.207341,5.215974,5.224491,5.232938,5.2413006,5.2501354,5.259347,5.2688684,5.2785854,5.2885613,5.2985697,5.30859,5.3186026,5.3287654,5.3389993,5.349304,5.359638,5.3700056,5.3805313,5.3911858,5.402014,5.4130325,5.42422,5.4355364,5.447049,5.4587255,5.4705725,5.4823937,5.4941187,5.5057673,5.5175524,5.5293303,5.540943,5.5525475,5.564327,5.575784,5.5866804,5.597191,5.6074324,5.617468,5.6273975,5.637168,5.646857,5.656269,5.6653914,5.674224,5.68285,5.691279,5.6995277,5.7075024,5.7153063,5.7230973,5.7282743,5.726659,5.708658,5.660629,5.6131577,5.6591396,5.8417835,6.1246986,6.674655,7.5293937,8.493029,9.674302,11.119355,12.73946,14.203684,15.1463375,15.556915,16.08023,16.53114,16.833996,17.12886,17.391058,17.510424,17.58931,17.673948,17.778748,17.812496,17.867744,17.908169,17.918877,17.92281,17.920797,17.90749,17.877203,17.854256,17.836113,17.826168,17.829613,17.854986,17.907732,17.983562,18.060276,18.132566,18.196157,18.254436,18.296892,18.316113,18.312443,18.303383,18.299559,18.294037,18.286411,18.283012,18.280655,18.28101,18.285223,18.291801,18.297506,18.29878,18.29457,18.283138,18.265457,18.245619,18.229694,18.218243,18.212864,18.212528,18.214043,18.213558,18.20737,18.193447,18.173237,18.147348,18.117004,18.085527,18.056423,18.016165,17.974674,17.934557,17.898567,17.86591,17.833637,17.801899,17.771286,17.743149,17.720234,17.702932,17.688019,17.673084,17.653618,17.629549,17.602036,17.571766,17.539238,17.5112,17.48204,17.460213,17.450878,17.45877,17.473103,17.489464,17.501175,17.497688,17.501247,17.50901,17.519592,17.533627,17.551222,17.570553,17.590792,17.609606,17.631855,17.65384,17.67292,17.689743,17.7069,17.718044,17.718472,17.697025,17.663004,17.627382,17.598715,17.575848,17.550219,17.514156,17.465954,17.414017,17.367123,17.327614,17.296116,17.269562,17.251518,17.238081,17.232609,17.2331,17.238241,17.244535,17.247593,17.24656,17.243847,17.241581,17.240393,17.240812,17.24332,17.248474,17.255917,17.262527,17.265015,17.262138,17.255543,17.245136,17.233105,17.221066,17.208244,17.19551,17.182674,17.169315,17.154076,17.135674,17.111649,17.084187,17.05516,17.02694,17.00047,16.974304,16.95102,16.92922,16.90876,16.888817,16.871136,16.85691,16.846252,16.83694,16.827168,16.816502,16.807274,16.800097,16.79414,16.789968,16.786863,16.786486,16.789106,16.794487,16.801805,16.809454,16.817963,16.829357,16.845232,16.864357,16.88542,16.907265,16.929646,16.954031,16.98135,17.010284,17.040676,17.070992,17.10009,17.124397,17.144062,17.161915,17.1791,17.199032,17.220398,17.242233,17.264458,17.284193,17.3003,17.31714,17.33765,17.364187
4.7055264,4.733679,4.7581043,4.7738094,4.786819,4.8039846,4.819592,4.832219,4.842727,4.853062,4.8659477,4.8812637,4.897975,4.915574,4.93258,4.9482193,4.962653,4.976145,4.988542,5.0003815,5.0116653,5.0189824,5.0243006,5.0282845,5.031637,5.0344467,5.0376577,5.0412207,5.044759,5.0479994,5.051676,5.055253,5.0586085,5.0624695,5.0668116,5.071703,5.076311,5.0812054,5.0858393,5.0897183,5.0930862,5.098197,5.1052256,5.112013,5.1187067,5.1256027,5.1328325,5.14018,5.147441,5.154358,5.161408,5.1692986,5.1777644,5.18657,5.195569,5.204726,5.213791,5.222744,5.231469,5.2401657,5.248981,5.257898,5.2666063,5.274972,5.2842655,5.294287,5.3042955,5.3144436,5.3247485,5.335179,5.345772,5.3564634,5.3672447,5.3779955,5.3888006,5.400038,5.4113946,5.4227552,5.434178,5.4455204,5.456695,5.4675584,5.4780407,5.488205,5.498167,5.507889,5.517448,5.526848,5.536171,5.5452404,5.5540433,5.5625844,5.570929,5.5790024,5.586894,5.5946383,5.6021748,5.609372,5.6163864,5.6233225,5.630037,5.636957,5.6407995,5.635756,5.6192255,5.5907536,5.544833,5.4796357,5.467332,5.523959,5.702673,6.0246406,6.7188473,7.8114233,9.58873,12.005406,14.084183,15.308196,16.07363,16.621592,16.936317,17.187973,17.23269,17.237343,17.260374,17.287476,17.326752,17.399643,17.457226,17.493774,17.538715,17.578793,17.605759,17.625444,17.64888,17.677376,17.71127,17.749681,17.795708,17.84998,17.888628,17.92958,17.968582,17.99952,18.022507,18.036777,18.034206,18.027105,18.01599,18.002377,17.991188,17.984285,17.981655,17.984076,17.989944,17.99472,17.991634,17.982481,17.96697,17.941887,17.923218,17.92289,17.92442,17.927769,17.931274,17.932568,17.930237,17.923935,17.913939,17.90187,17.88815,17.872438,17.856121,17.839405,17.824017,17.81308,17.80302,17.790836,17.778399,17.762516,17.742874,17.722397,17.703756,17.688694,17.6777,17.668888,17.657732,17.635155,17.604996,17.571476,17.532333,17.49005,17.449196,17.414833,17.390594,17.374458,17.361862,17.351845,17.337664,17.319431,17.30988,17.307173,17.308968,17.31402,17.32418,17.339443,17.357922,17.376945,17.393105,17.40396,17.410507,17.41305,17.413258,17.433086,17.446712,17.443565,17.41483,17.36778,17.320774,17.309181,17.310213,17.28506,17.246586,17.192755,17.12989,17.06646,17.01738,16.979984,16.9486,16.926575,16.908726,16.89869,16.89471,16.89616,16.901361,16.907623,16.914549,16.922894,16.932274,16.942177,16.952461,16.963554,16.975492,16.987347,16.995628,16.998478,16.99577,16.98835,16.976604,16.963806,16.952126,16.941147,16.930996,16.920162,16.907276,16.890331,16.868223,16.838665,16.804691,16.769482,16.735512,16.703136,16.672832,16.647402,16.624474,16.60387,16.584368,16.56659,16.552158,16.540558,16.52938,16.5175,16.504498,16.492779,16.48339,16.476955,16.474525,16.474604,16.478065,16.484337,16.493004,16.502071,16.509855,16.517792,16.528076,16.54237,16.559725,16.578491,16.597519,16.617155,16.639446,16.664341,16.69168,16.722084,16.752914,16.782986,16.808979,16.83123,16.852621,16.873156,16.897717,16.924244,16.951015,16.979145,17.008537,17.036888,17.066368,17.099783,17.140135
4.6614475,4.7207913,4.7497473,4.766856,4.784383,4.796825,4.810541,4.821051,4.8306427,4.8403068,4.85194,4.8663893,4.8811,4.8954105,4.90948,4.923325,4.9364057,4.9487505,4.9602213,4.9715466,4.9825773,4.9900475,4.9959245,5.000732,5.0049763,5.008518,5.0121584,5.015957,5.01971,5.023182,5.0267115,5.0306664,5.034894,5.0395937,5.0445013,5.049697,5.054453,5.05978,5.0654974,5.0711117,5.0763845,5.0811915,5.0855637,5.089487,5.092831,5.0959697,5.099351,5.1030707,5.107229,5.1112633,5.1170588,5.1244345,5.1322165,5.1402884,5.1485887,5.157011,5.16529,5.1733966,5.1812115,5.1888742,5.196463,5.2040854,5.2117777,5.2193193,5.226381,5.233136,5.2396965,5.2461157,5.252589,5.259136,5.265712,5.272002,5.278019,5.2839947,5.2904263,5.2999654,5.310032,5.3200293,5.3301835,5.3403416,5.3503,5.360107,5.3696876,5.379447,5.3892674,5.398822,5.408206,5.4174223,5.4265795,5.435494,5.4440193,5.452219,5.4602156,5.467953,5.4755273,5.4830112,5.490299,5.497216,5.5039682,5.510702,5.5171747,5.523303,5.5293617,5.5354433,5.5414524,5.5474224,5.5531673,5.5584946,5.5582304,5.549885,5.528142,5.4890394,5.430415,5.4038315,5.4775143,5.801442,6.7348967,8.610647,11.785759,14.288636,14.81473,15.724749,16.346062,16.464375,16.55299,16.590067,16.633474,16.659737,16.685642,16.721964,16.78233,16.846287,16.89994,16.948513,16.994877,17.042316,17.092663,17.146921,17.212795,17.27399,17.326683,17.375874,17.416523,17.445553,17.465034,17.478794,17.4879,17.491228,17.486462,17.481667,17.486526,17.492441,17.49804,17.504763,17.51224,17.515598,17.519066,17.521381,17.52039,17.51983,17.519728,17.521248,17.524174,17.527082,17.529,17.52671,17.518623,17.504786,17.486204,17.465923,17.442842,17.417013,17.389458,17.361488,17.332191,17.314272,17.30344,17.294296,17.284733,17.275425,17.262484,17.251873,17.24871,17.253283,17.265463,17.281397,17.297686,17.311092,17.320267,17.326519,17.31548,17.293638,17.270138,17.248375,17.233273,17.223557,17.216871,17.211792,17.208607,17.209183,17.213127,17.22005,17.230312,17.238523,17.24754,17.260565,17.276543,17.293678,17.31023,17.326073,17.340725,17.352999,17.35851,17.355127,17.345268,17.326214,17.288555,17.2454,17.199509,17.158802,17.100594,17.033226,16.967945,16.877598,16.794834,16.714851,16.640953,16.57668,16.534103,16.510162,16.491276,16.480465,16.474865,16.47422,16.478437,16.487232,16.50107,16.519112,16.538603,16.558363,16.577703,16.597126,16.615723,16.631771,16.641483,16.64416,16.638382,16.627502,16.612198,16.596733,16.583794,16.573498,16.565235,16.556118,16.543968,16.526436,16.5027,16.47074,16.432407,16.39175,16.352695,16.316784,16.28455,16.259914,16.239132,16.220377,16.201046,16.183952,16.170864,16.159498,16.147772,16.135632,16.122395,16.110287,16.100739,16.094858,16.093702,16.096008,16.102669,16.112232,16.124016,16.136208,16.147688,16.15882,16.171871,16.188263,16.206991,16.226223,16.244408,16.260765,16.278114,16.298887,16.324493,16.355057,16.386917,16.41882,16.447287,16.472864,16.498518,16.525314,16.556093,16.588436,16.620514,16.653397,16.686771,16.718658,16.751894,16.789165,16.832521
4.568962,4.6740193,4.735036,4.7586527,4.7742686,4.794574,4.8100977,4.8208866,4.829315,4.838479,4.849353,4.8621197,4.8748484,4.8882236,4.901224,4.9133167,4.924608,4.9352636,4.945713,4.956687,4.967558,4.975088,4.9811893,4.9865065,4.9914846,4.995771,4.999944,5.0040135,5.007617,5.010648,5.0139246,5.0178776,5.022318,5.0273857,5.032611,5.038189,5.043339,5.0490236,5.054965,5.0607476,5.0662785,5.071663,5.0769806,5.082192,5.0869837,5.091568,5.0963125,5.101253,5.106395,5.111456,5.11596,5.1204376,5.124911,5.129641,5.134824,5.140253,5.145771,5.151331,5.156594,5.1612954,5.1651506,5.1686993,5.1727934,5.176982,5.181217,5.1867704,5.192915,5.199006,5.2051954,5.2114296,5.217615,5.223447,5.228855,5.234023,5.239019,5.2435255,5.2478256,5.252013,5.256323,5.260974,5.265848,5.2711825,5.2764597,5.283537,5.29136,5.29862,5.3055973,5.3126097,5.319466,5.326205,5.334173,5.3422494,5.350026,5.3576007,5.3650227,5.3723187,5.379382,5.3860736,5.3926234,5.3991947,5.405469,5.411378,5.4171944,5.4229984,5.4288406,5.4347506,5.440584,5.446315,5.451756,5.4570227,5.4621925,5.4674635,5.470851,5.467478,5.4476185,5.384685,5.313503,5.3257713,5.4943,6.5467033,8.40563,11.267296,13.585768,13.731228,14.234903,14.8741255,15.511884,15.731924,15.864157,15.954878,15.986397,16.006739,16.035484,16.061975,16.117786,16.191141,16.267538,16.34685,16.452171,16.561718,16.660007,16.742939,16.806671,16.852015,16.884705,16.91304,16.9409,16.966038,16.985126,16.99575,16.99734,17.000864,17.009205,17.02175,17.03753,17.048838,17.041092,17.027575,17.009674,16.991043,16.975843,16.969753,16.97091,16.977531,16.98759,16.999939,17.013157,17.023386,17.029083,17.033455,17.029423,17.019241,17.0067,16.992918,16.978176,16.962135,16.944096,16.92638,16.909523,16.891834,16.875298,16.859074,16.844921,16.834888,16.830177,16.832668,16.838203,16.840443,16.836576,16.825775,16.820763,16.816116,16.812588,16.805588,16.803268,16.802555,16.806782,16.812466,16.820686,16.834232,16.853138,16.871025,16.890774,16.91246,16.935877,16.961159,16.99183,17.027504,17.066742,17.108574,17.146421,17.180069,17.20095,17.207775,17.216225,17.225319,17.231169,17.222633,17.182013,17.124207,17.072716,17.019337,16.94302,16.810799,16.648668,16.509396,16.365576,16.222612,16.144405,16.100693,16.068544,16.048252,16.033892,16.0244,16.020956,16.025564,16.039454,16.060635,16.084862,16.110521,16.136122,16.162035,16.185991,16.205605,16.21574,16.217564,16.20922,16.194618,16.174637,16.154827,16.139393,16.129269,16.122795,16.11538,16.104391,16.0868,16.061527,16.02675,15.984357,15.939482,15.896959,15.859795,15.828371,15.804154,15.782379,15.762406,15.74124,15.722427,15.704542,15.689625,15.677682,15.665413,15.652342,15.640669,15.631435,15.626239,15.626064,15.62966,15.638008,15.649086,15.665356,15.682783,15.69953,15.715951,15.734165,15.754946,15.777239,15.79954,15.820246,15.838609,15.856704,15.87766,15.902589,15.933577,15.967753,16.003706,16.037174,16.068344,16.099812,16.13205,16.168116,16.205574,16.242743,16.2806,16.318707,16.355507,16.393959,16.436436,16.484108
4.4270372,4.589895,4.7026277,4.7542257,4.7793856,4.7942495,4.8160753,4.8318434,4.8405323,4.848337,4.8571153,4.8689594,4.8813934,4.8940377,4.906184,4.9171915,4.927264,4.9373665,4.9474626,4.957818,4.968176,4.9754477,4.9814615,4.9867544,4.9919186,4.996497,5.0007334,5.004649,5.0079885,5.010728,5.0136194,5.0171185,5.021036,5.025548,5.0305886,5.036149,5.04126,5.046883,5.0527167,5.058448,5.0639944,5.0694437,5.0748568,5.0801754,5.0851893,5.0901623,5.0954103,5.1008596,5.1063337,5.1115327,5.11627,5.120999,5.125702,5.130456,5.1352754,5.1403775,5.145607,5.1510344,5.156396,5.1614866,5.166313,5.1710634,5.175457,5.1795588,5.183587,5.1872444,5.1909733,5.1952906,5.200257,5.205686,5.211296,5.216504,5.221256,5.2259045,5.2302,5.2339926,5.2372456,5.240142,5.24274,5.2450514,5.2475147,5.2497106,5.2509236,5.2509975,5.249943,5.247918,5.245102,5.242777,5.239657,5.2366915,5.2399435,5.2456684,5.2515264,5.257491,5.263582,5.269823,5.27652,5.283655,5.290883,5.2981563,5.3050385,5.3109446,5.3162346,5.3211126,5.325696,5.330022,5.3339663,5.3375254,5.342308,5.347523,5.3527765,5.358149,5.363902,5.3674045,5.3688164,5.374172,5.373686,5.354144,5.2935977,5.2112484,5.16586,5.1847906,5.696978,7.023365,8.56239,10.185764,11.753954,12.477757,13.065361,13.567968,13.916721,14.214058,14.489866,14.681948,14.831915,14.95307,15.049789,15.129515,15.195642,15.25943,15.296934,15.317964,15.329104,15.350647,15.386568,15.441237,15.513517,15.582537,15.629906,15.658396,15.668392,15.668114,15.663023,15.651943,15.636429,15.609664,15.583865,15.554414,15.534427,15.526531,15.524835,15.525833,15.518723,15.495912,15.451755,15.396515,15.335123,15.255842,15.177876,15.108574,15.054522,15.018713,14.996372,14.986984,14.994255,15.020483,15.064694,15.1200905,15.177277,15.240778,15.306129,15.383877,15.475102,15.578255,15.689695,15.8003645,15.904062,16.008635,16.12053,16.223518,16.310253,16.365334,16.379547,16.378195,16.365595,16.350147,16.343845,16.343208,16.348492,16.358906,16.379238,16.415398,16.460403,16.50784,16.559057,16.618177,16.686764,16.761612,16.840734,16.919325,16.991425,17.06094,17.114582,17.145794,17.171165,17.191359,17.205402,17.219753,17.226871,17.207993,17.182491,17.161491,17.09978,16.971611,16.823387,16.678057,16.541805,16.430187,16.312231,16.185612,16.083643,16.008503,15.94734,15.895664,15.856222,15.835318,15.83569,15.853291,15.880564,15.913727,15.949741,15.98918,16.02903,16.059715,16.076208,16.080368,16.069283,16.047832,16.018675,15.989622,15.969199,15.960777,15.960147,15.958584,15.952605,15.937033,15.908614,15.864746,15.807617,15.744313,15.683329,15.631016,15.589401,15.5590515,15.531337,15.503938,15.471121,15.433849,15.396118,15.364904,15.340323,15.311445,15.28241,15.25609,15.232395,15.212952,15.198309,15.187262,15.180956,15.176275,15.186037,15.200409,15.214076,15.227255,15.241695,15.260855,15.286512,15.312828,15.33744,15.359608,15.380943,15.4052105,15.43471,15.470538,15.511578,15.553042,15.591429,15.626251,15.660046,15.693413,15.731895,15.77301,15.814505,15.8568535,15.899399,15.941428,15.985536,16.033966,16.086441
4.2241,4.4396334,4.621058,4.7314634,4.7898817,4.8017893,4.8197646,4.838967,4.8554034,4.8639884,4.8717766,4.88216,4.892997,4.9046764,4.9155846,4.925535,4.9350996,4.9449043,4.9549866,4.9654675,4.9758296,4.9828305,4.9884357,4.9934635,4.9982166,5.0020113,5.005333,5.008212,5.010588,5.0125957,5.01488,5.0178223,5.0211034,5.024949,5.0294237,5.0345373,5.0392504,5.044613,5.0502563,5.055853,5.0612755,5.0666027,5.0718875,5.077081,5.0820293,5.0869813,5.092241,5.0977116,5.1031575,5.1082954,5.112973,5.1176634,5.122348,5.127138,5.1320534,5.1372266,5.1424837,5.1477013,5.1527514,5.1577377,5.162648,5.1676188,5.172659,5.177704,5.1825476,5.187072,5.191489,5.1960545,5.2008767,5.2060165,5.2112913,5.2161665,5.220595,5.224802,5.2284727,5.231571,5.234192,5.23654,5.238615,5.240364,5.2416906,5.2423983,5.242319,5.2414083,5.2395105,5.237209,5.234165,5.230442,5.2259054,5.221113,5.216337,5.2134304,5.212304,5.2122397,5.2132244,5.2152376,5.2193837,5.2259693,5.23339,5.241105,5.2484274,5.2535577,5.2569275,5.258807,5.259207,5.2582436,5.255837,5.252227,5.2531686,5.256548,5.2606173,5.266013,5.2740927,5.2757416,5.2718143,5.2779846,5.2827578,5.2826495,5.279602,5.2725945,5.2581444,5.220568,5.149227,5.0561457,5.019345,5.047337,5.3165555,5.903743,6.693427,7.6064596,8.5758,9.405697,10.1282215,10.679577,10.956673,11.049133,11.063993,11.021814,10.962307,10.90934,10.827528,10.724555,10.622726,10.571042,10.569138,10.614314,10.698921,10.80682,10.9234705,10.995989,11.006807,10.981512,10.938,10.876162,10.794809,10.6729145,10.542606,10.403351,10.299804,10.237972,10.20392,10.171482,10.11371,10.019002,9.886131,9.724184,9.545441,9.340403,9.138811,8.955866,8.806326,8.702206,8.628813,8.584211,8.581258,8.630183,8.733206,8.870627,9.006397,9.155148,9.298373,9.478976,9.713343,10.008413,10.351141,10.6821165,10.988748,11.312005,11.677907,12.0385475,12.373344,12.618263,12.71067,12.779618,12.827353,12.853519,12.866206,12.871858,12.885748,12.912652,12.96268,13.043226,13.136505,13.229403,13.3367195,13.479923,13.660757,13.869277,14.110327,14.380514,14.666207,14.96971,15.21641,15.403187,15.602207,15.790337,15.980907,16.135372,16.233498,16.310534,16.385098,16.44278,16.480747,16.489014,16.46476,16.428486,16.39516,16.311344,16.228878,16.147167,16.054104,15.973345,15.907296,15.857764,15.822191,15.80705,15.815193,15.841321,15.87917,15.928512,15.985145,16.044168,16.095932,16.12611,16.137264,16.132488,16.11171,16.078423,16.036737,15.996195,15.964575,15.945963,15.936067,15.926413,15.914228,15.897043,15.872549,15.835726,15.784723,15.727737,15.67355,15.630003,15.599386,15.581632,15.565456,15.545149,15.517621,15.489397,15.461153,15.426577,15.381952,15.336256,15.291916,15.249941,15.211749,15.176832,15.145391,15.11896,15.100403,15.084326,15.072423,15.060606,15.047714,15.034569,15.0223875,15.022182,15.04201,15.066135,15.089972,15.112221,15.133303,15.155656,15.183258,15.217911,15.255659,15.292569,15.322235,15.345371,15.365632,15.385524,15.415718,15.452274,15.4908,15.532241,15.5754385,15.6201935,15.668035,15.721411,15.77857
4.0084944,4.1932545,4.428662,4.6201468,4.7560105,4.823844,4.845051,4.8489585,4.8636947,4.879064,4.889758,4.896462,4.9039173,4.913695,4.9233737,4.932825,4.941929,4.951163,4.9610147,4.971362,4.9813633,4.987977,4.9930716,4.9976044,5.0019455,5.005391,5.0083413,5.010886,5.012763,5.013835,5.0150876,5.0171094,5.019572,5.0227213,5.026577,5.031152,5.035343,5.0403147,5.0456004,5.0508256,5.05585,5.0607777,5.065692,5.0705853,5.07533,5.0801497,5.085307,5.090651,5.0958967,5.1007853,5.105233,5.109723,5.1143246,5.1191397,5.1241,5.1292944,5.1345973,5.1399484,5.1452713,5.1506653,5.156102,5.161663,5.167288,5.1729,5.178351,5.1835356,5.188636,5.193829,5.199188,5.2046623,5.210094,5.215145,5.219648,5.2236066,5.227027,5.230002,5.2326574,5.235236,5.2377534,5.2400627,5.2419806,5.243167,5.243539,5.243219,5.2421017,5.2399144,5.2367754,5.232855,5.2288857,5.2250676,5.221878,5.2187905,5.216399,5.214505,5.213127,5.2118587,5.210493,5.209382,5.2088223,5.208908,5.209242,5.209365,5.209228,5.208637,5.2071476,5.205034,5.2024274,5.1998835,5.1971292,5.19693,5.19773,5.2003713,5.2044144,5.211567,5.2225,5.2328243,5.239565,5.2325125,5.214718,5.203784,5.192868,5.1849203,5.177183,5.174467,5.1612277,5.1403,5.1255836,5.1014175,5.103342,5.1114693,5.1225863,5.174359,5.2831674,5.439953,5.5999174,5.736399,5.831577,5.886451,5.8992696,5.878438,5.851483,5.8424397,5.859388,5.875143,5.884306,5.88874,5.8920746,5.8980103,5.906168,5.9177876,5.929883,5.9368544,5.935771,5.9280696,5.9170346,5.9088984,5.903353,5.906678,5.9106216,5.912107,5.9114347,5.909838,5.9102564,5.9133663,5.919562,5.929082,5.941126,5.956594,5.970495,5.9809113,5.9867883,5.990152,5.9903345,5.98602,5.9751587,5.95695,5.9332867,5.910818,5.8934364,5.8794737,5.8745556,5.875845,5.882967,5.8934855,5.9067793,5.928877,5.9619184,6.004938,6.050499,6.102684,6.1640778,6.2384124,6.328431,6.432125,6.5417686,6.6201963,6.675434,6.716824,6.760064,6.8163366,6.8858833,6.961889,7.0435853,7.137147,7.2522917,7.3980465,7.574484,7.7796345,8.027292,8.317804,8.651747,9.022519,9.376894,9.770449,10.225817,10.726698,11.2930765,11.816704,12.2272835,12.596376,12.953161,13.284855,13.608547,13.950476,14.311488,14.685533,15.064095,15.288837,15.331737,15.295383,15.243481,15.2083845,15.181228,15.159001,15.139647,15.130793,15.142485,15.179047,15.232418,15.295757,15.364553,15.43297,15.489307,15.535353,15.560265,15.568486,15.55489,15.524014,15.479303,15.432537,15.390118,15.35499,15.323793,15.292494,15.26211,15.233162,15.205779,15.179264,15.149853,15.122532,15.102146,15.0939455,15.096261,15.1085415,15.129887,15.1448,15.145973,15.138144,15.128,15.114196,15.099738,15.086559,15.074915,15.064276,15.055021,15.045398,15.031404,15.02095,15.021966,15.033717,15.05503,15.075429,15.093159,15.10729,15.12763,15.151821,15.176278,15.205101,15.231606,15.2503195,15.268513,15.290905,15.318405,15.351896,15.387688,15.422797,15.438858,15.449188,15.461313,15.477556,15.5038395,15.533308,15.56394,15.599691,15.639423,15.681908,15.727253,15.778886,15.835369
3.8844805,3.962108,4.1589117,4.3980255,4.620516,4.7751565,4.866231,4.8853254,4.879656,4.885256,4.9019995,4.91582,4.9232416,4.9285107,4.933869,4.9398937,4.9466276,4.9555235,4.965115,4.9750395,4.9846325,4.990983,4.995661,4.9997444,5.0035615,5.006467,5.008894,5.011068,5.012763,5.0138397,5.014938,5.0164766,5.018479,5.02133,5.0249386,5.0293407,5.0334435,5.038179,5.0431404,5.0480113,5.052634,5.0571632,5.061701,5.066249,5.0706735,5.0751834,5.0800104,5.0850058,5.0898523,5.094317,5.0983434,5.1024103,5.106678,5.111267,5.116029,5.121027,5.1261883,5.1314983,5.1369395,5.1426287,5.1485043,5.154577,5.160755,5.166955,5.173027,5.17886,5.184587,5.190359,5.1962824,5.202215,5.207966,5.21319,5.2176538,5.221386,5.224509,5.2272015,5.2296085,5.232023,5.234539,5.2369537,5.2390614,5.2405777,5.2414303,5.241907,5.241889,5.2410545,5.2393694,5.2369585,5.234248,5.2312756,5.2284026,5.2258883,5.2236443,5.221198,5.2184734,5.214915,5.2106657,5.2062464,5.2017546,5.1972733,5.1927567,5.1874747,5.181218,5.174661,5.167582,5.1609077,5.1549025,5.1496477,5.145655,5.1450167,5.1464586,5.150428,5.1563263,5.163529,5.172023,5.1807737,5.1878166,5.1950374,5.2043123,5.2016945,5.172383,5.147647,5.1283503,5.113214,5.10057,5.092559,5.0868235,5.080473,5.076149,5.0898466,5.1164494,5.16392,5.2130675,5.2632465,5.31859,5.3749266,5.4298573,5.483783,5.537499,5.5875263,5.6333537,5.6735916,5.7079797,5.737508,5.761654,5.781522,5.7994804,5.816679,5.832527,5.8458557,5.8555784,5.8615265,5.8642864,5.8646812,5.864735,5.866441,5.8708873,5.878229,5.8867283,5.8943105,5.9002533,5.9047837,5.9091506,5.9141593,5.9203773,5.9279704,5.9364862,5.944669,5.950375,5.9523053,5.9505873,5.9453335,5.9360533,5.92237,5.9035854,5.880609,5.8556705,5.8302164,5.8050537,5.782634,5.764524,5.751317,5.7428026,5.7378325,5.736007,5.737435,5.741945,5.7480965,5.7546196,5.7599936,5.7633314,5.764839,5.7663083,5.766465,5.7664175,5.769223,5.773494,5.779332,5.7853365,5.7918577,5.799406,5.8103166,5.8262568,5.8461037,5.8681555,5.890684,5.913911,5.946247,5.982046,6.0185037,6.0566893,6.1047096,6.176631,6.253914,6.3656836,6.544961,6.763892,7.030591,7.3546243,7.7462263,8.141354,8.533465,8.961951,9.487347,10.07699,10.753683,11.534019,12.280073,12.69137,12.905891,13.046726,13.1484785,13.221121,13.269274,13.30064,13.323356,13.354723,13.412518,13.4844265,13.563267,13.639827,13.718093,13.804677,13.88889,13.9512,13.979708,13.963795,13.907802,13.824934,13.732687,13.637544,13.546757,13.455841,13.368027,13.295594,13.248798,13.230618,13.240534,13.264442,13.30053,13.34782,13.406536,13.473401,13.537125,13.618875,13.713225,13.807825,13.887185,13.952923,14.011225,14.051664,14.081354,14.114431,14.15671,14.206219,14.258284,14.33612,14.421229,14.497503,14.571748,14.628048,14.6841755,14.735632,14.763607,14.791127,14.824047,14.855858,14.885822,14.924036,14.975652,15.031319,15.096558,15.172453,15.252523,15.328329,15.386038,15.420911,15.447733,15.469944,15.49132,15.520664,15.553358,15.590473,15.629372,15.669842,15.713669,15.762001,15.815957,15.8745985
3.8074431,3.8366885,3.9163337,4.112043,4.366489,4.609139,4.793853,4.8824034,4.90637,4.89168,4.9015284,4.9260406,4.939888,4.9469786,4.949092,4.9483175,4.9494762,4.9558716,4.964392,4.9749813,4.9852877,4.991689,4.9963923,5.0004215,5.004012,5.0066786,5.008881,5.01098,5.0127487,5.0140147,5.015279,5.016883,5.0188417,5.0215626,5.0250244,5.029353,5.0334487,5.038245,5.0432715,5.0481663,5.0527086,5.0570884,5.0614347,5.0657444,5.069875,5.074035,5.0784693,5.083047,5.0874605,5.0915174,5.0951905,5.0989513,5.102895,5.10706,5.1113806,5.1159077,5.120605,5.1255407,5.130746,5.1363535,5.142288,5.148512,5.1548753,5.161294,5.1675997,5.173657,5.179581,5.18559,5.191817,5.198136,5.204298,5.209877,5.214652,5.2186165,5.2218547,5.224599,5.2270536,5.2295094,5.2319994,5.2343044,5.236419,5.2381277,5.2394466,5.2407246,5.241786,5.2422094,5.2418957,5.240936,5.2396307,5.2378826,5.2359476,5.2339277,5.23182,5.2292633,5.2261877,5.222305,5.2173886,5.211383,5.204441,5.1966763,5.188221,5.1787577,5.168384,5.1578283,5.146929,5.1370134,5.1282153,5.120577,5.114004,5.1089697,5.105247,5.1036215,5.1064863,5.1111584,5.118087,5.126181,5.1336775,5.140934,5.147419,5.153825,5.1617584,5.168519,5.1719136,5.139801,5.1116266,5.0947943,5.093544,5.093833,5.088613,5.091036,5.1062818,5.130187,5.162622,5.20359,5.250918,5.3024673,5.359621,5.4168234,5.472967,5.526904,5.579823,5.630188,5.6772842,5.7192135,5.755478,5.786687,5.812627,5.836046,5.8567247,5.874054,5.8876615,5.897749,5.90501,5.9104824,5.916154,5.923176,5.932295,5.9431815,5.953753,5.9630175,5.9706106,5.9770017,5.9833436,5.990339,5.998401,6.007543,6.0173054,6.0264897,6.033094,6.03598,6.0350084,6.030431,6.0216217,6.008224,5.9896674,5.966603,5.94092,5.9143467,5.8875456,5.8597836,5.832292,5.8086524,5.788556,5.7711344,5.755681,5.7425156,5.7312956,5.720578,5.7090855,5.6959143,5.680319,5.6627417,5.645392,5.6306553,5.6201625,5.6125607,5.607019,5.6035023,5.601413,5.6012883,5.6026115,5.6064873,5.612973,5.6207676,5.629571,5.638928,5.6479917,5.6557684,5.6629167,5.670211,5.6794553,5.693582,5.7133026,5.740593,5.771072,5.8042555,5.858139,5.931924,6.0197163,6.12397,6.233289,6.3393354,6.443555,6.5494704,6.67189,6.887801,7.238913,7.706196,8.261354,8.760334,9.188618,9.46632,9.655643,9.793868,9.904131,9.979317,10.018704,10.029558,10.027187,10.029142,10.047857,10.085836,10.152944,10.235868,10.313505,10.356495,10.349442,10.290102,10.194587,10.086369,9.969555,9.849152,9.721548,9.598486,9.501795,9.451699,9.449158,9.490509,9.560442,9.649414,9.749486,9.857826,9.974361,10.076197,10.170154,10.27401,10.391186,10.520583,10.641293,10.766211,10.87771,10.992951,11.14102,11.316473,11.506533,11.703413,11.947548,12.192036,12.41132,12.621571,12.800474,12.99381,13.184008,13.358582,13.464956,13.561209,13.62428,13.673906,13.760175,13.895006,14.039637,14.185811,14.350802,14.540739,14.733522,14.862604,14.959122,15.023888,15.07155,15.117377,15.163149,15.196598,15.213343,15.227085,15.238642,15.2519455,15.271732,15.317987,15.383598
3.7407331,3.7552786,3.7878983,3.883805,4.079276,4.3381114,4.595083,4.7749376,4.8702703,4.885911,4.8905144,4.919897,4.948304,4.961321,4.9627504,4.958442,4.955195,4.9551134,4.960246,4.970253,4.981358,4.9894524,4.995252,4.9996977,5.003566,5.0064607,5.0089045,5.0113935,5.0136623,5.0154963,5.017319,5.0193853,5.021693,5.024641,5.0282907,5.0327673,5.0369477,5.0417547,5.046625,5.051305,5.055647,5.0597477,5.06373,5.0677066,5.071515,5.075308,5.079314,5.083524,5.08751,5.0911703,5.0945525,5.098012,5.101688,5.1056075,5.1096506,5.1138554,5.1181774,5.1227684,5.127716,5.133166,5.1390085,5.1450834,5.1513357,5.1577063,5.163992,5.170068,5.1759744,5.181842,5.1879363,5.1942143,5.200415,5.206154,5.211115,5.215293,5.218771,5.2217565,5.2244835,5.2271547,5.2298174,5.2323337,5.234727,5.2368617,5.2388678,5.2409434,5.242881,5.244379,5.2452717,5.245534,5.245366,5.244603,5.24345,5.242018,5.240297,5.2378926,5.2347927,5.2305984,5.225006,5.2177997,5.2092333,5.1994004,5.1884594,5.176388,5.1634083,5.150338,5.137555,5.125263,5.1135397,5.1035576,5.095381,5.0896554,5.0859036,5.083889,5.0832486,5.0841355,5.08626,5.0887895,5.0928154,5.098143,5.1034317,5.1084967,5.110963,5.1124706,5.113899,5.121173,5.1305804,5.140727,5.1507626,5.156698,5.147954,5.14781,5.1538534,5.167728,5.1898255,5.219756,5.256897,5.2990217,5.3465157,5.400406,5.455512,5.509676,5.5652475,5.618258,5.668715,5.715108,5.7563734,5.792796,5.822501,5.8490868,5.872593,5.892911,5.9101925,5.9246206,5.936366,5.9461975,5.9557867,5.9663296,5.9782133,5.9904203,6.000841,6.009403,6.01606,6.0213494,6.0263367,6.031517,6.037141,6.0432005,6.049453,6.0550766,6.0587697,6.0598993,6.0583143,6.054142,6.046815,6.03582,6.0205345,6.0013514,5.9794393,5.9574203,5.9357033,5.9118266,5.886384,5.863778,5.844042,5.8262424,5.809741,5.7950077,5.7815924,5.767559,5.751894,5.734663,5.71508,5.6936626,5.6724567,5.651302,5.6335497,5.619933,5.609598,5.6018076,5.5947585,5.588229,5.582894,5.578004,5.5737815,5.5701723,5.56668,5.5626698,5.5573955,5.5504084,5.5418997,5.5322495,5.5232697,5.5173564,5.5153027,5.5166073,5.5199847,5.525556,5.5356627,5.552206,5.573221,5.5960627,5.6211405,5.648632,5.6744647,5.697504,5.7191925,5.7315006,5.76344,5.8167334,5.881396,5.979674,6.0976973,6.2152953,6.310628,6.3719387,6.404009,6.4024773,6.370081,6.315401,6.2568307,6.204012,6.161234,6.133201,6.1244326,6.1308165,6.1464233,6.1618853,6.169821,6.167288,6.1536674,6.1325207,6.105091,6.073051,6.0358577,5.9979734,5.966739,5.950214,5.9503193,5.966224,5.992844,6.0257196,6.059366,6.0903654,6.1183157,6.141033,6.15981,6.1769376,6.199752,6.2361307,6.29298,6.3692975,6.4699345,6.6033907,6.778509,6.9744525,7.177186,7.385401,7.587489,7.7782664,7.9868746,8.223188,8.496094,8.792555,9.088331,9.397663,9.63378,9.844708,10.000109,10.149239,10.31974,10.499564,10.68322,10.866016,11.052155,11.27577,11.53414,11.765686,11.9634905,12.107188,12.239589,12.384388,12.540442,12.688946,12.806803,12.922802,13.048379,13.189917,13.309853,13.437119,13.578889
3.670669,3.691965,3.7104878,3.7559946,3.8561082,4.0422463,4.2969546,4.547102,4.73615,4.8268576,4.8587656,4.89276,4.940961,4.967415,4.97425,4.9686985,4.961772,4.957504,4.958929,4.964696,4.97439,4.9840355,4.9914274,4.997075,5.001705,5.005663,5.0090556,5.012558,5.0159073,5.0187664,5.021487,5.02426,5.027046,5.0302334,5.0339756,5.038333,5.0421333,5.046507,5.050977,5.055319,5.0594354,5.0633593,5.067113,5.0708156,5.074272,5.0777035,5.0814085,5.08552,5.089528,5.0931673,5.0963774,5.0995917,5.1030607,5.1068144,5.110581,5.114154,5.1177735,5.121665,5.125987,5.130884,5.13626,5.141901,5.147847,5.15401,5.16012,5.165946,5.171321,5.176611,5.18242,5.1887627,5.195282,5.2010202,5.206086,5.210487,5.2140975,5.217161,5.2200346,5.222829,5.2255507,5.2280107,5.2303333,5.23254,5.234886,5.2376127,5.24052,5.24288,5.2446074,5.2457423,5.2464275,5.2464795,5.246072,5.2452984,5.2441344,5.2421846,5.239381,5.235448,5.2300615,5.2229977,5.214548,5.204703,5.193605,5.1815047,5.1684923,5.1552696,5.14216,5.129408,5.1179957,5.108185,5.0997047,5.09289,5.0872703,5.082548,5.078599,5.0754375,5.0728326,5.0704813,5.068311,5.0661955,5.06403,5.0612445,5.057477,5.0545444,5.052153,5.0524135,5.0550337,5.059352,5.0646133,5.072155,5.083014,5.0941057,5.107256,5.123562,5.1432867,5.166706,5.194927,5.228483,5.2647786,5.3071713,5.3541136,5.4017363,5.4490833,5.493946,5.5382605,5.579709,5.617507,5.653508,5.6855035,5.713354,5.737218,5.7580347,5.776125,5.791195,5.8041253,5.8161736,5.8280783,5.840261,5.8525534,5.8649015,5.8762255,5.88546,5.892625,5.8980722,5.903013,5.908227,5.914197,5.920764,5.9273143,5.9329114,5.9365973,5.937885,5.9361925,5.931553,5.9243717,5.9141636,5.9003143,5.882455,5.8614564,5.840778,5.820554,5.801476,5.7847414,5.7714987,5.760395,5.7500124,5.7402296,5.7306757,5.721244,5.7112045,5.700138,5.68873,5.677157,5.665283,5.653159,5.638589,5.6250057,5.61415,5.605459,5.5981803,5.5904055,5.581714,5.573744,5.5657673,5.5580463,5.5507507,5.5439954,5.537464,5.530765,5.52312,5.5144067,5.504565,5.494404,5.4857106,5.477586,5.46539,5.453465,5.4409738,5.4278984,5.418462,5.413865,5.4134145,5.415846,5.418578,5.418378,5.4149084,5.4110665,5.4090595,5.405155,5.4033556,5.400114,5.393035,5.3883314,5.3964796,5.4025793,5.402071,5.39739,5.388874,5.375828,5.357704,5.3445854,5.3390255,5.334611,5.3302336,5.325221,5.3189707,5.3114195,5.304287,5.298497,5.2958355,5.296386,5.2979574,5.3010364,5.3048334,5.307916,5.3085833,5.3069024,5.3045607,5.3030663,5.302208,5.301491,5.300042,5.2971535,5.2926464,5.2891293,5.2865534,5.284683,5.283231,5.281099,5.277885,5.274526,5.2699986,5.2645335,5.2641563,5.2693033,5.2786336,5.2921505,5.307188,5.3218975,5.3405876,5.360214,5.382942,5.414244,5.4512405,5.4989676,5.5538406,5.6257806,5.7063003,5.801754,5.906315,6.0165954,6.131054,6.245085,6.3510857,6.43505,6.520338,6.617587,6.7444715,6.8958845,7.045865,7.199345,7.36388,7.5476375,7.747665,7.9514604,8.155947,8.376894,8.620827,8.832827,9.003309,9.159758
3.6239924,3.643032,3.6627033,3.6880121,3.7323663,3.8307736,4.0069885,4.252384,4.500252,4.6873026,4.7881107,4.84235,4.909808,4.9601703,4.98048,4.98094,4.972166,4.963376,4.9606934,4.9629793,4.97183,4.9805937,4.9887977,4.9957347,5.0009594,5.0056705,5.010315,5.01523,5.019903,5.023938,5.027646,5.031141,5.034343,5.037615,5.041171,5.0452843,5.0482397,5.051792,5.055875,5.060089,5.0642214,5.068373,5.072377,5.076122,5.0793886,5.0826817,5.0864964,5.090913,5.0955915,5.099751,5.1031437,5.106186,5.1094275,5.1128716,5.1161327,5.1189575,5.121625,5.124441,5.1276045,5.1312795,5.135495,5.1401443,5.145061,5.150011,5.1547194,5.158869,5.1623864,5.1661177,5.1707973,5.176567,5.18305,5.189033,5.194648,5.1998367,5.2043276,5.208296,5.2120266,5.2156854,5.219141,5.2217183,5.2237797,5.2257776,5.2280912,5.2309666,5.2342377,5.237034,5.239298,5.241133,5.242725,5.2437835,5.244219,5.244195,5.2436743,5.24228,5.2399545,5.236454,5.2316847,5.2254496,5.2177505,5.208611,5.1981664,5.1866674,5.174222,5.161433,5.148775,5.1366873,5.12566,5.1159153,5.106941,5.0987797,5.0915956,5.0850687,5.078959,5.0732117,5.0678844,5.062752,5.0576034,5.0521517,5.0462437,5.0397444,5.033231,5.0272155,5.0210314,5.016054,5.013449,5.01322,5.0150576,5.017577,5.019532,5.020846,5.022731,5.0266585,5.033187,5.042995,5.05818,5.080283,5.109437,5.1449747,5.1871214,5.2339115,5.2823997,5.330275,5.377367,5.424921,5.4721127,5.5162687,5.5562925,5.5956197,5.6324434,5.662935,5.688236,5.7086153,5.7263975,5.743494,5.7595453,5.774563,5.788211,5.800311,5.8103523,5.81748,5.821788,5.8237705,5.8249044,5.8261375,5.8281975,5.831356,5.834795,5.837187,5.8376837,5.835726,5.8343353,5.8324337,5.8291845,5.823761,5.815401,5.803605,5.78871,5.7728333,5.7554426,5.7360477,5.7160482,5.698641,5.6839633,5.672049,5.6610713,5.6516833,5.643015,5.6330605,5.6215925,5.6086254,5.593742,5.576865,5.560707,5.546584,5.534654,5.5243664,5.5151696,5.5065756,5.498244,5.4899616,5.4819083,5.4753437,5.469491,5.4634824,5.4574604,5.4510508,5.4440327,5.4362326,5.427565,5.417811,5.4103765,5.4044185,5.3986225,5.386981,5.3752413,5.363369,5.3516226,5.3381777,5.324854,5.316412,5.3115654,5.307994,5.302638,5.294697,5.2789497,5.262494,5.2475758,5.2379527,5.231086,5.226245,5.2190633,5.208251,5.19656,5.186916,5.180528,5.178402,5.179734,5.182433,5.1834526,5.182579,5.1811314,5.179885,5.1784735,5.175764,5.1714826,5.1672163,5.163745,5.162084,5.1618996,5.1626444,5.164538,5.1671324,5.169013,5.168625,5.165969,5.1622314,5.1590137,5.156845,5.155036,5.15294,5.149951,5.1457734,5.141205,5.1375437,5.134166,5.130627,5.126473,5.1220493,5.118267,5.1143475,5.1100435,5.105576,5.101816,5.098853,5.095166,5.0901966,5.0840254,5.077526,5.070952,5.0645366,5.0581856,5.0533094,5.0495443,5.045164,5.039534,5.033125,5.0270514,5.022374,5.0192003,5.0165367,5.0142393,5.0116367,5.013216,5.0146785,5.016487,5.023759,5.0336933,5.047078,5.062524,5.079728,5.098955,5.121294,5.1468005,5.1760626,5.2085876,5.242196,5.277669,5.312253,5.3485656
3.6046395,3.6170113,3.6342125,3.653862,3.6703763,3.7105067,3.804604,3.9772997,4.2152205,4.467436,4.6586123,4.7708907,4.8548546,4.9309707,4.975115,4.9895587,4.9847507,4.972597,4.9642057,4.962128,4.9690456,4.9778376,4.9868546,4.994789,5.001127,5.0067086,5.012819,5.0193796,5.0255623,5.030912,5.035695,5.0399575,5.043562,5.046743,5.0498037,5.0533805,5.056195,5.0591836,5.062504,5.0662565,5.0702353,5.0743933,5.078395,5.0821867,5.085717,5.089308,5.0935135,5.098531,5.1034575,5.107572,5.111127,5.114285,5.1175613,5.120862,5.1239386,5.126756,5.1291447,5.1313934,5.1337004,5.136302,5.1393547,5.1427755,5.1461697,5.1492243,5.151782,5.1535935,5.154744,5.155999,5.1581945,5.161747,5.1664257,5.171611,5.176841,5.1820726,5.1871047,5.19197,5.196639,5.201318,5.2058954,5.2095942,5.2124305,5.214527,5.216215,5.2181644,5.220503,5.22298,5.2253656,5.227579,5.2298017,5.2316523,5.2329445,5.2338467,5.234312,5.233921,5.2325583,5.2299094,5.2257977,5.2203484,5.2137785,5.206133,5.1975813,5.188316,5.1783023,5.167983,5.1575646,5.1473484,5.1375666,5.128418,5.1196237,5.111237,5.103401,5.095991,5.088723,5.08113,5.073653,5.0665073,5.0593605,5.0515804,5.0430427,5.033557,5.023395,5.0132694,5.0038576,4.995723,4.989684,4.9853134,4.981965,4.9786577,4.974394,4.9693227,4.9634056,4.9582167,4.9552555,4.9553585,4.9594307,4.9688234,4.9845896,5.0071135,5.0372477,5.073886,5.1156836,5.1596413,5.202716,5.247454,5.2929583,5.338907,5.3824396,5.4263225,5.472303,5.515653,5.5509357,5.5802393,5.6060524,5.6304474,5.6539087,5.6761446,5.6963615,5.7138515,5.7273817,5.735738,5.7392664,5.7386613,5.7358513,5.731921,5.7275767,5.7231092,5.7184362,5.7155313,5.7137985,5.710302,5.708495,5.7077913,5.7063503,5.7031765,5.6985836,5.693939,5.6875534,5.679151,5.668398,5.6554832,5.6410017,5.6266785,5.6156125,5.6090736,5.6048164,5.602791,5.6012344,5.59791,5.59176,5.582155,5.568527,5.550565,5.5320597,5.514777,5.5003204,5.4881144,5.4772377,5.4669895,5.456954,5.4466896,5.4363966,5.426896,5.4174843,5.4075747,5.3968253,5.3844776,5.370325,5.3548083,5.337848,5.3193965,5.302429,5.285866,5.271866,5.261578,5.25074,5.240882,5.234911,5.2296085,5.2245884,5.223468,5.2255707,5.2289076,5.232032,5.2343273,5.227628,5.2180395,5.2091575,5.198883,5.1888933,5.1808805,5.171378,5.160508,5.147747,5.1371517,5.1306963,5.1290483,5.130761,5.1337748,5.1366673,5.139428,5.142093,5.1444087,5.1456013,5.144146,5.139904,5.1345234,5.1293397,5.1261096,5.1250677,5.125563,5.1276746,5.130461,5.132102,5.1310387,5.1279135,5.1248684,5.1232586,5.122725,5.1215043,5.118271,5.1128187,5.105518,5.099989,5.0956287,5.0917587,5.087928,5.0835257,5.078824,5.0742655,5.069641,5.064854,5.0601535,5.056043,5.0523605,5.0479016,5.0420446,5.034089,5.0249815,5.0158715,5.007209,4.9999743,4.993992,4.988892,4.98374,4.978054,4.9718904,4.9659176,4.9611306,4.957926,4.9554424,4.9526854,4.948692,4.946724,4.9456716,4.9456377,4.946548,4.9480696,4.9490204,4.948884,4.9481277,4.947568,4.9478083,4.948679,4.950794,4.9527683,4.9528427,4.9515696,4.949495,4.9470415
3.578084,3.5946674,3.6081307,3.6262398,3.64116,3.6518226,3.6946282,3.7919292,3.962594,4.205261,4.4540205,4.6507673,4.7765217,4.8605165,4.931461,4.9715943,4.9808564,4.972418,4.9609423,4.9545894,4.958582,4.9659348,4.9749594,4.9838085,4.9914417,4.999037,5.007265,5.0158563,5.023921,5.030857,5.0368643,5.042018,5.046153,5.0493608,5.0520887,5.05505,5.057641,5.06059,5.063869,5.0676465,5.0716906,5.075891,5.0799727,5.083901,5.087635,5.0915275,5.096003,5.101192,5.106243,5.1108017,5.115066,5.1190805,5.1231327,5.1270657,5.130493,5.1335955,5.1361713,5.1384273,5.140478,5.142547,5.144932,5.147624,5.1503696,5.1528378,5.154731,5.1551576,5.1543117,5.153384,5.1532784,5.154473,5.156844,5.1597166,5.162895,5.1665134,5.1703124,5.174424,5.1787386,5.1833696,5.1881704,5.1925516,5.1960163,5.198183,5.1994348,5.200655,5.2021933,5.203846,5.205529,5.207242,5.2091446,5.210947,5.21264,5.2142496,5.215695,5.2164764,5.2163,5.2148256,5.211693,5.2072,5.202046,5.196359,5.1903,5.184037,5.177676,5.171357,5.164706,5.1575475,5.1500025,5.1420255,5.1337,5.1252537,5.1167107,5.1081667,5.0994883,5.090306,5.081419,5.0732036,5.0651956,5.056719,5.0476,5.0376005,5.0269566,5.0162964,5.0059114,4.996275,4.98806,4.9811335,4.97477,4.96801,4.9599857,4.9508233,4.9410367,4.931657,4.9236574,4.9177237,4.914361,4.9147167,4.919858,4.930773,4.947893,4.970392,4.9984055,5.0295124,5.060988,5.091419,5.1213627,5.1542673,5.1852007,5.2136297,5.2431374,5.2753386,5.3052454,5.3322225,5.3573613,5.38207,5.407752,5.434867,5.462677,5.4899936,5.5142126,5.533371,5.5467896,5.5549335,5.5594363,5.561163,5.5614233,5.5607963,5.5606384,5.562416,5.565085,5.5670543,5.568376,5.5697913,5.5714674,5.5727587,5.5737,5.5748076,5.5745087,5.572468,5.569257,5.565857,5.5617375,5.5577393,5.554761,5.5529175,5.551996,5.551938,5.551531,5.5493736,5.548121,5.5450077,5.5380054,5.526665,5.5120325,5.496356,5.4828944,5.471583,5.461319,5.451584,5.4414263,5.4306927,5.4187784,5.4051857,5.3904176,5.3752427,5.35962,5.3431044,5.3257694,5.3079643,5.289242,5.2692337,5.249477,5.231074,5.213975,5.199371,5.184168,5.1692405,5.1557837,5.1480618,5.1460805,5.1456776,5.146826,5.148753,5.15087,5.1532555,5.1561995,5.1587267,5.1611714,5.1615887,5.1580496,5.1506395,5.1419144,5.132079,5.120299,5.1101704,5.103041,5.0993443,5.0980873,5.0980268,5.0983963,5.099644,5.1017656,5.1038103,5.104822,5.1033564,5.0993004,5.0941024,5.08901,5.085381,5.083885,5.0836787,5.0847044,5.086157,5.0866714,5.0851336,5.082569,5.081122,5.0813837,5.082224,5.0815067,5.077712,5.0713053,5.06333,5.05721,5.0521727,5.047434,5.0426455,5.037142,5.031193,5.025525,5.020242,5.0154767,5.011671,5.0091286,5.00682,5.003034,4.997591,4.990959,4.984516,4.9768763,4.9710026,4.9659805,4.961417,4.9574037,4.9534807,4.94933,4.945168,4.9414506,4.938921,4.9365854,4.9333477,4.9297194,4.9251537,4.920069,4.915453,4.9120836,4.9102116,4.9087915,4.9067507,4.9037514,4.9000263,4.8958693,4.8915625,4.886912,4.8822575,4.8770924,4.870862,4.864258,4.858202,4.85244
3.543423,3.5646148,3.5820777,3.5980694,3.6144319,3.6294823,3.6469507,3.6933985,3.7849061,3.9522352,4.190871,4.4501953,4.652664,4.7753,4.8567553,4.9112487,4.9436264,4.9487486,4.94064,4.9319916,4.9332743,4.9378395,4.9456363,4.9541054,4.9634585,4.9723105,4.9817753,4.991826,5.001334,5.009603,5.0167446,5.022813,5.0276294,5.0312233,5.034148,5.037168,5.0396094,5.0429435,5.0469093,5.0514197,5.056179,5.061057,5.065851,5.0704556,5.0747056,5.0791626,5.0840464,5.089369,5.094841,5.100313,5.1055436,5.1103306,5.1150093,5.119541,5.123709,5.127658,5.131119,5.13414,5.136716,5.1390314,5.141403,5.144001,5.146734,5.149291,5.1511993,5.1517878,5.150588,5.148433,5.146778,5.146248,5.146819,5.1477714,5.148945,5.150665,5.1527815,5.1555653,5.158914,5.162983,5.1675196,5.1717854,5.1750903,5.177044,5.1780567,5.1787987,5.179649,5.1806326,5.181799,5.183179,5.184998,5.1867914,5.1887336,5.190935,5.1931095,5.1947303,5.19536,5.1947823,5.192678,5.189248,5.185405,5.181426,5.177474,5.173667,5.1700287,5.166479,5.1628237,5.158637,5.153594,5.1470566,5.1392736,5.131032,5.1223845,5.113534,5.1046543,5.0957527,5.0869474,5.078717,5.071145,5.0634775,5.055483,5.04688,5.0373626,5.0274506,5.0175853,5.0082436,4.999868,4.992282,4.9841313,4.975273,4.965268,4.954299,4.9432454,4.9335127,4.925082,4.917946,4.912571,4.908328,4.90612,4.907913,4.9146547,4.926128,4.9414406,4.95924,4.978478,4.9987926,5.019761,5.039863,5.05905,5.0773044,5.094755,5.1126127,5.1319575,5.1515875,5.1715937,5.192523,5.215664,5.24236,5.2728915,5.3064303,5.3399982,5.37088,5.39674,5.416975,5.432715,5.445153,5.456127,5.46646,5.4765544,5.48513,5.491544,5.496867,5.5019736,5.5076,5.513985,5.520592,5.5265603,5.5311046,5.534159,5.536057,5.5369205,5.537977,5.5386105,5.5386586,5.5379634,5.5361443,5.5331726,5.5298033,5.525629,5.5197687,5.515149,5.510653,5.504163,5.494959,5.4833384,5.470396,5.458721,5.4480634,5.4374332,5.4261794,5.4133587,5.398999,5.383314,5.366744,5.3499703,5.332981,5.315876,5.298678,5.281517,5.2645216,5.247295,5.2294564,5.212756,5.1977425,5.1829147,5.167204,5.151229,5.1360946,5.1227856,5.112921,5.1075068,5.1031847,5.0994225,5.096013,5.0928164,5.090742,5.0908556,5.0931025,5.0963535,5.0981865,5.096281,5.0904865,5.0831275,5.07477,5.066126,5.0586357,5.05219,5.0467978,5.042295,5.0382996,5.034628,5.0322,5.0314083,5.0311995,5.0304933,5.0282006,5.0240335,5.019356,5.015103,5.0118685,5.0100765,5.0088925,5.0083437,5.008078,5.007396,5.0055504,5.003594,5.003108,5.004117,5.0053864,5.0050154,5.001569,4.9960117,4.9895873,4.983176,4.977428,4.971555,4.965397,4.9585094,4.951148,4.944228,4.938037,4.9337673,4.9315367,4.930045,4.9283257,4.9252043,4.9208565,4.9161825,4.9124284,4.90815,4.905193,4.902526,4.899708,4.896933,4.894273,4.8917294,4.8895197,4.887788,4.8867126,4.885021,4.8820834,4.8785653,4.8743877,4.870446,4.867201,4.8648605,4.8636174,4.8626947,4.861583,4.860159,4.8586397,4.8572836,4.8562136,4.8548985,4.8529615,4.8497376,4.8452234,4.839418,4.8329744,4.826706
3.5096872,3.5300903,3.5501375,3.5683718,3.584154,3.6020586,3.622891,3.6501393,3.6938725,3.7780724,3.9382448,4.1866546,4.444392,4.6457825,4.7619257,4.8263006,4.8590803,4.881562,4.884156,4.878031,4.876808,4.876468,4.8811374,4.888193,4.8988614,4.910243,4.921801,4.9336863,4.944565,4.9537697,4.9613104,4.967437,4.9721546,4.975624,4.978513,4.981481,4.98386,4.987317,4.991779,4.9973965,5.0038548,5.010801,5.0176406,5.023979,5.0296965,5.035541,5.041966,5.049099,5.05648,5.063002,5.068963,5.074474,5.079857,5.085169,5.090442,5.095627,5.1004353,5.1047916,5.108573,5.1118927,5.1151037,5.1183677,5.1216106,5.1245756,5.1268525,5.128295,5.128583,5.1271095,5.1256294,5.125081,5.1252666,5.1255665,5.1257944,5.1264076,5.1273975,5.129089,5.1314445,5.134696,5.138664,5.1426587,5.145884,5.147828,5.148772,5.1493587,5.1500835,5.1512375,5.152912,5.1550403,5.1577544,5.1606464,5.1638613,5.167422,5.170825,5.1732836,5.17465,5.1746836,5.173102,5.1702156,5.1673255,5.164756,5.162698,5.161223,5.1601367,5.159033,5.1572657,5.154586,5.1507764,5.145461,5.138801,5.131274,5.122983,5.1140876,5.105015,5.09618,5.0876894,5.0797176,5.071844,5.0636888,5.0553255,5.0464444,5.0370836,5.0276036,5.018365,5.0097914,5.002093,4.99499,4.987422,4.979188,4.970193,4.9609365,4.9518967,4.943514,4.936427,4.9304514,4.9252033,4.9194613,4.913846,4.9101973,4.909233,4.9114637,4.9161305,4.9228187,4.9315434,4.942503,4.955325,4.9688454,4.9822245,4.995207,5.0082827,5.021923,5.0362263,5.05126,5.0670805,5.084243,5.1043787,5.1290774,5.1592646,5.194646,5.232719,5.270545,5.3048496,5.3342338,5.35895,5.3799,5.3986053,5.4154673,5.430422,5.4429197,5.4530435,5.4618406,5.4704204,5.4797964,5.4903984,5.501895,5.5135136,5.524426,5.5339622,5.540761,5.546112,5.5505953,5.554287,5.5568833,5.558182,5.5581026,5.556707,5.55412,5.550191,5.5446796,5.5375624,5.5296836,5.520851,5.510667,5.4989614,5.4858923,5.47296,5.459754,5.4459686,5.430872,5.4136734,5.395247,5.3761034,5.3567076,5.3380013,5.319749,5.3017693,5.284543,5.268214,5.2526493,5.2370834,5.2210846,5.205336,5.190297,5.1752105,5.159201,5.1423993,5.1269207,5.114505,5.105094,5.0983562,5.0925107,5.0871067,5.081476,5.0759025,5.071433,5.068803,5.0684347,5.0688996,5.067541,5.062813,5.0546694,5.0443993,5.033265,5.022584,5.0133553,5.005672,4.999133,4.993301,4.9875793,4.981865,4.977251,4.9744577,4.97254,4.9703813,4.966952,4.9623394,4.957424,4.952897,4.949418,4.9473677,4.9457264,4.944543,4.94343,4.941684,4.9386454,4.935158,4.9332666,4.9332514,4.9337387,4.932681,4.9289722,4.9230866,4.915963,4.9086657,4.902334,4.8958073,4.888898,4.8813953,4.873497,4.8659344,4.8597603,4.8570156,4.8561316,4.85493,4.8527985,4.849183,4.8444085,4.8390965,4.834318,4.830455,4.8268127,4.823513,4.8202815,4.817173,4.814245,4.811429,4.808875,4.8066306,4.8046527,4.8026447,4.7999926,4.796544,4.792696,4.7893257,4.786625,4.7844343,4.7828,4.78123,4.7797427,4.7785034,4.777796,4.7777987,4.778552,4.7793283,4.779238,4.777458,4.774197,4.770221,4.766162,4.7620945
3.4792347,3.49683,3.5166895,3.5372877,3.5563297,3.574077,3.596511,3.624054,3.651451,3.6868992,3.7639036,3.9171138,4.1615925,4.42379,4.612441,4.7192354,4.7585936,4.7755475,4.791321,4.7941217,4.7912426,4.785178,4.783564,4.7855377,4.7934456,4.8053446,4.8189535,4.832635,4.845324,4.856189,4.864444,4.870806,4.8759212,4.879451,4.8824196,4.8854694,4.8880935,4.892102,4.897481,4.9046183,4.913145,4.922633,4.9320335,4.9405518,4.9483595,4.9562464,4.96472,4.9738493,4.9830494,4.991444,4.9990683,5.0058656,5.0123816,5.018843,5.025567,5.032572,5.039522,5.046097,5.0519085,5.057006,5.061881,5.0667825,5.071698,5.07609,5.079495,5.0816946,5.0825996,5.0824003,5.082243,5.082755,5.0837393,5.0844936,5.0848804,5.085408,5.086138,5.0874176,5.08926,5.0919733,5.095554,5.099473,5.1029425,5.1054,5.107009,5.1083174,5.1099195,5.112163,5.115136,5.118745,5.1229353,5.1274004,5.1321473,5.137122,5.1419744,5.1459303,5.1485596,5.14971,5.1494246,5.1479044,5.1459785,5.1443768,5.143688,5.143465,5.1431575,5.1425457,5.141384,5.139444,5.1366935,5.133073,5.128268,5.1221247,5.114499,5.105851,5.096696,5.0875998,5.07909,5.0712423,5.063568,5.0550184,5.046038,5.036835,5.027222,5.0179095,5.0092716,5.001428,4.9944806,4.9882584,4.982175,4.975773,4.9689646,4.9617157,4.954564,4.9483066,4.9431043,4.938542,4.93402,4.9291735,4.9239974,4.918786,4.912943,4.908106,4.9046984,4.903265,4.903868,4.9066567,4.911472,4.917683,4.924693,4.93209,4.9401355,4.949144,4.95903,4.969573,4.9808617,4.9935865,5.009618,5.0308323,5.058712,5.093453,5.1332035,5.175129,5.2154784,5.252389,5.285262,5.314346,5.340385,5.364136,5.3847895,5.402647,5.418165,5.432139,5.4455523,5.4593744,5.4740124,5.4892764,5.504366,5.518748,5.532979,5.5449133,5.555022,5.563299,5.569716,5.5744734,5.5774145,5.57861,5.57817,5.5761647,5.572445,5.5668354,5.559529,5.550743,5.540803,5.5295134,5.5171833,5.504163,5.490322,5.4755626,5.459705,5.44232,5.4233537,5.4037223,5.3838224,5.3641644,5.34421,5.3237753,5.304346,5.286724,5.2707386,5.255849,5.241157,5.2258024,5.2108173,5.1963143,5.181261,5.16484,5.147526,5.1313696,5.1178007,5.106431,5.0971527,5.089218,5.081647,5.073941,5.066313,5.05952,5.053997,5.050215,5.0469933,5.0425386,5.035278,5.0251827,5.013447,5.0012093,4.9894295,4.9791985,4.970282,4.9625993,4.9557543,4.948983,4.942088,4.9361153,4.93172,4.928076,4.9245157,4.9202137,4.9153376,4.910632,4.9065647,4.903351,4.9011126,4.8990593,4.897263,4.895436,4.892897,4.888941,4.884406,4.88118,4.879614,4.878669,4.876565,4.8722353,4.8662734,4.8596215,4.85301,4.8470583,4.840806,4.8341107,4.826858,4.819198,4.811672,4.804923,4.7999053,4.7959995,4.7927237,4.790184,4.786624,4.781723,4.776142,4.7708483,4.766238,4.7620487,4.758316,4.7549367,4.751869,4.7490644,4.7465878,4.7437906,4.741129,4.7388573,4.736164,4.7322903,4.7273273,4.7218304,4.716787,4.712574,4.7090106,4.706098,4.7035246,4.7013373,4.6995764,4.6984243,4.6978965,4.6980877,4.698299,4.6977596,4.6957073,4.6922245,4.688241,4.684516,4.680831
3.4544234,3.4686484,3.486064,3.5063243,3.5275278,3.5472956,3.5676572,3.592647,3.6193771,3.6424932,3.677153,3.7498276,3.899265,4.1426053,4.3788314,4.5538206,4.639591,4.6677814,4.6770086,4.6965,4.696251,4.68749,4.679172,4.673861,4.675603,4.6828375,4.693384,4.7048297,4.7164354,4.7271547,4.735816,4.7426553,4.7481027,4.752096,4.7556667,4.759349,4.76276,4.7675405,4.773712,4.7818184,4.791386,4.801987,4.8125787,4.822386,4.831547,4.840808,4.850567,4.8607826,4.870866,4.880505,4.8893967,4.8972797,4.9047594,4.9122276,4.9202795,4.9289007,4.9377356,4.946369,4.9542837,4.961449,4.9683843,4.9754047,4.9825053,4.989149,4.994743,4.998829,5.001194,5.00281,5.0046034,5.0069327,5.009614,5.011799,5.0133467,5.0147514,5.016164,5.017969,5.0202246,5.0232687,5.027197,5.0315905,5.0357018,5.0390186,5.0416546,5.0440073,5.046792,5.050412,5.0548663,5.0599933,5.065521,5.0710692,5.0767107,5.082532,5.0883436,5.0935297,5.0973663,5.09964,5.1001573,5.0996666,5.099139,5.099039,5.099677,5.1006474,5.101743,5.1024017,5.1027317,5.10262,5.1018457,5.1000996,5.0970354,5.0924153,5.085927,5.0781803,5.069681,5.0612264,5.0531955,5.0458107,5.038107,5.0291643,5.019932,5.0107007,5.001522,4.992556,4.984277,4.97698,4.97083,4.9656043,4.96062,4.954956,4.948929,4.942759,4.936941,4.932109,4.9279876,4.9241424,4.920334,4.915202,4.9090414,4.902524,4.8954916,4.888904,4.883217,4.876957,4.87233,4.870125,4.8699265,4.8712645,4.8737087,4.876704,4.880727,4.885906,4.892002,4.8986545,4.905793,4.913986,4.924995,4.9406147,4.962654,4.9917545,5.0270047,5.0662603,5.1061277,5.1446004,5.1805973,5.214463,5.2466516,5.276206,5.3017864,5.3248262,5.3463535,5.3664,5.385277,5.4036655,5.422106,5.4405527,5.460122,5.4796495,5.4985332,5.5154915,5.5297823,5.541734,5.551358,5.5586414,5.5634904,5.5663085,5.567235,5.566282,5.5633135,5.5582337,5.551484,5.543368,5.5341067,5.5233517,5.5109854,5.4970884,5.4819403,5.4655027,5.4476748,5.4287677,5.409246,5.388258,5.367476,5.3473983,5.3274703,5.307666,5.2891054,5.271715,5.2562103,5.2422667,5.229148,5.215748,5.2024374,5.1891823,5.1755457,5.161191,5.1462965,5.1308117,5.116332,5.1030226,5.091363,5.0808687,5.070741,5.0613785,5.0526047,5.044427,5.0370173,5.030767,5.0255294,5.0192704,5.009982,4.998192,4.985958,4.97361,4.9615965,4.9513245,4.942402,4.9347043,4.9279203,4.921335,4.914606,4.9084797,4.9035883,4.8994055,4.8950996,4.890296,4.8852882,4.8807745,4.8770523,4.873887,4.8710423,4.868292,4.8657675,4.8633623,4.860379,4.8559313,4.850814,4.8465824,4.8436337,4.8413124,4.838174,4.833185,4.8271623,4.821184,4.8156276,4.8103976,4.8048286,4.798786,4.792264,4.7853956,4.7785316,4.771708,4.7651844,4.7593584,4.754239,4.7494574,4.7436657,4.7369485,4.730074,4.7236967,4.7178903,4.712244,4.706893,4.7017574,4.697092,4.6944695,4.692567,4.690197,4.6872087,4.6843386,4.681057,4.676504,4.670788,4.664507,4.658717,4.653865,4.649751,4.646353,4.6434526,4.6409,4.6388607,4.6373515,4.636203,4.6355095,4.6347313,4.6332955,4.6306615,4.626849,4.6227646,4.6190286,4.6153154
3.4341261,3.4445083,3.4591675,3.4780715,3.498586,3.5195956,3.541421,3.5639343,3.5865068,3.6099062,3.6335278,3.6711724,3.7448626,3.8885896,4.108869,4.3279004,4.4779463,4.5581527,4.581651,4.597099,4.608855,4.6021223,4.5897894,4.5785007,4.573834,4.5748005,4.579918,4.5872707,4.59667,4.6065207,4.6149216,4.621472,4.6265125,4.630588,4.6344733,4.6384945,4.642226,4.647321,4.6535835,4.66154,4.6707945,4.681066,4.6914353,4.7011757,4.710341,4.719679,4.729491,4.7396727,4.7497168,4.759401,4.768462,4.7766604,4.784594,4.79261,4.801339,4.8106966,4.820403,4.830079,4.839224,4.8477755,4.856162,4.8646674,4.8732457,4.881421,4.8887715,4.8948116,4.8993654,4.9032135,4.9071608,4.911496,4.915946,4.9197016,4.9227123,4.9254274,4.9280524,4.9310007,4.9343233,4.93836,4.943261,4.9487004,4.9539547,4.9585056,4.9624085,4.9659758,4.9699364,4.9746923,4.9801807,4.986246,4.9924994,4.9985504,5.0045347,5.010692,5.0169563,5.0228,5.027566,5.030938,5.0328093,5.033472,5.0339384,5.035098,5.0369105,5.039083,5.0418844,5.044637,5.0470247,5.048604,5.0494456,5.0491347,5.047435,5.044095,5.0385485,5.0313234,5.023753,5.0162807,5.009173,5.002498,4.995421,4.9866104,4.9769716,4.967314,4.958007,4.9491954,4.9413233,4.9346066,4.929226,4.9248886,4.920831,4.916359,4.9114723,4.9064426,4.90152,4.896887,4.892369,4.8878417,4.8832393,4.8781347,4.872479,4.865313,4.857831,4.850814,4.8445644,4.8387327,4.8341665,4.8294296,4.8266454,4.8255377,4.8254976,4.826137,4.827694,4.8301153,4.833411,4.8371773,4.8410645,4.845343,4.8513594,4.860515,4.8746448,4.8946886,4.920686,4.9514027,4.9843483,5.0178814,5.050904,5.083949,5.1182904,5.152234,5.1840353,5.213982,5.2407665,5.2648053,5.287759,5.3086195,5.329033,5.3501596,5.372532,5.395212,5.4172425,5.436922,5.454935,5.4700923,5.4822283,5.4917765,5.4989176,5.5041327,5.507475,5.508585,5.5074644,5.504158,5.4992366,5.4930363,5.485737,5.476877,5.466331,5.453649,5.4394236,5.4236383,5.406183,5.38706,5.3675213,5.346952,5.324815,5.303693,5.284234,5.2656775,5.2482934,5.232322,5.218231,5.2056465,5.194063,5.182495,5.1710863,5.1598077,5.1484547,5.136934,5.1251273,5.112735,5.100682,5.088449,5.0764704,5.064919,5.0538044,5.0437183,5.0345926,5.0263414,5.0186954,5.0121903,5.0057616,4.998065,4.9879236,4.9758477,4.9626775,4.9500113,4.937923,4.9277964,4.9192467,4.9119997,4.9057627,4.8998423,4.8938,4.888154,4.8834553,4.879254,4.874872,4.8699427,4.8648634,4.8603826,4.8566093,4.853157,4.8498764,4.846613,4.843525,4.840642,4.8373747,4.8327866,4.8273816,4.8224373,4.8184,4.814901,4.810899,4.805772,4.8002143,4.7950935,4.790288,4.785769,4.780898,4.775591,4.769967,4.764079,4.7580786,4.7518754,4.745675,4.73967,4.733782,4.727528,4.720379,4.7128053,4.705489,4.698842,4.692458,4.685973,4.6796536,4.6734943,4.6674933,4.6624546,4.6577144,4.6530447,4.6484537,4.643774,4.63863,4.6326933,4.6262517,4.619774,4.613819,4.6083326,4.602844,4.5972056,4.5922976,4.589927,4.5881033,4.586725,4.5854836,4.5842857,4.5827246,4.580505,4.5773535,4.573263,4.56903,4.5651913,4.5614414
3.417894,3.4254608,3.4372544,3.4534686,3.4719906,3.4918199,3.5127265,3.5351024,3.5560055,3.5746107,3.597662,3.6273384,3.6718993,3.7516541,3.8933315,4.1012316,4.294591,4.4342594,4.5008993,4.5278854,4.544675,4.549135,4.5386887,4.5254745,4.51641,4.5117855,4.51171,4.5151834,4.5230513,4.532632,4.540716,4.5467997,4.5513315,4.5548143,4.558036,4.561265,4.5641055,4.56806,4.573163,4.579879,4.587696,4.5964108,4.6051874,4.613414,4.621148,4.6291122,4.6374683,4.646059,4.6546507,4.66312,4.671183,4.67857,4.6857967,4.693123,4.7010536,4.709445,4.7180614,4.726697,4.73508,4.743021,4.750942,4.7590714,4.7674036,4.7755837,4.7832403,4.78987,4.7953873,4.80037,4.805356,4.8105984,4.815766,4.8202896,4.824155,4.8277297,4.8312607,4.835184,4.8395247,4.844524,4.8503566,4.856616,4.8625813,4.8678885,4.872555,4.876794,4.881277,4.886365,4.8919644,4.897929,4.9038806,4.909448,4.914895,4.920621,4.926694,4.932651,4.937778,4.9417267,4.944755,4.947567,4.95049,4.9538927,4.957681,4.961685,4.965224,4.968158,4.970518,4.9721174,4.972946,4.9730787,4.9722557,4.969794,4.96548,4.9597735,4.953367,4.9471283,4.9412985,4.9356956,4.9296246,4.922621,4.9154315,4.90771,4.8995085,4.891341,4.8837533,4.8766413,4.870268,4.864881,4.860518,4.856189,4.8516474,4.847023,4.84247,4.838089,4.8335276,4.8284016,4.8228264,4.817126,4.8112473,4.804651,4.7978697,4.7914844,4.785904,4.781525,4.7781863,4.7739086,4.7709336,4.7689643,4.7677526,4.7671824,4.7673826,4.768461,4.7702594,4.772394,4.7745275,4.7765865,4.7793026,4.783529,4.7907853,4.8020144,4.817813,4.8376856,4.860091,4.8838735,4.9082966,4.93367,4.9603963,4.9883447,5.0178947,5.048003,5.076934,5.1044025,5.1303453,5.155554,5.181581,5.210208,5.240758,5.2691545,5.292197,5.312778,5.3305664,5.345501,5.3576427,5.367485,5.375306,5.381572,5.386487,5.3899,5.3916464,5.391574,5.389716,5.386672,5.3829985,5.378026,5.371233,5.3619823,5.350773,5.337857,5.3237896,5.3089085,5.2928705,5.274833,5.256416,5.238207,5.220791,5.204623,5.189512,5.1755977,5.1628113,5.151312,5.1407843,5.1303396,5.120327,5.1112056,5.102449,5.0935774,5.0853066,5.077012,5.069195,5.060913,5.0520916,5.0428786,5.033511,5.024596,5.016464,5.009186,5.002181,4.9956493,4.9889374,4.9812207,4.971589,4.9606667,4.9480314,4.93528,4.9233136,4.913329,4.904892,4.8978324,4.891921,4.886439,4.880876,4.8755903,4.871011,4.8666964,4.8621864,4.8571095,4.8518524,4.8471184,4.843032,4.8392115,4.8354883,4.8317027,4.828107,4.824898,4.8215513,4.81708,4.811642,4.8063583,4.801748,4.7975545,4.793066,4.7880177,4.7829704,4.7786994,4.7748795,4.7710013,4.766715,4.761991,4.7571335,4.7521234,4.7469096,4.741336,4.7354736,4.729536,4.7234898,4.717128,4.710181,4.703029,4.696125,4.6897793,4.6834517,4.6768994,4.670411,4.664054,4.657832,4.651864,4.64606,4.640407,4.635085,4.629537,4.623486,4.616934,4.6102533,4.6038313,4.5979853,4.592448,4.586596,4.580243,4.5739317,4.568671,4.5638366,4.5591965,4.554392,4.549727,4.5448303,4.5394335,4.533065,4.5275016,4.5237784,4.520314,4.5169873
3.4068413,3.4127793,3.4213395,3.433504,3.448722,3.4670286,3.4875708,3.5091002,3.529871,3.5493631,3.5699723,3.5958035,3.6323485,3.6834288,3.7734919,3.9155989,4.109655,4.2945404,4.4167404,4.4797773,4.501336,4.524357,4.524063,4.512003,4.499471,4.4900904,4.4846725,4.4835424,4.4885798,4.496993,4.5042987,4.509507,4.513156,4.5157676,4.5180893,4.520301,4.5220313,4.5244246,4.5276866,4.532437,4.5383177,4.5450735,4.5519295,4.5583096,4.56421,4.5704226,4.5770607,4.583831,4.590636,4.597459,4.6040254,4.6101027,4.6161056,4.6221867,4.628689,4.6353936,4.642107,4.648787,4.6552844,4.661459,4.6676865,4.6741333,4.6808276,4.6875663,4.694131,4.7001286,4.7054033,4.7103415,4.7153015,4.720416,4.7253447,4.7296352,4.7333803,4.7369003,4.7405624,4.7448378,4.7496157,4.755065,4.7612085,4.767655,4.773632,4.778859,4.7834883,4.787692,4.792034,4.79677,4.801651,4.8068542,4.8118515,4.8162403,4.82042,4.824979,4.830249,4.835825,4.8409615,4.8452325,4.848657,4.8517904,4.855013,4.8586035,4.8624954,4.866439,4.8700256,4.873115,4.875556,4.877284,4.878259,4.87846,4.877544,4.8750734,4.870946,4.86543,4.8594394,4.854163,4.8499136,4.8463187,4.8423386,4.837265,4.8312864,4.8243895,4.8167734,4.808878,4.801292,4.794303,4.7884073,4.78365,4.779626,4.7756867,4.771603,4.767573,4.7637553,4.760086,4.7561626,4.75177,4.746953,4.741891,4.7367697,4.73167,4.7268305,4.7226157,4.7192183,4.716566,4.714488,4.712465,4.7107124,4.7091837,4.7078285,4.7067003,4.706113,4.706384,4.707494,4.709197,4.7106113,4.71146,4.7120914,4.7128177,4.7146635,4.7184467,4.725026,4.7344437,4.745942,4.7587624,4.7725005,4.787438,4.8036604,4.8212605,4.8405323,4.861222,4.883078,4.9056654,4.9283657,4.951556,4.9759035,5.002656,5.0320225,5.062105,5.091274,5.118189,5.140747,5.1589956,5.173257,5.185148,5.1950583,5.203813,5.211924,5.219044,5.224557,5.228147,5.2305107,5.233038,5.2362013,5.2386236,5.2375493,5.233467,5.227344,5.219589,5.2104826,5.1999836,5.188074,5.1754704,5.1631823,5.1507506,5.138525,5.126302,5.1138067,5.1017447,5.0907164,5.080446,5.070712,5.0608954,5.051828,5.0449305,5.039753,5.035019,5.0307136,5.027098,5.0247025,5.022406,5.0191216,5.014196,5.008069,5.0017185,4.99564,4.9900694,4.984495,4.9791174,4.9733677,4.966514,4.957782,4.9479675,4.9375777,4.926862,4.9152346,4.9053864,4.8969984,4.889882,4.8839574,4.8787985,4.8739977,4.8695116,4.865082,4.860568,4.8557377,4.850362,4.844859,4.839905,4.835657,4.8316746,4.8276553,4.823464,4.8195114,4.8162,4.8129244,4.808727,4.803691,4.79865,4.7940073,4.789557,4.7847643,4.7795386,4.774544,4.7705417,4.76715,4.7638264,4.760029,4.755803,4.751439,4.746929,4.7422657,4.737209,4.7317734,4.726117,4.720174,4.713827,4.706979,4.7000723,4.693426,4.68727,4.681031,4.674428,4.667769,4.6612043,4.6548314,4.648843,4.6431036,4.6374574,4.632066,4.6264563,4.6204185,4.614009,4.607553,4.601412,4.5958896,4.590645,4.5850077,4.578831,4.572483,4.5663657,4.5606475,4.555015,4.549155,4.5433054,4.5370655,4.530265,4.5227222,4.5150666,4.5083766,4.5022335,4.4961624
3.3961792,3.401769,3.4088569,3.4180984,3.430284,3.4462235,3.465365,3.485864,3.5054877,3.524294,3.5455794,3.5683472,3.5969992,3.6376076,3.7008424,3.7954025,3.936562,4.132583,4.301079,4.4174833,4.4685383,4.4955473,4.519756,4.5206842,4.511537,4.495918,4.482767,4.4761734,4.477481,4.4832087,4.4896736,4.4940104,4.4968715,4.4988575,4.50061,4.5023365,4.503583,4.5053034,4.5076504,4.5112524,4.515813,4.5212216,4.5267763,4.5319257,4.536565,4.5413446,4.5464373,4.5517054,4.557115,4.5627785,4.5685797,4.5741014,4.579568,4.585029,4.590616,4.596099,4.6013455,4.606448,4.6114564,4.6162167,4.6209764,4.625726,4.630411,4.6351576,4.6398225,4.6441956,4.648218,4.652121,4.6560993,4.660142,4.6639214,4.667152,4.6700273,4.6728497,4.67579,4.679259,4.6832147,4.687792,4.692885,4.6981525,4.703134,4.7076807,4.711989,4.7161574,4.720498,4.7251225,4.7296867,4.73415,4.73825,4.7416725,4.744808,4.7482777,4.752431,4.757153,4.7617407,4.765709,4.768959,4.771763,4.7744474,4.777261,4.780122,4.7828283,4.785225,4.787138,4.788357,4.788845,4.788534,4.7873793,4.785347,4.7822294,4.7778006,4.7720566,4.7659855,4.7609406,4.7572074,4.7544584,4.751634,4.7476063,4.7423663,4.736121,4.7290745,4.721607,4.714221,4.7072573,4.7012305,4.696168,4.6916614,4.6874695,4.6834755,4.679899,4.6769094,4.6743236,4.6717587,4.668976,4.665946,4.662813,4.6597886,4.6569653,4.6545916,4.652936,4.6520205,4.651576,4.65129,4.6508684,4.65012,4.6490655,4.6476927,4.646186,4.644984,4.6445427,4.644899,4.645867,4.646903,4.64764,4.647919,4.6476355,4.6474676,4.648037,4.650152,4.654045,4.6593437,4.665472,4.6721096,4.6794977,4.6877484,4.696918,4.707047,4.7183237,4.731042,4.745103,4.760176,4.776125,4.7932653,4.812545,4.8345613,4.8586693,4.883342,4.9057355,4.9244823,4.9394403,4.95105,4.96031,4.9678106,4.974545,4.981082,4.9873095,4.9928904,4.997812,5.0029306,5.009358,5.0171194,5.025088,5.0313034,5.035405,5.037738,5.0383034,5.037121,5.0339403,5.0293894,5.024617,5.0205803,5.0172997,5.014167,5.0102725,5.005213,4.999422,4.993188,4.9865294,4.9783106,4.968576,4.958515,4.951232,4.9473896,4.9465933,4.949546,4.955148,4.961845,4.9657774,4.9681864,4.968693,4.967468,4.9651785,4.9627924,4.960131,4.956393,4.952447,4.948176,4.942943,4.9360228,4.927822,4.918812,4.9093895,4.899419,4.8904076,4.882147,4.875325,4.8699336,4.8650656,4.860044,4.8549685,4.850444,4.846576,4.842621,4.8379545,4.8326273,4.8277125,4.8237047,4.8200607,4.8164177,4.812599,4.808971,4.805933,4.8029966,4.799096,4.794267,4.789301,4.7845554,4.779892,4.7749085,4.769575,4.7646546,4.7608833,4.757781,4.754898,4.751606,4.74796,4.744152,4.7401323,4.735881,4.7311344,4.7258835,4.7202587,4.7142267,4.707762,4.7008576,4.6939974,4.6874743,4.681312,4.675016,4.6682553,4.661394,4.654662,4.648164,4.6421194,4.636472,4.6310005,4.6257687,4.6203423,4.6145744,4.60857,4.6025968,4.5970163,4.5920053,4.5871925,4.581894,4.575986,4.569953,4.5642147,4.5588818,4.5535984,4.548064,4.5424175,4.5362644,4.52954,4.522278,4.5146112,4.5075054,4.501004,4.494459
3.386569,3.3916984,3.397756,3.4052334,3.4149127,3.4281492,3.4451709,3.464602,3.4837832,3.5024388,3.522866,3.5453837,3.567892,3.596315,3.6408474,3.709457,3.8092666,3.960905,4.1508927,4.318416,4.4248905,4.4802527,4.504697,4.5256233,4.524171,4.511862,4.498057,4.4876575,4.4842615,4.486509,4.4898596,4.4921217,4.4934683,4.4947386,4.4961185,4.4972706,4.497943,4.4989314,4.5003576,4.5029964,4.506417,4.5107837,4.515421,4.5197363,4.523554,4.5274124,4.531369,4.5354195,4.5398035,4.5447426,4.5501165,4.5553336,4.560478,4.5655155,4.570417,4.5749245,4.5790043,4.5828876,4.586742,4.59031,4.59374,4.596968,4.5999746,4.6028996,4.605699,4.6083717,4.610922,4.6134644,4.6160793,4.6186433,4.620878,4.6226835,4.624316,4.6261196,4.6280084,4.630293,4.6327963,4.635521,4.6385503,4.641711,4.644795,4.647911,4.6513987,4.655348,4.659857,4.664647,4.6692367,4.673481,4.6771336,4.679883,4.682187,4.6846886,4.6877546,4.6914177,4.6950665,4.6983023,4.701038,4.7033925,4.705511,4.7075596,4.7094264,4.7109537,4.711998,4.712394,4.711989,4.710828,4.708908,4.7063837,4.7034316,4.6997795,4.6953936,4.6901283,4.6845818,4.6798306,4.6762257,4.6735463,4.670964,4.6674943,4.662921,4.6572504,4.6507626,4.6437926,4.636664,4.629694,4.6234493,4.6180153,4.613311,4.6092954,4.6058884,4.6032414,4.6014767,4.600299,4.599334,4.5983343,4.5971746,4.5959272,4.5947533,4.5937386,4.593109,4.5930653,4.5935593,4.5942807,4.594904,4.595138,4.5948687,4.594068,4.5927324,4.591075,4.589587,4.5887737,4.5887804,4.589478,4.590437,4.591332,4.5920095,4.5923524,4.5925784,4.5930247,4.5942535,4.5964193,4.5992517,4.6023073,4.605202,4.608045,4.610916,4.613944,4.6172037,4.6209755,4.625773,4.631819,4.639018,4.647214,4.656535,4.6677494,4.6814666,4.697281,4.713791,4.728797,4.7412796,4.750928,4.7579417,4.7630053,4.7667227,4.7700443,4.7735825,4.777473,4.78161,4.7861433,4.7917404,4.7992096,4.808341,4.8181887,4.827282,4.834997,4.84136,4.8462667,4.8497877,4.8518696,4.853262,4.854956,4.857852,4.8620434,4.866707,4.8706527,4.8732753,4.8746214,4.874893,4.873402,4.8688307,4.8610663,4.851346,4.8435173,4.83937,4.8402257,4.847509,4.861694,4.879263,4.894884,4.9066,4.9149237,4.9209814,4.9250755,4.926928,4.9273915,4.9264174,4.924462,4.921504,4.916916,4.9103565,4.902732,4.8947954,4.886077,4.8768654,4.868475,4.8609176,4.8543453,4.848775,4.8438697,4.839191,4.8343086,4.829026,4.8237615,4.8187056,4.8136296,4.808708,4.8042073,4.800666,4.7976713,4.794799,4.7916317,4.788705,4.786113,4.78343,4.7802644,4.776663,4.772685,4.7683086,4.763803,4.7590914,4.754111,4.74928,4.7457104,4.742871,4.7403417,4.737279,4.7338076,4.7303915,4.726841,4.722967,4.718451,4.7134314,4.7079754,4.7019763,4.695396,4.6884995,4.6817527,4.6754246,4.6694527,4.663392,4.6567955,4.6501207,4.643664,4.6374736,4.631754,4.626405,4.621229,4.616314,4.6111956,4.605747,4.6001053,4.5945425,4.589454,4.5848837,4.580476,4.5754967,4.56979,4.563931,4.55828,4.5530376,4.5479174,4.542658,4.537263,4.5313673,4.524932,4.518079,4.5110044,4.504545,4.498604,4.492524
