6.869117,6.900174,6.9284554,6.957654,6.985194,7.0114155,7.037285,7.065373,7.093416,7.1208,7.1459694,7.170497,7.1960263,7.222471,7.248345,7.276843,7.30801,7.3367634,7.3636875,7.3891315,7.4069414,7.422065,7.437006,7.4498267,7.455433,7.4559965,7.4540873,7.4502325,7.4463735,7.445783,7.4473724,7.4502516,7.452271,7.4533763,7.4530215,7.4524517,7.4525976,7.4539757,7.454632,7.455271,7.454409,7.4459333,7.435828,7.4259634,7.4169626,7.408366,7.3995123,7.3894806,7.378271,7.3661785,7.3535013,7.340104,7.3262115,7.3119106,7.2975073,7.2826557,7.267543,7.2519455,7.2361784,7.2204876,7.204732,7.1888638,7.172402,7.1550884,7.137083,7.1185565,7.099208,7.079122,7.059365,7.0315723,6.9773674,6.9250517,6.86775,6.795086,6.7175345,6.608185,6.4540634,6.303569,6.147848,6.0000277,5.8916054,5.81532,5.7690706,5.7350903,5.6985464,5.657078,5.6111336,5.5649333,5.520855,5.4799967,5.4420414,5.4055543,5.371237,5.340166,5.3151236,5.2985716,5.2909036,5.2903996,5.2936983,5.298272,5.30348,5.3086214,5.3118105,5.3155985,5.3184423,5.3193774,5.3191414,5.3189073,5.3189535,5.3201904,5.322532,5.328056,5.332388,5.3334093,5.3328834,5.3296647,5.321951,5.306967,5.2839527,5.2583704,5.234806,5.214999,5.2003493,5.1996098,5.200632,5.1674795,5.1305466,5.0559187,4.810708,4.420326,4.1006985,3.9409864,3.8820612,3.8624089,3.8534503,3.8381133,3.814703,3.783317,3.739746,3.6851206,3.6159205,3.545271,3.500903,3.4773283,3.4675899,3.4619064,3.4548693,3.4457226,3.4392767,3.4403372,3.4529047,3.4814978,3.5227265,3.5626378,3.5821815,3.569974,3.5551424,3.578285,3.675563,3.9850957,4.6097603,4.923214,4.9843426,4.988867,4.9724884,4.9420824,4.931915,4.915576,4.9055147,4.903022,4.9024143,4.902907,4.902397,4.899165,4.895844,4.8933067,4.8936243,4.8996997,4.9173403,4.937939,4.956794,4.972675,4.989464,4.995363,4.9973245,5.0162406,4.98542,4.9202423,4.4832716,4.007283,3.844625,3.8285666,3.838574,3.862689,3.8651679,3.8412552,3.81392,3.7958612,3.7887058,3.7862937,3.7804604,3.7699175,3.755247,3.7375264,3.717976,3.6975355,3.6779828,3.6600714,3.645193,3.633227,3.6249914,3.6194973,3.6154366,3.611937,3.6094415,3.607643,3.6065626,3.6046882,3.6018395,3.5992334,3.5985086,3.6001744,3.6030567,3.6063027,3.6097467,3.6132922,3.617251,3.621313,3.6249971,3.627771,3.6293437,3.629342,3.6270754,3.6223264,3.6162164,3.6107297,3.608695,3.6104712,3.6126308,3.612515,3.6089077,3.6033292,3.597402,3.592011,3.587665,3.5858896,3.5932498,3.6046886,3.6110067,3.5875,3.4816175,3.2978976,3.1191223,3.0236871,2.9980173,2.9905295,2.9859335,2.9748085,2.9551785,2.9265757,2.9036026,2.8936543,2.8917823,2.8932328,2.8914294,2.8869026,2.8809702,2.8736649,2.8656828,2.8572056,2.8482296,2.838542,2.8286285,2.8197782,2.811253,2.802535,2.7921257,2.7796564,2.7654572,2.7500567,2.7339234,2.718005,2.7019954,2.6846755,2.6680925,2.6533797,2.6411462,2.6313262,2.6227732,2.6134152,2.603254,2.5947347,2.588792,2.5849187,2.581242,2.5765944,2.5722637,2.5686233,2.564701,2.5595655,2.5557997,2.5542202,2.5530486,2.5440216,2.5185924,2.4391332,2.2733295,2.0786994,1.9626689
6.655448,6.680352,6.702094,6.7234216,6.7437744,6.764884,6.78634,6.8094444,6.83361,6.8573756,6.8799334,6.902627,6.92657,6.95183,6.9761224,7.0020895,7.0283227,7.0534086,7.076442,7.0981803,7.1220493,7.1469254,7.1739264,7.199784,7.2181764,7.2289515,7.2339907,7.237694,7.240798,7.2416615,7.239591,7.2405453,7.242221,7.245157,7.2488847,7.2541695,7.2619805,7.274228,7.2883644,7.30447,7.3204784,7.329899,7.3383684,7.343936,7.337496,7.3255014,7.3145866,7.3031025,7.2909813,7.2779064,7.264045,7.249469,7.2352123,7.221298,7.2074156,7.193106,7.1785274,7.1633935,7.148072,7.1328697,7.1176105,7.1022177,7.0862575,7.069481,7.052123,7.0343575,7.0158844,6.996816,6.9768906,6.959301,6.915429,6.863204,6.8114824,6.7371097,6.6579328,6.552164,6.4062066,6.2664366,6.1237125,5.98478,5.887068,5.8209486,5.7728953,5.736367,5.700987,5.6581583,5.6119556,5.566431,5.5228815,5.4817667,5.4432573,5.4058642,5.371007,5.340943,5.31838,5.3054676,5.3028135,5.309684,5.32327,5.3354874,5.3436823,5.350815,5.353426,5.3557787,5.3579006,5.3552284,5.3474326,5.3380017,5.331153,5.330719,5.336975,5.3435793,5.345851,5.3424797,5.33716,5.330076,5.3154087,5.2933226,5.2665896,5.239667,5.216776,5.19793,5.1873035,5.1865845,5.182988,5.1505437,5.114808,5.0433207,4.822054,4.462925,4.14015,3.9536786,3.8779922,3.8560963,3.8508723,3.8389401,3.820333,3.7933576,3.7507353,3.6911469,3.6231217,3.5461006,3.4955769,3.4704905,3.4614356,3.456882,3.450078,3.439835,3.4318995,3.432044,3.4447744,3.4747667,3.5183535,3.561421,3.5835848,3.5714543,3.552998,3.5717309,3.6556878,3.938519,4.554487,4.905821,4.9702425,4.9789057,4.971604,4.9399395,4.918007,4.897383,4.886304,4.8842807,4.883745,4.8834934,4.883383,4.882799,4.8808985,4.878525,4.8771796,4.8824778,4.8949366,4.910339,4.927581,4.942934,4.962653,4.969295,4.9771204,5.001052,4.961975,4.8828335,4.437065,3.9762719,3.8295226,3.8170786,3.8344693,3.859167,3.8593102,3.833161,3.8061495,3.7904572,3.7851806,3.7832687,3.7770562,3.7659469,3.7506843,3.7326689,3.7129998,3.6923404,3.6720176,3.653864,3.6395154,3.628624,3.6208193,3.6149228,3.6096256,3.604344,3.6007533,3.5985794,3.597294,3.5959895,3.5942717,3.592791,3.5928593,3.594809,3.597675,3.6008146,3.6041076,3.6075485,3.6112738,3.6147559,3.61758,3.6193135,3.6200147,3.6196294,3.6174736,3.6132162,3.6077385,3.603036,3.602113,3.6054502,3.609424,3.610898,3.6082096,3.603026,3.5969572,3.5916915,3.586978,3.5877604,3.5969076,3.6088486,3.6189497,3.591075,3.4689848,3.2727933,3.0980244,3.0127625,2.9919713,2.986301,2.9817703,2.9696288,2.950238,2.9247375,2.9033456,2.8952498,2.8945084,2.8951669,2.892629,2.887365,2.8805435,2.8725176,2.8643086,2.8556306,2.8466063,2.8370588,2.8272004,2.8178496,2.8086522,2.7992043,2.7882624,2.775222,2.7604306,2.7451475,2.7294657,2.7131882,2.697281,2.6807675,2.664227,2.649714,2.638135,2.6293483,2.621923,2.6133986,2.6036887,2.595175,2.589062,2.5850866,2.581223,2.575553,2.56908,2.561823,2.5534654,2.5438685,2.5359066,2.5300164,2.5247285,2.5116305,2.4822693,2.4064822,2.2576056,2.0809515,1.9710659
6.4687085,6.4909596,6.5098133,6.5283265,6.5458174,6.5632515,6.5798645,6.596714,6.6139183,6.631071,6.6474247,6.664283,6.6819515,6.6999187,6.7194366,6.736601,6.7529144,6.768058,6.7823253,6.7954664,6.809673,6.8256836,6.844834,6.8658648,6.886882,6.904256,6.917365,6.927749,6.935646,6.94072,6.9437494,6.950189,6.9565907,6.9629345,6.96922,6.9768248,6.9865227,7.000602,7.018155,7.0395565,7.065159,7.094036,7.1247187,7.1520796,7.1658707,7.1730433,7.1794662,7.1814203,7.179244,7.1761656,7.1731524,7.169815,7.1602373,7.145785,7.1310635,7.1157265,7.099952,7.084038,7.068218,7.0525236,7.0366,7.020423,7.0034885,6.985622,6.9676213,6.9498386,6.931967,6.9140882,6.8966007,6.8732405,6.833294,6.7854395,6.725974,6.6578197,6.5839057,6.480139,6.3447437,6.2211914,6.0975657,5.971634,5.875739,5.8115826,5.7649946,5.728817,5.696271,5.658572,5.6147585,5.571494,5.531035,5.4934454,5.4544,5.4153337,5.3810263,5.35221,5.332579,5.3257914,5.331601,5.344209,5.3594112,5.372063,5.378072,5.382444,5.3879137,5.3951945,5.399826,5.3960705,5.382187,5.3636255,5.3496704,5.347397,5.350694,5.3512783,5.351757,5.3494153,5.342031,5.3298283,5.3107376,5.2843637,5.2535763,5.2245293,5.201586,5.1851654,5.177413,5.1758738,5.1677704,5.1375637,5.1033287,5.0422063,4.8637486,4.5527897,4.2290397,3.9945467,3.8880024,3.8568869,3.8534071,3.8439016,3.8299527,3.8070974,3.7652707,3.7010412,3.6259766,3.5506926,3.4900806,3.4630194,3.454561,3.451602,3.445798,3.4351687,3.426158,3.4254289,3.4381232,3.4692442,3.5151405,3.5618918,3.587816,3.5770578,3.5554426,3.5684328,3.6372201,3.8885062,4.4891844,4.8854876,4.9535503,4.963398,4.962391,4.938283,4.9054213,4.8801303,4.868129,4.866109,4.8654656,4.8649426,4.8643413,4.863823,4.863076,4.8622403,4.8624353,4.866592,4.875187,4.887881,4.902688,4.9182854,4.941255,4.949809,4.967473,4.9855757,4.942607,4.8577013,4.3961673,3.9498372,3.8166776,3.8069794,3.8293347,3.8554773,3.8545165,3.8262846,3.7985055,3.7833157,3.778985,3.777618,3.7712588,3.7594972,3.7437286,3.7257464,3.7061853,3.68526,3.6645234,3.646183,3.6319857,3.621459,3.614101,3.608542,3.6037383,3.5987039,3.5944972,3.5916433,3.590168,3.589376,3.588615,3.5880897,3.58888,3.5911942,3.5942597,3.5975382,3.6008217,3.6040595,3.6072655,3.609837,3.6115546,3.6121972,3.612102,3.6114707,3.6096087,3.6061044,3.601614,3.5980513,3.598534,3.603633,3.609419,3.6121058,3.6094732,3.6035373,3.5961914,3.5899,3.5855474,3.5888963,3.5997524,3.6154757,3.6294956,3.5943122,3.4572275,3.2498388,3.0795145,3.0030684,2.9862084,2.9819489,2.9775743,2.9644492,2.945006,2.923264,2.9044812,2.8976903,2.896325,2.8959808,2.8928301,2.8871286,2.8798277,2.8717208,2.8634381,2.8546913,2.845487,2.8355927,2.825221,2.8152187,2.805713,2.7960773,2.784748,2.7711477,2.7557676,2.7399745,2.724678,2.7087722,2.6925735,2.6761863,2.660112,2.645919,2.6349244,2.6272926,2.6215153,2.6149087,2.606502,2.5986466,2.593018,2.5895414,2.5859115,2.5791664,2.5700774,2.5582387,2.5444918,2.529972,2.5182848,2.5097723,2.5020056,2.4868555,2.4551163,2.3820174,2.2451081,2.082741,1.9782013
6.2966886,6.3186245,6.336489,6.353297,6.3684125,6.381109,6.3921127,6.4031296,6.414448,6.425536,6.435731,6.4462404,6.45741,6.468417,6.4797435,6.4898233,6.499653,6.5089417,6.5177517,6.5257025,6.5341396,6.5434875,6.555152,6.5690804,6.585334,6.6010256,6.616761,6.63179,6.642885,6.6504784,6.657489,6.6651416,6.6729307,6.6812115,6.689474,6.6985617,6.709006,6.7216167,6.7340326,6.746889,6.7636867,6.783342,6.804021,6.824447,6.8438063,6.8634863,6.8825703,6.898656,6.910309,6.9180603,6.924278,6.9293776,6.933774,6.9338555,6.930022,6.925662,6.9218087,6.915239,6.9066525,6.8976164,6.8897924,6.8835773,6.8782806,6.8723397,6.8640804,6.8542438,6.839302,6.8189735,6.7935133,6.7571535,6.7113523,6.6609554,6.6038704,6.544227,6.474375,6.380204,6.268711,6.1639347,6.060707,5.953169,5.8603635,5.7895193,5.741028,5.7033453,5.6705837,5.63927,5.60497,5.5706434,5.5380497,5.5068207,5.4720335,5.434968,5.39763,5.3685923,5.3529835,5.352333,5.3609333,5.3715396,5.380243,5.38912,5.3978996,5.410404,5.4244204,5.429881,5.42944,5.420841,5.401779,5.380212,5.361806,5.351725,5.3476686,5.34867,5.3532534,5.3535404,5.3471336,5.3323975,5.3090363,5.2769213,5.2415323,5.2107677,5.188589,5.175153,5.168845,5.165145,5.152853,5.125619,5.0947394,5.044753,4.922841,4.6758947,4.3444686,4.0683556,3.919287,3.8696852,3.8633325,3.8550813,3.8453853,3.8262687,3.7847757,3.7147374,3.6299276,3.5532894,3.4848137,3.4547358,3.4467926,3.445833,3.4417205,3.431343,3.4216034,3.41999,3.432373,3.464169,3.5120153,3.5626147,3.5933762,3.585813,3.5624325,3.5688124,3.6230018,3.8386161,4.408016,4.851303,4.933997,4.947408,4.9498434,4.933922,4.894902,4.8641887,4.8507195,4.848508,4.847788,4.8470383,4.8460236,4.845475,4.845307,4.845212,4.846343,4.850012,4.857502,4.8678865,4.8803453,4.8966765,4.9225492,4.937475,4.958868,4.9630637,4.918601,4.8372183,4.357526,3.9257593,3.803506,3.797875,3.8244443,3.851715,3.8495417,3.8199968,3.7922401,3.7780204,3.774724,3.7739072,3.7675133,3.7555184,3.7395034,3.721095,3.7006583,3.678575,3.6571133,3.6383655,3.6242795,3.6143498,3.608398,3.6042619,3.6001472,3.5950294,3.5902267,3.586843,3.585229,3.584859,3.5848613,3.5851033,3.5865147,3.5892444,3.592711,3.5964253,3.5999618,3.6031227,3.6058002,3.6074724,3.6081939,3.6079538,3.6072745,3.6065311,3.6050308,3.6022706,3.5987353,3.59625,3.5980487,3.60494,3.611846,3.615275,3.6123397,3.6048317,3.5956273,3.5872467,3.5835707,3.588966,3.603282,3.6244373,3.6386814,3.5959797,3.4474156,3.230494,3.0651,2.996399,2.9817705,2.9781365,2.9737744,2.9600477,2.9404266,2.9205208,2.905995,2.8995805,2.8977108,2.8969119,2.892634,2.886146,2.8785334,2.8703992,2.8621392,2.8534136,2.8440938,2.833912,2.8232055,2.813081,2.8033848,2.793485,2.7817981,2.7677197,2.7518601,2.7356884,2.7202845,2.7051399,2.6892104,2.6722162,2.6559205,2.6416345,2.6308599,2.6240556,2.6196537,2.6147304,2.6080918,2.6015668,2.5966368,2.5934014,2.5896769,2.5821478,2.5712285,2.5557022,2.5371017,2.5184336,2.5044394,2.4952984,2.486959,2.4712899,2.4382281,2.3643055,2.2338471,2.0820818,1.9834491
6.141549,6.1593895,6.1735563,6.1866655,6.19774,6.2074265,6.215583,6.222824,6.228603,6.234169,6.2391596,6.244312,6.249796,6.2549524,6.2601767,6.2667623,6.2742305,6.281417,6.2878246,6.2935753,6.299109,6.304543,6.3116183,6.3207054,6.332715,6.345884,6.358933,6.3706894,6.380538,6.388324,6.395931,6.406396,6.4169016,6.4263377,6.434861,6.443472,6.4529543,6.4644337,6.4765406,6.4892445,6.5000463,6.5116186,6.5224886,6.5317,6.540442,6.550732,6.562828,6.5752316,6.582714,6.5861835,6.5885916,6.5908084,6.595981,6.600807,6.6030703,6.604561,6.606599,6.6078415,6.6086655,6.6106563,6.615418,6.621858,6.629179,6.638807,6.647273,6.6456585,6.635579,6.6190357,6.5943227,6.5612087,6.5218334,6.480507,6.439517,6.3908634,6.328905,6.2561812,6.175853,6.093218,6.012507,5.926321,5.843956,5.773711,5.720999,5.679263,5.643836,5.6118984,5.5820074,5.5538917,5.5268793,5.5001774,5.4722013,5.4411764,5.4066114,5.380587,5.367364,5.3673105,5.372612,5.379831,5.389599,5.4032354,5.4223647,5.429428,5.4369307,5.4417677,5.4413567,5.4297695,5.4047565,5.376711,5.354497,5.339484,5.33478,5.3424177,5.35264,5.3548245,5.3459053,5.3271585,5.300377,5.265749,5.227847,5.1968184,5.176592,5.165923,5.1600137,5.1533394,5.141274,5.1177692,5.0860806,5.0429325,4.967773,4.7978067,4.49755,4.1752267,3.9707294,3.8953955,3.8800097,3.8714094,3.866475,3.8514938,3.8098445,3.732479,3.6358616,3.5483098,3.4794989,3.4458902,3.438483,3.4399698,3.4381857,3.428611,3.418436,3.415926,3.4277442,3.4597032,3.5088642,3.5628793,3.598857,3.5960045,3.5725589,3.5721207,3.6131835,3.792759,4.32076,4.8178763,4.9077473,4.932337,4.933317,4.92187,4.8869824,4.8527794,4.836129,4.83307,4.831971,4.8306646,4.829071,4.8280525,4.8278713,4.828395,4.83002,4.8336525,4.8401613,4.8490396,4.859911,4.8765955,4.9053783,4.9283514,4.9430504,4.93944,4.894042,4.817857,4.3219557,3.9045434,3.7917137,3.7899032,3.819711,3.847412,3.844193,3.8139896,3.7869215,3.7740936,3.7720077,3.7717917,3.7654796,3.7534606,3.7374601,3.7188733,3.6977234,3.6744413,3.6516347,3.6320813,3.618143,3.6091835,3.6045623,3.6014895,3.597859,3.5926392,3.5873694,3.583632,3.581995,3.5820236,3.5826674,3.5835495,3.5855021,3.5886695,3.5926666,3.5970306,3.6010675,3.604368,3.6066523,3.6076436,3.607677,3.6068826,3.605876,3.6051364,3.6039863,3.6017694,3.5988686,3.597253,3.6001294,3.6069016,3.6140852,3.6181178,3.6153183,3.6067548,3.5947948,3.5843801,3.5809598,3.5892048,3.6070504,3.6323276,3.6452727,3.597363,3.4391854,3.2150798,3.055026,2.9931684,2.979252,2.975449,2.9708705,2.9565494,2.9369984,2.9178212,2.9055169,2.9003115,2.8984857,2.8965392,2.8915517,2.8847175,2.8771865,2.8691068,2.860848,2.85215,2.8429043,2.8328104,2.8221295,2.81187,2.801959,2.7918518,2.779891,2.76543,2.7492423,2.7329166,2.7175913,2.7026496,2.6872163,2.6701472,2.6527383,2.6376207,2.626529,2.619941,2.616222,2.612226,2.6068435,2.601471,2.597165,2.5941086,2.5902805,2.582231,2.5701256,2.5521255,2.5306559,2.5100508,2.4951224,2.486842,2.478638,2.4628534,2.4277503,2.3491688,2.2203758,2.076843,1.9858968
5.9898005,6.0066605,6.0196447,6.030053,6.038639,6.046297,6.051999,6.056485,6.0599365,6.062931,6.065161,6.067522,6.069998,6.072304,6.075562,6.0802636,6.0861235,6.091916,6.0968723,6.098899,6.0994267,6.0989027,6.099723,6.1025324,6.109034,6.118108,6.1279945,6.1372967,6.146275,6.155774,6.1663203,6.178137,6.187934,6.1970377,6.2041407,6.2112594,6.218812,6.2253504,6.232339,6.2406726,6.247502,6.254049,6.2602506,6.2657914,6.2711477,6.277691,6.285491,6.2925615,6.296361,6.2982645,6.3003936,6.3028154,6.3030806,6.3031306,6.3048363,6.305968,6.307621,6.3107004,6.3146505,6.3200436,6.3245106,6.326753,6.330431,6.3353386,6.3396397,6.338812,6.335101,6.3292236,6.319339,6.3052034,6.287133,6.266876,6.243268,6.212778,6.1729136,6.125037,6.0716934,6.0137672,5.9555764,5.890957,5.824324,5.761612,5.707612,5.6636257,5.6260576,5.592374,5.5616636,5.5342846,5.5090923,5.484929,5.4600644,5.4331207,5.405937,5.383812,5.370363,5.3673463,5.372407,5.383565,5.4022017,5.4143224,5.420842,5.4235973,5.4306173,5.4411974,5.4453607,5.4354277,5.4060655,5.368432,5.3392916,5.323633,5.321233,5.33277,5.3448286,5.3481545,5.3389397,5.3151655,5.2842393,5.2502975,5.214241,5.1847186,5.1668615,5.1567535,5.153393,5.1474476,5.1320486,5.111264,5.084955,5.03548,4.9806514,4.8857355,4.6517167,4.3020773,4.0340786,3.9264054,3.8975954,3.888637,3.8905776,3.8815312,3.8397741,3.7534199,3.6425064,3.5411868,3.47328,3.4369888,3.4303918,3.4348593,3.4360244,3.427752,3.417426,3.414092,3.4252243,3.4568973,3.5064883,3.562704,3.603083,3.6054378,3.583567,3.5767555,3.606759,3.7543032,4.239279,4.7796955,4.8722105,4.9189005,4.919217,4.907986,4.883131,4.8493667,4.828519,4.822355,4.819705,4.8171854,4.814447,4.8125687,4.811797,4.8119917,4.813767,4.8174334,4.823148,4.830856,4.840193,4.857092,4.88945,4.913396,4.9220376,4.9135246,4.868917,4.798262,4.295066,3.8899927,3.7847557,3.7839417,3.815616,3.842748,3.8382215,3.8079076,3.7822275,3.771321,3.7707558,3.771308,3.7652647,3.7534323,3.7376108,3.7188993,3.6969714,3.6723697,3.6481647,3.6277337,3.6137753,3.6054897,3.6018202,3.5994205,3.595972,3.5905612,3.5849738,3.5811365,3.5796971,3.5802085,3.581471,3.5829172,3.5853162,3.5888295,3.5932903,3.59826,3.6027884,3.6063523,3.6085212,3.6092823,3.6091638,3.6083162,3.6073453,3.6067574,3.605893,3.6039772,3.6016493,3.5997028,3.6009753,3.6069312,3.6146507,3.6190329,3.6162477,3.6069903,3.592375,3.580728,3.5783262,3.589504,3.6108537,3.637979,3.64827,3.596389,3.4313064,3.204008,3.049209,2.9930522,2.9789028,2.9744315,2.9693246,2.9541974,2.9344883,2.9159155,2.9041243,2.8996866,2.8976989,2.8951778,2.8902612,2.8836613,2.8763862,2.868541,2.8604076,2.8518076,2.8426824,2.832667,2.8220148,2.8116956,2.8017046,2.7915382,2.7794209,2.7647116,2.7483797,2.7321925,2.717278,2.7025604,2.6869535,2.6695676,2.6514106,2.6349094,2.622426,2.6150584,2.6111257,2.6075087,2.602797,2.5981076,2.5942342,2.5913615,2.58765,2.5791898,2.5661335,2.5476763,2.525617,2.505071,2.4909773,2.4835753,2.475185,2.457863,2.4183888,2.3312669,2.2009287,2.0653975,1.9845057
5.8484087,5.8646517,5.876375,5.8857946,5.893258,5.8985534,5.9017487,5.9040136,5.905801,5.9072065,5.9082336,5.909433,5.910689,5.9116144,5.9117026,5.9132047,5.916585,5.9201775,5.9229817,5.9227405,5.91986,5.9153223,5.9117975,5.9104996,5.913591,5.9200416,5.9280357,5.935463,5.941284,5.946668,5.953679,5.9633894,5.973138,5.9824657,5.990959,5.99964,6.007386,6.0141907,6.019783,6.024206,6.0272865,6.029029,6.029211,6.027127,6.0241456,6.0226126,6.023346,6.0253124,6.0276318,6.029471,6.031582,6.0342464,6.036344,6.03798,6.0404034,6.0446196,6.0490694,6.0520034,6.0555887,6.0604115,6.064399,6.0679893,6.0737524,6.0800734,6.0860415,6.092017,6.091257,6.0888443,6.0858154,6.081478,6.074914,6.0654736,6.053599,6.038603,6.018345,5.9915905,5.960658,5.9257326,5.8854594,5.840335,5.791909,5.745261,5.698991,5.6545115,5.6152763,5.5799627,5.5477786,5.5199947,5.495844,5.473757,5.4509068,5.425633,5.4002476,5.378683,5.3653965,5.362773,5.372221,5.3885736,5.3975215,5.399785,5.401608,5.408043,5.420269,5.431484,5.4365535,5.426625,5.3991985,5.3601685,5.3244095,5.3059134,5.3062277,5.3176346,5.3302374,5.337534,5.3301964,5.305829,5.270776,5.23462,5.20105,5.174245,5.15903,5.1551304,5.149148,5.1375446,5.119003,5.1003504,5.080504,5.034976,4.9778852,4.9203854,4.7627096,4.416706,4.097231,3.953216,3.9113808,3.9041996,3.9145668,3.9125547,3.8710585,3.7753506,3.6491518,3.5349717,3.4668214,3.4280763,3.42277,3.430652,3.435255,3.4287357,3.418592,3.4146357,3.4251225,3.4562054,3.505352,3.5621846,3.6057324,3.6128187,3.5934634,3.5806632,3.6021848,3.7223983,4.162383,4.7189136,4.8419414,4.904718,4.906472,4.8961515,4.8833003,4.853836,4.8288064,4.8181124,4.8121805,4.80669,4.802143,4.798937,4.79718,4.796865,4.798498,4.801715,4.806789,4.812988,4.8209753,4.8383822,4.8742967,4.8958225,4.8967485,4.891167,4.8430834,4.7784014,4.2798233,3.8832955,3.7826269,3.7804766,3.8125248,3.837954,3.8317685,3.8017492,3.777983,3.7693624,3.770492,3.7718582,3.7661426,3.7545724,3.738957,3.7200708,3.6972477,3.671208,3.645539,3.624155,3.6100116,3.6021035,3.5989547,3.5967817,3.5932162,3.5875664,3.58185,3.5781963,3.5771832,3.5782518,3.580079,3.5819433,3.5845761,3.5881863,3.5928488,3.5981388,3.6028805,3.606609,3.608831,3.609737,3.609954,3.609523,3.6089637,3.6087275,3.6082134,3.6064038,3.602948,3.5994608,3.5999126,3.6060233,3.6141775,3.6186512,3.6149867,3.6039982,3.5880866,3.5760489,3.5754519,3.589582,3.6131198,3.6438408,3.6500516,3.5935636,3.4241114,3.1969218,3.0469265,2.994881,2.9801612,2.9749498,2.9689949,2.9527698,2.9325597,2.9141498,2.9026055,2.8980885,2.8959415,2.893327,2.888589,2.8824472,2.8756523,2.8681688,2.8602262,2.8517537,2.8427687,2.832858,2.8223114,2.8120527,2.8021436,2.7920713,2.779888,2.7650137,2.7486768,2.7329197,2.7187598,2.7045743,2.6887517,2.6703153,2.6508555,2.6332207,2.6190724,2.6098418,2.604782,2.600881,2.5965009,2.5923076,2.588831,2.5857477,2.5814185,2.5728993,2.5602307,2.5428655,2.5224783,2.5025449,2.48996,2.483867,2.4744847,2.453412,2.406939,2.3092449,2.174654,2.0489805,1.9802132
5.716032,5.73114,5.740091,5.7474623,5.75335,5.757946,5.76036,5.7618713,5.762988,5.7641506,5.765155,5.764927,5.762567,5.7592716,5.756385,5.7554684,5.756793,5.7581797,5.759067,5.758816,5.7565107,5.7527413,5.7495794,5.748035,5.749805,5.75387,5.7585516,5.761856,5.7627625,5.7622933,5.762992,5.767047,5.772232,5.778057,5.7843256,5.791302,5.797479,5.8025923,5.8062387,5.80805,5.808057,5.8071804,5.8056,5.802723,5.7989087,5.796115,5.7962246,5.7982388,5.8006353,5.802323,5.803687,5.8057585,5.808751,5.8117886,5.8149676,5.815591,5.81702,5.8184633,5.820502,5.8236876,5.829097,5.836561,5.841894,5.8448167,5.847599,5.8506336,5.853699,5.859731,5.8675,5.876382,5.884541,5.890398,5.886282,5.8774233,5.866404,5.8531275,5.838481,5.8228683,5.8015795,5.773447,5.740243,5.7055597,5.6705723,5.6380167,5.605074,5.5721636,5.541562,5.512845,5.488736,5.468544,5.4485073,5.4249306,5.3991685,5.376357,5.362423,5.3622513,5.368892,5.3722477,5.373275,5.3764434,5.3817163,5.3894234,5.3998365,5.4104137,5.4149694,5.406662,5.3823824,5.3478594,5.3132772,5.29449,5.2932873,5.3015485,5.316087,5.3210125,5.310159,5.290309,5.2605643,5.226824,5.1960917,5.173,5.158605,5.149582,5.1385136,5.12434,5.1053677,5.0923967,5.074318,5.034278,4.9798098,4.919942,4.824587,4.5205173,4.1584578,3.9743135,3.9206634,3.9162235,3.9357612,3.9402895,3.8996058,3.7956405,3.6543221,3.5284982,3.459642,3.4191685,3.4154525,3.4269876,3.4353786,3.4310634,3.4215317,3.417264,3.4272318,3.457514,3.5054803,3.562356,3.6040635,3.6137466,3.5978336,3.5830045,3.596686,3.6953397,4.0948567,4.6521826,4.817004,4.8884783,4.8934546,4.8845243,4.872174,4.862456,4.8381395,4.8196697,4.810309,4.800907,4.7926073,4.786871,4.7840347,4.7829294,4.7838016,4.7865076,4.790736,4.795782,4.8030243,4.822178,4.8565955,4.873897,4.870596,4.871915,4.8202734,4.760149,4.2742124,3.8839238,3.78476,3.7791157,3.810264,3.8331733,3.8251338,3.7957335,3.774162,3.7679195,3.770689,3.7727003,3.767171,3.7557592,3.7402601,3.7210965,3.6972923,3.6697779,3.6426675,3.6203184,3.6058164,3.597949,3.594867,3.5925245,3.5886645,3.5828462,3.5772533,3.5740438,3.573607,3.5751934,3.5773811,3.5793445,3.581829,3.5851147,3.58948,3.5945873,3.599152,3.602843,3.605164,3.6064277,3.6072378,3.6075172,3.6076503,3.6080344,3.6079316,3.6057222,3.601303,3.597352,3.5979455,3.6042824,3.6126761,3.6164298,3.611607,3.5993218,3.5829048,3.5708647,3.572332,3.589363,3.614727,3.647751,3.6472006,3.5898,3.4190168,3.1935203,3.0475318,2.9970675,2.9820728,2.9766316,2.969448,2.9517548,2.9306493,2.9119725,2.900286,2.8955107,2.8931236,2.8904874,2.8861203,2.8806076,2.8744018,2.8672993,2.8595347,2.8511646,2.842308,2.832516,2.822154,2.812085,2.8024197,2.7925768,2.7803683,2.7654502,2.7493477,2.7339325,2.7208347,2.7074797,2.6917462,2.6723626,2.651077,2.6314597,2.6155057,2.6048245,2.5981727,2.593382,2.5890872,2.5855188,2.5816913,2.577987,2.5735064,2.5655644,2.5540833,2.5383039,2.5200949,2.5020764,2.4900188,2.4844651,2.4744952,2.4489157,2.3916733,2.283697,2.1457298,2.0305448,1.9745649
5.590137,5.6025424,5.6100755,5.6163254,5.6213503,5.62537,5.6278543,5.629258,5.629938,5.630617,5.628742,5.6248083,5.6203003,5.615088,5.610387,5.607274,5.6062765,5.605651,5.605448,5.6055737,5.6053076,5.604194,5.603306,5.602997,5.6045666,5.6074524,5.610046,5.610571,5.6083665,5.604551,5.601426,5.60095,5.6013265,5.602727,5.6047106,5.6075683,5.610571,5.6128798,5.6135435,5.611992,5.6089916,5.6062136,5.6038265,5.601773,5.5998125,5.598951,5.6000395,5.602351,5.605017,5.606653,5.607583,5.6090245,5.6115303,5.614605,5.6185465,5.6217346,5.6239223,5.626779,5.6301208,5.6339645,5.6379147,5.6421556,5.6465707,5.6503563,5.65358,5.656185,5.657815,5.6593313,5.661705,5.6648726,5.671609,5.6810474,5.687326,5.6918287,5.6966324,5.7036457,5.709043,5.705615,5.6980476,5.6855307,5.6676598,5.6455355,5.6212616,5.5963945,5.569809,5.542324,5.517322,5.492732,5.471787,5.45422,5.435952,5.4159775,5.394624,5.3743544,5.3581038,5.3482866,5.3434544,5.3419466,5.3450665,5.349971,5.3544416,5.3596106,5.3667727,5.374805,5.379734,5.3749495,5.3551702,5.3249083,5.296138,5.2781534,5.2735186,5.283502,5.2967315,5.292211,5.2815027,5.2651567,5.2435875,5.2160907,5.188478,5.1662884,5.1501856,5.138472,5.1284866,5.115517,5.0988264,5.0828657,5.0549135,5.0216875,4.9967327,4.925437,4.847231,4.6087494,4.215864,3.993606,3.928681,3.9248476,3.9512262,3.9621372,3.9225535,3.8110452,3.656299,3.5207996,3.4494596,3.41124,3.4086673,3.4235377,3.4355564,3.4336052,3.4250395,3.420843,3.430552,3.4601817,3.5071187,3.5585275,3.5974278,3.6113544,3.5984569,3.5834265,3.589458,3.6720161,4.036191,4.5864005,4.79091,4.8697596,4.8766565,4.8656893,4.850892,4.8508954,4.843877,4.8213806,4.8068085,4.794426,4.783889,4.7756815,4.7709208,4.7685423,4.7686634,4.7706146,4.7739363,4.778271,4.785364,4.806732,4.8357677,4.846447,4.8433805,4.850067,4.8007693,4.742199,4.2748413,3.889677,3.7859497,3.778744,3.8080597,3.8280663,3.8181853,3.789578,3.7702024,3.7662048,3.7704499,3.7729132,3.767414,3.7560382,3.7405815,3.7211266,3.6964087,3.6675568,3.6391587,3.6158934,3.600875,3.5927198,3.589342,3.5866187,3.5825157,3.5767817,3.5716224,3.5690765,3.5692878,3.5712907,3.573595,3.5753427,3.5773475,3.5799866,3.5836656,3.5882006,3.5923176,3.5958097,3.5982633,3.5999715,3.601439,3.6025305,3.603485,3.6046724,3.605139,3.6028142,3.598225,3.594316,3.5949628,3.6015196,3.6092396,3.612319,3.6064062,3.593628,3.577073,3.5655303,3.5688047,3.5868444,3.6157722,3.6487923,3.6408637,3.5844727,3.4162247,3.193391,3.0500479,2.9998162,2.9844291,2.978755,2.9701667,2.950849,2.9286346,2.9094262,2.897374,2.892239,2.8896058,2.8870208,2.8830955,2.8782344,2.8726048,2.8658233,2.8581746,2.8498507,2.8410778,2.83137,2.8211894,2.8113165,2.8019216,2.7923357,2.7800975,2.7653985,2.7494612,2.7346234,2.7227468,2.7105508,2.6953087,2.6754277,2.6526194,2.6307938,2.6124096,2.5994864,2.5913057,2.5857263,2.581071,2.5768933,2.5730052,2.5692863,2.5650477,2.5579357,2.54781,2.5339599,2.5179458,2.5026817,2.4905539,2.484454,2.4741704,2.44574,2.3764763,2.259564,2.1199853,2.014629,1.969455
5.4681835,5.479274,5.486264,5.4920454,5.4966364,5.4997973,5.5012684,5.502597,5.5032578,5.5019674,5.4985046,5.4945307,5.490162,5.484804,5.4790945,5.474162,5.470913,5.468187,5.4667354,5.4665728,5.4673057,5.467907,5.468722,5.469556,5.4711685,5.473175,5.4744725,5.4739895,5.4710546,5.4665008,5.462407,5.4605026,5.459174,5.4584727,5.457865,5.457716,5.457699,5.457163,5.4550467,5.4511447,5.4463043,5.4424953,5.4403667,5.439521,5.4390335,5.438966,5.439897,5.441524,5.4432592,5.444415,5.4451303,5.445928,5.4468393,5.44827,5.450608,5.4535275,5.4568043,5.4606943,5.464946,5.469393,5.4737015,5.4775653,5.481391,5.484777,5.487445,5.4899406,5.493007,5.4954805,5.49758,5.4993935,5.499625,5.498792,5.4984636,5.501816,5.5094204,5.5210695,5.535754,5.550759,5.5647364,5.5719967,5.5674915,5.556427,5.5421867,5.5250645,5.505608,5.4840403,5.461837,5.44094,5.4231873,5.407267,5.3929687,5.3775277,5.3596306,5.3406067,5.3229694,5.309861,5.3034263,5.3029594,5.3054814,5.308317,5.3102293,5.3126125,5.3165374,5.3213735,5.3259077,5.323433,5.309707,5.285424,5.261459,5.2455845,5.241176,5.2511425,5.2598696,5.2522554,5.241542,5.2273884,5.2089744,5.1866617,5.1641846,5.1443405,5.1290283,5.1178036,5.105546,5.0924215,5.076503,5.0547667,5.0233183,4.9970937,4.9810514,4.917273,4.8481846,4.6562023,4.273759,4.018775,3.9401245,3.9328353,3.960234,3.9743953,3.9350688,3.8183737,3.6544294,3.5122938,3.4388356,3.4046087,3.4024396,3.4197116,3.434546,3.4346893,3.4272704,3.4235737,3.4336536,3.4629536,3.5066571,3.5519335,3.5896034,3.6054325,3.596199,3.5794551,3.582418,3.6509185,3.9812815,4.522665,4.761487,4.845603,4.855055,4.8423386,4.830765,4.827236,4.828083,4.809499,4.791525,4.7804775,4.7696505,4.7610183,4.75488,4.751424,4.7507534,4.7519827,4.754716,4.7586575,4.765379,4.786932,4.8123193,4.819309,4.819391,4.826294,4.7810144,4.7223663,4.275653,3.8957493,3.7860186,3.7776208,3.804916,3.82232,3.810904,3.7830582,3.7654605,3.7631679,3.7684276,3.770996,3.765298,3.7538447,3.7384534,3.7188911,3.6935887,3.6637535,3.6343617,3.6103086,3.5946653,3.5860028,3.5821657,3.5791268,3.5751224,3.5699008,3.5655203,3.5637703,3.5645442,3.5667264,3.5688505,3.5701015,3.5713873,3.5732608,3.5762308,3.5802119,3.583974,3.587308,3.5898767,3.5919485,3.5939448,3.595704,3.597406,3.5993872,3.600388,3.5982034,3.5937119,3.589885,3.5907035,3.5972524,3.604178,3.605874,3.5990775,3.585802,3.5704303,3.5602195,3.564549,3.5831184,3.6146698,3.643313,3.6344452,3.5788152,3.4145432,3.1944838,3.05252,3.0022044,2.986452,2.9805326,2.970797,2.9500952,2.9269052,2.907176,2.8947678,2.889313,2.8864646,2.883918,2.880351,2.8759928,2.8707922,2.864218,2.856615,2.8482966,2.8395505,2.8298478,2.8197126,2.809882,2.8006,2.7911458,2.778831,2.7643528,2.7486525,2.7346497,2.7242136,2.713505,2.6992278,2.6794462,2.6557333,2.632137,2.6112604,2.5955381,2.584851,2.5775924,2.5719278,2.5672362,2.563437,2.559864,2.5558276,2.5495186,2.5409453,2.5289984,2.5146809,2.5010905,2.4900908,2.4832106,2.4721947,2.4425745,2.3661718,2.2429037,2.102688,2.004331,1.9666827
5.3522573,5.3626947,5.3689933,5.3744597,5.378503,5.380456,5.3817487,5.3829,5.382825,5.3810787,5.378342,5.375478,5.3719096,5.3669586,5.360973,5.355038,5.350198,5.3457074,5.3427906,5.3415527,5.3419323,5.3428154,5.3442135,5.345565,5.34715,5.3485575,5.3491707,5.348549,5.3462124,5.3427505,5.3397574,5.3384724,5.337341,5.3363314,5.33498,5.3333235,5.331059,5.3281617,5.323791,5.318096,5.312042,5.3074527,5.304907,5.303937,5.303504,5.3036957,5.3047004,5.3059464,5.306984,5.30742,5.307461,5.307645,5.3082647,5.308232,5.3087273,5.3097835,5.3117976,5.3145695,5.317876,5.3214364,5.32561,5.330142,5.3337674,5.336184,5.337592,5.338487,5.339984,5.341996,5.3443303,5.34736,5.350567,5.3536377,5.3545437,5.353388,5.3521056,5.354549,5.3628883,5.377044,5.393146,5.4074326,5.417684,5.4239097,5.4270287,5.425099,5.41527,5.4004326,5.382184,5.3635855,5.349103,5.338603,5.3277464,5.3160257,5.301985,5.2860045,5.269964,5.257306,5.249778,5.246644,5.2457585,5.2450333,5.243452,5.2422657,5.243965,5.248595,5.2510285,5.2491064,5.239006,5.2217045,5.203451,5.190649,5.184833,5.186613,5.190634,5.1865854,5.174222,5.156957,5.138426,5.1193047,5.1001616,5.0829716,5.0703926,5.062639,5.0562525,5.046913,5.0333967,5.0152626,4.983994,4.960293,4.944502,4.897719,4.830241,4.675235,4.3383617,4.059433,3.9616902,3.9446313,3.9681592,3.9806623,3.9400206,3.8191075,3.648337,3.5033133,3.4293041,3.399961,3.3972263,3.4157834,3.4323754,3.4339867,3.4275343,3.424704,3.4352868,3.4627395,3.501414,3.5446613,3.5822682,3.599157,3.591712,3.574447,3.5756946,3.6322422,3.927918,4.4559803,4.724593,4.8167057,4.830102,4.8172293,4.8045216,4.797946,4.799404,4.785425,4.7685385,4.7560987,4.748015,4.739999,4.734042,4.730148,4.729171,4.730181,4.7327104,4.7360783,4.742093,4.7615347,4.785078,4.791512,4.79293,4.8005514,4.7575474,4.6976843,4.2721233,3.8993895,3.7846813,3.775002,3.800793,3.8163633,3.8038116,3.7764747,3.7599368,3.7585747,3.7642813,3.7666535,3.760675,3.7492251,3.7340994,3.7147446,3.6892395,3.6587749,3.6286845,3.6040406,3.5878487,3.5787098,3.5745144,3.5714297,3.567935,3.5636072,3.560225,3.5592868,3.560494,3.5626774,3.564473,3.5651627,3.5657163,3.5669453,3.5694575,3.5731678,3.5768948,3.580246,3.5829241,3.5852098,3.5875468,3.5898209,3.5920367,3.5942261,3.595131,3.5928369,3.5887368,3.5852242,3.5865717,3.5925531,3.5978558,3.5987864,3.5912764,3.5775437,3.562927,3.5543792,3.5595446,3.579523,3.6127787,3.6360464,3.6277952,3.5733495,3.4136667,3.1957543,3.0537634,3.0033627,2.9875207,2.981553,2.9711807,2.9494681,2.9255567,2.90543,2.8927794,2.887124,2.88413,2.8815904,2.878255,2.874222,2.8692892,2.862833,2.855251,2.8469555,2.8382444,2.8285275,2.8183439,2.8084238,2.7991047,2.7896624,2.7773232,2.7629397,2.74758,2.734485,2.7255025,2.716365,2.7033567,2.6842582,2.6604242,2.6357503,2.6128058,2.5942698,2.5805178,2.570722,2.5633779,2.557857,2.5536883,2.5499666,2.545942,2.5403147,2.532942,2.5227149,2.5098653,2.4972405,2.487399,2.4803207,2.469695,2.4408855,2.3624663,2.2355375,2.0944004,1.9991605,1.9655478
5.2425213,5.252519,5.2586308,5.263731,5.2670937,5.268797,5.269865,5.2702026,5.269252,5.26845,5.2669086,5.2649117,5.2622204,5.257992,5.252256,5.2459846,5.240184,5.234394,5.230032,5.2273264,5.2265425,5.22672,5.227803,5.2290554,5.2304583,5.231537,5.232025,5.231873,5.230771,5.2290564,5.2278156,5.2278113,5.2275543,5.2269006,5.224824,5.2222652,5.2192597,5.21585,5.2114944,5.206192,5.2004757,5.1960764,5.193236,5.1914873,5.190007,5.1890497,5.188814,5.1886506,5.1882343,5.187417,5.1864743,5.185824,5.1858473,5.1859074,5.1865835,5.1869164,5.1877046,5.1892643,5.191331,5.193563,5.1962967,5.1995344,5.202299,5.204074,5.2049756,5.205397,5.2053723,5.2056,5.2059884,5.2066507,5.207431,5.2079954,5.2076106,5.2066164,5.2068686,5.209652,5.215036,5.222296,5.229794,5.239185,5.248493,5.256234,5.261791,5.2650824,5.2648873,5.2608986,5.2530336,5.243166,5.234604,5.2293396,5.2271843,5.2251997,5.2182574,5.2073298,5.1963015,5.1855392,5.175698,5.1691403,5.1642194,5.1593556,5.1539097,5.148704,5.146007,5.146779,5.149068,5.1490335,5.142667,5.1307173,5.1176586,5.108383,5.103553,5.099187,5.09321,5.083067,5.0688186,5.0530577,5.0377064,5.0226674,5.007511,4.993015,4.981249,4.976475,4.9718256,4.9656,4.956462,4.9459314,4.9259405,4.9050236,4.8903637,4.853819,4.7918897,4.690642,4.4183435,4.120719,4.000793,3.9675093,3.9817429,3.9875731,3.9427617,3.8171258,3.640036,3.4940941,3.4203682,3.396379,3.3941574,3.4125576,3.4288995,3.4311733,3.4260278,3.4234204,3.4329336,3.4582438,3.4944813,3.5375638,3.575811,3.5941005,3.5878096,3.569893,3.5694556,3.6160674,3.8739285,4.3841314,4.683384,4.78419,4.801627,4.789713,4.7740607,4.7631855,4.7639017,4.7535524,4.7389984,4.7280326,4.7198725,4.7131414,4.708083,4.7047896,4.703865,4.7044992,4.7063684,4.70942,4.7146235,4.7307196,4.755433,4.7622557,4.7633343,4.772519,4.725868,4.6665525,4.2594357,3.8976254,3.7806635,3.7703652,3.7954104,3.8101,3.7970614,3.7701101,3.754058,3.7529173,3.758524,3.760437,3.754164,3.7428615,3.728208,3.7093158,3.6838875,3.653167,3.6227517,3.5978417,3.5814548,3.572198,3.568029,3.5652943,3.562642,3.5593882,3.5569847,3.5567083,3.5581512,3.5601914,3.5616355,3.5618896,3.5620537,3.5631294,3.5657277,3.56961,3.5735319,3.5769298,3.5796404,3.5818892,3.583932,3.5853848,3.5871508,3.5888228,3.589553,3.58786,3.584374,3.5815978,3.5837402,3.5881634,3.5925865,3.5929084,3.5843835,3.5701976,3.5563283,3.5494094,3.5563293,3.5777922,3.6111531,3.6289315,3.620864,3.5679574,3.4133883,3.1964352,3.0529375,3.0028768,2.987431,2.9819336,2.971415,2.949031,2.9246578,2.9042807,2.8915317,2.8858318,2.882791,2.8802552,2.877048,2.8731894,2.8684015,2.8620136,2.8544736,2.8462667,2.8376663,2.8279974,2.8177648,2.8077083,2.7982793,2.788805,2.7764916,2.7621784,2.7473016,2.7349505,2.727044,2.7192597,2.7075396,2.6895685,2.666472,2.641684,2.6174479,2.5963535,2.579321,2.566321,2.5564528,2.5492144,2.543827,2.539319,2.5348747,2.5297775,2.5237494,2.5150928,2.5036225,2.4917753,2.4824183,2.476231,2.466679,2.4411125,2.3652837,2.2365422,2.093515,1.9977357,1.9647799
5.138159,5.147887,5.1538568,5.158596,5.1614466,5.1631002,5.1634865,5.162445,5.1615915,5.160963,5.1600456,5.158887,5.1568284,5.153192,5.1478586,5.141635,5.135395,5.1288247,5.1233587,5.119315,5.1171913,5.1162558,5.1165204,5.1172414,5.118279,5.1191306,5.119773,5.1203313,5.1205273,5.120409,5.120657,5.12171,5.1222105,5.121793,5.119667,5.1169596,5.1138153,5.110507,5.106736,5.1027703,5.0988913,5.095827,5.0935054,5.091486,5.0893044,5.0873756,5.086035,5.084664,5.0830307,5.0811796,5.079479,5.0782027,5.0775976,5.0771956,5.077285,5.0776963,5.078047,5.0787563,5.079878,5.080986,5.0823565,5.084079,5.085455,5.0861273,5.086257,5.086164,5.08606,5.0860233,5.085738,5.084467,5.0828457,5.080886,5.078326,5.0752187,5.0725327,5.071262,5.0724382,5.0767365,5.083544,5.091605,5.096176,5.098896,5.102456,5.1049023,5.1061583,5.1058683,5.102996,5.098052,5.0930805,5.0900354,5.090125,5.0919247,5.09305,5.091568,5.087464,5.0824804,5.0783978,5.074279,5.069521,5.0637045,5.0558796,5.0479574,5.041285,5.0362697,5.03295,5.0296974,5.024663,5.0165477,5.0074244,4.9997916,4.994298,4.988575,4.980279,4.968314,4.953998,4.93975,4.926737,4.9144583,4.902505,4.8912134,4.8813334,4.8754525,4.871663,4.8686438,4.8632936,4.8565245,4.849841,4.836028,4.821378,4.789876,4.7392435,4.680046,4.484951,4.2045975,4.062154,4.012265,4.013749,4.0048065,3.952695,3.8193412,3.6329188,3.4851723,3.411491,3.3922005,3.3903832,3.4073925,3.422567,3.424931,3.4200597,3.4179182,3.4270535,3.4500475,3.485825,3.5297318,3.5692744,3.5893965,3.584248,3.5652144,3.562799,3.5999427,3.8197134,4.313007,4.656107,4.7465563,4.7699566,4.7599316,4.7427416,4.726782,4.726531,4.717903,4.7072344,4.698346,4.6896424,4.683481,4.6788387,4.675963,4.6751695,4.6756086,4.676997,4.6793394,4.6834564,4.69748,4.7244196,4.73458,4.7324076,4.7409534,4.686514,4.628891,4.2370276,3.8903325,3.7739718,3.7639747,3.7891345,3.8039012,3.7910354,3.7643876,3.7482798,3.746609,3.7514808,3.752617,3.7460349,3.735074,3.7211585,3.7030044,3.6779175,3.6473093,3.6169457,3.5920968,3.5758743,3.5668015,3.5628505,3.5605454,3.5586753,3.5563319,3.5546765,3.554807,3.5562634,3.5580287,3.5591424,3.5591526,3.5593445,3.56078,3.563962,3.568346,3.5725665,3.5759614,3.577801,3.5788484,3.5797243,3.5803695,3.5815935,3.5835638,3.584959,3.5841079,3.581584,3.5803552,3.5815744,3.585304,3.5900223,3.589538,3.579659,3.5647254,3.5516343,3.5464325,3.5552864,3.5784042,3.610494,3.622437,3.614303,3.5631871,3.4142294,3.1968794,3.0506082,3.0010657,2.9863439,2.9816318,2.9713979,2.9486573,2.9240427,2.9035468,2.8908412,2.88524,2.8822465,2.8796992,2.8765075,2.8726687,2.8679082,2.861549,2.8540819,2.8460255,2.8376014,2.8280528,2.8178291,2.807708,2.7982593,2.7888713,2.7766829,2.7625625,2.7482996,2.73654,2.7289228,2.7220473,2.7113743,2.6947606,2.6731796,2.6493845,2.6250157,2.6021633,2.5821877,2.565747,2.5527093,2.5428066,2.5350657,2.5287023,2.5229878,2.5178475,2.5129766,2.5063322,2.4965458,2.4853895,2.4768257,2.4719453,2.4641416,2.442821,2.3739765,2.2456064,2.09915,1.9994563,1.9640636
5.039053,5.0480404,5.05357,5.0578647,5.0602374,5.0614038,5.060169,5.0589046,5.0579987,5.057187,5.0561104,5.054961,5.052972,5.0494866,5.0443783,5.0382986,5.032005,5.0251894,5.0191994,5.014352,5.011219,5.009285,5.0086412,5.008643,5.009198,5.0098505,5.0107436,5.0120006,5.013253,5.0142703,5.0154395,5.0170474,5.0178547,5.0177965,5.0160084,5.0131903,5.009908,5.006699,5.0034447,5.000471,4.997837,4.9958973,4.9943542,4.992709,4.9906073,4.988511,4.9867663,4.9848204,4.9826374,4.980402,4.978511,4.9771214,4.976392,4.97585,4.9756794,4.975893,4.976345,4.9766626,4.9771266,4.9774065,4.977697,4.9781275,4.978172,4.977648,4.9767866,4.975894,4.9751186,4.9744215,4.9735174,4.9723473,4.9709096,4.9689226,4.9659643,4.9623566,4.958296,4.9541764,4.9508324,4.9490824,4.9489594,4.9501266,4.9519253,4.9540906,4.957143,4.962199,4.9659185,4.9661818,4.9641275,4.961024,4.956613,4.9536753,4.9538393,4.956096,4.9582253,4.9589996,4.957507,4.954505,4.9510417,4.9476557,4.943948,4.9390984,4.9329605,4.9266405,4.921973,4.920367,4.921461,4.922998,4.9190903,4.911594,4.9025993,4.8936815,4.8856516,4.8779044,4.8682585,4.8563266,4.8430824,4.830147,4.818335,4.8073387,4.7969956,4.7877927,4.780522,4.776067,4.772983,4.768942,4.7623434,4.7558117,4.7535906,4.7495165,4.7449636,4.7234178,4.6898932,4.642149,4.490391,4.278143,4.1363883,4.0756354,4.057879,4.040192,3.9806046,3.8345995,3.6312132,3.4767165,3.4026241,3.385197,3.3855677,3.4017227,3.4162369,3.4180343,3.4122515,3.4089804,3.4164977,3.4387455,3.4748678,3.5199046,3.5613494,3.583885,3.5801704,3.5599127,3.5535636,3.5837479,3.7669592,4.238345,4.625845,4.7083406,4.737751,4.7301836,4.713252,4.692975,4.6911426,4.6839776,4.6771603,4.6693535,4.6612473,4.6546326,4.6506796,4.6482916,4.6477146,4.648059,4.6490006,4.650505,4.653308,4.6652904,4.6935997,4.705192,4.698319,4.7049074,4.6499825,4.5868006,4.2079515,3.879183,3.7656822,3.7569733,3.7830293,3.7985902,3.786309,3.759748,3.7429333,3.7399266,3.7434294,3.743548,3.7367902,3.7264936,3.7136655,3.6965191,3.671952,3.641605,3.6115253,3.5871632,3.5714386,3.562584,3.5586195,3.5563252,3.5547142,3.552827,3.5516071,3.551991,3.5535512,3.5553277,3.5565076,3.5567575,3.5574594,3.5596895,3.5637643,3.5688586,3.5727139,3.574799,3.5752616,3.5753293,3.5756497,3.576332,3.5779676,3.5807586,3.5831885,3.583627,3.5822935,3.580543,3.5815763,3.58658,3.5918715,3.5903487,3.578578,3.5621989,3.5494537,3.5458903,3.556707,3.5810661,3.6101756,3.6171718,3.6088638,3.5601804,3.4178169,3.1989326,3.048315,2.9990873,2.9849105,2.980722,2.9709315,2.9480803,2.9233608,2.9028592,2.8903348,2.884974,2.882111,2.87953,2.876227,2.8722465,2.8673992,2.861037,2.8536642,2.845794,2.8375704,2.8281822,2.8180704,2.8080535,2.7988358,2.789824,2.7780247,2.7643085,2.7506547,2.7391849,2.73121,2.7245617,2.714441,2.6991425,2.679659,2.6580215,2.6350346,2.6119084,2.5901694,2.5708308,2.5545688,2.5412846,2.5301275,2.5206804,2.512611,2.5064847,2.5020185,2.4972053,2.4894762,2.479813,2.4720435,2.4686933,2.4633827,2.4467597,2.388196,2.2622774,2.1109848,2.0039258,1.9633589
4.942829,4.9509478,4.9559507,4.9593945,4.961355,4.960995,4.9595203,4.958354,4.9573593,4.9562864,4.9546967,4.952759,4.9502625,4.9465895,4.941512,4.9355803,4.9294796,4.92285,4.916879,4.911809,4.90817,4.9056005,4.9042387,4.903587,4.9036636,4.9041147,4.905181,4.9069204,4.9088383,4.9104896,4.9120827,4.913869,4.9147434,4.9146485,4.912804,4.9099627,4.906604,4.9033794,4.900257,4.897579,4.895375,4.8939877,4.8930473,4.891979,4.890374,4.8886275,4.8871164,4.88537,4.8833838,4.8813844,4.8797603,4.878619,4.878113,4.8778105,4.877822,4.878085,4.8783174,4.8786793,4.8791814,4.8791523,4.878602,4.877982,4.876869,4.875193,4.8732214,4.8713064,4.8696146,4.868208,4.8668737,4.8655567,4.8640976,4.8626194,4.861012,4.858688,4.854956,4.8497458,4.84389,4.8385763,4.8342605,4.830966,4.8285904,4.8271217,4.8268633,4.827569,4.8293676,4.8314476,4.832077,4.8309402,4.8288054,4.8277245,4.8293886,4.8305964,4.831661,4.8331604,4.83276,4.83053,4.8276873,4.82424,4.8199987,4.814685,4.808283,4.801467,4.7954392,4.7912674,4.788874,4.7871685,4.7847557,4.781328,4.7773848,4.7735777,4.7697735,4.7641087,4.754987,4.7444777,4.7340612,4.724142,4.714785,4.7056255,4.6965785,4.688387,4.683626,4.6827435,4.6784077,4.673101,4.666192,4.659627,4.6585064,4.6637206,4.666213,4.6557174,4.6328573,4.585415,4.4659033,4.319663,4.2008977,4.1383867,4.1141605,4.088825,4.01642,3.8618424,3.635478,3.4684954,3.3935099,3.37776,3.3816066,3.3970346,3.4102006,3.4091864,3.4017382,3.3976607,3.4043548,3.4261737,3.4625888,3.5090246,3.5528638,3.578258,3.5762548,3.5549462,3.544107,3.5658007,3.7218833,4.1636257,4.575958,4.6645722,4.7052164,4.698026,4.683894,4.66141,4.657281,4.653159,4.6467957,4.6413503,4.6344247,4.627926,4.623962,4.62214,4.62171,4.62183,4.6222425,4.622904,4.6243486,4.6345096,4.6631284,4.6742287,4.663265,4.6662493,4.6121273,4.540248,4.175662,3.8671336,3.7581284,3.7513382,3.7786982,3.7953424,3.7837174,3.756901,3.7387447,3.7337012,3.7353091,3.734233,3.7274053,3.7179942,3.7064836,3.690464,3.666422,3.6362762,3.606472,3.5827785,3.5675635,3.5585933,3.5540466,3.5511203,3.5492196,3.5474796,3.5466566,3.5473862,3.5492973,3.5514393,3.5530813,3.554018,3.5556269,3.5589437,3.5641208,3.5694647,3.5728426,3.5738707,3.5740023,3.5738893,3.574338,3.5756073,3.5782547,3.5824504,3.585869,3.5858734,3.5840118,3.5830402,3.5853944,3.5927544,3.5985918,3.595422,3.580967,3.56256,3.5492895,3.5471687,3.5606668,3.584343,3.606215,3.6138053,3.6049645,3.559093,3.4232628,3.2024121,3.0470288,2.9962044,2.9826083,2.9790845,2.969763,2.947106,2.9224854,2.9021707,2.8900084,2.885026,2.8823533,2.8796847,2.8761504,2.8719063,2.8669171,2.8605838,2.853374,2.8457432,2.8377304,2.8285146,2.8185797,2.8087988,2.8000245,2.7916412,2.780619,2.7675295,2.754416,2.74305,2.7344017,2.7269607,2.716797,2.7024798,2.6852274,2.6664505,2.6461205,2.624446,2.6027641,2.581934,2.5632257,2.5465424,2.5315003,2.5182307,2.5070589,2.4990675,2.4940012,2.4901295,2.4839106,2.475759,2.4690523,2.4670634,2.4642124,2.4510384,2.4050906,2.2852504,2.1281548,2.0109556,1.963165
4.847777,4.8550806,4.8592887,4.862084,4.863131,4.862211,4.8610897,4.8601217,4.8592234,4.857727,4.855273,4.852666,4.849654,4.845636,4.8405,4.834732,4.828964,4.822774,4.8171673,4.8122797,4.8085313,4.8056784,4.803875,4.8027525,4.802431,4.802664,4.8037276,4.805644,4.8078175,4.809704,4.811442,4.8132977,4.8142633,4.814181,4.8125725,4.8094816,4.8057594,4.8022165,4.798929,4.7961993,4.7939568,4.792513,4.7915707,4.7906675,4.78946,4.7882433,4.7872605,4.786066,4.7846355,4.783162,4.7819858,4.7811913,4.7809906,4.7810698,4.781502,4.7819986,4.7821226,4.7825036,4.78278,4.78249,4.7816906,4.780581,4.778867,4.776514,4.773734,4.7708797,4.76824,4.766096,4.764373,4.7629375,4.761422,4.759896,4.758378,4.756283,4.7529707,4.748042,4.7420416,4.7357855,4.7299495,4.724596,4.719608,4.71506,4.711443,4.7091517,4.7082257,4.708189,4.7079763,4.706975,4.705463,4.7046576,4.706042,4.709088,4.713222,4.7167745,4.717361,4.7165403,4.714606,4.711137,4.7075133,4.7033033,4.6982756,4.6925955,4.6865883,4.681244,4.676674,4.672452,4.6681347,4.6636276,4.65909,4.654789,4.650423,4.6453815,4.639329,4.632238,4.6246185,4.617111,4.6099873,4.6030064,4.5964937,4.59124,4.588999,4.585594,4.5831313,4.5802755,4.5741215,4.5662994,4.5613813,4.5643315,4.573499,4.57333,4.5585318,4.5143204,4.4255524,4.3264494,4.242981,4.1918106,4.169489,4.1407404,4.059866,3.8942552,3.6435676,3.4622335,3.3855743,3.3709111,3.3768477,3.3929057,3.4031157,3.4005284,3.391929,3.3866692,3.3923676,3.41369,3.4505415,3.4987764,3.5455012,3.5740728,3.573936,3.5517964,3.5371287,3.551976,3.6870737,4.0926843,4.510814,4.615087,4.670686,4.664262,4.6531854,4.6312943,4.6241574,4.623846,4.617832,4.612955,4.6076975,4.602442,4.59925,4.598132,4.5981884,4.5977674,4.596659,4.595001,4.5947447,4.603414,4.6310387,4.641195,4.6257763,4.615035,4.573103,4.492302,4.1465898,3.8595886,3.754694,3.7499282,3.7784457,3.7960827,3.7848296,3.7571306,3.736936,3.7292209,3.7285023,3.7260337,3.7191744,3.710805,3.7007117,3.6857948,3.6620836,3.6318288,3.60191,3.5784106,3.563149,3.5534227,3.5475926,3.5435314,3.5412464,3.5400093,3.5401955,3.541842,3.5444913,3.5472298,3.5495353,3.5513682,3.5540218,3.558456,3.5646732,3.5705478,3.5739665,3.5752342,3.5756993,3.5762267,3.5777147,3.5805836,3.5845063,3.5879843,3.5905108,3.5911956,3.5904686,3.590881,3.5953667,3.604669,3.6101217,3.6042833,3.5859752,3.5644898,3.5505543,3.5497484,3.565135,3.5873554,3.6019022,3.6117191,3.6025891,3.5581818,3.4269776,3.2071023,3.0465093,2.9925663,2.9791389,2.9763284,2.9676456,2.945622,2.9214299,2.9015865,2.8900142,2.8855329,2.8830786,2.8802536,2.8763924,2.8718326,2.866737,2.8605661,2.8536677,2.8463802,2.8386066,2.829558,2.8198102,2.8102994,2.8020496,2.7944057,2.7843971,2.7720122,2.759626,2.7483277,2.7387013,2.7296734,2.7188168,2.7049203,2.6895354,2.673685,2.656735,2.6381657,2.6189291,2.5989718,2.5797076,2.5607352,2.5423298,2.5252786,2.5107932,2.5001976,2.4933515,2.4888067,2.4825454,2.4747896,2.468604,2.467173,2.4664478,2.4566975,2.420775,2.310072,2.149877,2.020864,1.9642153
4.7523236,4.760339,4.7637205,4.7661858,4.766588,4.7662168,4.765355,4.76468,4.7639046,4.7622437,4.759516,4.7565036,4.753059,4.748747,4.743601,4.7380466,4.73269,4.727043,4.721936,4.7174253,4.7138205,4.7109637,4.7090006,4.707656,4.7070937,4.707143,4.708069,4.7098904,4.711972,4.7137947,4.7155013,4.7174063,4.718546,4.71867,4.7173433,4.714594,4.710784,4.7070866,4.703637,4.7006598,4.6980405,4.6961074,4.6946974,4.693513,4.6923256,4.691366,4.690727,4.6899767,4.689026,4.6880045,4.687172,4.6866045,4.6865745,4.6869307,4.6876917,4.688201,4.6884084,4.688633,4.6885705,4.687895,4.686655,4.68505,4.6828823,4.6801395,4.676961,4.673655,4.670536,4.6679907,4.666032,4.6644773,4.6628504,4.6611524,4.6595,4.657482,4.6544437,4.6499367,4.6443524,4.6383076,4.6324034,4.626749,4.621212,4.6158476,4.6109724,4.606784,4.6035376,4.601239,4.599675,4.598501,4.5976067,4.5972605,4.598054,4.6000443,4.602693,4.605012,4.606842,4.6082134,4.6095715,4.609668,4.60855,4.607408,4.603959,4.5994945,4.594796,4.589815,4.5845423,4.5789633,4.5732555,4.5675693,4.5620604,4.557225,4.5520997,4.5471864,4.5424604,4.5370746,4.5311093,4.5246935,4.517986,4.5109997,4.504122,4.4979143,4.4933786,4.491519,4.4907403,4.4890833,4.48405,4.4762673,4.4711313,4.472292,4.477661,4.48354,4.4781685,4.441429,4.3776007,4.3098683,4.2544703,4.220204,4.198923,4.165295,4.0915403,3.9155993,3.6528068,3.45787,3.3794801,3.364788,3.3708334,3.3871922,3.3970509,3.393609,3.3838606,3.3773575,3.3819876,3.4028559,3.4403186,3.490644,3.5403872,3.5719762,3.573514,3.5507488,3.5333319,3.5441473,3.6653924,4.0406356,4.4517837,4.5645037,4.629158,4.624777,4.6176386,4.5989885,4.5907106,4.5917516,4.587337,4.582534,4.577448,4.5733914,4.5718155,4.571159,4.570576,4.56909,4.5668573,4.5637197,4.561287,4.567255,4.5926,4.603718,4.5904064,4.5681925,4.535022,4.442377,4.122303,3.8594248,3.7574103,3.7543046,3.781664,3.7995434,3.7891512,3.7611158,3.7383964,3.7277675,3.7245111,3.7199764,3.7129056,3.7061112,3.6973562,3.6830325,3.6592603,3.6281002,3.5975332,3.5738268,3.5581832,3.547421,3.5401173,3.535018,3.532885,3.5330586,3.5352764,3.5386767,3.542573,3.5461497,3.549227,3.5519617,3.5555263,3.5608196,3.5678616,3.5739188,3.5777578,3.5802348,3.582152,3.5844839,3.586909,3.5894594,3.5937214,3.5996504,3.6045833,3.6066537,3.6067135,3.6076884,3.6137652,3.623667,3.6272535,3.6172218,3.5934467,3.567525,3.5519269,3.5519493,3.5690002,3.585951,3.6006026,3.6103058,3.6021423,3.5581417,3.4289021,3.2102966,3.0451186,2.9878488,2.9743066,2.9722571,2.9645097,2.9435496,2.9200816,2.9009318,2.890105,2.8861928,2.8839746,2.8809795,2.8768039,2.8720012,2.8669345,2.8611183,2.854714,2.8479176,2.840475,2.8316534,2.8221016,2.8128197,2.804996,2.7979748,2.7889957,2.7774584,2.7657583,2.7545717,2.7436886,2.7325747,2.7204056,2.7062793,2.6920516,2.678546,2.6648443,2.6502666,2.6354604,2.619419,2.6024675,2.5835223,2.5638173,2.5444841,2.527605,2.5144963,2.5051827,2.4982605,2.4899058,2.4801402,2.4711878,2.4695206,2.469602,2.4626775,2.4319937,2.3326018,2.1739907,2.0333703,1.9669497
4.656911,4.665963,4.6706896,4.672947,4.6737027,4.6738024,4.673685,4.673444,4.6729574,4.6718464,4.6694126,4.6662555,4.6626377,4.658247,4.65326,4.648059,4.643203,4.6381454,4.6335764,4.6294956,4.62616,4.6234694,4.621566,4.6202154,4.619569,4.6194515,4.6200924,4.621534,4.6231976,4.6246796,4.6261616,4.628026,4.629341,4.629797,4.6289015,4.6268306,4.6237445,4.620398,4.6172047,4.614296,4.61152,4.609187,4.607245,4.605564,4.6040764,4.602992,4.602321,4.601651,4.6008463,4.5999756,4.599228,4.598668,4.59859,4.598953,4.599717,4.599942,4.599901,4.5996494,4.5989666,4.597679,4.59593,4.593953,4.591632,4.5889254,4.58589,4.5827255,4.579682,4.577134,4.575139,4.5734944,4.5716867,4.5696697,4.567651,4.5654263,4.562457,4.558363,4.5533943,4.5480285,4.5427513,4.5376797,4.5326676,4.5277357,4.523046,4.5186176,4.514763,4.511741,4.5098104,4.5088224,4.508488,4.5085473,4.509018,4.5098753,4.5108724,4.511739,4.5124598,4.5131216,4.5139065,4.5148373,4.5159664,4.516899,4.516126,4.514471,4.5122924,4.5082946,4.503131,4.4974537,4.491575,4.4859095,4.48063,4.4758825,4.471164,4.4657784,4.4610653,4.456891,4.452053,4.446512,4.44037,4.433778,4.4270625,4.420527,4.414792,4.410551,4.406984,4.4032354,4.3977838,4.390918,4.385938,4.3855953,4.3905888,4.3965235,4.3927803,4.3706007,4.331295,4.2869534,4.248782,4.224048,4.2057276,4.1710606,4.100176,3.926073,3.6586986,3.4545712,3.374943,3.3589697,3.3655124,3.3823595,3.392417,3.3887196,3.378263,3.370728,3.3743777,3.3949032,3.433093,3.4858437,3.538581,3.5720956,3.5747283,3.55141,3.5323286,3.5422661,3.6570868,4.008552,4.4005566,4.512307,4.579255,4.577329,4.5732555,4.5597324,4.5534887,4.5542917,4.5501323,4.543081,4.5377398,4.534266,4.532916,4.5319033,4.530392,4.5277195,4.524516,4.521386,4.51877,4.521952,4.5397367,4.5574603,4.5484276,4.52816,4.4984097,4.38976,4.1015587,3.867454,3.7666595,3.7644343,3.7894936,3.805034,3.79355,3.766436,3.742077,3.7290907,3.723017,3.7164967,3.7090592,3.7037234,3.6967912,3.6824899,3.6577344,3.6249692,3.5927217,3.5687065,3.552886,3.5413814,3.5330114,3.5274773,3.526351,3.5288992,3.5340781,3.5399141,3.545436,3.5500119,3.5538406,3.5572774,3.5613768,3.5671463,3.5733445,3.5788846,3.5843334,3.5889022,3.5917878,3.594242,3.5990248,3.6065497,3.6156554,3.62493,3.6315923,3.6339312,3.6336823,3.6341062,3.639094,3.647202,3.647656,3.6335297,3.60302,3.5711074,3.552629,3.552718,3.56989,3.5841827,3.5996838,3.6103806,3.6031313,3.5582643,3.4282403,3.2098074,3.0404282,2.9810011,2.9677043,2.9667358,2.9602613,2.9406695,2.9180841,2.8997061,2.8896472,2.8862886,2.8842921,2.8811722,2.876794,2.8719163,2.867076,2.861802,2.8560588,2.849899,2.8429222,2.834453,2.8251328,2.8159847,2.808319,2.8015757,2.7933989,2.7827744,2.7715116,2.76048,2.7481804,2.7347288,2.7208107,2.7059035,2.6919823,2.679698,2.6681783,2.6572843,2.647295,2.6369255,2.6254838,2.6107018,2.5931354,2.574533,2.5576365,2.5433393,2.5318496,2.5217857,2.5098073,2.4934936,2.4774806,2.4724588,2.4714475,2.4657917,2.4376833,2.3504767,2.1972528,2.047559,1.9711702
4.5615416,4.5702515,4.576184,4.5801754,4.5811443,4.581226,4.5812316,4.58143,4.581621,4.5811644,4.579715,4.577464,4.5743675,4.570278,4.5656815,4.5609827,4.5566683,4.552187,4.548135,4.5444927,4.541503,4.5391006,4.537403,4.536208,4.535614,4.5354004,4.535758,4.536765,4.5379605,4.5390983,4.540395,4.542264,4.543811,4.5447083,4.544428,4.5430946,4.541039,4.538862,4.5363455,4.533907,4.531329,4.5288982,4.526621,4.5244865,4.5225844,4.521164,4.520215,4.5193615,4.5184517,4.5175214,4.516718,4.5160847,4.51589,4.516117,4.516568,4.516272,4.5156918,4.5147104,4.5132027,4.511156,4.508852,4.506582,4.504259,4.501793,4.4991837,4.4965067,4.493886,4.4916224,4.4897823,4.4881907,4.4863467,4.484192,4.4820094,4.4797673,4.477067,4.4736166,4.4695253,4.4651423,4.4608326,4.4567084,4.452638,4.448659,4.4448395,4.441062,4.4375725,4.4347024,4.4328723,4.4320426,4.431888,4.4319687,4.4321384,4.432398,4.432544,4.4324145,4.4320283,4.4316483,4.431674,4.4318676,4.432011,4.432305,4.432696,4.4325805,4.431716,4.4290085,4.4251976,4.4205503,4.4155607,4.4110165,4.4069443,4.4021893,4.397773,4.393539,4.3892984,4.3850603,4.381009,4.376342,4.3710394,4.365388,4.359572,4.3534946,4.3475275,4.3421926,4.337096,4.3320427,4.326277,4.320075,4.315828,4.3157473,4.3199854,4.3249445,4.3238783,4.311282,4.286802,4.2558584,4.228922,4.2109566,4.194839,4.162364,4.090807,3.92687,3.6614776,3.4528441,3.3716855,3.3533654,3.3601816,3.377625,3.3884635,3.3852844,3.3747373,3.3664796,3.3692365,3.3894367,3.4283562,3.483335,3.5387683,3.5735416,3.5768118,3.553059,3.5331798,3.5445185,3.65789,3.9878788,4.3510933,4.462421,4.522908,4.5237126,4.5222983,4.51377,4.5114365,4.508162,4.498603,4.492236,4.4881716,4.4856524,4.484474,4.4830017,4.4807916,4.4777403,4.474399,4.470742,4.4672728,4.468297,4.4806266,4.5005293,4.502366,4.481394,4.4454584,4.3343773,4.085062,3.8726153,3.7805922,3.7767768,3.7996426,3.8115718,3.7991827,3.771845,3.7479744,3.7332983,3.725274,3.7178311,3.710203,3.7045739,3.6987991,3.684767,3.6580386,3.6222603,3.5882866,3.5642345,3.5489397,3.537458,3.5287614,3.52351,3.524074,3.5295906,3.5381691,3.5466316,3.5536952,3.559043,3.5633655,3.5667129,3.5701675,3.5741568,3.5795488,3.5860786,3.5925078,3.5981307,3.604941,3.6133528,3.6232867,3.6352806,3.6485648,3.6604166,3.6669893,3.6677303,3.6655831,3.6647491,3.6671562,3.6670415,3.6599555,3.6456692,3.6149302,3.5769072,3.5545774,3.5541213,3.5684,3.58464,3.5995393,3.612399,3.6050296,3.557859,3.4257572,3.205666,3.033157,2.9729376,2.9606538,2.9609823,2.955947,2.937583,2.9158063,2.8980877,2.8886566,2.885731,2.8839147,2.8807373,2.8762894,2.871488,2.866991,2.8623219,2.857271,2.851781,2.8453264,2.8372884,2.8282003,2.8190699,2.8112745,2.8044412,2.79678,2.7869935,2.776186,2.765247,2.7516499,2.7360387,2.720311,2.7044253,2.6902466,2.6782153,2.6676307,2.659196,2.653534,2.6489697,2.6439753,2.6356585,2.6242292,2.6101456,2.595759,2.5824912,2.5704243,2.55773,2.5400324,2.5150156,2.4889143,2.4762352,2.4719527,2.4661705,2.4403594,2.3649163,2.2178073,2.0641422,1.9776771
4.465101,4.4740977,4.479669,4.48394,4.4848876,4.485135,4.4853225,4.4857187,4.486164,4.48601,4.4848113,4.483013,4.48073,4.477982,4.474961,4.471343,4.467717,4.4638476,4.460296,4.457165,4.454665,4.4526744,4.4512925,4.4503345,4.449871,4.449648,4.449837,4.450551,4.451474,4.452506,4.45387,4.455959,4.4578795,4.4593086,4.4597564,4.4593296,4.458274,4.457096,4.455798,4.454172,4.452068,4.449868,4.447583,4.4452586,4.4430933,4.4413958,4.4401846,4.439131,4.4380946,4.4370985,4.4362836,4.435693,4.4355116,4.4356623,4.435546,4.434863,4.4336286,4.431842,4.4295034,4.426772,4.424043,4.421607,4.4193587,4.4171524,4.4149466,4.412755,4.4105906,4.40868,4.4070754,4.4056673,4.4040337,4.402112,4.4001794,4.3983445,4.3963366,4.393953,4.3911867,4.3882113,4.385233,4.3823295,4.379409,4.376565,4.373845,4.3710375,4.3682756,4.365858,4.364198,4.3633094,4.362952,4.3627443,4.362607,4.3625746,4.3624077,4.3618593,4.3608723,4.3596563,4.3584585,4.3575106,4.3567495,4.3560343,4.3554444,4.354673,4.3535895,4.3519554,4.3495116,4.346277,4.3425007,4.338784,4.3353796,4.332554,4.329759,4.3256392,4.321792,4.318096,4.3144054,4.310567,4.3064337,4.3020067,4.297429,4.2925806,4.2871237,4.2816696,4.276058,4.270445,4.2645664,4.2587934,4.2550344,4.2550488,4.259041,4.264303,4.2653394,4.257324,4.240982,4.2202663,4.200367,4.1876974,4.1740494,4.143052,4.0745378,3.922232,3.6647525,3.4533014,3.369318,3.347935,3.3544736,3.372462,3.384601,3.3827248,3.3727129,3.3639936,3.3658552,3.385604,3.425083,3.4818845,3.539574,3.5753086,3.5789957,3.5551705,3.5353742,3.5494363,3.663446,3.9730659,4.298417,4.4041204,4.4575396,4.4672146,4.4646616,4.4622107,4.461007,4.4510746,4.4430485,4.43713,4.4323964,4.4290085,4.427334,4.4256563,4.423333,4.420166,4.416729,4.4129353,4.408979,4.4082584,4.4170914,4.4359846,4.444186,4.429711,4.392766,4.2773914,4.0662413,3.8747144,3.7961612,3.7897816,3.806902,3.815682,3.803627,3.7775354,3.7541552,3.739756,3.731719,3.7242718,3.716826,3.7109604,3.7045715,3.691362,3.6612859,3.6215143,3.5856452,3.5619798,3.548236,3.5377839,3.5295105,3.5249846,3.5273438,3.5356193,3.5470085,3.5569763,3.56383,3.5680518,3.5707822,3.5731242,3.5761867,3.5799468,3.5855756,3.5928855,3.6024525,3.6145587,3.6273303,3.6410286,3.6557257,3.6716456,3.6865978,3.6967463,3.6990147,3.696506,3.6907926,3.6853063,3.6817977,3.678894,3.6701074,3.6518483,3.625041,3.5866957,3.56044,3.558719,3.5701365,3.5867782,3.601174,3.61639,3.6073825,3.556696,3.4212832,3.1987526,3.024768,2.9651027,2.953873,2.9557858,2.9520607,2.9346118,2.9134355,2.896132,2.8870726,2.8843942,2.8826897,2.8795424,2.8751583,2.8705354,2.866404,2.862259,2.857777,2.8528464,2.8468575,2.8392358,2.8303447,2.821128,2.8129919,2.8057895,2.79839,2.7893991,2.77919,2.7681646,2.753617,2.7363577,2.7191362,2.7024617,2.687929,2.6756468,2.6650486,2.657618,2.6545253,2.6543794,2.6550746,2.65312,2.6482668,2.641008,2.6320608,2.6221266,2.6117353,2.597526,2.5743122,2.5398626,2.5041175,2.4811034,2.4718924,2.4650922,2.4411817,2.378251,2.238454,2.0838473,1.986745
4.3669767,4.375263,4.379346,4.381667,4.3817425,4.38248,4.382987,4.383671,4.384433,4.384661,4.383905,4.3825307,4.380637,4.378315,4.3758574,4.373467,4.371371,4.368689,4.365693,4.3631706,4.3613224,4.359891,4.3589725,4.3583894,4.35818,4.3580484,4.35821,4.358882,4.359903,4.3612547,4.3630753,4.3656473,4.3680644,4.3700237,4.3711433,4.3715787,4.3715405,4.3713465,4.3708797,4.3700547,4.3686066,4.366909,4.364973,4.362836,4.360735,4.3590207,4.3577566,4.3566704,4.3556466,4.3547254,4.354073,4.3537483,4.353818,4.354088,4.3538547,4.352915,4.351266,4.3490343,4.3463407,4.343435,4.3407187,4.3383894,4.336282,4.3342175,4.332183,4.330228,4.3283086,4.326622,4.3252015,4.324028,4.322773,4.3213515,4.3199744,4.318815,4.3177085,4.3165236,4.315178,4.3136806,4.312092,4.310443,4.308711,4.307039,4.3054523,4.30369,4.3017607,4.2998977,4.2984405,4.2974377,4.296802,4.296302,4.2959967,4.295932,4.2957954,4.295141,4.2937546,4.292012,4.290149,4.288328,4.2866516,4.285182,4.283867,4.2824783,4.2810907,4.27958,4.2776256,4.275093,4.272044,4.268834,4.265947,4.263821,4.2626095,4.261546,4.258674,4.255089,4.251662,4.2486243,4.245569,4.2422876,4.238777,4.2350087,4.230456,4.2253904,4.219907,4.214284,4.2085133,4.2030373,4.199401,4.198998,4.202006,4.206408,4.208123,4.2031975,4.1912546,4.1771846,4.164234,4.1539598,4.1434836,4.115574,4.052374,3.9144745,3.6707158,3.4573107,3.368328,3.3429515,3.3484812,3.366806,3.3805766,3.380536,3.3714085,3.3622477,3.3630733,3.3822663,3.4223645,3.4811773,3.541533,3.5789385,3.5836282,3.5602298,3.5409102,3.5581791,3.6708593,3.9576173,4.2519207,4.3498507,4.3831615,4.4098997,4.410738,4.408134,4.4005394,4.388859,4.380821,4.374383,4.3689795,4.3653975,4.3635707,4.36197,4.3600187,4.3575053,4.354919,4.352197,4.3494587,4.348171,4.3534293,4.3693,4.3821373,4.3715577,4.335618,4.223487,4.0434036,3.8766522,3.8069243,3.7989616,3.8107858,3.8166914,3.8037887,3.7811518,3.7613144,3.7488236,3.7418656,3.7354004,3.7288744,3.7229018,3.7153707,3.699994,3.6667233,3.622631,3.584701,3.562357,3.551335,3.5428028,3.535346,3.531343,3.5345783,3.5438588,3.5546832,3.562757,3.56844,3.5721674,3.5748806,3.5769584,3.5798938,3.5854023,3.5927396,3.6040444,3.6198416,3.6383033,3.6571088,3.675153,3.6910772,3.704658,3.711699,3.7140012,3.7131562,3.7083874,3.702024,3.6961305,3.6931665,3.6910539,3.6816983,3.6609585,3.6285722,3.5973706,3.5709732,3.5643625,3.5749888,3.5868783,3.6051188,3.621706,3.6101851,3.554215,3.4142318,3.1896274,3.016116,2.9585443,2.9482727,2.9514127,2.948771,2.931953,2.9111447,2.894048,2.8851416,2.8825402,2.8808599,2.8777742,2.8735213,2.869123,2.8653321,2.8616047,2.857561,2.8530555,2.8474169,2.840117,2.831336,2.8219457,2.8133435,2.8055992,2.7982483,2.7898688,2.7802076,2.7692196,2.7541223,2.7358446,2.7176566,2.7006302,2.6860068,2.6734853,2.6624923,2.6550145,2.652802,2.6548476,2.6588516,2.6617074,2.6622329,2.6606548,2.6569793,2.6507645,2.6429367,2.6294632,2.6045656,2.5633326,2.51904,2.4860039,2.4719057,2.463497,2.441101,2.3892143,2.2588053,2.1054587,1.997792
4.2629414,4.2687616,4.2706823,4.271467,4.2723913,4.273657,4.274615,4.275653,4.27674,4.277366,4.2771273,4.276334,4.275075,4.2734756,4.2717566,4.269976,4.268293,4.266199,4.2639227,4.2618985,4.2604856,4.2594843,4.2591066,4.259205,4.2596555,4.259898,4.260214,4.2611,4.2625494,4.264612,4.267089,4.270184,4.272972,4.2752376,4.2767553,4.277791,4.2785473,4.279171,4.2794094,4.2791967,4.2784014,4.277359,4.276019,4.2743707,4.2726555,4.271239,4.2702236,4.269387,4.2686577,4.268101,4.267905,4.268116,4.2686944,4.2693205,4.269642,4.268923,4.26744,4.26553,4.2633324,4.2610464,4.258972,4.2571387,4.2552714,4.2532167,4.251071,4.249018,4.247052,4.2453837,4.2440443,4.2430964,4.242278,4.24146,4.240754,4.240309,4.2400074,4.239769,4.239482,4.2390747,4.238548,4.237882,4.2371883,4.2366123,4.2360716,4.2352924,4.2342052,4.2329636,4.231807,4.230834,4.2300854,4.2294874,4.229206,4.229278,4.2293015,4.228696,4.2273607,4.2256975,4.223755,4.2217035,4.219638,4.2176876,4.215893,4.2141886,4.2126894,4.211336,4.2098994,4.208103,4.205803,4.203208,4.2008405,4.1991057,4.19779,4.197319,4.1970654,4.195649,4.1929045,4.1899033,4.1871862,4.184455,4.181694,4.1787443,4.175406,4.170947,4.1658726,4.160474,4.154887,4.1495357,4.145624,4.1442614,4.1456137,4.1482325,4.1492124,4.145752,4.136976,4.1266584,4.1183214,4.1108665,4.10365,4.0802965,4.024726,3.902902,3.6778784,3.4656568,3.3684983,3.3383799,3.3420057,3.3603034,3.3758445,3.3779361,3.3698082,3.3600683,3.35971,3.3784394,3.419672,3.481586,3.5458007,3.5864885,3.5932708,3.570884,3.552047,3.5718226,3.681067,3.9414637,4.203415,4.302247,4.313614,4.3387084,4.349782,4.3492947,4.3350167,4.323405,4.3169384,4.311187,4.3062477,4.3031054,4.301532,4.300247,4.29889,4.2974052,4.296102,4.2945623,4.292515,4.2911997,4.2948895,4.3062687,4.3190823,4.315264,4.2742324,4.1732388,4.0194693,3.8764076,3.8115234,3.8032765,3.8134906,3.8173678,3.8051128,3.7840054,3.766056,3.7552688,3.7497518,3.7453551,3.7406135,3.7364118,3.7271776,3.7052245,3.6696112,3.6243062,3.5849664,3.5651045,3.5576959,3.5511098,3.5438378,3.5390773,3.5407786,3.5484548,3.558731,3.5670114,3.5724375,3.5752702,3.5768633,3.5798528,3.58531,3.5926208,3.6043139,3.622022,3.6445653,3.6688678,3.689364,3.7038457,3.7113023,3.7170496,3.7234604,3.7269263,3.7244368,3.717513,3.7095547,3.7037919,3.701757,3.7005198,3.6909513,3.6681051,3.6339903,3.6006079,3.5798335,3.5722144,3.5775113,3.5885396,3.609604,3.626265,3.6116068,3.5490437,3.4037194,3.1788535,3.008617,2.9539163,2.9443069,2.9482071,2.9462295,2.929696,2.9090576,2.8920562,2.8831735,2.880517,2.8787587,2.8756938,2.8715606,2.8673754,2.8638783,2.860527,2.856892,2.8527632,2.8473907,2.8402863,2.8314886,2.8218198,2.8126564,2.8042457,2.7967172,2.788773,2.7797303,2.7689912,2.75355,2.734754,2.7160993,2.6992035,2.6849153,2.6725,2.661248,2.6532986,2.650793,2.6530628,2.658012,2.6630225,2.6663508,2.6679897,2.666565,2.6617365,2.6571755,2.648601,2.624003,2.5808582,2.53016,2.4903555,2.472271,2.4620323,2.4407787,2.3955529,2.2772064,2.1281395,2.0101337
4.153514,4.157645,4.1596317,4.161235,4.162775,4.164593,4.165992,4.167345,4.168707,4.1697073,4.170025,4.169923,4.1693926,4.1685095,4.167458,4.166218,4.164879,4.162674,4.1604433,4.1583786,4.156974,4.156156,4.156086,4.1565294,4.1571884,4.1576147,4.158127,4.159051,4.160693,4.163226,4.1663685,4.170019,4.1731944,4.175632,4.177267,4.178522,4.1796665,4.1808314,4.1816993,4.182194,4.1820636,4.1817684,4.181154,4.180113,4.1789656,4.178056,4.177538,4.1772556,4.177202,4.177468,4.1781836,4.179242,4.180593,4.1817875,4.182476,4.1825633,4.1822414,4.181721,4.181041,4.1802416,4.1795053,4.178623,4.1772165,4.175223,4.172905,4.170643,4.168522,4.166795,4.1654086,4.1645746,4.1640906,4.1637907,4.1636763,4.1638136,4.1640697,4.1643953,4.164687,4.164874,4.1649675,4.1650615,4.16518,4.165453,4.165823,4.16593,4.1656446,4.1650553,4.1643124,4.1635437,4.162884,4.162389,4.162283,4.162579,4.1628838,4.162677,4.161706,4.1603193,4.158616,4.1567535,4.1548176,4.1529274,4.151141,4.1496086,4.148327,4.147258,4.1462126,4.1449394,4.1432643,4.1413155,4.139529,4.1383514,4.137661,4.1372576,4.137411,4.137309,4.1363077,4.1342716,4.1315584,4.1288867,4.1262884,4.1235614,4.1204906,4.1169796,4.112663,4.107612,4.1023226,4.0970764,4.092758,4.090298,4.0898466,4.090443,4.090151,4.087047,4.080474,4.072501,4.0664005,4.0618753,4.056771,4.0386868,3.9921584,3.8852854,3.6789348,3.4765797,3.3683212,3.3333888,3.3342206,3.3520727,3.3693562,3.3737166,3.3666465,3.3562982,3.3548656,3.373582,3.4168472,3.483319,3.5528774,3.5987358,3.608407,3.5873713,3.5683537,3.586615,3.6924129,3.9194145,4.152343,4.259609,4.268011,4.28689,4.294318,4.2829,4.266692,4.2582893,4.253831,4.249487,4.2455645,4.243585,4.242878,4.2422237,4.24148,4.240985,4.240388,4.2394066,4.237876,4.236871,4.239956,4.2489967,4.258302,4.254597,4.217392,4.128577,3.9991486,3.8768551,3.8169627,3.808649,3.8170652,3.8198102,3.8080716,3.7886872,3.7724729,3.7636428,3.7610106,3.7595668,3.7579374,3.7544308,3.7416105,3.7123709,3.6682472,3.6217675,3.5838454,3.567497,3.562721,3.5580907,3.550518,3.544435,3.545109,3.5524647,3.5624151,3.5699477,3.5738163,3.576282,3.5789876,3.5838602,3.5914884,3.6036775,3.621789,3.6463828,3.6735234,3.6954043,3.7062182,3.7138355,3.7210078,3.7281842,3.7334025,3.7338252,3.729197,3.7205229,3.7112808,3.7050915,3.7037115,3.703407,3.6952019,3.6719189,3.6382275,3.6035476,3.5816905,3.5742483,3.5778573,3.589126,3.6122127,3.6271987,3.608509,3.540255,3.3896399,3.1668382,3.0027037,2.9509501,2.9417975,2.946087,2.944337,2.927843,2.9073358,2.8904781,2.8816104,2.878819,2.8768578,2.8736854,2.8695583,2.8655076,2.8622575,2.8593152,2.8561954,2.8525703,2.847556,2.8406534,2.831761,2.8216772,2.8117943,2.8025405,2.7945828,2.7868493,2.778407,2.767868,2.7523718,2.7331781,2.7143154,2.6977797,2.684064,2.6720252,2.660735,2.6522794,2.6490095,2.650506,2.6549945,2.6602721,2.6641507,2.6664572,2.66538,2.6620586,2.660029,2.6542776,2.634213,2.5920706,2.538393,2.4932456,2.4716654,2.4601974,2.4396641,2.399263,2.2945056,2.1508603,2.0245671
4.047103,4.051898,4.0543137,4.0561795,4.058032,4.060104,4.061707,4.0631714,4.064637,4.0659037,4.066728,4.0673018,4.067353,4.066822,4.0659866,4.0648003,4.063242,4.0606318,4.0580835,4.056135,4.0552187,4.054922,4.0552125,4.0558157,4.0561223,4.055995,4.0561404,4.057144,4.0591865,4.062168,4.065856,4.0698576,4.0730305,4.075145,4.0763383,4.0772743,4.0783215,4.079583,4.0806007,4.081341,4.0817747,4.082283,4.0826664,4.082725,4.082473,4.082192,4.0820932,4.082162,4.082571,4.083454,4.085007,4.0872383,4.089669,4.091722,4.09317,4.094202,4.0953197,4.096656,4.0984893,4.1003404,4.101784,4.1024656,4.1019354,4.1002674,4.0979843,4.0956917,4.0935993,4.092024,4.090685,4.090026,4.089902,4.089963,4.090295,4.09085,4.0914288,4.0919886,4.0924625,4.092827,4.093154,4.09359,4.0942,4.095105,4.09618,4.0970664,4.0974865,4.0974097,4.097108,4.096655,4.0961924,4.0959005,4.0960493,4.096633,4.0972567,4.0975065,4.0972013,4.096339,4.0950756,4.0936146,4.0920615,4.0904217,4.0889454,4.087734,4.0868855,4.086225,4.08559,4.0848308,4.0837755,4.0825186,4.08143,4.080882,4.080735,4.0806823,4.0808535,4.080824,4.0805054,4.0798497,4.078062,4.075518,4.0728297,4.070113,4.0670905,4.063734,4.0597887,4.0553284,4.0505934,4.0456758,4.041174,4.0378532,4.0359054,4.034791,4.033251,4.0299616,4.0242934,4.0180473,4.012213,4.009473,4.005538,3.9926252,3.9552937,3.863624,3.6794758,3.4863644,3.3677716,3.3271418,3.324439,3.3414125,3.3602686,3.3669014,3.3609695,3.3502116,3.3481705,3.3676732,3.4140213,3.4863348,3.562522,3.6149359,3.627622,3.6088858,3.588968,3.6043527,3.7021134,3.8920217,4.095713,4.2065268,4.225098,4.2335577,4.2286215,4.207838,4.190804,4.1862726,4.1855755,4.183133,4.1802387,4.1793156,4.1804457,4.181984,4.1829367,4.1827927,4.1828785,4.182584,4.1815453,4.1813307,4.185586,4.1941757,4.201473,4.1988106,4.165943,4.088913,3.9835637,3.8820252,3.8259003,3.8171806,3.823229,3.8241382,3.812366,3.7942634,3.7794356,3.7724707,3.772582,3.7743964,3.7750368,3.7698708,3.7527251,3.7160897,3.6625032,3.610931,3.577982,3.565158,3.564764,3.5624647,3.5560122,3.549104,3.5482345,3.5544548,3.5630765,3.5694396,3.5733888,3.5770683,3.5825698,3.5909822,3.60333,3.621157,3.645218,3.672748,3.6919825,3.7032409,3.714263,3.72288,3.7281742,3.7311447,3.7332563,3.7320046,3.7258778,3.7159474,3.7057495,3.6989377,3.6972868,3.6972516,3.6901464,3.6696315,3.6376147,3.6045303,3.5822802,3.5724332,3.5750937,3.5864499,3.6103635,3.6212323,3.5957444,3.5277004,3.372791,3.1546636,2.9989967,2.9490004,2.9402554,2.9450321,2.9430647,2.9265127,2.906232,2.8896716,2.8808808,2.8778663,2.8755164,2.8719997,2.8676577,2.8635907,2.860538,2.8580937,2.8556995,2.8529031,2.8485718,2.8420806,2.8331225,2.8224528,2.8115816,2.8013008,2.7926884,2.7848544,2.776742,2.7663422,2.7507856,2.7312493,2.712152,2.6958742,2.682643,2.6709857,2.6597598,2.6509593,2.647029,2.6477118,2.6515408,2.6565354,2.6604052,2.6625137,2.6622524,2.6594667,2.6586065,2.6549368,2.6381807,2.5986931,2.5445633,2.4955723,2.4707031,2.457713,2.4374213,2.3996577,2.3101234,2.1722248,2.040894
3.950786,3.9556098,3.9579148,3.959447,3.9610412,3.9628646,3.9642422,3.9654622,3.9667602,3.9681144,3.9693155,3.9703388,3.970992,3.9713068,3.9712324,3.9706254,3.9693985,3.967245,3.965054,3.9631355,3.962201,3.9618,3.9615464,3.9615011,3.9616416,3.9617195,3.9619906,3.9629774,3.9648056,3.9674654,3.9707808,3.974294,3.9769204,3.9784808,3.9791918,3.9797773,3.980627,3.9818602,3.9829905,3.9840374,3.984962,3.9861348,3.987261,3.9879894,3.9882743,3.9883752,3.988627,3.9891582,3.9901626,3.9918094,3.994238,3.997287,4.000377,4.0029716,4.005037,4.0070224,4.009679,4.0132895,4.0177045,4.022078,4.025648,4.028063,4.028921,4.028319,4.0268464,4.0251307,4.023451,4.022049,4.021104,4.0209885,4.021518,4.021991,4.022703,4.0234804,4.0241647,4.0246916,4.025054,4.025296,4.0255423,4.025975,4.026675,4.0277905,4.0291967,4.030507,4.031378,4.031679,4.031644,4.031496,4.0313373,4.031371,4.031867,4.032833,4.0339136,4.03469,4.035001,4.034859,4.034237,4.0333385,4.0322943,4.031216,4.030259,4.029458,4.028909,4.028546,4.0282707,4.027967,4.0274496,4.0267487,4.0261917,4.026039,4.0261064,4.0262876,4.026557,4.02652,4.026019,4.0250645,4.0243435,4.0229344,4.0208225,4.0181103,4.015078,4.0117273,4.0079994,4.003963,3.9994688,3.9950094,3.990909,3.9873676,3.984658,3.98253,3.9802291,3.9768968,3.9719875,3.9666758,3.9615083,3.9586372,3.9559085,3.9466171,3.9173112,3.840272,3.677211,3.4929934,3.3658571,3.319276,3.3129005,3.3285935,3.3486972,3.3573966,3.3526406,3.34191,3.3401275,3.361587,3.412188,3.4914641,3.575,3.6320407,3.644835,3.6299543,3.6111712,3.621533,3.7052424,3.8641653,4.032585,4.13661,4.173293,4.170557,4.150999,4.1206303,4.1035547,4.1020803,4.1042843,4.1056337,4.1064796,4.1083784,4.111171,4.1139455,4.116413,4.118222,4.1192427,4.1190476,4.1179633,4.1184783,4.125432,4.1374874,4.146574,4.144231,4.116721,4.052053,3.97178,3.8940597,3.8405643,3.8296945,3.8326054,3.8308942,3.8184786,3.8009706,3.7870708,3.7816508,3.7836533,3.7872386,3.7882588,3.7818093,3.7601042,3.7153442,3.6527662,3.596825,3.5668159,3.5602188,3.563941,3.565267,3.5595684,3.551539,3.5486557,3.5533714,3.5614233,3.5681217,3.5747373,3.582231,3.5915895,3.604072,3.62046,3.6417184,3.6666896,3.6829045,3.6950035,3.7082129,3.717623,3.7213237,3.722546,3.7231436,3.7232673,3.7203765,3.7130923,3.702387,3.6913972,3.683628,3.6809587,3.6804628,3.6747282,3.6582427,3.6303988,3.6012363,3.5784566,3.5680637,3.5678363,3.5778928,3.6007867,3.607703,3.5786552,3.5106354,3.3540754,3.1430464,2.997322,2.948679,2.9397101,2.944468,2.9419956,2.9254491,2.9056163,2.8895373,2.880868,2.8775182,2.8745883,2.8704987,2.8657267,2.8614838,2.8585482,2.8566446,2.8551388,2.8534546,2.8501306,2.8442917,2.835343,2.8239894,2.8119805,2.8006258,2.7913122,2.7832592,2.7753053,2.764964,2.7492118,2.729183,2.7095933,2.6933057,2.680306,2.6688862,2.657765,2.648841,2.644549,2.644726,2.6481314,2.6528869,2.656879,2.6589365,2.659041,2.6569116,2.656086,2.6534748,2.6386528,2.6021714,2.5495257,2.4988375,2.470055,2.4545107,2.4343107,2.3996425,2.3258336,2.1960073,2.0612967
3.8636084,3.8681107,3.8704817,3.8724542,3.8742921,3.876071,3.8773456,3.8784375,3.879733,3.8814392,3.8833628,3.8852835,3.8867173,3.8875012,3.8876,3.8870282,3.885738,3.883372,3.8809443,3.8787568,3.8773708,3.8765545,3.876049,3.8756316,3.8754563,3.8754244,3.8756971,3.8764794,3.877668,3.8793945,3.8817482,3.8843846,3.8863916,3.8876176,3.8881912,3.8887048,3.8894854,3.8906393,3.891737,3.892879,3.8940554,3.895652,3.897321,3.8985946,3.8993666,3.8999066,3.9006753,3.9019787,3.903946,3.9066877,3.9102416,3.9142413,3.9179358,3.9208698,3.9232,3.9256291,3.9290297,3.933588,3.9390264,3.9444425,3.9494066,3.9533505,3.9558234,3.9570684,3.9574924,3.9574726,3.9572527,3.9568245,3.956405,3.9566286,3.9574628,3.9587207,3.96001,3.9609585,3.9616728,3.9621167,3.962338,3.9624329,3.9625316,3.9627843,3.9632738,3.9641795,3.9654443,3.9667459,3.9676924,3.968206,3.9684587,3.9686265,3.9689276,3.9694457,3.9703546,3.971724,3.9732604,3.974629,3.9756427,3.9762197,3.9763832,3.9762836,3.975995,3.9756498,3.9752805,3.9748807,3.9745917,3.9745245,3.9745858,3.9746733,3.9744873,3.9740252,3.9736152,3.9734397,3.973368,3.9735835,3.9738748,3.973713,3.972892,3.9715583,3.970087,3.9691446,3.968688,3.9669685,3.9643412,3.9612627,3.9577107,3.953998,3.9501379,3.9460125,3.9421577,3.9390483,3.936528,3.9342856,3.9320195,3.9291725,3.9253926,3.921143,3.915921,3.9108496,3.9106946,3.9037058,3.8809824,3.8169203,3.672272,3.4974103,3.3627129,3.3098373,3.3008518,3.3148832,3.3357806,3.3460705,3.3423576,3.3321464,3.3316982,3.356473,3.4123642,3.4995122,3.591042,3.6437578,3.6576266,3.6440217,3.6303217,3.6372898,3.704194,3.8365102,3.973258,4.0599723,4.0993996,4.09062,4.0600753,4.0338426,4.0261154,4.0274887,4.031542,4.0356426,4.0391808,4.0428977,4.046859,4.0504932,4.0535545,4.0557895,4.05716,4.0574303,4.0569673,4.057522,4.0619383,4.0731044,4.0867867,4.087228,4.0655375,4.016248,3.9586706,3.9068706,3.864377,3.8488154,3.8470497,3.8416412,3.827232,3.810114,3.797327,3.7929516,3.7946734,3.797914,3.7984986,3.7889524,3.7631392,3.711958,3.6415322,3.582333,3.5555177,3.5540946,3.5637286,3.5684862,3.562994,3.553286,3.5483425,3.5517988,3.5597014,3.569601,3.5806367,3.5919466,3.6045935,3.6198874,3.6377656,3.6562803,3.6702213,3.681415,3.693738,3.7032104,3.7073715,3.7078447,3.706368,3.7047055,3.7030256,3.6989665,3.6911616,3.6803732,3.6692386,3.6605885,3.6562848,3.6547344,3.6503017,3.6378145,3.6169052,3.5917993,3.5707316,3.5582986,3.5553532,3.5628061,3.5833244,3.5884714,3.5589428,3.489477,3.3347645,3.1328764,2.9967494,2.948903,2.9396434,2.9438934,2.940763,2.9244332,2.9053915,2.8900208,2.8815138,2.877735,2.8740973,2.8693097,2.863988,2.859449,2.8565307,2.8551016,2.8544636,2.853929,2.8516948,2.8465552,2.837609,2.8255844,2.812538,2.8002853,2.7904723,2.7823215,2.774487,2.7641602,2.7480109,2.7272222,2.706796,2.6902685,2.6772542,2.66593,2.6549506,2.6461074,2.6417518,2.641708,2.644797,2.6493237,2.6534934,2.655844,2.6560965,2.65511,2.6536958,2.65093,2.6370244,2.6032033,2.5537906,2.503592,2.4698305,2.4508553,2.4309363,2.3999524,2.3406672,2.2223182,2.086912
3.7829065,3.7879746,3.791139,3.7937803,3.7960372,3.7979016,3.7992096,3.8003137,3.8017085,3.8037639,3.8063025,3.8089304,3.8109612,3.8120959,3.8123927,3.8117661,3.8101537,3.807456,3.8044915,3.8015826,3.7996082,3.7980695,3.7967167,3.7955234,3.7948112,3.7944643,3.794416,3.7946362,3.7949119,3.795396,3.7964287,3.7983007,3.800148,3.8015318,3.8023388,3.8029585,3.8037329,3.8048313,3.805907,3.8071835,3.8086967,3.810782,3.8129776,3.8146539,3.8156705,3.8163567,3.8173537,3.8191438,3.8221002,3.8262393,3.8311436,3.8362017,3.8405519,3.8438735,3.846454,3.8491309,3.8527596,3.857431,3.8629332,3.8686705,3.8742483,3.8794317,3.8835614,3.8864384,3.8883214,3.8894634,3.8901234,3.8907332,3.8914413,3.8925114,3.8939621,3.8956337,3.897438,3.8989067,3.8998191,3.9004743,3.9009075,3.9012213,3.9014897,3.9017785,3.902144,3.9027827,3.9037426,3.9048328,3.9058337,3.9066405,3.9072974,3.907965,3.9087887,3.9097872,3.911104,3.9127808,3.9146328,3.9164767,3.9181695,3.9196653,3.9209216,3.9218712,3.9225473,3.9230585,3.9234204,3.9236593,3.9239352,3.9243565,3.924861,3.925222,3.9251041,3.9246268,3.9240732,3.9236493,3.9234285,3.9233387,3.9231992,3.9227078,3.92166,3.9201102,3.9183965,3.9169636,3.916025,3.9157057,3.9144473,3.912205,3.9092045,3.906002,3.902657,3.8992662,3.8958788,3.8932426,3.8911457,3.8895082,3.8880572,3.885988,3.882707,3.8788075,3.8741226,3.8682466,3.8672514,3.8634028,3.8466926,3.7944486,3.6667442,3.5018182,3.360847,3.3018596,3.290481,3.3027802,3.3239532,3.3350482,3.3318543,3.3223338,3.3240433,3.353382,3.4158864,3.5123358,3.605763,3.651966,3.6665037,3.6555758,3.6420116,3.648954,3.7008066,3.8100846,3.91964,3.9845545,4.0120983,4.0031524,3.9793425,3.9645605,3.9605522,3.9623585,3.9670649,3.9720383,3.9765928,3.9812646,3.9860032,3.9900837,3.9935336,3.9962173,3.9980805,3.998989,3.9992366,4.000044,4.003296,4.010379,4.0195684,4.023629,4.011257,3.9802656,3.9414842,3.9063158,3.8828616,3.8674808,3.860239,3.851468,3.836099,3.8211927,3.809808,3.8041422,3.8033776,3.804119,3.8002882,3.7883081,3.7614777,3.7093277,3.6330142,3.571251,3.5469906,3.549806,3.5646482,3.572298,3.5668178,3.5554702,3.5481715,3.5506072,3.5609236,3.5745368,3.589252,3.6037717,3.618177,3.6334157,3.646645,3.6566663,3.6652877,3.6751046,3.6833303,3.687541,3.6880293,3.6857681,3.6821885,3.6788645,3.6758008,3.6709642,3.6631322,3.6529708,3.6423078,3.633112,3.627225,3.624217,3.6205492,3.6120367,3.5971503,3.577872,3.5588107,3.5442908,3.5385957,3.5424702,3.5601785,3.5667012,3.53685,3.465152,3.3155603,3.1240396,2.9955037,2.948585,2.9397483,2.943263,2.939622,2.9238315,2.9058647,2.8913493,2.8830647,2.8788936,2.8746283,2.8692188,2.8633828,2.8585064,2.8554878,2.8543212,2.8542309,2.8544378,2.8528776,2.8480508,2.8388684,2.8261464,2.8123455,2.7996674,2.7898407,2.781909,2.7741983,2.7638297,2.7470803,2.725377,2.703961,2.687088,2.6739445,2.6627078,2.6520405,2.643571,2.6394625,2.6394079,2.642223,2.6464996,2.650895,2.6537542,2.6543806,2.6537309,2.6513925,2.6477447,2.634459,2.602838,2.5575943,2.5091083,2.4713075,2.4481297,2.4276178,2.4002495,2.3521914,2.2494655,2.1156197
3.7060184,3.7112293,3.714841,3.7180538,3.7209883,3.7236905,3.7258072,3.727665,3.7297492,3.7322779,3.7351594,3.7381918,3.740615,3.7421002,3.742844,3.742614,3.741304,3.7389255,3.735999,3.732633,3.7298021,3.7272584,3.7247336,3.7223377,3.7206125,3.719471,3.7186565,3.7178817,3.7167985,3.7157714,3.7155402,3.716717,3.7185116,3.7202086,3.7213597,3.7221093,3.722857,3.7238362,3.7248158,3.726133,3.7278814,3.7303505,3.7329943,3.7350612,3.7364078,3.7374425,3.7389467,3.7415352,3.7455554,3.7509632,3.7571597,3.7633045,3.7683892,3.7721713,3.7750134,3.777872,3.781607,3.7862294,3.7914844,3.7968912,3.8023272,3.8077793,3.8129907,3.8175025,3.8209033,3.8232093,3.8247619,3.8260088,3.8271837,3.828627,3.8303976,3.8323433,3.8344088,3.8363657,3.837629,3.8384418,3.8391442,3.8398285,3.840487,3.8410945,3.8416538,3.8423843,3.8434215,3.8446312,3.8458128,3.8468652,3.8478732,3.8490102,3.85037,3.8518853,3.85365,3.8556957,3.8579764,3.8603516,3.862681,3.864882,3.866901,3.868733,3.8703604,3.8718228,3.8731241,3.8742208,3.8752337,3.8762145,3.8771796,3.8778973,3.8780663,3.877736,3.8771687,3.876622,3.8761563,3.8757796,3.8753738,3.8746817,3.8734906,3.87178,3.8698363,3.8680902,3.866825,3.8660696,3.8655891,3.864438,3.8624873,3.8599992,3.857275,3.8546982,3.8520584,3.8499353,3.848341,3.8471777,3.8462098,3.844841,3.8422108,3.8385682,3.8340378,3.8281784,3.8264775,3.8239799,3.8133981,3.7717412,3.6619453,3.5073068,3.3634696,3.29803,3.2837253,3.2944286,3.3152764,3.3261504,3.3226871,3.3137476,3.3180218,3.3530035,3.4241152,3.5318785,3.615077,3.6577964,3.670219,3.6623554,3.649887,3.655274,3.6998138,3.7869825,3.8717842,3.9197178,3.9368846,3.928624,3.914837,3.9058576,3.9028463,3.9047875,3.9091446,3.9139671,3.9185824,3.9234545,3.9285564,3.932982,3.9366722,3.9396644,3.9420786,3.9437723,3.9448855,3.9460974,3.9483094,3.9532979,3.959733,3.9635463,3.9591842,3.9430513,3.920465,3.8969896,3.8789053,3.86727,3.8586717,3.8499012,3.8386397,3.826895,3.8165383,3.8095684,3.8042407,3.799842,3.7941985,3.7844281,3.760992,3.7113976,3.6305747,3.5657585,3.5427666,3.5488048,3.5672102,3.5768297,3.57094,3.5580487,3.5495057,3.5526955,3.565412,3.5817747,3.5987618,3.613473,3.626154,3.6362936,3.6432984,3.6491885,3.655841,3.6625419,3.6659098,3.6660087,3.6638412,3.6598437,3.6552181,3.6508844,3.6467538,3.6413255,3.6337523,3.624383,3.613829,3.6042807,3.5977898,3.5935802,3.590129,3.5844913,3.5743153,3.5600743,3.5429277,3.5276227,3.519349,3.5193238,3.5338373,3.5417051,3.5125537,3.4394913,3.2962415,3.1152568,2.9937816,2.9482932,2.9395876,2.942512,2.9387786,2.9239435,2.9072413,2.893663,2.8857648,2.8814926,2.8770432,2.871438,2.8653874,2.8603115,2.857136,2.8559399,2.8558345,2.855966,2.8541577,2.8487864,2.8388233,2.8252158,2.8109853,2.7984967,2.7892828,2.7819672,2.7743554,2.763783,2.7462125,2.7236536,2.7014136,2.6841626,2.6709366,2.6599445,2.6498704,2.6421304,2.6385968,2.6386752,2.6411145,2.6448834,2.6492426,2.6523895,2.6530952,2.6517835,2.6483479,2.643692,2.631118,2.6020262,2.5609078,2.5141625,2.4747505,2.4468312,2.424852,2.4002852,2.3595119,2.275866,2.1440911
3.630634,3.6360774,3.6403184,3.644392,3.6482773,3.6519284,3.6550322,3.6578245,3.6607685,3.663993,3.6674013,3.6709023,3.6736703,3.675323,3.6761093,3.6763418,3.6761663,3.675214,3.6738245,3.6714325,3.6691437,3.6661444,3.6624804,3.6589696,3.6561139,3.6538062,3.651811,3.649414,3.6462088,3.6431365,3.6412897,3.64144,3.6427794,3.6443276,3.6452959,3.6456583,3.6459484,3.6465054,3.6472008,3.6484494,3.6503742,3.6532059,3.6563373,3.658949,3.6609046,3.6627388,3.6652615,3.6690416,3.6743417,3.681064,3.688552,3.6958687,3.70186,3.7063468,3.7096975,3.712935,3.716865,3.7213893,3.7262106,3.73099,3.735855,3.741096,3.7465515,3.7517283,3.7560668,3.7590141,3.760973,3.7625203,3.7639058,3.7655077,3.7674375,3.7695777,3.7718945,3.7742205,3.7762194,3.7776768,3.778974,3.7803323,3.7817159,3.7829318,3.7839096,3.7848573,3.7860146,3.78734,3.7887192,3.7900715,3.7914925,3.7931447,3.7950377,3.7970083,3.799097,3.8013692,3.8038545,3.8065104,3.8092346,3.8118958,3.8143883,3.8167996,3.819135,3.821456,3.8236475,3.825564,3.82732,3.8289576,3.8304253,3.831526,3.8321052,3.83211,3.8318038,3.8314579,3.8311334,3.8308473,3.8305044,3.8298779,3.828743,3.8270237,3.8249598,3.822964,3.821392,3.8204312,3.8197956,3.819222,3.8180456,3.816023,3.8138971,3.8119397,3.8101017,3.8085315,3.8073988,3.8066947,3.8061607,3.8051348,3.8026776,3.7988877,3.794195,3.7887955,3.7863193,3.7850318,3.7793846,3.7464418,3.6562037,3.512543,3.3720965,3.299768,3.281311,3.2903714,3.3101377,3.3198135,3.315459,3.3072634,3.314907,3.3567922,3.4400425,3.5506153,3.6247435,3.6636555,3.674434,3.6678114,3.6581821,3.6646554,3.7019234,3.7693205,3.8306227,3.8644526,3.87434,3.8694983,3.861248,3.8548179,3.8528183,3.854218,3.8575568,3.8616211,3.8658018,3.8702567,3.8748999,3.8794537,3.883359,3.8865023,3.8892455,3.8916018,3.893508,3.8951836,3.8970735,3.900385,3.9057417,3.9106147,3.91125,3.9057899,3.894493,3.8814185,3.8691952,3.8593493,3.8513827,3.8433337,3.833889,3.8238049,3.8139815,3.8059947,3.7994485,3.794237,3.7892876,3.7795906,3.757686,3.711931,3.6331,3.5661807,3.542501,3.5500798,3.5706525,3.581841,3.5759559,3.562457,3.5539358,3.558527,3.5732856,3.5908036,3.6055946,3.6162808,3.6249716,3.6306696,3.6351604,3.6394305,3.6433406,3.645829,3.6458364,3.6439226,3.6402833,3.6355,3.6304965,3.6257396,3.6210043,3.6151352,3.607582,3.598429,3.5882187,3.5785487,3.5713162,3.5666828,3.5633945,3.5590465,3.5517163,3.540759,3.5256357,3.51011,3.4997606,3.4968839,3.50844,3.5156722,3.488336,3.4148824,3.276956,3.1072574,2.9919038,2.9477038,2.9391065,2.9417043,2.938376,2.9249349,2.90975,2.8972707,2.8900409,2.8861423,2.8821285,2.8769288,2.871137,2.86618,2.8629913,2.861642,2.8610682,2.860357,2.8573616,2.850529,2.8391423,2.824352,2.809888,2.7980273,2.7897758,2.7830777,2.7752829,2.763722,2.7448876,2.7215095,2.698856,2.681426,2.668311,2.6577444,2.6484978,2.6418128,2.6391783,2.6395583,2.641583,2.644565,2.6484878,2.6515393,2.6520052,2.6496096,2.6448464,2.639483,2.6278296,2.602709,2.5656257,2.520256,2.4790258,2.4471898,2.423165,2.4005518,2.3640118,2.2991269,2.1742077
3.558228,3.5639915,3.5687637,3.5734227,3.5778809,3.5820687,3.5857086,3.588973,3.5923035,3.5960522,3.6000621,3.6039596,3.6070728,3.6090217,3.6101313,3.610702,3.6108842,3.610456,3.6097388,3.6087358,3.6075282,3.605169,3.6019182,3.5987954,3.5960486,3.5937185,3.5914817,3.588595,3.5848365,3.5806046,3.5765548,3.5746646,3.5746331,3.5750837,3.5749083,3.5739899,3.5730999,3.572775,3.5729527,3.5740504,3.5761814,3.5794601,3.5832224,3.5866294,3.5896177,3.5924513,3.5960073,3.601024,3.6075659,3.615386,3.6235147,3.6309762,3.637409,3.6428123,3.6473765,3.6517816,3.656517,3.6615286,3.6664257,3.6709042,3.6753573,3.6801996,3.6853762,3.690473,3.694868,3.6981974,3.7003489,3.7014399,3.7022524,3.703411,3.705154,3.7072983,3.7097936,3.7124207,3.7149603,3.717535,3.7200642,3.722642,3.7250295,3.7271504,3.7287962,3.7301095,3.7314382,3.732883,3.7344503,3.7361138,3.7379684,3.7401383,3.7425373,3.7449183,3.7472656,3.749665,3.7522075,3.7549267,3.7577758,3.7606554,3.763482,3.7661815,3.7688084,3.771553,3.774207,3.7767959,3.7792783,3.7815692,3.7834988,3.7849245,3.7859106,3.7864385,3.7868738,3.7872434,3.7875743,3.7878764,3.788035,3.7878327,3.787036,3.7855368,3.7835467,3.7814481,3.7796283,3.7783847,3.7775798,3.7769003,3.7759218,3.774454,3.772424,3.7706966,3.769348,3.7684097,3.767543,3.7670884,3.7667437,3.7658129,3.7633007,3.7592072,3.7540615,3.7489533,3.7465029,3.7461267,3.7442353,3.7200434,3.6486201,3.517776,3.3848572,3.3064537,3.2833698,3.2904148,3.3083277,3.3160758,3.3104582,3.3034425,3.3157573,3.3661032,3.46458,3.5653315,3.6361675,3.6720145,3.6789937,3.672557,3.668887,3.6770132,3.7074983,3.7554646,3.7948062,3.8174126,3.8236847,3.8205352,3.8146682,3.8101573,3.8086033,3.8097072,3.8123465,3.815461,3.8187037,3.822285,3.8261037,3.8298419,3.8334286,3.8366132,3.8394756,3.8420644,3.8444276,3.8464522,3.8483663,3.851015,3.8554883,3.8614209,3.8661637,3.8674178,3.8642359,3.8577726,3.8505492,3.8433404,3.8367534,3.8301432,3.8226957,3.8145468,3.8053913,3.7968025,3.7899723,3.7848253,3.7814128,3.773078,3.7488513,3.706696,3.638474,3.57185,3.545939,3.5532794,3.5748284,3.5873425,3.5821705,3.569415,3.5623822,3.568378,3.582584,3.5967987,3.6069045,3.61429,3.6193047,3.6232967,3.62632,3.6280496,3.6287591,3.6283536,3.6266575,3.623581,3.6193676,3.614427,3.6090531,3.603859,3.598664,3.592492,3.5849137,3.5762024,3.5667694,3.557538,3.5500677,3.544657,3.5405602,3.536561,3.530485,3.5208879,3.5074697,3.4925785,3.4811358,3.4773288,3.486967,3.4928565,3.4661765,3.3930812,3.2600794,3.101408,2.9912415,2.947185,2.9385228,2.9409735,2.938355,2.9265766,2.9131804,2.9020221,2.8957472,2.8927083,2.8897066,2.8855076,2.8805008,2.876154,2.8734007,2.8721557,2.871097,2.869243,2.8645973,2.8558693,2.8427367,2.8265755,2.8119903,2.8009691,2.79362,2.7868686,2.778123,2.7639823,2.7430139,2.718562,2.6958408,2.6787155,2.6659436,2.6559393,2.647658,2.6422634,2.6407702,2.6416035,2.6433144,2.6454,2.6486003,2.6512687,2.6513538,2.647987,2.6422944,2.636671,2.6265864,2.6059096,2.572711,2.528034,2.4844255,2.4491262,2.4230762,2.4010758,2.3679628,2.316648,2.2025044
3.4924726,3.498705,3.5041707,3.5096257,3.514896,3.5198524,3.524153,3.5279093,3.5315719,3.535452,3.5394404,3.5432167,3.5460987,3.5477304,3.5484738,3.5488932,3.5490136,3.5482512,3.5468247,3.545022,3.542835,3.540588,3.5380607,3.535307,3.532712,3.5303726,3.5279226,3.5251966,3.5221634,3.5184932,3.514948,3.5129342,3.5117264,3.5108147,3.5090518,3.5068216,3.5049624,3.5039406,3.503564,3.5043921,3.5063138,3.5094652,3.5132098,3.5168855,3.5206456,3.524557,3.5289834,3.534766,3.5413086,3.5485716,3.555976,3.5624237,3.568451,3.5743058,3.5798721,3.5854652,3.591224,3.5970538,3.6025553,3.6075654,3.6123364,3.6169233,3.6216612,3.626437,3.630868,3.6347175,3.6377704,3.6402428,3.6420207,3.6432173,3.6442137,3.6460934,3.6487398,3.6517384,3.6548648,3.658307,3.662239,3.666426,3.6703448,3.6736202,3.6759498,3.677637,3.6791143,3.6806421,3.6823795,3.684368,3.6866918,3.689416,3.692359,3.6951914,3.6978316,3.7003686,3.7029119,3.7055554,3.7083256,3.7111802,3.7140749,3.7169552,3.7198174,3.7226691,3.7254355,3.7282684,3.7310305,3.733556,3.7358034,3.7377555,3.7391891,3.7403572,3.7415838,3.742835,3.7442544,3.7455525,3.7465658,3.7470803,3.7468977,3.7458792,3.744193,3.7421966,3.7402935,3.7388687,3.737697,3.736547,3.7352202,3.7339451,3.7323427,3.7305923,3.7295327,3.7289739,3.7284603,3.7280397,3.7277467,3.7267976,3.7241578,3.719823,3.713813,3.7089612,3.707643,3.707553,3.708448,3.6924586,3.6367416,3.521863,3.3983684,3.3156776,3.289179,3.2936273,3.3089786,3.314331,3.3075182,3.3023481,3.3203788,3.3819525,3.4860163,3.5815964,3.6512456,3.6794724,3.6828704,3.6755013,3.6748872,3.6859589,3.7095635,3.7398496,3.7624059,3.7765331,3.7797728,3.7770405,3.7727828,3.7697458,3.7687392,3.7695837,3.7712991,3.7732842,3.7754583,3.7780457,3.7809236,3.783732,3.7864347,3.789129,3.7918983,3.7945266,3.7969427,3.7990866,3.801122,3.8039365,3.808145,3.8141513,3.8209279,3.8260782,3.828027,3.8262029,3.8224149,3.8179917,3.8134394,3.808626,3.8027854,3.7960382,3.7881684,3.7800667,3.7735338,3.7690654,3.7664227,3.7590153,3.7356868,3.6969047,3.6414173,3.5808053,3.5536122,3.5599146,3.5803585,3.5896082,3.5857792,3.576565,3.572256,3.5782948,3.588653,3.5972166,3.6040697,3.608344,3.6120944,3.6143918,3.6149693,3.614262,3.612928,3.6111367,3.60842,3.6047301,3.6001556,3.5949383,3.589396,3.5839152,3.5784497,3.5722194,3.564898,3.556675,3.5479958,3.5394921,3.5319827,3.5257597,3.5206141,3.5160427,3.510069,3.5010738,3.488484,3.4744134,3.4634228,3.4599662,3.4683495,3.4724464,3.4457936,3.37429,3.2476087,3.0987072,2.9923182,2.9474583,2.938056,2.9400687,2.9380698,2.9279943,2.9165063,2.906844,2.9018016,2.9000864,2.8986425,2.8959975,2.89234,2.8892343,2.887629,2.8871884,2.8863592,2.884273,2.878695,2.8681374,2.853358,2.8361135,2.8215857,2.8113863,2.8042815,2.7967463,2.7845294,2.7656317,2.7409215,2.7147217,2.6921415,2.6756287,2.6634567,2.6541004,2.646761,2.6426287,2.642273,2.6435413,2.6448896,2.6459417,2.6482134,2.6503873,2.6501844,2.6462193,2.6402757,2.6348133,2.6265645,2.6098847,2.5813372,2.53716,2.4913287,2.4525616,2.4242647,2.4021277,2.371437,2.326716,2.2266293
3.4318843,3.4385843,3.4447207,3.450974,3.4571009,3.4629402,3.4680486,3.4724417,3.4765334,3.4806018,3.48457,3.488148,3.4906702,3.4918337,3.4920735,3.4920568,3.491704,3.4904687,3.4885836,3.4862924,3.4838142,3.4811783,3.4781902,3.4749775,3.4716806,3.4680328,3.4641564,3.4600124,3.4554777,3.4511535,3.448298,3.446837,3.445518,3.4443107,3.4427958,3.4408836,3.438303,3.4362025,3.4351714,3.43576,3.4376693,3.4409037,3.444603,3.4481318,3.4518313,3.455867,3.4603934,3.4658272,3.471671,3.4779017,3.4845634,3.4909172,3.4969628,3.5029078,3.5087376,3.514834,3.521255,3.5276499,3.533646,3.539158,3.5442488,3.5490189,3.5538788,3.5587633,3.5635312,3.5675037,3.5710554,3.5749066,3.5782213,3.5812569,3.5841675,3.586825,3.5893078,3.5925813,3.596292,3.6006274,3.6055822,3.6110497,3.6164885,3.621013,3.6242747,3.626455,3.628064,3.6296632,3.631594,3.6339529,3.6368163,3.6401844,3.6437964,3.6472225,3.6503043,3.6531081,3.6557105,3.6582592,3.6608684,3.6635742,3.6663785,3.6692185,3.6720858,3.6750212,3.6780062,3.6809373,3.6837654,3.6863694,3.6887314,3.6909316,3.6928113,3.6945755,3.6963718,3.6984282,3.700805,3.703051,3.705082,3.7066221,3.7071795,3.7067652,3.7056823,3.7040944,3.7022467,3.700522,3.69889,3.6972837,3.6958332,3.6945734,3.6933174,3.6917944,3.6907973,3.6902308,3.6900423,3.6898236,3.6895502,3.6886659,3.68606,3.6817746,3.67443,3.669373,3.669425,3.6712801,3.6732898,3.6640306,3.6209583,3.5228074,3.4090648,3.3269649,3.2974074,3.298962,3.311376,3.3141966,3.3065634,3.3039424,3.3283925,3.4015622,3.5006163,3.597476,3.6561031,3.6748047,3.6777265,3.6716948,3.6724505,3.6827798,3.6997912,3.717979,3.7309704,3.7380667,3.7391214,3.7366753,3.7336082,3.7317896,3.7312698,3.7317336,3.732569,3.733591,3.7348843,3.7366104,3.7386255,3.7405205,3.742302,3.7440667,3.746138,3.748494,3.750802,3.7528937,3.7549386,3.7578707,3.7622414,3.7679691,3.7747102,3.7808375,3.7848294,3.7858148,3.7845774,3.7822714,3.779573,3.7766075,3.7726414,3.7675266,3.761012,3.7541947,3.7484593,3.7444148,3.7416706,3.7349858,3.7152143,3.6804442,3.6376653,3.5903764,3.5666032,3.5705671,3.5846548,3.5891402,3.5862155,3.5805526,3.5783486,3.5817237,3.5879269,3.5921805,3.5966353,3.5999455,3.6017804,3.6021857,3.600759,3.5982127,3.595572,3.5926394,3.5891366,3.5850048,3.580215,3.574843,3.5692954,3.5638008,3.5584326,3.5525632,3.545891,3.5385506,3.530733,3.522769,3.515255,3.5084803,3.5024257,3.4967613,3.490306,3.481419,3.4692626,3.4559844,3.445666,3.442812,3.4502163,3.4530885,3.4270146,3.3582218,3.2393272,3.0985804,2.995346,2.9496918,2.9383957,2.9393096,2.9374857,2.9288847,2.9191964,2.9111228,2.9073198,2.9066389,2.9066787,2.9056406,2.9034672,2.9019625,2.9021277,2.9033537,2.904597,2.9050713,2.9014168,2.8918123,2.8764224,2.8579192,2.843657,2.834646,2.8274202,2.8171473,2.797769,2.7706325,2.7392797,2.7102246,2.687748,2.6720016,2.6606956,2.6520152,2.6454344,2.6422696,2.6428213,2.644376,2.6452088,2.6451283,2.646398,2.6481283,2.6478539,2.6437337,2.6380627,2.6328807,2.626728,2.6138077,2.589252,2.5470119,2.4991066,2.4571273,2.4264178,2.4036303,2.374434,2.3315904,2.2481043
