26.33239,26.44479,26.557003,26.666525,26.770641,26.872143,26.976255,27.08863,27.213581,27.34658,27.476233,27.591003,27.68441,27.754524,27.816036,27.874176,27.938362,28.01227,28.09181,28.169403,28.23892,28.303654,28.359085,28.405487,28.450691,28.503508,28.568148,28.64222,28.718012,28.793623,28.865555,28.927643,28.979755,29.025993,29.069147,29.11181,29.1642,29.227154,29.294994,29.360477,29.421848,29.481628,29.540209,29.615292,29.714005,29.840645,29.990381,30.148964,30.298697,30.426168,30.532454,30.634571,30.743422,30.858742,30.980198,31.101065,31.20649,31.310875,31.418865,31.529894,31.64101,31.754517,31.872047,31.983488,32.068333,32.15664,32.241802,32.322018,32.393646,32.451122,32.48831,32.499878,32.506638,32.509182,32.50837,32.505505,32.504124,32.50818,32.517937,32.529694,32.548313,32.5718,32.60166,32.642197,32.68799,32.717346,32.704937,32.62394,32.488857,32.32743,32.092422,31.76641,31.458244,31.285149,31.227383,31.273659,31.42341,31.629166,31.770567,31.779087,31.768005,31.729498,31.67527,31.60966,31.533459,31.45346,31.381819,31.325197,31.284218,31.235811,31.183918,31.128098,31.071823,31.022999,30.98598,30.963207,30.945786,30.930233,30.920067,30.911236,30.904282,30.908691,30.91486,30.909214,30.889648,30.856222,30.81849,30.773996,30.717161,30.67409,30.639385,30.61861,30.61489,30.627995,30.63964,30.643908,30.674522,30.71172,30.763914,30.829027,30.909252,31.008684,31.119076,31.221048,31.319183,31.427753,31.54605,31.68176,31.837399,31.966389,32.020927,32.08773,32.15506,32.215332,32.254555,32.29104,32.309998,32.258057,32.14429,32.031464,31.875107,31.587067,31.142082,30.658602,30.326889,30.20747,29.93307,28.997784,26.61808,20.344763,13.888231,11.966118,11.580813,11.426087,11.3376045,11.296665,11.28794,11.297394,11.3169365,11.346403,11.387601,11.442486,11.502919,11.55961,11.603199,11.631414,11.649674,11.661726,11.670969,11.679581,11.686858,11.692739,11.698917,11.707474,11.718932,11.734215,11.754905,11.781004,11.811413,11.845486,11.880709,11.911823,11.939539,11.969398,12.001531,12.033783,12.058346,12.070969,12.077306,12.082378,12.085199,12.08462,12.078894,12.068492,12.054377,12.036976,12.018551,12.001167,11.98176,11.961494,11.941868,11.923395,11.905715,11.888327,11.86943,11.848505,11.826107,11.802481,11.777567,11.751213,11.723686,11.695272,11.669013,11.642456,11.6147995,11.585533,11.559141,11.541891,11.524239,11.505226,11.483626,11.45896,11.431102,11.400582,11.368941,11.338453,11.308307,11.285565,11.267642,11.253947,11.246007,11.24398,11.247498,11.257107,11.280178,11.313444,11.354622,11.402221,11.453815,11.506748,11.561022,11.620083,11.682027,11.743406,11.800718,11.851328,11.893692,11.928096,11.958572,11.98488,12.008154,12.029211,12.048433,12.06625,12.082315,12.097652,12.111587,12.123396,12.131819,12.136093,12.1364975,12.133475,12.12784,12.11838,12.109295,12.09923,12.086456,12.072312,12.057989,12.04426,12.028533,12.011326,11.993313,11.976875,11.9571495,11.925871,11.899405,11.877987,11.858519,11.840883,11.827353,11.819477,11.8167095,11.818879,11.823638,11.82405,11.813675
26.52489,26.637764,26.751709,26.864428,26.97295,27.079124,27.187557,27.303738,27.431234,27.56604,27.696457,27.812016,27.907654,27.979343,28.042278,28.101671,28.166914,28.242283,28.323944,28.403698,28.474817,28.54168,28.600061,28.649742,28.697979,28.753254,28.820065,28.896835,28.976807,29.057007,29.133415,29.19905,29.2537,29.302197,29.34788,29.393007,29.448875,29.515757,29.587559,29.656826,29.720139,29.77907,29.837135,29.910698,30.005964,30.128714,30.276346,30.43116,30.572037,30.69055,30.787302,30.878979,30.977125,31.083115,31.194551,31.305809,31.408484,31.509705,31.614346,31.722122,31.830063,31.940441,32.05482,32.164658,32.25489,32.342834,32.42712,32.506653,32.57893,32.630497,32.652615,32.664864,32.672802,32.677437,32.678993,32.67855,32.679558,32.685844,32.69761,32.710964,32.73023,32.753983,32.783684,32.82375,32.86919,32.89826,32.885014,32.803333,32.667816,32.507023,32.27481,31.95188,31.64429,31.473337,31.41715,31.46614,31.618221,31.822676,31.961502,31.97099,31.960815,31.92375,31.871857,31.809086,31.735945,31.660479,31.594658,31.541388,31.502495,31.45743,31.411095,31.36306,31.311913,31.263344,31.22628,31.197083,31.170143,31.15055,31.139503,31.134949,31.134367,31.13656,31.141636,31.135975,31.117874,31.08903,31.050562,31.001715,30.948277,30.907791,30.87568,30.85859,30.862097,30.862736,30.857868,30.871723,30.905182,30.945812,31.001938,31.071308,31.156376,31.261314,31.377481,31.485182,31.589794,31.705338,31.832363,31.98002,32.139618,32.26589,32.32849,32.39716,32.472496,32.52422,32.56364,32.608566,32.62986,32.580635,32.47988,32.381714,32.248272,31.971724,31.543242,31.073948,30.72647,30.590933,30.357271,29.612984,27.372421,21.175182,14.459753,12.006682,11.576544,11.401249,11.3104515,11.265587,11.2544155,11.265135,11.285816,11.316513,11.358575,11.41423,11.4750595,11.531682,11.574816,11.601799,11.61771,11.627344,11.63504,11.641737,11.647457,11.652954,11.659521,11.668222,11.679417,11.693592,11.71225,11.735951,11.765202,11.7992935,11.835966,11.872625,11.909273,11.948702,11.982468,12.01217,12.039593,12.063646,12.0831585,12.09332,12.0956,12.093489,12.087113,12.0760355,12.060384,12.040975,12.019618,11.996209,11.969742,11.94347,11.922406,11.906162,11.890451,11.875323,11.858816,11.840008,11.81888,11.796775,11.774281,11.75086,11.726822,11.703145,11.680354,11.657909,11.636837,11.617121,11.598852,11.582835,11.565823,11.545879,11.522145,11.494326,11.462719,11.4284115,11.393282,11.359653,11.325771,11.295149,11.270251,11.252937,11.243023,11.239201,11.241638,11.248099,11.260692,11.284256,11.319073,11.361044,11.406159,11.452822,11.501211,11.554919,11.612748,11.671753,11.728359,11.779617,11.823763,11.860658,11.894161,11.923943,11.950788,11.975159,11.997173,12.017132,12.034716,12.051186,12.06613,12.080088,12.091103,12.097488,12.099794,12.098556,12.094838,12.088034,12.079601,12.068953,12.055944,12.041843,12.027472,12.013306,11.997423,11.981203,11.958636,11.930082,11.902044,11.877045,11.854711,11.834935,11.8175125,11.802572,11.791366,11.785473,11.783514,11.77965,11.775965,11.770235,11.759676
26.702919,26.817875,26.935272,27.052734,27.166893,27.27847,27.391014,27.510147,27.638494,27.773048,27.902079,28.015944,28.111557,28.184673,28.248787,28.309368,28.37561,28.452377,28.536175,28.618408,28.692062,28.76168,28.823555,28.877157,28.929277,28.98811,29.058079,29.137772,29.221087,29.305717,29.386806,29.456398,29.514061,29.565243,29.61389,29.662117,29.721489,29.79245,29.868633,29.942223,30.008709,30.068382,30.124914,30.195812,30.287971,30.407713,30.54971,30.695448,30.826315,30.935375,31.02275,31.104324,31.192123,31.288115,31.392872,31.50061,31.597855,31.69457,31.794264,31.897005,31.999947,32.105347,32.21415,32.32012,32.41844,32.5053,32.58873,32.669518,32.73331,32.770844,32.791023,32.804977,32.815075,32.822628,32.82733,32.829876,32.83349,32.84185,32.855167,32.869408,32.888382,32.911263,32.94015,32.98002,33.0262,33.056755,33.044773,32.964108,32.828728,32.668663,32.43543,32.109966,31.80314,31.632677,31.57909,31.630106,31.785164,31.991924,32.13223,32.1449,32.137535,32.103123,32.054108,31.99377,31.922462,31.84895,31.785599,31.734552,31.697912,31.656044,31.613678,31.569763,31.523304,31.478502,31.440674,31.40983,31.38144,31.362217,31.350998,31.349049,31.355518,31.362476,31.36699,31.362732,31.34864,31.322037,31.282314,31.233742,31.185902,31.149794,31.124334,31.109125,31.096169,31.084675,31.084774,31.105072,31.141281,31.185368,31.245338,31.31889,31.408981,31.518627,31.639126,31.753633,31.865458,31.989246,32.126396,32.28741,32.45228,32.574554,32.640644,32.71412,32.798622,32.838646,32.87662,32.92025,32.933235,32.893837,32.805573,32.722923,32.610962,32.36331,31.958736,31.506632,31.160355,30.981064,30.796661,30.222912,28.44201,22.399494,15.173819,12.0893345,11.587678,11.378052,11.2845745,11.238987,11.2262535,11.237848,11.260429,11.293573,11.337828,11.395479,11.457687,11.515003,11.558256,11.584839,11.599806,11.607975,11.613749,11.6198845,11.625644,11.630881,11.636803,11.644878,11.65568,11.669257,11.686644,11.708588,11.7355385,11.766983,11.801724,11.838436,11.876956,11.918255,11.956785,11.9919815,12.024275,12.051643,12.071922,12.087061,12.097759,12.105305,12.10231,12.090084,12.073923,12.054312,12.032583,12.00827,11.981092,11.953829,11.9303465,11.911609,11.895868,11.882555,11.869337,11.854965,11.838501,11.820187,11.800373,11.779181,11.757524,11.736437,11.715107,11.694866,11.676977,11.661426,11.646746,11.631189,11.613995,11.592915,11.566935,11.53593,11.500862,11.463526,11.426167,11.391235,11.356752,11.323838,11.296959,11.278465,11.26762,11.262686,11.262693,11.265566,11.271791,11.285671,11.308616,11.338834,11.373831,11.411694,11.45199,11.497032,11.545844,11.5961075,11.646996,11.696935,11.741936,11.781366,11.818703,11.853453,11.885761,11.915623,11.942935,11.967831,11.989994,12.01112,12.0305805,12.048083,12.061842,12.070618,12.074945,12.075352,12.073133,12.067964,12.060343,12.049997,12.037377,12.024,12.010971,11.998203,11.979434,11.956692,11.92943,11.899633,11.872547,11.85113,11.831933,11.814308,11.799425,11.782522,11.764368,11.7505,11.742373,11.735953,11.730032,11.723506,11.714708
26.87527,26.993061,27.114605,27.237328,27.357456,27.47456,27.590897,27.712334,27.840397,27.973164,28.099987,28.211502,28.305212,28.378473,28.443207,28.504543,28.571468,28.649347,28.734882,28.81931,28.89571,28.968048,29.033356,29.090973,29.147268,29.209991,29.283298,29.365742,29.45148,29.539257,29.623798,29.696507,29.756674,29.810177,29.861603,29.913017,29.976173,30.05162,30.132597,30.210773,30.281036,30.342857,30.399117,30.467373,30.555805,30.669796,30.802578,30.937191,31.057835,31.157528,31.236145,31.308355,31.386467,31.472383,31.572304,31.681534,31.776848,31.867615,31.961742,32.05904,32.15669,32.25664,32.35938,32.45986,32.55756,32.64749,32.73035,32.805492,32.85984,32.89173,32.915195,32.930748,32.94323,32.95381,32.961666,32.96727,32.973637,32.984158,32.999004,33.01406,33.03255,33.05429,33.08224,33.122234,33.17009,33.20351,33.19444,33.116123,32.98149,32.8219,32.584816,32.252586,31.944666,31.77229,31.7207,31.772537,31.928411,32.142868,32.292934,32.307526,32.304794,32.273975,32.228138,32.17033,32.099846,32.02616,31.963352,31.913284,31.87862,31.839714,31.800428,31.75899,31.715778,31.674633,31.637497,31.608501,31.582932,31.565292,31.556213,31.556288,31.565048,31.576954,31.582287,31.579636,31.569855,31.543396,31.503944,31.460592,31.418657,31.387794,31.359915,31.336555,31.31396,31.303997,31.313137,31.336754,31.376284,31.42388,31.487606,31.565125,31.6599,31.773342,31.896893,32.017616,32.135887,32.26754,32.414467,32.58876,32.758537,32.87657,32.947464,33.02749,33.113518,33.14627,33.185318,33.224426,33.22757,33.199196,33.125397,33.056686,32.96203,32.762085,32.387413,31.944351,31.609497,31.381025,31.262787,30.75302,29.378958,23.599445,15.966477,12.211064,11.613694,11.364307,11.257856,11.214042,11.201933,11.211691,11.235489,11.270864,11.317555,11.377638,11.441794,11.500532,11.54475,11.571981,11.587423,11.595833,11.601442,11.607302,11.6135,11.619369,11.625388,11.632969,11.642569,11.654329,11.67005,11.690195,11.714699,11.743297,11.775177,11.808584,11.843178,11.879835,11.917789,11.954567,11.987463,12.014005,12.033647,12.051533,12.067675,12.080851,12.084778,12.079504,12.068979,12.054976,12.0390415,12.018148,11.993564,11.968284,11.944807,11.925012,11.90979,11.898178,11.887457,11.876403,11.863628,11.848417,11.830746,11.811148,11.79085,11.770842,11.750375,11.731312,11.714741,11.698621,11.681406,11.664217,11.645182,11.621523,11.592468,11.558186,11.5202465,11.48101,11.442852,11.408108,11.374924,11.344642,11.320769,11.304802,11.296276,11.293703,11.294906,11.298619,11.304979,11.313192,11.326174,11.346024,11.371532,11.400581,11.432319,11.468037,11.507149,11.548273,11.591343,11.6355295,11.677562,11.716283,11.75466,11.792124,11.827978,11.861382,11.891753,11.919065,11.9432125,11.966513,11.988419,12.008289,12.025018,12.037286,12.044555,12.047438,12.04738,12.04472,12.0406,12.034866,12.027233,12.016634,12.001395,11.986549,11.965414,11.940336,11.914102,11.889523,11.867769,11.847985,11.830343,11.807529,11.785694,11.762484,11.739,11.720179,11.707966,11.701315,11.695951,11.690886,11.684999
27.053656,27.173956,27.299168,27.426619,27.55231,27.67474,27.794785,27.91848,28.046234,28.177074,28.301851,28.411486,28.50328,28.575647,28.640293,28.70174,28.768883,28.847485,28.934328,29.020454,29.098984,29.173676,29.241947,29.302917,29.362745,29.42864,29.504326,29.588482,29.675354,29.763657,29.848791,29.922329,29.983139,30.037159,30.08979,30.14353,30.21022,30.290092,30.375957,30.4589,30.533037,30.597372,30.654953,30.721493,30.805824,30.91193,31.034618,31.158886,31.269585,31.36042,31.43105,31.494629,31.563679,31.640182,31.733227,31.842972,31.945436,32.03411,32.123276,32.216034,32.309795,32.405464,32.503197,32.597908,32.687996,32.77932,32.86035,32.92787,32.97925,33.014896,33.03978,33.05712,33.07151,33.084335,33.094425,33.102436,33.111332,33.12403,33.14058,33.15682,33.1752,33.19632,33.22387,33.264435,33.314426,33.351284,33.345753,33.27028,33.136826,32.977066,32.735237,32.395412,32.083908,31.906271,31.853277,31.904232,32.05763,32.281055,32.448147,32.468903,32.471184,32.444393,32.401867,32.346924,32.276943,32.202103,32.13916,32.089436,32.056244,32.020164,31.984295,31.946268,31.90582,31.866646,31.831345,31.803738,31.779284,31.762856,31.755913,31.756481,31.763575,31.77555,31.78177,31.77945,31.771345,31.747837,31.712566,31.673409,31.633572,31.60263,31.568623,31.539307,31.523306,31.52162,31.53332,31.560537,31.603493,31.654552,31.721865,31.803165,31.90215,32.019135,32.14559,32.270943,32.394066,32.531998,32.68712,32.872925,33.0478,33.164516,33.24272,33.328705,33.408478,33.43941,33.481842,33.51966,33.519524,33.499435,33.4412,33.384377,33.305115,33.158424,32.81903,32.384842,32.061985,31.789267,31.753181,31.266468,30.000809,24.57906,16.854252,12.3656845,11.644869,11.355876,11.228174,11.185608,11.175144,11.181332,11.205158,11.242058,11.290952,11.353668,11.420375,11.481409,11.527611,11.556523,11.573518,11.583551,11.590959,11.597424,11.60409,11.610586,11.617231,11.6250515,11.633347,11.6427555,11.655669,11.672695,11.694334,11.720281,11.749136,11.779024,11.809296,11.840893,11.872564,11.902565,11.9298,11.953836,11.974345,11.991352,12.005358,12.015806,12.023302,12.025774,12.022097,12.0148535,12.0058365,11.991299,11.973005,11.954119,11.937079,11.9230795,11.91197,11.902399,11.89361,11.884512,11.873682,11.860419,11.844449,11.82585,11.805655,11.785013,11.763249,11.742524,11.724501,11.706816,11.68742,11.667496,11.64418,11.616449,11.583399,11.545454,11.504853,11.464513,11.426941,11.39456,11.365003,11.339457,11.320351,11.308425,11.303415,11.304244,11.308397,11.314682,11.322538,11.3303585,11.341264,11.357433,11.377691,11.400848,11.42638,11.455984,11.489359,11.525646,11.563431,11.6010895,11.637382,11.6724205,11.708637,11.745474,11.781569,11.815374,11.845911,11.873078,11.896999,11.920546,11.943354,11.96526,11.985337,12.001772,12.013281,12.020258,12.024416,12.024819,12.022579,12.018747,12.013493,12.00437,11.988336,11.972429,11.953655,11.933682,11.912975,11.891539,11.869541,11.847552,11.827246,11.798399,11.769056,11.742741,11.72067,11.703686,11.691982,11.684725,11.678457,11.673584,11.669384
27.234978,27.35722,27.485386,27.616764,27.747324,27.874662,27.998363,28.12447,28.252396,28.381996,28.505129,28.6133,28.70419,28.776295,28.840515,28.901714,28.968845,29.047894,29.135708,29.223295,29.30386,29.38056,29.450863,29.513847,29.575726,29.643368,29.719982,29.804136,29.890217,29.976318,30.059265,30.131264,30.190628,30.243027,30.294825,30.349312,30.418196,30.501347,30.59132,30.678513,30.756083,30.822582,30.881462,30.947027,31.027843,31.127441,31.241573,31.356663,31.45856,31.541637,31.60532,31.661293,31.722134,31.790182,31.874086,31.979647,32.09079,32.18571,32.2752,32.36556,32.45665,32.549515,32.643604,32.733994,32.819153,32.90467,32.982384,33.04962,33.10234,33.139755,33.16655,33.18548,33.201015,33.214905,33.22599,33.235554,33.246563,33.261253,33.279495,33.297047,33.315598,33.33651,33.36425,33.405853,33.45806,33.49832,33.49635,33.423615,33.291534,33.130707,32.88479,32.539112,32.221634,32.0364,31.977596,32.02575,32.175217,32.40355,32.588905,32.626694,32.632366,32.609528,32.570312,32.518024,32.44901,32.373596,32.310135,32.260628,32.228554,32.194843,32.162025,32.127045,32.08917,32.05181,32.01753,31.990427,31.966518,31.951618,31.943907,31.941753,31.946503,31.956327,31.96162,31.958427,31.94949,31.931885,31.903753,31.866385,31.825066,31.789024,31.757246,31.733715,31.721468,31.722507,31.737915,31.768703,31.814873,31.869242,31.94001,32.025192,32.128418,32.249416,32.379402,32.50833,32.635094,32.777794,32.939346,33.133896,33.31559,33.43598,33.5197,33.610752,33.68545,33.715435,33.75912,33.79859,33.801235,33.78685,33.74267,33.697197,33.635498,33.531605,33.231743,32.822723,32.513737,32.209435,32.212883,31.84468,30.516247,25.53246,17.91359,12.537973,11.675154,11.344324,11.199772,11.152728,11.14294,11.149458,11.172264,11.210518,11.2616415,11.327364,11.397272,11.461363,11.510255,11.541461,11.560517,11.572482,11.581761,11.59042,11.598323,11.604772,11.611006,11.618583,11.626013,11.6341915,11.6443205,11.657595,11.675796,11.698829,11.724689,11.751463,11.778387,11.806144,11.833218,11.857914,11.8796215,11.898264,11.913681,11.926737,11.937535,11.945673,11.949947,11.950293,11.947318,11.941669,11.934665,11.927054,11.918128,11.909141,11.901424,11.895478,11.89016,11.88336,11.877143,11.870633,11.862359,11.851425,11.837212,11.819409,11.798824,11.776784,11.752683,11.72893,11.707136,11.687874,11.66959,11.648659,11.621796,11.590821,11.554466,11.51337,11.47061,11.429875,11.393934,11.365302,11.340616,11.320163,11.305719,11.297152,11.293977,11.295555,11.299376,11.304464,11.311421,11.321041,11.333698,11.348933,11.366215,11.38546,11.40658,11.431955,11.461388,11.494012,11.528719,11.563423,11.595974,11.628407,11.662851,11.698807,11.73485,11.769442,11.801625,11.831164,11.857898,11.88408,11.90994,11.934938,11.957661,11.97669,11.991344,12.00141,12.008886,12.010281,12.006238,11.999072,11.990482,11.980989,11.970879,11.959717,11.94484,11.927334,11.9087515,11.887143,11.860779,11.83293,11.807344,11.782177,11.757454,11.734743,11.715167,11.699371,11.687775,11.67996,11.673315,11.668175,11.662592
27.412655,27.536694,27.667545,27.80236,27.937077,28.068645,28.195494,28.323631,28.451778,28.580517,28.70254,28.809582,28.89986,28.973124,29.037106,29.098082,29.16521,29.244518,29.332947,29.421997,29.505203,29.582912,29.653683,29.717373,29.779823,29.847631,29.923763,30.006172,30.08996,30.17292,30.252995,30.322601,30.379593,30.429773,30.48017,30.533707,30.603397,30.688356,30.780994,30.871101,30.95089,31.018665,31.078701,31.143974,31.221413,31.315737,31.423512,31.531696,31.626934,31.70414,31.762499,31.812504,31.866364,31.926746,32.003387,32.101936,32.207573,32.312584,32.41411,32.50624,32.595047,32.68611,32.777584,32.864967,32.946846,33.02945,33.105606,33.17283,33.22699,33.26657,33.29516,33.315025,33.330765,33.34465,33.35595,33.36684,33.380173,33.397156,33.41723,33.436134,33.45497,33.475834,33.50402,33.54695,33.601532,33.645256,33.64702,33.57714,33.44654,33.283844,33.03584,32.687202,32.360645,32.16907,32.10181,32.145817,32.29177,32.521095,32.720894,32.779835,32.78633,32.766434,32.730072,32.679718,32.611794,32.53678,32.473213,32.42395,32.392426,32.360096,32.329124,32.295937,32.259613,32.2235,32.189976,32.163536,32.14134,32.126072,32.116585,32.11235,32.115105,32.12319,32.12574,32.121834,32.112377,32.095535,32.072357,32.04102,32.001358,31.967278,31.936768,31.912102,31.900703,31.904556,31.922916,31.956705,32.005714,32.063183,32.13754,32.227104,32.335175,32.461018,32.59533,32.727573,32.85743,33.003918,33.170265,33.370926,33.559937,33.687103,33.775253,33.870773,33.94601,33.974926,34.016766,34.05822,34.06518,34.05396,34.023468,33.988503,33.946064,33.87108,33.60925,33.23656,32.951267,32.65838,32.571144,32.42892,30.997753,26.561687,19.15889,12.710605,11.707503,11.331471,11.178534,11.116648,11.106415,11.121363,11.141563,11.180605,11.233532,11.301897,11.374745,11.441757,11.493277,11.526726,11.547747,11.561422,11.57225,11.582319,11.591542,11.598921,11.604658,11.610236,11.61627,11.623167,11.631834,11.643316,11.658488,11.678117,11.701494,11.725821,11.750074,11.774743,11.798462,11.819773,11.838198,11.853784,11.866452,11.876677,11.884794,11.890701,11.893503,11.8931,11.890043,11.884993,11.878851,11.871515,11.862887,11.854769,11.848494,11.844135,11.84097,11.838167,11.834341,11.829405,11.822374,11.812674,11.80002,11.784239,11.765841,11.746352,11.725271,11.703683,11.682755,11.662334,11.641422,11.619118,11.593749,11.56266,11.525658,11.483856,11.440883,11.401045,11.367058,11.340303,11.318102,11.301027,11.290508,11.285486,11.284481,11.286671,11.290455,11.295269,11.301887,11.31008,11.320006,11.331366,11.343662,11.3569975,11.371315,11.388377,11.409376,11.434467,11.463483,11.495382,11.527948,11.560242,11.594689,11.63105,11.668634,11.706263,11.742813,11.77752,11.809229,11.8374195,11.865225,11.892107,11.916281,11.936132,11.950818,11.960088,11.965761,11.967751,11.967593,11.965511,11.961533,11.9560585,11.948859,11.939092,11.921446,11.899836,11.876015,11.851713,11.82819,11.805176,11.784241,11.763634,11.743362,11.723822,11.706144,11.691603,11.680575,11.672747,11.666971,11.661378,11.654791
27.601585,27.727512,27.861202,27.999561,28.13842,28.27401,28.403656,28.533445,28.661617,28.7896,28.910557,29.017475,29.109222,29.182863,29.246788,29.307728,29.37476,29.454521,29.544449,29.634892,29.717472,29.794128,29.86341,29.925797,29.987278,30.054062,30.128645,30.208874,30.290182,30.369839,30.446587,30.5136,30.568323,30.616215,30.66483,30.716885,30.78734,30.873096,30.96643,31.0575,31.138443,31.207214,31.267982,31.33199,31.407146,31.4971,31.599667,31.702759,31.792767,31.865194,31.919018,31.963554,32.010483,32.06279,32.131374,32.222923,32.32318,32.425575,32.52936,32.63272,32.73015,32.82095,32.90844,32.99356,33.073235,33.154125,33.229935,33.298283,33.35475,33.39689,33.427006,33.447002,33.461914,33.474693,33.485596,33.497856,33.5141,33.534134,33.55651,33.57699,33.596153,33.616745,33.645103,33.68914,33.745926,33.793083,33.798637,33.732025,33.60334,33.438934,33.189598,32.83873,32.502304,32.30524,32.23317,32.269928,32.41427,32.64592,32.854424,32.930683,32.93949,32.920784,32.885567,32.83689,32.771057,32.698006,32.635845,32.587547,32.55681,32.525158,32.49472,32.46187,32.42598,32.390617,32.357918,32.332954,32.311855,32.29666,32.286114,32.280224,32.28089,32.28628,32.286858,32.282967,32.273514,32.254704,32.23359,32.20643,32.164932,32.132736,32.109577,32.092564,32.07916,32.080177,32.10154,32.138744,32.19088,32.252285,32.33169,32.42772,32.54311,32.676376,32.817383,32.954678,33.088326,33.23844,33.408607,33.613174,33.80865,33.943398,34.0348,34.133995,34.214413,34.24195,34.278854,34.319954,34.330444,34.322517,34.30548,34.28193,34.261116,34.222282,33.99572,33.651684,33.391518,33.099575,32.912003,32.958138,31.36105,27.674915,20.665783,12.962004,11.740588,11.32135,11.1458645,11.07757,11.0696535,11.088362,11.110216,11.149145,11.20356,11.274359,11.350063,11.419945,11.474018,11.509615,11.532505,11.547753,11.559967,11.57128,11.581532,11.589514,11.59531,11.60022,11.604513,11.609259,11.616842,11.627298,11.641304,11.659185,11.679855,11.701465,11.723951,11.746548,11.767948,11.786848,11.802908,11.81629,11.8270035,11.835484,11.842071,11.846825,11.84902,11.848601,11.846075,11.842001,11.837112,11.831256,11.824437,11.817717,11.812078,11.807995,11.805307,11.803325,11.800686,11.797049,11.791521,11.783707,11.773365,11.7602,11.7444515,11.727198,11.70756,11.686886,11.666351,11.645863,11.624638,11.601919,11.576084,11.544262,11.506447,11.463978,11.420958,11.382143,11.3502865,11.326415,11.307873,11.294137,11.286823,11.284236,11.284431,11.287094,11.291101,11.296699,11.303478,11.311254,11.320168,11.329859,11.339722,11.349658,11.359634,11.371,11.384851,11.401855,11.421967,11.444527,11.468475,11.492888,11.51977,11.549112,11.580524,11.61306,11.645704,11.677869,11.708979,11.74061,11.77354,11.806043,11.835772,11.860893,11.880423,11.893963,11.903549,11.909318,11.912676,11.913332,11.910851,11.905425,11.897013,11.8862915,11.870537,11.852211,11.832071,11.811676,11.792332,11.773508,11.756197,11.738783,11.721609,11.705026,11.689951,11.677426,11.667847,11.661335,11.656384,11.650906,11.643646
27.802486,27.930275,28.066845,28.208702,28.351517,28.491007,28.623322,28.754732,28.883236,29.011028,29.131897,29.239801,29.333656,29.408058,29.472736,29.534342,29.60168,29.68232,29.77308,29.862858,29.943897,30.018383,30.084667,30.144205,30.203503,30.268501,30.341389,30.420092,30.499676,30.57682,30.651398,30.71653,30.76923,30.814865,30.861645,30.913673,30.98349,31.068096,31.160273,31.250345,31.330044,31.39712,31.456272,31.51828,31.591274,31.677902,31.777168,31.877539,31.964603,32.034157,32.08507,32.125828,32.167225,32.212475,32.273525,32.35811,32.45271,32.55149,32.653915,32.758526,32.861156,32.959488,33.05083,33.132988,33.21182,33.29237,33.369034,33.4394,33.498566,33.54316,33.574383,33.593758,33.607056,33.61803,33.62813,33.641785,33.661278,33.6847,33.709335,33.73121,33.750225,33.77001,33.798176,33.84309,33.901894,33.95253,33.96212,33.899254,33.77264,33.606865,33.355846,33.00177,32.655643,32.45343,32.37754,32.409313,32.554478,32.790794,33.006584,33.093758,33.104923,33.08815,33.05352,33.00657,32.943977,32.873398,32.812172,32.765846,32.735985,32.704357,32.673397,32.639603,32.602943,32.567528,32.53524,32.511024,32.491302,32.47693,32.466324,32.460266,32.4596,32.46166,32.464058,32.46175,32.45291,32.43268,32.408638,32.38008,32.339363,32.303776,32.27754,32.266056,32.267185,32.27342,32.29016,32.328785,32.384018,32.449234,32.53386,32.63703,32.76097,32.90322,33.052536,33.19639,33.335003,33.48973,33.664314,33.87257,34.07598,34.221306,34.316406,34.42014,34.514763,34.54371,34.575836,34.614395,34.62432,34.618607,34.615086,34.60283,34.604256,34.604836,34.411873,34.093136,33.855385,33.540985,33.224716,33.425903,32.159786,29.467878,22.569637,13.371937,11.824006,11.314041,11.1091795,11.0358715,11.025745,11.047028,11.075645,11.113159,11.168542,11.241594,11.320417,11.393814,11.451281,11.489885,11.515394,11.532734,11.546676,11.559407,11.570713,11.57929,11.585224,11.589876,11.59354,11.597288,11.603671,11.613838,11.628038,11.645805,11.665929,11.686634,11.707546,11.728569,11.7487755,11.766502,11.781204,11.793224,11.80271,11.810073,11.81571,11.819826,11.821852,11.821738,11.819925,11.816881,11.813194,11.80867,11.803294,11.797765,11.792878,11.789198,11.786741,11.784922,11.782505,11.779322,11.774458,11.767649,11.75875,11.747353,11.733448,11.717768,11.699238,11.679027,11.6582775,11.637077,11.614874,11.591045,11.564057,11.531136,11.492434,11.449486,11.406731,11.369181,11.339516,11.318445,11.303093,11.293709,11.289747,11.289137,11.290716,11.294472,11.299541,11.305721,11.313536,11.322201,11.331381,11.340536,11.348981,11.3566,11.363368,11.370272,11.378233,11.388119,11.400086,11.41385,11.429049,11.445043,11.463381,11.484287,11.507759,11.533251,11.560028,11.587659,11.615715,11.64596,11.678207,11.710751,11.74141,11.768354,11.790405,11.806911,11.819851,11.829328,11.836576,11.841161,11.842396,11.840196,11.834454,11.826255,11.813833,11.798517,11.781088,11.7633505,11.746637,11.730516,11.715914,11.7014265,11.687444,11.67434,11.662773,11.653388,11.646468,11.642455,11.639133,11.634289,11.628733
28.00233,28.132343,28.27193,28.417099,28.563347,28.706053,28.840351,28.973001,29.10183,29.229595,29.350483,29.45906,29.554533,29.630333,29.696795,29.76025,29.829277,29.909943,29.99979,30.089104,30.168415,30.240183,30.302559,30.35801,30.414078,30.477274,30.549383,30.627527,30.707294,30.784931,30.860294,30.92565,30.977896,31.02267,31.068577,31.12159,31.189747,31.271599,31.36061,31.447212,31.522865,31.585426,31.640545,31.699274,31.769686,31.853588,31.951399,32.051636,32.138325,32.207443,32.25776,32.29747,32.33611,32.376827,32.432144,32.51057,32.599617,32.694557,32.794,32.895412,32.996845,33.101555,33.201202,33.281914,33.36142,33.44321,33.52188,33.594643,33.655952,33.70182,33.732994,33.750668,33.761574,33.770256,33.779404,33.79457,33.817554,33.84449,33.871235,33.894096,33.91249,33.93094,33.958588,34.004227,34.06493,34.118988,34.132664,34.073868,33.94928,33.78274,33.53,33.17264,32.819622,32.613503,32.53608,32.56762,32.71693,32.96186,33.18348,33.2698,33.284157,33.26938,33.238125,33.193874,33.134415,33.06724,33.00737,32.960693,32.930065,32.896782,32.86332,32.82633,32.786976,32.750397,32.717865,32.694057,32.67632,32.66414,32.655468,32.651527,32.652836,32.656425,32.663036,32.664276,32.65725,32.6372,32.610626,32.576942,32.531,32.49147,32.4597,32.44612,32.455532,32.472023,32.490765,32.526367,32.583427,32.651535,32.740536,32.850143,32.982224,33.132988,33.290077,33.440727,33.58465,33.744457,33.923996,34.135895,34.349014,34.50814,34.607307,34.716415,34.835655,34.87006,34.89861,34.929676,34.9301,34.924644,34.933826,34.933273,34.95674,34.99739,34.83215,34.528625,34.315754,34.006493,33.652603,33.92016,32.936558,31.205383,24.531002,14.038219,11.954439,11.315329,11.074573,10.991079,10.979017,11.004959,11.037765,11.075774,11.131514,11.206483,11.288435,11.365845,11.427619,11.470323,11.499448,11.519622,11.535849,11.550344,11.562883,11.572217,11.5785,11.583267,11.587088,11.591017,11.596956,11.607479,11.622692,11.641443,11.662309,11.683366,11.703991,11.724504,11.743912,11.760759,11.774647,11.785855,11.79446,11.800989,11.805958,11.809711,11.811794,11.812136,11.811074,11.808983,11.806313,11.802801,11.79837,11.793575,11.78911,11.785521,11.782896,11.780779,11.777979,11.774504,11.769531,11.762951,11.754744,11.744442,11.731768,11.717138,11.699308,11.679003,11.657253,11.634382,11.6102,11.584397,11.55572,11.521433,11.481905,11.438869,11.396908,11.361036,11.3337345,11.315374,11.303378,11.297605,11.2963085,11.297428,11.300367,11.3053665,11.311777,11.319008,11.328371,11.338526,11.348629,11.357943,11.365766,11.372023,11.376709,11.38047,11.384056,11.388304,11.393572,11.399914,11.407367,11.415592,11.425734,11.438205,11.4534445,11.471358,11.491558,11.513751,11.537423,11.563713,11.592465,11.622313,11.651417,11.678087,11.701052,11.719399,11.734917,11.747759,11.758951,11.767885,11.773597,11.775675,11.773809,11.76894,11.759253,11.745754,11.729479,11.712639,11.696852,11.681898,11.668856,11.656513,11.645261,11.635479,11.627559,11.621723,11.618032,11.617008,11.615649,11.613609,11.610905
28.193808,28.325058,28.466404,28.613762,28.762184,28.906841,29.042337,29.175964,29.305367,29.433498,29.554695,29.663338,29.759153,29.837444,29.906796,29.973295,30.045082,30.126207,30.21413,30.300991,30.37774,30.446638,30.504995,30.556087,30.609352,30.672167,30.745453,30.825363,30.908436,30.9898,31.068102,31.135242,31.188538,31.233952,31.280048,31.333004,31.39857,31.476238,31.559948,31.640526,31.709766,31.765984,31.815609,31.870293,31.93806,32.020966,32.118816,32.220184,32.309036,32.379772,32.431488,32.472622,32.511345,32.55038,32.602222,32.675743,32.759552,32.849785,32.945076,33.042778,33.13969,33.243412,33.348434,33.435364,33.515774,33.59954,33.68029,33.754612,33.81643,33.86175,33.891556,33.906776,33.91502,33.921326,33.92945,33.94582,33.971725,34.00166,34.03007,34.05352,34.071167,34.088264,34.115532,34.16214,34.22487,34.28243,34.300255,34.245796,34.123753,33.957657,33.703793,33.343857,32.987278,32.779022,32.702236,32.73759,32.893288,33.149242,33.375458,33.451866,33.469414,33.45568,33.42909,33.388214,33.33175,33.268715,33.211674,33.165,33.133457,33.09762,33.060036,33.01769,32.973206,32.93333,32.899525,32.875725,32.85958,32.85026,32.845303,32.845795,32.853012,32.864082,32.87628,32.882835,32.879814,32.85957,32.82801,32.787033,32.73487,32.692497,32.656975,32.637383,32.642105,32.664513,32.690933,32.72297,32.778915,32.848137,32.939808,33.054153,33.193066,33.35155,33.51602,33.6735,33.823032,33.988274,34.173088,34.388054,34.61191,34.787067,34.889168,35.003986,35.141693,35.19313,35.226685,35.247864,35.23513,35.228584,35.247078,35.25922,35.304466,35.383064,35.240997,34.949287,34.75141,34.41212,34.06163,34.31181,33.545464,32.60507,26.296097,14.972313,12.112175,11.3324585,11.049485,10.950588,10.934531,10.963833,10.998947,11.038641,11.09342,11.169218,11.253544,11.334745,11.401207,11.448822,11.48251,11.506386,11.525656,11.542483,11.556654,11.567108,11.574196,11.579641,11.584232,11.589169,11.596089,11.607225,11.623581,11.643869,11.665726,11.687438,11.70861,11.7293415,11.74842,11.764748,11.7780905,11.788673,11.796699,11.80281,11.807625,11.811566,11.814181,11.815414,11.815498,11.81458,11.813026,11.810511,11.806899,11.802608,11.798232,11.794348,11.791182,11.788406,11.784901,11.780641,11.774998,11.768007,11.759773,11.74983,11.737681,11.723415,11.705555,11.68446,11.661045,11.635909,11.609275,11.581192,11.550754,11.515293,11.47541,11.433012,11.392623,11.35906,11.334518,11.319019,11.310409,11.307344,11.308203,11.311016,11.315222,11.321302,11.328839,11.337841,11.348755,11.360237,11.371275,11.380985,11.388685,11.394332,11.397933,11.399848,11.400604,11.400906,11.40115,11.401625,11.402703,11.404343,11.407324,11.41213,11.419536,11.4298115,11.442881,11.458651,11.476621,11.497526,11.521241,11.546605,11.572094,11.596302,11.618052,11.63633,11.652691,11.667379,11.681288,11.693665,11.703266,11.709333,11.711325,11.709961,11.703463,11.692667,11.678503,11.663311,11.648985,11.635526,11.624182,11.6139145,11.605177,11.598342,11.593585,11.5908,11.589842,11.591214,11.592043,11.593128,11.592224
28.370705,28.500774,28.640415,28.78646,28.934326,29.079086,29.215008,29.349636,29.480425,29.609993,29.732718,29.842066,29.937824,30.018906,30.092255,30.162743,30.237598,30.32045,30.406918,30.489033,30.56203,30.627783,30.68314,30.731714,30.784756,30.849709,30.926376,31.01097,31.099846,31.186523,31.268372,31.337654,31.392315,31.438608,31.484732,31.535427,31.596973,31.668747,31.745062,31.8176,31.87899,31.928127,31.971891,32.023136,32.089176,32.173306,32.272575,32.37561,32.468204,32.541748,32.595886,32.63978,32.680416,32.720253,32.770844,32.84048,32.919224,33.003983,33.093754,33.18602,33.27784,33.37567,33.481186,33.58107,33.663494,33.748886,33.83034,33.904125,33.96411,34.006958,34.034355,34.04698,34.052864,34.057045,34.063904,34.08039,34.107647,34.13926,34.16866,34.192467,34.209732,34.226254,34.254066,34.302483,34.367928,34.429493,34.451862,34.402184,34.28414,34.1205,33.866543,33.504723,33.146942,32.93843,32.863167,32.903835,33.06594,33.33185,33.56147,33.626217,33.64532,33.6313,33.606873,33.56845,33.515377,33.457195,33.404964,33.362343,33.332443,33.295586,33.25445,33.20667,33.156,33.11079,33.073837,33.0487,33.03232,33.024967,33.02421,33.030754,33.046364,33.06772,33.087074,33.100487,33.098854,33.07609,33.03823,32.991287,32.93844,32.89305,32.853733,32.829407,32.82719,32.847336,32.87575,32.906174,32.958466,33.02629,33.11815,33.234875,33.37876,33.54467,33.717552,33.88219,34.038094,34.209442,34.39988,34.61737,34.85097,35.041595,35.146336,35.26571,35.407097,35.486664,35.53546,35.55137,35.531796,35.522774,35.54384,35.567833,35.633224,35.74466,35.62684,35.353558,35.155758,34.725296,34.343933,34.452393,34.168556,33.68244,27.549992,16.12658,12.26726,11.363942,11.037462,10.921489,10.895128,10.922728,10.962431,11.002439,11.055085,11.130254,11.215775,11.30006,11.37104,11.423887,11.462765,11.491056,11.514076,11.533833,11.550109,11.562141,11.570597,11.577401,11.5835085,11.590128,11.599125,11.611286,11.628573,11.6502075,11.6730175,11.695206,11.716621,11.7375145,11.756818,11.773306,11.786522,11.796831,11.804871,11.811272,11.816738,11.821725,11.825651,11.828465,11.830297,11.831003,11.830867,11.829563,11.826912,11.823205,11.818964,11.814779,11.810988,11.807413,11.802971,11.797607,11.790817,11.782749,11.773619,11.763027,11.750395,11.73555,11.716801,11.6942625,11.66882,11.641345,11.612444,11.582457,11.550791,11.514843,11.47543,11.434538,11.396492,11.365795,11.344349,11.331835,11.326012,11.325605,11.32872,11.333247,11.338678,11.345724,11.354359,11.365023,11.377087,11.389445,11.40113,11.411184,11.418976,11.424519,11.427837,11.429087,11.428583,11.426832,11.424164,11.420945,11.417745,11.414751,11.412422,11.411165,11.411888,11.41506,11.420841,11.429379,11.440306,11.453941,11.47007,11.4878845,11.506317,11.5244255,11.5413685,11.556225,11.570301,11.5838995,11.598051,11.612087,11.624638,11.634665,11.641338,11.644928,11.643776,11.638228,11.628872,11.61795,11.6073885,11.59724,11.588917,11.581608,11.575771,11.571693,11.569414,11.568719,11.5694275,11.57209,11.575008,11.576981,11.575792
28.527607,28.654657,28.788925,28.92888,29.072605,29.215427,29.35084,29.486279,29.61911,29.751064,29.876259,29.98774,30.084759,30.167183,30.245155,30.320183,30.39827,30.482147,30.567959,30.648289,30.717602,30.779957,30.834251,30.883587,30.939495,31.008654,31.090115,31.180622,31.275284,31.36723,31.452946,31.524303,31.579788,31.626043,31.670734,31.717873,31.773956,31.838371,31.905949,31.96952,32.0229,32.06544,32.103992,32.153202,32.21883,32.304695,32.406517,32.512207,32.607998,32.684624,32.74125,32.788197,32.831585,32.874146,32.925262,32.99146,33.06507,33.14408,33.22754,33.313324,33.398888,33.490746,33.59552,33.70439,33.79432,33.880707,33.960938,34.031937,34.087936,34.12675,34.151054,34.161385,34.165447,34.167862,34.173088,34.188465,34.215385,34.24723,34.277046,34.301132,34.318626,34.33568,34.36526,34.41662,34.48578,34.552025,34.579403,34.53496,34.422638,34.26349,34.0105,33.647385,33.28988,33.082653,33.00898,33.05422,33.22128,33.493824,33.725094,33.78079,33.799614,33.784184,33.75871,33.720608,33.670883,33.61882,33.57345,33.537163,33.511635,33.477005,33.43524,33.384453,33.329338,33.278824,33.236465,33.20809,33.189278,33.182156,33.184917,33.19803,33.2228,33.25462,33.28258,33.3024,33.293404,33.26737,33.232147,33.185356,33.130867,33.083164,33.04066,33.011944,33.004066,33.0187,33.042793,33.069527,33.117878,33.181877,33.271275,33.387814,33.5344,33.707085,33.88934,34.061405,34.224342,34.40252,34.599,34.819504,35.060017,35.262337,35.37214,35.493786,35.637897,35.743156,35.80739,35.82631,35.80901,35.795135,35.811184,35.843555,35.92546,36.06304,35.973335,35.72295,35.527023,35.052032,34.6709,34.479805,34.78617,34.16053,27.986744,17.454695,12.397629,11.399858,11.036514,10.903048,10.8629055,10.8860035,10.930332,10.9693985,11.020033,11.093611,11.179369,11.266016,11.341041,11.398935,11.443056,11.47591,11.502896,11.525827,11.544455,11.558365,11.5686035,11.57728,11.585413,11.594237,11.605523,11.619693,11.637774,11.659664,11.683153,11.705492,11.726856,11.747707,11.767067,11.783815,11.797451,11.808281,11.817009,11.824276,11.830971,11.837578,11.843384,11.848173,11.8519335,11.854381,11.855687,11.855597,11.853895,11.850776,11.84672,11.842323,11.837988,11.833658,11.828295,11.821778,11.813667,11.804174,11.793617,11.781696,11.767855,11.751774,11.731566,11.707245,11.679732,11.650184,11.6195345,11.588334,11.556205,11.520583,11.482411,11.443687,11.40845,11.380821,11.362427,11.352708,11.349243,11.35119,11.356364,11.362425,11.368851,11.376717,11.386602,11.397882,11.410418,11.423126,11.435053,11.445287,11.4532585,11.45903,11.462667,11.464195,11.463753,11.461627,11.458029,11.453285,11.447992,11.442493,11.436989,11.431713,11.427497,11.424866,11.424162,11.425774,11.429478,11.435232,11.442659,11.451326,11.460631,11.47018,11.4796505,11.488403,11.497494,11.507253,11.51904,11.532533,11.54644,11.559544,11.570727,11.579699,11.58494,11.586157,11.583456,11.5787525,11.573723,11.568315,11.564058,11.560432,11.5578,11.556271,11.5558,11.55633,11.55793,11.561211,11.564998,11.566143,11.563166
28.688541,28.81185,28.941547,29.075739,29.21367,29.353634,29.487865,29.62355,29.757801,29.891426,30.01815,30.131302,30.23016,30.314001,30.395168,30.474213,30.555254,30.639954,30.724894,30.803574,30.870855,30.931759,30.985733,31.035679,31.094002,31.167347,31.254086,31.350636,31.450539,31.546955,31.635424,31.70747,31.762487,31.807505,31.849478,31.892845,31.943007,31.999826,32.05861,32.1135,32.160484,32.199734,32.23591,32.283615,32.34918,32.43698,32.541805,32.64883,32.744354,32.82357,32.881874,32.931293,32.97899,33.02477,33.075928,33.139233,33.20761,33.281044,33.357956,33.436916,33.515587,33.601433,33.700897,33.809074,33.920647,34.00615,34.08319,34.15041,34.20167,34.236176,34.25762,34.266464,34.269558,34.270973,34.27501,34.289158,34.315117,34.34649,34.376266,34.40032,34.4181,34.435875,34.46742,34.52191,34.594833,34.665607,34.698006,34.658485,34.552605,34.398575,34.14717,33.783432,33.425743,33.219482,33.14626,33.193832,33.36387,33.63942,33.871075,33.922836,33.939987,33.922905,33.892456,33.852516,33.806244,33.761055,33.72412,33.696434,33.677883,33.648506,33.609367,33.558723,33.50141,33.446674,33.39929,33.36631,33.343254,33.33471,33.339935,33.359333,33.392635,33.433388,33.47191,33.48603,33.476933,33.45304,33.418472,33.371544,33.31612,33.2667,33.221535,33.18843,33.17405,33.18509,33.206215,33.225548,33.268906,33.327576,33.413147,33.528084,33.676346,33.855347,34.047462,34.228874,34.40013,34.586308,34.790012,35.01479,35.26138,35.47219,35.585323,35.710915,35.85656,35.985233,36.06363,36.08753,36.07581,36.057045,36.06475,36.105568,36.203217,36.363274,36.30216,36.073303,35.87042,35.355812,34.957832,34.751793,35.293964,34.080936,28.097878,18.945179,12.554795,11.443205,11.049868,10.901142,10.841676,10.856323,10.904717,10.940987,10.988622,11.058985,11.143281,11.230707,11.308483,11.370507,11.419251,11.45627,11.486925,11.512823,11.533677,11.54949,11.561707,11.57255,11.583002,11.594256,11.607901,11.62426,11.643131,11.664491,11.687613,11.710247,11.731534,11.752415,11.772043,11.789352,11.803786,11.815588,11.825457,11.834006,11.842312,11.850819,11.858617,11.865466,11.871149,11.875021,11.877417,11.878231,11.87726,11.874703,11.871014,11.866779,11.862442,11.858017,11.852459,11.845619,11.836964,11.826629,11.814909,11.801586,11.786243,11.768591,11.746618,11.7203865,11.690935,11.659647,11.627696,11.5957985,11.563736,11.529051,11.492792,11.456898,11.425031,11.400817,11.385546,11.378456,11.377447,11.380924,11.387184,11.39402,11.401066,11.409538,11.419382,11.430297,11.442453,11.454789,11.466418,11.476557,11.484702,11.490889,11.495163,11.497446,11.49772,11.496029,11.492445,11.487253,11.48106,11.474318,11.467051,11.459261,11.451599,11.444556,11.4388485,11.435251,11.433149,11.432281,11.432072,11.43232,11.432771,11.4335,11.434702,11.436106,11.438499,11.442134,11.448695,11.458874,11.471776,11.485749,11.499376,11.511993,11.522336,11.529749,11.533945,11.536319,11.538012,11.538622,11.539553,11.540596,11.541817,11.5429,11.543786,11.54508,11.54755,11.55157,11.553911,11.552986,11.5475
28.88136,29.000538,29.124836,29.253756,29.38708,29.523174,29.655739,29.791077,29.926056,30.060514,30.187872,30.301796,30.40183,30.4873,30.572899,30.655746,30.739159,30.824198,30.907848,30.984707,31.050161,31.110157,31.164974,31.217058,31.279137,31.35756,31.450006,31.552483,31.6566,31.755642,31.844479,31.914389,31.966217,32.007694,32.044785,32.082283,32.124657,32.173332,32.224148,32.272194,32.31389,32.348988,32.382294,32.429092,32.49537,32.58558,32.693756,32.803505,32.899925,32.978615,33.038013,33.090195,33.14025,33.18748,33.238632,33.299774,33.364075,33.43103,33.500893,33.572544,33.643456,33.722095,33.815506,33.91947,34.033566,34.136543,34.212685,34.273026,34.31955,34.35018,34.369762,34.37838,34.381645,34.383064,34.386406,34.399155,34.423607,34.45396,34.483307,34.507,34.524803,34.542973,34.575893,34.632797,34.708843,34.783646,34.82074,34.785957,34.687134,34.538826,34.291122,33.929016,33.569183,33.362015,33.286964,33.333626,33.50285,33.77696,34.008343,34.06124,34.074898,34.055183,34.018253,33.9737,33.928368,33.891163,33.866642,33.847923,33.839874,33.821327,33.79039,33.74413,33.6865,33.627083,33.573624,33.53516,33.507618,33.497387,33.503532,33.52671,33.56778,33.61973,33.66951,33.675938,33.66477,33.64196,33.607586,33.560287,33.503845,33.45278,33.404613,33.36655,33.3453,33.34754,33.367493,33.393307,33.426315,33.478844,33.55995,33.67295,33.82333,34.00903,34.21244,34.408848,34.5908,34.787834,35.001343,35.232563,35.484993,35.701454,35.816383,35.948135,36.094032,36.251183,36.344288,36.373497,36.37374,36.35351,36.347286,36.400414,36.517036,36.699028,36.68322,36.484535,36.24611,35.69758,35.436714,35.387783,35.503773,34.296776,29.652966,21.331291,12.7544985,11.505404,11.081606,10.910831,10.828867,10.832808,10.879097,10.914906,10.957601,11.023114,11.104927,11.192371,11.2722435,11.337988,11.391172,11.432217,11.466425,11.495151,11.518145,11.5358925,11.55028,11.5636015,11.57666,11.590542,11.606562,11.6248,11.644787,11.6658945,11.687433,11.708581,11.729946,11.750874,11.770863,11.788978,11.804581,11.817778,11.829178,11.839348,11.849518,11.860064,11.870068,11.878994,11.886305,11.891355,11.894594,11.896137,11.89584,11.893961,11.890947,11.887323,11.883505,11.879534,11.87439,11.867872,11.85928,11.848583,11.83597,11.821289,11.80435,11.784979,11.761145,11.733041,11.7018585,11.669174,11.636364,11.604273,11.5728,11.539617,11.505854,11.473314,11.445201,11.424623,11.412553,11.408067,11.409324,11.414576,11.4219475,11.429377,11.436556,11.444618,11.453693,11.463597,11.474659,11.4858885,11.496571,11.506105,11.514074,11.52047,11.52527,11.528267,11.529253,11.52806,11.524635,11.51924,11.512489,11.504899,11.496353,11.486643,11.476137,11.4654875,11.455616,11.447214,11.4397545,11.432711,11.425382,11.417737,11.409798,11.402029,11.395073,11.389013,11.384409,11.381331,11.381937,11.386913,11.395655,11.407167,11.420334,11.434575,11.449142,11.462765,11.474669,11.48554,11.49568,11.504101,11.511827,11.5190325,11.525156,11.530209,11.533983,11.536939,11.540211,11.543825,11.54424,11.540696,11.532002
29.105753,29.22065,29.339699,29.46471,29.594849,29.726748,29.856924,29.990757,30.124828,30.258198,30.384129,30.496296,30.595778,30.685692,30.774124,30.859657,30.944824,31.030155,31.11304,31.188911,31.253628,31.313961,31.370903,31.426352,31.492683,31.575703,31.67239,31.778059,31.883034,31.982563,32.068977,32.13334,32.17811,32.212204,32.241486,32.271103,32.30704,32.34923,32.39353,32.435986,32.473534,32.5056,32.5369,32.583565,32.65116,32.74358,32.854164,32.965775,33.062695,33.14039,33.19944,33.252403,33.30359,33.352074,33.403942,33.46444,33.526367,33.587845,33.651176,33.715363,33.778835,33.85016,33.9358,34.03179,34.139282,34.253525,34.339344,34.396645,34.43562,34.46307,34.481567,34.491196,34.496037,34.499073,34.503403,34.51622,34.540195,34.570087,34.59906,34.622177,34.639523,34.657257,34.690372,34.748302,34.826084,34.90354,34.943985,34.912735,34.81994,34.678574,34.435287,34.073303,33.710815,33.501957,33.4234,33.46556,33.63117,33.89947,34.130226,34.193245,34.20262,34.180107,34.139847,34.091824,34.045853,34.01024,33.989548,33.98349,33.9909,33.988453,33.970985,33.93425,33.88051,33.818798,33.759735,33.71428,33.678936,33.66343,33.668312,33.694866,33.74378,33.805283,33.86028,33.862083,33.848137,33.824104,33.788975,33.741615,33.685402,33.63458,33.58554,33.54444,33.51821,33.512955,33.5298,33.560722,33.59398,33.64102,33.717804,33.828632,33.980698,34.17247,34.387047,34.600147,34.794884,35.00469,35.230103,35.46998,35.73085,35.955,36.071136,36.206535,36.35443,36.528954,36.64193,36.683884,36.69055,36.670197,36.65432,36.718056,36.85179,37.052525,37.07431,36.896824,36.62362,36.05799,35.93602,36.108295,35.75923,34.83911,31.968407,24.43716,13.239509,11.577698,11.102537,10.923847,10.818642,10.808934,10.849428,10.886293,10.922819,10.983709,11.062025,11.149029,11.231371,11.300961,11.358399,11.40309,11.440265,11.471323,11.496047,11.515436,11.531836,11.547541,11.563106,11.579464,11.597633,11.617425,11.638338,11.65959,11.680374,11.700195,11.71983,11.740976,11.76188,11.781269,11.798531,11.8136425,11.827015,11.839109,11.851273,11.863796,11.875877,11.886484,11.894731,11.90029,11.903749,11.90546,11.905344,11.903788,11.901243,11.898142,11.894831,11.891333,11.88664,11.880493,11.871992,11.860903,11.84729,11.831062,11.812292,11.791035,11.765291,11.735536,11.703149,11.669858,11.637116,11.6057415,11.575629,11.544624,11.513863,11.484974,11.46072,11.44372,11.434634,11.432456,11.435561,11.442232,11.450435,11.458135,11.465042,11.472309,11.4803505,11.489043,11.498816,11.508768,11.518396,11.527304,11.535122,11.541747,11.547091,11.550802,11.5525,11.55183,11.54867,11.543307,11.536369,11.528405,11.519228,11.508482,11.496353,11.483184,11.470157,11.458509,11.44726,11.435717,11.423099,11.409426,11.394813,11.380037,11.366132,11.35334,11.341997,11.3318815,11.325571,11.323799,11.326233,11.332535,11.342012,11.354042,11.368021,11.383129,11.398752,11.415079,11.431662,11.446939,11.461319,11.475355,11.487868,11.497944,11.506152,11.51318,11.518642,11.522419,11.522218,11.517345,11.506547
29.355108,29.469181,29.586597,29.710392,29.839022,29.968073,30.095577,30.226543,30.357183,30.486053,30.606766,30.715176,30.814274,30.905756,30.994104,31.080769,31.167294,31.253796,31.33783,31.414917,31.481098,31.54358,31.603706,31.662785,31.73211,31.816711,31.91358,32.018227,32.120216,32.213547,32.29043,32.342815,32.37487,32.39759,32.41822,32.44149,32.473167,32.511467,32.55198,32.591278,32.62687,32.658115,32.689056,32.736336,32.805336,32.898876,33.009796,33.120697,33.21579,33.29117,33.348526,33.400677,33.453102,33.504364,33.558945,33.620987,33.683,33.74208,33.800953,33.859604,33.916924,33.981056,34.058167,34.144485,34.240753,34.34945,34.44361,34.510086,34.54959,34.57296,34.590096,34.60044,34.607735,34.614235,34.622578,34.638645,34.66472,34.69597,34.72517,34.74772,34.763874,34.779892,34.811417,34.86823,34.94549,35.023262,35.06462,35.033966,34.946785,34.812057,34.56916,34.202637,33.838543,33.629387,33.547104,33.581734,33.742264,34.001884,34.233795,34.31974,34.32524,34.301117,34.2602,34.21232,34.16382,34.121212,34.096977,34.103687,34.127617,34.14293,34.1419,34.11904,34.074005,34.01403,33.95186,33.899837,33.855316,33.832027,33.833168,33.860725,33.91394,33.979904,34.03641,34.03546,34.018044,33.990562,33.95348,33.906815,33.85334,33.806435,33.76101,33.721577,33.694992,33.687798,33.702015,33.733665,33.77561,33.8189,33.89213,34.000534,34.153114,34.349384,34.57278,34.79933,35.00962,35.23312,35.47168,35.722527,35.992996,36.227108,36.35161,36.48938,36.64048,36.819473,36.960648,37.0173,37.011086,36.99038,36.97182,37.044563,37.190353,37.40724,37.438293,37.258965,36.98268,36.422287,36.34264,36.690636,36.39187,35.531548,33.822384,27.423008,14.068226,11.680634,11.104569,10.932092,10.809505,10.784197,10.814802,10.8534155,10.884817,10.943447,11.019184,11.1039505,11.186509,11.259417,11.321606,11.370344,11.411129,11.444008,11.469595,11.49004,11.508062,11.525728,11.543398,11.56179,11.581661,11.602626,11.624149,11.645683,11.666611,11.686228,11.704749,11.725313,11.74695,11.768055,11.78743,11.804731,11.820177,11.8341255,11.847923,11.862112,11.875547,11.886837,11.895123,11.900344,11.903239,11.904375,11.903769,11.901955,11.899397,11.896412,11.893237,11.889872,11.885281,11.8791485,11.870421,11.858671,11.84384,11.825901,11.805221,11.782115,11.75469,11.723782,11.690989,11.658081,11.626427,11.5966835,11.568626,11.540295,11.512802,11.4875965,11.467066,11.453382,11.446915,11.446625,11.451088,11.458588,11.467118,11.474667,11.480975,11.487301,11.494201,11.501607,11.510042,11.518724,11.527348,11.535685,11.543371,11.550167,11.555906,11.560104,11.562232,11.561811,11.558726,11.55334,11.54633,11.538256,11.528929,11.517946,11.505383,11.491278,11.47674,11.463404,11.450698,11.437202,11.422117,11.405458,11.38737,11.36862,11.350263,11.332756,11.316239,11.300047,11.286772,11.277241,11.271406,11.269415,11.271068,11.275919,11.283527,11.294021,11.307411,11.323833,11.342452,11.36134,11.380128,11.39978,11.419054,11.435868,11.45022,11.462408,11.471344,11.477182,11.478623,11.474955,11.464697
29.611847,29.72953,29.849804,29.975359,30.104366,30.232512,30.35762,30.484932,30.609936,30.732489,30.847046,30.951138,31.048147,31.135704,31.221886,31.308344,31.39577,31.484219,31.571087,31.651283,31.720736,31.78654,31.84999,31.912025,31.982576,32.065968,32.158928,32.25669,32.350708,32.430367,32.490543,32.525814,32.542656,32.553993,32.567738,32.586876,32.61566,32.65214,32.69172,32.73079,32.766804,32.798954,32.830856,32.879276,32.9494,33.042908,33.152336,33.260574,33.352066,33.423523,33.478935,33.530632,33.584946,33.64003,33.698734,33.76393,33.82806,33.88748,33.94456,33.99977,34.051834,34.108917,34.177876,34.255024,34.33881,34.433315,34.52331,34.59871,34.645798,34.669205,34.688812,34.705204,34.7169,34.729664,34.74551,34.768127,34.7988,34.833027,34.86332,34.88548,34.899742,34.912834,34.94123,34.995262,35.070297,35.146576,35.18673,35.154922,35.07182,34.940964,34.691185,34.31378,33.95167,33.74378,33.658234,33.686054,33.840744,34.089546,34.32547,34.443825,34.446686,34.42292,34.382378,34.337803,34.283882,34.23078,34.20697,34.220467,34.25557,34.285835,34.300575,34.292732,34.258835,34.203575,34.14122,34.0849,34.032993,34.002335,33.99816,34.022964,34.07501,34.13981,34.19458,34.19718,34.177063,34.14444,34.1044,34.05794,34.00772,33.966614,33.92859,33.89554,33.87365,33.86982,33.88584,33.920128,33.970566,34.01304,34.08483,34.191765,34.344673,34.544334,34.77411,35.010353,35.236923,35.47386,35.72577,35.98913,36.268585,36.51279,36.653347,36.79346,36.94847,37.12958,37.29783,37.361538,37.330376,37.308357,37.291916,37.373695,37.527252,37.759323,37.77305,37.56788,37.324127,36.815247,36.68608,37.100475,37.208088,36.187935,34.737312,29.412096,15.262083,11.835192,11.076056,10.927883,10.806154,10.764465,10.781191,10.820179,10.850551,10.9071,10.980834,11.063021,11.144243,11.219179,11.285814,11.33891,11.383579,11.418705,11.445778,11.467236,11.486057,11.504868,11.523838,11.543507,11.564407,11.586042,11.607933,11.629637,11.650686,11.670589,11.689783,11.709545,11.731043,11.753206,11.7744055,11.793706,11.810837,11.82619,11.841085,11.8563795,11.87029,11.881366,11.889097,11.893507,11.895424,11.895569,11.894062,11.891544,11.888493,11.885109,11.881508,11.877699,11.872621,11.865896,11.856426,11.843676,11.827495,11.807933,11.785634,11.76112,11.732665,11.701469,11.66931,11.637878,11.608328,11.581068,11.555672,11.530376,11.506247,11.484561,11.467394,11.45656,11.4522,11.453272,11.458552,11.4663315,11.474693,11.481737,11.487259,11.492556,11.498308,11.504465,11.511578,11.518973,11.526476,11.533974,11.541096,11.547508,11.552963,11.556864,11.5585785,11.557614,11.553934,11.54801,11.54061,11.532286,11.522886,11.512053,11.499789,11.486215,11.471972,11.458273,11.445919,11.432806,11.417931,11.401344,11.383059,11.3635,11.343561,11.323966,11.30471,11.284641,11.266037,11.24951,11.235211,11.223787,11.215592,11.210724,11.208809,11.210723,11.217228,11.228822,11.244789,11.263178,11.282984,11.305414,11.329296,11.3524275,11.372982,11.390062,11.4034,11.413298,11.418671,11.418177,11.410054
29.853998,29.976215,30.100883,30.229868,30.36071,30.488922,30.612041,30.735733,30.85519,30.973063,31.084375,31.183556,31.273132,31.356352,31.43948,31.524662,31.612226,31.702312,31.791931,31.87527,31.948084,32.016872,32.082787,32.146736,32.2173,32.29841,32.385124,32.470123,32.55035,32.614426,32.657448,32.677097,32.68268,32.68705,32.695873,32.710564,32.737633,32.77368,32.813736,32.85386,32.89133,32.925194,32.958664,33.00844,33.07949,33.172504,33.279907,33.385284,33.473755,33.542377,33.596687,33.648983,33.705383,33.763588,33.825775,33.894188,33.960793,34.02105,34.07797,34.130054,34.177013,34.227516,34.288406,34.357117,34.433285,34.515457,34.595177,34.661247,34.707832,34.74019,34.76988,34.802433,34.824814,34.84737,34.87286,34.90399,34.940773,34.97861,35.010834,35.032814,35.044884,35.054573,35.079514,35.130753,35.20378,35.27864,35.317196,35.284935,35.201576,35.071373,34.808174,34.412613,34.058197,33.85182,33.763428,33.788834,33.93776,34.17473,34.415985,34.566612,34.569466,34.547966,34.509876,34.468704,34.407833,34.347984,34.332108,34.346207,34.38492,34.42439,34.450718,34.45513,34.431263,34.38127,34.320282,34.26158,34.204407,34.167793,34.1585,34.17923,34.2275,34.287262,34.332783,34.346207,34.32332,34.28154,34.236237,34.190758,34.14736,34.11566,34.085945,34.061172,34.046818,34.049583,34.071472,34.112236,34.1713,34.21671,34.290474,34.398605,34.553375,34.756638,34.992115,35.23696,35.476284,35.725018,35.989235,36.264725,36.55336,36.806835,36.96061,37.102028,37.26291,37.450714,37.63038,37.692276,37.646027,37.621628,37.61075,37.69984,37.859673,38.09897,38.085846,37.848835,37.653267,37.25917,37.021847,37.39856,37.757187,36.775642,35.29492,30.460346,16.83997,12.030751,11.005625,10.910907,10.811582,10.752859,10.755426,10.791225,10.825401,10.877222,10.947292,11.029408,11.111927,11.188139,11.257124,11.313371,11.360131,11.39826,11.428633,11.45171,11.470636,11.489864,11.509378,11.529491,11.550772,11.572697,11.59484,11.6167555,11.637968,11.658045,11.677406,11.697845,11.718975,11.740748,11.762598,11.783209,11.801537,11.81785,11.833579,11.849394,11.86339,11.874161,11.881348,11.885084,11.886229,11.885559,11.883207,11.879863,11.876008,11.87177,11.867189,11.862318,11.856103,11.848122,11.8373375,11.823236,11.805662,11.784756,11.761349,11.73609,11.707415,11.676861,11.6462965,11.61728,11.590675,11.566572,11.544285,11.52227,11.501465,11.48299,11.468697,11.460142,11.457298,11.459187,11.464773,11.472395,11.48028,11.486675,11.49144,11.495877,11.500719,11.5059185,11.511976,11.518213,11.524483,11.530722,11.536601,11.541775,11.545984,11.548522,11.548741,11.546226,11.541069,11.53389,11.525544,11.516565,11.506846,11.496116,11.484415,11.471891,11.458885,11.446139,11.43457,11.422995,11.409826,11.395012,11.378138,11.359371,11.339744,11.319971,11.299947,11.27819,11.256724,11.23592,11.215935,11.197676,11.181843,11.168832,11.1575365,11.149736,11.1470375,11.150592,11.1602745,11.17451,11.192066,11.21402,11.238689,11.264092,11.288372,11.310126,11.3284645,11.343126,11.35356,11.356851,11.350874
30.079206,30.205757,30.335052,30.46782,30.600945,30.729767,30.851257,30.97112,31.089006,31.203348,31.30775,31.39929,31.482664,31.561096,31.640171,31.722618,31.809591,31.900848,31.992517,32.078293,32.153793,32.224476,32.29236,32.357635,32.426003,32.500206,32.576466,32.648518,32.713455,32.762268,32.791214,32.79992,32.798203,32.79711,32.800873,32.813156,32.839935,32.876766,32.918205,32.95997,32.99919,33.034966,33.07019,33.121483,33.19342,33.285892,33.391376,33.494354,33.580856,33.648315,33.702526,33.7557,33.813866,33.874702,33.939796,34.010727,34.079216,34.14019,34.196976,34.2477,34.290756,34.33441,34.38669,34.446823,34.515785,34.591743,34.663727,34.72303,34.767082,34.802246,34.838913,34.881348,34.928963,34.96306,34.99727,35.03852,35.083595,35.12678,35.161915,35.18416,35.194256,35.20083,35.22293,35.272377,35.344624,35.419235,35.45696,35.421635,35.33548,35.20553,34.922726,34.50042,34.157608,33.95477,33.86493,33.888626,34.03397,34.26287,34.509224,34.687416,34.696083,34.67884,34.64601,34.60221,34.53793,34.480347,34.467644,34.482864,34.52241,34.56349,34.595474,34.608177,34.591534,34.54586,34.48674,34.426952,34.36651,34.325752,34.312325,34.32879,34.371872,34.42447,34.45909,34.457687,34.418015,34.35367,34.294983,34.263435,34.255894,34.256973,34.233383,34.216217,34.210617,34.221466,34.251137,34.300495,34.369766,34.420925,34.4992,34.610672,34.768734,34.976017,35.21674,35.468796,35.717262,35.975616,36.25019,36.53591,36.833588,37.093643,37.251434,37.39865,37.565773,37.762993,37.93981,37.99495,37.947426,37.921356,37.91693,38.010353,38.17798,38.392254,38.35401,38.11982,37.972225,37.70704,37.312042,37.635162,38.135666,37.47433,36.412815,32.029305,18.610218,12.242739,10.932394,10.901425,10.821262,10.742548,10.734295,10.765072,10.8035755,10.854538,10.921652,11.002295,11.086187,11.164596,11.234526,11.291971,11.339981,11.378986,11.409989,11.434275,11.454876,11.4755,11.496428,11.516809,11.538427,11.560898,11.58378,11.606563,11.628676,11.649604,11.66967,11.69077,11.712742,11.734842,11.756344,11.777047,11.796715,11.8140135,11.830306,11.846531,11.860756,11.871519,11.878519,11.881982,11.88279,11.881723,11.8789015,11.874987,11.87043,11.865326,11.859679,11.853577,11.846032,11.836575,11.824287,11.808763,11.789896,11.767885,11.743677,11.718014,11.689478,11.659878,11.631138,11.604633,11.58094,11.559848,11.540453,11.521418,11.503603,11.487989,11.476262,11.469732,11.468219,11.47083,11.476688,11.484221,11.491746,11.497646,11.501827,11.505597,11.509766,11.514258,11.519524,11.524828,11.529974,11.534895,11.539293,11.542862,11.545353,11.545982,11.544079,11.539373,11.532137,11.523127,11.513313,11.50322,11.492725,11.481691,11.470222,11.458416,11.446514,11.434898,11.423683,11.4134035,11.402231,11.389116,11.373573,11.356017,11.337318,11.3181505,11.298325,11.276244,11.25358,11.230455,11.206929,11.183913,11.16229,11.142563,11.123203,11.106393,11.094241,11.088611,11.090136,11.097734,11.11025,11.1286,11.151455,11.177106,11.203585,11.228575,11.25001,11.267478,11.280951,11.288733,11.287987
30.31136,30.442627,30.577335,30.714731,30.850952,30.981121,31.101582,31.221378,31.336369,31.444763,31.541656,31.625593,31.702364,31.776447,31.85392,31.935402,32.021282,32.11241,32.205246,32.292534,32.36944,32.440536,32.50782,32.57093,32.633423,32.697807,32.76162,32.819427,32.870148,32.904434,32.92177,32.92244,32.91372,32.906105,32.906517,32.91855,32.94626,32.98416,33.027306,33.071503,33.113285,33.151558,33.18985,33.242947,33.314594,33.406094,33.509506,33.609722,33.694332,33.760826,33.815342,33.869507,33.929153,33.992043,34.05941,34.132328,34.202408,34.264256,34.32145,34.371418,34.412247,34.451843,34.4983,34.55166,34.613396,34.68309,34.751434,34.81012,34.856663,34.895985,34.937244,34.987488,35.053608,35.09902,35.143803,35.1964,35.250927,35.300484,35.33828,35.360336,35.367706,35.370464,35.38944,35.437347,35.509563,35.584923,35.622665,35.584126,35.49207,35.36157,35.054184,34.599083,34.27487,34.071754,33.980495,34.0029,34.145348,34.37284,34.622116,34.809486,34.840446,34.829216,34.802505,34.75837,34.693573,34.638905,34.627163,34.642212,34.68139,34.71918,34.75065,34.767662,34.757065,34.71608,34.66045,34.60201,34.54107,34.498573,34.482563,34.495163,34.53256,34.5771,34.599434,34.580276,34.519196,34.43101,34.35446,34.318993,34.32577,34.366196,34.39229,34.388855,34.390053,34.412117,34.453217,34.514458,34.594223,34.654823,34.740967,34.858498,35.0215,35.233364,35.479248,35.73794,35.992958,36.260536,36.54554,36.841827,37.15088,37.417854,37.573498,37.729324,37.90546,38.10517,38.272163,38.323547,38.282417,38.255753,38.25544,38.351944,38.525425,38.707363,38.65229,38.434364,38.329132,38.193268,37.587265,37.858852,38.437523,37.971733,37.188866,33.261368,20.374794,12.505972,10.884251,10.858627,10.813924,10.752132,10.716774,10.741146,10.789704,10.833504,10.89592,10.974928,11.058365,11.137436,11.207959,11.264536,11.313504,11.3536825,11.384822,11.409558,11.431687,11.45337,11.473897,11.495184,11.517949,11.541715,11.566086,11.590584,11.614337,11.636242,11.656724,11.67809,11.700253,11.722425,11.7438755,11.764094,11.782549,11.798912,11.814562,11.830116,11.843536,11.853796,11.860832,11.864513,11.865513,11.864618,11.861885,11.857883,11.853026,11.847374,11.8410225,11.8343725,11.826342,11.816322,11.803465,11.787455,11.76823,11.746193,11.722643,11.698052,11.67087,11.643116,11.616724,11.592936,11.572165,11.554029,11.537412,11.521128,11.505959,11.492756,11.483009,11.477787,11.476751,11.4790535,11.484013,11.490162,11.495964,11.500081,11.502888,11.505846,11.509255,11.513056,11.5175705,11.521807,11.525508,11.528687,11.531119,11.532602,11.532923,11.531197,11.526793,11.519597,11.51004,11.499018,11.487608,11.476326,11.464997,11.4536085,11.442352,11.4316845,11.421665,11.411928,11.40259,11.3943,11.384947,11.373641,11.3600025,11.344388,11.327562,11.310108,11.291758,11.270971,11.2490635,11.225945,11.201534,11.17659,11.151966,11.128153,11.103243,11.079592,11.059523,11.045426,11.038652,11.038655,11.044579,11.057091,11.075531,11.097837,11.121784,11.145892,11.168869,11.189051,11.206152,11.218311,11.222173
30.524311,30.659447,30.798807,30.940155,31.079165,31.210852,31.33096,31.45174,31.563564,31.66597,31.755783,31.834246,31.908934,31.980797,32.05504,32.133854,32.21731,32.306957,32.39934,32.486298,32.56263,32.63221,32.69613,32.75393,32.808395,32.862324,32.91445,32.960335,33.000336,33.025837,33.034893,33.02939,33.01821,33.01123,33.01336,33.027237,33.0571,33.09745,33.14308,33.18962,33.23394,33.2751,33.315742,33.36966,33.440193,33.52652,33.62477,33.721886,33.80365,33.868484,33.92247,33.976654,34.0365,34.099827,34.167824,34.241222,34.31157,34.37367,34.43118,34.481033,34.52108,34.558582,34.601425,34.650482,34.707943,34.774403,34.842613,34.904266,34.956505,35.00318,35.051872,35.10956,35.189133,35.247414,35.304287,35.367825,35.431232,35.486443,35.525436,35.545654,35.54875,35.546196,35.561424,35.60859,35.682465,35.76031,35.799862,35.760998,35.664963,35.50442,35.161774,34.703117,34.397644,34.19225,34.099754,34.121483,34.262596,34.49177,34.745564,34.93922,34.988876,34.984306,34.964073,34.924347,34.861763,34.80744,34.793793,34.806137,34.841034,34.873856,34.89853,34.911484,34.902782,34.867508,34.817726,34.76403,34.706833,34.66693,34.65306,34.66599,34.700256,34.738308,34.74995,34.71402,34.631943,34.527405,34.438656,34.39209,34.39368,34.442497,34.523422,34.55973,34.578415,34.611214,34.666786,34.743713,34.837883,34.912216,35.01035,35.137306,35.3074,35.52412,35.773426,36.035606,36.291615,36.56421,36.856876,37.16323,37.4807,37.750496,37.906963,38.072655,38.26091,38.44845,38.604366,38.661377,38.6296,38.603264,38.60346,38.70121,38.874725,39.03748,38.983047,38.783203,38.687485,38.59954,37.959503,38.091843,38.6949,38.474674,37.627144,34.0101,23.118765,13.134497,10.904909,10.801326,10.797028,10.771725,10.714636,10.719957,10.770935,10.816971,10.874019,10.947458,11.029187,11.109074,11.181993,11.24058,11.290358,11.330238,11.361086,11.385729,11.40736,11.428251,11.448753,11.469532,11.492021,11.515914,11.540852,11.566224,11.591028,11.614149,11.635848,11.6574545,11.679012,11.70026,11.720791,11.73995,11.757097,11.772406,11.787074,11.801249,11.813406,11.822756,11.829205,11.8327465,11.833977,11.833535,11.831413,11.828083,11.8239155,11.818993,11.813389,11.807396,11.800095,11.791009,11.779386,11.764992,11.747713,11.727773,11.706299,11.683781,11.658893,11.633644,11.609812,11.588496,11.570051,11.554047,11.5393715,11.525,11.511694,11.500187,11.491728,11.487142,11.485984,11.487469,11.49099,11.495199,11.49881,11.500677,11.501083,11.501417,11.502302,11.503516,11.505152,11.507574,11.509783,11.510937,11.511044,11.510065,11.50783,11.503395,11.496151,11.486332,11.47471,11.462197,11.4496975,11.437712,11.426056,11.414859,11.404318,11.394632,11.385946,11.378224,11.371125,11.364265,11.356277,11.346539,11.334717,11.321157,11.306621,11.291589,11.275824,11.257999,11.239143,11.219023,11.197345,11.174519,11.151144,11.12749,11.101458,11.075164,11.050756,11.030885,11.017418,11.010307,11.009256,11.014631,11.026398,11.042371,11.061269,11.082669,11.105021,11.126,11.145121,11.159985,11.166769
30.71746,30.855936,30.999378,31.144415,31.286697,31.421082,31.542261,31.664791,31.775826,31.875805,31.962677,32.038548,32.11135,32.18088,32.251,32.32628,32.40657,32.49373,32.584267,32.669304,32.74331,32.8099,32.869354,32.921288,32.967937,33.01251,33.054874,33.091354,33.12325,33.14258,33.147034,33.139812,33.129623,33.125134,33.130543,33.14709,33.17977,33.22336,33.272152,33.321476,33.368484,33.412354,33.45476,33.508972,33.578217,33.65963,33.75107,33.84262,33.921074,33.98375,34.036804,34.09056,34.15023,34.213608,34.28189,34.3556,34.426064,34.488617,34.546875,34.59748,34.63799,34.674778,34.71551,34.762108,34.817467,34.882935,34.95278,35.01893,35.078327,35.13389,35.191547,35.257133,35.34459,35.411736,35.477844,35.54931,35.617966,35.67485,35.71128,35.727383,35.725677,35.719955,35.733368,35.778725,35.852074,35.933266,35.976395,35.938896,35.844444,35.643173,35.264603,34.818756,34.523422,34.315758,34.22235,34.24398,34.384857,34.616455,34.87576,35.07664,35.139824,35.141563,35.12738,35.093792,35.03361,34.97769,34.960983,34.967285,34.995285,35.02159,35.039185,35.046036,35.03559,35.00435,34.962395,34.918907,34.87258,34.842087,34.83441,34.849815,34.883625,34.918873,34.923523,34.874825,34.78231,34.667477,34.566658,34.508102,34.50048,34.544926,34.638306,34.730705,34.778946,34.820175,34.892197,34.98758,35.099003,35.190163,35.303345,35.442436,35.6211,35.842262,36.092827,36.355125,36.606483,36.87877,37.174557,37.488045,37.80664,38.071976,38.234543,38.40783,38.605778,38.77642,38.920685,38.984085,38.960472,38.93296,38.926094,39.02279,39.188828,39.353966,39.32145,39.132175,39.01613,38.941387,38.550415,38.391113,38.859596,38.92669,37.901802,34.291252,25.587563,14.03368,11.040955,10.74941,10.762404,10.778032,10.741629,10.708395,10.744169,10.800667,10.853289,10.915722,10.991047,11.069145,11.143333,11.204691,11.256168,11.2969,11.327955,11.35252,11.373465,11.393047,11.413038,11.432594,11.454015,11.477268,11.5020485,11.527607,11.55282,11.576582,11.598913,11.620896,11.641762,11.661558,11.6804085,11.697952,11.713743,11.72787,11.741383,11.754265,11.7654915,11.77434,11.780613,11.7844715,11.786437,11.78699,11.786098,11.784122,11.781388,11.778027,11.774096,11.769694,11.764156,11.757179,11.74808,11.736641,11.722647,11.706063,11.687696,11.668072,11.6461315,11.6236725,11.602224,11.582794,11.565802,11.550951,11.537325,11.524075,11.511951,11.501562,11.493857,11.4893875,11.487628,11.487862,11.48948,11.491247,11.492181,11.491402,11.489116,11.486648,11.485038,11.483856,11.483031,11.482928,11.482462,11.480793,11.478073,11.474424,11.469681,11.462883,11.45351,11.441912,11.428928,11.415454,11.402334,11.389994,11.378188,11.367138,11.357058,11.347914,11.339769,11.332758,11.326458,11.319988,11.312595,11.303772,11.293245,11.281466,11.269233,11.256933,11.244389,11.230601,11.216366,11.201372,11.185087,11.167493,11.148862,11.129166,11.106378,11.082132,11.058073,11.036662,11.019872,11.007957,11.001264,10.99977,11.003914,11.012681,11.025196,11.041149,11.059448,11.0777235,11.095364,11.109524,11.116196
30.894764,31.039253,31.189304,31.339958,31.486895,31.625248,31.749065,31.87434,31.987198,32.0881,32.175446,32.250412,32.320198,32.38704,32.4543,32.527134,32.60484,32.68947,32.77775,32.86038,32.931458,32.99484,33.050438,33.097755,33.13816,33.17516,33.209675,33.23844,33.26356,33.276917,33.278763,33.27208,33.262512,33.25808,33.265305,33.284065,33.319305,33.365753,33.41773,33.4703,33.52026,33.566578,33.610855,33.665512,33.733616,33.81244,33.89758,33.982014,34.057114,34.117653,34.170177,34.22417,34.284843,34.349876,34.420265,34.49613,34.568375,34.632774,34.692924,34.745125,34.786835,34.82366,34.863087,34.908104,34.962036,35.027267,35.099426,35.170753,35.237816,35.301903,35.3676,35.441193,35.52437,35.59267,35.662117,35.735207,35.802925,35.856106,35.88575,35.896183,35.89045,35.88315,35.895798,35.939316,36.010696,36.092537,36.138138,36.105312,36.016106,35.785805,35.381195,34.943787,34.64917,34.439545,34.345284,34.3671,34.507454,34.740883,35.00454,35.21112,35.28975,35.296566,35.287106,35.256218,35.19673,35.140343,35.120895,35.120823,35.141834,35.160904,35.174576,35.180008,35.17074,35.145462,35.114197,35.08401,35.052464,35.03546,35.037117,35.057236,35.09359,35.13088,35.133575,35.079277,34.985588,34.86333,34.749382,34.679535,34.664703,34.707886,34.78537,34.917,34.992645,35.044205,35.1336,35.248352,35.37464,35.483475,35.612633,35.76465,35.951897,36.17623,36.42531,36.683662,36.9277,37.195736,37.48991,37.80532,38.118973,38.37545,38.543938,38.720306,38.92102,39.078125,39.208546,39.27343,39.257362,39.22479,39.20408,39.294563,39.447556,39.62664,39.63438,39.45421,39.30171,39.254036,39.17308,38.683956,38.926464,39.247528,38.221138,34.633545,27.461689,15.074136,11.267998,10.707735,10.702242,10.737356,10.763223,10.715502,10.7185135,10.770674,10.823843,10.879244,10.943895,11.015819,11.088789,11.151553,11.205808,11.249733,11.282857,11.308368,11.329722,11.349136,11.368246,11.387231,11.4079075,11.43054,11.455004,11.480528,11.505791,11.529375,11.5512085,11.572993,11.592981,11.611107,11.627874,11.643282,11.657089,11.669455,11.681409,11.693063,11.703526,11.712181,11.718855,11.723574,11.726692,11.728595,11.729242,11.72887,11.727764,11.726109,11.724012,11.721593,11.7183275,11.713976,11.707854,11.6996975,11.689188,11.676178,11.66135,11.645052,11.626299,11.606573,11.587166,11.569069,11.552883,11.5385895,11.525542,11.513052,11.501851,11.492414,11.485342,11.480856,11.478331,11.477089,11.476525,11.475544,11.473449,11.469767,11.46501,11.460581,11.457477,11.455134,11.453377,11.4512005,11.44802,11.443772,11.43864,11.432876,11.426312,11.417999,11.407532,11.395125,11.38143,11.367327,11.353771,11.341097,11.328964,11.3176155,11.307323,11.298184,11.29001,11.282545,11.275774,11.269125,11.261782,11.253332,11.243637,11.233268,11.223083,11.213376,11.204,11.194286,11.1848755,11.175411,11.165199,11.1538925,11.141478,11.127688,11.110796,11.091921,11.072046,11.053061,11.0365925,11.0229225,11.012924,11.006214,11.003514,11.005169,11.0104065,11.018933,11.0307255,11.043631,11.05645,11.066308,11.06942
31.057198,31.210648,31.36993,31.527893,31.679993,31.822405,31.94962,32.07798,32.193653,32.296555,32.384747,32.459785,32.52943,32.595562,32.66153,32.733162,32.80916,32.891624,32.977623,33.057816,33.126152,33.186836,33.239433,33.283268,33.319023,33.350365,33.378952,33.401894,33.42193,33.431137,33.43,33.42129,33.410736,33.406494,33.414818,33.43489,33.47172,33.5201,33.57451,33.62976,33.682278,33.730938,33.777073,33.83219,33.8993,33.97518,34.055237,34.134445,34.20645,34.26551,34.31848,34.374153,34.43782,34.506927,34.581955,34.662277,34.738228,34.80583,34.86876,34.922836,34.965775,35.00273,35.041115,35.08499,35.137978,35.20349,35.27827,35.354904,35.429276,35.50109,35.57302,35.649323,35.715958,35.779953,35.846916,35.914097,35.974716,36.02038,36.041588,36.046234,36.03733,36.026897,36.0375,36.08159,36.153717,36.23317,36.27868,36.253834,36.168755,35.91983,35.49942,35.0661,34.76876,34.55706,34.4619,34.484024,34.623413,34.857628,35.12341,35.333366,35.430588,35.44107,35.434914,35.40174,35.341484,35.287117,35.26513,35.261246,35.27669,35.290466,35.301994,35.309814,35.308105,35.294754,35.27684,35.258896,35.240433,35.23616,35.249752,35.278847,35.321472,35.36528,35.37149,35.319992,35.226517,35.101265,34.980644,34.901283,34.87681,34.912933,34.988358,35.125587,35.214745,35.281673,35.38782,35.520676,35.656128,35.781227,35.925186,36.089104,36.28378,36.50966,36.75411,37.003563,37.24017,37.501366,37.789745,38.10114,38.407425,38.655434,38.824226,38.999058,39.1956,39.34182,39.457073,39.522903,39.517403,39.476112,39.44249,39.5167,39.65547,39.84008,39.89776,39.749134,39.56121,39.527203,39.5511,38.91287,38.985977,39.445038,38.62139,35.444168,29.500793,16.289959,11.562778,10.6815815,10.633837,10.642828,10.720036,10.72753,10.7063465,10.729198,10.783231,10.840654,10.8980255,10.964241,11.034048,11.097089,11.153591,11.200617,11.2372875,11.265138,11.2875395,11.307964,11.327409,11.346718,11.36725,11.389617,11.413894,11.439274,11.464291,11.487442,11.508701,11.529234,11.547747,11.564064,11.578592,11.5916,11.603197,11.613581,11.623737,11.63386,11.6432495,11.651397,11.658122,11.663391,11.6673975,11.670422,11.672396,11.673433,11.673805,11.673741,11.67339,11.672859,11.67176,11.669918,11.666626,11.661583,11.654375,11.644719,11.633157,11.619906,11.604044,11.586735,11.569027,11.551937,11.536291,11.522331,11.509746,11.497949,11.487675,11.4793,11.473054,11.468802,11.465818,11.463419,11.461034,11.457745,11.45311,11.447014,11.440199,11.434076,11.429644,11.426241,11.423491,11.420535,11.41656,11.411324,11.405113,11.398321,11.390817,11.381689,11.370554,11.357645,11.343586,11.329197,11.315355,11.302378,11.289908,11.2781925,11.2675,11.257922,11.249313,11.241458,11.234333,11.22743,11.219984,11.211691,11.20252,11.19315,11.184505,11.176811,11.169935,11.163456,11.157955,11.153063,11.148041,11.142379,11.135815,11.127962,11.117463,11.104956,11.0908375,11.076313,11.062433,11.049345,11.038244,11.02854,11.021068,11.016123,11.014255,11.016136,11.021379,11.028376,11.035,11.038734,11.035923
31.219744,31.377953,31.541857,31.703888,31.859802,32.00601,32.136726,32.268074,32.38801,32.495262,32.58707,32.66494,32.736458,32.803284,32.86904,32.93979,33.0138,33.09336,33.176067,33.252968,33.318115,33.37594,33.425827,33.466927,33.499355,33.526848,33.551517,33.57064,33.58743,33.59379,33.588623,33.577797,33.566948,33.562546,33.57131,33.59188,33.62938,33.6786,33.73436,33.79122,33.84538,33.895767,33.943367,33.99893,34.06527,34.138794,34.215706,34.292152,34.362633,34.422005,34.477417,34.53689,34.605644,34.68074,34.76188,34.847656,34.927963,34.998928,35.064487,35.12004,35.163784,35.200665,35.238045,35.280952,35.33316,35.398758,35.47558,35.556507,35.636482,35.714645,35.788857,35.851677,35.90708,35.963806,36.02253,36.07926,36.129257,36.165825,36.180405,36.179962,36.167923,36.156067,36.166603,36.211494,36.284958,36.366158,36.413536,36.389725,36.305878,36.045704,35.615425,35.184044,34.883827,34.67088,34.575573,34.598343,34.73824,34.97307,35.23828,35.449883,35.564754,35.578697,35.575565,35.53838,35.47666,35.425056,35.400307,35.392113,35.404663,35.415924,35.42681,35.436653,35.440704,35.43708,35.430763,35.42514,35.420006,35.42861,35.453926,35.492535,35.543304,35.5961,35.610046,35.56568,35.4775,35.355316,35.23379,35.14911,35.117416,35.146854,35.217697,35.34964,35.44646,35.527405,35.647675,35.795334,35.937004,36.075394,36.23176,36.40603,36.6069,36.8332,37.071407,37.308937,37.537476,37.78916,38.068165,38.37038,38.666695,38.906006,39.070354,39.23929,39.425674,39.56691,39.66868,39.737064,39.746857,39.69574,39.658012,39.702652,39.830124,39.99617,40.102028,40.033684,39.841145,39.776825,39.788216,39.273857,39.128525,39.479992,38.957863,36.249878,30.778625,17.66286,12.009094,10.6958685,10.596034,10.538008,10.600258,10.699694,10.712498,10.711044,10.746045,10.797731,10.859293,10.9290905,10.990805,11.050896,11.107042,11.155241,11.193926,11.224382,11.249309,11.271357,11.2918,11.312113,11.333794,11.357206,11.382357,11.408188,11.433032,11.455656,11.47628,11.495634,11.513161,11.528471,11.541365,11.552238,11.56197,11.570765,11.579535,11.588519,11.597167,11.605043,11.611946,11.617767,11.622589,11.626578,11.629635,11.631771,11.633234,11.6342945,11.635139,11.635875,11.636224,11.636051,11.634653,11.631722,11.626806,11.619547,11.610374,11.599422,11.585803,11.570379,11.553993,11.537678,11.522429,11.508723,11.496571,11.485448,11.476109,11.468842,11.463578,11.459887,11.456938,11.454027,11.450674,11.446114,11.440101,11.432795,11.42506,11.418244,11.413271,11.409439,11.4062395,11.402807,11.398237,11.392241,11.385195,11.377621,11.369429,11.359759,11.348287,11.335232,11.321156,11.306782,11.292923,11.279886,11.267274,11.255318,11.244274,11.234251,11.225132,11.216735,11.209046,11.20162,11.193741,11.185225,11.176129,11.167223,11.159475,11.153032,11.147772,11.143456,11.140608,11.138889,11.137547,11.135975,11.133787,11.130541,11.125191,11.118025,11.109055,11.098917,11.088133,11.076691,11.065964,11.055224,11.045285,11.036421,11.029434,11.025423,11.024472,11.025519,11.02644,11.024485,11.015226
31.397066,31.558735,31.725695,31.890385,32.049038,32.19841,32.332825,32.467297,32.593285,32.707848,32.80667,32.890717,32.96689,33.036133,33.102604,33.172165,33.242996,33.317688,33.394913,33.46678,33.527515,33.581795,33.628845,33.667526,33.697464,33.72222,33.744038,33.7604,33.77495,33.779724,33.771435,33.756897,33.744156,33.739548,33.74746,33.767143,33.803787,33.852135,33.907486,33.964233,34.01849,34.069523,34.118015,34.173874,34.239742,34.311653,34.38729,34.463615,34.53521,34.598198,34.659668,34.72685,34.80442,34.88877,34.978447,35.071106,35.156685,35.23121,35.299305,35.35582,35.39974,35.435997,35.471764,35.512787,35.563107,35.6271,35.703644,35.786777,35.870422,35.943962,36.00078,36.05223,36.098236,36.14248,36.18611,36.22735,36.26375,36.290413,36.299614,36.296627,36.28505,36.27503,36.28853,36.336304,36.411377,36.493923,36.542778,36.520546,36.438484,36.17079,35.735367,35.308098,35.006287,34.79355,34.699127,34.72316,34.864273,35.099297,35.36389,35.57855,35.7071,35.724663,35.72428,35.683853,35.619972,35.569115,35.541077,35.52776,35.537056,35.545837,35.556602,35.569084,35.57936,35.585556,35.590385,35.59603,35.602867,35.622574,35.65767,35.70487,35.76316,35.823456,35.848083,35.817772,35.742115,35.631817,35.518982,35.437347,35.40503,35.432,35.501144,35.626858,35.71767,35.802597,35.936974,36.09694,36.240974,36.390453,36.557396,36.740425,36.9459,37.169765,37.398476,37.623634,37.842056,38.081963,38.348,38.63597,38.915714,39.141018,39.29943,39.456337,39.623215,39.76964,39.860935,39.924835,39.95237,39.903656,39.86236,39.869286,39.985214,40.143044,40.26413,40.24996,40.098133,39.998787,40.00991,39.677414,39.29923,39.443962,39.33893,37.314697,32.02681,19.425755,12.689242,10.786209,10.593231,10.468016,10.478097,10.5686655,10.669704,10.709617,10.724938,10.753844,10.80175,10.861309,10.932444,11.000786,11.054298,11.101105,11.142128,11.176451,11.204292,11.22813,11.250142,11.271944,11.295059,11.319613,11.345564,11.372116,11.397797,11.421211,11.442556,11.462362,11.479973,11.4948,11.506939,11.517024,11.525669,11.533252,11.541148,11.549693,11.558447,11.566845,11.574478,11.581192,11.587118,11.592421,11.597046,11.600536,11.602872,11.6045,11.605902,11.60721,11.608166,11.608619,11.607912,11.605772,11.6017885,11.595607,11.587581,11.577779,11.565296,11.550828,11.535059,11.519037,11.503946,11.4904785,11.478845,11.468618,11.460588,11.454998,11.451486,11.449326,11.447536,11.445278,11.442234,11.43781,11.431873,11.424786,11.4174595,11.411076,11.406467,11.402908,11.399859,11.396439,11.39166,11.385212,11.377565,11.36939,11.360713,11.350749,11.339228,11.326328,11.312508,11.298368,11.284641,11.271561,11.258677,11.246241,11.23455,11.223745,11.213771,11.20451,11.195971,11.187709,11.1790695,11.169964,11.160556,11.15168,11.144305,11.138494,11.133647,11.129902,11.128023,11.127844,11.128637,11.129694,11.130363,11.12948,11.126459,11.121639,11.114974,11.10684,11.097439,11.086621,11.075816,11.064148,11.052333,11.040676,11.030033,11.021535,11.015514,11.011625,11.007789,11.000884,10.988378
31.613073,31.775875,31.943008,32.107643,32.26681,32.41775,32.554905,32.69275,32.82515,32.94776,33.054787,33.146317,33.228123,33.30018,33.36744,33.43499,33.501183,33.569252,33.63909,33.704174,33.759335,33.809082,33.852577,33.88846,33.91616,33.938946,33.958977,33.97409,33.987843,33.99226,33.98384,33.967033,33.949783,33.941734,33.949333,33.967934,34.00326,34.050003,34.104042,34.159626,34.21291,34.263664,34.31239,34.36828,34.433487,34.504177,34.580864,34.660347,34.73551,34.804802,34.87509,34.952675,35.04139,35.136726,35.235817,35.335518,35.42617,35.503647,35.573666,35.63062,35.674423,35.71015,35.744614,35.78393,35.83263,35.894516,35.971447,36.052383,36.1251,36.184727,36.23359,36.275215,36.309704,36.33839,36.36435,36.38871,36.411407,36.429188,36.434944,36.431587,36.422188,36.41839,36.43673,36.48501,36.558846,36.640648,36.688515,36.665367,36.583107,36.30738,35.86769,35.445168,35.141098,34.928978,34.836033,34.861927,35.0048,35.24093,35.506767,35.725925,35.8653,35.887615,35.890602,35.850105,35.785553,35.7343,35.70356,35.686356,35.692924,35.700016,35.711433,35.726982,35.743332,35.758553,35.77307,35.788216,35.805077,35.833847,35.8768,35.931755,35.99624,36.060734,36.099022,36.08759,36.032764,35.943096,35.84754,35.777763,35.75248,35.783142,35.86753,35.956757,36.034225,36.131767,36.27722,36.443855,36.58032,36.737797,36.912422,37.101692,37.30897,37.52569,37.74017,37.952637,38.157734,38.38315,38.633568,38.90461,39.165184,39.37474,39.526623,39.669106,39.815186,39.962257,40.052948,40.10637,40.141342,40.12532,40.080757,40.060265,40.16198,40.31466,40.437317,40.460777,40.367844,40.249977,40.267822,40.15482,39.597,39.514423,39.503654,38.099525,34.145435,21.9044,13.801698,11.070277,10.683855,10.474333,10.412304,10.456263,10.556483,10.654305,10.694403,10.733767,10.782213,10.824585,10.879127,10.940466,10.997964,11.051542,11.097066,11.131936,11.158727,11.182642,11.2053385,11.228872,11.253714,11.279659,11.306562,11.33374,11.359865,11.383574,11.405137,11.424887,11.442046,11.455996,11.467028,11.476086,11.484009,11.491327,11.499292,11.508258,11.517862,11.527353,11.536072,11.543831,11.550829,11.557087,11.562447,11.566563,11.56949,11.571659,11.573328,11.574291,11.57483,11.574858,11.573778,11.571352,11.567223,11.561123,11.5534315,11.544144,11.532348,11.518175,11.502459,11.486355,11.4709,11.456939,11.445355,11.435802,11.429206,11.425741,11.424617,11.42469,11.42485,11.42412,11.42247,11.419493,11.41508,11.409615,11.403904,11.3989105,11.395368,11.392597,11.389882,11.386322,11.3811035,11.374041,11.365658,11.35672,11.347303,11.336607,11.324445,11.31107,11.296919,11.282587,11.268803,11.255677,11.24268,11.230082,11.218161,11.207022,11.196571,11.186697,11.177422,11.16832,11.158803,11.148878,11.138801,11.1294,11.121518,11.11512,11.10974,11.105358,11.102765,11.101927,11.102288,11.103186,11.103873,11.103406,11.1011715,11.097359,11.091872,11.084961,11.076677,11.06684,11.056835,11.04598,11.03509,11.024176,11.013832,11.005221,10.998174,10.990385,10.9787445,10.963615,10.943454
31.877518,32.038666,32.202225,32.363094,32.519638,32.66957,32.807205,32.94925,33.08739,33.21684,33.3311,33.429268,33.515976,33.589897,33.656895,33.72101,33.780823,33.84037,33.90094,33.957527,34.005745,34.049477,34.088028,34.119934,34.144913,34.166107,34.18554,34.20114,34.215836,34.221447,34.214912,34.19867,34.17953,34.168224,34.172787,34.188942,34.222733,34.26808,34.32077,34.374832,34.42656,34.476254,34.524384,34.57927,34.64434,34.716522,34.795654,34.878708,34.959785,35.03743,35.118393,35.20809,35.309044,35.41555,35.523216,35.62837,35.72249,35.8015,35.87262,35.92997,35.974236,36.010605,36.045227,36.084015,36.13212,36.192566,36.267258,36.336105,36.393326,36.44431,36.48831,36.520046,36.542496,36.556473,36.567146,36.578056,36.590897,36.603523,36.609062,36.607872,36.602654,36.602997,36.623558,36.671707,36.742805,36.818764,36.860535,36.831123,36.74339,36.45813,36.01198,35.58944,35.28254,35.0711,34.980232,35.00887,35.154373,35.39349,35.6634,35.888313,36.036125,36.065018,36.072605,36.03721,35.975372,35.922653,35.889126,35.86979,35.873283,35.878613,35.890617,35.908775,35.930004,35.952103,35.97332,35.99443,36.017334,36.051178,36.098495,36.158554,36.2287,36.29873,36.347126,36.357162,36.329796,36.269154,36.20083,36.154602,36.15062,36.203438,36.2642,36.324356,36.403465,36.52284,36.66571,36.803,36.943825,37.105804,37.284473,37.47704,37.679756,37.883984,38.0844,38.282436,38.472275,38.68231,38.917336,39.173042,39.41578,39.608727,39.752678,39.88497,40.01578,40.149803,40.24762,40.301727,40.33793,40.356422,40.31331,40.286804,40.373024,40.51761,40.63928,40.69036,40.651207,40.53369,40.56102,40.640427,40.049484,39.711075,39.617226,39.053795,37.234035,26.337696,16.011908,11.70817,10.896383,10.567114,10.4229355,10.394087,10.439943,10.537483,10.634968,10.697785,10.743123,10.794802,10.846071,10.889842,10.938076,10.988159,11.032753,11.068716,11.098845,11.12676,11.152213,11.174759,11.199988,11.226618,11.253944,11.28109,11.306641,11.329714,11.350942,11.370166,11.386526,11.399491,11.409515,11.417812,11.425518,11.433182,11.4418335,11.45174,11.462498,11.473265,11.483252,11.492172,11.5001545,11.507107,11.512745,11.516817,11.519472,11.521116,11.522007,11.522065,11.521521,11.520247,11.517725,11.513813,11.508278,11.500971,11.492346,11.48239,11.470087,11.4555,11.439283,11.422505,11.406312,11.391757,11.379918,11.370474,11.364523,11.362313,11.36291,11.364998,11.3673115,11.368587,11.3689575,11.368109,11.365921,11.362724,11.359121,11.3557825,11.353266,11.350924,11.348129,11.344057,11.337987,11.329832,11.32024,11.310133,11.299667,11.288042,11.275236,11.261549,11.2473955,11.233325,11.21998,11.207357,11.194864,11.182714,11.171155,11.160278,11.14998,11.140129,11.130741,11.121414,11.111631,11.101482,11.091349,11.081945,11.073845,11.066977,11.061038,11.055826,11.052061,11.049761,11.048557,11.047955,11.047283,11.0459385,11.043184,11.039104,11.033623,11.027044,11.019533,11.011045,11.002911,10.993341,10.981754,10.969152,10.956777,10.945674,10.935965,10.925856,10.912847,10.897247,10.877291
32.18851,32.34481,32.500458,32.65322,32.80312,32.948772,33.086758,33.23197,33.373447,33.50677,33.625793,33.728664,33.81827,33.8919,33.957344,34.016808,34.068893,34.1185,34.16835,34.21489,34.25456,34.29042,34.322243,34.348557,34.36992,34.389668,34.40947,34.42712,34.44439,34.452827,34.449394,34.435837,34.418575,34.40727,34.409393,34.424133,34.457115,34.501625,34.553177,34.605453,34.65496,34.702675,34.74936,34.80313,34.868126,34.942482,35.02421,35.111107,35.199764,35.28685,35.37887,35.480705,35.592976,35.708767,35.822376,35.929955,36.024796,36.103233,36.174084,36.23171,36.277115,36.315567,36.3524,36.392525,36.441803,36.50344,36.56762,36.62198,36.671394,36.718887,36.75482,36.776577,36.78875,36.791313,36.791138,36.793495,36.801167,36.812508,36.820503,36.823242,36.823105,36.825546,36.846092,36.892826,36.95864,37.024136,37.055176,37.014732,36.91677,36.620705,36.16539,35.737175,35.426437,35.21514,35.126194,35.157677,35.30607,35.54917,35.824768,36.05611,36.211044,36.249165,36.263855,36.237106,36.180496,36.127502,36.09332,36.07408,36.075294,36.079582,36.092422,36.112778,36.137367,36.163452,36.187668,36.21077,36.23529,36.27008,36.318447,36.381027,36.45622,36.533722,36.590706,36.621567,36.623405,36.596916,36.56486,36.55378,36.573837,36.62186,36.652237,36.718815,36.81308,36.929634,37.04855,37.162487,37.31247,37.474804,37.653633,37.84339,38.03672,38.22786,38.4151,38.597595,38.77259,38.968803,39.191505,39.43642,39.666546,39.84642,39.98335,40.11015,40.23288,40.352142,40.45685,40.521973,40.56508,40.606934,40.570427,40.551315,40.62457,40.75793,40.87733,40.946896,40.94718,40.845673,40.8741,41.028015,40.533455,40.02572,39.86429,40.04023,39.804405,31.360512,19.828602,13.330639,11.3641815,10.822735,10.555914,10.444458,10.422878,10.458369,10.554255,10.629387,10.686192,10.754028,10.809978,10.853315,10.886118,10.92113,10.957755,10.994312,11.029482,11.061672,11.089769,11.113311,11.141272,11.170222,11.19821,11.225473,11.251652,11.274793,11.294664,11.312623,11.327593,11.339192,11.348178,11.355923,11.363521,11.371304,11.380405,11.39089,11.402301,11.413841,11.424683,11.434343,11.442774,11.449989,11.455592,11.459177,11.46085,11.461103,11.460466,11.459259,11.457229,11.454119,11.449505,11.443399,11.435726,11.426456,11.41612,11.404722,11.391125,11.375728,11.358847,11.341333,11.324536,11.30967,11.297625,11.2880535,11.28218,11.280384,11.281807,11.285139,11.289005,11.291866,11.293921,11.294891,11.294727,11.293619,11.291866,11.289862,11.287996,11.285633,11.2823925,11.277694,11.270807,11.261633,11.250977,11.239935,11.228727,11.216634,11.2038,11.19051,11.177089,11.163982,11.15172,11.140318,11.129038,11.117962,11.107318,11.0972,11.087534,11.078231,11.069275,11.060303,11.050911,11.041086,11.030842,11.020987,11.012491,11.00512,10.998426,10.992104,10.986829,10.982637,10.979286,10.9764385,10.973507,10.969831,10.964663,10.958042,10.949948,10.940943,10.931629,10.922337,10.914356,10.905491,10.893319,10.879101,10.864662,10.850429,10.836875,10.826608,10.817202,10.808367,10.793968
32.535404,32.68373,32.827103,32.967472,33.10766,33.247444,33.385246,33.529057,33.670948,33.806328,33.92617,34.02843,34.1183,34.19165,34.25292,34.30536,34.34867,34.387993,34.426476,34.461792,34.491302,34.51744,34.54065,34.55965,34.576366,34.594482,34.61519,34.636055,34.657158,34.66986,34.67102,34.66136,34.647224,34.638878,34.643795,34.66082,34.69495,34.739773,34.79094,34.841843,34.889084,34.934464,34.979324,35.03261,35.096886,35.171715,35.256332,35.349068,35.446087,35.54249,35.64418,35.75595,35.876175,35.99714,36.112427,36.2184,36.310448,36.38572,36.454193,36.5112,36.55761,36.598824,36.63952,36.683083,36.7359,36.800182,36.851974,36.90047,36.94874,36.989933,37.019005,37.03304,37.03804,37.033325,37.02658,37.024193,37.029644,37.041496,37.05243,37.058914,37.062523,37.06816,37.088924,37.131203,37.188065,37.241528,37.260033,37.20696,37.097183,36.790466,36.32548,35.88871,35.57175,35.358932,35.270218,35.302994,35.45305,35.69916,35.97991,36.217693,36.37949,36.429928,36.455013,36.43876,36.38979,36.34093,36.310677,36.294334,36.29666,36.302673,36.317734,36.34044,36.367065,36.394253,36.418144,36.440136,36.46319,36.496613,36.5447,36.609215,36.688683,36.772774,36.841324,36.89044,36.918533,36.923965,36.92489,36.942085,36.97029,36.98229,37.029465,37.10989,37.204487,37.290356,37.38501,37.51606,37.661205,37.819374,37.994194,38.175022,38.35871,38.539776,38.71333,38.882088,39.045105,39.23124,39.446342,39.68515,39.910984,40.08767,40.220146,40.34336,40.463203,40.5798,40.687744,40.76067,40.817574,40.88147,40.85925,40.848633,40.910324,41.03117,41.144325,41.22228,41.25035,41.17106,41.18608,41.296112,40.961308,40.459496,40.226933,40.511993,40.627747,35.474068,25.787325,17.154871,12.793164,11.515078,10.97353,10.715098,10.591423,10.541838,10.54372,10.59898,10.67484,10.733919,10.781271,10.841593,10.873786,10.897339,10.923109,10.953284,10.984076,11.012518,11.038391,11.065139,11.095699,11.126228,11.154185,11.180973,11.20758,11.230701,11.24858,11.264694,11.278173,11.288419,11.2962265,11.303311,11.311001,11.319763,11.330036,11.34182,11.354071,11.365956,11.377058,11.387046,11.395651,11.40243,11.407288,11.4099045,11.410419,11.409395,11.407411,11.404765,11.401159,11.396238,11.389654,11.381552,11.371983,11.361016,11.349258,11.336695,11.321923,11.305174,11.286929,11.268148,11.250138,11.234184,11.22137,11.211298,11.205355,11.204019,11.206404,11.211092,11.216574,11.221125,11.225071,11.2280035,11.229416,11.229626,11.22904,11.227786,11.226212,11.223726,11.219959,11.214,11.205511,11.194832,11.18289,11.170914,11.159109,11.146805,11.134282,11.121759,11.109441,11.097565,11.086312,11.07535,11.064386,11.053327,11.0424,11.031744,11.02137,11.011328,11.001644,10.991978,10.982088,10.971814,10.960627,10.949448,10.939825,10.931253,10.923035,10.914711,10.907045,10.900171,10.894033,10.888621,10.883589,10.877911,10.870428,10.860996,10.849676,10.83737,10.825176,10.813864,10.804672,10.797255,10.789633,10.781156,10.772588,10.763584,10.753321,10.744911,10.737427,10.733131,10.721666
