14.222316,14.2139435,14.206473,14.199234,14.192159,14.185183,14.1782,14.171292,14.164639,14.158357,14.152363,14.146213,14.139994,14.133696,14.127335,14.121006,14.114794,14.108803,14.102287,14.09526,14.087789,14.079721,14.071526,14.064296,14.0580435,14.052269,14.046292,14.04018,14.034041,14.028259,14.023426,14.019603,14.015999,14.012142,14.007599,14.002319,13.996801,13.991724,13.987497,13.984343,13.981501,13.979041,13.976776,13.974527,13.972409,13.970631,13.968815,13.9668255,13.964373,13.961332,13.957948,13.954574,13.951482,13.949005,13.946794,13.944327,13.941028,13.936481,13.930858,13.925026,13.920092,13.916053,13.913122,13.910946,13.909098,13.907326,13.905657,13.904397,13.903622,13.903334,13.903385,13.9035,13.903448,13.903273,13.903252,13.903585,13.904631,13.90609,13.907566,13.908617,13.908789,13.907926,13.906539,13.904861,13.903187,13.902015,13.901493,13.901573,13.902222,13.90329,13.904806,13.906584,13.908005,13.908415,13.90736,13.905018,13.902254,13.899858,13.898303,13.898325,13.899946,13.902701,13.906147,13.909979,13.914027,13.918747,13.92357,13.927813,13.930714,13.931901,13.931613,13.930605,13.929066,13.92741,13.926056,13.925016,13.924202,13.923677,13.923301,13.923004,13.922848,13.922858,13.923115,13.923651,13.924482,13.925629,13.927065,13.929074,13.931643,13.9345,13.937249,13.939534,13.941175,13.942427,13.943756,13.945417,13.947622,13.950277,13.953032,13.955618,13.95801,13.960305,13.962648,13.964876,13.966858,13.968513,13.969821,13.970865,13.971735,13.97242,13.973011,13.973503,13.973974,13.974552,13.975146,13.975636,13.976149,13.976571,13.976838,13.976998,13.977177,13.977488,13.978033,13.978946,13.98027,13.98182,13.98344,13.985222,13.987279,13.989624,13.992512,13.995699,13.998833,14.001488,14.003383,14.0045395,14.005335,14.006115,14.007223,14.008663,14.010235,14.011713,14.012985,14.01409,14.0153475,14.016946,14.0187435,14.020393,14.021566,14.022209,14.022519,14.022753,14.023153,14.023874,14.024833,14.025843,14.02672,14.027367,14.027777,14.028146,14.0285845,14.029381,14.030749,14.032614,14.034705,14.036684,14.038625,14.040596,14.0426655,14.045004,14.047543,14.049938,14.051981,14.053708,14.055437,14.057369,14.0595875,14.062057,14.064514,14.066612,14.068407,14.070007,14.071397,14.072616,14.073786,14.074848,14.075646,14.076496,14.077711,14.0794935,14.082024,14.085077,14.088236,14.0911665,14.093784,14.096296,14.098984,14.102014,14.105451,14.109227,14.1132,14.117302,14.1217785,14.127081,14.132932,14.139002,14.145013,14.150655,14.155727,14.1605015,14.165485,14.170806,14.176678,14.183359,14.190735,14.1981945,14.205484,14.212739,14.219968,14.22707,14.234068,14.240789,14.246917,14.252584,14.258111,14.263449,14.268434,14.272886,14.276735,14.280114,14.283258,14.286451,14.290018,14.293841,14.297848,14.302078,14.306952,14.313059,14.3199005,14.327689,14.334731,14.34024,14.3442745,14.347258,14.349782,14.352562,14.3558855,14.359346,14.362879,14.366473,14.370183,14.374119,14.378033,14.381922,14.3853445,14.388214,14.390885,14.393806,14.397222,14.401073,14.405703,14.410959,14.416928,14.423555,14.431131,14.43984,14.448961
14.121824,14.113407,14.105795,14.098395,14.09115,14.084005,14.076924,14.070033,14.0634575,14.05725,14.05132,14.045147,14.038813,14.032322,14.02576,14.019306,14.0130625,14.007099,14.000683,13.993786,13.98645,13.978506,13.970432,13.963354,13.95729,13.951765,13.946045,13.940187,13.934324,13.928856,13.924395,13.920986,13.917839,13.9144945,13.910496,13.905735,13.900652,13.895902,13.891884,13.888811,13.885964,13.88339,13.88089,13.878305,13.875796,13.873631,13.871531,13.86931,13.866732,13.863645,13.860264,13.856939,13.853933,13.851614,13.849633,13.847468,13.84454,13.840335,13.834934,13.829219,13.82431,13.820284,13.817426,13.815418,13.813799,13.812235,13.810677,13.809415,13.808562,13.808105,13.807924,13.807798,13.807519,13.807144,13.806969,13.807154,13.807979,13.809149,13.8102865,13.811012,13.810941,13.809961,13.808554,13.806953,13.805458,13.804508,13.804186,13.8043995,13.805117,13.806225,13.807842,13.809782,13.811398,13.811984,13.811066,13.8088665,13.806333,13.80431,13.803272,13.803851,13.805958,13.809019,13.8125305,13.816222,13.820031,13.824372,13.828797,13.832712,13.835378,13.83643,13.836095,13.835007,13.833397,13.831667,13.830254,13.829242,13.828569,13.828256,13.828146,13.828094,13.828138,13.828247,13.828444,13.82878,13.829357,13.830258,13.831463,13.833281,13.835691,13.838386,13.840929,13.842957,13.844307,13.845232,13.846228,13.847572,13.84947,13.851839,13.854318,13.856596,13.858658,13.860592,13.86256,13.864483,13.866247,13.867786,13.869083,13.870162,13.871097,13.871885,13.872595,13.873215,13.873838,13.874595,13.875402,13.8761635,13.877016,13.877796,13.878399,13.878845,13.87924,13.879709,13.880378,13.881412,13.882865,13.884546,13.886272,13.888102,13.890133,13.892327,13.894978,13.897884,13.900767,13.903301,13.90526,13.906628,13.9077,13.908813,13.910281,13.912104,13.914066,13.915903,13.9174795,13.918833,13.920273,13.92199,13.923872,13.925539,13.926647,13.927192,13.927425,13.927635,13.928154,13.929173,13.930563,13.932051,13.933367,13.934321,13.934896,13.935323,13.935703,13.936353,13.937542,13.939234,13.941166,13.943031,13.944873,13.946733,13.948666,13.950817,13.953153,13.955409,13.957403,13.959177,13.96106,13.963209,13.965696,13.968449,13.971174,13.973497,13.97542,13.977028,13.978301,13.97933,13.98031,13.98122,13.981874,13.982599,13.983661,13.985258,13.987613,13.990483,13.99343,13.996136,13.9985485,14.000828,14.003286,14.006139,14.009447,14.013159,14.017149,14.021276,14.025754,14.030991,14.0366535,14.0424385,14.048145,14.053526,14.058395,14.063063,14.067976,14.0731945,14.078905,14.085305,14.092274,14.09931,14.106258,14.113268,14.120396,14.127491,14.1345415,14.141328,14.147451,14.15301,14.158373,14.163473,14.168235,14.1725445,14.176331,14.179688,14.1828,14.185936,14.189409,14.193125,14.197048,14.201242,14.206108,14.2122,14.219011,14.226776,14.233839,14.239372,14.243437,14.246487,14.249105,14.251982,14.255484,14.259129,14.262827,14.266598,14.270521,14.27471,14.278983,14.283382,14.287439,14.291008,14.294338,14.297798,14.301601,14.305675,14.310356,14.315521,14.321276,14.327618,14.334886,14.343292,14.352131
14.030711,14.022195,14.014397,14.006779,13.9992485,13.991772,13.984375,13.977213,13.970392,13.963947,13.95776,13.951234,13.94449,13.93758,13.930655,13.923975,13.917679,13.911765,13.905531,13.898888,13.8918495,13.884213,13.87645,13.869707,13.863974,13.858827,13.853468,13.847948,13.842394,13.837231,13.833096,13.830043,13.827253,13.824306,13.820721,13.816338,13.811559,13.807028,13.803139,13.800108,13.797227,13.794542,13.791824,13.788928,13.78605,13.7835045,13.781118,13.778687,13.776012,13.772919,13.769594,13.766378,13.763546,13.761465,13.759804,13.7580185,13.755545,13.751786,13.746729,13.74124,13.736481,13.732576,13.729883,13.728132,13.726795,13.725451,13.723993,13.722662,13.721631,13.720871,13.720303,13.719744,13.719032,13.718253,13.717714,13.717535,13.71793,13.718623,13.719281,13.719585,13.719231,13.718149,13.716747,13.715279,13.71401,13.7133465,13.713282,13.713676,13.71453,13.715757,13.71759,13.719845,13.72183,13.722773,13.722154,13.720227,13.71803,13.716426,13.715898,13.71697,13.719463,13.722717,13.726185,13.729639,13.733094,13.736929,13.740807,13.744227,13.746506,13.747332,13.74694,13.74581,13.744177,13.742452,13.741053,13.740113,13.739602,13.739515,13.739671,13.739872,13.740105,13.7403145,13.740468,13.740612,13.740926,13.741543,13.742489,13.744083,13.746304,13.748808,13.751133,13.752901,13.753971,13.754599,13.755272,13.756303,13.757902,13.759996,13.762205,13.764191,13.765936,13.767536,13.769158,13.770798,13.772354,13.773747,13.774965,13.775982,13.776897,13.777702,13.778466,13.779159,13.779865,13.780742,13.781712,13.782703,13.78385,13.784967,13.785927,13.786715,13.787418,13.788155,13.789074,13.790328,13.791988,13.7938595,13.795754,13.797697,13.79973,13.801842,13.804316,13.807005,13.809713,13.812198,13.814272,13.815903,13.81733,13.818875,13.820814,13.823149,13.825655,13.828018,13.830042,13.831771,13.833494,13.835393,13.837363,13.8390045,13.839983,13.840357,13.840445,13.840553,13.841088,13.842271,13.843911,13.845671,13.8472,13.848223,13.848728,13.848949,13.848993,13.849222,13.849949,13.85117,13.852667,13.854191,13.855717,13.857313,13.859009,13.860924,13.863052,13.8651905,13.867176,13.869077,13.87122,13.8737545,13.876744,13.880081,13.883411,13.886319,13.888735,13.890705,13.892196,13.89332,13.894332,13.895229,13.895821,13.896473,13.897401,13.89885,13.901075,13.9038315,13.906671,13.909292,13.911633,13.913868,13.916319,13.919207,13.922588,13.926445,13.930664,13.935019,13.939712,13.945091,13.950769,13.9564705,13.9620495,13.967304,13.972082,13.97672,13.981587,13.986692,13.99217,13.998152,14.004516,14.010904,14.017222,14.023659,14.030296,14.036978,14.043672,14.050139,14.055959,14.061205,14.066244,14.071034,14.075556,14.079748,14.083521,14.086899,14.090055,14.093231,14.096708,14.100427,14.104368,14.108591,14.1134815,14.11958,14.126337,14.134043,14.141085,14.146625,14.15073,14.153882,14.156658,14.1596775,14.163389,14.167225,14.171082,14.174998,14.179081,14.183485,14.188105,14.192976,14.197634,14.201878,14.205854,14.209856,14.214062,14.218393,14.223179,14.228287,14.233849,14.239882,14.246762,14.254763,14.26319
13.948515,13.939902,13.931945,13.924118,13.916309,13.908493,13.90074,13.8932085,13.8860035,13.87916,13.872549,13.865534,13.858267,13.850881,13.843584,13.836679,13.830353,13.824543,13.818567,13.812262,13.805622,13.798401,13.791054,13.784746,13.779424,13.7747,13.769737,13.764533,13.759242,13.754322,13.750416,13.747587,13.745031,13.742326,13.738977,13.734814,13.730217,13.725807,13.721971,13.718927,13.716007,13.7132225,13.710342,13.707207,13.704014,13.701132,13.698483,13.695851,13.693088,13.690002,13.686742,13.683641,13.680986,13.67914,13.677806,13.676385,13.67433,13.671007,13.666311,13.661083,13.656561,13.652856,13.650433,13.649022,13.648027,13.646931,13.645563,13.644142,13.642899,13.641819,13.64086,13.639871,13.6387205,13.637506,13.636524,13.635906,13.635786,13.635937,13.63609,13.63598,13.635357,13.634185,13.632814,13.631464,13.630399,13.62997,13.630099,13.6306305,13.631607,13.632967,13.635008,13.63759,13.6399555,13.641281,13.640989,13.639324,13.637428,13.636145,13.635979,13.637392,13.64012,13.643471,13.646894,13.650158,13.653321,13.656705,13.660023,13.662853,13.66461,13.665079,13.664537,13.663336,13.661665,13.659937,13.658514,13.6575775,13.657146,13.657173,13.657458,13.657813,13.658146,13.658397,13.658493,13.658487,13.658623,13.659055,13.659845,13.66132,13.663466,13.665901,13.66812,13.66975,13.670635,13.671032,13.671441,13.672176,13.673475,13.675278,13.6772,13.678898,13.680373,13.68168,13.683028,13.684439,13.685827,13.687101,13.68824,13.689213,13.690101,13.690925,13.691733,13.692489,13.693268,13.694229,13.695314,13.696479,13.697842,13.699194,13.700407,13.701464,13.702429,13.703421,13.704596,13.706112,13.70799,13.710041,13.712077,13.71409,13.716104,13.718117,13.720408,13.722898,13.725437,13.727856,13.7300205,13.731875,13.733604,13.735531,13.737911,13.740757,13.743824,13.746753,13.749304,13.751468,13.75355,13.755699,13.757783,13.759413,13.760273,13.760458,13.76038,13.760372,13.760881,13.76215,13.763947,13.765875,13.767527,13.7685585,13.768938,13.768943,13.76866,13.768482,13.768747,13.769478,13.770511,13.771653,13.772839,13.774141,13.775604,13.777312,13.779257,13.781298,13.783293,13.785304,13.78768,13.790565,13.794046,13.79801,13.802036,13.80564,13.808655,13.811129,13.812998,13.814362,13.815502,13.816439,13.816982,13.817542,13.818311,13.81959,13.821674,13.824315,13.827064,13.829643,13.83198,13.834253,13.836779,13.83976,13.843253,13.847256,13.851662,13.856214,13.861107,13.866631,13.872337,13.877964,13.88343,13.888578,13.89328,13.897874,13.902691,13.90765,13.912867,13.918417,13.924175,13.929895,13.935551,13.941338,13.947395,13.953562,13.959779,13.965813,13.971254,13.976149,13.980875,13.985422,13.989803,13.993969,13.997805,14.001265,14.004496,14.007762,14.011316,14.015139,14.019213,14.023579,14.028598,14.03477,14.041545,14.049238,14.056286,14.061855,14.066025,14.069296,14.07222,14.075391,14.079283,14.083282,14.087267,14.091289,14.095486,14.100049,14.104921,14.110165,14.115284,14.120038,14.124481,14.128849,14.1333275,14.137829,14.142637,14.147653,14.152997,14.158674,14.165107,14.172636,14.180575
13.864466,13.855826,13.847786,13.83988,13.831899,13.823867,13.8158655,13.808026,13.800442,13.793187,13.78611,13.778567,13.770747,13.762873,13.755217,13.748119,13.741802,13.736178,13.7305565,13.724718,13.718613,13.711954,13.705159,13.699381,13.694563,13.69031,13.685759,13.680847,13.67576,13.671002,13.667207,13.664486,13.662041,13.659451,13.656208,13.652156,13.647665,13.643322,13.639515,13.636456,13.633522,13.630703,13.627729,13.624432,13.620995,13.617789,13.614864,13.6120205,13.609137,13.606026,13.602814,13.599817,13.597334,13.59573,13.594743,13.593755,13.592188,13.589361,13.585111,13.580267,13.576104,13.572729,13.570696,13.569725,13.569128,13.568304,13.567053,13.565573,13.564089,13.562672,13.561317,13.559916,13.558351,13.556719,13.555302,13.5542145,13.553562,13.553165,13.552828,13.552351,13.551532,13.550333,13.549,13.547762,13.546848,13.546579,13.546812,13.547382,13.548389,13.549785,13.551917,13.554726,13.557399,13.559053,13.559071,13.5576725,13.55603,13.555002,13.555096,13.556729,13.559588,13.56295,13.566283,13.569385,13.57227,13.575194,13.577875,13.58,13.581124,13.5811615,13.580452,13.579218,13.577586,13.575932,13.57453,13.573568,13.573109,13.573096,13.573358,13.573665,13.573929,13.574089,13.574059,13.573896,13.573888,13.5742035,13.574945,13.576413,13.578611,13.581129,13.583422,13.585063,13.585906,13.586178,13.586402,13.586895,13.5879135,13.5894165,13.59104,13.592461,13.593671,13.594735,13.595848,13.597078,13.598326,13.599478,13.600527,13.6014385,13.602276,13.603096,13.603924,13.604712,13.605539,13.60655,13.607721,13.609011,13.610523,13.612048,13.613438,13.614674,13.615848,13.617077,13.618496,13.620271,13.622383,13.624636,13.6268215,13.628908,13.630912,13.632837,13.634974,13.637272,13.639639,13.641968,13.6441555,13.646136,13.648071,13.650288,13.653051,13.656368,13.659977,13.663491,13.666619,13.669287,13.671793,13.674252,13.676498,13.678141,13.678886,13.678895,13.67866,13.678525,13.678989,13.680298,13.682188,13.684219,13.68593,13.686923,13.687195,13.687004,13.686447,13.685913,13.6857605,13.686037,13.686614,13.6873665,13.688239,13.689291,13.69058,13.692138,13.693953,13.695938,13.697928,13.700033,13.702599,13.705767,13.709682,13.7142315,13.718939,13.723249,13.726891,13.729939,13.732273,13.7339735,13.735323,13.736345,13.736846,13.737277,13.737857,13.738929,13.740829,13.743326,13.74598,13.748509,13.750854,13.753181,13.7558,13.758877,13.762449,13.76652,13.771009,13.775681,13.780686,13.786297,13.791994,13.797516,13.802835,13.807856,13.812477,13.817005,13.821718,13.826506,13.831429,13.836502,13.841621,13.846661,13.851642,13.856789,13.862246,13.8678875,13.873646,13.879271,13.884371,13.888973,13.893449,13.8978405,13.902146,13.90633,13.910233,13.913746,13.91704,13.920386,13.924059,13.928071,13.932387,13.937013,13.942271,13.948591,13.9554615,13.963186,13.970234,13.975804,13.979999,13.983347,13.986385,13.989687,13.993726,13.99789,14.002007,14.0061035,14.010357,14.015032,14.020105,14.025642,14.031113,14.036234,14.040987,14.045555,14.050146,14.0546875,14.059431,14.064305,14.069376,14.0746765,14.08066,14.087669,14.095064
13.77896,13.770409,13.762411,13.75457,13.746565,13.7384815,13.730421,13.722469,13.714695,13.707199,13.699833,13.69195,13.683779,13.675613,13.667774,13.660616,13.654385,13.649004,13.643755,13.6383915,13.632809,13.626665,13.620342,13.614983,13.610512,13.606537,13.6021805,13.597328,13.592186,13.587305,13.583351,13.580446,13.577839,13.5750885,13.571711,13.567545,13.562956,13.558537,13.554661,13.551528,13.548567,13.545721,13.54268,13.539225,13.535519,13.531965,13.528714,13.525595,13.522545,13.519377,13.5161915,13.513294,13.510982,13.509609,13.508963,13.508415,13.507389,13.505161,13.501499,13.497183,13.493494,13.490556,13.488956,13.4884205,13.48819,13.4875965,13.486419,13.484837,13.4831085,13.481361,13.479656,13.477917,13.476027,13.474054,13.472271,13.470779,13.469664,13.468802,13.468059,13.467283,13.4663105,13.465092,13.463779,13.4626,13.46177,13.461571,13.461809,13.462322,13.463252,13.464553,13.466618,13.469477,13.472279,13.474113,13.474325,13.473089,13.471588,13.470672,13.4707985,13.4724045,13.475151,13.478328,13.481451,13.484325,13.486912,13.489369,13.491414,13.492828,13.493298,13.492876,13.491953,13.490662,13.489052,13.487463,13.486051,13.484997,13.4844055,13.484222,13.484295,13.4844265,13.484514,13.484505,13.484313,13.4840145,13.483911,13.48419,13.484942,13.486485,13.488827,13.491514,13.493956,13.495703,13.496569,13.496789,13.496871,13.497139,13.497873,13.499067,13.500397,13.50155,13.50252,13.503381,13.504314,13.505398,13.506548,13.507631,13.508619,13.509512,13.510351,13.5111885,13.512034,13.51284,13.5136795,13.514704,13.515906,13.5172415,13.51881,13.520414,13.521904,13.523289,13.524694,13.526217,13.527972,13.530111,13.532572,13.535148,13.537621,13.539923,13.542063,13.544057,13.546186,13.548417,13.550673,13.552883,13.554972,13.556887,13.5588,13.561064,13.5639305,13.567453,13.571371,13.575261,13.578783,13.581822,13.584642,13.587321,13.589662,13.591272,13.591889,13.5917225,13.59132,13.591053,13.5914135,13.592666,13.594528,13.59654,13.598219,13.599151,13.599331,13.599018,13.598299,13.597557,13.597147,13.59712,13.597372,13.597839,13.598476,13.599354,13.600529,13.601997,13.603741,13.605682,13.607666,13.609813,13.612471,13.615822,13.620028,13.624996,13.63023,13.63508,13.639244,13.642785,13.645563,13.647633,13.649237,13.65039,13.650913,13.651258,13.651688,13.652594,13.654333,13.656704,13.659288,13.661815,13.664217,13.666672,13.669443,13.672642,13.676275,13.680355,13.684839,13.689514,13.694527,13.700136,13.705767,13.711165,13.716337,13.721217,13.725744,13.730201,13.734791,13.739393,13.744017,13.748644,13.753201,13.757647,13.762038,13.766623,13.771576,13.7768,13.7822,13.787523,13.79241,13.796847,13.8012085,13.805578,13.809907,13.814135,13.818089,13.821637,13.824977,13.828428,13.832298,13.83662,13.841329,13.846354,13.851931,13.858455,13.865431,13.873144,13.880154,13.885676,13.889845,13.893213,13.896303,13.899683,13.903819,13.908098,13.912321,13.91649,13.920807,13.9255905,13.930824,13.936592,13.942326,13.947669,13.952534,13.957091,13.961588,13.966005,13.970606,13.975331,13.980224,13.985292,13.990971,13.997602,14.004587
13.693474,13.685223,13.677502,13.669939,13.662161,13.654297,13.646458,13.638691,13.631035,13.623595,13.616242,13.608327,13.600107,13.591944,13.584166,13.577108,13.571047,13.565935,13.561017,13.5560465,13.550877,13.545107,13.539068,13.53388,13.529475,13.525459,13.520985,13.51591,13.510437,13.505144,13.50074,13.497354,13.494301,13.491125,13.487385,13.4829,13.478041,13.473434,13.469427,13.466202,13.463247,13.460414,13.457329,13.453714,13.449705,13.445767,13.442144,13.438698,13.435423,13.43215,13.428962,13.426143,13.423976,13.422819,13.422466,13.422325,13.421848,13.420294,13.417345,13.413683,13.410543,13.408089,13.406898,13.406717,13.406763,13.406328,13.405173,13.40349,13.401548,13.399555,13.397616,13.395685,13.393634,13.391495,13.389513,13.387789,13.386376,13.38522,13.384219,13.383252,13.382175,13.380936,13.379608,13.378412,13.377563,13.377306,13.377415,13.377738,13.3784485,13.3795,13.381289,13.383945,13.386612,13.388397,13.388628,13.387415,13.385914,13.38492,13.384848,13.386139,13.388499,13.391281,13.39405,13.396608,13.398848,13.40086,13.402341,13.403133,13.403057,13.402264,13.401167,13.399855,13.398294,13.3967705,13.395346,13.394157,13.393333,13.392861,13.392603,13.392426,13.392227,13.3919735,13.391589,13.391165,13.390997,13.391283,13.392098,13.393772,13.396318,13.399243,13.401903,13.40383,13.404794,13.405022,13.405024,13.405117,13.405608,13.406531,13.407595,13.408512,13.409294,13.41,13.410807,13.41179,13.412878,13.413942,13.414932,13.415859,13.416748,13.417641,13.418524,13.4193325,13.42015,13.421131,13.422279,13.423578,13.4251,13.426676,13.428194,13.429712,13.431382,13.433268,13.435448,13.438079,13.441027,13.444099,13.447048,13.449774,13.452276,13.454548,13.456886,13.459247,13.461513,13.4636135,13.465494,13.467129,13.468759,13.470747,13.4733715,13.476738,13.480606,13.484535,13.48816,13.491321,13.494255,13.497,13.499321,13.500843,13.50132,13.500978,13.50041,13.499981,13.500183,13.501269,13.502977,13.504852,13.506418,13.507278,13.507427,13.507124,13.506446,13.505724,13.505306,13.505248,13.505431,13.505842,13.506443,13.507315,13.508511,13.510017,13.5117855,13.51373,13.515707,13.517839,13.520473,13.523832,13.528094,13.533182,13.538605,13.543681,13.548066,13.551868,13.554928,13.557268,13.559077,13.560328,13.56086,13.561112,13.561384,13.562117,13.563682,13.565905,13.568403,13.570915,13.573376,13.575958,13.578882,13.582185,13.585823,13.589809,13.594143,13.598675,13.603556,13.609034,13.614519,13.619747,13.624748,13.629492,13.633918,13.638289,13.642761,13.647202,13.651583,13.655872,13.660028,13.6640625,13.668065,13.6722975,13.676987,13.682035,13.68732,13.692581,13.697479,13.701973,13.706451,13.710995,13.71549,13.719841,13.723858,13.727427,13.730826,13.734409,13.738552,13.743294,13.748518,13.754042,13.759982,13.766704,13.773727,13.781343,13.788212,13.793581,13.797602,13.800863,13.80389,13.807247,13.81137,13.815655,13.819914,13.824118,13.828468,13.833338,13.838683,13.844627,13.850534,13.85598,13.860813,13.865202,13.869455,13.873639,13.87808,13.882746,13.887658,13.892752,13.898394,13.904909,13.911713
13.60897,13.601227,13.59399,13.586887,13.579538,13.572099,13.564674,13.557295,13.549976,13.54281,13.535682,13.527947,13.519896,13.511925,13.504351,13.497491,13.49162,13.486732,13.482029,13.477301,13.472378,13.466803,13.460848,13.455618,13.451054,13.446753,13.441959,13.436502,13.430555,13.424719,13.419723,13.415723,13.412097,13.408392,13.404203,13.399333,13.394166,13.389365,13.385254,13.38201,13.379147,13.376413,13.37336,13.3696375,13.365353,13.361061,13.357069,13.353281,13.349754,13.346352,13.343147,13.340387,13.338325,13.337332,13.337192,13.337383,13.3373995,13.336498,13.334285,13.331294,13.328683,13.326654,13.325758,13.325796,13.325996,13.325632,13.324467,13.322702,13.320581,13.318407,13.316317,13.314291,13.312195,13.310032,13.308,13.306203,13.304672,13.3033905,13.302285,13.301237,13.300108,13.298845,13.297472,13.296197,13.295246,13.294834,13.2947235,13.294763,13.295141,13.295824,13.297174,13.2994175,13.301729,13.303282,13.303421,13.302191,13.300667,13.299562,13.299229,13.3001,13.301955,13.304226,13.306513,13.308634,13.310426,13.311933,13.312864,13.313122,13.312632,13.31161,13.310442,13.3091955,13.307779,13.306414,13.30508,13.303849,13.302845,13.302104,13.301523,13.301028,13.300552,13.300058,13.299508,13.298988,13.298775,13.299068,13.299938,13.30172,13.304435,13.307571,13.310451,13.312561,13.313653,13.313938,13.313929,13.313924,13.314245,13.314964,13.315828,13.31658,13.317236,13.317854,13.318583,13.319508,13.32057,13.321642,13.322687,13.323696,13.324668,13.325641,13.326569,13.3273735,13.328142,13.329047,13.330101,13.331312,13.332729,13.334223,13.3357315,13.337374,13.339313,13.341564,13.344183,13.347318,13.350786,13.354386,13.357864,13.361084,13.364046,13.366703,13.369384,13.371993,13.374363,13.376389,13.378014,13.379251,13.380451,13.381964,13.384132,13.387087,13.3906355,13.394356,13.39786,13.400948,13.403845,13.406534,13.408773,13.410196,13.4105625,13.410109,13.409431,13.4088745,13.408944,13.409843,13.411351,13.413051,13.4144745,13.415262,13.415422,13.415193,13.414646,13.414053,13.413747,13.413792,13.414053,13.414538,13.415234,13.416226,13.417559,13.419212,13.421114,13.423141,13.425161,13.42729,13.4298725,13.433153,13.437314,13.442275,13.447561,13.452528,13.456823,13.460604,13.463726,13.466181,13.468086,13.469362,13.469854,13.469996,13.47011,13.470671,13.472061,13.474138,13.476553,13.479046,13.4815445,13.48423,13.487254,13.490596,13.494167,13.497961,13.5020275,13.506312,13.510968,13.516245,13.521559,13.526623,13.531479,13.536127,13.540482,13.544796,13.549187,13.553518,13.557746,13.561821,13.565725,13.569509,13.57328,13.577333,13.5819235,13.586962,13.592297,13.597647,13.602676,13.607358,13.612076,13.616871,13.621575,13.626047,13.630085,13.633636,13.637068,13.640776,13.645202,13.650385,13.656137,13.662145,13.6684,13.675226,13.682194,13.68958,13.696201,13.701321,13.705109,13.708184,13.711069,13.714342,13.718389,13.72263,13.726906,13.7311535,13.73556,13.74053,13.745986,13.752088,13.758142,13.76365,13.768419,13.772621,13.776627,13.780604,13.784959,13.789701,13.794811,13.800126,13.805928,13.812503,13.819267
13.527246,13.520119,13.513439,13.506865,13.499985,13.492986,13.485981,13.478996,13.472042,13.465181,13.458315,13.450808,13.442984,13.435244,13.427898,13.421244,13.415522,13.410743,13.406104,13.401438,13.396574,13.391019,13.385012,13.379633,13.37482,13.370173,13.365038,13.359199,13.352806,13.34647,13.340927,13.336357,13.332209,13.328035,13.323465,13.318284,13.312889,13.307973,13.303854,13.300726,13.298059,13.295536,13.292635,13.288914,13.28447,13.279953,13.275688,13.271637,13.267923,13.264439,13.261257,13.258579,13.256601,13.255707,13.255686,13.256092,13.256468,13.256102,13.254503,13.252056,13.24985,13.248093,13.247317,13.247407,13.247626,13.247253,13.246056,13.244219,13.241951,13.239619,13.237385,13.2352705,13.233157,13.231014,13.228998,13.227207,13.225674,13.224375,13.223253,13.222187,13.221029,13.219727,13.2182865,13.2169,13.215811,13.215227,13.214897,13.214662,13.214706,13.215001,13.215891,13.217649,13.219542,13.220825,13.220891,13.219743,13.218313,13.217239,13.216772,13.217326,13.218735,13.220491,13.222233,13.223804,13.225031,13.225933,13.226289,13.226065,13.22527,13.224144,13.222996,13.221876,13.220678,13.219571,13.21846,13.217348,13.216339,13.21549,13.214738,13.214091,13.213491,13.212901,13.212305,13.211778,13.211556,13.21185,13.212715,13.214506,13.217262,13.220464,13.223438,13.225653,13.226818,13.227171,13.227179,13.227128,13.227343,13.227926,13.228668,13.229334,13.229923,13.230511,13.231197,13.23209,13.233156,13.234276,13.235413,13.2365465,13.237656,13.238747,13.239752,13.2405815,13.241325,13.24218,13.243169,13.244291,13.245615,13.247032,13.248536,13.250292,13.2524605,13.2550125,13.257982,13.2614975,13.265347,13.269308,13.273142,13.276715,13.280006,13.282984,13.285961,13.288788,13.291262,13.293232,13.294615,13.295479,13.296255,13.297289,13.298969,13.301462,13.304613,13.308037,13.311333,13.314281,13.317081,13.319677,13.321844,13.323208,13.323544,13.3230915,13.322415,13.321851,13.321881,13.322686,13.32406,13.325626,13.326942,13.327677,13.327845,13.327656,13.327179,13.326666,13.326426,13.326513,13.326822,13.327353,13.328115,13.329213,13.330688,13.33251,13.334579,13.336737,13.338856,13.341043,13.343639,13.346876,13.350904,13.355644,13.360634,13.365269,13.369301,13.372855,13.375876,13.378317,13.380218,13.381468,13.381911,13.381969,13.381975,13.382429,13.383724,13.385746,13.388161,13.390694,13.393244,13.396021,13.399096,13.402412,13.405865,13.409439,13.413205,13.417217,13.421637,13.426729,13.431908,13.4368725,13.441656,13.446264,13.450605,13.454905,13.459262,13.463547,13.467693,13.471638,13.475377,13.478994,13.482596,13.486521,13.491042,13.496065,13.501427,13.506823,13.511913,13.516716,13.521597,13.526545,13.531353,13.535819,13.539759,13.543209,13.546582,13.550357,13.555,13.5605345,13.566703,13.573052,13.579466,13.5862465,13.59302,13.600054,13.606358,13.611222,13.614813,13.617764,13.620556,13.623785,13.627818,13.6320915,13.636471,13.6408615,13.645427,13.65057,13.656174,13.662434,13.66866,13.674264,13.679022,13.683128,13.686995,13.690879,13.695267,13.700184,13.705578,13.711174,13.717159,13.723783,13.730481
13.450632,13.444124,13.437994,13.431904,13.4254265,13.418774,13.412079,13.4053755,13.398682,13.392059,13.3853855,13.378073,13.370437,13.362904,13.355778,13.349302,13.34368,13.338913,13.334221,13.329486,13.324544,13.318914,13.312819,13.307262,13.302219,13.297278,13.291856,13.285726,13.279015,13.272308,13.266329,13.261304,13.256737,13.252193,13.247358,13.241988,13.236471,13.231554,13.227551,13.224634,13.222275,13.22006,13.217404,13.213808,13.209362,13.204791,13.200434,13.196296,13.192543,13.189095,13.186026,13.183487,13.181602,13.1807785,13.180792,13.181267,13.181837,13.181816,13.18063,13.178534,13.17656,13.174894,13.174095,13.174093,13.174228,13.173803,13.172556,13.1706505,13.168276,13.16581,13.1634445,13.161253,13.159128,13.157004,13.155028,13.153278,13.15178,13.150505,13.149382,13.148288,13.147078,13.145697,13.144169,13.142648,13.141411,13.140665,13.140148,13.139715,13.139536,13.139517,13.140051,13.141401,13.142938,13.14403,13.144131,13.143188,13.14199,13.1410885,13.14065,13.141022,13.14208,13.143381,13.144602,13.145614,13.146265,13.146574,13.146398,13.145777,13.144779,13.143619,13.142521,13.141541,13.140534,13.139657,13.138776,13.137836,13.136926,13.136114,13.135344,13.134725,13.134181,13.133682,13.1332035,13.13278,13.132612,13.132917,13.133749,13.135475,13.138141,13.141237,13.144133,13.146326,13.147499,13.14786,13.147871,13.147793,13.147926,13.148416,13.149083,13.149692,13.150254,13.15081,13.151476,13.152344,13.153423,13.154632,13.155908,13.157223,13.15855,13.159852,13.161032,13.161986,13.162803,13.163683,13.164663,13.165736,13.166995,13.168369,13.16988,13.171713,13.174044,13.176817,13.180004,13.183722,13.1877365,13.191818,13.195738,13.199398,13.20279,13.205894,13.2090025,13.211933,13.214437,13.216325,13.217516,13.2181015,13.218546,13.219202,13.220472,13.222573,13.225365,13.228487,13.231575,13.234378,13.237074,13.239607,13.241734,13.2430935,13.24348,13.243122,13.242542,13.242075,13.2421665,13.242989,13.244348,13.245872,13.247147,13.247871,13.248055,13.247889,13.247441,13.246971,13.246754,13.246841,13.247158,13.247681,13.248453,13.249584,13.251116,13.253018,13.255183,13.257431,13.259613,13.261857,13.264479,13.267675,13.27157,13.276064,13.280718,13.284971,13.288666,13.291958,13.294806,13.2971735,13.299041,13.300249,13.300661,13.30068,13.300653,13.301113,13.3024435,13.304539,13.307074,13.309727,13.312351,13.315197,13.318298,13.321547,13.32486,13.328232,13.331736,13.335478,13.339672,13.344582,13.349638,13.354515,13.359238,13.363818,13.368145,13.372431,13.376776,13.381033,13.385122,13.388977,13.392603,13.39609,13.399569,13.403402,13.407871,13.412855,13.41818,13.4235325,13.42857,13.433355,13.438267,13.443245,13.448042,13.452406,13.456163,13.459429,13.462692,13.466469,13.471235,13.476988,13.483404,13.489915,13.49631,13.502895,13.509348,13.515974,13.521956,13.5266285,13.530138,13.533104,13.535966,13.53927,13.543421,13.547874,13.552486,13.557133,13.5619335,13.567278,13.57303,13.579432,13.585816,13.591536,13.596352,13.600469,13.604317,13.608182,13.61268,13.617813,13.623497,13.629354,13.635464,13.642038,13.648548
13.3745775,13.36866,13.363007,13.357344,13.351191,13.344778,13.338236,13.331624,13.325,13.3184395,13.311795,13.30448,13.296875,13.289413,13.282379,13.275985,13.270395,13.265589,13.2608185,13.25602,13.251066,13.245471,13.239401,13.2338085,13.228663,13.2235565,13.217979,13.211689,13.2047615,13.197749,13.191366,13.185888,13.180891,13.175987,13.17093,13.165447,13.15992,13.155115,13.151312,13.148697,13.146719,13.144892,13.142586,13.13925,13.134956,13.130519,13.126255,13.122195,13.118511,13.115159,13.112212,13.1097765,13.107933,13.107073,13.106955,13.107318,13.107851,13.1079445,13.106987,13.105074,13.103199,13.10152,13.100578,13.100396,13.100365,13.099809,13.098458,13.096443,13.093931,13.091283,13.088745,13.086416,13.084208,13.082052,13.080074,13.078337,13.076832,13.075532,13.074362,13.073198,13.071889,13.070385,13.068712,13.067007,13.065549,13.064573,13.063835,13.06318,13.062765,13.062485,13.062686,13.063646,13.064863,13.065813,13.066012,13.065384,13.064551,13.063976,13.063738,13.064117,13.06503,13.066065,13.066904,13.067448,13.0675535,13.067261,13.066508,13.0654125,13.064121,13.062842,13.061718,13.060797,13.059944,13.059273,13.058636,13.057945,13.057244,13.056591,13.055939,13.055464,13.055077,13.054755,13.05446,13.054186,13.054092,13.0543995,13.055181,13.056821,13.059332,13.062253,13.065008,13.067117,13.0682745,13.068634,13.068671,13.068586,13.068666,13.069084,13.069686,13.070226,13.070734,13.071241,13.071859,13.072687,13.073763,13.075054,13.076504,13.078043,13.079643,13.08124,13.082711,13.08392,13.084938,13.085972,13.087055,13.088171,13.089452,13.090824,13.092329,13.094184,13.09656,13.099369,13.102573,13.106253,13.110136,13.113996,13.117641,13.121033,13.124195,13.127131,13.130098,13.132892,13.135262,13.1370125,13.138039,13.138436,13.138691,13.139122,13.140144,13.141985,13.144538,13.147467,13.150416,13.153136,13.155801,13.158337,13.160519,13.161978,13.16251,13.162346,13.16198,13.161705,13.162001,13.163,13.164502,13.166137,13.167499,13.168297,13.168543,13.168415,13.167998,13.167524,13.167255,13.167248,13.16745,13.167864,13.168509,13.169531,13.170975,13.172799,13.174883,13.17705,13.179152,13.18131,13.183835,13.186892,13.190565,13.194746,13.199017,13.20287,13.20625,13.209313,13.21207,13.214468,13.216419,13.217734,13.218284,13.218447,13.218592,13.219282,13.220878,13.223262,13.22608,13.228955,13.231709,13.234606,13.237663,13.240774,13.243885,13.247,13.250185,13.253632,13.257538,13.262159,13.266972,13.271637,13.276169,13.280582,13.284773,13.28895,13.293192,13.297341,13.3013115,13.305031,13.308506,13.31186,13.315214,13.31898,13.323433,13.328438,13.33378,13.339109,13.344086,13.348847,13.35378,13.358789,13.363618,13.367971,13.371656,13.374842,13.378067,13.381865,13.386721,13.392643,13.399229,13.405821,13.412139,13.418468,13.424584,13.430819,13.436548,13.441165,13.444786,13.447971,13.451104,13.454684,13.4591465,13.463945,13.468933,13.473932,13.479004,13.484529,13.490398,13.496847,13.503305,13.509086,13.513939,13.518091,13.521966,13.525854,13.530479,13.535806,13.541704,13.547731,13.553865,13.560267,13.566494
13.294943,13.289494,13.284182,13.278799,13.272804,13.266433,13.259821,13.25305,13.246229,13.239472,13.232623,13.225095,13.21735,13.209841,13.202801,13.196401,13.190794,13.185907,13.181067,13.176237,13.171355,13.165928,13.160039,13.154587,13.149532,13.144442,13.1389,13.132616,13.125614,13.118395,13.111658,13.105757,13.1003475,13.095112,13.089883,13.084373,13.078941,13.074356,13.070845,13.068628,13.067121,13.065792,13.063963,13.061048,13.057142,13.053068,13.049115,13.045337,13.041898,13.038767,13.036,13.033674,13.031849,13.030864,13.030487,13.030543,13.0308275,13.030828,13.0299015,13.028023,13.026123,13.02433,13.023178,13.02273,13.022444,13.0216875,13.020187,13.018021,13.015341,13.012486,13.009714,13.007193,13.004844,13.002588,13.000559,12.998779,12.9972105,12.99583,12.9945545,12.993265,12.991816,12.99016,12.988304,12.986372,12.984635,12.983362,12.982367,12.981515,12.9809265,12.980444,12.980406,12.98107,12.982067,12.982993,12.98344,12.983308,12.983038,12.982981,12.983185,12.983826,12.984833,12.985819,12.98644,12.986639,12.986261,12.985369,12.983975,12.982306,12.9805765,12.979007,12.977717,12.976726,12.975887,12.975325,12.974869,12.974424,12.974001,12.973599,12.973173,12.972942,12.972817,12.972767,12.972724,12.972651,12.972677,12.973009,12.973734,12.975225,12.977495,12.980133,12.982624,12.984539,12.985581,12.9859,12.985922,12.9858,12.985799,12.986105,12.986598,12.987041,12.98747,12.987892,12.988435,12.989211,12.990299,12.991708,12.99338,12.995207,12.99717,12.999172,13.001067,13.002686,13.00407,13.005409,13.006731,13.008019,13.009423,13.010852,13.012371,13.014206,13.0165205,13.0192375,13.022276,13.025666,13.029113,13.0323925,13.035383,13.038124,13.040697,13.043141,13.045668,13.048072,13.050138,13.051662,13.052539,13.05286,13.053064,13.053445,13.05438,13.056119,13.058565,13.061403,13.064296,13.067012,13.069704,13.072323,13.074642,13.0763,13.077094,13.077236,13.077193,13.077265,13.077927,13.079292,13.081135,13.08306,13.084646,13.085608,13.085967,13.085909,13.085505,13.084989,13.084584,13.08435,13.08429,13.084415,13.084757,13.085463,13.086602,13.088138,13.089941,13.091843,13.093705,13.09565,13.097977,13.100818,13.10424,13.10812,13.112045,13.115583,13.118733,13.121708,13.1245365,13.127136,13.129375,13.13102,13.131926,13.132479,13.133079,13.134277,13.136424,13.13936,13.142677,13.145937,13.148891,13.151848,13.1548195,13.15771,13.16055,13.163367,13.166188,13.169265,13.172798,13.177027,13.181445,13.185724,13.18988,13.19395,13.197846,13.201764,13.2057705,13.209694,13.213432,13.216919,13.220179,13.223347,13.226554,13.23022,13.2346525,13.239676,13.245018,13.250292,13.25515,13.259829,13.264702,13.269704,13.274596,13.279013,13.282713,13.2858925,13.289084,13.29286,13.297735,13.303704,13.310337,13.316902,13.323048,13.329054,13.334776,13.340633,13.346181,13.350912,13.354883,13.358555,13.362253,13.366365,13.371399,13.376774,13.382307,13.387777,13.393187,13.398872,13.404795,13.411182,13.417608,13.423359,13.42819,13.432355,13.436247,13.440117,13.444808,13.450216,13.456181,13.462215,13.468203,13.474241,13.480013
13.21596,13.2107315,13.205515,13.200153,13.194077,13.187487,13.180525,13.173311,13.16603,13.158871,13.151625,13.143732,13.135724,13.128078,13.120983,13.11454,13.108893,13.103933,13.0990505,13.094242,13.089528,13.084403,13.078848,13.073686,13.068872,13.063969,13.058626,13.052507,13.0455675,13.03825,13.031226,13.024939,13.019135,13.013594,13.008223,13.002728,12.997448,12.993127,12.98994,12.988123,12.987075,12.986233,12.984878,12.982433,12.979015,12.9754305,12.971934,12.968577,12.965511,12.962712,12.9602165,12.958067,12.956297,12.955168,12.9544735,12.954106,12.95399,12.953735,12.952696,12.950729,12.948729,12.946756,12.945351,12.944588,12.9439945,12.942993,12.941301,12.938969,12.936127,12.933083,12.930082,12.927359,12.924853,12.922468,12.920349,12.918474,12.916782,12.9152355,12.913765,12.912268,12.910618,12.908757,12.906673,12.904476,12.902445,12.900879,12.899656,12.898668,12.897999,12.897431,12.897272,12.897772,12.898691,12.899729,12.900547,12.90103,12.901421,12.901974,12.902708,12.903711,12.904921,12.905968,12.906507,12.906485,12.9057665,12.9044,12.902477,12.900305,12.898151,12.8962555,12.89472,12.893543,12.892561,12.89192,12.891453,12.891086,12.890814,12.890572,12.890333,12.890312,12.890417,12.890619,12.890837,12.890995,12.891193,12.891589,12.892297,12.893648,12.89563,12.897884,12.899984,12.901575,12.902406,12.902603,12.902546,12.902351,12.902243,12.902412,12.902768,12.903073,12.903372,12.903667,12.904089,12.904781,12.905865,12.90737,12.909248,12.911352,12.913679,12.916115,12.918474,12.92056,12.922373,12.92406,12.925646,12.927132,12.928665,12.930163,12.931707,12.933521,12.93577,12.938375,12.941214,12.944271,12.947218,12.949831,12.952062,12.954044,12.955938,12.9578285,12.9598465,12.961817,12.963568,12.964908,12.965719,12.966086,12.96637,12.9668255,12.967795,12.969513,12.971893,12.974646,12.977464,12.980138,12.982815,12.985487,12.987919,12.989751,12.990785,12.99123,12.991513,12.991964,12.993038,12.994848,12.997114,12.99941,13.001303,13.00249,13.003024,13.003104,13.002789,13.002299,13.001812,13.001381,13.001062,13.000886,13.00087,13.001188,13.001917,13.003012,13.004363,13.0058365,13.007296,13.008878,13.010886,13.013441,13.016598,13.020211,13.023886,13.027243,13.030321,13.033363,13.036404,13.039338,13.04198,13.044061,13.045435,13.046487,13.047649,13.049471,13.052273,13.055855,13.059742,13.063417,13.066587,13.069582,13.072441,13.07509,13.077654,13.080181,13.082655,13.0853615,13.088493,13.092265,13.096203,13.099994,13.103677,13.107311,13.11083,13.114422,13.118123,13.121764,13.125227,13.128447,13.131469,13.134451,13.137519,13.141109,13.14555,13.150619,13.155983,13.161203,13.165928,13.170483,13.175272,13.180253,13.185225,13.189747,13.19351,13.196716,13.199884,13.203604,13.20843,13.214367,13.220954,13.227398,13.233284,13.238886,13.244172,13.249681,13.255119,13.260111,13.264644,13.269033,13.273533,13.27837,13.28416,13.290276,13.296448,13.302419,13.308128,13.31387,13.319742,13.325939,13.332181,13.337803,13.342571,13.346733,13.350643,13.35449,13.359203,13.36462,13.37055,13.376504,13.38227,13.387886,13.393151
13.139355,13.134087,13.128743,13.123201,13.116859,13.109882,13.102406,13.094603,13.086747,13.079105,13.071409,13.063136,13.054866,13.047091,13.039962,13.033524,13.027889,13.022935,13.018111,13.013433,13.008999,13.004292,12.999201,12.9944725,12.990046,12.9855,12.980547,12.9747715,12.968065,12.960802,12.953622,12.94706,12.940947,12.935165,12.929714,12.924298,12.919223,12.915195,12.912329,12.910865,12.910219,12.90979,12.90886,12.906866,12.903933,12.90086,12.897871,12.894989,12.892355,12.889959,12.8878145,12.88593,12.8843,12.883093,12.882139,12.881381,12.880852,12.880314,12.879147,12.877102,12.875031,12.872934,12.871326,12.870285,12.869395,12.86815,12.8662815,12.863825,12.860877,12.857718,12.854584,12.851734,12.8491335,12.846657,12.84445,12.842461,12.8406105,12.838844,12.837114,12.835357,12.833476,12.831402,12.829096,12.826662,12.824379,12.822585,12.8212185,12.820188,12.819532,12.819002,12.818842,12.8193035,12.820259,12.821487,12.822708,12.823779,12.8248005,12.825912,12.8271265,12.82847,12.829895,12.831062,12.831636,12.831553,12.83069,12.8290615,12.826805,12.824284,12.821806,12.819627,12.817843,12.816429,12.81521,12.814339,12.813669,12.813183,12.81287,12.812622,12.812418,12.812447,12.812607,12.812906,12.813263,12.813587,12.813938,12.814411,12.81514,12.816388,12.818092,12.819948,12.821608,12.8228035,12.82336,12.82339,12.823225,12.822952,12.822744,12.822779,12.822975,12.823109,12.823238,12.82337,12.823643,12.824232,12.825268,12.826804,12.8288,12.83109,12.833675,12.836437,12.839151,12.841593,12.84373,12.845663,12.847422,12.849026,12.850625,12.852169,12.853746,12.855583,12.857844,12.860438,12.863203,12.866077,12.868696,12.870831,12.872503,12.873945,12.875368,12.876896,12.878597,12.880305,12.881891,12.883182,12.884062,12.884581,12.885031,12.885637,12.886692,12.88839,12.890663,12.893259,12.895915,12.898464,12.901039,12.903667,12.9061165,12.90802,12.90919,12.909838,12.910366,12.91111,12.912524,12.914719,12.917364,12.919994,12.922178,12.9236145,12.92437,12.924673,12.92457,12.924263,12.92387,12.923414,12.922987,12.922632,12.922358,12.922375,12.92275,12.923424,12.924311,12.92532,12.926326,12.927488,12.929124,12.931351,12.934235,12.937628,12.94113,12.944409,12.947516,12.950718,12.954023,12.957302,12.960339,12.962839,12.964653,12.966146,12.9678,12.970135,12.973452,12.977533,12.981844,12.985811,12.989122,12.992095,12.994802,12.997213,12.999521,13.001788,13.003967,13.006344,13.009095,13.012418,13.015867,13.019164,13.022371,13.025574,13.028728,13.032007,13.035427,13.038807,13.042025,13.045017,13.047841,13.05067,13.053638,13.057188,13.061655,13.066788,13.072199,13.077391,13.08201,13.086443,13.091139,13.0961,13.101155,13.105795,13.10965,13.1129,13.116048,13.119707,13.124462,13.130331,13.136825,13.143095,13.148679,13.1538515,13.158695,13.1638775,13.169262,13.174592,13.179775,13.184955,13.19029,13.195848,13.202367,13.209177,13.215897,13.222242,13.228121,13.233774,13.23947,13.245356,13.251289,13.256706,13.261383,13.265539,13.269487,13.273329,13.278036,13.283398,13.289232,13.295081,13.300653,13.305922,13.310797
13.065226,13.059761,13.054174,13.048373,13.04172,13.034349,13.026396,13.01808,13.00974,13.001686,12.993631,12.985076,12.976637,12.968796,12.961676,12.955285,12.949696,12.9448,12.940089,12.935589,12.931446,12.92714,12.9225,12.918218,12.914221,12.910109,12.905643,12.900343,12.894029,12.887001,12.879866,12.873234,12.867,12.861134,12.8557205,12.85047,12.845654,12.841937,12.839355,12.838176,12.837833,12.837719,12.837126,12.835502,12.832975,12.830329,12.827782,12.8253,12.823044,12.82102,12.819216,12.81761,12.816157,12.8149395,12.813809,12.812748,12.811878,12.811098,12.809826,12.807741,12.805638,12.803474,12.801725,12.800451,12.799297,12.797839,12.795853,12.793348,12.790376,12.787209,12.784064,12.781216,12.778616,12.776121,12.773861,12.771769,12.769748,12.767742,12.765732,12.763706,12.761603,12.759357,12.756897,12.754318,12.751883,12.749973,12.748577,12.747606,12.747055,12.746639,12.746567,12.7470665,12.748095,12.749492,12.751019,12.752529,12.7540245,12.755531,12.757086,12.758666,12.760244,12.761534,12.762208,12.762201,12.76137,12.759702,12.757338,12.754675,12.752041,12.749685,12.747722,12.746095,12.744631,12.743462,12.742489,12.741752,12.741253,12.740843,12.740498,12.740377,12.740383,12.74056,12.74086,12.741201,12.741605,12.742115,12.742844,12.74398,12.745431,12.746915,12.74815,12.74895,12.749224,12.749083,12.748823,12.748486,12.748218,12.748156,12.74822,12.74822,12.748232,12.7482605,12.748465,12.749022,12.750059,12.751625,12.753685,12.756082,12.758809,12.76175,12.764641,12.767254,12.769533,12.77155,12.7733555,12.774984,12.776593,12.778164,12.779806,12.781746,12.784142,12.7868805,12.789759,12.792681,12.795237,12.797202,12.798666,12.799921,12.801197,12.802635,12.804283,12.805961,12.807557,12.808922,12.809947,12.810661,12.811293,12.812048,12.813157,12.814786,12.816883,12.819238,12.821657,12.824037,12.826473,12.829025,12.831455,12.833389,12.834642,12.835419,12.836111,12.837054,12.838699,12.84115,12.844059,12.846933,12.8493395,12.851005,12.852001,12.852587,12.852803,12.852831,12.852724,12.852457,12.852131,12.85179,12.851459,12.851376,12.851591,12.85203,12.852624,12.853307,12.853962,12.854792,12.856112,12.858046,12.860697,12.8639145,12.867292,12.870539,12.87368,12.877022,12.880533,12.884042,12.88733,12.890093,12.892151,12.893879,12.895783,12.898331,12.901836,12.906084,12.910516,12.91453,12.917818,12.92066,12.923147,12.925299,12.927341,12.929346,12.931265,12.933348,12.935758,12.938692,12.941733,12.944635,12.947481,12.950375,12.953291,12.956381,12.959656,12.962908,12.96601,12.968898,12.97163,12.974375,12.977293,12.980821,12.9853115,12.990502,12.995947,13.001108,13.005644,13.009941,13.014506,13.019402,13.024479,13.029179,13.033073,13.0363245,13.0394,13.042965,13.047613,13.053369,13.059729,13.065815,13.071114,13.075905,13.080362,13.085248,13.0905905,13.096225,13.101969,13.107807,13.113806,13.119894,13.126919,13.134193,13.141247,13.147786,13.153697,13.159185,13.164645,13.17021,13.17585,13.181116,13.185797,13.190073,13.194187,13.198138,13.202889,13.208216,13.213966,13.219744,13.225204,13.230254,13.234904
12.994474,12.988791,12.982952,12.97688,12.969976,12.9623375,12.954092,12.945484,12.93689,12.928617,12.920364,12.911661,12.903157,12.895302,12.888189,12.881809,12.876198,12.871304,12.866623,12.862186,12.858182,12.854082,12.8496685,12.845621,12.8419075,12.838117,12.834042,12.829194,12.823326,12.816664,12.809778,12.803291,12.797155,12.791401,12.786148,12.781126,12.77658,12.773119,12.770756,12.769739,12.769556,12.76961,12.769186,12.767773,12.76551,12.763117,12.760832,12.758562,12.756509,12.754696,12.75311,12.7516985,12.750374,12.749131,12.747846,12.746523,12.745365,12.7443495,12.742927,12.740751,12.738558,12.736262,12.734327,12.732801,12.731396,12.729762,12.727705,12.725218,12.722301,12.719201,12.716134,12.713371,12.710844,12.70838,12.706101,12.70392,12.701733,12.6994705,12.697175,12.694892,12.692588,12.690215,12.6876745,12.685045,12.682578,12.680693,12.679384,12.67855,12.678167,12.677912,12.67794,12.678484,12.67954,12.681002,12.682669,12.684399,12.686148,12.687832,12.689512,12.691157,12.692738,12.6940365,12.694786,12.694878,12.69417,12.692644,12.690415,12.687878,12.685331,12.683001,12.680989,12.679228,12.677548,12.676083,12.674776,12.673721,12.672927,12.672228,12.6716175,12.671202,12.670891,12.670782,12.670873,12.671094,12.671443,12.671907,12.672573,12.673562,12.674734,12.675846,12.67668,12.677116,12.677138,12.676842,12.6764965,12.676119,12.675825,12.675738,12.675772,12.67577,12.67581,12.675912,12.676229,12.676933,12.678125,12.679831,12.682015,12.684502,12.687326,12.690353,12.693303,12.695951,12.6982355,12.700224,12.701993,12.703594,12.705187,12.706799,12.708556,12.710693,12.7133465,12.716363,12.719507,12.722667,12.725412,12.727503,12.729055,12.730408,12.731791,12.73336,12.73513,12.736921,12.738625,12.740107,12.741266,12.742123,12.74288,12.743694,12.744779,12.746255,12.748091,12.750151,12.752311,12.754518,12.756861,12.759405,12.761893,12.76392,12.765299,12.766228,12.767052,12.768148,12.769936,12.772528,12.775582,12.778604,12.781165,12.783018,12.784243,12.785133,12.785724,12.786175,12.786482,12.786575,12.786541,12.786431,12.786266,12.78633,12.786636,12.787088,12.787632,12.788211,12.788706,12.78935,12.790477,12.792234,12.794722,12.797803,12.801093,12.804306,12.807444,12.810825,12.8144,12.817953,12.821255,12.823995,12.825987,12.827641,12.829435,12.831814,12.835125,12.839165,12.843378,12.847174,12.850243,12.8528185,12.855011,12.856866,12.858606,12.860325,12.861985,12.863794,12.865915,12.868565,12.871344,12.8740425,12.876757,12.879576,12.882468,12.885595,12.888951,12.892313,12.895521,12.898491,12.901266,12.904028,12.906946,12.910485,12.914995,12.92022,12.925665,12.930765,12.935189,12.939308,12.943694,12.948423,12.953381,12.957989,12.961773,12.964882,12.967791,12.971148,12.975615,12.981185,12.987363,12.993272,12.998353,13.00284,13.007008,13.011652,13.016907,13.022696,13.028782,13.03503,13.041426,13.047782,13.055042,13.062519,13.0697155,13.076325,13.082219,13.087574,13.092854,13.098232,13.103734,13.109063,13.11402,13.118694,13.123249,13.127554,13.13252,13.137981,13.143768,13.149567,13.155026,13.1599865,13.1645355
12.924709,12.918867,12.912838,12.906597,12.899578,12.891865,12.883581,12.874978,12.866392,12.858099,12.849839,12.841132,12.832678,12.824881,12.817798,12.811416,12.805763,12.800846,12.796164,12.791735,12.787778,12.783748,12.779396,12.775439,12.771882,12.768328,12.764592,12.760172,12.754776,12.748566,12.7420635,12.735895,12.730025,12.724517,12.719518,12.714766,12.710478,12.7072315,12.7050295,12.704098,12.703971,12.704065,12.703701,12.702402,12.700292,12.698037,12.695864,12.693678,12.691694,12.689978,12.688511,12.687224,12.686001,12.684752,12.683363,12.681852,12.680471,12.679266,12.677721,12.675461,12.673172,12.67075,12.66865,12.666901,12.665279,12.663521,12.661446,12.659024,12.656206,12.653225,12.65028,12.647638,12.64522,12.642824,12.640551,12.638298,12.635948,12.633462,12.630918,12.62841,12.6259575,12.623516,12.620957,12.61837,12.615986,12.614212,12.61306,12.612416,12.612211,12.61211,12.612219,12.612759,12.613764,12.615165,12.616797,12.618535,12.6202965,12.621953,12.623561,12.625096,12.626555,12.627781,12.6285515,12.628745,12.628223,12.626949,12.625013,12.622783,12.6205,12.61834,12.616405,12.614599,12.612778,12.6110735,12.609468,12.608098,12.606989,12.605972,12.60504,12.604254,12.60354,12.60305,12.602823,12.602819,12.603028,12.60338,12.603943,12.604767,12.605673,12.606451,12.606942,12.6070795,12.606903,12.606493,12.606094,12.605719,12.605452,12.605402,12.605495,12.605577,12.605751,12.606035,12.606588,12.607543,12.608957,12.610836,12.61314,12.615695,12.618536,12.621563,12.624465,12.627024,12.629205,12.631076,12.632736,12.634261,12.63583,12.637495,12.63941,12.641804,12.644778,12.6481495,12.65164,12.655154,12.65823,12.66063,12.662487,12.664143,12.66582,12.667651,12.669676,12.671684,12.673542,12.675137,12.676401,12.677357,12.678177,12.678986,12.679968,12.681223,12.682739,12.68446,12.686352,12.688413,12.69072,12.693317,12.69594,12.698144,12.699706,12.700798,12.701763,12.702965,12.704824,12.70748,12.710583,12.713658,12.716318,12.71833,12.719769,12.720968,12.72197,12.722889,12.723688,12.724268,12.724687,12.724979,12.725189,12.725599,12.726214,12.726915,12.727618,12.728266,12.728752,12.729346,12.730352,12.731974,12.734325,12.737257,12.740402,12.743507,12.746553,12.749864,12.753343,12.756759,12.759872,12.762363,12.764032,12.765349,12.766746,12.768667,12.771475,12.775002,12.778731,12.782093,12.784799,12.78702,12.788866,12.790392,12.791809,12.793232,12.794645,12.796221,12.7981415,12.800617,12.803287,12.805967,12.808752,12.811707,12.814764,12.818115,12.821739,12.825392,12.828886,12.832084,12.835001,12.837833,12.840794,12.844355,12.848877,12.854099,12.859514,12.864539,12.868855,12.872797,12.876966,12.881472,12.886219,12.89063,12.894211,12.897106,12.899789,12.90291,12.907156,12.912506,12.918493,12.924236,12.929132,12.933385,12.937311,12.94173,12.946834,12.952629,12.958854,12.965263,12.9717865,12.978172,12.985398,12.99283,12.999969,13.006529,13.012375,13.017624,13.0227785,13.028068,13.033548,13.039095,13.044522,13.049817,13.055035,13.059898,13.065247,13.070974,13.076911,13.082842,13.088429,13.093454,13.098032
12.849659,12.84376,12.837667,12.831389,12.824403,12.816844,12.808786,12.800444,12.792128,12.784019,12.775921,12.767374,12.759109,12.751487,12.744533,12.738234,12.732625,12.72774,12.723101,12.7187,12.714766,12.710723,12.706322,12.702349,12.698832,12.695428,12.691959,12.687931,12.683001,12.677262,12.671203,12.665434,12.659912,12.654731,12.6500225,12.645545,12.641497,12.638414,12.636311,12.635368,12.635183,12.635228,12.634878,12.6336565,12.631651,12.629492,12.627378,12.625204,12.623222,12.621532,12.620121,12.61891,12.617754,12.61652,12.6150675,12.613443,12.611913,12.610577,12.608944,12.606602,12.604229,12.601679,12.5994,12.597422,12.595596,12.593723,12.591652,12.589324,12.586624,12.583784,12.580989,12.578507,12.576233,12.573925,12.571663,12.569342,12.566839,12.564115,12.561326,12.558619,12.556036,12.553565,12.5510435,12.548553,12.54631,12.544706,12.543757,12.543332,12.54332,12.543371,12.543571,12.544102,12.545014,12.546271,12.547733,12.549303,12.5508995,12.552357,12.5537195,12.555,12.556229,12.557312,12.558085,12.558387,12.558058,12.557072,12.555462,12.553556,12.551554,12.549593,12.547758,12.54598,12.544131,12.542327,12.540573,12.539015,12.53767,12.536377,12.535136,12.533981,12.532862,12.531962,12.53138,12.531105,12.531109,12.531307,12.531708,12.532324,12.532965,12.533428,12.5336,12.533464,12.533089,12.532562,12.53208,12.531651,12.531351,12.531288,12.53142,12.531622,12.531969,12.532506,12.533361,12.534634,12.536346,12.53846,12.540919,12.543566,12.546425,12.549417,12.552228,12.554653,12.556691,12.558444,12.560022,12.561529,12.563137,12.564936,12.567079,12.569767,12.573076,12.576783,12.580589,12.584412,12.587787,12.590483,12.592642,12.594603,12.596579,12.598659,12.600897,12.603041,12.604964,12.606582,12.607859,12.608835,12.609686,12.610483,12.611366,12.612396,12.613594,12.615004,12.616688,12.618693,12.62108,12.623871,12.626768,12.629253,12.63105,12.632328,12.63343,12.634693,12.636568,12.639197,12.642254,12.6453,12.64798,12.650076,12.651667,12.653107,12.654453,12.655801,12.6570835,12.658163,12.65905,12.659793,12.660419,12.661243,12.662255,12.663315,12.664312,12.665163,12.665756,12.666378,12.66733,12.668841,12.6710415,12.673792,12.67676,12.679699,12.682618,12.6858,12.689156,12.692413,12.6953125,12.697533,12.698858,12.699798,12.700766,12.702179,12.704437,12.707401,12.710579,12.713453,12.715773,12.717617,12.7191105,12.720333,12.721467,12.722628,12.723833,12.725208,12.726955,12.7293,12.731918,12.734638,12.737556,12.7407,12.743959,12.7475815,12.751518,12.755506,12.759324,12.762769,12.765823,12.768715,12.771687,12.775245,12.779752,12.784952,12.79032,12.795267,12.799473,12.803218,12.80717,12.81143,12.815929,12.820104,12.823461,12.82612,12.828573,12.831444,12.835455,12.840565,12.846325,12.851898,12.856665,12.860744,12.8645,12.86874,12.873713,12.879471,12.885734,12.892176,12.898641,12.90486,12.911848,12.919056,12.926016,12.932484,12.938299,12.943501,12.948593,12.953882,12.959442,12.96533,12.971361,12.977409,12.98341,12.988915,12.99468,13.000694,13.006817,13.012923,13.018712,13.023907,13.028606
12.771707,12.76583,12.759747,12.753531,12.746712,12.739458,12.731829,12.7239895,12.716179,12.708456,12.700701,12.692491,12.6845665,12.677273,12.670603,12.66453,12.659101,12.654365,12.649848,12.645547,12.641645,12.637535,12.6329975,12.628895,12.625294,12.621912,12.618582,12.614828,12.610277,12.604961,12.599333,12.593984,12.588864,12.584026,12.579605,12.575366,12.571478,12.568457,12.566352,12.565325,12.564981,12.564886,12.564493,12.563335,12.561441,12.559378,12.557317,12.555149,12.553163,12.551504,12.55018,12.549074,12.548006,12.546843,12.5454,12.543753,12.542168,12.540761,12.539061,12.53664,12.534174,12.531479,12.529013,12.5268135,12.524809,12.522855,12.520794,12.518576,12.516001,12.5133095,12.510672,12.508348,12.506214,12.503996,12.501741,12.499367,12.496746,12.493826,12.490839,12.487968,12.485281,12.482798,12.480326,12.477951,12.475872,12.474461,12.473728,12.473523,12.473692,12.4738865,12.47417,12.474677,12.4754505,12.476492,12.477696,12.478969,12.480259,12.481392,12.482374,12.483292,12.484213,12.485109,12.485855,12.486248,12.486095,12.485382,12.484082,12.482472,12.48073,12.478966,12.477245,12.475561,12.473793,12.472035,12.4703045,12.468716,12.467274,12.465832,12.464405,12.463017,12.46164,12.460477,12.459657,12.459186,12.45903,12.459084,12.4593115,12.459715,12.460072,12.460205,12.460045,12.459614,12.458981,12.458253,12.457567,12.456949,12.456474,12.456293,12.456411,12.456717,12.457254,12.458066,12.459259,12.460888,12.462932,12.465322,12.467984,12.470762,12.473673,12.476643,12.479377,12.481697,12.4836445,12.48535,12.486929,12.488502,12.49024,12.4922495,12.494665,12.497646,12.501227,12.505156,12.509133,12.513085,12.516569,12.519375,12.521652,12.523739,12.525844,12.5280075,12.530276,12.532389,12.534212,12.535694,12.536861,12.537798,12.538655,12.539459,12.540285,12.5411415,12.542079,12.54324,12.544812,12.546886,12.549483,12.552609,12.555904,12.558771,12.560871,12.562363,12.563592,12.564897,12.566731,12.569267,12.572205,12.575138,12.577751,12.579847,12.581493,12.583064,12.5846195,12.586256,12.587891,12.58935,12.590624,12.591739,12.592735,12.593929,12.59531,12.596724,12.598019,12.599074,12.59981,12.600478,12.601381,12.602802,12.604858,12.607436,12.610248,12.613055,12.615879,12.619001,12.622298,12.625483,12.628256,12.63027,12.631337,12.631981,12.63261,12.633623,12.635436,12.63793,12.640633,12.6430855,12.645084,12.646635,12.647879,12.648897,12.649832,12.650797,12.651835,12.653055,12.654661,12.656908,12.659499,12.662283,12.665338,12.668648,12.672077,12.675911,12.680107,12.684369,12.688444,12.692071,12.695202,12.6981125,12.70105,12.704559,12.709017,12.714163,12.7194605,12.724329,12.728445,12.7320385,12.735796,12.73983,12.744055,12.74795,12.751041,12.753441,12.755635,12.75823,12.761944,12.7667465,12.7722225,12.777599,12.782257,12.78623,12.789886,12.794014,12.798872,12.8045635,12.810808,12.817206,12.823509,12.829481,12.836134,12.843053,12.849845,12.856298,12.8622,12.86747,12.872604,12.877971,12.883661,12.889912,12.896553,12.903345,12.910101,12.916225,12.922378,12.928634,12.93491,12.9411545,12.947117,12.952505,12.957355
12.695471,12.689574,12.683446,12.677252,12.670534,12.663519,12.6562805,12.64895,12.641667,12.634396,12.627069,12.6193075,12.611864,12.60506,12.598842,12.593163,12.588078,12.583624,12.57935,12.575266,12.571499,12.567406,12.562801,12.558605,12.554945,12.551569,12.548349,12.544809,12.540546,12.535556,12.530253,12.525245,12.520445,12.515864,12.511619,12.507475,12.503592,12.500479,12.49822,12.496952,12.496292,12.495924,12.49539,12.494249,12.4924755,12.490541,12.488587,12.486525,12.484664,12.483189,12.482107,12.481255,12.480423,12.479484,12.47822,12.476715,12.475239,12.473896,12.472218,12.469797,12.467293,12.464506,12.461895,12.459509,12.457339,12.455309,12.453273,12.451149,12.448689,12.446125,12.4436035,12.441378,12.439329,12.437162,12.434901,12.432488,12.429795,12.426754,12.423639,12.420666,12.417908,12.415416,12.412987,12.410706,12.408766,12.40751,12.406954,12.406924,12.407219,12.407504,12.407822,12.408264,12.408869,12.409662,12.410568,12.4115,12.412434,12.4132,12.413778,12.414322,12.414938,12.4156475,12.416343,12.416788,12.416755,12.416227,12.415146,12.413723,12.412138,12.410503,12.408871,12.407294,12.405668,12.404061,12.402476,12.400993,12.399597,12.398172,12.396751,12.395361,12.393988,12.392832,12.392023,12.391565,12.391411,12.391445,12.391588,12.3918495,12.391975,12.391811,12.391336,12.390602,12.389684,12.388694,12.387722,12.386813,12.386057,12.385643,12.38563,12.385915,12.386503,12.387423,12.388765,12.390552,12.392731,12.395229,12.3979645,12.400762,12.403639,12.406516,12.409126,12.411316,12.413162,12.414824,12.4163885,12.41799,12.419807,12.421934,12.424498,12.427632,12.431332,12.435314,12.439293,12.443182,12.446581,12.449313,12.451536,12.453602,12.455706,12.457851,12.460077,12.462125,12.463845,12.465216,12.4663315,12.467316,12.468288,12.469219,12.470112,12.470905,12.471659,12.472628,12.474129,12.476309,12.479166,12.482649,12.486341,12.489556,12.491899,12.493522,12.494795,12.496071,12.497792,12.500172,12.502927,12.505684,12.508165,12.510199,12.511824,12.513439,12.515091,12.516879,12.518723,12.520435,12.521979,12.523365,12.524654,12.526142,12.527821,12.529535,12.531089,12.532311,12.53316,12.533859,12.534693,12.536007,12.537914,12.540324,12.543,12.545717,12.548514,12.551662,12.555014,12.558266,12.561066,12.563025,12.563984,12.564487,12.564928,12.565703,12.56723,12.56938,12.571716,12.573853,12.575624,12.576993,12.57812,12.57906,12.579905,12.580762,12.581703,12.582816,12.584322,12.586505,12.589092,12.59194,12.595108,12.598529,12.602037,12.605979,12.610302,12.614705,12.61891,12.62261,12.62575,12.628645,12.6315365,12.634981,12.639364,12.644405,12.64958,12.654345,12.658373,12.66184,12.665422,12.669243,12.673185,12.676786,12.679625,12.68177,12.683706,12.68602,12.689373,12.693771,12.69886,12.703943,12.708428,12.712294,12.7158985,12.719981,12.724802,12.730499,12.736817,12.743282,12.74954,12.755391,12.761837,12.768597,12.77536,12.781942,12.788073,12.793553,12.798828,12.804325,12.810149,12.816675,12.823759,12.831068,12.838312,12.844821,12.851135,12.857416,12.863659,12.869867,12.875852,12.881341,12.886282
12.624919,12.618842,12.612514,12.606161,12.599323,12.592295,12.585203,12.57816,12.571241,12.564337,12.557407,12.550125,12.5432415,12.537039,12.531405,12.526264,12.521654,12.51758,12.513651,12.509897,12.506405,12.502504,12.498014,12.493889,12.490298,12.487021,12.48396,12.480625,12.47658,12.471786,12.466661,12.461851,12.457212,12.452737,12.448491,12.444259,12.440208,12.43684,12.434267,12.43259,12.431448,12.4306755,12.429904,12.428728,12.427086,12.425339,12.423594,12.4218,12.420275,12.419214,12.418594,12.41821,12.417821,12.417292,12.416412,12.415249,12.414052,12.412918,12.411383,12.409059,12.406607,12.403809,12.401102,12.39855,12.396202,12.394072,12.392046,12.390007,12.38765,12.385185,12.382722,12.38052,12.378475,12.376303,12.374025,12.371595,12.36888,12.365789,12.362625,12.359604,12.356796,12.354291,12.351873,12.349632,12.347767,12.3466015,12.346151,12.34623,12.346583,12.346893,12.347191,12.34754,12.3479805,12.348554,12.349194,12.349829,12.350445,12.350897,12.351147,12.351385,12.351762,12.352307,12.352928,12.353386,12.353392,12.352949,12.351958,12.350592,12.349031,12.347423,12.345818,12.344328,12.34285,12.341431,12.340044,12.338739,12.337496,12.336237,12.335013,12.333863,12.332768,12.331916,12.331408,12.331215,12.331274,12.331465,12.331667,12.331896,12.331887,12.331491,12.330734,12.329707,12.328501,12.327234,12.325964,12.324734,12.323645,12.322914,12.322636,12.3227215,12.323142,12.323903,12.325081,12.32669,12.328688,12.331015,12.33359,12.336216,12.338903,12.341568,12.343966,12.345957,12.347637,12.34918,12.35063,12.352125,12.353834,12.355848,12.358316,12.361377,12.365001,12.368876,12.372709,12.3764,12.379588,12.382124,12.384195,12.386166,12.388219,12.390342,12.3925705,12.39464,12.396408,12.397855,12.399112,12.400339,12.401609,12.402849,12.40398,12.404837,12.405484,12.406298,12.407721,12.40998,12.4130535,12.416819,12.420803,12.424229,12.426657,12.428265,12.429465,12.430613,12.432152,12.43432,12.436853,12.439402,12.441725,12.443663,12.445246,12.446866,12.448562,12.450413,12.452362,12.4542265,12.455929,12.457492,12.458983,12.460681,12.462578,12.4645195,12.466266,12.467606,12.468507,12.4691925,12.469925,12.471102,12.472843,12.475084,12.477644,12.4803095,12.483146,12.486398,12.489919,12.493377,12.496362,12.498442,12.499464,12.499997,12.500418,12.501118,12.502513,12.50445,12.506519,12.508425,12.510047,12.5113125,12.512422,12.513384,12.514229,12.515053,12.515942,12.516966,12.518377,12.5205,12.523069,12.5259495,12.529172,12.532621,12.53611,12.54003,12.544323,12.5487,12.552885,12.556553,12.559649,12.562516,12.56539,12.568794,12.573094,12.577984,12.58297,12.587568,12.591469,12.594807,12.598219,12.601831,12.605496,12.608822,12.6114435,12.613382,12.615099,12.617147,12.620117,12.624039,12.628632,12.633307,12.637543,12.641285,12.644861,12.648977,12.653888,12.659748,12.666321,12.673071,12.679546,12.685536,12.692041,12.698874,12.705791,12.712645,12.71912,12.724913,12.7304,12.736052,12.741986,12.748646,12.7559,12.763363,12.770693,12.7772045,12.783331,12.789317,12.795235,12.80113,12.806898,12.812309,12.817213
12.561399,12.555002,12.54833,12.541649,12.534508,12.527237,12.5200405,12.51306,12.506324,12.499689,12.493086,12.486272,12.479963,12.474383,12.469379,12.464821,12.460704,12.457017,12.453432,12.450027,12.446864,12.443249,12.439001,12.435066,12.43162,12.428506,12.4256115,12.422444,12.418541,12.4138365,12.408773,12.404043,12.399458,12.394957,12.390593,12.386169,12.381857,12.378142,12.37517,12.373041,12.3713665,12.370156,12.369123,12.367916,12.366446,12.364941,12.363506,12.362106,12.361061,12.360569,12.360558,12.360763,12.360924,12.360888,12.360492,12.359771,12.358921,12.358042,12.356686,12.35449,12.352118,12.349328,12.346546,12.343817,12.341271,12.339008,12.336962,12.335014,12.33276,12.330384,12.327957,12.325736,12.3236475,12.321444,12.319162,12.316752,12.31408,12.311018,12.307869,12.30484,12.301998,12.29946,12.297007,12.29475,12.292894,12.291765,12.29137,12.291502,12.291882,12.292181,12.292443,12.292707,12.29302,12.293436,12.293894,12.294323,12.294706,12.294941,12.294966,12.294996,12.2952,12.295603,12.296122,12.296547,12.296528,12.296116,12.295152,12.293775,12.292183,12.290543,12.288933,12.287495,12.286124,12.284866,12.283651,12.282518,12.281473,12.280461,12.27956,12.278803,12.278167,12.277813,12.277783,12.278023,12.278448,12.278904,12.279272,12.279553,12.279467,12.278883,12.277868,12.276552,12.275063,12.273539,12.272003,12.270483,12.269072,12.268012,12.267426,12.267212,12.267349,12.267809,12.268639,12.2698765,12.271515,12.273518,12.275808,12.278179,12.280609,12.283023,12.285193,12.286987,12.288494,12.289878,12.291149,12.292425,12.293862,12.295569,12.297754,12.300577,12.3039875,12.307672,12.311281,12.3147135,12.3176365,12.319918,12.321764,12.323559,12.325497,12.327555,12.329783,12.331918,12.333821,12.335472,12.337013,12.338615,12.340292,12.341967,12.343452,12.344458,12.345063,12.345755,12.347106,12.349424,12.352647,12.3566265,12.360801,12.364334,12.366752,12.368256,12.369326,12.370308,12.371647,12.373592,12.375904,12.378252,12.380423,12.382275,12.383823,12.38545,12.387161,12.3890295,12.391009,12.392927,12.394695,12.396336,12.397941,12.399757,12.401789,12.40386,12.40569,12.407047,12.407919,12.408512,12.409093,12.410101,12.411673,12.413758,12.416229,12.418903,12.421825,12.425261,12.429037,12.432789,12.436061,12.438381,12.439598,12.440279,12.440799,12.441548,12.442916,12.444739,12.446626,12.448352,12.44986,12.451061,12.452207,12.453243,12.45413,12.454933,12.455747,12.456654,12.457928,12.459938,12.462431,12.46528,12.468472,12.471849,12.475231,12.478992,12.483118,12.487316,12.491344,12.494903,12.497936,12.500793,12.503687,12.507088,12.511312,12.516027,12.520786,12.525181,12.528925,12.532133,12.5354,12.538824,12.542233,12.545303,12.5477295,12.549505,12.551046,12.552865,12.555463,12.558901,12.562977,12.567215,12.571183,12.574829,12.578396,12.582609,12.587678,12.593796,12.600714,12.607849,12.614708,12.621017,12.627764,12.634808,12.641972,12.649147,12.655996,12.662119,12.667847,12.673656,12.67968,12.686359,12.693561,12.700886,12.7079935,12.714214,12.71991,12.725386,12.730758,12.736111,12.741428,12.746553,12.751272
12.503223,12.496498,12.489463,12.482439,12.474928,12.467332,12.459953,12.452948,12.446323,12.439956,12.433672,12.427325,12.421585,12.416599,12.412151,12.408075,12.404329,12.400904,12.397533,12.39436,12.391415,12.388021,12.384001,12.380244,12.376955,12.373971,12.371225,12.368195,12.364391,12.359744,12.354706,12.350016,12.34542,12.340866,12.336367,12.331743,12.327175,12.323152,12.319832,12.317308,12.315182,12.313597,12.312351,12.311146,12.3098755,12.3086405,12.307547,12.306575,12.306015,12.306058,12.3066,12.307333,12.30798,12.308388,12.308424,12.308081,12.307525,12.306854,12.305651,12.30356,12.301266,12.298506,12.295661,12.292767,12.29001,12.287601,12.285536,12.283662,12.281519,12.27925,12.276857,12.274609,12.272486,12.270279,12.2680435,12.26572,12.263178,12.260239,12.25718,12.254196,12.251356,12.248785,12.246292,12.243992,12.242121,12.241008,12.240656,12.240822,12.241208,12.241499,12.241713,12.241898,12.242103,12.242397,12.242719,12.242989,12.243221,12.243307,12.243177,12.24308,12.243153,12.243418,12.243823,12.244167,12.244098,12.243689,12.242775,12.24144,12.239874,12.238251,12.236637,12.235212,12.233884,12.232683,12.231546,12.230513,12.229608,12.228828,12.228252,12.227882,12.227709,12.22784,12.2282715,12.2289295,12.229727,12.230466,12.231041,12.231415,12.231302,12.230585,12.229367,12.22784,12.226157,12.224476,12.222787,12.221111,12.219528,12.218271,12.217461,12.217008,12.216896,12.217072,12.2175665,12.218449,12.219736,12.221405,12.223408,12.225533,12.227728,12.229944,12.231949,12.233605,12.234991,12.236228,12.237301,12.238316,12.239405,12.240726,12.242546,12.245075,12.248276,12.251797,12.25526,12.25852,12.261259,12.263341,12.2649765,12.266564,12.268311,12.27022,12.272357,12.274502,12.276518,12.278374,12.280231,12.282247,12.284355,12.286476,12.288317,12.289494,12.290098,12.290692,12.291956,12.294298,12.297644,12.3017845,12.306116,12.309726,12.312117,12.313528,12.314483,12.31533,12.316515,12.3182745,12.320389,12.322562,12.324614,12.326424,12.327974,12.329619,12.331371,12.33325,12.335227,12.337164,12.338959,12.340649,12.342339,12.344242,12.346367,12.348509,12.350338,12.351615,12.352353,12.352764,12.353125,12.353901,12.355265,12.357193,12.359583,12.362276,12.365303,12.368942,12.372981,12.377034,12.380606,12.383179,12.384587,12.385403,12.386005,12.386767,12.388053,12.389696,12.391363,12.392895,12.3942585,12.395416,12.396598,12.397701,12.398613,12.399357,12.40004,12.400791,12.4018955,12.403751,12.406141,12.40892,12.412035,12.415294,12.418488,12.421998,12.425844,12.429774,12.433585,12.437016,12.440024,12.442926,12.445892,12.449337,12.4535055,12.458063,12.462608,12.466814,12.470451,12.473578,12.476742,12.480011,12.4832,12.486044,12.488289,12.489923,12.491318,12.492954,12.495241,12.4982605,12.501876,12.505714,12.509438,12.512985,12.516556,12.520831,12.525988,12.532248,12.539386,12.546801,12.553959,12.560554,12.567488,12.574678,12.581989,12.5893545,12.596449,12.602842,12.608786,12.614759,12.620886,12.627541,12.634621,12.641746,12.648556,12.654465,12.659734,12.664701,12.669488,12.67421,12.678946,12.683624,12.688033
12.442697,12.435694,12.4283495,12.421009,12.41316,12.405225,12.397621,12.390574,12.384072,12.377976,12.37206,12.366194,12.360997,12.356529,12.352533,12.348814,12.345277,12.341956,12.338624,12.335512,12.332657,12.329411,12.325598,12.322033,12.318892,12.316065,12.313447,12.310528,12.306803,12.302189,12.2971525,12.292444,12.287812,12.28318,12.2785425,12.273739,12.2689705,12.2647,12.261095,12.258245,12.255747,12.253834,12.252414,12.2512455,12.250189,12.24925,12.248495,12.247923,12.247816,12.248331,12.249321,12.25046,12.251482,12.252233,12.25263,12.252621,12.252323,12.251826,12.250753,12.248791,12.246595,12.243883,12.2409725,12.23788,12.234879,12.232294,12.230191,12.228409,12.226383,12.224234,12.221891,12.219615,12.217455,12.215273,12.213127,12.210955,12.208603,12.205875,12.202991,12.200106,12.197296,12.194706,12.192167,12.189831,12.187942,12.18685,12.186533,12.186716,12.187094,12.187336,12.187473,12.1875725,12.187695,12.187904,12.188137,12.18832,12.188462,12.188473,12.188271,12.188103,12.188074,12.188187,12.18843,12.188665,12.188544,12.188147,12.187318,12.186092,12.184612,12.183041,12.181453,12.180048,12.178698,12.177479,12.176323,12.175289,12.174461,12.173868,12.173569,12.173534,12.173761,12.174297,12.175108,12.176119,12.177237,12.178232,12.179007,12.179485,12.179394,12.178621,12.177307,12.175686,12.173951,12.172272,12.170633,12.169016,12.167473,12.1662035,12.16531,12.164715,12.164419,12.164355,12.164562,12.165112,12.166061,12.167425,12.169149,12.171063,12.173092,12.175191,12.177115,12.178724,12.180063,12.181189,12.1820755,12.182808,12.1835165,12.184393,12.185797,12.188022,12.191036,12.194451,12.19784,12.201042,12.203689,12.205641,12.207102,12.208458,12.209934,12.211595,12.21353,12.215592,12.217661,12.219711,12.221897,12.224335,12.226883,12.229456,12.231663,12.23304,12.23366,12.234166,12.235353,12.237696,12.241146,12.245447,12.249922,12.253604,12.255976,12.257305,12.258158,12.258915,12.259996,12.261633,12.263622,12.265686,12.267664,12.269469,12.271061,12.272756,12.274546,12.276424,12.278369,12.280282,12.2820835,12.2838125,12.285576,12.287584,12.289812,12.292018,12.293833,12.2949915,12.295534,12.295683,12.295723,12.296167,12.297216,12.29888,12.301104,12.303763,12.306829,12.310622,12.314888,12.319208,12.323044,12.325842,12.327427,12.328375,12.329021,12.329765,12.330925,12.332321,12.333683,12.334937,12.336096,12.337147,12.33831,12.339431,12.340321,12.340956,12.341455,12.342007,12.342876,12.344526,12.3467655,12.349415,12.352386,12.355461,12.358418,12.361608,12.365101,12.368686,12.372231,12.375522,12.378528,12.381537,12.384651,12.388166,12.3923,12.3967,12.401016,12.405025,12.40856,12.411619,12.414707,12.417847,12.4208355,12.423473,12.425587,12.427158,12.428486,12.430033,12.432112,12.434807,12.438047,12.441544,12.445017,12.448458,12.451996,12.4562645,12.461393,12.467638,12.47481,12.482315,12.489632,12.496391,12.503407,12.510586,12.517838,12.525154,12.532269,12.538779,12.544859,12.550971,12.557233,12.563925,12.570934,12.577891,12.584446,12.590103,12.595001,12.599512,12.603716,12.607756,12.611822,12.61596,12.619971
12.37994,12.372854,12.365475,12.358091,12.350216,12.342254,12.334713,12.327875,12.321704,12.316038,12.310572,12.305214,12.300542,12.296518,12.292845,12.289317,12.285809,12.2824,12.278917,12.275679,12.272741,12.269506,12.265802,12.262352,12.259313,12.256595,12.254059,12.251221,12.247573,12.243016,12.238025,12.2333355,12.228724,12.224073,12.21937,12.214476,12.209594,12.205179,12.201396,12.198347,12.195633,12.193562,12.1921015,12.191057,12.19027,12.189657,12.1892395,12.189045,12.189306,12.190168,12.191466,12.192865,12.194109,12.195053,12.195674,12.195866,12.195717,12.19532,12.194317,12.192405,12.190248,12.187504,12.184449,12.181084,12.177768,12.174952,12.172781,12.171108,12.169244,12.167274,12.165058,12.162825,12.160673,12.158537,12.1565075,12.154522,12.152388,12.149895,12.147187,12.144381,12.141568,12.138919,12.136304,12.133905,12.131973,12.130882,12.130577,12.130753,12.131116,12.13132,12.131406,12.131447,12.131521,12.131683,12.131845,12.131932,12.131966,12.1318445,12.1315,12.131165,12.130902,12.13074,12.13072,12.130745,12.130539,12.130154,12.129443,12.128412,12.1271305,12.125725,12.124276,12.1229515,12.121637,12.120419,12.119236,12.118185,12.117404,12.116941,12.116848,12.1170845,12.117618,12.118449,12.11953,12.120792,12.122135,12.123316,12.124256,12.124821,12.124756,12.123964,12.122604,12.120942,12.119211,12.117583,12.116035,12.114518,12.113062,12.111822,12.110884,12.1102085,12.109805,12.109625,12.109697,12.110115,12.110952,12.112242,12.113938,12.115873,12.117964,12.120174,12.122244,12.124023,12.125505,12.126688,12.1275425,12.128124,12.128558,12.129114,12.130213,12.132209,12.135104,12.138466,12.141813,12.144976,12.147522,12.149282,12.150457,12.1514225,12.152415,12.15358,12.155013,12.156654,12.158433,12.160381,12.162655,12.165302,12.1681385,12.171049,12.173563,12.175153,12.175892,12.176476,12.177771,12.180303,12.184055,12.188707,12.193513,12.197433,12.199909,12.201237,12.202049,12.202758,12.203789,12.205363,12.20728,12.209276,12.211222,12.213041,12.214693,12.216452,12.218281,12.220149,12.22204,12.223892,12.2256565,12.227367,12.229155,12.231192,12.233426,12.235584,12.237251,12.238144,12.238312,12.238018,12.23755,12.237482,12.2380705,12.239357,12.24132,12.243862,12.24688,12.250744,12.255154,12.259653,12.263674,12.266629,12.268329,12.269331,12.269959,12.270625,12.271576,12.272648,12.273659,12.274607,12.27555,12.27653,12.277718,12.278923,12.279871,12.280477,12.280869,12.281278,12.281948,12.283382,12.285414,12.287851,12.29056,12.293307,12.2958975,12.298632,12.301632,12.304749,12.3079195,12.311023,12.314049,12.31719,12.320485,12.324118,12.328238,12.332487,12.336582,12.340401,12.343834,12.346849,12.349887,12.352938,12.3558,12.358311,12.360357,12.361949,12.363319,12.364909,12.366955,12.369536,12.372607,12.375931,12.379282,12.382687,12.386225,12.390442,12.3954315,12.401452,12.408365,12.4156475,12.422798,12.429431,12.4362545,12.443146,12.450069,12.457071,12.46398,12.470482,12.476641,12.48294,12.489428,12.496281,12.503346,12.510267,12.516714,12.522272,12.526967,12.531181,12.534931,12.538393,12.54187,12.545498,12.549139
12.315743,12.309354,12.30228,12.295221,12.287701,12.280122,12.27307,12.266836,12.261296,12.2562475,12.25133,12.246494,12.2423115,12.238656,12.235172,12.231662,12.227994,12.224334,12.220535,12.216995,12.213797,12.210407,12.2066765,12.203234,12.200211,12.197521,12.195003,12.192203,12.188627,12.184165,12.179282,12.174686,12.170176,12.165611,12.160969,12.156107,12.151234,12.146803,12.142983,12.139897,12.137163,12.135112,12.133758,12.132926,12.132431,12.132124,12.131989,12.132059,12.1325245,12.133525,12.134915,12.136362,12.137616,12.138567,12.139219,12.13945,12.139328,12.138948,12.137953,12.136021,12.133814,12.130953,12.127672,12.1239605,12.120268,12.117171,12.114904,12.113338,12.111672,12.109961,12.107964,12.105877,12.103815,12.101757,12.099831,12.098013,12.096081,12.093789,12.091203,12.088415,12.085545,12.082785,12.080055,12.077582,12.075594,12.074477,12.074152,12.074291,12.074623,12.074804,12.074863,12.074871,12.0749035,12.075,12.075056,12.074987,12.074837,12.074478,12.0738735,12.073212,12.072556,12.07198,12.071598,12.071343,12.071026,12.070654,12.070111,12.069357,12.068389,12.067289,12.066118,12.064999,12.063839,12.062725,12.061583,12.060537,12.05978,12.059389,12.059401,12.059786,12.060485,12.061447,12.062613,12.063936,12.065336,12.066576,12.067584,12.068188,12.068134,12.0673485,12.065994,12.064358,12.062686,12.061129,12.059664,12.058233,12.05685,12.055634,12.054664,12.053955,12.053522,12.053368,12.053513,12.054066,12.05511,12.056659,12.0586605,12.060923,12.063385,12.066003,12.068495,12.070692,12.072547,12.074003,12.075024,12.075658,12.076033,12.076477,12.077459,12.0793705,12.08223,12.085594,12.088918,12.092033,12.0944395,12.095929,12.096688,12.097086,12.097378,12.09779,12.098383,12.09919,12.100229,12.101637,12.10361,12.106148,12.109013,12.11207,12.114763,12.116566,12.117547,12.118425,12.120098,12.12309,12.12742,12.132699,12.138102,12.142479,12.145218,12.146646,12.147495,12.148197,12.149231,12.150788,12.15268,12.154658,12.156597,12.1584425,12.160145,12.161949,12.163807,12.165657,12.167498,12.169288,12.17099,12.172639,12.174385,12.176365,12.178511,12.1805,12.18188,12.18235,12.181969,12.181043,12.179859,12.179077,12.179032,12.17981,12.181404,12.183732,12.186609,12.190453,12.194906,12.199475,12.203571,12.206587,12.208305,12.20928,12.209806,12.2103,12.210949,12.211635,12.212286,12.212952,12.213732,12.214717,12.216032,12.217457,12.218627,12.219379,12.219833,12.220234,12.220822,12.222102,12.223915,12.226067,12.228397,12.23068,12.232763,12.234913,12.237297,12.239848,12.242582,12.245471,12.248519,12.251804,12.255312,12.259113,12.263271,12.267423,12.271331,12.274969,12.278303,12.2812805,12.284288,12.287281,12.290066,12.292513,12.294558,12.296232,12.297754,12.299519,12.3017235,12.304408,12.307537,12.310904,12.314299,12.317735,12.321286,12.325398,12.330107,12.335656,12.341972,12.348633,12.355207,12.361343,12.367622,12.373924,12.380255,12.3867,12.393214,12.399609,12.40584,12.412418,12.419273,12.42648,12.433838,12.440966,12.447557,12.453249,12.457987,12.462159,12.465698,12.468832,12.471949,12.475239,12.478651
12.25063,12.245358,12.239203,12.233112,12.226614,12.220141,12.214038,12.208565,12.203772,12.199362,12.194973,12.190554,12.186764,12.183376,12.179968,12.1763525,12.172416,12.16843,12.164242,12.160307,12.156755,12.153117,12.149263,12.145775,12.14271,12.139999,12.137463,12.134681,12.131173,12.126827,12.122096,12.11764,12.113283,12.108886,12.104403,12.09968,12.094919,12.090569,12.086819,12.083807,12.08118,12.079248,12.078068,12.077469,12.07723,12.077183,12.077263,12.077492,12.078026,12.0790205,12.080351,12.081697,12.082834,12.083687,12.084257,12.0844555,12.08433,12.083971,12.082998,12.081044,12.078758,12.075748,12.072205,12.068118,12.064041,12.060669,12.058316,12.056887,12.055466,12.0541,12.052439,12.0506115,12.048727,12.046783,12.044954,12.043273,12.041506,12.0393715,12.036873,12.034071,12.031113,12.028239,12.02541,12.022906,12.020897,12.019769,12.01942,12.019505,12.0197735,12.019905,12.019915,12.019849,12.019768,12.019703,12.019561,12.0192585,12.018845,12.01818,12.017233,12.016165,12.015039,12.014,12.01322,12.012678,12.012246,12.011883,12.011508,12.01104,12.0104065,12.009649,12.008805,12.007957,12.007031,12.0061,12.00507,12.004078,12.003356,12.0030155,12.003077,12.003544,12.004314,12.005294,12.006403,12.007628,12.008936,12.010111,12.01108,12.011665,12.011614,12.010861,12.009573,12.008036,12.006481,12.0050335,12.003666,12.002312,12.000973,11.999748,11.998726,11.9979725,11.997517,11.99741,11.9977,11.998507,11.999908,12.001902,12.00439,12.007154,12.010147,12.013311,12.016331,12.01903,12.021336,12.023142,12.024401,12.025174,12.0256,12.026035,12.026989,12.028864,12.031698,12.035036,12.038301,12.041317,12.043531,12.044714,12.04504,12.044865,12.044466,12.044107,12.04378,12.043602,12.043686,12.044289,12.045687,12.047857,12.050517,12.053494,12.056202,12.058133,12.059383,12.060674,12.062888,12.066511,12.071579,12.077644,12.08378,12.088722,12.09179,12.0933485,12.094239,12.09494,12.095995,12.097578,12.099518,12.101561,12.103565,12.10548,12.107264,12.109123,12.111015,12.112875,12.114702,12.1164665,12.118141,12.119766,12.121477,12.123423,12.125498,12.127324,12.128408,12.1284275,12.127451,12.125824,12.123829,12.122223,12.121431,12.12158,12.122695,12.12468,12.127295,12.130981,12.135342,12.139856,12.143912,12.14688,12.148538,12.149431,12.149818,12.1501045,12.150436,12.150748,12.151068,12.151501,12.152175,12.153226,12.154732,12.15645,12.15794,12.158962,12.159614,12.160131,12.160753,12.161957,12.163574,12.165418,12.167324,12.16909,12.170628,12.172182,12.173936,12.175917,12.178226,12.180909,12.183968,12.187377,12.191084,12.195059,12.199281,12.203368,12.207121,12.210581,12.213806,12.216718,12.219685,12.222622,12.225334,12.227737,12.229811,12.231615,12.233345,12.235369,12.23785,12.240776,12.244106,12.247652,12.25119,12.254701,12.258274,12.262251,12.266613,12.271567,12.277094,12.282883,12.288612,12.29401,12.299552,12.305125,12.310762,12.316581,12.322634,12.328875,12.335177,12.342052,12.349325,12.356987,12.364761,12.372241,12.379135,12.385082,12.3899975,12.394291,12.397808,12.400843,12.40384,12.407009,12.410369
12.186903,12.182403,12.177586,12.172872,12.16782,12.1628895,12.157976,12.153307,12.149292,12.145512,12.14167,12.137666,12.134147,12.130884,12.1274605,12.123698,12.119493,12.115198,12.110658,12.106355,12.102467,12.098581,12.094587,12.091032,12.087921,12.085182,12.082613,12.0798435,12.076403,12.07217,12.067587,12.063274,12.059078,12.054867,12.050573,12.046033,12.041419,12.037172,12.033512,12.030592,12.028082,12.026278,12.02525,12.024841,12.024812,12.024998,12.025286,12.025659,12.026257,12.027241,12.028507,12.029764,12.0308,12.031567,12.032074,12.032271,12.032206,12.031954,12.031083,12.02916,12.02683,12.023687,12.019903,12.015475,12.011066,12.007485,12.005114,12.003886,12.002796,12.00187,12.000663,11.999205,11.99757,11.995785,11.994072,11.992517,11.99089,11.988899,11.986488,11.983686,11.980661,11.977726,11.974876,11.97242,11.970477,11.969402,11.969064,11.969103,11.96928,11.969326,11.969225,11.968997,11.968681,11.968333,11.967876,11.967254,11.966537,11.965542,11.964244,11.962793,11.961248,11.959791,11.958668,11.957872,11.957333,11.956963,11.956684,11.956406,11.956005,11.955488,11.954903,11.95427,11.95357,11.952839,11.951969,11.951098,11.950478,11.950236,11.95039,11.950963,11.951823,11.952814,11.953849,11.954941,11.956099,11.957146,11.958023,11.958551,11.958492,11.957788,11.956602,11.955195,11.953781,11.952473,11.9512005,11.949899,11.948552,11.947245,11.946093,11.9452,11.944624,11.944459,11.94478,11.945739,11.947424,11.949806,11.952742,11.955967,11.959414,11.963026,11.96644,11.969492,11.9720955,11.974125,11.97551,11.976331,11.976723,11.977076,11.977913,11.97966,11.98236,11.985561,11.988667,11.991477,11.993437,11.994329,11.99432,11.993761,11.992933,11.992067,11.991083,11.990131,11.989381,11.98921,11.989983,11.991655,11.993959,11.99666,11.999199,12.001113,12.002544,12.004215,12.00696,12.01122,12.017008,12.023802,12.030601,12.036034,12.039354,12.040972,12.041829,12.042483,12.043528,12.045173,12.047234,12.049448,12.051651,12.053741,12.055685,12.057674,12.059664,12.061598,12.063471,12.065274,12.067001,12.068691,12.070471,12.0725,12.074628,12.0764265,12.077349,12.077034,12.075556,12.073311,12.070585,12.068216,12.066694,12.066196,12.066756,12.068279,12.070501,12.073882,12.078009,12.082347,12.086258,12.0891,12.090654,12.091453,12.091721,12.09186,12.091963,12.091993,12.092062,12.092331,12.092931,12.094063,12.095739,12.097713,12.099494,12.100782,12.101658,12.102348,12.103056,12.104242,12.105713,12.107285,12.108818,12.110131,12.11121,12.112268,12.113497,12.114994,12.116934,12.119427,12.122466,12.125933,12.129756,12.13385,12.138088,12.142094,12.145697,12.148985,12.152069,12.15488,12.157776,12.160644,12.163282,12.16563,12.167733,12.169681,12.171619,12.173908,12.1766815,12.179874,12.183434,12.187172,12.190874,12.194496,12.198132,12.202021,12.206112,12.210541,12.215323,12.220261,12.22513,12.229778,12.234623,12.239551,12.244622,12.249941,12.255618,12.261713,12.268048,12.275137,12.282722,12.290733,12.298819,12.306551,12.313664,12.319767,12.324781,12.32915,12.33268,12.335716,12.338749,12.341978,12.345428
12.128902,12.125082,12.120908,12.116768,12.11231,12.107899,12.103908,12.100512,12.097552,12.09469,12.091761,12.088591,12.085341,12.082045,12.07857,12.074696,12.070305,12.065763,12.060965,12.056381,12.052223,12.048119,12.043974,12.040318,12.037144,12.03433,12.031721,12.028929,12.025512,12.021364,12.016888,12.012682,12.008623,12.004578,12.0004635,11.996082,11.991583,11.987398,11.983801,11.9809265,11.978495,11.976772,11.975851,11.975597,11.975774,11.976209,11.976734,11.977308,11.978018,11.979035,11.980289,11.981502,11.982485,11.983198,11.983689,11.983924,11.983959,11.983856,11.983124,11.981274,11.9789295,11.975696,11.971727,11.967043,11.962395,11.958691,11.956373,11.955404,11.954704,11.95427,11.95359,11.952574,11.951249,11.949668,11.948082,11.94665,11.945165,11.9433155,11.940996,11.938213,11.935172,11.932242,11.92945,11.927105,11.925314,11.924364,11.924076,11.92408,11.924167,11.9241295,11.923893,11.923449,11.922819,11.92209,11.921232,11.920225,11.919181,11.917866,11.916263,11.914495,11.912622,11.910871,11.909514,11.908531,11.907896,11.907488,11.9072275,11.907013,11.906704,11.9063015,11.905856,11.905368,11.90485,11.904337,11.903681,11.903015,11.902587,11.902515,11.902836,11.903568,11.904552,11.905593,11.906583,11.90755,11.908548,11.90947,11.910241,11.910702,11.910614,11.909937,11.90884,11.907562,11.906273,11.905067,11.903842,11.902534,11.901101,11.899626,11.8982525,11.897123,11.896326,11.895988,11.896207,11.897171,11.898999,11.901644,11.9049015,11.908452,11.912203,11.916077,11.91968,11.922858,11.92554,11.927578,11.928926,11.92964,11.929861,11.930017,11.930624,11.932114,11.934561,11.937511,11.940353,11.942885,11.944575,11.945219,11.944999,11.94427,11.943293,11.942226,11.94092,11.939512,11.938184,11.937381,11.937543,11.938688,11.940535,11.942846,11.94508,11.946864,11.948382,11.950348,11.95355,11.958355,11.964733,11.972082,11.979351,11.985092,11.98852,11.990095,11.990861,11.991409,11.992402,11.994096,11.996319,11.998789,12.001291,12.003667,12.005856,12.008058,12.010216,12.012286,12.0142765,12.01618,12.018017,12.019833,12.02176,12.023975,12.026268,12.02817,12.029079,12.028578,12.026756,12.024057,12.020773,12.017808,12.0156975,12.014633,12.014672,12.015724,12.017521,12.020542,12.02438,12.028478,12.0321865,12.034874,12.036316,12.037037,12.037228,12.037287,12.037263,12.037135,12.0370655,12.037242,12.03783,12.039034,12.040835,12.042992,12.044985,12.04648,12.047547,12.0484,12.049215,12.050442,12.051837,12.053243,12.054525,12.055513,12.056234,12.056918,12.057741,12.05885,12.060474,12.062778,12.065748,12.069189,12.073037,12.07716,12.081358,12.085262,12.088713,12.091818,12.094746,12.097441,12.10026,12.103069,12.105633,12.107932,12.110062,12.112112,12.114246,12.116747,12.119756,12.123156,12.126883,12.130786,12.134657,12.138412,12.142145,12.146055,12.15,12.154053,12.158245,12.162464,12.166596,12.170596,12.174858,12.179326,12.184019,12.189017,12.194469,12.200459,12.206787,12.213987,12.2217245,12.229898,12.238096,12.245869,12.252981,12.259028,12.263962,12.268278,12.271766,12.274836,12.278009,12.281424,12.2850685
12.071096,12.067772,12.064085,12.060377,12.056413,12.052477,12.048922,12.0459175,12.043279,12.040636,12.037887,12.034893,12.032225,12.029684,12.026901,12.02375,12.020056,12.015352,12.010273,12.00535,12.0009365,11.99667,11.992395,11.988646,11.985379,11.982448,11.979725,11.976819,11.973328,11.969168,11.9647045,11.960519,11.956513,11.952565,11.948596,11.944406,11.940088,11.93605,11.932593,11.929873,11.927595,11.926047,11.925334,11.925331,11.925817,11.926596,11.927436,11.928251,11.929092,11.930122,11.931306,11.932421,11.933308,11.933947,11.93439,11.934645,11.934774,11.934809,11.93421,11.93243,11.930093,11.926809,11.922737,11.917892,11.913107,11.909374,11.907165,11.906477,11.9061985,11.9062805,11.906147,11.9056,11.904615,11.903265,11.901839,11.900557,11.899263,11.897594,11.895468,11.892862,11.889967,11.887215,11.884614,11.8825,11.880922,11.880106,11.879823,11.879707,11.879601,11.879332,11.878809,11.877992,11.876921,11.875713,11.874403,11.873024,11.871687,11.870155,11.868404,11.866533,11.864595,11.862811,11.861429,11.860413,11.859762,11.859327,11.859026,11.8587475,11.858367,11.85791,11.8574505,11.856998,11.856565,11.856224,11.855789,11.855362,11.855186,11.855356,11.855892,11.856832,11.857964,11.859049,11.859957,11.860739,11.861513,11.862228,11.862826,11.86318,11.863045,11.862389,11.86138,11.860235,11.859089,11.858014,11.856884,11.855636,11.854188,11.852631,11.851128,11.849825,11.848831,11.848307,11.848375,11.849247,11.85108,11.853838,11.857276,11.861017,11.86496,11.868971,11.872656,11.875866,11.878532,11.880506,11.881747,11.882299,11.882289,11.882172,11.882473,11.883619,11.885713,11.888351,11.890892,11.893106,11.894533,11.894973,11.894628,11.893898,11.893009,11.892011,11.890701,11.889155,11.887556,11.886359,11.886047,11.886696,11.88806,11.889917,11.891771,11.893325,11.894815,11.896912,11.900311,11.905337,11.911903,11.919355,11.926647,11.932321,11.9356,11.936998,11.937603,11.938036,11.939016,11.940847,11.943357,11.946226,11.9491625,11.951936,11.954445,11.956911,11.959243,11.961422,11.963469,11.965395,11.967284,11.969198,11.971308,11.973804,11.976437,11.978657,11.979785,11.9793415,11.977418,11.9744835,11.970851,11.967466,11.96488,11.963303,11.962816,11.963358,11.964715,11.967363,11.970921,11.974821,11.978393,11.98098,11.9823475,11.983044,11.983247,11.983349,11.983345,11.983202,11.983113,11.983287,11.983879,11.9851265,11.986977,11.989176,11.991228,11.992796,11.993925,11.994848,11.995735,11.99698,11.998339,11.999647,12.000774,12.0015545,12.002039,12.002468,12.002979,12.003769,12.005083,12.007116,12.009859,12.013092,12.016735,12.020668,12.02463,12.028257,12.031429,12.034292,12.037028,12.039602,12.042345,12.0451145,12.047646,12.049955,12.052187,12.05442,12.056798,12.05957,12.062819,12.066402,12.0702505,12.074256,12.078247,12.0821,12.0859165,12.089855,12.093695,12.09746,12.10116,12.104744,12.108206,12.111624,12.115377,12.119442,12.123819,12.128549,12.133759,12.139547,12.145725,12.152796,12.160427,12.168503,12.176567,12.184171,12.191096,12.196909,12.201628,12.205767,12.209183,12.212354,12.21579,12.219561,12.223591
12.010656,12.008434,12.005819,12.003311,11.999668,11.995792,11.992253,11.989183,11.98649,11.98381,11.980976,11.977877,11.975267,11.972896,11.970316,11.967409,11.9640465,11.960099,11.955875,11.951889,11.947778,11.943256,11.938728,11.934757,11.931256,11.92814,11.925219,11.922102,11.918419,11.914115,11.909559,11.905289,11.901233,11.89731,11.893438,11.889427,11.885344,11.881538,11.878311,11.875838,11.873804,11.872532,11.872126,11.872475,11.873374,11.874601,11.875849,11.876993,11.878008,11.879046,11.8801365,11.881123,11.881891,11.882446,11.882838,11.883114,11.883316,11.88345,11.882946,11.881221,11.87891,11.875626,11.87156,11.866697,11.861931,11.858292,11.856272,11.855912,11.856101,11.856721,11.857168,11.857121,11.856498,11.855412,11.854174,11.853063,11.852001,11.85059,11.848772,11.846516,11.843984,11.841619,11.839405,11.837669,11.836405,11.835758,11.835465,11.835173,11.834768,11.8341675,11.833235,11.831931,11.830324,11.828577,11.8267975,11.825085,11.823523,11.82189,11.820164,11.818425,11.816695,11.815138,11.813942,11.813034,11.812422,11.811951,11.811526,11.811047,11.810417,11.809715,11.8090725,11.808519,11.808069,11.8078375,11.807613,11.807469,11.807615,11.808113,11.808945,11.810152,11.811481,11.812635,11.813455,11.814026,11.814541,11.815014,11.8154125,11.815639,11.815447,11.814802,11.813875,11.812855,11.811847,11.810902,11.809887,11.808723,11.807317,11.80575,11.804188,11.802772,11.801619,11.800898,11.800743,11.801409,11.803093,11.805777,11.809206,11.812985,11.816956,11.820955,11.824581,11.8276825,11.830196,11.831974,11.832985,11.833263,11.832903,11.832365,11.832209,11.832887,11.834519,11.8367405,11.838912,11.840778,11.84192,11.842194,11.841843,11.841284,11.840704,11.840059,11.839116,11.83786,11.836391,11.8351345,11.834572,11.834831,11.835749,11.83712,11.838545,11.83979,11.84111,11.843109,11.846377,11.8512,11.857413,11.864359,11.871077,11.876172,11.878943,11.879961,11.880312,11.880587,11.881559,11.883587,11.886495,11.889899,11.893413,11.896685,11.899609,11.902395,11.904928,11.9071865,11.909205,11.911066,11.912936,11.91491,11.917221,11.920103,11.923247,11.926029,11.927658,11.927551,11.9258,11.922911,11.919223,11.915678,11.912815,11.910862,11.909927,11.909997,11.910946,11.913263,11.916613,11.920404,11.923918,11.926476,11.927847,11.928581,11.928886,11.929149,11.929316,11.929298,11.929287,11.929505,11.9300785,11.931301,11.9330845,11.935167,11.937096,11.938564,11.939618,11.940508,11.941392,11.942619,11.943957,11.945238,11.9463215,11.947034,11.94742,11.94771,11.948032,11.948577,11.949587,11.951262,11.95361,11.956425,11.959616,11.963091,11.966569,11.969721,11.972477,11.97501,11.977516,11.979973,11.982662,11.985441,11.988004,11.990402,11.992819,11.995316,11.997999,12.001085,12.004581,12.008335,12.012262,12.016306,12.020359,12.024279,12.028163,12.032167,12.036001,12.039608,12.042972,12.04607,12.048992,12.051954,12.055313,12.059074,12.063208,12.067696,12.0726185,12.078049,12.083841,12.090454,12.09761,12.105193,12.112744,12.119839,12.126261,12.131537,12.1357975,12.139561,12.142817,12.146097,12.149886,12.154163,12.158726
