9.242182,9.23662,9.22979,9.221449,9.213081,9.205698,9.19932,9.192877,9.186053,9.179342,9.173155,9.167361,9.161803,9.155882,9.149588,9.143033,9.136361,9.129708,9.123205,9.117004,9.110704,9.104145,9.097729,9.091932,9.0871525,9.083464,9.080532,9.078281,9.07649,9.075092,9.073725,9.071987,9.069717,9.066967,9.063801,9.059949,9.055813,9.051508,9.047104,9.042603,9.03785,9.033065,9.028001,9.022797,9.01749,9.012184,9.006989,9.001981,8.997237,8.992329,8.9871025,8.981726,8.976318,8.97094,8.965665,8.960569,8.95549,8.950018,8.944196,8.938158,8.931974,8.925776,8.91989,8.914274,8.908731,8.903376,8.8983555,8.893692,8.889206,8.884734,8.880277,8.875029,8.869274,8.863258,8.857281,8.851609,8.846457,8.842104,8.839611,8.837196,8.834488,8.8314,8.828065,8.82476,8.8217125,8.81889,8.816189,8.813356,8.810108,8.806417,8.802555,8.79888,8.79554,8.792496,8.789956,8.788009,8.786623,8.785688,8.784948,8.784085,8.782766,8.780966,8.778769,8.776411,8.774246,8.772446,8.770824,8.7690935,8.767306,8.765275,8.763109,8.76103,8.759083,8.75725,8.755381,8.753547,8.751886,8.750351,8.74881,8.747231,8.745705,8.7443285,8.743238,8.742717,8.742799,8.74332,8.744158,8.745361,8.746986,8.749006,8.75145,8.754077,8.756468,8.758484,8.76038,8.762214,8.763866,8.764857,8.764994,8.764383,8.763167,8.761542,8.759941,8.757857,8.754139,8.749022,8.742605,8.735453,8.7286625,8.723055,8.718664,8.715492,8.713928,8.714133,8.716122,8.719753,8.724443,8.728838,8.732296,8.733388,8.731404,8.726564,8.719607,8.711409,8.703118,8.697799,8.695955,8.695326,8.69552,8.698156,8.704024,8.711969,8.720764,8.729114,8.736568,8.743286,8.749479,8.75491,8.75898,8.761311,8.762152,8.761957,8.762136,8.763454,8.765802,8.769035,8.773003,8.777465,8.782254,8.787212,8.792437,8.797991,8.803637,8.809023,8.814627,8.819988,8.824699,8.8284855,8.831154,8.832698,8.83346,8.834602,8.835871,8.837502,8.839514,8.842155,8.845916,8.8508835,8.856838,8.864095,8.8709545,8.876204,8.879738,8.88166,8.881771,8.880946,8.879224,8.877409,8.87558,8.874355,8.87417,8.874579,8.875556,8.876816,8.878962,8.882517,8.887241,8.892614,8.89819,8.90327,8.908344,8.91427,8.924168,8.935715,8.946302,8.956295,8.965729,8.975458,8.985499,8.995014,9.003457,9.010798,9.017384,9.02355,9.029409,9.035522,9.041757,9.048371,9.054949,9.060749,9.065503,9.068981,9.071714,9.074026,9.076183,9.078375,9.080728,9.083399,9.086603,9.090326,9.095135,9.101044,9.1079855,9.115671,9.123534,9.131052,9.138747,9.146891,9.155603,9.164268,9.172045,9.179385,9.18841,9.202166,9.216976,9.232254,9.247971,9.263802,9.278995,9.293057,9.306139,9.319731,9.334499,9.350262,9.3662615,9.381804,9.396621,9.4105015,9.423475,9.436609,9.448924,9.460546,9.471939,9.483086,9.493965,9.504955,9.516436,9.528543,9.541248,9.5543785,9.567673,9.580817,9.59441,9.609146,9.6248,9.640688,9.656326,9.671436
9.138977,9.129551,9.119099,9.107961,9.09724,9.08705,9.076902,9.066603,9.056686,9.046794,9.036677,9.027153,9.018024,9.00722,8.995651,8.983873,8.972102,8.960548,8.949549,8.939394,8.92937,8.9191675,8.90915,8.899732,8.891409,8.884472,8.878668,8.87384,8.869612,8.865856,8.862144,8.858002,8.853153,8.848,8.844814,8.842794,8.840531,8.837675,8.83411,8.830685,8.829176,8.829981,8.830916,8.832047,8.83325,8.834507,8.835822,8.83716,8.838484,8.839621,8.840424,8.840992,8.841253,8.840961,8.839949,8.838215,8.835845,8.832945,8.830046,8.8276615,8.825811,8.824104,8.822279,8.82031,8.818445,8.81694,8.816211,8.816345,8.817027,8.817937,8.818951,8.82037,8.822066,8.823718,8.825178,8.826391,8.827259,8.827826,8.828632,8.82916,8.828941,8.827687,8.8256035,8.823257,8.821139,8.819466,8.818461,8.817966,8.817481,8.816614,8.815327,8.813799,8.812195,8.810845,8.810049,8.809759,8.809642,8.80928,8.808291,8.806386,8.803318,8.799257,8.794384,8.789089,8.783989,8.779554,8.775776,8.772169,8.768837,8.765847,8.763109,8.760715,8.758862,8.757442,8.756134,8.754761,8.753251,8.75147,8.749414,8.747354,8.745603,8.74414,8.742942,8.7423,8.742325,8.742979,8.744324,8.74654,8.749546,8.753197,8.757544,8.762108,8.766324,8.769739,8.772156,8.773704,8.774277,8.773478,8.771504,8.768705,8.765297,8.761549,8.757923,8.753979,8.748669,8.742439,8.735864,8.729516,8.724393,8.721672,8.720774,8.721295,8.721984,8.72257,8.723454,8.725307,8.72864,8.732881,8.736908,8.73901,8.738224,8.734891,8.730314,8.725939,8.722939,8.719706,8.717151,8.715103,8.714304,8.716725,8.723442,8.732819,8.743095,8.752928,8.760745,8.766906,8.772499,8.777678,8.781766,8.78433,8.78553,8.785781,8.786017,8.787098,8.789289,8.792326,8.796097,8.800308,8.80478,8.809305,8.813949,8.818808,8.823732,8.828496,8.833545,8.838477,8.842873,8.846512,8.84923,8.850941,8.851912,8.853323,8.8547535,8.856384,8.858303,8.860888,8.864714,8.869867,8.876171,8.883905,8.891149,8.8966255,8.900345,8.902406,8.902488,8.901682,8.8999605,8.89826,8.896511,8.895018,8.894022,8.893129,8.892469,8.89171,8.891705,8.893486,8.896767,8.900733,8.905167,8.91002,8.915289,8.921377,8.929081,8.937273,8.944787,8.951692,8.958256,8.965549,8.973646,8.9817505,8.989159,8.995933,9.002703,9.009857,9.017289,9.025411,9.033851,9.042574,9.050903,9.058107,9.064164,9.068993,9.073144,9.076746,9.079675,9.082005,9.084156,9.086676,9.089935,9.0937605,9.098898,9.105486,9.113638,9.122963,9.132276,9.140272,9.14723,9.152992,9.158796,9.164389,9.169037,9.172285,9.173943,9.175396,9.1758585,9.174822,9.173319,9.171792,9.169982,9.168175,9.16696,9.166538,9.167428,9.169247,9.170929,9.171765,9.172131,9.173338,9.183309,9.193763,9.208931,9.226683,9.243619,9.260124,9.275959,9.2917595,9.308212,9.325056,9.342098,9.359097,9.375904,9.392515,9.40937,9.427801,9.447475,9.467564,9.48723,9.505942
8.980288,8.963676,8.945349,8.925472,8.906481,8.888015,8.868925,8.849552,8.830091,8.815397,8.806881,8.798753,8.791075,8.790146,8.79078,8.791391,8.791901,8.792393,8.792759,8.792929,8.792991,8.792566,8.791978,8.791771,8.792191,8.793012,8.793795,8.794546,8.795362,8.796368,8.797037,8.797025,8.796413,8.795445,8.795496,8.796115,8.796481,8.796417,8.796013,8.795958,8.797337,8.800351,8.803831,8.807645,8.811495,8.815693,8.820345,8.825186,8.830589,8.836224,8.841387,8.846427,8.850906,8.85404,8.85557,8.855598,8.854486,8.852589,8.850622,8.849258,8.848463,8.847665,8.846512,8.845151,8.84416,8.844125,8.844768,8.846489,8.849646,8.853487,8.857637,8.862444,8.867607,8.87268,8.877519,8.881954,8.885629,8.88846,8.890812,8.892263,8.892448,8.891306,8.889122,8.886432,8.883863,8.881971,8.881076,8.881084,8.881375,8.881359,8.88084,8.8799,8.878717,8.877798,8.877462,8.877604,8.877767,8.8774185,8.87612,8.873598,8.869648,8.864501,8.858429,8.85191,8.84567,8.840256,8.83568,8.831317,8.82716,8.823076,8.818991,8.815186,8.812059,8.809622,8.807497,8.805355,8.803033,8.800397,8.797547,8.794865,8.7927475,8.791101,8.789717,8.78886,8.7886505,8.789076,8.79022,8.792274,8.795102,8.798482,8.802563,8.806978,8.811159,8.814587,8.816978,8.818309,8.818388,8.816825,8.81393,8.810139,8.805744,8.801086,8.79668,8.792192,8.786518,8.780558,8.772665,8.764095,8.75892,8.75815,8.760532,8.763138,8.765167,8.76647,8.767351,8.768454,8.770493,8.773685,8.773782,8.771407,8.766441,8.7595215,8.752331,8.746481,8.742706,8.737696,8.731615,8.725858,8.722096,8.72019,8.719187,8.720037,8.722713,8.724186,8.724409,8.724331,8.724909,8.726196,8.727379,8.728075,8.72725,8.725035,8.72269,8.721424,8.721716,8.723536,8.726721,8.730412,8.734293,8.738273,8.742674,8.747844,8.753761,8.76012,8.76734,8.775046,8.782453,8.788906,8.793797,8.796595,8.79735,8.79743,8.796154,8.794167,8.792183,8.791437,8.793395,8.798489,8.806339,8.817523,8.829552,8.840542,8.848987,8.854145,8.856716,8.857876,8.857503,8.856779,8.855688,8.85457,8.854078,8.854586,8.85681,8.860111,8.866121,8.875198,8.886951,8.900965,8.915058,8.924217,8.933226,8.943162,8.952116,8.960077,8.967507,8.974185,8.98045,8.987557,8.995642,9.003832,9.011448,9.018682,9.026314,9.034811,9.044036,9.053884,9.063925,9.074465,9.084946,9.09439,9.102442,9.108704,9.114143,9.119198,9.1237755,9.127938,9.132022,9.136424,9.141428,9.14682,9.152805,9.160055,9.16905,9.179443,9.189943,9.199015,9.20686,9.213187,9.219473,9.225521,9.230539,9.233818,9.234558,9.23321,9.2298355,9.223512,9.215491,9.206545,9.196554,9.18613,9.1768055,9.1687355,9.162033,9.1573925,9.153043,9.147182,9.140747,9.136036,9.136818,9.138193,9.142404,9.147524,9.151375,9.154896,9.158861,9.163931,9.169889,9.177539,9.187284,9.199011,9.211876,9.224558,9.237387,9.251003,9.264307,9.276957,9.2890835,9.300852
8.793063,8.77656,8.762627,8.754663,8.746342,8.738789,8.731876,8.725605,8.719267,8.717261,8.720402,8.722258,8.724339,8.733589,8.744524,8.755965,8.767791,8.779495,8.790613,8.801231,8.81218,8.822761,8.832796,8.842686,8.852446,8.861485,8.869239,8.876034,8.882046,8.885948,8.88818,8.889803,8.891238,8.892368,8.893127,8.893366,8.893431,8.893503,8.89386,8.894753,8.896055,8.897623,8.899532,8.901392,8.90354,8.903948,8.901985,8.899263,8.894204,8.887639,8.881945,8.875369,8.869155,8.864201,8.85915,8.85394,8.848152,8.841829,8.835606,8.829927,8.824813,8.8196335,8.813581,8.806931,8.799576,8.791916,8.790137,8.794176,8.79922,8.804045,8.808235,8.812284,8.8166065,8.820488,8.82332,8.825323,8.82695,8.8279,8.827869,8.829403,8.831729,8.833736,8.835587,8.83823,8.842052,8.847004,8.852947,8.859063,8.864294,8.867785,8.869227,8.8689,8.867328,8.865103,8.86294,8.861237,8.860168,8.859554,8.858778,8.857409,8.855207,8.852287,8.849036,8.84589,8.843239,8.841171,8.8392105,8.836687,8.833242,8.828565,8.822712,8.816241,8.809963,8.804549,8.799913,8.796297,8.7939,8.7924595,8.791639,8.791254,8.791214,8.791683,8.792646,8.794018,8.795259,8.795695,8.795036,8.793568,8.791666,8.789419,8.787128,8.785211,8.783932,8.7834015,8.783634,8.784357,8.7850895,8.785467,8.785238,8.784534,8.783569,8.782631,8.782295,8.782587,8.782511,8.78186,8.777699,8.770494,8.764281,8.760761,8.760246,8.7603655,8.761847,8.765175,8.770296,8.777285,8.786136,8.795223,8.800676,8.797125,8.789151,8.781075,8.775616,8.775478,8.779123,8.783918,8.786659,8.783285,8.775681,8.766155,8.7549305,8.745167,8.735431,8.723073,8.708651,8.696604,8.690339,8.689008,8.6896515,8.689381,8.68738,8.683595,8.679316,8.6757765,8.674017,8.675133,8.679138,8.685117,8.692915,8.700413,8.706938,8.713577,8.721109,8.729294,8.739067,8.749966,8.761102,8.771735,8.7809515,8.78799,8.793156,8.797641,8.800091,8.800354,8.799089,8.798199,8.799992,8.805483,8.814812,8.828354,8.843133,8.856573,8.865565,8.869226,8.87054,8.87059,8.869487,8.868549,8.8685465,8.869942,8.873373,8.878246,8.880681,8.882852,8.885218,8.882244,8.876526,8.872873,8.869507,8.862749,8.857753,8.854197,8.861258,8.873384,8.882884,8.890244,8.896931,8.904472,8.913328,8.9223995,8.931087,8.939143,8.94689,8.955031,8.96307,8.971261,8.979038,8.986928,8.994734,9.001619,9.007183,9.011158,9.014299,9.017043,9.019583,9.022048,9.024672,9.027609,9.0307,9.034218,9.041269,9.05036,9.061121,9.073011,9.084232,9.093534,9.101121,9.106709,9.111696,9.116547,9.121053,9.125309,9.129739,9.134568,9.140291,9.145302,9.150938,9.157225,9.164316,9.173602,9.182638,9.191856,9.204767,9.214598,9.221186,9.22668,9.228831,9.227392,9.225124,9.223538,9.221361,9.217947,9.213166,9.207248,9.201531,9.197712,9.193664,9.191502,9.192567,9.196971,9.203476,9.210274,9.218311,9.226334,9.233208,9.239311,9.245142,9.250799
8.691374,8.687785,8.689534,8.702006,8.712727,8.7243,8.738638,8.755272,8.772394,8.788353,8.802004,8.813171,8.824174,8.833195,8.840805,8.845735,8.8485775,8.850647,8.851349,8.848833,8.845224,8.841337,8.83773,8.834785,8.832453,8.830339,8.828035,8.82448,8.821241,8.824644,8.831643,8.838026,8.843529,8.848129,8.852215,8.855824,8.8590555,8.862141,8.86532,8.86903,8.873684,8.879205,8.8855915,8.891865,8.896874,8.897728,8.893118,8.883197,8.864927,8.840714,8.811832,8.778491,8.742942,8.709295,8.680912,8.658655,8.640683,8.62537,8.612765,8.602142,8.591171,8.577179,8.55922,8.536992,8.508705,8.474655,8.442806,8.4112835,8.376229,8.343833,8.314795,8.286528,8.2629,8.243946,8.22732,8.211538,8.1966305,8.182245,8.166681,8.154311,8.14451,8.134359,8.122719,8.110952,8.100129,8.087387,8.075336,8.065133,8.056907,8.050651,8.046513,8.044362,8.043892,8.0453205,8.048362,8.052044,8.05537,8.057829,8.059294,8.059778,8.059397,8.0581045,8.055774,8.052482,8.048751,8.045201,8.041954,8.038486,8.034735,8.030636,8.026394,8.022594,8.019737,8.0177555,8.016119,8.014446,8.012579,8.010506,8.008511,8.006835,8.005296,8.003546,8.001165,7.9980583,7.994191,7.9895496,7.984152,7.978147,7.971753,7.964939,7.9581933,7.952421,7.9480953,7.944982,7.9424944,7.940112,7.9369946,7.932778,7.927397,7.9211726,7.914459,7.907589,7.9011564,7.8954525,7.890273,7.886514,7.8851476,7.8860884,7.8887033,7.892742,7.896784,7.8989606,7.8962417,7.8863134,7.869557,7.84896,7.8280673,7.808668,7.7895565,7.7632914,7.737967,7.718852,7.7074156,7.7057247,7.7097664,7.7166,7.7210274,7.715022,7.698958,7.6774917,7.653984,7.6322517,7.6091776,7.585352,7.561574,7.5432854,7.534416,7.5330515,7.534647,7.5349092,7.5335636,7.530097,7.5249767,7.519102,7.514197,7.512513,7.5144677,7.5197306,7.528527,7.5374403,7.544787,7.5515137,7.558531,7.5658627,7.574889,7.5853567,7.596798,7.608743,7.62023,7.6304097,7.6396756,7.6486044,7.655831,7.6605587,7.663166,7.6652985,7.668854,7.674721,7.6835046,7.695282,7.7082443,7.720604,7.729911,7.7355714,7.7400103,7.7435093,7.747094,7.7522116,7.761031,7.774504,7.7930603,7.815157,7.8333836,7.854842,7.8798046,7.901273,7.9221544,7.9462576,7.970916,7.996566,8.0265045,8.061037,8.105816,8.152597,8.191707,8.222956,8.249109,8.271355,8.292978,8.313431,8.332127,8.350397,8.370143,8.39119,8.412605,8.434582,8.454018,8.468792,8.477313,8.47999,8.479236,8.475892,8.47071,8.463406,8.454574,8.444461,8.433825,8.423998,8.41552,8.409398,8.412145,8.421727,8.437915,8.458942,8.480412,8.500087,8.516817,8.530418,8.542391,8.555198,8.570872,8.590594,8.614616,8.6424675,8.6788,8.72345,8.777142,8.839691,8.905636,8.9676075,9.027591,9.08118,9.126715,9.157547,9.172979,9.1793995,9.181685,9.177015,9.16938,9.160177,9.150095,9.140039,9.133248,9.132287,9.134895,9.138826,9.149386,9.163874,9.182087,9.204435,9.228617,9.2505455,9.268773,9.287716,9.304165,9.3160515,9.323928,9.33049
8.72987,8.736045,8.739803,8.740675,8.740797,8.742157,8.744259,8.747347,8.751854,8.75696,8.761299,8.764553,8.767302,8.770544,8.777145,8.771944,8.751217,8.722803,8.689915,8.648651,8.595412,8.539461,8.486807,8.438019,8.39127,8.345482,8.300638,8.256243,8.214174,8.19661,8.195063,8.19571,8.196854,8.19829,8.200112,8.202108,8.204549,8.207329,8.2106085,8.214667,8.219402,8.224922,8.231141,8.235651,8.233223,8.226074,8.21471,8.193663,8.164179,8.127258,8.074608,8.015323,7.9494286,7.88194,7.826337,7.785491,7.756648,7.735816,7.721757,7.7116375,7.6988573,7.6775384,7.6476293,7.6077385,7.554478,7.4889364,7.40541,7.3015003,7.1893353,7.0878067,6.998944,6.914441,6.8415565,6.7826324,6.7341356,6.690963,6.6504016,6.6125436,6.5751657,6.537425,6.5000935,6.4602804,6.4150267,6.3650074,6.3129625,6.253525,6.1943197,6.141406,6.097949,6.0660944,6.0470657,6.0395937,6.0411444,6.0509806,6.0661364,6.0822062,6.094899,6.1024704,6.1060724,6.1068745,6.1056194,6.1022115,6.095424,6.0848684,6.071939,6.059062,6.048398,6.0397673,6.0342264,6.0324545,6.034604,6.040703,6.0498314,6.059373,6.0675244,6.07164,6.070175,6.0639067,6.055072,6.0457096,6.0365233,6.0258846,6.012228,5.996336,5.980526,5.9672737,5.9577193,5.9514227,5.9472136,5.944192,5.942914,5.943576,5.9453106,5.9460707,5.943736,5.937559,5.9267206,5.9107523,5.891056,5.868932,5.8452406,5.8205996,5.795452,5.7696705,5.744142,5.7245092,5.7167997,5.723095,5.7407303,5.764202,5.7846746,5.795944,5.787762,5.7524023,5.6911826,5.612242,5.525772,5.444088,5.364791,5.2958393,5.2415886,5.2004337,5.1692476,5.1459227,5.1268444,5.1096373,5.0922155,5.0731897,5.050031,5.021129,4.988309,4.9561872,4.9258723,4.8997087,4.8813047,4.870371,4.864865,4.8627725,4.861968,4.8619523,4.8607526,4.857053,4.8509398,4.843228,4.8354254,4.8294835,4.8258586,4.8244286,4.8253193,4.828067,4.832197,4.837087,4.842039,4.8471017,4.853096,4.8603554,4.8687916,4.8778677,4.886554,4.8937793,4.8991127,4.902733,4.904661,4.9057617,4.90705,4.909398,4.9133186,4.9186764,4.92519,4.9333515,4.9437895,4.956702,4.9719653,4.988469,5.0041094,5.0179906,5.0318766,5.047336,5.0672483,5.0935802,5.127493,5.1695843,5.218425,5.281847,5.3637447,5.46704,5.587839,5.716858,5.8454647,5.968611,6.0938225,6.2273545,6.341452,6.4372187,6.522111,6.5931797,6.6526585,6.700132,6.7425714,6.7806563,6.814159,6.8483973,6.8888755,6.933443,6.9814796,7.0315504,7.0766544,7.110398,7.128413,7.132485,7.129061,7.1198044,7.106531,7.0882463,7.0660033,7.0400643,7.011865,6.9848995,6.9618287,6.9441833,6.9362974,6.941251,6.96129,6.993187,7.0299826,7.0674615,7.102236,7.1348467,7.166254,7.2004633,7.241717,7.2916145,7.3486977,7.411985,7.49057,7.587507,7.7012806,7.8325615,7.966285,8.079646,8.19192,8.2930975,8.364941,8.419514,8.449675,8.456367,8.462624,8.467707,8.466679,8.462114,8.4572,8.456153,8.4659,8.49142,8.528585,8.565926,8.624856,8.694268,8.770199,8.852472,8.935719,9.009075,9.060585,9.11461,9.163349,9.199329,9.22378,9.242348
8.7278595,8.708771,8.686298,8.655978,8.621397,8.58879,8.545134,8.494122,8.454211,8.424223,8.392731,8.3613,8.329723,8.314264,8.331442,8.330531,8.283616,8.205371,8.118265,8.0330925,7.907218,7.7710686,7.6433744,7.522784,7.3997593,7.26893,7.1311398,7.0036354,6.8718886,6.7378893,6.6146092,6.510685,6.4243383,6.3521338,6.290516,6.2332525,6.1827054,6.13681,6.095498,6.0574837,6.0172677,5.973897,5.9233027,5.860634,5.784759,5.697283,5.6027436,5.508047,5.4199,5.3350053,5.254553,5.1813793,5.1179614,5.066229,5.026926,4.9994497,4.9797654,4.9654818,4.9555383,4.947646,4.939718,4.9294453,4.9140005,4.8921337,4.859828,4.8183417,4.7687397,4.7153406,4.6644974,4.619831,4.5800967,4.5431023,4.510098,4.482046,4.4583755,4.437991,4.4202824,4.4049187,4.390329,4.377115,4.365023,4.353077,4.340336,4.326541,4.3124475,4.2993526,4.286662,4.2750435,4.2653503,4.258336,4.254246,4.252679,4.2528567,4.2543244,4.25644,4.258398,4.2594867,4.2595186,4.258833,4.257705,4.256179,4.2542486,4.2516117,4.248166,4.2442303,4.2403936,4.23732,4.235181,4.2343802,4.235173,4.237376,4.240553,4.244127,4.247411,4.2501307,4.2519383,4.2526813,4.2525454,4.2518663,4.2508965,4.2496405,4.247716,4.2449265,4.2415614,4.2383566,4.236087,4.235093,4.2351875,4.2359595,4.237112,4.2386503,4.24034,4.24177,4.24242,4.241885,4.2400875,4.2369714,4.2325087,4.227128,4.221236,4.215254,4.209465,4.2037334,4.1977205,4.1916018,4.1861534,4.1823797,4.1807227,4.180567,4.1807165,4.180211,4.178406,4.174711,4.168839,4.1607113,4.1504507,4.138715,4.126808,4.114689,4.1036234,4.094255,4.08632,4.0789313,4.0713844,4.0640297,4.05704,4.0511727,4.046796,4.04309,4.03903,4.0343447,4.029397,4.0251493,4.0220604,4.0202093,4.0187564,4.0167503,4.014035,4.011255,4.0087256,4.006537,4.0045424,4.002572,4.000637,3.998942,3.997706,3.9970076,3.9967542,3.9968507,3.9972951,3.9981785,3.9994936,4.0010343,4.0025444,4.0040464,4.0056286,4.007352,4.0091066,4.010702,4.0119343,4.0125484,4.0124865,4.0120068,4.0117235,4.0120673,4.013121,4.014741,4.0166707,4.018659,4.0209084,4.0240293,4.027911,4.0323544,4.037087,4.0414267,4.0450234,4.048072,4.050761,4.0535727,4.057479,4.0634866,4.0719805,4.0826406,4.0968585,4.1160994,4.1400037,4.1675625,4.1971836,4.227222,4.2568693,4.285995,4.3154955,4.3433747,4.369172,4.3925867,4.4138236,4.4344206,4.4521265,4.467556,4.4804573,4.4922,4.5047936,4.5192394,4.5350795,4.552122,4.570915,4.5887966,4.603158,4.6125,4.617486,4.6199894,4.6203084,4.6185713,4.613434,4.6051273,4.593097,4.5778112,4.5615172,4.5457726,4.5333624,4.526985,4.5274353,4.5339737,4.5453014,4.5599337,4.5761695,4.592922,4.612647,4.6348987,4.6613426,4.6934004,4.7309604,4.7729616,4.81804,4.872264,4.935767,5.00703,5.084418,5.1670446,5.2546244,5.3476152,5.4539766,5.5712585,5.6947384,5.8183484,5.937045,6.04951,6.1573753,6.2702007,6.3939075,6.527537,6.6778326,6.829763,6.965037,7.101224,7.2356806,7.3792295,7.5330553,7.6959076,7.8630867,8.027434,8.176091,8.279562,8.385753,8.492737,8.596102,8.69495,8.775376
8.491134,8.3848915,8.230921,8.099823,8.021822,7.944222,7.84288,7.71954,7.5728874,7.4073577,7.23413,7.0650926,6.909189,6.7326846,6.5233,6.3023343,6.0864706,5.88503,5.7089577,5.562652,5.422655,5.290773,5.176672,5.077478,4.987012,4.9037137,4.8269653,4.758258,4.6988745,4.642458,4.5903196,4.5455184,4.5075636,4.475597,4.448868,4.424784,4.4039626,4.3856573,4.369407,4.3543253,4.3384767,4.321267,4.3012266,4.2770724,4.248786,4.2169304,4.183055,4.149659,4.118895,4.0892987,4.0619106,4.037282,4.0163054,3.9995806,3.9869037,3.9779444,3.9712992,3.9661818,3.9621372,3.9584777,3.9549632,3.9513469,3.946815,3.940835,3.9320817,3.9204123,3.9063263,3.8914268,3.877458,3.8651652,3.854425,3.8447592,3.836262,3.8290884,3.8230429,3.8178103,3.8132122,3.8090947,3.8048522,3.800703,3.7966573,3.7926679,3.7887235,3.784822,3.781034,3.7777998,3.7745929,3.7715993,3.7692435,3.7678547,3.7674444,3.7677646,3.7684317,3.7691574,3.7696486,3.7696939,3.7691813,3.7682047,3.7670207,3.76579,3.7644768,3.7630868,3.7614436,3.7594495,3.7572007,3.7549443,3.7530408,3.751649,3.7509928,3.7512374,3.7522223,3.7535725,3.7549005,3.7559338,3.756651,3.757091,3.7574017,3.757735,3.7581472,3.758565,3.7588143,3.758669,3.7581155,3.757259,3.7564223,3.7559779,3.7560837,3.7566202,3.7573857,3.7582092,3.7590375,3.7597065,3.7600694,3.760012,3.759463,3.7584336,3.7569175,3.7549424,3.7526946,3.750339,3.7480745,3.7460375,3.7440991,3.7419794,3.739771,3.737568,3.7356627,3.734253,3.7330618,3.7315793,3.7298412,3.7279615,3.7264419,3.7257905,3.7258925,3.7261353,3.7260666,3.725552,3.7250166,3.7247686,3.7246728,3.724439,3.7235532,3.7216167,3.7192435,3.716938,3.7154841,3.715146,3.7153401,3.7152956,3.7146168,3.7132556,3.71201,3.7110796,3.7103834,3.7093742,3.707522,3.7049499,3.7024171,3.7002504,3.6987638,3.6979995,3.697747,3.6977959,3.6980107,3.6982813,3.6986442,3.6991055,3.6995726,3.7000775,3.7007265,3.7015548,3.7024624,3.7032645,3.7039084,3.7044415,3.7049198,3.7053108,3.7055936,3.7057288,3.7055244,3.7048995,3.70404,3.703445,3.7034118,3.7039208,3.7047634,3.7056768,3.7064524,3.7072084,3.708505,3.71027,3.7123635,3.7146392,3.7166386,3.7180748,3.7188678,3.7189302,3.7182574,3.7174177,3.7171676,3.7178578,3.719496,3.7223563,3.726623,3.7323368,3.7393901,3.7473974,3.7558556,3.764429,3.7725863,3.7803988,3.7882967,3.7962308,3.8037891,3.8108034,3.8173208,3.8229349,3.8276975,3.831592,3.8352313,3.8391647,3.8433902,3.8476048,3.8517966,3.8560884,3.8597958,3.862504,3.8640423,3.8646593,3.8648808,3.8648024,3.8643239,3.8631177,3.8610678,3.858086,3.8543386,3.8503351,3.8466558,3.8438735,3.8428044,3.8433518,3.845,3.8473914,3.8502982,3.8533602,3.8567562,3.8611941,3.8668919,3.8741615,3.8832307,3.8939033,3.9055552,3.9179773,3.9332209,3.9518893,3.9735,3.9969656,4.0224023,4.050734,4.080774,4.115914,4.155896,4.198531,4.242273,4.285841,4.32813,4.3694725,4.4133987,4.460682,4.511034,4.566446,4.6237535,4.678581,4.735,4.79826,4.868714,4.9485545,5.0374064,5.131938,5.22816,5.3212304,5.402423,5.488542,5.585208,5.6923656,5.80932,5.9313073
7.2652946,7.016408,6.7531395,6.5065804,6.3162823,6.149567,5.990327,5.826482,5.6585665,5.4928637,5.33432,5.186307,5.0515356,4.902963,4.7448664,4.5940037,4.4587717,4.3402767,4.240094,4.1579285,4.0878057,4.026059,3.9738646,3.9299698,3.89286,3.8623018,3.837911,3.8166273,3.8012395,3.7890825,3.778399,3.7688913,3.7605965,3.7535727,3.7480154,3.7434275,3.7398422,3.7372727,3.735332,3.7335243,3.7315888,3.7292867,3.7265592,3.723606,3.7203856,3.7169435,3.7134461,3.710014,3.706686,3.7032452,3.6997995,3.6964364,3.6932163,3.6903024,3.6878939,3.6860037,3.684366,3.6827545,3.6809852,3.6790314,3.6771274,3.6756113,3.6746354,3.67398,3.6734605,3.6726198,3.6713176,3.6696215,3.6677957,3.6662931,3.6654136,3.6650379,3.6651726,3.6656682,3.6662264,3.6665494,3.6664796,3.6659951,3.6649535,3.6634188,3.661604,3.659706,3.6579316,3.6564176,3.6550841,3.6537137,3.6523223,3.6511426,3.6504588,3.6504326,3.6510148,3.651991,3.6530757,3.6540642,3.6546898,3.654787,3.6542988,3.6533613,3.652264,3.6511765,3.6500807,3.6489959,3.647736,3.6461673,3.6443284,3.6423936,3.640653,3.639215,3.6382365,3.6378617,3.6379805,3.638308,3.6385622,3.6385777,3.638358,3.6379669,3.6376176,3.6374948,3.6376438,3.6379495,3.6381843,3.6381025,3.6376662,3.6368976,3.6360373,3.635385,3.635067,3.634993,3.6350253,3.6349764,3.634821,3.6344981,3.6340218,3.6334162,3.6326568,3.63173,3.6305737,3.6291995,3.6277316,3.62627,3.6249323,3.6237893,3.622726,3.621534,3.6203094,3.6191566,3.618348,3.618062,3.6180692,3.6179135,3.617545,3.6170554,3.6167133,3.6168437,3.6174212,3.6181226,3.6187305,3.6192317,3.6200805,3.6215167,3.6232681,3.624921,3.6260123,3.6262333,3.6259863,3.625789,3.626094,3.626849,3.6274972,3.6274672,3.6265306,3.6248002,3.6229265,3.621148,3.619605,3.618053,3.6161642,3.6140065,3.612093,3.6106734,3.6100218,3.6102142,3.61102,3.612139,3.6133142,3.6143582,3.6153502,3.616383,3.6174126,3.6184516,3.6195292,3.6206315,3.621697,3.6226223,3.6234195,3.6241066,3.6247165,3.6251988,3.6255434,3.625753,3.6256537,3.6251812,3.6244342,3.623825,3.6236153,3.623807,3.624226,3.624632,3.6248486,3.6249623,3.6255045,3.62644,3.6276836,3.6291137,3.6302893,3.630965,3.631002,3.6302996,3.6287203,3.6266603,3.6247168,3.623155,3.6220427,3.6215868,3.621665,3.6226015,3.624521,3.627192,3.630291,3.633603,3.6368418,3.6400719,3.6431317,3.646193,3.6492639,3.6519663,3.6539888,3.655551,3.656732,3.6575909,3.658347,3.659246,3.6602447,3.6610332,3.661635,3.661818,3.6613698,3.660524,3.6594408,3.6582413,3.6571925,3.656369,3.6556718,3.6551428,3.6545656,3.6540356,3.6536455,3.6533391,3.653359,3.653501,3.6539857,3.654514,3.654812,3.6547875,3.6543937,3.6536074,3.6529303,3.6522884,3.6521673,3.6525126,3.6532738,3.6542497,3.6548548,3.6553264,3.6563606,3.6587422,3.6624346,3.6668468,3.6715367,3.6763482,3.680892,3.685574,3.6902494,3.6947947,3.6992123,3.7038262,3.7089663,3.714332,3.7197924,3.7247138,3.7290587,3.7329059,3.7380357,3.7460167,3.7554235,3.7685952,3.7841265,3.8030996,3.8258247,3.8518152,3.8802333,3.9100947,3.9418607,3.976767,4.0180297,4.0663977,4.1217794,4.1839867
5.329032,5.11974,4.9352455,4.7669177,4.621334,4.5018435,4.39884,4.3023615,4.216422,4.144369,4.0832295,4.029675,3.9816954,3.9360094,3.904251,3.8810005,3.8606734,3.8426201,3.8266551,3.8119388,3.7972496,3.7836583,3.770556,3.7582343,3.747123,3.7370865,3.7283013,3.7204103,3.7122626,3.7047696,3.698358,3.6931422,3.6891127,3.686027,3.6836696,3.6817977,3.680595,3.6800513,3.679958,3.679954,3.6796565,3.6789916,3.678029,3.6768594,3.6753395,3.6734304,3.671321,3.6692657,3.6673942,3.6657023,3.6641264,3.662665,3.6612291,3.6598454,3.6586683,3.6577253,3.6567945,3.6557066,3.6543298,3.6527345,3.6512566,3.6502757,3.6499195,3.6499834,3.6503572,3.6508288,3.6512532,3.6516595,3.6522403,3.6531997,3.6545575,3.656332,3.6585066,3.6608388,3.6629703,3.6645677,3.6654763,3.6657681,3.6654034,3.6645584,3.6634989,3.6624322,3.6615462,3.6609583,3.6605933,3.6603801,3.66029,3.6604118,3.6608944,3.6618032,3.663054,3.6644583,3.6658025,3.6669252,3.6675825,3.6676393,3.6670778,3.6660786,3.6649587,3.663898,3.6628966,3.6619911,3.660996,3.659751,3.658248,3.6566052,3.6550543,3.6536875,3.6526184,3.651983,3.6517015,3.6515322,3.6512425,3.6507316,3.6499724,3.6490455,3.6482158,3.6476712,3.6474347,3.647356,3.6471672,3.6466267,3.6456547,3.644275,3.6427546,3.6414397,3.6404924,3.639833,3.6393003,3.63868,3.6379325,3.6370578,3.6361597,3.6353192,3.6345148,3.6337159,3.6328132,3.6318364,3.6308894,3.6300778,3.6295307,3.6292813,3.6291394,3.6289403,3.628736,3.6285758,3.628694,3.6292517,3.6300592,3.6307428,3.6312587,3.6317348,3.6323924,3.633531,3.6351542,3.6369328,3.6385512,3.6399388,3.64153,3.643343,3.6451507,3.6466565,3.647539,3.6476202,3.6472657,3.6464646,3.6457005,3.6451793,3.6447387,3.6441307,3.6432548,3.6421418,3.6411414,3.6403265,3.6397433,3.639151,3.6382427,3.6370316,3.6359143,3.6350765,3.6347463,3.6350222,3.6357498,3.6366954,3.6376405,3.638426,3.6391418,3.6398888,3.6406453,3.6414514,3.6423645,3.6434045,3.6445303,3.6456332,3.6467338,3.6478148,3.6488245,3.649654,3.650265,3.6506617,3.6507277,3.65048,3.649907,3.6493468,3.6490285,3.6489854,3.6491244,3.6492875,3.6493568,3.649403,3.6498253,3.6505735,3.6515403,3.652626,3.653545,3.6541219,3.6543336,3.6541495,3.6534758,3.6523147,3.6507096,3.6488056,3.6470783,3.6448054,3.6421404,3.6397104,3.6378531,3.636526,3.6356347,3.6351342,3.6346436,3.6341193,3.633621,3.633292,3.6331394,3.6329985,3.632738,3.6323404,3.6316557,3.6306412,3.6295345,3.628644,3.628003,3.6273973,3.6268263,3.6259508,3.6245427,3.6228833,3.6211486,3.6194415,3.6180155,3.6169114,3.6159558,3.6151485,3.6143246,3.6135125,3.6127558,3.6120267,3.6115193,3.6112533,3.6113849,3.611565,3.611477,3.6110291,3.6102247,3.6090972,3.6080756,3.6071844,3.606741,3.6067088,3.6069784,3.6072173,3.6068625,3.6061435,3.605682,3.6060913,3.6074047,3.609287,3.6113682,3.613398,3.6152596,3.6174693,3.6201224,3.6230106,3.625897,3.6288075,3.6318378,3.6347032,3.6371922,3.6391597,3.6403675,3.6411185,3.6420598,3.6437263,3.6461487,3.6480699,3.6493487,3.650401,3.6516485,3.6536598,3.6566272,3.6599593,3.663425,3.6676888,3.672649,3.6784937,3.6852522,3.692216
3.940966,3.8921218,3.8605208,3.8493,3.8399792,3.8364959,3.8314738,3.826739,3.8207757,3.8138885,3.8075821,3.8016877,3.7965872,3.7921062,3.7851353,3.7758775,3.765945,3.7567024,3.7485414,3.7410288,3.733291,3.7250824,3.7167008,3.7084117,3.7006478,3.6938558,3.6880918,3.6832867,3.679213,3.6760333,3.6737251,3.6721344,3.6710339,3.6702325,3.6698318,3.6697292,3.6699882,3.6705465,3.671254,3.6718917,3.6722379,3.672326,3.6722672,3.6721869,3.6720405,3.671811,3.6715608,3.6713867,3.671369,3.6715307,3.6718278,3.6721258,3.672243,3.6721687,3.672043,3.6718926,3.6716022,3.6710553,3.6701734,3.6691117,3.6682305,3.667903,3.6682858,3.6691923,3.6706452,3.6724353,3.674405,3.676466,3.678586,3.6807647,3.682949,3.6852174,3.6875687,3.6898184,3.69174,3.6931295,3.6939,3.6941504,3.6938605,3.693186,3.6923776,3.6916096,3.6910474,3.6908176,3.690868,3.69113,3.6915653,3.6921635,3.6929662,3.6939807,3.6951394,3.6963232,3.697396,3.6982176,3.6986184,3.698513,3.6979089,3.6969657,3.6959407,3.6949964,3.694137,3.693406,3.69267,3.6917906,3.690732,3.6895537,3.6884031,3.687346,3.6864417,3.6857915,3.6853359,3.6849074,3.6843615,3.6836462,3.6826797,3.6815443,3.680485,3.6796532,3.679061,3.6785724,3.6779463,3.6770134,3.6756785,3.673996,3.6722498,3.6707854,3.669753,3.6690617,3.6685302,3.6679459,3.667235,3.666408,3.6655517,3.6647272,3.663939,3.663187,3.6623497,3.6614866,3.6606941,3.6600637,3.6597016,3.6596227,3.6596513,3.6596336,3.6595478,3.6594167,3.6594126,3.659668,3.6600776,3.6604183,3.6606672,3.6608608,3.6612062,3.6619868,3.6632185,3.66459,3.6657615,3.6666188,3.667443,3.6681309,3.66861,3.6687562,3.6683874,3.6674352,3.6661868,3.6642306,3.6620204,3.6599696,3.658275,3.6569853,3.656105,3.6555974,3.6555252,3.6557999,3.6563406,3.6568356,3.6569617,3.6566978,3.6563346,3.6559935,3.6558328,3.6559243,3.6562,3.656535,3.6568143,3.6569715,3.6570907,3.6572561,3.6574473,3.657721,3.6581855,3.6589136,3.659873,3.660924,3.6620798,3.6633058,3.6644902,3.6654978,3.6662652,3.6667776,3.6669765,3.6669302,3.6665463,3.6660845,3.6657207,3.665505,3.6654181,3.6653895,3.6653829,3.6654427,3.6658502,3.666552,3.667408,3.6683407,3.6692429,3.6699848,3.670713,3.6714725,3.6722538,3.6728368,3.672892,3.6724072,3.6719623,3.67061,3.66864,3.6667,3.665061,3.663665,3.6624947,3.661557,3.6605654,3.6594443,3.6583068,3.6572602,3.6563425,3.6555166,3.6547194,3.6539583,3.6530342,3.6517587,3.6503072,3.6489205,3.6476452,3.6464348,3.645275,3.6438904,3.64212,3.6403165,3.638647,3.6371017,3.6358042,3.6347733,3.633813,3.6329901,3.6323056,3.6317897,3.6314201,3.6311216,3.630952,3.6309814,3.6312056,3.6312888,3.6309924,3.6302762,3.6291938,3.6278522,3.6265574,3.6253934,3.6244724,3.6236846,3.622822,3.6215591,3.619615,3.6173627,3.6151354,3.613371,3.6122804,3.6117668,3.6115122,3.6112335,3.6109219,3.6102304,3.6091561,3.6081533,3.6073818,3.6068888,3.6067195,3.6064773,3.605923,3.6045675,3.6021943,3.5990634,3.5959215,3.5935292,3.59208,3.590909,3.589721,3.5885892,3.5875793,3.5869136,3.5866792,3.586556,3.5863867,3.5864072,3.5871067,3.588576,3.5907607,3.5931754
3.6836762,3.6886601,3.6946554,3.7008734,3.707471,3.7135441,3.7198987,3.7252834,3.729248,3.731976,3.7336152,3.7342944,3.7347665,3.7348676,3.7340975,3.7320995,3.7289767,3.7253156,3.7216659,3.718018,3.7139344,3.7093902,3.7045443,3.699604,3.6949565,3.6909597,3.6876283,3.685037,3.6831098,3.6819801,3.6814914,3.681189,3.680594,3.6796036,3.6787815,3.6779556,3.6771226,3.6762512,3.675272,3.6741118,3.6727245,3.6711936,3.669478,3.6676695,3.6657717,3.6638138,3.6618629,3.660027,3.6584723,3.6570735,3.6558552,3.654751,3.653707,3.6527848,3.6520822,3.6515803,3.6511521,3.6506448,3.650003,3.649346,3.6488738,3.6487799,3.6491773,3.6498818,3.650928,3.6520963,3.6532793,3.654399,3.6553497,3.6560602,3.6564956,3.6566615,3.656611,3.656374,3.6559968,3.6555052,3.6548975,3.6541705,3.6532896,3.6522923,3.6513197,3.6504354,3.6497333,3.6493306,3.6492047,3.649281,3.6495123,3.6498191,3.6501536,3.6504974,3.6508427,3.6511745,3.6514273,3.651487,3.6513164,3.6509082,3.65029,3.6495457,3.6487846,3.6481113,3.647507,3.6470113,3.646585,3.6461535,3.645676,3.6451497,3.6446168,3.6441002,3.64359,3.6431198,3.6426408,3.6420825,3.641427,3.6406808,3.6397552,3.6387331,3.6377656,3.6369405,3.6362662,3.6356583,3.6349652,3.6341279,3.6330886,3.6319118,3.6308331,3.6300783,3.6296906,3.6295593,3.6295543,3.6294775,3.629247,3.6288488,3.6282852,3.6275747,3.6267862,3.62598,3.6250672,3.6241124,3.6231937,3.622336,3.6215615,3.620891,3.6202834,3.6195645,3.6186607,3.6176093,3.6164503,3.6152573,3.6140542,3.6127927,3.6115153,3.6100936,3.6087534,3.607768,3.6071353,3.6066551,3.606217,3.6057253,3.6052268,3.604725,3.6042335,3.6036544,3.6028304,3.6016843,3.6003518,3.598849,3.5973125,3.5958004,3.5944095,3.5932283,3.5922928,3.5916657,3.5914092,3.5915256,3.5919595,3.5924487,3.5927308,3.592772,3.5927603,3.592814,3.593062,3.593528,3.5941062,3.5946546,3.5950642,3.595293,3.595439,3.5956101,3.5957894,3.596025,3.5963917,3.5969446,3.5976644,3.5984159,3.599229,3.600081,3.6009183,3.6016521,3.6022382,3.6026697,3.6028838,3.602882,3.6025925,3.6021976,3.6018083,3.6014462,3.6010826,3.600648,3.600166,3.5996332,3.5993862,3.59941,3.5996003,3.5999222,3.6003036,3.6006255,3.6010375,3.601583,3.6021924,3.6029167,3.6037588,3.6045642,3.6053147,3.6064277,3.6079855,3.6099377,3.6120486,3.6140661,3.6159267,3.6177235,3.619352,3.620862,3.6222007,3.6233883,3.6244702,3.625476,3.6264348,3.6274061,3.628299,3.6287994,3.6289892,3.6289806,3.628807,3.628592,3.6283224,3.6280074,3.6275373,3.6272306,3.627147,3.6270714,3.6269212,3.6267,3.6263113,3.6258526,3.6255047,3.6253278,3.6252718,3.6252658,3.6252594,3.6252854,3.6253262,3.62522,3.6248899,3.624396,3.623828,3.6232243,3.6227207,3.6224718,3.622365,3.6221876,3.6217098,3.6207404,3.6192923,3.6178875,3.6167169,3.6159148,3.6158352,3.6164272,3.6173654,3.6184974,3.6197472,3.6197925,3.618407,3.6168578,3.6158366,3.6153526,3.6153073,3.6152396,3.6150377,3.6141672,3.6123884,3.6098752,3.6072316,3.605099,3.6036694,3.602436,3.601252,3.599945,3.598431,3.5969748,3.595779,3.5946126,3.5934258,3.5921884,3.5914311,3.5909653,3.5905163,3.5897198
3.573283,3.5883665,3.6046376,3.6215503,3.6381345,3.6543844,3.670342,3.6807694,3.6886823,3.695078,3.6966035,3.6927977,3.6894803,3.6855521,3.681012,3.675989,3.6705806,3.6653004,3.6607423,3.6565886,3.6523488,3.6478863,3.643371,3.6389756,3.6349974,3.6316726,3.6288807,3.6266742,3.6248991,3.6236079,3.6227293,3.622144,3.6217341,3.6213808,3.6210256,3.620654,3.6202173,3.6197,3.6190648,3.6182446,3.6171885,3.6159954,3.6146963,3.6134236,3.6121044,3.6107068,3.6092813,3.6079364,3.6068504,3.6059427,3.6052248,3.6046352,3.604015,3.6033719,3.6028714,3.6025472,3.6023035,3.6020255,3.6016502,3.6013012,3.6011724,3.6014264,3.6021185,3.6030326,3.6042304,3.6056461,3.6071231,3.6085405,3.6097867,3.6107492,3.6114454,3.61194,3.6122918,3.6125503,3.6127057,3.6127155,3.6125655,3.6122613,3.611814,3.611291,3.6107984,3.6103704,3.610063,3.6099534,3.6100202,3.6102324,3.6105974,3.6110387,3.6115105,3.6119943,3.6124759,3.6129205,3.613269,3.613526,3.6136203,3.6134896,3.613124,3.612599,3.6120317,3.6115232,3.6110604,3.6106634,3.6102903,3.6098778,3.609408,3.6088953,3.608364,3.6078205,3.6072268,3.606606,3.6059396,3.6051927,3.6043627,3.603475,3.6024525,3.6013603,3.6003509,3.599518,3.598874,3.5983233,3.5976858,3.5968742,3.5958018,3.5945518,3.5933647,3.592456,3.59186,3.5914612,3.5911336,3.5907006,3.5900729,3.5893176,3.5885115,3.5876813,3.5868595,3.5860724,3.585207,3.5843155,3.583454,3.5826597,3.5819736,3.5814168,3.5809505,3.5804248,3.579785,3.5790834,3.5783508,3.577643,3.5769672,3.5762296,3.575419,3.574432,3.5734158,3.5725574,3.571849,3.5711455,3.5703964,3.5696082,3.5688272,3.5681367,3.5676293,3.567232,3.5667925,3.5662107,3.5654879,3.5646114,3.56366,3.5626268,3.5615797,3.5605917,3.5597084,3.559053,3.5587287,3.558796,3.559221,3.559772,3.5602188,3.5605145,3.5607767,3.5611134,3.5616312,3.5623138,3.5630484,3.5636885,3.5641396,3.5643964,3.5645308,3.5646539,3.564763,3.564904,3.565127,3.5654688,3.565924,3.5663733,3.5668433,3.5673313,3.567819,3.5682454,3.5685754,3.5688047,3.568881,3.5687814,3.56842,3.5679374,3.5674088,3.5668592,3.566267,3.5655515,3.564768,3.5638843,3.563228,3.5628114,3.5625477,3.5624132,3.5623698,3.56231,3.5623994,3.5626822,3.563137,3.5637345,3.5643709,3.5649214,3.5654607,3.5662422,3.5673366,3.568772,3.5702932,3.571606,3.5727034,3.5737722,3.5747347,3.575643,3.576387,3.5769253,3.5773358,3.5777247,3.5781188,3.5784674,3.5786765,3.5786436,3.5783982,3.5780048,3.5775375,3.5771027,3.5766768,3.5762677,3.5757637,3.5754094,3.5752373,3.5750532,3.57477,3.574401,3.57392,3.5733023,3.5726933,3.5721824,3.5717473,3.571351,3.5710354,3.5706434,3.5702178,3.5696387,3.568913,3.5681481,3.5674253,3.566782,3.5663376,3.5662513,3.5663462,3.5663948,3.5661182,3.5652876,3.5639555,3.5626068,3.5614123,3.5604653,3.5600183,3.5600047,3.5601678,3.5604315,3.560783,3.561421,3.5622773,3.563591,3.5653863,3.5676236,3.5702515,3.572873,3.5757432,3.5784588,3.5808241,3.5829644,3.5851035,3.5873692,3.58978,3.5923066,3.5950074,3.5977213,3.6003494,3.6030245,3.6058197,3.6085076,3.6111903,3.6141171,3.6175578,3.6213489,3.62399,3.6242702
3.5231903,3.5443068,3.5615783,3.5758533,3.5909128,3.6062407,3.6121988,3.615479,3.6179414,3.6190991,3.6186385,3.6168108,3.6147242,3.6126184,3.6098695,3.6064801,3.6025395,3.5984526,3.594757,3.5913427,3.5878649,3.584188,3.5803971,3.5766668,3.5733066,3.5705194,3.5681655,3.5663352,3.564903,3.5639005,3.5632691,3.5629458,3.5628557,3.562858,3.5628335,3.5627255,3.5625012,3.5621638,3.5616996,3.5610678,3.5602427,3.5593648,3.558428,3.557525,3.5566125,3.5556483,3.55464,3.5536704,3.5529032,3.5522337,3.551711,3.5513008,3.5509152,3.5505235,3.5501928,3.549985,3.549831,3.549663,3.549428,3.5492458,3.5492904,3.549691,3.5504928,3.5515504,3.552906,3.554503,3.5562072,3.5579002,3.5594623,3.5607848,3.5618782,3.5628147,3.5636425,3.564409,3.5650902,3.5656242,3.5659938,3.5662096,3.566328,3.5664184,3.566544,3.5667076,3.5669332,3.5672648,3.5676787,3.5681868,3.568832,3.5695345,3.5702329,3.5708919,3.5714903,3.5720081,3.572433,3.5727756,3.5729773,3.57297,3.572742,3.5723724,3.5719724,3.5716302,3.5713277,3.5710597,3.5707788,3.570434,3.5700216,3.5695624,3.5690646,3.5685077,3.5678387,3.5670614,3.5661798,3.565194,3.5641224,3.5630171,3.5618062,3.5605533,3.559413,3.5584931,3.5578198,3.5572965,3.5567272,3.5560098,3.5550475,3.5539281,3.5528793,3.552084,3.551539,3.551115,3.5506966,3.5501397,3.5493827,3.5485272,3.5476906,3.5469134,3.546203,3.545575,3.544912,3.5442517,3.5436254,3.543065,3.5426087,3.5422635,3.5419817,3.5416617,3.5412571,3.540799,3.5403461,3.539957,3.5395973,3.53915,3.5385933,3.5378401,3.537006,3.536223,3.5354867,3.5347018,3.53386,3.5330179,3.5322323,3.5316231,3.5313153,3.5312514,3.5312836,3.531283,3.5311575,3.53089,3.5304942,3.529913,3.5292068,3.528461,3.52773,3.5271578,3.5268464,3.526896,3.527284,3.5278292,3.5283637,3.52884,3.529318,3.529885,3.5306115,3.5314608,3.5323133,3.533028,3.5335274,3.5338225,3.5339618,3.5340576,3.5341182,3.5341792,3.5342731,3.5344324,3.5346622,3.5348606,3.5350509,3.5352292,3.5354054,3.535544,3.535626,3.5356565,3.5355878,3.5353713,3.5349023,3.534281,3.5335608,3.5327754,3.5319204,3.530921,3.5298417,3.5286164,3.5275817,3.5267658,3.5261066,3.5256062,3.5252452,3.52492,3.5247686,3.5248318,3.5250835,3.525441,3.525762,3.52595,3.526122,3.5264363,3.5269523,3.5276914,3.5284264,3.5289044,3.529155,3.529428,3.5296798,3.5299459,3.530182,3.5303476,3.5304694,3.5306113,3.5307987,3.531013,3.531114,3.5308616,3.530336,3.5296526,3.5289059,3.5282688,3.5276604,3.5270865,3.5264688,3.5259542,3.5255723,3.5251853,3.5247054,3.524163,3.5235887,3.5229135,3.5222442,3.5216808,3.5211942,3.5206628,3.5200243,3.51926,3.5183673,3.5173101,3.5161357,3.5149488,3.5138361,3.5128522,3.5121155,3.5118315,3.5118098,3.5118117,3.51155,3.5107567,3.5094357,3.5080938,3.5068302,3.5056543,3.5047479,3.5040731,3.5034165,3.502718,3.5020828,3.5016623,3.5014017,3.5017996,3.5028362,3.5043638,3.5063999,3.5085154,3.5110037,3.5135489,3.5160303,3.5185013,3.5210772,3.5237923,3.5265512,3.5293355,3.5322576,3.5351412,3.5378957,3.5405607,3.5431504,3.545578,3.5480497,3.5507536,3.5540166,3.557386,3.5601559,3.5618916
3.5238857,3.5367618,3.5435421,3.5490916,3.5547812,3.5607133,3.5629044,3.5649912,3.566471,3.5663123,3.56492,3.5629318,3.560415,3.5575085,3.5539017,3.5497503,3.5452206,3.5407174,3.5367436,3.5332007,3.5297313,3.526177,3.5225506,3.5189748,3.5157318,3.5130072,3.5106711,3.5088303,3.507361,3.506309,3.5056288,3.5052757,3.5051832,3.505196,3.505203,3.5051088,3.5048842,3.5045438,3.5041082,3.503571,3.502912,3.502263,3.50161,3.5010257,3.5004587,3.4998488,3.4991684,3.4984684,3.4979014,3.497408,3.497015,3.49669,3.4963734,3.4960341,3.4957213,3.4955173,3.4953747,3.4952657,3.4951534,3.4951386,3.4953594,3.495907,3.496804,3.497934,3.4993496,3.501009,3.5028126,3.504665,3.5064654,3.5081189,3.5096064,3.51103,3.5124128,3.513773,3.515067,3.5162175,3.5171967,3.5180128,3.518777,3.5195541,3.5203776,3.521213,3.522044,3.522887,3.5237198,3.5245893,3.5255597,3.5265574,3.5275128,3.5283785,3.52913,3.5297565,3.530262,3.5306633,3.5309176,3.530971,3.5308337,3.5305972,3.5303571,3.5301824,3.5300546,3.5299401,3.5297856,3.5295448,3.5292168,3.528815,3.5283422,3.5277543,3.5269828,3.5260296,3.5249157,3.523672,3.5223446,3.5209994,3.5195718,3.5181265,3.516829,3.515803,3.51509,3.514594,3.5141098,3.5135303,3.5127535,3.5118594,3.5110416,3.510438,3.5100036,3.5095868,3.5090945,3.5084023,3.5074801,3.506483,3.5055797,3.5048318,3.5042353,3.5037866,3.5033665,3.5029917,3.502674,3.502428,3.5022755,3.502213,3.5021882,3.5021257,3.5019867,3.501789,3.5015903,3.5014415,3.5013013,3.5010648,3.5007038,3.5001197,3.4993958,3.4986248,3.49782,3.496951,3.4960566,3.4952269,3.494544,3.4941394,3.4941661,3.494582,3.4952326,3.4959474,3.4965544,3.4970393,3.4973536,3.4973798,3.4971583,3.496776,3.4962945,3.4958644,3.4955826,3.495573,3.4958515,3.4963136,3.496863,3.497462,3.498107,3.4988604,3.4997566,3.5007374,3.5016847,3.5024605,3.5029929,3.5033057,3.5034447,3.5035267,3.5035465,3.5035272,3.5034828,3.503437,3.5034094,3.5033214,3.5031853,3.5029979,3.5027928,3.5025656,3.5023255,3.5020928,3.501819,3.5014381,3.5008142,3.5000138,3.499075,3.4980352,3.4969025,3.4956164,3.4942486,3.492711,3.49134,3.4901788,3.4891996,3.4884367,3.4878733,3.4873962,3.4870946,3.4869854,3.4870229,3.4870946,3.4870396,3.4867682,3.4864194,3.4860983,3.4858565,3.485714,3.48551,3.4850657,3.484447,3.4839468,3.483525,3.4832115,3.4830189,3.4829073,3.482854,3.4828675,3.482936,3.4830341,3.4830322,3.4826698,3.48203,3.4812334,3.480382,3.4796638,3.4789815,3.4783459,3.477685,3.477169,3.4767947,3.476388,3.4758766,3.4752798,3.4746392,3.4738665,3.4730558,3.472295,3.4715478,3.4706953,3.4696975,3.4685702,3.4673362,3.4659965,3.4646022,3.4632578,3.4620337,3.4609413,3.4600835,3.4597516,3.459724,3.4598029,3.4597616,3.4593687,3.4586096,3.4578514,3.457192,3.456569,3.4560442,3.4555504,3.4549289,3.4541588,3.453351,3.4524682,3.451603,3.4511845,3.4512558,3.4518123,3.452925,3.4541934,3.455886,3.457677,3.4595814,3.4616342,3.4638314,3.466135,3.4684405,3.4706764,3.4730916,3.4755101,3.4778275,3.4800458,3.482198,3.4842944,3.4864845,3.4889386,3.4918933,3.4949665,3.4978452,3.5003
3.4959407,3.5037093,3.5073862,3.5104036,3.5127316,3.5150244,3.5185199,3.5220299,3.5241396,3.5243115,3.522914,3.5205612,3.517775,3.5144205,3.510489,3.506215,3.501783,3.4975765,3.4940329,3.4910145,3.4881454,3.4852493,3.4822643,3.4792547,3.4764569,3.474043,3.4719296,3.4702425,3.4688835,3.4679236,3.4673338,3.467092,3.4671478,3.467332,3.4675417,3.467678,3.4676955,3.4676042,3.4674463,3.4672332,3.4669385,3.4666634,3.466424,3.4662728,3.4661307,3.4659104,3.4655616,3.4651146,3.4647083,3.4643335,3.4640136,3.4637208,3.4634087,3.4630663,3.462759,3.4625766,3.4624867,3.4624982,3.462584,3.4628022,3.4632378,3.4639487,3.464941,3.4661121,3.467537,3.469191,3.4709907,3.4728632,3.4747477,3.476576,3.478314,3.4800868,3.4818952,3.4837184,3.4854927,3.4871354,3.4886096,3.4899168,3.4912066,3.4925432,3.4939342,3.4953203,3.4966474,3.4979,3.4990606,3.5001953,3.5013852,3.5025778,3.5037122,3.5047417,3.5056372,3.506377,3.506961,3.507412,3.5077024,3.5078027,3.5077527,3.5076532,3.5075798,3.5075808,3.5076349,3.5076807,3.5076566,3.5075135,3.507246,3.506866,3.506381,3.505735,3.5048628,3.5037751,3.5025022,3.501083,3.4995675,3.498015,3.496356,3.4946504,3.493061,3.4917345,3.490738,3.4899967,3.4893274,3.4886317,3.4878106,3.4869628,3.4862566,3.485795,3.4854908,3.4851475,3.4846783,3.4839652,3.4829898,3.481938,3.481006,3.4802704,3.4797263,3.4793565,3.479043,3.478788,3.4786096,3.4785333,3.4785862,3.4787595,3.478993,3.4791982,3.4793425,3.4794097,3.4794388,3.479473,3.47948,3.4793868,3.479175,3.478727,3.4781065,3.477378,3.4765716,3.475708,3.4748528,3.474106,3.4735456,3.4732866,3.4734707,3.4740698,3.4749448,3.4759192,3.4768176,3.4776235,3.478271,3.4786372,3.4787507,3.478691,3.4785085,3.4783146,3.4781916,3.4782531,3.4785268,3.4789643,3.4795213,3.4801683,3.4808745,3.4816797,3.4826007,3.483564,3.4844656,3.4851823,3.48565,3.485907,3.485999,3.4860377,3.4860032,3.4859076,3.485756,3.4855685,3.4853778,3.485125,3.4848094,3.4844213,3.4839997,3.483552,3.483102,3.4826798,3.4822402,3.481715,3.4809437,3.4799805,3.4788628,3.4776504,3.4763727,3.4749722,3.4735026,3.4718647,3.4703705,3.4690468,3.467885,3.4669483,3.466227,3.4656048,3.4651241,3.4647927,3.46457,3.4643526,3.4639907,3.4634016,3.4627032,3.461979,3.461258,3.4605546,3.4597611,3.4587557,3.4576206,3.4566529,3.4557986,3.4550936,3.454587,3.454237,3.453991,3.453824,3.4537003,3.4535728,3.4533608,3.4528599,3.4521418,3.4513035,3.4504342,3.4496994,3.4489927,3.4483278,3.447639,3.4471307,3.4467607,3.446322,3.4457774,3.4451277,3.444398,3.4435017,3.4425154,3.4415145,3.4404702,3.4393082,3.43807,3.4367647,3.4354334,3.434078,3.4327183,3.4313993,3.4301496,3.428997,3.4280448,3.4275632,3.4273968,3.4274292,3.4274485,3.4272332,3.4268136,3.4264581,3.426299,3.4261942,3.42612,3.4259536,3.4255562,3.4249601,3.424242,3.423408,3.422556,3.4219465,3.4216113,3.4216225,3.4220934,3.422714,3.4236803,3.424685,3.4258554,3.4272494,3.4287865,3.4303646,3.4319212,3.433447,3.435039,3.4365945,3.4380965,3.4395463,3.4409618,3.4423966,3.443924,3.4456854,3.4478688,3.4502196,3.4524252,3.454227
3.4406018,3.45112,3.4590626,3.4646177,3.4689608,3.4728703,3.4770136,3.480495,3.4823623,3.4824939,3.481415,3.479648,3.4776073,3.4753098,3.472691,3.4698968,3.4670525,3.464449,3.4624112,3.460806,3.4593182,3.4577732,3.4559934,3.4540293,3.4521248,3.450436,3.4489157,3.4477286,3.4468236,3.4462657,3.446053,3.446205,3.4466834,3.4472973,3.4479551,3.4485755,3.4490852,3.4494917,3.449822,3.4500809,3.4502554,3.4504373,3.450674,3.4509902,3.4512858,3.4514544,3.451434,3.4512475,3.4510202,3.4507637,3.4505394,3.4503307,3.4501076,3.449868,3.4496737,3.4496055,3.4496503,3.4498446,3.450161,3.4506054,3.4512088,3.4520102,3.4530206,3.4541597,3.4555264,3.4571047,3.4588175,3.460617,3.462483,3.4643812,3.4662676,3.468267,3.4703605,3.4724832,3.4745555,3.4765048,3.478297,3.47993,3.481571,3.4832852,3.4850602,3.486824,3.4884958,3.4900317,3.4914107,3.4926963,3.49399,3.4952807,3.4965353,3.497707,3.4987495,3.4996157,3.5002909,3.5008016,3.5011325,3.5012856,3.5013273,3.5013638,3.501452,3.5016146,3.5018332,3.5020175,3.5021,3.5020242,3.5017781,3.5013766,3.5008411,3.5001097,3.4991436,3.497968,3.496609,3.4950964,3.4934626,3.4917428,3.4898567,3.4878526,3.4858797,3.4841075,3.4826355,3.4814205,3.4803295,3.4792805,3.4781861,3.4771821,3.4764295,3.4760032,3.475776,3.475503,3.4750874,3.474422,3.4734755,3.472436,3.471511,3.4707808,3.4702396,3.4698665,3.4695415,3.4692516,3.4690423,3.4689746,3.4690967,3.4694064,3.469829,3.4702473,3.4706266,3.4709027,3.4711027,3.47127,3.4713807,3.4713898,3.4712956,3.4709778,3.4704854,3.4698632,3.4691482,3.468386,3.4676478,3.4670277,3.4665813,3.4663744,3.4665182,3.4669955,3.4676998,3.4684918,3.4692457,3.469943,3.4705353,3.4709382,3.4711864,3.4713488,3.4714484,3.4715295,3.4716434,3.4718742,3.472232,3.472693,3.473242,3.4738622,3.474528,3.4752607,3.4760745,3.4768977,3.4776478,3.4782195,3.4785626,3.478724,3.4787483,3.4787333,3.478652,3.478509,3.4783,3.4780438,3.477781,3.4774687,3.4770908,3.4766335,3.4761262,3.4755754,3.4750128,3.4744782,3.4739285,3.473301,3.4724245,3.471348,3.4701211,3.4688373,3.4675546,3.466206,3.464817,3.4632664,3.4618244,3.4604774,3.4592233,3.4581594,3.457286,3.4565032,3.455812,3.455223,3.4547162,3.4542246,3.4536388,3.4528913,3.452052,3.4511795,3.4502695,3.4493248,3.4482725,3.4470224,3.4456487,3.4444358,3.4433084,3.4423165,3.4415426,3.4409485,3.4404595,3.44003,3.4396226,3.4391837,3.4386973,3.4380183,3.4371896,3.4362812,3.4353821,3.4346333,3.4339032,3.4332042,3.432475,3.4319053,3.431435,3.4308717,3.4302194,3.4294844,3.4286637,3.4276752,3.426557,3.4253585,3.424069,3.4226685,3.4212575,3.4198627,3.4185357,3.417271,3.4160552,3.4148552,3.4136376,3.412447,3.4113948,3.4106677,3.410192,3.4099197,3.4096913,3.4093285,3.4088688,3.4085484,3.4084826,3.4085045,3.408558,3.4085107,3.4082327,3.4077501,3.4070995,3.4063888,3.4056258,3.405003,3.4045005,3.4041684,3.4041593,3.4042501,3.4045863,3.4049397,3.4054585,3.4061935,3.4070444,3.4079041,3.4087467,3.4096098,3.4103978,3.4110584,3.4116745,3.4122543,3.4127758,3.4133296,3.4139628,3.414743,3.4158792,3.41716,3.4182916,3.4190922
3.3975682,3.412301,3.4229827,3.4303956,3.4355702,3.4395576,3.4432578,3.44635,3.4482715,3.4488482,3.44844,3.4475672,3.446558,3.4454849,3.444257,3.4429097,3.4415345,3.4403644,3.4396195,3.4391804,3.4388256,3.438408,3.4376514,3.4366102,3.4355454,3.4345937,3.4337037,3.4330785,3.4326997,3.43261,3.4328313,3.4334126,3.4343152,3.43533,3.4363737,3.4373822,3.438266,3.4390206,3.4396644,3.4402127,3.4406748,3.441142,3.4416766,3.442287,3.4428515,3.4432554,3.443437,3.443421,3.4433308,3.4431894,3.4430947,3.4430375,3.4429836,3.4429224,3.4428988,3.4429736,3.4431515,3.4434817,3.4439356,3.444485,3.445126,3.4458938,3.4468193,3.4478362,3.449067,3.4505062,3.452094,3.453805,3.4556441,3.4575894,3.45958,3.4617271,3.4639912,3.4662778,3.4685059,3.4706223,3.472602,3.4744406,3.4763093,3.4782667,3.480289,3.4822896,3.4841752,3.4858897,3.4874082,3.4887881,3.4901457,3.4915037,3.4928617,3.494173,3.495365,3.4963627,3.4971333,3.4977136,3.4981005,3.498322,3.4984608,3.4986148,3.4988241,3.4990914,3.499406,3.4996634,3.4997993,3.4997563,3.4995098,3.4990702,3.498467,3.497635,3.496552,3.4952688,3.4938185,3.4922223,3.490499,3.4886615,3.4866195,3.484406,3.4821577,3.4800377,3.4781535,3.4764998,3.475003,3.4736032,3.4722216,3.4710264,3.4701693,3.4696965,3.4694521,3.4691653,3.4687357,3.4680333,3.4670496,3.4659796,3.4650383,3.4643064,3.4637656,3.4633906,3.463046,3.4626942,3.4624054,3.462267,3.4623516,3.4626749,3.4631505,3.463644,3.464108,3.4644513,3.4647014,3.4649038,3.465043,3.4651062,3.4650898,3.464882,3.4645061,3.4639814,3.4633436,3.462646,3.4619641,3.4613929,3.4609761,3.4607363,3.4607651,3.4610581,3.461538,3.4621058,3.462677,3.463233,3.4637425,3.4641566,3.4645016,3.4648304,3.4651499,3.4654496,3.4657576,3.4661236,3.4665334,3.466974,3.4674537,3.467976,3.4685338,3.4691372,3.4697998,3.4704595,3.471053,3.4714942,3.4717388,3.4718304,3.4718165,3.4717774,3.4716842,3.4715316,3.4712992,3.4709983,3.4706745,3.4702897,3.4698207,3.4692523,3.468617,3.4679284,3.467232,3.4665806,3.4659355,3.465228,3.4642925,3.4631605,3.4618926,3.4606032,3.4593656,3.4581122,3.4568486,3.4554203,3.4540615,3.452713,3.4513817,3.450201,3.4491878,3.4482687,3.447411,3.4466243,3.4459014,3.4452124,3.4444928,3.4436855,3.4428155,3.4419055,3.440933,3.439889,3.4387307,3.4373899,3.4359193,3.4345849,3.43328,3.432074,3.4310718,3.430246,3.4295201,3.4288392,3.4281662,3.4274511,3.4267273,3.4259,3.4249792,3.4240108,3.423089,3.4223385,3.4216096,3.4209192,3.4201956,3.4196029,3.4190683,3.418419,3.4176908,3.416911,3.4160554,3.4150395,3.4138572,3.412517,3.411024,3.4094148,3.4078236,3.4063005,3.4049273,3.4037004,3.402598,3.401558,3.4004917,3.3993888,3.398345,3.3975167,3.3968291,3.3962626,3.3957949,3.395349,3.3948975,3.3946252,3.3945837,3.3946443,3.3947415,3.3947818,3.394668,3.3943777,3.3938885,3.393293,3.3925982,3.3919451,3.3912978,3.3907256,3.3904061,3.3901515,3.3900888,3.3900647,3.390215,3.3905454,3.3909454,3.3913412,3.391729,3.3920794,3.392377,3.39254,3.3926358,3.3926702,3.3926365,3.3926566,3.3927736,3.3929763,3.3934524,3.39405,3.3945844,3.3949466
3.3560517,3.3762355,3.391843,3.4031792,3.4109507,3.4166045,3.4214628,3.4253976,3.4280634,3.4294882,3.4301672,3.4306056,3.4309475,3.431283,3.4314423,3.431272,3.43089,3.4305825,3.4305077,3.4305975,3.4307356,3.4308453,3.4307046,3.430324,3.4298801,3.4294763,3.4290748,3.428884,3.428918,3.4292445,3.4298658,3.430804,3.4320154,3.4332852,3.4345303,3.435702,3.4367125,3.437521,3.438198,3.4388204,3.4393697,3.4399219,3.4405413,3.4412332,3.4418569,3.4422922,3.442494,3.442501,3.4424357,3.442326,3.4422903,3.4423223,3.44238,3.4424431,3.4425406,3.4427083,3.4429543,3.4433274,3.4438052,3.4443517,3.4449522,3.4456468,3.446478,3.4473794,3.4484923,3.4498258,3.4513369,3.4530044,3.4548316,3.4567904,3.4588017,3.4609685,3.4632435,3.465544,3.4677973,3.4699636,3.472033,3.4739904,3.475996,3.4780898,3.4802337,3.4823275,3.484272,3.4860182,3.4875512,3.4889627,3.4903564,3.4917443,3.4931505,3.4945402,3.4958196,3.4968982,3.4977365,3.498385,3.4988537,3.499185,3.4994454,3.4997,3.49997,3.5002606,3.5005665,3.5008,3.5009112,3.5008473,3.5005727,3.500082,3.4993973,3.498456,3.4972124,3.4957638,3.4941764,3.4924812,3.4906971,3.4888206,3.4867477,3.4844985,3.4821901,3.4799294,3.4778,3.4758394,3.474043,3.4723744,3.4707658,3.469409,3.4684405,3.467888,3.4675827,3.4672446,3.4667764,3.465963,3.4648807,3.4637501,3.4627912,3.4620676,3.4615278,3.461145,3.460761,3.4603164,3.459896,3.4596064,3.4595444,3.459743,3.460113,3.4605186,3.4608927,3.4611444,3.4613137,3.4614391,3.4615111,3.4615679,3.4615808,3.4614468,3.4611583,3.4606905,3.4600582,3.4593167,3.4585433,3.4578552,3.4572842,3.4568722,3.4566922,3.4567466,3.4569948,3.4573624,3.4577813,3.4582314,3.458693,3.4591482,3.4595866,3.4600332,3.460503,3.4609573,3.4614186,3.4618948,3.4623332,3.46272,3.463079,3.463438,3.4638317,3.4642696,3.4647675,3.4652596,3.465702,3.4660318,3.46621,3.4662685,3.4662468,3.466208,3.4661229,3.4659786,3.465744,3.465422,3.4650526,3.4645922,3.4640217,3.4633188,3.4625363,3.4617066,3.4608822,3.4601216,3.4593983,3.4586332,3.457672,3.456538,3.4552903,3.4540474,3.452881,3.4517252,3.4505787,3.449265,3.4479916,3.4466555,3.4452586,3.443966,3.442819,3.441778,3.4407969,3.43989,3.4390736,3.4383402,3.4376397,3.436917,3.4361684,3.4353886,3.4345603,3.4336643,3.4326723,3.431522,3.4302382,3.429039,3.4277902,3.4265583,3.4254482,3.4244537,3.4235344,3.4226618,3.421805,3.4209228,3.4200392,3.4190948,3.418128,3.4171667,3.4162648,3.4155374,3.4148407,3.4142048,3.4135566,3.4130406,3.4125533,3.4119172,3.4111934,3.4104185,3.409567,3.4085605,3.4073653,3.4059684,3.4043813,3.4026656,3.400979,3.399384,3.3979714,3.3967476,3.3956904,3.394736,3.393785,3.3927984,3.3918452,3.391075,3.3904176,3.389884,3.3894835,3.3891478,3.388819,3.3886642,3.388713,3.3888402,3.3889828,3.3890712,3.389045,3.3888884,3.3885365,3.3881295,3.3876567,3.3872452,3.3868265,3.3864489,3.3862882,3.386145,3.3860753,3.3859658,3.3860035,3.3861983,3.3864264,3.3866153,3.3867679,3.386859,3.386904,3.38683,3.3866568,3.386393,3.3860729,3.385808,3.3856392,3.385497,3.3855383,3.3856642,3.3857489,3.3857312
3.3129957,3.339028,3.3603315,3.3764176,3.3875065,3.3957334,3.4024596,3.4076395,3.4114294,3.4141612,3.4163651,3.4185066,3.420435,3.422299,3.4239044,3.4250984,3.4259796,3.4267693,3.427576,3.4283507,3.4289389,3.4293349,3.4295115,3.4295287,3.4295144,3.4295394,3.4295447,3.429735,3.4301395,3.4308147,3.431755,3.4329667,3.4343824,3.4357743,3.4370775,3.4382749,3.4392972,3.440177,3.440972,3.441682,3.4422512,3.4427574,3.4432442,3.4437141,3.4440818,3.4442983,3.4443703,3.4443526,3.4443321,3.44428,3.4442928,3.4443572,3.4444566,3.4445996,3.4448137,3.4451153,3.4455209,3.4460602,3.446695,3.4473825,3.448102,3.448851,3.4496214,3.4504116,3.4514222,3.4526634,3.4540868,3.4556665,3.4574237,3.4593635,3.461403,3.4636643,3.466104,3.4686372,3.4710517,3.4732678,3.475422,3.4775085,3.4796543,3.4818835,3.4841404,3.4863067,3.488281,3.490024,3.491521,3.4928808,3.494223,3.495612,3.497069,3.4985094,3.4998245,3.5009613,3.5018578,3.5025759,3.5031266,3.5035615,3.50393,3.5042639,3.5045652,3.5048447,3.5051022,3.5052657,3.505307,3.5051756,3.504815,3.504207,3.503386,3.5022583,3.5008516,3.499264,3.497558,3.4957666,3.4939075,3.4919791,3.4898653,3.4875693,3.4851823,3.48281,3.4805284,3.4783628,3.4763227,3.474402,3.472571,3.471065,3.4700372,3.4694905,3.4692063,3.4688652,3.4683602,3.4675515,3.4664054,3.4651942,3.4641738,3.4633806,3.4627256,3.4621649,3.4615748,3.4609294,3.4603548,3.4600005,3.4599075,3.460031,3.4603448,3.4606981,3.4610372,3.4612615,3.4613981,3.4615111,3.4616222,3.4617429,3.4617958,3.4617558,3.4616387,3.461319,3.4607513,3.4599955,3.4591253,3.4582987,3.4575477,3.4569116,3.4564624,3.456219,3.4561672,3.4562576,3.456436,3.4566622,3.456943,3.4572873,3.4577117,3.4582322,3.4588318,3.459444,3.4600234,3.4605794,3.4610248,3.461339,3.4615562,3.4617324,3.4619489,3.462215,3.462549,3.4628937,3.463217,3.4634662,3.4636035,3.4636543,3.4636471,3.463622,3.46356,3.4634492,3.4632514,3.4629579,3.4625974,3.4621177,3.4615035,3.4607239,3.4598575,3.4589458,3.4580383,3.457202,3.4564161,3.4555922,3.4545963,3.4534478,3.4522107,3.45101,3.4499204,3.4488764,3.447855,3.4466681,3.44549,3.4441795,3.4427414,3.441365,3.4401088,3.4389744,3.437893,3.436904,3.4360397,3.4352984,3.4346447,3.4340334,3.4334302,3.432842,3.4322424,3.4315956,3.4308698,3.4299917,3.4289536,3.4279513,3.4268494,3.425702,3.4246101,3.4235823,3.4225926,3.4216218,3.4206605,3.4196615,3.418674,3.417657,3.4166422,3.4156456,3.414712,3.413958,3.4132514,3.4126265,3.4120069,3.4115298,3.411064,3.4104147,3.4096665,3.408868,3.4079905,3.4069598,3.4057152,3.404232,3.4025283,3.400681,3.3988771,3.3971791,3.3956897,3.3944292,3.3933835,3.392488,3.3916326,3.3907611,3.3899045,3.3892086,3.3886018,3.388115,3.3877974,3.3875856,3.3873801,3.387333,3.387454,3.3876324,3.387817,3.3879604,3.3880231,3.3879824,3.387741,3.3874874,3.3871958,3.3869882,3.386776,3.386582,3.3865724,3.3865447,3.3865283,3.386448,3.3864915,3.3866634,3.3868306,3.3869205,3.3869462,3.3868756,3.386716,3.386406,3.3859818,3.3854754,3.3849318,3.3844523,3.3840547,3.3836057,3.383211,3.382845,3.382464,3.382052
3.275252,3.3061466,3.3328867,3.3539298,3.36896,3.3802977,3.3892324,3.3956957,3.4001677,3.403349,3.4060595,3.408935,3.4117088,3.4144459,3.4168634,3.4187982,3.4202833,3.4214065,3.4221816,3.4225855,3.4228442,3.4231024,3.42333,3.4235415,3.4238248,3.4242153,3.4246106,3.4251904,3.4259968,3.4270563,3.4283285,3.4297779,3.4313254,3.4327846,3.434114,3.435296,3.43628,3.4371011,3.4378219,3.4384546,3.438953,3.439393,3.4398065,3.4401965,3.4404948,3.4406695,3.440742,3.4407816,3.4408693,3.4409618,3.4411366,3.441352,3.4415731,3.4418087,3.442091,3.442422,3.4428349,3.443345,3.4439328,3.4445724,3.4452431,3.4459558,3.4467363,3.4475174,3.4484887,3.4496589,3.4510512,3.4527035,3.454624,3.456759,3.459011,3.4615064,3.4641886,3.4669929,3.4698071,3.4725485,3.4751837,3.4776096,3.4800825,3.4826298,3.4851153,3.487411,3.4894588,3.4912505,3.4927804,3.4940972,3.495389,3.4967475,3.4981956,3.4996681,3.5010333,3.5021706,3.503141,3.5040028,3.5047057,3.5052772,3.505733,3.506056,3.506239,3.5063305,3.5063376,3.5062423,3.5059576,3.505417,3.5046515,3.5037322,3.5026803,3.5014005,3.4999237,3.4983573,3.4967668,3.4951859,3.4935608,3.4917302,3.4896908,3.4874744,3.4851363,3.4827874,3.480516,3.4783297,3.4762378,3.474371,3.4726615,3.471245,3.4700952,3.4691257,3.468222,3.467267,3.4662757,3.4652371,3.4641733,3.4632592,3.462584,3.4620461,3.4615464,3.461179,3.460714,3.4600756,3.4593835,3.4587884,3.458426,3.4583607,3.458501,3.458542,3.4585886,3.458605,3.4586391,3.4587126,3.4587932,3.4588964,3.458983,3.4590528,3.459077,3.458904,3.4584758,3.4578414,3.457066,3.456273,3.4553368,3.4544346,3.4536982,3.453189,3.4529195,3.4528308,3.4528508,3.4529657,3.453182,3.4535382,3.4540355,3.4546652,3.455398,3.4561415,3.4568443,3.4574711,3.457861,3.4580338,3.4580758,3.458044,3.4580324,3.4580774,3.4582028,3.458394,3.4586601,3.4589605,3.4592068,3.459351,3.4594646,3.4595923,3.4596925,3.4597368,3.4596868,3.4595194,3.459231,3.4587545,3.4580886,3.4571934,3.45613,3.4549737,3.4538214,3.4527655,3.4518218,3.450911,3.4499156,3.4488552,3.4477644,3.446714,3.4457355,3.4447594,3.4438128,3.4427123,3.4415503,3.4401693,3.438599,3.437057,3.4356315,3.4343643,3.433194,3.4320707,3.431098,3.4303267,3.4297147,3.4292116,3.4287581,3.4283543,3.427968,3.4275408,3.4270275,3.4263601,3.4255342,3.4247193,3.423738,3.4226494,3.4215689,3.420526,3.4195023,3.4184813,3.4174569,3.416386,3.4153361,3.4142904,3.4132147,3.4121113,3.411079,3.4102478,3.4094896,3.4088397,3.408225,3.4077408,3.4072375,3.4065402,3.4057465,3.4049108,3.4039993,3.402944,3.4016535,3.4000914,3.3982716,3.3962731,3.3943243,3.39247,3.3907886,3.389329,3.3881109,3.3871045,3.3862271,3.3854163,3.3846345,3.3840175,3.3835,3.3831253,3.3829646,3.3829484,3.3829195,3.3830166,3.3832083,3.3834143,3.3836122,3.3837788,3.3838782,3.383862,3.3836024,3.3833773,3.3831425,3.383025,3.3829217,3.382831,3.3829055,3.382939,3.3829362,3.3828545,3.3828735,3.3830032,3.383112,3.383123,3.3830595,3.3828778,3.3825655,3.3820846,3.381493,3.3808584,3.380241,3.3797112,3.3792815,3.3787575,3.378188,3.3775969,3.3769927,3.3763936
3.241586,3.2761674,3.3079686,3.3343005,3.3541422,3.3694034,3.3813248,3.3896127,3.394835,3.3981478,3.4008808,3.4039025,3.4069023,3.410016,3.4128883,3.4150186,3.4162822,3.4168634,3.416985,3.4168785,3.4167433,3.4167452,3.4168758,3.4171352,3.417593,3.4182615,3.4190016,3.4199567,3.421171,3.4226303,3.4242516,3.4259574,3.4276495,3.4291646,3.4304905,3.4316392,3.4325795,3.4333348,3.433959,3.4344773,3.4348645,3.4351993,3.4355116,3.4358258,3.4360967,3.4363189,3.4365373,3.4368,3.4371219,3.4373877,3.4377222,3.4380567,3.438336,3.438574,3.43882,3.4390907,3.4394412,3.439886,3.4404285,3.4410691,3.4417894,3.4425921,3.4434924,3.4443603,3.4453502,3.446485,3.4478545,3.4495525,3.4516025,3.4539347,3.456407,3.4591641,3.4621103,3.4651823,3.4683404,3.4714792,3.4744577,3.4772265,3.4800029,3.4827724,3.4854488,3.487951,3.4901695,3.4920533,3.4936922,3.495141,3.4965448,3.4979415,3.4993396,3.500721,3.5020275,3.5031724,3.5042381,3.5053172,3.5063214,3.507201,3.5078022,3.508041,3.5080345,3.5078661,3.5074682,3.506861,3.506062,3.5050974,3.504013,3.5028434,3.5016065,3.500187,3.498602,3.4969704,3.4953775,3.493878,3.4924133,3.490768,3.4889095,3.4869394,3.4848921,3.4827814,3.4805944,3.4783957,3.476389,3.4746776,3.4731612,3.4718778,3.4706402,3.4692752,3.467738,3.4660852,3.4644823,3.4630358,3.4617865,3.4609137,3.4605112,3.4604294,3.4604154,3.4603622,3.4601684,3.4596639,3.4589777,3.4582896,3.4577398,3.4574022,3.4572535,3.4571247,3.4570327,3.4569612,3.4569807,3.4570875,3.4572117,3.4573793,3.4575725,3.4576595,3.4576583,3.45749,3.4571042,3.4565039,3.4557211,3.454874,3.4538662,3.4528458,3.4519534,3.451276,3.4508553,3.4506643,3.4506488,3.4507735,3.4510205,3.4514022,3.4519362,3.452623,3.4533997,3.4541426,3.4547987,3.455359,3.4556787,3.45577,3.4557056,3.4555497,3.4554207,3.45536,3.455387,3.4555135,3.4557633,3.4560924,3.45641,3.4566717,3.4569244,3.4571638,3.457364,3.457522,3.4575925,3.4575024,3.4572034,3.4566617,3.455892,3.4548461,3.4536166,3.4523044,3.4510126,3.4498386,3.4488149,3.4478652,3.4468713,3.445839,3.4447906,3.4437816,3.4428334,3.4418862,3.4409678,3.4399045,3.4388127,3.4375086,3.435973,3.4343934,3.4328609,3.4314551,3.4301264,3.4288754,3.4278045,3.4269538,3.4262886,3.4257655,3.4253144,3.424924,3.4245653,3.4241834,3.4237385,3.4231849,3.4225304,3.421914,3.4211266,3.4202023,3.4192019,3.4181652,3.417121,3.4161022,3.4151316,3.4141545,3.4132152,3.4122672,3.4112723,3.4102244,3.4091852,3.4082596,3.407406,3.406641,3.405912,3.405356,3.4048033,3.4040432,3.4031935,3.402329,3.4013991,3.4002848,3.3989038,3.3972895,3.3954868,3.3934798,3.3913398,3.389176,3.3871121,3.3852499,3.38366,3.382377,3.3813758,3.3805969,3.3798943,3.3793836,3.378992,3.3787937,3.3788843,3.3791633,3.379415,3.3797607,3.3801363,3.3805385,3.3809075,3.381146,3.3812556,3.3813176,3.3812103,3.3810048,3.3807063,3.3805304,3.3804002,3.3803043,3.3803911,3.3804312,3.3804016,3.380283,3.380251,3.3803334,3.3804083,3.3803842,3.3802872,3.3800545,3.3796527,3.3790479,3.3783193,3.377584,3.3769317,3.3764095,3.3760333,3.3755424,3.3749294,3.3742409,3.3735063,3.3727672
3.2080219,3.2436984,3.2788076,3.309855,3.3348808,3.3551166,3.370963,3.3825252,3.3902273,3.3949637,3.3982534,3.4014816,3.404502,3.4077275,3.410881,3.413427,3.4146986,3.4148428,3.4147148,3.4145408,3.414324,3.4142175,3.4142673,3.4145012,3.4149942,3.415771,3.4166849,3.4178562,3.4193215,3.421036,3.4228864,3.4247646,3.42655,3.42808,3.429373,3.430472,3.4313731,3.4321084,3.4327197,3.4332228,3.433593,3.4338999,3.4341712,3.4344344,3.4346719,3.4349177,3.4352388,3.435667,3.4361677,3.4365826,3.4369912,3.437287,3.4374228,3.4374528,3.4374819,3.437583,3.4378173,3.4382262,3.4388165,3.4395938,3.4405305,3.441558,3.442606,3.4436638,3.4448152,3.4460416,3.4474673,3.4492292,3.451379,3.4538603,3.4564736,3.459342,3.4624224,3.4655333,3.4686835,3.4718828,3.475009,3.4780424,3.4811096,3.4841805,3.487147,3.4898832,3.492279,3.4943314,3.4961362,3.497768,3.4993386,3.5008578,3.5022655,3.5035427,3.504728,3.505824,3.5069022,3.50809,3.5092947,3.510416,3.5112205,3.5115476,3.5114865,3.5111303,3.5104074,3.50943,3.5083184,3.5071583,3.5059695,3.5047235,3.5034275,3.501927,3.5002232,3.498463,3.496745,3.4951193,3.4935646,3.4919713,3.4902978,3.4886322,3.4869711,3.485124,3.483033,3.4809089,3.479011,3.4773908,3.4759443,3.4746504,3.4732265,3.4714332,3.4692538,3.4668741,3.464594,3.4626193,3.4610834,3.4601378,3.459867,3.4600902,3.4604383,3.4607239,3.4607503,3.4604125,3.4598312,3.4592004,3.458659,3.4582453,3.457949,3.4578686,3.45787,3.4579065,3.458049,3.4582932,3.4585664,3.4589007,3.4592462,3.459352,3.4593124,3.4591184,3.4587164,3.4580588,3.4571557,3.456159,3.4550645,3.453951,3.4529479,3.4521525,3.451622,3.4513474,3.451282,3.451363,3.4515777,3.4518924,3.452331,3.4529312,3.453642,3.454331,3.4548852,3.455355,3.455642,3.4557269,3.4556403,3.4554539,3.4553092,3.4552367,3.4552493,3.4553614,3.4555907,3.4558835,3.4561663,3.4564352,3.4567041,3.4569316,3.4571052,3.4572673,3.4573412,3.4572182,3.4568849,3.4563003,3.4554806,3.454374,3.4531088,3.4517872,3.450498,3.4493337,3.4483175,3.447377,3.4463763,3.4453046,3.4441936,3.443119,3.4421196,3.441152,3.4402196,3.439157,3.4381325,3.4369428,3.4355135,3.4339886,3.4324498,3.430997,3.4295774,3.4282799,3.4271762,3.426275,3.4255428,3.4249382,3.424404,3.423923,3.4234743,3.4230242,3.4225514,3.422025,3.4214604,3.4209716,3.4203358,3.4195604,3.4186592,3.4176846,3.4167037,3.4157772,3.4149566,3.4141564,3.413405,3.4126058,3.4117327,3.41078,3.4097881,3.408863,3.4079568,3.4070683,3.4061835,3.4055185,3.4049096,3.4041047,3.4032052,3.4022796,3.4012842,3.4001048,3.3987353,3.39714,3.395338,3.393386,3.3912663,3.3890023,3.3865964,3.3842869,3.382247,3.380588,3.3793707,3.378541,3.3778505,3.3774788,3.3773503,3.3774047,3.3776855,3.3781846,3.3787484,3.37942,3.380094,3.3807178,3.3812587,3.3816593,3.3819416,3.3822036,3.3823326,3.3823438,3.382208,3.3821862,3.3821929,3.3821626,3.3822384,3.3822322,3.3821187,3.3819058,3.3817601,3.381735,3.3817365,3.3816733,3.3815584,3.381312,3.3808818,3.3802164,3.379425,3.378653,3.3779912,3.3774757,3.3771207,3.3766418,3.3759995,3.3752465,3.3743932,3.3734913
3.1782455,3.2119668,3.247891,3.282237,3.3120522,3.3377512,3.358385,3.3746276,3.3865151,3.3942819,3.3993144,3.4033978,3.4067507,3.4101713,3.4135075,3.416618,3.4185715,3.4192083,3.419495,3.4194913,3.419334,3.4192157,3.4192023,3.4193397,3.4197297,3.420425,3.4212933,3.4224505,3.4239335,3.4256854,3.4275737,3.4294658,3.4312289,3.432715,3.433959,3.435011,3.4358962,3.4366622,3.4373498,3.4379616,3.4384537,3.4388685,3.4392257,3.4395373,3.4397497,3.4398751,3.440034,3.4403553,3.4408236,3.441303,3.4417048,3.4418788,3.4417996,3.441556,3.441281,3.4410982,3.4411452,3.4413843,3.4419029,3.442745,3.4438682,3.4451427,3.4464111,3.44769,3.4490077,3.4503188,3.4518027,3.4536343,3.4558616,3.4584165,3.4610603,3.463875,3.4668841,3.4698591,3.472886,3.4761052,3.4794009,3.482664,3.4860392,3.4895186,3.4928606,3.4958088,3.498318,3.5005012,3.502387,3.5040634,3.5057082,3.5073302,3.508813,3.5101128,3.5112824,3.512329,3.5133653,3.5145078,3.5156984,3.5168638,3.5178304,3.5184016,3.5184863,3.5181115,3.5173454,3.5163717,3.5153012,3.5142076,3.5131016,3.51193,3.510709,3.5092669,3.5075655,3.505754,3.5039196,3.5021238,3.5004249,3.498823,3.497334,3.4959898,3.4946566,3.4930277,3.4911184,3.4892006,3.48737,3.4857438,3.484211,3.482726,3.4809241,3.4784966,3.4754822,3.4722352,3.469152,3.4665782,3.4647865,3.4637566,3.4635234,3.463886,3.4643831,3.4649756,3.4652133,3.4650989,3.4647074,3.4641895,3.4637566,3.4635167,3.4633532,3.463407,3.4635763,3.463788,3.464108,3.4645472,3.4650254,3.4655397,3.4660428,3.466375,3.4665353,3.466431,3.4660282,3.4653325,3.4643517,3.4632561,3.4620252,3.4607735,3.4596462,3.458752,3.458148,3.4577973,3.457625,3.4575748,3.4576015,3.4577203,3.4579659,3.4583871,3.4589744,3.4596128,3.4601665,3.4606695,3.4609957,3.4611092,3.4610426,3.4608724,3.460733,3.4606557,3.4606576,3.4607353,3.4609122,3.4611402,3.461338,3.4614959,3.4616477,3.4617884,3.4618826,3.4619865,3.462016,3.4618719,3.4615664,3.4610078,3.460226,3.459169,3.457952,3.456668,3.4554114,3.4542792,3.4532824,3.452355,3.4513474,3.4502435,3.4490833,3.4479518,3.446897,3.4458895,3.4449325,3.443872,3.442868,3.4417224,3.4403543,3.4388924,3.4374127,3.4360175,3.4346428,3.4333756,3.432292,3.431399,3.4306514,3.429997,3.4293957,3.4288304,3.4282851,3.4277518,3.427225,3.426679,3.4261265,3.4256713,3.4250822,3.4243646,3.4235387,3.4226727,3.4218292,3.421054,3.4203901,3.4197445,3.4191542,3.4184942,3.4177074,3.4167824,3.4158075,3.4149404,3.4140325,3.4130926,3.4121318,3.411395,3.410747,3.4099379,3.4090328,3.4080539,3.4069667,3.4057372,3.4043398,3.4026585,3.400724,3.3987293,3.3967447,3.3945174,3.391837,3.3890862,3.3865237,3.384379,3.382864,3.3819108,3.3811388,3.3808513,3.3809743,3.3813095,3.3818223,3.382558,3.3834286,3.384451,3.3854675,3.3862734,3.3868687,3.3874104,3.3879967,3.3885603,3.3889337,3.3893423,3.3896127,3.3899665,3.390277,3.3904328,3.3905802,3.3905852,3.390425,3.3901572,3.3899279,3.3897977,3.3897142,3.3896115,3.389485,3.3892713,3.3888712,3.3882031,3.3873978,3.3865943,3.3858793,3.3853421,3.3849773,3.384509,3.3838933,3.3831606,3.382277,3.3812966
3.1590996,3.1891704,3.22401,3.2599626,3.2935152,3.3239336,3.3500586,3.3716168,3.3878813,3.3992455,3.4072242,3.413147,3.417544,3.4216368,3.425273,3.4284244,3.4309716,3.4326444,3.4333506,3.433467,3.4333248,3.4331255,3.4329631,3.432917,3.4331212,3.4336495,3.4343724,3.4354017,3.4367948,3.4384737,3.4402883,3.4421,3.4437814,3.4452019,3.4463968,3.4474359,3.4483666,3.4492242,3.4500408,3.4508228,3.451508,3.452097,3.452591,3.452998,3.453162,3.4530344,3.4528527,3.4529302,3.4532673,3.4537354,3.4541326,3.4542465,3.4540277,3.45356,3.4529657,3.452382,3.4520993,3.4518824,3.4520483,3.4527626,3.4539804,3.455553,3.4572468,3.4587064,3.4599934,3.461174,3.4625316,3.4642577,3.4663801,3.468836,3.4713697,3.4741006,3.4769435,3.4799156,3.4831057,3.4864988,3.4899664,3.4934165,3.4969764,3.5006113,3.5040903,3.5071535,3.5096831,3.511746,3.5134625,3.5150304,3.5166497,3.5182462,3.5197344,3.5211,3.5223513,3.5234556,3.5245187,3.525628,3.5268085,3.528017,3.5290427,3.5297015,3.5299625,3.5297394,3.5291991,3.5284195,3.5275636,3.5267746,3.526009,3.5251176,3.5241616,3.5230002,3.5215287,3.5198183,3.5179236,3.5160136,3.5143216,3.512888,3.511602,3.5105681,3.5094965,3.5081754,3.506596,3.5048523,3.5030475,3.5013423,3.4996026,3.49782,3.495574,3.4924738,3.488608,3.4844964,3.4805622,3.477282,3.474946,3.4734988,3.4731727,3.4738271,3.474684,3.4754605,3.476014,3.4762063,3.4760935,3.4757771,3.475469,3.4753704,3.4754207,3.475646,3.475986,3.4763446,3.476799,3.477409,3.4780917,3.4787674,3.4794626,3.4802275,3.4808216,3.480913,3.480534,3.479854,3.478854,3.477714,3.4764135,3.4750967,3.4739246,3.4730108,3.4724016,3.4720402,3.4718227,3.4716768,3.4714518,3.4713001,3.471334,3.4715853,3.472031,3.4725618,3.473156,3.4737575,3.474187,3.4743712,3.4743466,3.4742045,3.4740763,3.4739995,3.4740002,3.4740477,3.4741693,3.47433,3.4744434,3.4744902,3.474516,3.4745502,3.4745631,3.4745848,3.4746068,3.4745383,3.4742658,3.473723,3.47298,3.4719646,3.4707866,3.4695344,3.4683056,3.4672017,3.4662266,3.4653,3.4642823,3.4631572,3.4619665,3.460802,3.459723,3.458707,3.4577565,3.4567282,3.4557905,3.4547496,3.4535074,3.4521668,3.4507887,3.449474,3.4481535,3.446932,3.4458768,3.4449859,3.4442127,3.4435077,3.442831,3.4421668,3.4415064,3.4408638,3.4402573,3.43967,3.4391127,3.438684,3.438153,3.4375172,3.4367828,3.4360063,3.4352574,3.4345868,3.4340324,3.433529,3.4331107,3.43262,3.4319744,3.43114,3.4301891,3.429294,3.4283495,3.4274025,3.426441,3.425723,3.4251103,3.4243479,3.4235106,3.4225907,3.4214861,3.4201717,3.418415,3.416376,3.4143004,3.4121814,3.4100504,3.4074824,3.4043832,3.4011173,3.3979044,3.395139,3.3932633,3.392171,3.391262,3.3909085,3.3910234,3.391604,3.3926296,3.393908,3.3951888,3.3965468,3.3978453,3.3989358,3.399699,3.4003432,3.4011474,3.4020734,3.4028392,3.4036005,3.4041293,3.4046664,3.405118,3.405434,3.4057975,3.4059904,3.4059558,3.4058137,3.405685,3.4056091,3.405561,3.405511,3.4054422,3.4053495,3.4050465,3.404416,3.4035616,3.4026165,3.4017396,3.401145,3.4008098,3.4004376,3.399985,3.3994224,3.3986778,3.3978117
3.1428537,3.1676977,3.1987934,3.2333786,3.268584,3.3022313,3.3344862,3.3628302,3.3849273,3.401145,3.4131775,3.4218667,3.428074,3.4333532,3.4377444,3.4414792,3.4445064,3.4466286,3.447865,3.4484076,3.4484053,3.4481797,3.4478636,3.4476056,3.4476194,3.4480083,3.448618,3.449563,3.4509082,3.4524467,3.45406,3.4556823,3.4572136,3.458544,3.4596887,3.4607348,3.461765,3.4627185,3.4636264,3.4645977,3.4655967,3.466506,3.4672432,3.4677312,3.467858,3.4677904,3.4677422,3.4678023,3.4681323,3.4687386,3.4693093,3.4693708,3.468629,3.4672875,3.4658499,3.464605,3.4634838,3.462665,3.4625847,3.4634373,3.4651055,3.4672399,3.469389,3.4712222,3.472701,3.4738941,3.4751327,3.4766655,3.4785771,3.4808505,3.483234,3.485848,3.488607,3.4915352,3.4947138,3.4981132,3.501599,3.5050788,3.5086417,3.5122294,3.5155675,3.5183787,3.5205789,3.5222917,3.5236735,3.5249534,3.526352,3.5277796,3.5291166,3.5303073,3.5313435,3.5322301,3.5331879,3.5343165,3.5355406,3.5367885,3.5378466,3.5385075,3.5387697,3.5387669,3.5385616,3.5382643,3.537992,3.5378118,3.5376873,3.5375102,3.5372458,3.5367875,3.5359542,3.5347395,3.5331674,3.5313911,3.5296931,3.5282643,3.5268657,3.5256858,3.5246823,3.5236263,3.5223193,3.5207176,3.5189078,3.5170934,3.515138,3.5130453,3.5103254,3.506504,3.5017204,3.4966722,3.4918559,3.4873512,3.4840472,3.4823203,3.4822583,3.483343,3.4846134,3.4856937,3.486497,3.4868922,3.4869833,3.4868233,3.486586,3.4865208,3.4866,3.4869518,3.4874096,3.4878511,3.488356,3.4889884,3.4897265,3.4906077,3.4915667,3.492622,3.4935641,3.4940116,3.4939091,3.493356,3.4923186,3.4910288,3.4894671,3.487942,3.4867191,3.4859104,3.485491,3.4852853,3.485022,3.4846535,3.4842758,3.4839613,3.4837236,3.4836736,3.4839253,3.484348,3.484913,3.4855294,3.4860349,3.4863324,3.4863806,3.4862292,3.4860673,3.4859605,3.485939,3.4860187,3.4862046,3.4863772,3.4864264,3.486397,3.486321,3.4862337,3.4861143,3.486001,3.485883,3.4857142,3.4854612,3.4850433,3.484443,3.483496,3.4823499,3.4811249,3.4799175,3.4788308,3.4778624,3.4769297,3.4758885,3.4747305,3.4735007,3.4722977,3.4711895,3.4701633,3.4692144,3.46822,3.4673586,3.4664412,3.4653516,3.4641643,3.4629235,3.4617212,3.4604836,3.459323,3.458301,3.457407,3.4565942,3.455822,3.4550595,3.4542854,3.4534924,3.452721,3.4520068,3.4513426,3.450746,3.4503112,3.4498076,3.449222,3.4485373,3.4478045,3.4471016,3.446486,3.4459953,3.4455903,3.4453044,3.4449544,3.4444404,3.4437103,3.4428246,3.4419565,3.4409883,3.4400403,3.4391093,3.4384496,3.437918,3.4372516,3.4365127,3.4356804,3.4345584,3.4330134,3.431027,3.4288394,3.426671,3.4245093,3.4222932,3.4194145,3.4160137,3.4123793,3.4086568,3.4053278,3.402985,3.4015422,3.400303,3.399798,3.4000006,3.4008658,3.4022887,3.4041233,3.4061375,3.407708,3.4089801,3.4102435,3.4116154,3.412856,3.4139633,3.415257,3.416367,3.41739,3.4181213,3.4188538,3.4195218,3.420072,3.4206731,3.4210737,3.421214,3.4212465,3.4212804,3.4213293,3.421401,3.4215176,3.4216409,3.4217253,3.4216213,3.4211855,3.420445,3.419555,3.4187374,3.418189,3.4179323,3.4176984,3.4174716,3.417181,3.4167018,3.4160833
3.128095,3.1463914,3.1719127,3.2030969,3.2378716,3.2736359,3.3110595,3.3468947,3.3772416,3.4003656,3.4173021,3.4299047,3.4388208,3.4459577,3.4515576,3.456153,3.4598513,3.462516,3.4642186,3.4650908,3.4652443,3.4650116,3.4645426,3.4640546,3.46383,3.4640126,3.4644651,3.4652934,3.4665327,3.4680803,3.4698057,3.4715738,3.4731674,3.474373,3.4754448,3.4764614,3.4774942,3.4784749,3.4794843,3.48065,3.4818609,3.482957,3.4839005,3.4844832,3.4845004,3.4842482,3.484194,3.4845362,3.4852867,3.4864159,3.4872165,3.486995,3.4854627,3.4831123,3.4806573,3.478246,3.4761925,3.474615,3.474166,3.475119,3.4772973,3.4801116,3.4827716,3.4849863,3.4866667,3.4878738,3.488995,3.4903514,3.4920907,3.4942398,3.4965377,3.4991026,3.5018363,3.5047536,3.5079277,3.5113168,3.5147777,3.5182261,3.52171,3.5251427,3.5282195,3.5306509,3.5323868,3.5336156,3.534542,3.5354247,3.5364966,3.5376525,3.5387468,3.5396805,3.5404115,3.5409713,3.5416381,3.5425186,3.5435712,3.544754,3.5458355,3.546588,3.5470362,3.5473356,3.5475574,3.5478294,3.5482705,3.5489075,3.5496702,3.550435,3.551101,3.5512605,3.5510693,3.5505335,3.5495842,3.54808,3.5461655,3.5444796,3.542904,3.5416503,3.5407262,3.5398426,3.5386815,3.5371065,3.5351906,3.5332804,3.53083,3.528244,3.5251908,3.5209503,3.515373,3.5091372,3.5027556,3.4969993,3.493012,3.491262,3.4916775,3.4934063,3.4952111,3.4967053,3.4978285,3.4983945,3.498522,3.4983747,3.4981608,3.4980915,3.498205,3.4985642,3.4990194,3.499441,3.499889,3.50042,3.501057,3.5019002,3.5028691,3.5039868,3.5050526,3.5057344,3.5058603,3.5053856,3.5043237,3.502951,3.5013275,3.4997735,3.4985905,3.4978986,3.497643,3.4976087,3.49749,3.4971752,3.4966846,3.4961138,3.4956267,3.495407,3.4955235,3.4958663,3.4964037,3.4970326,3.4976108,3.4980154,3.4981542,3.4980521,3.4979024,3.4977827,3.497745,3.4978278,3.498026,3.4982216,3.4983063,3.498301,3.4982448,3.4981632,3.4980297,3.4978585,3.4976306,3.497334,3.4969878,3.496526,3.4958973,3.4949808,3.4938512,3.492589,3.4913268,3.4902194,3.4892712,3.4883566,3.4873118,3.4861283,3.48486,3.4836416,3.482571,3.4816093,3.4807382,3.4797835,3.4789445,3.478086,3.4771075,3.4760628,3.4749792,3.473915,3.4727886,3.4716964,3.470728,3.4698787,3.4690804,3.4682827,3.467462,3.4666018,3.4657428,3.4648652,3.4640155,3.4632225,3.4624896,3.4619222,3.4612913,3.4605656,3.459754,3.4588852,3.4580588,3.4573991,3.4569547,3.4566922,3.4565606,3.4563112,3.4557776,3.4548795,3.453741,3.4526672,3.4516149,3.4506493,3.4497724,3.44926,3.4490142,3.448793,3.448503,3.4477134,3.4466267,3.4450374,3.4429574,3.4406672,3.4384894,3.4363725,3.4338717,3.4309437,3.427368,3.4234562,3.419288,3.415358,3.4124246,3.4105306,3.4090633,3.4086258,3.4091249,3.4105034,3.4125369,3.4147668,3.4167519,3.418272,3.419335,3.4204755,3.4220493,3.4240677,3.4262004,3.4280481,3.4294815,3.4308228,3.431847,3.4328885,3.433877,3.4347508,3.4356885,3.4364007,3.4368203,3.4371095,3.4373624,3.437635,3.4379792,3.438398,3.4387836,3.4390554,3.439105,3.4387803,3.4381032,3.43721,3.4363446,3.435793,3.4356103,3.4355323,3.4355865,3.4356484,3.4355044,3.4351783
3.1193767,3.131791,3.1511097,3.1769595,3.208179,3.242334,3.2808003,3.3208804,3.3584948,3.390186,3.4144828,3.4321308,3.4455538,3.4561872,3.4643595,3.4707215,3.4755707,3.4789813,3.4812014,3.482419,3.4828064,3.4826672,3.482192,3.4816628,3.4814053,3.4815805,3.4820614,3.4829268,3.4841952,3.4858108,3.4876919,3.489556,3.4910715,3.4921756,3.4931448,3.4940605,3.49501,3.4960203,3.4971561,3.498432,3.4996955,3.5008578,3.501642,3.5019975,3.5018387,3.5015306,3.5016346,3.502411,3.5037236,3.5053182,3.5060377,3.5053992,3.5031152,3.4995244,3.4955485,3.4918942,3.488591,3.4861484,3.485376,3.486561,3.4893274,3.4927592,3.495843,3.498312,3.5000925,3.5012734,3.5023105,3.5035841,3.5052788,3.507441,3.509791,3.512433,3.5152564,3.518211,3.5213227,3.524529,3.5276847,3.5307422,3.5337214,3.5365205,3.5388565,3.5404787,3.5414057,3.5419025,3.5422127,3.5426183,3.543352,3.5443134,3.5453296,3.5462255,3.5468874,3.5473406,3.5478768,3.548613,3.549541,3.5506363,3.551651,3.5523558,3.5528138,3.5532055,3.5536454,3.554294,3.5552664,3.556572,3.5581093,3.559711,3.5612366,3.5624454,3.5631225,3.5633426,3.5631409,3.5622087,3.5605247,3.5589728,3.5576024,3.556675,3.5561633,3.5556698,3.5547714,3.5533426,3.5514812,3.5489447,3.5460725,3.5433197,3.5401475,3.5354962,3.52905,3.521615,3.5138307,3.506898,3.5023212,3.5005822,3.5014572,3.5038476,3.5062437,3.5081933,3.509665,3.5103953,3.5105329,3.5103095,3.5099723,3.509756,3.509735,3.5099347,3.5101936,3.5104184,3.510677,3.5110328,3.5115452,3.5123546,3.513368,3.5146267,3.5159297,3.5169458,3.517418,3.5172114,3.516343,3.5150928,3.5135725,3.512127,3.5110686,3.5105278,3.5104442,3.510576,3.5106037,3.5103931,3.5099087,3.509254,3.5086632,3.5083427,3.5083365,3.5085669,3.5090113,3.5095677,3.5101256,3.5105467,3.5106997,3.5105848,3.5103936,3.510203,3.5100932,3.5101311,3.5103087,3.5105047,3.5106077,3.51062,3.5105758,3.5104995,3.5103521,3.51012,3.5097704,3.509317,3.5088205,3.5082357,3.5075033,3.5065136,3.5053015,3.503921,3.5025277,3.5013201,3.500309,3.4993427,3.4982414,3.4969957,3.4956622,3.4943886,3.4932845,3.4922962,3.4913926,3.4904203,3.4895883,3.4887896,3.4879284,3.487022,3.486055,3.4850726,3.4839797,3.4828963,3.4819386,3.4810889,3.4802527,3.4793873,3.478502,3.4775496,3.4765923,3.4756422,3.4747174,3.473816,3.472952,3.4722342,3.4714532,3.4705272,3.4694424,3.4682689,3.467164,3.4662876,3.4657164,3.4654236,3.4652753,3.4650056,3.464407,3.4633818,3.4620986,3.4609337,3.4598718,3.458942,3.458147,3.4577775,3.4577596,3.457857,3.4579844,3.4577904,3.457041,3.4554887,3.4533472,3.4510732,3.4488044,3.4463577,3.4438162,3.441099,3.437708,3.4337997,3.4293587,3.4249253,3.4214213,3.4190483,3.4174066,3.4171727,3.4182673,3.4205217,3.423433,3.4262094,3.4282737,3.4296472,3.430357,3.4311812,3.4326806,3.4350402,3.4378498,3.4403396,3.442121,3.44354,3.4445038,3.4455853,3.446794,3.448043,3.4494753,3.4506748,3.4515018,3.4521222,3.4526339,3.453145,3.4536967,3.454256,3.454764,3.4551027,3.4551313,3.4546995,3.4539146,3.4529028,3.4518795,3.4512324,3.4510536,3.4510741,3.4513698,3.451756,3.4519336,3.4519176
3.116754,3.1239,3.1365805,3.1554024,3.1802049,3.2092032,3.2447863,3.2852812,3.327544,3.3678327,3.402017,3.4274936,3.4465597,3.4620936,3.474204,3.4834118,3.4901862,3.494935,3.4981458,3.5000591,3.5010028,3.5012343,3.5009594,3.5005252,3.5003228,3.5005567,3.5011187,3.5020647,3.5034084,3.505116,3.5069685,3.5086107,3.5098658,3.5108638,3.5116754,3.512414,3.5131927,3.5141134,3.515225,3.516481,3.5176964,3.5186942,3.519197,3.5193934,3.5190754,3.5187008,3.5189757,3.520083,3.5218115,3.5235186,3.5239844,3.5227544,3.5194192,3.5142176,3.5083282,3.502984,3.4980674,3.494842,3.494143,3.4960098,3.4996724,3.5038667,3.5074396,3.5101552,3.512014,3.5131655,3.5141559,3.515411,3.5171237,3.5193467,3.5217934,3.5245504,3.5274858,3.530459,3.5334215,3.5362751,3.5388649,3.5411887,3.543254,3.5449433,3.5460658,3.5464911,3.5463636,3.5460324,3.54575,3.545782,3.5463557,3.547355,3.5485482,3.5496557,3.5504665,3.5509849,3.5515141,3.552204,3.5530658,3.5540721,3.5549648,3.5555182,3.5558298,3.5561311,3.5565653,3.5573273,3.5585515,3.5602102,3.5621648,3.5642478,3.5663118,3.5683355,3.5698867,3.5709224,3.5713944,3.571146,3.5703354,3.5696273,3.5690007,3.568773,3.5690303,3.5692859,3.568965,3.5677552,3.5655937,3.5627387,3.559853,3.5572963,3.554207,3.5492036,3.5418744,3.5331903,3.5240345,3.515892,3.5106266,3.5087957,3.5101168,3.5132651,3.51639,3.5188754,3.5206885,3.5215025,3.5215256,3.5210595,3.520418,3.5198984,3.519605,3.5195718,3.5196009,3.5196478,3.5197914,3.520081,3.5205858,3.5214777,3.5226488,3.524166,3.525827,3.527254,3.528119,3.5282383,3.5276175,3.526538,3.5251398,3.523829,3.5229287,3.5225735,3.5226958,3.5230222,3.5232084,3.5231462,3.522792,3.5222406,3.521708,3.5213804,3.5213072,3.5214424,3.5217767,3.522221,3.5227082,3.5231032,3.5232503,3.523129,3.522922,3.5226977,3.5225587,3.522593,3.5227823,3.522985,3.5230796,3.5230713,3.522993,3.5228748,3.5226722,3.5223527,3.5218713,3.5212593,3.5206146,3.5199056,3.5190763,3.5180035,3.5167117,3.5152397,3.5137455,3.512445,3.511353,3.5103,3.5090957,3.5077302,3.5062635,3.5048544,3.5036156,3.5024881,3.5014405,3.5003562,3.4994547,3.4986525,3.497849,3.4970267,3.4961343,3.4952054,3.494143,3.493085,3.4921508,3.4912996,3.490418,3.4894757,3.4885125,3.4874625,3.4863884,3.4853454,3.484332,3.4833229,3.4823542,3.481526,3.4806342,3.479543,3.4781852,3.4766827,3.4752483,3.4740644,3.4732485,3.472771,3.4724367,3.4719944,3.4712303,3.4700584,3.4686828,3.467504,3.466492,3.4656599,3.4650002,3.4647946,3.4649563,3.4652421,3.4656296,3.465937,3.4656162,3.4643245,3.4622111,3.4597447,3.4571452,3.454465,3.452156,3.449832,3.4469051,3.443307,3.4387827,3.433856,3.429669,3.4266922,3.4247727,3.4247909,3.4266405,3.4300842,3.434239,3.4378538,3.4402566,3.4415739,3.4418676,3.4422112,3.4434438,3.4458137,3.4488528,3.451688,3.4536343,3.4549222,3.4556386,3.456614,3.4579263,3.459474,3.4613848,3.4630709,3.4643266,3.4653044,3.4660895,3.4668045,3.467465,3.4680357,3.4685555,3.4688907,3.4688463,3.468257,3.4672952,3.46609,3.4648404,3.4640234,3.4637735,3.4638052,3.4642382,3.4648328,3.4652188,3.4653933
3.1178057,3.1214526,3.1284897,3.1404314,3.1579838,3.1801553,3.2101488,3.2473383,3.2900448,3.335137,3.3776336,3.4126637,3.4392085,3.46088,3.4786267,3.4924107,3.5024772,3.5094986,3.5142474,3.5173297,3.519161,3.5199223,3.5199547,3.5197124,3.5196342,3.519962,3.5205936,3.5215573,3.522846,3.5244331,3.5259976,3.5272803,3.5283003,3.529148,3.5297475,3.5302482,3.5307765,3.5314484,3.5323546,3.5334911,3.5346522,3.5355544,3.535925,3.5361876,3.5359583,3.5355852,3.5358834,3.5371213,3.5389569,3.540393,3.5404885,3.5384274,3.533624,3.526577,3.5187302,3.5112934,3.5048847,3.5012174,3.5010257,3.5039275,3.508698,3.5137575,3.5178196,3.520724,3.5225897,3.5236566,3.5245764,3.5258136,3.527537,3.5297847,3.5322661,3.5350313,3.5379171,3.5406826,3.5432067,3.5453625,3.547008,3.5482101,3.549,3.5492663,3.548986,3.5482116,3.5472102,3.5463667,3.5458813,3.545937,3.5467439,3.5481143,3.5497246,3.5511975,3.552255,3.5528948,3.553454,3.554131,3.5549521,3.555882,3.5566497,3.5570357,3.5571632,3.5573072,3.5576062,3.5582833,3.559486,3.561121,3.5630112,3.5650458,3.5671244,3.5691938,3.5711355,3.572762,3.5737877,3.5742407,3.5745516,3.575065,3.5756686,3.5767412,3.5782175,3.5796065,3.5802612,3.5795662,3.577334,3.5749822,3.572586,3.5705028,3.5676599,3.5624127,3.5542502,3.544273,3.5336223,3.52421,3.5181556,3.5161524,3.5179186,3.5218883,3.5258155,3.5288985,3.5310588,3.5319304,3.5317688,3.5309615,3.5298948,3.5289245,3.528203,3.527811,3.527542,3.5274217,3.5275438,3.5279083,3.528544,3.5296311,3.5310616,3.5329397,3.5350683,3.537045,3.538453,3.5390272,3.5387702,3.5379634,3.5367918,3.5357013,3.5350084,3.5348496,3.5351584,3.5356483,3.5359907,3.5361123,3.535954,3.535594,3.5352073,3.5349286,3.5347896,3.5347886,3.5349274,3.5351496,3.535449,3.5357165,3.5357955,3.5356522,3.5354395,3.5352118,3.535076,3.5351305,3.5353475,3.535576,3.535688,3.5356793,3.5355835,3.5354364,3.535192,3.5348024,3.5342104,3.533463,3.5326948,3.5318747,3.5309644,3.5298347,3.5285082,3.5270123,3.5254836,3.5241163,3.5229387,3.5217798,3.52045,3.5189533,3.5173492,3.5157917,3.5143952,3.5131063,3.5118833,3.510614,3.509548,3.508639,3.5077934,3.5069714,3.506106,3.5052125,3.5042026,3.5032022,3.5023198,3.5015025,3.5006304,3.4996774,3.498692,3.4976158,3.4965143,3.49543,3.494365,3.49332,3.4923446,3.4915175,3.4906251,3.4894905,3.487997,3.4862766,3.4845662,3.4830728,3.4819622,3.4811893,3.480527,3.4797444,3.4786525,3.4772022,3.4756393,3.474379,3.473373,3.472597,3.472014,3.4718833,3.4720902,3.4723978,3.472804,3.4730768,3.4728932,3.4718392,3.469775,3.4670327,3.4641738,3.461652,3.4597092,3.4578927,3.455562,3.4524565,3.4479752,3.4425528,3.4376087,3.4339285,3.4316237,3.4318976,3.4345703,3.4393778,3.4450827,3.4498725,3.4528403,3.454256,3.454229,3.4541054,3.4550343,3.4573784,3.4605024,3.4632952,3.4650836,3.4660285,3.4663372,3.467034,3.4682207,3.4697728,3.4718304,3.47369,3.475139,3.4762952,3.4771907,3.477922,3.4784913,3.47889,3.4792514,3.479447,3.4792411,3.4784398,3.4772239,3.475725,3.474166,3.473094,3.4726849,3.4726021,3.4729974,3.473586,3.4739408,3.4740548
3.1204932,3.1239624,3.128224,3.1353855,3.1467347,3.1620042,3.1846256,3.2150626,3.2534523,3.2974825,3.342884,3.3853488,3.4213386,3.4508066,3.4760585,3.4963849,3.5114622,3.521892,3.5286984,3.533204,3.53587,3.537003,3.5373178,3.5373514,3.5374837,3.5379653,3.5386653,3.5395675,3.5406318,3.5417638,3.5428965,3.5439472,3.5448246,3.5454702,3.5458286,3.5460587,3.5463002,3.5466971,3.547388,3.5483956,3.5495434,3.5507135,3.5511155,3.5514193,3.5515542,3.5515003,3.5518217,3.5530477,3.554647,3.5556107,3.5550642,3.5519571,3.545628,3.5368066,3.527152,3.5178971,3.5106583,3.5070243,3.5075765,3.5115643,3.5173717,3.5231395,3.5274806,3.5303555,3.5320354,3.5328834,3.5336604,3.5348492,3.5365644,3.538783,3.5412002,3.5437922,3.5463653,3.5485735,3.5502257,3.5512054,3.5514443,3.5511222,3.5503411,3.5490556,3.5474737,3.5458307,3.5444505,3.5436544,3.5435164,3.544085,3.5455313,3.5475483,3.5497103,3.5515895,3.5528994,3.5536656,3.5542765,3.554967,3.5557694,3.5566359,3.5572882,3.5575194,3.5574794,3.5574722,3.5576181,3.5581527,3.559166,3.5604837,3.5619078,3.5633962,3.5649543,3.5665588,3.5682206,3.5698955,3.5713434,3.572524,3.5737734,3.5754004,3.5774689,3.5804467,3.583681,3.5865707,3.588542,3.5890203,3.5879388,3.5864973,3.5849614,3.5836048,3.5811,3.5755773,3.5665433,3.5553465,3.5433443,3.53276,3.5259724,3.5238013,3.5259318,3.5305676,3.5351548,3.5387669,3.5412679,3.5422683,3.54203,3.5409467,3.5394335,3.537907,3.5365767,3.5356212,3.5348663,3.5344496,3.534514,3.5350018,3.53585,3.53721,3.538981,3.5413141,3.5440397,3.5467691,3.5489938,3.5503345,3.5507545,3.5505056,3.5498188,3.5491395,3.548739,3.5487561,3.5491529,3.54967,3.5500643,3.550304,3.5503376,3.5502,3.5499768,3.5497131,3.549416,3.54914,3.5489016,3.5486984,3.5486076,3.5485625,3.5484257,3.5481553,3.5478559,3.5475688,3.5473747,3.5473938,3.547607,3.5478501,3.5479827,3.5480018,3.5479302,3.5477939,3.5475407,3.547113,3.5464478,3.545607,3.5447474,3.5438313,3.5428388,3.5416355,3.5402641,3.5387566,3.5372066,3.5357628,3.5344653,3.5331855,3.5317397,3.5301661,3.5285091,3.5268798,3.5253806,3.5239823,3.522625,3.5212135,3.5200255,3.5190148,3.518087,3.5172071,3.5163074,3.5153933,3.514382,3.5133915,3.512525,3.511732,3.5108967,3.509997,3.5090835,3.5080962,3.5070958,3.5061126,3.5051498,3.5042262,3.5034008,3.5027223,3.5019803,3.5009577,3.499486,3.4976876,3.4957962,3.4940205,3.4925742,3.4913988,3.4902797,3.489026,3.4875078,3.485725,3.4839401,3.482552,3.4814801,3.480653,3.4799836,3.4796982,3.479664,3.4796715,3.4797893,3.4798212,3.4794154,3.4782171,3.4760814,3.47336,3.4706278,3.4683456,3.4668243,3.4655704,3.4639006,3.4613333,3.4569387,3.4511085,3.4455125,3.441145,3.438429,3.438888,3.4423757,3.448537,3.4558392,3.4620237,3.4658375,3.4675164,3.4674113,3.4670737,3.467845,3.4701855,3.473341,3.4759724,3.4774015,3.477724,3.477275,3.4773092,3.4779925,3.479154,3.480911,3.4825325,3.4838111,3.4848247,3.4855437,3.4860258,3.4862404,3.4862092,3.4861975,3.4860759,3.4855568,3.4844232,3.482862,3.481009,3.479102,3.4777322,3.4771016,3.4767914,3.4769728,3.4773126,3.477357,3.4771564
3.1232195,3.127738,3.1312156,3.1349192,3.140748,3.1498446,3.1652198,3.1882706,3.2208002,3.2616744,3.3071194,3.3531082,3.396249,3.435264,3.4684153,3.4955792,3.5167825,3.5319848,3.541963,3.5479286,3.55095,3.5522513,3.5528245,3.5529861,3.5529954,3.5532665,3.5537198,3.554336,3.555079,3.5558732,3.5566766,3.557416,3.5579996,3.5583768,3.558466,3.558425,3.558409,3.5585845,3.5591316,3.5600953,3.5612843,3.5625753,3.563242,3.5637147,3.5640192,3.5642538,3.5648012,3.5658665,3.5669167,3.56748,3.5661538,3.5618525,3.5540535,3.5435693,3.5321817,3.5215306,3.5139673,3.5107427,3.5123496,3.5176516,3.5246062,3.5311131,3.5357313,3.538555,3.5400252,3.540629,3.5412326,3.5423298,3.5439649,3.5460463,3.548256,3.5504985,3.5525641,3.5540447,3.5546951,3.5544143,3.5532227,3.5513988,3.5491226,3.5464416,3.543792,3.5415778,3.5401382,3.5396857,3.5401487,3.541416,3.543609,3.546276,3.548895,3.551016,3.552388,3.5530896,3.5535874,3.554133,3.5548015,3.5555544,3.5561204,3.556305,3.556258,3.556275,3.556479,3.557053,3.55801,3.5590727,3.5599966,3.5608087,3.5616446,3.5625114,3.5635915,3.564999,3.5665593,3.5682244,3.5702772,3.5729227,3.5762005,3.580617,3.585803,3.590471,3.5939503,3.5960839,3.5964136,3.596191,3.5957232,3.5951452,3.592915,3.5869894,3.5769663,3.5645428,3.5513072,3.539726,3.53235,3.530056,3.5324683,3.5375981,3.542654,3.5466363,3.5493536,3.5504186,3.5500917,3.5487442,3.5468102,3.5447674,3.5428743,3.5414042,3.5402498,3.5396304,3.539745,3.5404687,3.541605,3.5432582,3.5453515,3.5480645,3.5512838,3.5546613,3.5576282,3.5597062,3.5608149,3.5611572,3.5610032,3.5607667,3.5606613,3.5608158,3.5612187,3.5616624,3.5620196,3.5623016,3.56248,3.5625496,3.5624876,3.562235,3.5617752,3.5612142,3.5605836,3.5599425,3.5594459,3.5590801,3.5587392,3.558373,3.558032,3.5577326,3.5575342,3.557554,3.5578036,3.5580337,3.558062,3.5580156,3.5578976,3.557699,3.5573592,3.5568419,3.5561182,3.5552528,3.5543685,3.553423,3.5523863,3.551165,3.5497918,3.5482912,3.546751,3.5453086,3.5440035,3.5427144,3.541252,3.5396597,3.5379755,3.5363078,3.5347629,3.5333104,3.5319607,3.5306263,3.5295787,3.5286226,3.527636,3.5266829,3.5257256,3.5247622,3.523714,3.5226922,3.5217981,3.520988,3.5201597,3.5192997,3.5184517,3.5175576,3.5166595,3.5157785,3.5149226,3.514135,3.5134869,3.5129857,3.5124369,3.5115871,3.5102255,3.508452,3.5064778,3.504502,3.5027652,3.501202,3.499635,3.4979115,3.4959795,3.4938974,3.4919283,3.4904394,3.4893255,3.488454,3.4876833,3.4871936,3.48683,3.486418,3.4861135,3.4857833,3.4850945,3.4837432,3.481529,3.478787,3.4761248,3.474042,3.4728982,3.4721518,3.4711041,3.4690523,3.464734,3.4584846,3.452194,3.4470391,3.4437647,3.4441762,3.4481702,3.4554439,3.4641554,3.471567,3.476256,3.47846,3.4785204,3.4781933,3.478983,3.4814134,3.4846215,3.48709,3.4881468,3.4877863,3.4865203,3.4857507,3.4857166,3.4862738,3.4875455,3.488779,3.489762,3.4905176,3.4909978,3.4912212,3.4911275,3.4907718,3.4905255,3.490275,3.4896665,3.4884615,3.486826,3.4848719,3.4828367,3.4813428,3.480581,3.4800944,3.4800348,3.4800313,3.4796436,3.4789903
