12.075624,12.081857,12.089455,12.097487,12.105751,12.114708,12.125116,12.136736,12.149769,12.163302,12.177649,12.192499,12.205257,12.215853,12.2249975,12.231848,12.238366,12.246848,12.258164,12.270855,12.281046,12.289696,12.2974,12.304615,12.312245,12.3197975,12.325389,12.328295,12.329214,12.329561,12.330711,12.333445,12.338091,12.344988,12.354397,12.367083,12.383755,12.403728,12.431515,12.467349,12.507839,12.552324,12.599142,12.652845,12.712587,12.777098,12.843998,12.910217,12.970917,13.017476,13.061773,13.101667,13.136801,13.167351,13.193578,13.21537,13.231676,13.246404,13.258226,13.268172,13.276827,13.283849,13.286343,13.279934,13.270271,13.257772,13.24401,13.227646,13.2069025,13.181843,13.154366,13.1275625,13.101725,13.077192,13.055413,13.034744,13.013317,12.992176,12.971508,12.949529,12.925833,12.902603,12.88051,12.860476,12.843632,12.827921,12.813207,12.798716,12.785118,12.772444,12.760351,12.748682,12.737501,12.726303,12.713894,12.701105,12.688331,12.675707,12.663506,12.65211,12.64147,12.630865,12.620834,12.611573,12.603288,12.596173,12.590231,12.585441,12.580969,12.576287,12.570953,12.564735,12.556856,12.547037,12.537388,12.527372,12.517408,12.50733,12.497063,12.486772,12.476848,12.467779,12.458194,12.448384,12.438492,12.428449,12.417955,12.407248,12.397321,12.388102,12.37922,12.37005,12.36079,12.3514805,12.342023,12.33269,12.323591,12.314193,12.304595,12.295174,12.285967,12.277067,12.268796,12.261243,12.254002,12.246637,12.238897,12.230436,12.221113,12.2113285,12.201903,12.192884,12.183866,12.175055,12.166292,12.1576,12.149368,12.141943,12.135305,12.12888,12.122532,12.11611,12.10956,12.103131,12.097063,12.091202,12.084871,12.077806,12.069868,12.061625,12.053898,12.047174,12.041632,12.036553,12.031494,12.0263,12.020876,12.015373,12.010053,12.004895,11.999599,11.993883,11.987664,11.981039,11.974165,11.967192,11.960327,11.953552,11.946495,11.939369,11.932413,11.925847,11.919796,11.914314,11.909405,11.904586,11.899929,11.895435,11.891129,11.887079,11.88327,11.87951,11.875463,11.870941,11.865926,11.860609,11.855274,11.850071,11.845064,11.840023,11.834826,11.829766,11.825195,11.821325,11.81808,11.815186,11.812374,11.809345,11.806312,11.803589,11.801159,11.798681,11.795752,11.7920065,11.786995,11.781138,11.775118,11.769658,11.76515,11.761417,11.758052,11.754558,11.7507715,11.746807,11.742833,11.739025,11.735522,11.732371,11.72926,11.725981,11.722467,11.718456,11.713878,11.709016,11.704254,11.699755,11.695511,11.691853,11.688789,11.6861725,11.68384,11.681705,11.679783,11.677835,11.675781,11.673648,11.67136,11.6689005,11.666497,11.664343,11.662083,11.659815,11.657436,11.654833,11.652,11.649062,11.646248,11.643606,11.641134,11.639061,11.637416,11.635984,11.634449,11.632664,11.630644,11.628154,11.625477,11.6228485,11.620333,11.617746,11.614864,11.611715,11.608101,11.604194,11.60041,11.59702,11.594124,11.591695,11.589716,11.587698,11.585663,11.583801,11.582424,11.581711,11.581539,11.581607,11.581554,11.580969,11.579388,11.576931,11.574129,11.5715275,11.569551,11.568102,11.566891,11.565721,11.564476
12.021409,12.0290165,12.037819,12.046787,12.055845,12.065361,12.076545,12.0887785,12.102289,12.115764,12.128862,12.141853,12.153593,12.162718,12.170446,12.1759205,12.181733,12.190361,12.202254,12.215622,12.2267,12.236183,12.244489,12.25202,12.260257,12.269173,12.276964,12.283125,12.287826,12.292786,12.29939,12.308151,12.319555,12.334257,12.352074,12.373221,12.398575,12.428183,12.466839,12.513805,12.56489,12.6187725,12.668934,12.722425,12.780678,12.843367,12.907029,12.9675045,13.020512,13.0585375,13.094077,13.125494,13.152357,13.17445,13.191809,13.204589,13.212424,13.218679,13.222393,13.224524,13.226051,13.227135,13.225086,13.215666,13.204466,13.188946,13.16957,13.14756,13.123151,13.096013,13.067337,13.040182,13.013349,12.987887,12.965553,12.944508,12.922628,12.900952,12.87973,12.85743,12.83342,12.8087635,12.784658,12.7630415,12.745008,12.728257,12.713051,12.698729,12.685402,12.672842,12.6606045,12.648514,12.636915,12.625372,12.612723,12.599869,12.587194,12.57482,12.562973,12.551931,12.541595,12.531262,12.521383,12.51214,12.503792,12.496597,12.490597,12.485764,12.481291,12.476618,12.471302,12.465157,12.457409,12.447735,12.438253,12.428434,12.418786,12.408922,12.399025,12.389423,12.38023,12.371685,12.3625345,12.353088,12.34325,12.333296,12.322987,12.312345,12.302444,12.292961,12.283675,12.274025,12.264282,12.254549,12.244755,12.235172,12.225876,12.216303,12.206538,12.196955,12.187597,12.178562,12.170179,12.162542,12.155214,12.147782,12.139969,12.131435,12.122025,12.112122,12.102568,12.093445,12.084324,12.075417,12.066585,12.057854,12.049618,12.042254,12.035755,12.029535,12.02348,12.017399,12.011204,12.005131,11.999408,11.993851,11.987814,11.980982,11.973223,11.9651375,11.957591,11.951097,11.945843,11.941127,11.936486,11.931716,11.926657,11.92142,11.916278,11.9112425,11.906041,11.900391,11.894236,11.887642,11.880741,11.873697,11.866749,11.859905,11.852816,11.845736,11.8389225,11.832563,11.82672,11.8214,11.816548,11.811659,11.806818,11.802065,11.79747,11.793154,11.78912,11.7851515,11.780919,11.776239,11.77112,11.765774,11.760437,11.755192,11.750055,11.7447605,11.739206,11.733762,11.728857,11.724761,11.721395,11.718439,11.715591,11.712545,11.709545,11.7069435,11.704718,11.702484,11.699788,11.696211,11.691284,11.68545,11.679417,11.673946,11.66947,11.665806,11.662504,11.659076,11.655325,11.651368,11.647379,11.6435585,11.640072,11.636968,11.633932,11.630763,11.627378,11.623498,11.619019,11.614225,11.609545,11.605133,11.601019,11.597563,11.594735,11.592306,11.590059,11.587894,11.585821,11.583658,11.581378,11.5790615,11.576666,11.574165,11.571756,11.569615,11.567364,11.565107,11.562744,11.56016,11.557369,11.554508,11.551777,11.549231,11.546862,11.54489,11.543346,11.542015,11.540571,11.538874,11.536922,11.534509,11.531925,11.529409,11.527035,11.524603,11.52186,11.518842,11.515356,11.511594,11.507959,11.504702,11.501911,11.499542,11.497555,11.495443,11.493251,11.491201,11.489637,11.488803,11.488594,11.488668,11.48863,11.488045,11.486439,11.483944,11.481115,11.47852,11.476578,11.475166,11.473991,11.472839,11.471578
11.971144,11.980595,11.9912405,12.001799,12.012186,12.022771,12.035196,12.049118,12.064051,12.077919,12.089687,12.100279,12.110216,12.117325,12.122626,12.125108,12.128254,12.135433,12.147118,12.1608925,12.172533,12.182694,12.191646,12.200222,12.210598,12.22312,12.235824,12.247793,12.259032,12.271464,12.286087,12.302467,12.321456,12.344697,12.371447,12.402132,12.438117,12.477526,12.523123,12.574765,12.629862,12.686245,12.734131,12.78227,12.83335,12.8857975,12.93654,12.983757,13.026151,13.060665,13.091732,13.118249,13.139746,13.156303,13.167942,13.174021,13.173616,13.1719675,13.167879,13.162468,13.156343,13.149252,13.141163,13.132836,13.12426,13.110638,13.091364,13.069323,13.04421,13.0149765,12.985397,12.958103,12.93191,12.907543,12.885916,12.865045,12.843105,12.821164,12.799547,12.776723,12.752026,12.726759,12.70215,12.679168,12.658377,12.639338,12.622196,12.606358,12.591472,12.577257,12.5638485,12.551278,12.539151,12.527179,12.514207,12.50122,12.488592,12.476414,12.464851,12.454056,12.443899,12.433645,12.42367,12.414183,12.405499,12.397959,12.391659,12.386551,12.381823,12.376909,12.371405,12.36514,12.357382,12.347833,12.338579,12.329038,12.31979,12.3104,12.300932,12.29163,12.282616,12.274227,12.26573,12.256929,12.247569,12.237642,12.227356,12.217094,12.207324,12.197767,12.188326,12.178511,12.168474,12.158315,12.148108,12.138209,12.12866,12.1188755,12.108894,12.099092,12.08953,12.080318,12.071793,12.064028,12.056578,12.049026,12.041109,12.032513,12.0231,12.01323,12.003698,11.994616,11.985522,11.976618,11.9678,11.959122,11.950981,11.943777,11.937523,11.931626,11.925976,11.920339,11.914578,11.908901,11.903532,11.898284,11.892559,11.886011,11.878517,11.870698,11.863432,11.857243,11.852343,11.848053,11.843876,11.839563,11.834896,11.829937,11.824959,11.820012,11.814874,11.80926,11.803126,11.796522,11.7895775,11.782482,11.775483,11.768626,11.761555,11.7545595,11.747898,11.741732,11.736076,11.730885,11.726055,11.721043,11.715949,11.710862,11.705921,11.7013,11.697028,11.692852,11.688431,11.683601,11.67838,11.673,11.667658,11.662338,11.657026,11.651426,11.645449,11.639539,11.634201,11.629753,11.626127,11.622979,11.619978,11.616822,11.613778,11.611225,11.609129,11.607075,11.604588,11.601203,11.596431,11.5907135,11.584754,11.57932,11.574862,11.571228,11.567945,11.56453,11.560776,11.556804,11.552797,11.548965,11.545473,11.542378,11.539351,11.536194,11.532814,11.528954,11.524517,11.519779,11.515175,11.510855,11.5068655,11.503589,11.500959,11.498688,11.496502,11.494256,11.491966,11.489506,11.486909,11.484329,11.481754,11.479156,11.476705,11.474529,11.472279,11.470046,11.467736,11.465229,11.462551,11.459843,11.45727,11.454891,11.452703,11.450908,11.449534,11.448368,11.447073,11.445512,11.443666,11.441349,11.438858,11.436449,11.434216,11.4319725,11.429441,11.426647,11.423397,11.419868,11.416443,11.413359,11.410692,11.4083805,11.406378,11.404168,11.401814,11.39957,11.397825,11.396864,11.396592,11.396639,11.396587,11.395999,11.394415,11.391973,11.389215,11.386689,11.384802,11.38344,11.38231,11.381193,11.37995
11.921951,11.933424,11.946272,11.959013,11.971502,11.983976,11.998451,12.015657,12.03356,12.048792,12.059755,12.06723,12.072332,12.075315,12.076855,12.076192,12.0763855,12.081666,12.092739,12.105797,12.116814,12.126827,12.135958,12.146217,12.160454,12.178961,12.198891,12.217512,12.23605,12.256412,12.279416,12.304598,12.332888,12.365362,12.399961,12.437451,12.480933,12.524981,12.567736,12.611053,12.656616,12.7032585,12.7488575,12.79936,12.851067,12.8975725,12.938686,12.977211,13.0120735,13.040554,13.066452,13.088835,13.106874,13.1210575,13.131079,13.134178,13.127617,13.120541,13.111378,13.099955,13.087086,13.073469,13.05932,13.045193,13.031218,13.016923,13.0034485,12.989424,12.968179,12.938501,12.909814,12.882994,12.857241,12.833498,12.812991,12.793486,12.772633,12.751347,12.730121,12.707426,12.682607,12.656994,12.631772,12.607822,12.585772,12.565483,12.546214,12.527071,12.508349,12.49033,12.474274,12.460616,12.447281,12.434517,12.421119,12.40797,12.395344,12.383286,12.371896,12.3612175,12.351099,12.340752,12.3305,12.320594,12.311424,12.303385,12.296632,12.291109,12.285973,12.280675,12.274839,12.268339,12.260432,12.250824,12.241688,12.232395,12.223467,12.214478,12.20542,12.196466,12.187715,12.179487,12.171026,12.162141,12.152874,12.143522,12.133837,12.123594,12.113533,12.104049,12.094852,12.085375,12.075458,12.065123,12.054664,12.044609,12.034929,12.024975,12.014799,12.004805,11.995064,11.985716,11.977115,11.969273,11.961765,11.954145,11.946184,11.937606,11.928295,11.918589,11.909209,11.900259,11.891268,11.882439,11.873707,11.865158,11.85721,11.850273,11.844374,11.838912,11.833764,11.828654,11.82339,11.818137,11.813116,11.808149,11.802699,11.796431,11.789221,11.781689,11.7747135,11.768837,11.764286,11.760405,11.756687,11.752815,11.748516,11.743817,11.738981,11.734137,11.729063,11.723503,11.717393,11.710775,11.70379,11.696653,11.689644,11.68279,11.675751,11.668831,11.662278,11.656254,11.650738,11.645617,11.64077,11.635603,11.63022,11.62477,11.619478,11.614582,11.610107,11.605766,11.601189,11.596226,11.590921,11.585531,11.58021,11.574852,11.5694065,11.563549,11.557185,11.550832,11.545062,11.540232,11.536301,11.532896,11.529683,11.526379,11.523251,11.520688,11.518649,11.516699,11.514345,11.511101,11.506483,11.500898,11.495011,11.48959,11.485102,11.481405,11.478085,11.474634,11.470846,11.466844,11.462825,11.458999,11.455519,11.452427,11.449387,11.446196,11.442762,11.438856,11.43442,11.429726,11.425186,11.42094,11.417042,11.413902,11.411421,11.409262,11.4071045,11.404757,11.402243,11.399479,11.396573,11.3937435,11.391008,11.388335,11.38586,11.383678,11.381468,11.379308,11.3771105,11.3747635,11.372271,11.369762,11.367406,11.365243,11.3632965,11.361738,11.360586,11.359627,11.358518,11.357105,11.355368,11.353124,11.350677,11.348314,11.346164,11.344064,11.341739,11.339178,11.336192,11.332925,11.329726,11.32682,11.32428,11.322034,11.320053,11.317806,11.315365,11.313032,11.311218,11.310208,11.309908,11.309931,11.309843,11.309233,11.307661,11.305266,11.30257,11.300088,11.298216,11.296865,11.295748,11.294664,11.293468
11.873545,11.887081,11.902382,11.918513,11.935463,11.952049,11.970926,11.991491,12.011806,12.027153,12.034894,12.036959,12.036928,12.036034,12.034644,12.03195,12.030302,12.032707,12.039974,12.049797,12.05851,12.067623,12.076832,12.089073,12.107498,12.1322975,12.160288,12.187546,12.21546,12.246277,12.279902,12.315533,12.354561,12.395273,12.4292145,12.459572,12.493251,12.530199,12.571796,12.6145115,12.655497,12.697737,12.737687,12.780336,12.823614,12.866718,12.907114,12.942844,12.973945,12.998109,13.018861,13.035279,13.0469265,13.054477,13.058903,13.060431,13.058675,13.056345,13.052919,13.039099,13.019129,12.9994,12.979889,12.961435,12.944149,12.92738,12.911719,12.896128,12.878874,12.859841,12.840022,12.816069,12.790199,12.766003,12.745781,12.727021,12.706781,12.685762,12.664599,12.641741,12.61656,12.590376,12.564484,12.539864,12.517191,12.496467,12.476774,12.457132,12.437756,12.418543,12.39944,12.380681,12.362884,12.347672,12.333514,12.320324,12.307786,12.295826,12.284536,12.273893,12.263706,12.2531805,12.242587,12.232217,12.22255,12.214032,12.206808,12.200834,12.19525,12.189512,12.183256,12.1763935,12.1682,12.158374,12.149114,12.139816,12.131044,12.122328,12.113546,12.10482,12.096262,12.088196,12.079867,12.071096,12.061861,12.052345,12.042622,12.032897,12.023648,12.014106,12.004587,11.994691,11.984701,11.974777,11.96496,11.955498,11.946182,11.936208,11.925938,11.915851,11.90605,11.896707,11.888175,11.880409,11.873003,11.865443,11.857565,11.849122,11.840004,11.830531,11.821367,11.812592,11.803725,11.794983,11.78636,11.777988,11.770305,11.763725,11.758259,11.753317,11.748766,11.744268,11.739558,11.734764,11.730092,11.725405,11.720218,11.714212,11.707258,11.699971,11.693238,11.687614,11.683349,11.679836,11.676533,11.673077,11.66913,11.66468,11.660014,11.655296,11.650333,11.644875,11.638851,11.63228,11.625305,11.618174,11.611183,11.604347,11.59734,11.590424,11.583873,11.5778675,11.57238,11.567268,11.562357,11.556999,11.551323,11.545532,11.539938,11.534832,11.530232,11.5258045,11.521146,11.516113,11.5108,11.505469,11.500229,11.494905,11.489393,11.483349,11.476675,11.469954,11.463804,11.458621,11.454377,11.450721,11.447319,11.443876,11.440694,11.438118,11.43609,11.434183,11.431875,11.42869,11.424156,11.41864,11.412771,11.407291,11.402685,11.39887,11.395439,11.391908,11.388078,11.384072,11.380079,11.376307,11.372887,11.369844,11.366815,11.363573,11.360063,11.356093,11.35163,11.34696,11.342472,11.338276,11.334419,11.331341,11.328944,11.326847,11.324673,11.32222,11.319501,11.316469,11.313314,11.310305,11.307491,11.304829,11.302414,11.3003235,11.298242,11.296257,11.29427,11.2921505,11.289896,11.287622,11.2855015,11.283592,11.281923,11.280643,11.27975,11.279027,11.278123,11.276859,11.275219,11.273003,11.270523,11.268101,11.265919,11.2638645,11.261679,11.259303,11.256533,11.253492,11.250496,11.247744,11.24531,11.24313,11.241184,11.238937,11.236489,11.234167,11.2323885,11.231424,11.231165,11.231183,11.231052,11.230406,11.228823,11.226435,11.223749,11.221249,11.219311,11.217886,11.216723,11.215656,11.2145195
11.817694,11.834002,11.853048,11.873648,11.894784,11.914671,11.935923,11.957586,11.978311,11.992944,11.9982395,11.9968815,11.994253,11.99212,11.990082,11.987236,11.984689,11.985191,11.990152,11.99781,12.005383,12.014989,12.025766,12.04142,12.066586,12.101615,12.141848,12.181965,12.2228985,12.253969,12.2855625,12.3206215,12.358393,12.394683,12.418753,12.440605,12.465176,12.493006,12.52938,12.572139,12.615157,12.657839,12.697016,12.737917,12.778564,12.818595,12.855387,12.886781,12.913156,12.932642,12.948265,12.959179,12.965311,12.967619,12.967247,12.964757,12.960316,12.955564,12.949078,12.938826,12.925695,12.911728,12.898058,12.885159,12.871458,12.851934,12.832659,12.814402,12.795446,12.775423,12.755085,12.735331,12.717136,12.70219,12.685627,12.664827,12.641673,12.618367,12.595753,12.571913,12.545898,12.518999,12.492495,12.467354,12.444323,12.4235,12.403803,12.384103,12.364477,12.344735,12.324757,12.30488,12.285915,12.268314,12.250635,12.233595,12.218314,12.205144,12.193575,12.1831,12.172903,12.162198,12.151077,12.139995,12.129627,12.120468,12.112636,12.1061,12.099954,12.09366,12.086881,12.079559,12.070986,12.060856,12.051418,12.04205,12.0332985,12.0247,12.016092,12.007558,11.99918,11.991251,11.983038,11.974345,11.96513,11.955525,11.94564,11.935746,11.92639,11.917347,11.908525,11.898921,11.888692,11.878384,11.868347,11.858793,11.849645,11.840136,11.830369,11.820677,11.811203,11.802193,11.793981,11.786494,11.779306,11.771898,11.764152,11.755941,11.747232,11.738312,11.729744,11.72156,11.7133,11.704872,11.696472,11.68845,11.681215,11.675159,11.670287,11.666035,11.661994,11.657949,11.653666,11.649135,11.644541,11.639799,11.634529,11.628527,11.621727,11.614718,11.6082945,11.602908,11.598738,11.5952835,11.592004,11.588563,11.584639,11.580211,11.575573,11.570926,11.566096,11.56082,11.55501,11.548691,11.542006,11.535206,11.528591,11.522148,11.51554,11.5089855,11.502722,11.496982,11.491783,11.486883,11.4818325,11.476228,11.470202,11.464039,11.458128,11.45281,11.448081,11.443555,11.438799,11.433662,11.428286,11.422958,11.417757,11.412429,11.40682,11.400551,11.3935375,11.386393,11.379793,11.374189,11.369585,11.365633,11.362002,11.358366,11.355068,11.352415,11.350317,11.348361,11.346041,11.342876,11.338413,11.332977,11.327147,11.32164,11.316977,11.313131,11.309681,11.306161,11.302367,11.298397,11.294446,11.290716,11.287335,11.284311,11.281236,11.27791,11.274305,11.270294,11.265898,11.261389,11.257099,11.253107,11.249432,11.246529,11.244276,11.242274,11.240124,11.237589,11.234676,11.231407,11.2280035,11.224791,11.221857,11.219141,11.2167015,11.214614,11.21258,11.21069,11.208845,11.206908,11.204857,11.202799,11.200905,11.199224,11.197809,11.196781,11.196119,11.195598,11.194863,11.193725,11.192156,11.189947,11.187424,11.184938,11.182732,11.18074,11.17871,11.176552,11.17403,11.171246,11.168465,11.165869,11.163538,11.161424,11.159513,11.157289,11.154892,11.152658,11.150994,11.150141,11.14994,11.149946,11.14974,11.148999,11.147354,11.144962,11.142294,11.139793,11.137836,11.136393,11.135265,11.134312,11.133355
11.755019,11.774443,11.797916,11.82106,11.842447,11.862213,11.882699,11.903382,11.923216,11.937101,11.941694,11.940151,11.938833,11.939663,11.941109,11.942504,11.943783,11.946602,11.95252,11.961024,11.970731,11.9848995,12.00185,12.028351,12.057949,12.088491,12.126864,12.166385,12.208809,12.245266,12.273628,12.298575,12.324207,12.348743,12.368205,12.387284,12.409138,12.434122,12.468645,12.511232,12.554932,12.5978775,12.636937,12.676653,12.714823,12.752008,12.785421,12.812555,12.834574,12.849896,12.860962,12.866656,12.867334,12.864296,12.858854,12.851727,12.843166,12.835415,12.826482,12.816848,12.806058,12.794075,12.781921,12.770304,12.758905,12.744856,12.731272,12.7181225,12.704443,12.690338,12.676027,12.660748,12.641238,12.623516,12.607143,12.589338,12.569981,12.550156,12.526833,12.499687,12.470527,12.441331,12.4137335,12.388447,12.365465,12.345039,12.325985,12.306953,12.287879,12.268465,12.24861,12.228743,12.209633,12.191189,12.17219,12.153694,12.136543,12.120983,12.106746,12.093447,12.080467,12.067094,12.054907,12.043397,12.03249,12.022757,12.014236,12.006965,12.000069,11.99301,11.9854965,11.977524,11.9683895,11.957792,11.948018,11.938435,11.929525,11.920834,11.912192,11.903663,11.895336,11.887509,11.879419,11.870853,11.861665,11.8519745,11.841928,11.831815,11.822232,11.813213,11.804447,11.795034,11.785219,11.77545,11.765884,11.75659,11.747398,11.738001,11.72835,11.718788,11.709482,11.700668,11.69268,11.685458,11.67857,11.671444,11.663989,11.6561575,11.647949,11.639603,11.6315775,11.623928,11.616198,11.608399,11.600693,11.593336,11.586687,11.581127,11.576677,11.572831,11.569321,11.5658655,11.562145,11.558103,11.55388,11.549405,11.54438,11.538637,11.532124,11.525396,11.519217,11.514017,11.509989,11.506657,11.503477,11.500085,11.496164,11.491715,11.487064,11.48248,11.477768,11.472689,11.467104,11.460997,11.454518,11.44794,11.44154,11.435284,11.428818,11.422329,11.416069,11.410317,11.405119,11.400234,11.395309,11.389753,11.383686,11.377418,11.371378,11.365939,11.361144,11.356616,11.351917,11.346928,11.341829,11.336904,11.332161,11.327278,11.322035,11.315978,11.309015,11.301681,11.294634,11.288414,11.283172,11.278679,11.274654,11.27079,11.267374,11.264627,11.262396,11.260288,11.257896,11.254809,11.250629,11.245645,11.240345,11.235327,11.23094,11.227114,11.223772,11.220376,11.216715,11.2128525,11.2089615,11.20525,11.201847,11.198755,11.195567,11.192093,11.188364,11.184334,11.180084,11.175867,11.17193,11.16828,11.164904,11.162262,11.160214,11.15834,11.156233,11.153635,11.150538,11.147024,11.143366,11.139931,11.136837,11.134014,11.1314945,11.12933,11.1272545,11.125381,11.123623,11.121832,11.119961,11.118096,11.116411,11.114949,11.113771,11.112989,11.112553,11.112211,11.111604,11.11054,11.108986,11.106735,11.10412,11.101539,11.099304,11.097407,11.095581,11.093666,11.09141,11.08885,11.086224,11.083731,11.08146,11.079378,11.077513,11.075344,11.073071,11.0710335,11.069605,11.068956,11.068865,11.068848,11.068518,11.067595,11.065765,11.063253,11.060535,11.058009,11.056036,11.05463,11.053591,11.052834,11.052166
11.694032,11.716078,11.741535,11.764702,11.78417,11.801674,11.819543,11.838214,11.856801,11.870777,11.876957,11.87894,11.884063,11.893579,11.905771,11.916145,11.920582,11.923254,11.929516,11.938583,11.949984,11.9663315,11.985363,12.0130825,12.04413,12.073715,12.104696,12.13426,12.166012,12.19882,12.22395,12.243292,12.261466,12.279272,12.297476,12.315408,12.336232,12.360287,12.393591,12.4351015,12.47883,12.522745,12.5616865,12.599705,12.634606,12.666932,12.694352,12.71531,12.731774,12.742265,12.748614,12.749521,12.745647,12.73847,12.729591,12.720012,12.709663,12.700458,12.690434,12.679393,12.666834,12.653744,12.64213,12.632563,12.624366,12.616522,12.608806,12.600269,12.590917,12.581442,12.571556,12.559818,12.543411,12.527487,12.515314,12.504978,12.49257,12.475852,12.45269,12.427001,12.400599,12.375145,12.3473835,12.317965,12.292476,12.270304,12.250904,12.231984,12.213203,12.194082,12.17441,12.154582,12.135366,12.116697,12.097567,12.07887,12.060826,12.043529,12.027052,12.011238,11.995802,11.979694,11.96446,11.949801,11.935936,11.923952,11.914324,11.90658,11.899106,11.891409,11.88319,11.8745,11.864699,11.853525,11.843317,11.833384,11.82415,11.81518,11.806307,11.797609,11.789219,11.781454,11.773481,11.765038,11.75593,11.746247,11.736139,11.725916,11.716192,11.706972,11.697946,11.688459,11.678884,11.669519,11.660362,11.651532,11.642823,11.633869,11.624634,11.615503,11.606648,11.598303,11.590805,11.584078,11.577717,11.571144,11.564333,11.557095,11.54942,11.541668,11.534201,11.527086,11.519875,11.512722,11.505737,11.499071,11.493049,11.488028,11.484056,11.480692,11.47784,11.4750805,11.47184,11.468052,11.464064,11.459815,11.455023,11.449568,11.443413,11.437052,11.431166,11.426165,11.422224,11.418903,11.415681,11.412231,11.408265,11.403791,11.399118,11.394518,11.389793,11.384714,11.379156,11.373101,11.366715,11.36027,11.353996,11.34784,11.341417,11.334873,11.328447,11.322464,11.31702,11.311927,11.307022,11.301537,11.295544,11.289323,11.283271,11.277758,11.2729,11.268404,11.26388,11.259248,11.254708,11.250332,11.24601,11.241495,11.236559,11.230671,11.223711,11.216163,11.208685,11.201893,11.196065,11.191078,11.186724,11.1826725,11.179163,11.17634,11.173988,11.171727,11.169245,11.166208,11.162268,11.15768,11.152866,11.148333,11.144373,11.140927,11.137934,11.134897,11.131603,11.128078,11.1244755,11.120991,11.117748,11.114768,11.111668,11.108267,11.104637,11.100809,11.096907,11.093166,11.089758,11.08662,11.083696,11.081356,11.079447,11.077607,11.075504,11.072919,11.069838,11.066333,11.062625,11.059043,11.055737,11.052704,11.050009,11.04771,11.045552,11.043667,11.04195,11.040238,11.038464,11.036682,11.035051,11.033617,11.032437,11.031626,11.031137,11.030755,11.030157,11.02914,11.027658,11.025497,11.022953,11.020391,11.018133,11.016216,11.014408,11.012581,11.010523,11.008226,11.005884,11.003611,11.0014305,10.999331,10.997419,10.995256,10.993102,10.991292,10.990095,10.989565,10.989434,10.989264,10.988737,10.987682,10.985847,10.983427,10.980828,10.97839,10.976452,10.975077,10.974123,10.973562,10.973189
11.641899,11.665783,11.691328,11.713621,11.731266,11.746185,11.76132,11.778671,11.797283,11.813656,11.825392,11.83429,11.844568,11.8584175,11.874509,11.886513,11.8911,11.894165,11.900898,11.90904,11.918701,11.931223,11.945576,11.964888,11.992962,12.025648,12.054575,12.079693,12.104155,12.128033,12.149616,12.168358,12.185086,12.200943,12.2164135,12.23237,12.252066,12.275158,12.307698,12.348622,12.391642,12.434437,12.470924,12.504896,12.534709,12.559813,12.579389,12.593845,12.604744,12.610796,12.613316,12.610903,12.604242,12.594745,12.584246,12.573967,12.563297,12.553436,12.542293,12.5300255,12.516884,12.5045185,12.4952,12.489244,12.48463,12.479969,12.475468,12.469624,12.462125,12.453732,12.444489,12.435541,12.426736,12.41836,12.411328,12.404781,12.395641,12.381588,12.364008,12.347472,12.332059,12.313162,12.2865505,12.256605,12.231447,12.21011,12.188614,12.167118,12.146133,12.125475,12.104931,12.084614,12.064776,12.045325,12.025355,12.005619,11.986442,11.968021,11.950428,11.933531,11.917014,11.89937,11.88093,11.8625145,11.845307,11.83058,11.818974,11.809738,11.800713,11.791356,11.781783,11.772165,11.761753,11.750225,11.739765,11.729622,11.720128,11.710859,11.701707,11.692808,11.684354,11.676687,11.668866,11.660578,11.651604,11.642,11.631913,11.621686,11.611954,11.602738,11.593674,11.584086,11.574377,11.564888,11.555738,11.54721,11.539165,11.530846,11.522242,11.513721,11.505468,11.497742,11.49089,11.484787,11.479058,11.473167,11.467134,11.460718,11.4538965,11.447056,11.440464,11.434135,11.427655,11.421125,11.414697,11.408594,11.403145,11.398666,11.395208,11.392376,11.390029,11.38775,11.384897,11.381369,11.377591,11.373538,11.368944,11.36375,11.357955,11.351984,11.346411,11.341572,11.337628,11.334177,11.330756,11.327124,11.323048,11.318537,11.313872,11.3092785,11.304567,11.299495,11.293968,11.288003,11.281776,11.275531,11.269474,11.263521,11.257256,11.250781,11.244295,11.238152,11.232509,11.227223,11.2221575,11.21661,11.210596,11.2043705,11.198287,11.192708,11.187786,11.183306,11.178922,11.174588,11.17049,11.166564,11.162613,11.158411,11.153739,11.148064,11.141235,11.133732,11.1262245,11.119366,11.113508,11.108583,11.104387,11.100563,11.097263,11.09448,11.09203,11.089661,11.087091,11.084049,11.080202,11.075804,11.0712385,11.066986,11.06343,11.060551,11.058014,11.05544,11.052607,11.049498,11.046254,11.043062,11.040041,11.037227,11.034262,11.030994,11.027517,11.023914,11.020359,11.017063,11.014128,11.01145,11.008934,11.006835,11.004993,11.0031395,11.001034,10.998497,10.995506,10.9921,10.988395,10.984659,10.981075,10.977728,10.9747505,10.972239,10.969914,10.967926,10.966137,10.964367,10.962528,10.960672,10.958943,10.957393,10.956098,10.955183,10.954634,10.954201,10.953556,10.952589,10.951238,10.949251,10.946863,10.944343,10.941987,10.939883,10.937876,10.935928,10.933874,10.93169,10.929534,10.927409,10.925249,10.923059,10.920998,10.918695,10.916462,10.914621,10.913382,10.9127245,10.912369,10.911947,10.911215,10.910107,10.908411,10.906261,10.903957,10.90176,10.899982,10.898705,10.897882,10.897526,10.897459
11.606146,11.632107,11.659285,11.681248,11.696458,11.708739,11.720489,11.734212,11.749921,11.765747,11.780504,11.792673,11.800278,11.80712,11.811892,11.814241,11.818895,11.827301,11.836356,11.84359,11.849865,11.856804,11.866121,11.881686,11.903702,11.930614,11.960573,11.989209,12.0167,12.041428,12.061251,12.077335,12.0914,12.10423,12.116964,12.131689,12.151048,12.173659,12.205437,12.245092,12.285111,12.322323,12.352985,12.38007,12.401581,12.418561,12.432024,12.44231,12.449759,12.453537,12.454567,12.451036,12.4434185,12.432976,12.421772,12.411278,12.400467,12.390719,12.379684,12.367346,12.355669,12.34593,12.33827,12.333386,12.330511,12.330212,12.33169,12.33184,12.329399,12.325207,12.319639,12.313534,12.305693,12.29751,12.289928,12.281863,12.273048,12.26516,12.257614,12.2505045,12.24461,12.228802,12.206928,12.187714,12.170923,12.156048,12.133404,12.109499,12.086809,12.064893,12.042625,12.0201435,11.9985075,11.977458,11.95591,11.934542,11.913674,11.89355,11.874324,11.855967,11.838117,11.819213,11.799884,11.780974,11.763475,11.747958,11.734336,11.722466,11.710861,11.698756,11.6869335,11.675698,11.664112,11.651796,11.640696,11.630046,11.620182,11.610617,11.601199,11.592108,11.583611,11.57609,11.568495,11.560446,11.551658,11.54216,11.532148,11.522032,11.512456,11.503404,11.494434,11.484937,11.4753275,11.465975,11.457006,11.44866,11.440744,11.432577,11.424145,11.415839,11.407858,11.400471,11.394022,11.388383,11.383162,11.377853,11.372433,11.366882,11.361202,11.355507,11.349987,11.344589,11.338938,11.333086,11.327206,11.321584,11.3165865,11.312507,11.309346,11.306778,11.304613,11.30253,11.300138,11.297285,11.2940445,11.290443,11.286259,11.281455,11.276005,11.270319,11.264936,11.260172,11.25623,11.25272,11.249227,11.245536,11.241444,11.236983,11.232441,11.228025,11.22355,11.218771,11.213554,11.207919,11.202036,11.196126,11.19039,11.184713,11.178668,11.172308,11.1658325,11.159622,11.153879,11.148497,11.14333,11.137674,11.131559,11.125263,11.119137,11.113525,11.108599,11.104154,11.099842,11.095636,11.091717,11.088172,11.084801,11.081176,11.07704,11.071926,11.065653,11.05865,11.051548,11.045033,11.039549,11.035116,11.031456,11.028241,11.025459,11.0229,11.020452,11.018056,11.015472,11.012493,11.008836,11.004741,11.000543,10.996672,10.993467,10.990887,10.988628,10.986316,10.9837265,10.980808,10.977679,10.974527,10.97148,10.96859,10.965504,10.962117,10.958553,10.954943,10.951477,10.948345,10.945564,10.942999,10.940547,10.938428,10.936516,10.93458,10.932405,10.929821,10.92676,10.92326,10.919433,10.915537,10.911762,10.908215,10.905037,10.902325,10.8997965,10.897604,10.895613,10.893635,10.8915825,10.889519,10.887619,10.885948,10.884608,10.883766,10.883402,10.883133,10.882555,10.881699,10.880492,10.8786335,10.876323,10.87378,10.871304,10.869028,10.866863,10.864769,10.862579,10.86026,10.857988,10.855755,10.853485,10.851179,10.848967,10.846451,10.843966,10.841829,10.840296,10.839381,10.838789,10.838156,10.837263,10.8360615,10.834371,10.832335,10.83023,10.82826,10.826676,10.825562,10.824888,10.824715,10.824917
11.595081,11.624237,11.654332,11.6756,11.685943,11.695171,11.700724,11.701207,11.701289,11.701847,11.701622,11.7011795,11.702274,11.703064,11.702985,11.704704,11.709606,11.716865,11.724111,11.729589,11.734083,11.7385845,11.745494,11.758869,11.779376,11.8049965,11.832916,11.859392,11.884834,11.910061,11.931101,11.949909,11.967789,11.983226,11.9970665,12.009968,12.025291,12.042492,12.065728,12.09816,12.135597,12.169136,12.195306,12.217078,12.228523,12.236828,12.244755,12.250291,12.254318,12.256111,12.256263,12.252366,12.24465,12.234233,12.223492,12.214283,12.205143,12.197611,12.189382,12.180789,12.172169,12.164884,12.160832,12.160357,12.162233,12.167623,12.174311,12.178892,12.179972,12.178863,12.177063,12.173752,12.169146,12.164135,12.160444,12.156626,12.151571,12.146673,12.139959,12.133545,12.125918,12.117993,12.109642,12.10116,12.092516,12.079987,12.061554,12.043787,12.028907,12.012547,11.989914,11.962933,11.938325,11.914819,11.891083,11.867776,11.845137,11.823416,11.802875,11.783544,11.765017,11.745611,11.726033,11.707172,11.689856,11.674464,11.66087,11.648815,11.636776,11.624052,11.610701,11.596964,11.582409,11.567108,11.553481,11.540701,11.5295925,11.519382,11.509506,11.500029,11.491331,11.483855,11.476425,11.468592,11.460032,11.450756,11.440939,11.430998,11.421604,11.412729,11.403957,11.394674,11.385297,11.376188,11.367475,11.359387,11.351703,11.343784,11.335603,11.327594,11.319965,11.312974,11.306957,11.301777,11.297049,11.292292,11.287476,11.282551,11.277521,11.272511,11.267632,11.262838,11.257748,11.252362,11.246858,11.241552,11.236837,11.23302,11.230113,11.227842,11.22601,11.224289,11.222267,11.219762,11.216827,11.213529,11.209627,11.2051115,11.199938,11.194484,11.189264,11.184589,11.180658,11.177156,11.173732,11.170187,11.166321,11.162144,11.157894,11.153761,11.149569,11.145107,11.140253,11.135033,11.129621,11.124201,11.118891,11.113575,11.107756,11.101445,11.094849,11.088427,11.08246,11.076872,11.07152,11.065655,11.059385,11.053051,11.046946,11.041349,11.036451,11.032066,11.027873,11.023857,11.020198,11.01696,11.013903,11.010583,11.0067215,11.001823,10.995689,10.988752,10.981601,10.97497,10.969421,10.965015,10.961468,10.958414,10.955835,10.953587,10.951437,10.94921,10.946793,10.944082,10.940826,10.937228,10.933527,10.930048,10.927064,10.924541,10.92228,10.919935,10.917309,10.914364,10.911194,10.907953,10.904769,10.901715,10.898483,10.894976,10.891359,10.887758,10.884327,10.881196,10.8783245,10.87557,10.872791,10.870209,10.867773,10.865355,10.86281,10.860001,10.856863,10.853371,10.84965,10.845916,10.842348,10.839035,10.836043,10.833441,10.830933,10.828659,10.826512,10.824317,10.822002,10.819644,10.8174515,10.815514,10.813934,10.812912,10.812399,10.812145,10.811823,10.811213,10.810264,10.808656,10.806576,10.804247,10.80195,10.799803,10.797714,10.795652,10.793491,10.791206,10.78899,10.786812,10.784567,10.782241,10.779941,10.77735,10.774815,10.772637,10.771045,10.770021,10.769277,10.768488,10.767403,10.766037,10.764264,10.762199,10.760096,10.758142,10.756545,10.755369,10.75463,10.754421,10.754614
11.574123,11.592335,11.602354,11.605356,11.605032,11.604202,11.6022215,11.600567,11.597682,11.594088,11.589949,11.585466,11.581936,11.578428,11.575225,11.573626,11.574737,11.576566,11.576019,11.573027,11.571188,11.568087,11.566946,11.572243,11.584158,11.600979,11.624518,11.658694,11.694658,11.7284,11.755976,11.782331,11.807907,11.8328495,11.866771,11.897062,11.929621,11.962975,12.001097,12.042501,12.081119,12.114012,12.136617,12.152615,12.15955,12.159716,12.15313,12.144417,12.14091,12.133049,12.122383,12.10644,12.085962,12.058538,12.024802,11.989366,11.953241,11.933794,11.910582,11.903617,11.908059,11.914085,11.923725,11.935825,11.950652,11.969774,11.986382,11.997946,12.006708,12.013598,12.016233,12.016335,12.0167885,12.016264,12.016413,12.01597,12.013821,12.011925,12.009111,12.007282,12.004635,12.002184,11.997871,11.990532,11.982282,11.973683,11.965304,11.958038,11.951895,11.937902,11.917006,11.899204,11.882726,11.855419,11.826951,11.799528,11.7741785,11.750811,11.72903,11.708992,11.690254,11.6709175,11.651793,11.633689,11.617148,11.602245,11.588711,11.57631,11.563572,11.549829,11.535307,11.520399,11.504799,11.488675,11.474386,11.460842,11.448189,11.435881,11.423929,11.412741,11.402767,11.394471,11.38646,11.378027,11.368648,11.358838,11.348896,11.339045,11.330116,11.321588,11.313096,11.304081,11.294975,11.286121,11.277653,11.269832,11.262392,11.254698,11.246758,11.239029,11.231722,11.225075,11.219409,11.214601,11.210264,11.205938,11.201632,11.197292,11.192905,11.188578,11.184335,11.180107,11.175589,11.170725,11.165617,11.1606455,11.156342,11.153018,11.150633,11.148907,11.147581,11.146305,11.144729,11.142731,11.140349,11.137686,11.134509,11.130728,11.126194,11.121179,11.116182,11.11161,11.107717,11.1042185,11.100815,11.097355,11.093662,11.08972,11.08572,11.081821,11.077826,11.073898,11.069685,11.065075,11.060217,11.055299,11.050417,11.045483,11.04001,11.033993,11.027655,11.021473,11.015724,11.010313,11.005072,10.999246,10.992845,10.986219,10.979809,10.974012,10.968998,10.9645195,10.960224,10.956274,10.952925,10.95009,10.94736,10.944231,10.940399,10.935386,10.928982,10.92167,10.914196,10.9074,10.901867,10.897633,10.89432,10.891506,10.889081,10.886875,10.884678,10.882355,10.879843,10.877075,10.873805,10.870195,10.866455,10.862868,10.859695,10.856945,10.854486,10.852003,10.84926,10.846203,10.842878,10.839411,10.835941,10.832603,10.829184,10.825567,10.821856,10.818146,10.814581,10.811264,10.8081455,10.80505,10.801893,10.79888,10.796013,10.793223,10.790412,10.787475,10.784336,10.780935,10.77738,10.773861,10.77055,10.767528,10.764823,10.762445,10.760107,10.757938,10.7558,10.75354,10.751098,10.74855,10.746159,10.744013,10.742268,10.741196,10.74074,10.740636,10.740532,10.740141,10.739391,10.738171,10.736575,10.734871,10.733346,10.732008,10.730618,10.729044,10.727188,10.724989,10.722721,10.72044,10.718075,10.715612,10.713131,10.710259,10.707362,10.704786,10.702855,10.701613,10.700745,10.69989,10.698698,10.697169,10.695276,10.693168,10.691126,10.689341,10.687893,10.686783,10.686062,10.685822,10.685984
11.494613,11.498236,11.497885,11.494089,11.487991,11.480293,11.470795,11.462151,11.452111,11.441371,11.430111,11.418848,11.408888,11.394049,11.381046,11.367416,11.35236,11.342054,11.340578,11.34153,11.335622,11.336675,11.342715,11.353331,11.37793,11.426012,11.493187,11.563593,11.639151,11.706749,11.750615,11.783169,11.81461,11.842411,11.87101,11.896425,11.926178,11.95601,11.990543,12.0274315,12.059622,12.087432,12.109787,12.125559,12.13227,12.132269,12.1255,12.113922,12.103089,12.090644,12.071345,12.041183,12.003075,11.964022,11.928165,11.894646,11.862839,11.840977,11.815995,11.800067,11.781585,11.752905,11.727562,11.715495,11.704388,11.679506,11.689275,11.72055,11.749033,11.771876,11.788898,11.805825,11.817827,11.826649,11.835081,11.841972,11.846422,11.850766,11.8538475,11.858271,11.861702,11.864708,11.865393,11.8628235,11.859175,11.855278,11.8507,11.845455,11.840531,11.833349,11.825436,11.817927,11.8027,11.779175,11.757201,11.736485,11.710075,11.680256,11.65459,11.632569,11.613354,11.5940275,11.575542,11.558552,11.543116,11.528875,11.515451,11.502669,11.489183,11.4744,11.45878,11.442894,11.426531,11.409858,11.3950815,11.3809805,11.367317,11.353675,11.340359,11.328018,11.317232,11.308519,11.300346,11.291824,11.282423,11.27232,11.261759,11.251146,11.241313,11.231957,11.222559,11.212595,11.202692,11.193483,11.185041,11.17724,11.169847,11.162216,11.154347,11.146746,11.139675,11.133394,11.128224,11.124016,11.120336,11.116771,11.113304,11.109839,11.106363,11.10297,11.099592,11.096142,11.092233,11.087746,11.082821,11.07793,11.073673,11.0704155,11.068081,11.066374,11.065,11.063627,11.061954,11.060112,11.058388,11.056376,11.05391,11.0508585,11.046968,11.042487,11.037968,11.033857,11.030475,11.02759,11.024893,11.022187,11.019209,11.015882,11.0124,11.008942,11.005383,11.001724,10.997755,10.993447,10.988955,10.984432,10.979967,10.975456,10.970457,10.964928,10.959076,10.953351,10.948007,10.942941,10.937975,10.932381,10.926125,10.919517,10.912994,10.907,10.901754,10.897083,10.8926735,10.888677,10.885352,10.882648,10.880135,10.877217,10.873518,10.868481,10.861877,10.854189,10.846237,10.839003,10.833183,10.828857,10.825574,10.822842,10.820458,10.818157,10.815737,10.813187,10.810587,10.807899,10.804787,10.801363,10.79776,10.794189,10.790867,10.787842,10.785066,10.78226,10.779225,10.775942,10.772442,10.768801,10.765146,10.761654,10.758083,10.754357,10.750634,10.746984,10.743434,10.739992,10.736598,10.73311,10.729436,10.725883,10.722572,10.71949,10.716509,10.713448,10.710183,10.706644,10.703032,10.699625,10.696622,10.694027,10.69172,10.6896,10.687358,10.68516,10.68289,10.680395,10.677608,10.6746025,10.671689,10.669052,10.6669445,10.665746,10.665431,10.665627,10.665836,10.665728,10.665266,10.664307,10.663036,10.661734,10.660638,10.659679,10.6585455,10.657116,10.65538,10.653307,10.651234,10.649307,10.647372,10.645187,10.642767,10.639803,10.636774,10.634033,10.631945,10.63053,10.62939,10.628206,10.626674,10.62488,10.622904,10.620883,10.61903,10.617455,10.616137,10.615099,10.614437,10.614228,10.614373
11.378786,11.374844,11.369053,11.3595915,11.347063,11.332954,11.31444,11.294114,11.272314,11.249844,11.223947,11.193918,11.168968,11.166571,11.152404,11.146252,11.148634,11.170307,11.20933,11.240114,11.260263,11.276954,11.294184,11.317995,11.357476,11.416826,11.48958,11.56386,11.646496,11.7264805,11.782848,11.824918,11.866002,11.906456,11.94639,11.976557,11.996232,12.01209,12.0340805,12.054783,12.066481,12.079708,12.092846,12.103348,12.108839,12.1122055,12.113432,12.111155,12.107356,12.103861,12.097599,12.0833645,12.06069,12.019613,11.9663,11.92112,11.880741,11.842329,11.810178,11.781895,11.748624,11.708918,11.673279,11.650922,11.629953,11.592617,11.573936,11.569069,11.5624695,11.553419,11.545471,11.536678,11.544794,11.568933,11.599183,11.626417,11.648357,11.666151,11.678694,11.692222,11.704294,11.715269,11.723244,11.727268,11.729212,11.729431,11.728038,11.725996,11.723164,11.720772,11.719309,11.715917,11.70679,11.696922,11.678371,11.657625,11.633805,11.609674,11.588637,11.566267,11.544151,11.522976,11.503592,11.486693,11.471918,11.458128,11.444517,11.431082,11.416621,11.400688,11.383982,11.367222,11.350219,11.333048,11.3177595,11.3030205,11.288397,11.273552,11.258963,11.245464,11.233805,11.224599,11.216206,11.207588,11.19824,11.188032,11.177139,11.166101,11.155703,11.145823,11.135824,11.125227,11.114695,11.104882,11.095922,11.087755,11.080097,11.072272,11.064299,11.056737,11.049845,11.0438175,11.038918,11.034973,11.031516,11.02817,11.02495,11.021807,11.018785,11.015989,11.013264,11.010488,11.007154,11.0030575,10.998341,10.993528,10.989277,10.985991,10.983591,10.981799,10.980303,10.978772,10.976963,10.975028,10.973213,10.97127,10.968979,10.966277,10.962867,10.958976,10.955157,10.951818,10.949244,10.9472685,10.945581,10.94392,10.941923,10.939417,10.936541,10.933474,10.930174,10.92654,10.922531,10.918259,10.913918,10.909649,10.905518,10.901388,10.896864,10.891888,10.886622,10.881468,10.876646,10.872019,10.867438,10.862194,10.85625,10.849837,10.843316,10.837124,10.831585,10.82663,10.822056,10.817987,10.814701,10.812159,10.809909,10.807322,10.803982,10.79925,10.792889,10.785328,10.777369,10.770069,10.764254,10.760046,10.756933,10.754372,10.752063,10.749655,10.746986,10.744161,10.741323,10.738485,10.735302,10.731817,10.7281,10.724279,10.720537,10.716963,10.713581,10.710155,10.706541,10.702816,10.699034,10.695213,10.691416,10.68779,10.684042,10.680118,10.676226,10.672449,10.668767,10.665122,10.661451,10.657666,10.653587,10.6496105,10.645899,10.642481,10.639254,10.636017,10.63262,10.628983,10.62533,10.622044,10.619322,10.617051,10.6150055,10.612974,10.610653,10.608239,10.605679,10.602877,10.599741,10.596311,10.592922,10.589797,10.587225,10.58572,10.585245,10.585552,10.586213,10.586582,10.586474,10.585724,10.584623,10.583516,10.582676,10.582005,10.5811205,10.57991,10.578506,10.576943,10.575627,10.5746,10.573479,10.571848,10.569656,10.566669,10.563456,10.560411,10.557978,10.556189,10.554598,10.5529585,10.551027,10.548986,10.547058,10.545336,10.543911,10.542759,10.541702,10.54076,10.540058,10.539648,10.539468
11.235584,11.22325,11.206713,11.1851425,11.160181,11.133679,11.111087,11.090124,11.064261,11.037716,11.020179,11.0126,11.011866,11.042502,11.062414,11.086458,11.119335,11.170872,11.231924,11.276609,11.315659,11.345023,11.375505,11.410464,11.455372,11.514653,11.585177,11.656249,11.709206,11.755883,11.792141,11.821035,11.847282,11.874311,11.904663,11.922197,11.92321,11.919004,11.923544,11.928749,11.925997,11.927767,11.928709,11.928853,11.930158,11.934003,11.9391365,11.944739,11.952012,11.960171,11.971865,11.982437,11.989267,11.971403,11.931857,11.898419,11.867088,11.838101,11.8122425,11.78639,11.76165,11.742687,11.728096,11.70942,11.695221,11.67717,11.645737,11.605579,11.559248,11.509687,11.466999,11.420765,11.394848,11.389704,11.393351,11.397017,11.40398,11.421775,11.450789,11.483009,11.514689,11.54147,11.560869,11.573856,11.583107,11.589504,11.594664,11.599667,11.603121,11.604819,11.604948,11.603744,11.602272,11.601552,11.587631,11.570937,11.554334,11.537489,11.519939,11.499672,11.478611,11.459625,11.44334,11.42835,11.412954,11.396947,11.381159,11.365485,11.349506,11.33234,11.314761,11.2976055,11.280579,11.263475,11.248148,11.233115,11.217699,11.20171,11.185822,11.171066,11.158375,11.148464,11.139627,11.130655,11.120994,11.110548,11.09947,11.088257,11.077741,11.067701,11.057472,11.046623,11.035787,11.025491,11.01598,11.007505,10.999725,10.991903,10.984115,10.97691,10.97046,10.9648285,10.960167,10.956303,10.952766,10.9492,10.945725,10.942411,10.939396,10.936806,10.934425,10.932085,10.929219,10.925541,10.921106,10.916426,10.912193,10.908836,10.906273,10.9042425,10.90242,10.900468,10.898249,10.895837,10.893326,10.890938,10.888387,10.885714,10.88262,10.879301,10.876257,10.873796,10.872098,10.871071,10.870411,10.869818,10.86885,10.86722,10.864965,10.862221,10.859028,10.8553915,10.851315,10.847002,10.842696,10.838543,10.834602,10.830713,10.826531,10.82201,10.817262,10.812641,10.808311,10.804094,10.799871,10.794963,10.789329,10.783123,10.776611,10.770225,10.764359,10.759026,10.754125,10.749845,10.746504,10.744019,10.741913,10.739585,10.736619,10.732313,10.726434,10.719322,10.711716,10.7047,10.699192,10.695339,10.692576,10.690317,10.688168,10.685699,10.682833,10.679785,10.676721,10.67369,10.670389,10.666781,10.662865,10.658674,10.654354,10.650073,10.645939,10.641752,10.63748,10.6333,10.629283,10.625378,10.621546,10.617878,10.614071,10.610072,10.606094,10.60224,10.598484,10.594746,10.590975,10.587109,10.582886,10.578713,10.57472,10.570949,10.567379,10.563908,10.560419,10.556825,10.5533085,10.550228,10.5477085,10.545568,10.543564,10.541439,10.538879,10.536079,10.533052,10.529786,10.526204,10.522318,10.518492,10.514907,10.511896,10.510099,10.509522,10.50993,10.510849,10.511464,10.5115185,10.510846,10.509776,10.508727,10.508017,10.507545,10.506891,10.505928,10.504929,10.503971,10.503504,10.503386,10.502984,10.501778,10.499689,10.496518,10.492895,10.489278,10.486251,10.483896,10.481732,10.479607,10.47732,10.475096,10.473338,10.4720745,10.471253,10.470701,10.470012,10.469177,10.468338,10.467519,10.466772
11.050871,11.029135,11.00458,10.976156,10.946184,10.921247,10.917418,10.922276,10.919029,10.912479,10.927378,10.971542,11.021941,11.068079,11.12817,11.168304,11.200613,11.236221,11.2717705,11.305068,11.335526,11.367841,11.403042,11.434036,11.47163,11.532505,11.6133175,11.6882515,11.713545,11.71715,11.712168,11.703817,11.691778,11.675857,11.657098,11.633661,11.611238,11.588232,11.573742,11.569292,11.568811,11.570829,11.571081,11.568064,11.567239,11.569457,11.572978,11.577372,11.583937,11.592592,11.604706,11.616293,11.627878,11.640818,11.655828,11.671577,11.684164,11.699089,11.704709,11.703638,11.699389,11.69749,11.695443,11.679291,11.669468,11.665052,11.663538,11.655785,11.635496,11.601875,11.55717,11.510317,11.450521,11.384813,11.319256,11.258452,11.214481,11.203375,11.225393,11.254389,11.281051,11.314057,11.350777,11.382153,11.406814,11.426037,11.44165,11.45529,11.467331,11.477396,11.4852295,11.490263,11.491142,11.490081,11.487541,11.48595,11.477852,11.460504,11.440928,11.425352,11.4126005,11.398756,11.387009,11.374715,11.35923,11.342062,11.326143,11.310885,11.29268,11.273729,11.255327,11.238222,11.221923,11.205764,11.191206,11.17659,11.160991,11.144409,11.127699,11.112041,11.098555,11.08804,11.078815,11.069454,11.059359,11.04842,11.036727,11.024778,11.013529,11.002757,10.991734,10.980082,10.968551,10.95779,10.948074,10.939638,10.932165,10.924889,10.917873,10.911592,10.906101,10.901335,10.897331,10.893911,10.890628,10.887121,10.883612,10.880272,10.877314,10.874903,10.872789,10.8707905,10.868327,10.865053,10.860931,10.856397,10.852125,10.848541,10.845577,10.842987,10.840418,10.83758,10.834431,10.831184,10.828016,10.825132,10.822275,10.819571,10.816714,10.813902,10.81159,10.809974,10.8091345,10.809071,10.809471,10.809995,10.810101,10.809399,10.80785,10.805548,10.80261,10.799109,10.795068,10.790754,10.786452,10.7823105,10.778405,10.774571,10.770531,10.766256,10.761833,10.757555,10.753534,10.749559,10.745527,10.740815,10.735411,10.7293825,10.722902,10.716354,10.710148,10.704359,10.698938,10.694157,10.690371,10.687516,10.685172,10.682806,10.679979,10.675932,10.670412,10.663654,10.656307,10.649488,10.644218,10.640686,10.638272,10.636347,10.634429,10.631996,10.6290045,10.625828,10.622736,10.619768,10.616591,10.6131,10.609203,10.604808,10.600023,10.595116,10.590312,10.585463,10.580703,10.576316,10.572341,10.568626,10.565033,10.561603,10.558016,10.554259,10.550543,10.546946,10.543406,10.539831,10.536187,10.532426,10.528232,10.523993,10.519804,10.515694,10.511723,10.50794,10.504314,10.500774,10.497504,10.4947605,10.492521,10.490538,10.488554,10.486325,10.483492,10.480231,10.476623,10.4727335,10.468529,10.464033,10.459658,10.45553,10.4520645,10.450003,10.449484,10.450026,10.450828,10.451269,10.4512615,10.450541,10.44943,10.448357,10.447591,10.447016,10.446298,10.44533,10.444479,10.443842,10.443834,10.444211,10.44416,10.443014,10.440723,10.4371395,10.43298,10.428743,10.425142,10.422245,10.419483,10.41683,10.414176,10.4117985,10.410258,10.409494,10.409289,10.409308,10.408922,10.408129,10.4071,10.405853,10.404556
10.836813,10.827717,10.819601,10.807205,10.801643,10.820247,10.861942,10.908512,10.955581,10.991565,11.013516,11.033541,11.062811,11.091174,11.127171,11.140421,11.154879,11.184274,11.2247715,11.274,11.315041,11.344324,11.3497715,11.351938,11.362503,11.370326,11.367918,11.372595,11.3748,11.366486,11.3445835,11.313663,11.28441,11.261337,11.236804,11.209765,11.1818905,11.152765,11.1244955,11.102087,11.088085,11.080347,11.07956,11.077869,11.076248,11.077518,11.081735,11.087725,11.096133,11.107357,11.122107,11.1377125,11.152498,11.1671505,11.1848135,11.207811,11.2340555,11.259878,11.28412,11.312222,11.342197,11.36935,11.394392,11.421198,11.448441,11.490488,11.534077,11.561869,11.585012,11.595964,11.553614,11.513925,11.472291,11.421182,11.363,11.302328,11.244828,11.195534,11.149588,11.109194,11.057911,11.058095,11.106876,11.158634,11.199313,11.235233,11.267252,11.295691,11.3205805,11.341246,11.357881,11.370877,11.378953,11.384554,11.385082,11.3834305,11.379735,11.373291,11.365188,11.357501,11.3515415,11.334587,11.316722,11.3019705,11.290449,11.281286,11.273642,11.2675495,11.2477255,11.226969,11.20819,11.19174,11.1767645,11.16199,11.148579,11.13472,11.119244,11.102375,11.085129,11.068801,11.054653,11.043625,11.034061,11.024328,11.013763,11.002241,10.98977,10.976839,10.964573,10.952794,10.940704,10.928013,10.915579,10.904142,10.894058,10.885624,10.878535,10.872,10.866039,10.86101,10.856836,10.85329,10.850281,10.847614,10.844897,10.841728,10.838403,10.835192,10.832385,10.83018,10.828308,10.826654,10.824629,10.821853,10.818187,10.813955,10.8097725,10.806051,10.802765,10.799747,10.796621,10.793131,10.789307,10.785423,10.781687,10.778361,10.775235,10.772501,10.769864,10.76752,10.765879,10.765038,10.764992,10.765834,10.767265,10.7688675,10.770026,10.770273,10.769491,10.767727,10.765171,10.761965,10.758117,10.753885,10.749593,10.745419,10.741442,10.737513,10.733429,10.729206,10.724905,10.720753,10.71682,10.712883,10.708843,10.704143,10.698845,10.69294,10.686497,10.67983,10.673309,10.667035,10.661009,10.655542,10.651058,10.647545,10.644682,10.64204,10.63917,10.635242,10.629981,10.623505,10.616348,10.609669,10.604613,10.601412,10.599386,10.597862,10.596294,10.594027,10.591017,10.587768,10.584638,10.581659,10.578472,10.57494,10.570911,10.566206,10.560913,10.555389,10.549955,10.5445385,10.539444,10.535048,10.531361,10.5281105,10.52503,10.522068,10.518881,10.51548,10.512043,10.508636,10.505205,10.501695,10.498137,10.494467,10.490292,10.485958,10.481509,10.47694,10.472401,10.468137,10.464261,10.460718,10.457722,10.455502,10.453841,10.452289,10.450537,10.448347,10.445378,10.441777,10.437725,10.433385,10.428745,10.423825,10.419046,10.414466,10.410457,10.407835,10.406835,10.407042,10.4076805,10.408087,10.408144,10.4074955,10.406447,10.40539,10.404549,10.40382,10.402977,10.401966,10.401211,10.400803,10.401102,10.401737,10.401752,10.4004,10.397709,10.393626,10.388922,10.384157,10.380083,10.376709,10.373377,10.370178,10.367111,10.364563,10.363204,10.362875,10.363197,10.363663,10.363462,10.36261,10.361314,10.35961,10.35779
10.644236,10.678928,10.740099,10.790953,10.836775,10.862387,10.891846,10.91597,10.968542,11.024148,11.077684,11.135068,11.172189,11.217741,11.222047,11.231603,11.231289,11.222945,11.224419,11.229147,11.220886,11.214424,11.2198515,11.232327,11.252062,11.246791,11.180508,11.09539,11.078173,11.02289,10.928384,10.788549,10.639009,10.542429,10.503502,10.458483,10.370583,10.242334,10.10511,9.964895,9.820715,9.698345,9.58923,9.498191,9.433308,9.403425,9.413467,9.464695,9.553366,9.667607,9.772835,9.898634,10.054743,10.218215,10.365043,10.508738,10.684372,10.843933,10.874061,10.846106,10.826698,10.879616,11.0165825,11.136956,11.203726,11.262415,11.313459,11.364758,11.417403,11.453569,11.459185,11.47475,11.496666,11.485493,11.430388,11.348266,11.263494,11.191265,11.136066,11.088881,11.052746,11.023842,10.997903,10.965662,10.93763,10.967129,11.0288105,11.0876045,11.138832,11.178751,11.208712,11.233454,11.2505455,11.263519,11.271435,11.276422,11.27826,11.276619,11.27207,11.265392,11.259677,11.25297,11.2460785,11.240113,11.236,11.229272,11.215189,11.204466,11.19278,11.181528,11.171429,11.163263,11.154036,11.140396,11.127136,11.113501,11.09774,11.080196,11.061985,11.044446,11.029058,11.017105,11.006983,10.996826,10.985861,10.973782,10.9606285,10.947006,10.933983,10.921444,10.908525,10.8949585,10.881737,10.869712,10.859327,10.850991,10.844429,10.838848,10.83418,10.83061,10.827942,10.82579,10.823924,10.822157,10.820127,10.817478,10.814507,10.811588,10.8091545,10.807397,10.805871,10.804599,10.803038,10.800779,10.797588,10.793665,10.789556,10.785704,10.78219,10.778948,10.775579,10.771809,10.7677145,10.763604,10.759693,10.756275,10.753218,10.750763,10.748564,10.746829,10.746001,10.74612,10.747094,10.74914,10.751961,10.755023,10.757589,10.759099,10.759348,10.758322,10.756311,10.753523,10.7499695,10.745935,10.741753,10.737612,10.733572,10.7295065,10.725311,10.7210865,10.716885,10.712827,10.70888,10.704809,10.700468,10.695465,10.689983,10.683973,10.677418,10.670526,10.663596,10.656735,10.649991,10.643742,10.638446,10.634134,10.630592,10.627516,10.624462,10.620482,10.615248,10.608744,10.601368,10.594364,10.589148,10.586065,10.584314,10.583206,10.582022,10.579912,10.576834,10.5734215,10.570131,10.567022,10.563689,10.559967,10.555649,10.550448,10.544428,10.538045,10.53175,10.5255165,10.519901,10.515456,10.512123,10.509464,10.507061,10.504667,10.5019,10.498744,10.495344,10.491743,10.487969,10.484137,10.4803505,10.476492,10.472082,10.467401,10.462418,10.457075,10.451627,10.446596,10.442268,10.438547,10.435751,10.434057,10.433054,10.432079,10.430767,10.42893,10.426178,10.422596,10.418425,10.4139,10.409029,10.403852,10.398846,10.394017,10.389697,10.386755,10.385519,10.385586,10.38615,10.386546,10.386667,10.386028,10.384922,10.383722,10.382587,10.381435,10.380198,10.378887,10.377933,10.377481,10.37782,10.378489,10.378416,10.3768015,10.373774,10.369385,10.364376,10.359322,10.354929,10.35106,10.346998,10.34304,10.339319,10.336338,10.334913,10.334819,10.335502,10.33628,10.336201,10.3353,10.33383,10.331863,10.329803
10.646411,10.700111,10.768708,10.838753,10.909115,10.956181,10.988865,11.019103,11.059694,11.088646,11.116855,11.178598,11.269997,11.36195,11.429478,11.339085,11.185285,10.991582,10.692968,10.326929,10.050764,9.740848,9.353346,8.959404,8.635627,8.3586235,8.062497,7.774287,7.50858,7.259407,7.0451517,6.8192205,6.564971,6.337632,6.1817274,6.0545015,5.926304,5.8020935,5.6943817,5.6036425,5.5259743,5.4668508,5.421792,5.388236,5.372257,5.3774605,5.4096003,5.471162,5.5573053,5.6641865,5.7813115,5.9276905,6.1116877,6.3366504,6.586914,6.8504186,7.1513968,7.477445,7.8231,8.183729,8.554502,8.982677,9.5064,10.052639,10.558506,10.809708,11.002314,11.160898,11.175494,11.12214,11.235744,11.30783,11.343748,11.351494,11.340033,11.338775,11.332385,11.270714,11.205146,11.133675,11.0656185,11.015062,10.976246,10.937233,10.902571,10.888163,10.885859,10.879039,10.880159,10.923869,10.994831,11.048563,11.091364,11.1202545,11.1396675,11.153988,11.163046,11.166637,11.166796,11.165234,11.163622,11.163065,11.161242,11.158232,11.1552515,11.151415,11.145185,11.140103,11.135573,11.132003,11.125438,11.117471,11.109945,11.101082,11.092316,11.082018,11.068916,11.05401,11.0390625,11.025465,11.014196,11.005972,10.998875,10.991283,10.982977,10.974575,10.96385,10.949631,10.9357605,10.92247,10.908754,10.894294,10.880167,10.867338,10.856464,10.8482275,10.84235,10.838058,10.835084,10.8333845,10.8326025,10.832193,10.831768,10.831163,10.830092,10.828289,10.826113,10.824146,10.821875,10.818891,10.81662,10.814791,10.812859,10.810478,10.807402,10.803719,10.799789,10.795924,10.792236,10.788668,10.78507,10.781319,10.777233,10.772707,10.767792,10.762826,10.757909,10.753605,10.749929,10.74706,10.745062,10.743664,10.7427635,10.742631,10.743315,10.744414,10.745385,10.745781,10.7454195,10.744377,10.743029,10.741429,10.739178,10.736023,10.732079,10.7276945,10.723221,10.718849,10.714447,10.709965,10.70537,10.700826,10.6965065,10.692467,10.688694,10.684781,10.680722,10.676256,10.671268,10.665876,10.660202,10.654233,10.647875,10.641344,10.6352415,10.630018,10.625923,10.62281,10.620071,10.616863,10.6130905,10.60886,10.604389,10.60047,10.597868,10.596394,10.595299,10.594143,10.592524,10.589961,10.586589,10.583021,10.579655,10.576588,10.57355,10.570585,10.567556,10.56407,10.560007,10.555641,10.551182,10.546679,10.54269,10.539628,10.537369,10.5355,10.533663,10.531635,10.529041,10.525883,10.522324,10.518593,10.514374,10.509512,10.504766,10.500217,10.495138,10.489611,10.483369,10.476229,10.468649,10.461626,10.455766,10.451093,10.448105,10.446845,10.446596,10.446445,10.445931,10.444936,10.443039,10.440144,10.436446,10.432152,10.427366,10.4222975,10.417431,10.412784,10.40866,10.405974,10.405172,10.405846,10.407014,10.407888,10.408396,10.407929,10.406785,10.405311,10.403616,10.401688,10.399654,10.397667,10.396202,10.395483,10.395829,10.396688,10.396807,10.395274,10.392368,10.388269,10.383656,10.378958,10.374594,10.370059,10.364546,10.358795,10.353262,10.348745,10.346418,10.346014,10.346729,10.347635,10.347581,10.346634,10.345217,10.343533,10.3420515
10.769964,10.808046,10.862643,10.930096,10.978614,11.033632,11.111586,11.202528,11.221462,11.202589,11.089535,10.753086,10.203533,9.5926075,9.087687,8.534961,8.030684,7.5862703,7.113928,6.6364226,6.3049974,6.0040903,5.6680813,5.3409367,5.069562,4.858241,4.683913,4.526067,4.360185,4.2161617,4.105788,4.0016317,3.882658,3.7646163,3.673838,3.6031284,3.5452032,3.5021563,3.4738984,3.4592962,3.4551706,3.4567719,3.4636612,3.4726076,3.4847007,3.4995718,3.5192347,3.5448833,3.5748608,3.6101012,3.6552458,3.7127817,3.784711,3.880409,3.9977112,4.1248026,4.2657943,4.4266777,4.655237,4.922719,5.194335,5.508382,5.91565,6.372446,6.863872,7.2814264,7.8102646,8.356701,8.834717,9.3078,9.817447,10.346851,10.692737,10.89319,11.049961,11.111623,11.103469,11.181944,11.157428,11.138847,11.121634,11.084066,11.043734,11.003293,10.944309,10.9054165,10.868824,10.835358,10.808575,10.811758,10.836929,10.849721,10.851403,10.887365,10.932295,10.973135,11.005418,11.025308,11.034029,11.042099,11.048853,11.055353,11.059985,11.062496,11.063446,11.063012,11.061224,11.059254,11.057152,11.056028,11.052879,11.048122,11.043257,11.037832,11.032528,11.025896,11.017253,11.007342,10.997515,10.98896,10.981831,10.975262,10.968874,10.961788,10.954288,10.94733,10.939251,10.928703,10.918125,10.907461,10.895687,10.882523,10.869085,10.856466,10.845488,10.836918,10.830546,10.825819,10.82238,10.820126,10.818676,10.817484,10.816148,10.814499,10.812185,10.809023,10.805418,10.802073,10.79894,10.795856,10.79364,10.792021,10.790436,10.788538,10.786083,10.783127,10.779934,10.776734,10.773669,10.77083,10.767187,10.762352,10.756697,10.750639,10.744227,10.737873,10.731521,10.725672,10.720471,10.716068,10.712378,10.709032,10.705849,10.702841,10.699736,10.696587,10.693508,10.690519,10.687568,10.684662,10.681763,10.678661,10.675029,10.670729,10.665949,10.661034,10.656282,10.6518345,10.647438,10.643003,10.63847,10.633919,10.629517,10.62541,10.62167,10.617943,10.614221,10.610216,10.605816,10.601148,10.596338,10.5913925,10.586192,10.580835,10.57575,10.5713215,10.567875,10.565435,10.563551,10.561631,10.559672,10.557679,10.55572,10.554162,10.553284,10.552788,10.552127,10.551043,10.549336,10.546875,10.543955,10.541107,10.538591,10.536403,10.534305,10.532399,10.530697,10.528978,10.52717,10.525371,10.523495,10.52149,10.519662,10.5181675,10.516846,10.515453,10.513881,10.512124,10.510009,10.507669,10.505304,10.502957,10.5002165,10.4968605,10.4934025,10.489956,10.486141,10.482172,10.47798,10.473463,10.468856,10.464702,10.461313,10.45797,10.454965,10.452934,10.451701,10.450609,10.449375,10.447899,10.445457,10.442458,10.439251,10.436099,10.432647,10.428563,10.424665,10.420968,10.417545,10.415077,10.413527,10.41234,10.411171,10.410105,10.409025,10.407091,10.404566,10.40168,10.398514,10.395197,10.39208,10.389347,10.387222,10.385916,10.385654,10.385971,10.385893,10.384665,10.382427,10.379068,10.374813,10.370026,10.365254,10.360447,10.355308,10.350496,10.346097,10.3424015,10.340149,10.339189,10.339111,10.339399,10.339224,10.338417,10.33699,10.334827,10.33235
10.83307,10.89386,10.903373,10.808303,10.661533,10.521555,10.195473,9.761065,9.308744,8.87746,8.370741,7.670944,6.8220615,6.0262833,5.3796735,4.863479,4.4603376,4.1431465,3.8827255,3.6709163,3.5361798,3.4617996,3.4189973,3.3934464,3.3723726,3.3678365,3.395235,3.4258204,3.4556346,3.4816527,3.5015035,3.5208807,3.5434752,3.5650253,3.5801578,3.5914006,3.6006432,3.6069412,3.6132283,3.6197944,3.6248653,3.6290812,3.6319659,3.6351006,3.6375604,3.6391068,3.63903,3.6372538,3.6345875,3.6302552,3.6246023,3.6164174,3.6049354,3.5885372,3.5680513,3.5455642,3.519414,3.4884708,3.464268,3.4467807,3.4286785,3.4367294,3.4979239,3.5863338,3.7227693,3.9800715,4.3953505,4.866043,5.3936462,5.986681,6.522643,7.162998,7.7178373,8.235271,8.90048,9.560531,10.034828,10.436987,10.728786,10.82044,10.887575,10.971777,11.006899,10.981493,10.96254,10.93981,10.918421,10.879389,10.843939,10.80973,10.774057,10.740986,10.703922,10.713813,10.741713,10.7678795,10.781065,10.801713,10.841351,10.872862,10.900959,10.922305,10.939978,10.954081,10.964155,10.969452,10.969818,10.969203,10.968323,10.967102,10.965763,10.964319,10.96166,10.957092,10.952658,10.947668,10.941528,10.93454,10.927472,10.921179,10.915716,10.910162,10.904703,10.898834,10.892591,10.886411,10.880216,10.873656,10.866833,10.859385,10.850565,10.840155,10.829207,10.818679,10.809126,10.801033,10.794218,10.788255,10.782799,10.777861,10.773243,10.768666,10.763983,10.75913,10.753658,10.747435,10.740864,10.7344,10.72867,10.724063,10.720138,10.71682,10.713601,10.710289,10.706692,10.702769,10.698666,10.694564,10.690562,10.686592,10.681436,10.674681,10.666956,10.659029,10.651146,10.64378,10.63657,10.62979,10.623455,10.617652,10.61237,10.607357,10.602415,10.597242,10.59133,10.584955,10.578665,10.572818,10.567482,10.562584,10.557703,10.552432,10.546732,10.540789,10.53492,10.529367,10.524231,10.519435,10.514621,10.509764,10.504841,10.499875,10.494925,10.490094,10.485441,10.48064,10.475782,10.470688,10.465315,10.459682,10.453881,10.44837,10.44296,10.437702,10.4328375,10.42853,10.424999,10.422369,10.4204235,10.418728,10.417231,10.415823,10.414488,10.413387,10.412652,10.412125,10.4114065,10.410336,10.40877,10.406755,10.404671,10.402968,10.401785,10.400971,10.400307,10.399826,10.39957,10.399456,10.399493,10.39971,10.399881,10.399899,10.399861,10.399711,10.399225,10.39827,10.39694,10.395416,10.393705,10.392067,10.390696,10.389391,10.387854,10.385943,10.383644,10.3811035,10.378346,10.375785,10.373642,10.371941,10.370638,10.369722,10.369117,10.367823,10.365822,10.363741,10.361734,10.359607,10.357416,10.355179,10.352213,10.349146,10.346457,10.344438,10.342566,10.340189,10.337808,10.335204,10.332155,10.329068,10.325831,10.322218,10.318487,10.315191,10.3122015,10.308616,10.304626,10.300381,10.295938,10.291515,10.287575,10.284245,10.28149,10.279499,10.278389,10.277822,10.277117,10.275675,10.273515,10.270177,10.26555,10.260089,10.25458,10.249516,10.245085,10.241691,10.239016,10.236796,10.235306,10.234473,10.234215,10.234367,10.234436,10.233976,10.232622,10.229883,10.226139
10.333188,10.116561,9.752029,9.256832,8.760053,8.24025,7.408572,6.4308677,5.609844,4.9130507,4.278308,3.7846217,3.5031488,3.424112,3.3898847,3.4343038,3.493941,3.5356674,3.5715687,3.6022844,3.6213713,3.6328735,3.6414256,3.6477213,3.652235,3.6536613,3.6508782,3.6475053,3.6442118,3.6407952,3.637302,3.6337776,3.63028,3.6268735,3.6236162,3.6204157,3.6170466,3.6131246,3.6115005,3.6123023,3.6135402,3.615346,3.617127,3.6197224,3.6226792,3.6258717,3.62913,3.6326106,3.6366467,3.6405797,3.6448555,3.649376,3.65412,3.6589694,3.6637938,3.6685174,3.6730237,3.678492,3.6824474,3.6853507,3.6884432,3.687524,3.678286,3.6645977,3.6448092,3.6134813,3.5590444,3.5134902,3.4868345,3.492311,3.5829008,3.7470117,4.0586524,4.5749874,5.4407463,6.548457,7.548996,8.269747,9.015076,9.56403,9.936473,10.279437,10.558228,10.701864,10.78238,10.862764,10.883402,10.85948,10.840241,10.826437,10.797831,10.7582,10.723724,10.693224,10.66532,10.636661,10.597517,10.592284,10.640909,10.6753845,10.704012,10.747942,10.790379,10.823755,10.847671,10.863174,10.871599,10.876652,10.879536,10.880339,10.879228,10.877477,10.875012,10.870762,10.866326,10.861344,10.855009,10.847761,10.840481,10.833815,10.828262,10.824362,10.820958,10.817238,10.812773,10.807683,10.801765,10.794861,10.787558,10.779779,10.771146,10.761467,10.751711,10.742542,10.734095,10.726511,10.719519,10.712524,10.705129,10.697447,10.689489,10.681284,10.673019,10.664834,10.656234,10.647112,10.637859,10.628658,10.6197605,10.611498,10.603899,10.596875,10.59,10.583375,10.576897,10.5703745,10.563736,10.557106,10.550466,10.543276,10.535377,10.526775,10.517597,10.508144,10.498817,10.490099,10.481487,10.473112,10.464952,10.457105,10.449614,10.442339,10.43523,10.427805,10.419838,10.411505,10.403294,10.395601,10.388546,10.38216,10.376035,10.369662,10.363031,10.356239,10.349499,10.342997,10.33682,10.330872,10.324682,10.3182335,10.311573,10.30481,10.298072,10.291519,10.285184,10.278575,10.271767,10.264631,10.257273,10.25054,10.245005,10.239477,10.233999,10.228664,10.223742,10.2194,10.215885,10.213358,10.211611,10.210171,10.208963,10.20775,10.20635,10.20503,10.204211,10.20388,10.20359,10.203211,10.202326,10.2007065,10.198687,10.196876,10.195587,10.194809,10.194265,10.194006,10.1940155,10.194145,10.194368,10.194707,10.194919,10.194871,10.194782,10.194727,10.194515,10.19396,10.193053,10.191803,10.190144,10.188314,10.186474,10.184429,10.181929,10.179052,10.176126,10.173029,10.169804,10.166864,10.164419,10.162453,10.160916,10.159826,10.159121,10.158469,10.157799,10.156902,10.155554,10.153747,10.151712,10.149612,10.147224,10.144743,10.142602,10.141033,10.139942,10.138994,10.137808,10.135847,10.132737,10.128769,10.124348,10.119867,10.11557,10.111525,10.107713,10.10338,10.0987015,10.093846,10.088881,10.084009,10.079674,10.075905,10.07266,10.070123,10.068413,10.067201,10.065758,10.063446,10.060395,10.056036,10.050348,10.043919,10.037527,10.031647,10.026529,10.022617,10.019664,10.017492,10.016514,10.016573,10.01734,10.018424,10.019236,10.019249,10.018208,10.015549,10.011602
8.656816,7.6591153,6.6013412,5.7809505,5.1141067,4.4291544,3.963305,3.6928744,3.5812888,3.5777202,3.6098247,3.6279716,3.6390753,3.6424184,3.6431594,3.6403983,3.63654,3.632945,3.629424,3.626031,3.6228142,3.6194978,3.6160395,3.6125028,3.6089478,3.6054378,3.6020343,3.5988011,3.5955396,3.5921102,3.5885813,3.5850177,3.581482,3.578039,3.5747478,3.5715141,3.568111,3.564156,3.5624862,3.5632305,3.5644088,3.566154,3.5678773,3.5704074,3.573295,3.5764163,3.5796022,3.5830116,3.5869772,3.590843,3.5950096,3.599393,3.604041,3.6088357,3.6136055,3.61826,3.6226983,3.6278706,3.6334991,3.6394868,3.6456306,3.651835,3.658053,3.66402,3.6699505,3.6761723,3.6829515,3.6894195,3.694978,3.6988602,3.6994858,3.696898,3.6845741,3.6943731,3.7325597,3.872604,4.2620716,4.954672,5.7499905,7.0804777,8.055909,8.682022,9.308346,9.839579,10.037291,10.391322,10.566157,10.6965275,10.800061,10.859144,10.8526,10.797077,10.745941,10.711504,10.672405,10.630804,10.591966,10.562614,10.542695,10.523682,10.500334,10.555568,10.617071,10.667305,10.709177,10.740189,10.759117,10.771685,10.78014,10.786449,10.789591,10.790443,10.789555,10.786144,10.781819,10.777022,10.770779,10.763462,10.755814,10.748344,10.741451,10.735613,10.729918,10.723324,10.715643,10.707361,10.698415,10.688463,10.6779375,10.666971,10.655174,10.642466,10.629873,10.6180935,10.607306,10.597681,10.588833,10.579949,10.570498,10.560558,10.550177,10.539449,10.528657,10.518074,10.507035,10.495441,10.483689,10.47221,10.461321,10.451174,10.441835,10.433144,10.424656,10.416494,10.40862,10.400806,10.392889,10.384973,10.377004,10.368331,10.358753,10.348312,10.337239,10.325922,10.314846,10.304691,10.294733,10.28536,10.276423,10.267756,10.259313,10.251064,10.243071,10.234804,10.225956,10.216717,10.207483,10.198641,10.190437,10.182968,10.175859,10.168552,10.161065,10.153492,10.145973,10.138626,10.131541,10.124599,10.117304,10.109676,10.101868,10.094048,10.086346,10.078896,10.071674,10.064084,10.056223,10.047916,10.039464,10.033863,10.032991,10.031097,10.029154,10.027378,10.025976,10.024979,10.024563,10.02496,10.025976,10.027079,10.028132,10.028448,10.027529,10.026028,10.025256,10.025768,10.026987,10.028678,10.0295925,10.028591,10.025805,10.02228,10.018794,10.015754,10.012703,10.009739,10.006873,10.004001,10.0011635,9.998455,9.995682,9.992483,9.989417,9.987139,9.985672,9.984735,9.984007,9.983013,9.981424,9.979378,9.976971,9.973945,9.97016,9.966307,9.963392,9.960386,9.957398,9.954864,9.952882,9.951294,9.949978,9.948956,9.9481945,9.947384,9.946529,9.945516,9.944138,9.942364,9.94043,9.938477,9.936314,9.934203,9.932529,9.931483,9.930901,9.930393,9.929672,9.928235,9.925663,9.922091,9.917732,9.912875,9.907862,9.903002,9.898359,9.893132,9.887584,9.881917,9.8762245,9.870735,9.865858,9.861592,9.857849,9.854837,9.8527355,9.851229,9.849543,9.846996,9.843714,9.839066,9.8330345,9.826288,9.819561,9.81325,9.807661,9.803354,9.800004,9.7976,9.796624,9.79698,9.798233,9.799815,9.801076,9.801476,9.8007965,9.798433,9.794537
5.3344173,4.543481,4.0148935,3.8115366,3.7439947,3.6803632,3.6358604,3.6106753,3.6001277,3.599454,3.6020842,3.603063,3.602677,3.6007433,3.5981321,3.5947266,3.5910645,3.5874567,3.5839179,3.5805058,3.5772655,3.5739236,3.5704374,3.566871,3.5632858,3.5597467,3.5563138,3.553051,3.549759,3.5462976,3.542736,3.5391407,3.5355728,3.5320988,3.5287776,3.5255146,3.5220804,3.518096,3.5163836,3.517073,3.5181942,3.5198822,3.5215492,3.524017,3.5268388,3.5298913,3.533008,3.5363488,3.540246,3.5440469,3.5481467,3.552462,3.5570374,3.561757,3.5664532,3.5710368,3.5754075,3.5805058,3.5860553,3.5919607,3.5980227,3.604144,3.6102781,3.6161642,3.6220152,3.6281586,3.634724,3.6414015,3.6478922,3.6539254,3.6590805,3.6635022,3.6667366,3.6714923,3.6775575,3.6923275,3.7297835,3.8036203,3.9264798,4.201763,4.6709366,5.383135,6.2903757,7.287327,8.27762,9.166533,9.859785,10.26101,10.553316,10.6800785,10.678612,10.727264,10.765799,10.769774,10.73803,10.685331,10.629953,10.579565,10.538473,10.515425,10.506165,10.502991,10.4765,10.483046,10.538999,10.599927,10.636402,10.658198,10.674967,10.687971,10.695655,10.699192,10.699963,10.697949,10.695328,10.6918125,10.686299,10.679197,10.671114,10.662458,10.653706,10.645464,10.636813,10.626675,10.614936,10.602185,10.588545,10.574114,10.559866,10.5457,10.530665,10.514788,10.499102,10.484332,10.470737,10.458523,10.447269,10.435513,10.423042,10.409956,10.396309,10.382297,10.368341,10.354808,10.3408165,10.326246,10.31098,10.295671,10.281046,10.267293,10.254515,10.242496,10.230623,10.219185,10.208222,10.197546,10.186925,10.1762905,10.165504,10.153657,10.140682,10.126755,10.112223,10.097502,10.083509,10.072708,10.063759,10.060904,10.062618,10.065647,10.068417,10.071029,10.073544,10.076244,10.079078,10.081895,10.083897,10.0849,10.08543,10.085379,10.084956,10.083836,10.0818405,10.078972,10.075386,10.071292,10.066939,10.062487,10.058271,10.054707,10.052143,10.050662,10.050072,10.050085,10.050322,10.050938,10.052102,10.053211,10.0541115,10.055197,10.0564575,10.057042,10.057508,10.057398,10.056896,10.056369,10.056271,10.05691,10.058096,10.059319,10.060732,10.06193,10.062525,10.062666,10.062906,10.063564,10.064436,10.065456,10.065851,10.064773,10.062403,10.05924,10.055214,10.050791,10.046446,10.042229,10.037952,10.033306,10.028292,10.02313,10.0178175,10.012453,10.007705,10.004042,10.001182,9.998864,9.997084,9.995487,9.993514,9.991135,9.988306,9.984777,9.980524,9.97608,9.972141,9.968701,9.965243,9.962043,9.958586,9.954199,9.949015,9.943965,9.939592,9.935734,9.932721,9.930419,9.9281025,9.925445,9.923013,9.921381,9.920334,9.919983,9.920221,9.920677,9.920912,9.920816,9.920705,9.920383,9.919442,9.917995,9.916172,9.913893,9.911163,9.908373,9.905509,9.901473,9.896565,9.890997,9.884889,9.878459,9.872179,9.86659,9.8615885,9.857788,9.8560505,9.856216,9.857084,9.857497,9.857403,9.856657,9.855127,9.853483,9.851839,9.849298,9.845228,9.84051,9.835327,9.83034,9.826602,9.824685,9.824289,9.824537,9.824753,9.824717,9.824406,9.823751,9.8230095
3.7490935,3.5908864,3.5046468,3.4974954,3.5197973,3.5445814,3.560385,3.5686274,3.5703716,3.567688,3.5635948,3.56002,3.556588,3.5532842,3.5498219,3.5462546,3.5426366,3.5390148,3.53546,3.5320313,3.5287664,3.5253978,3.521882,3.5182843,3.5146675,3.5110965,3.5076323,3.5043387,3.5010157,3.4975216,3.4939265,3.4902968,3.4866953,3.483188,3.4798355,3.4765415,3.4730744,3.4690588,3.4673014,3.4679313,3.468993,3.4706192,3.4722266,3.4746284,3.4773796,3.480359,3.4834023,3.48667,3.4904943,3.494226,3.4982536,3.5024934,3.5069914,3.511632,3.5162497,3.5207572,3.525056,3.530076,3.5355408,3.5413585,3.5473309,3.553362,3.5594058,3.5652063,3.5709717,3.5770302,3.5834494,3.5900724,3.5967097,3.603239,3.6095228,3.6156783,3.6223562,3.6281629,3.632505,3.6323702,3.621853,3.6014729,3.5882325,3.5837955,3.6599612,3.824596,4.0671062,4.413436,4.908758,5.5521936,6.4552546,7.5217757,8.716455,9.826183,10.474087,10.6115055,10.722336,10.743808,10.696091,10.693468,10.687753,10.651578,10.618694,10.576115,10.546532,10.51506,10.479618,10.454473,10.435595,10.415607,10.41503,10.469095,10.513094,10.544832,10.562766,10.57218,10.577328,10.578465,10.578104,10.575792,10.570557,10.562809,10.5531025,10.541849,10.529686,10.517361,10.502939,10.4861965,10.467413,10.447079,10.425488,10.403276,10.38177,10.361151,10.339781,10.316411,10.292106,10.268549,10.246685,10.227072,10.210434,10.199459,10.188133,10.175758,10.162968,10.149826,10.13635,10.123314,10.110483,10.096474,10.090366,10.089985,10.090084,10.090645,10.091307,10.092411,10.094469,10.097263,10.100418,10.102655,10.103391,10.104015,10.105156,10.1069145,10.108759,10.1099205,10.109682,10.107883,10.105198,10.103163,10.102243,10.104031,10.107801,10.112289,10.116583,10.1198845,10.121376,10.123216,10.125192,10.127052,10.128517,10.129467,10.129887,10.1296425,10.12907,10.127751,10.125539,10.122415,10.118433,10.113734,10.108619,10.103355,10.098262,10.093996,10.091204,10.090038,10.090206,10.091276,10.09263,10.09433,10.096322,10.097952,10.099236,10.1004925,10.101607,10.102373,10.102434,10.10188,10.101063,10.100346,10.100189,10.100952,10.102478,10.104227,10.106354,10.108419,10.109753,10.110323,10.110674,10.1110325,10.111031,10.110896,10.11003,10.107743,10.104311,10.100555,10.0969095,10.093731,10.090927,10.088522,10.086245,10.083633,10.080645,10.077581,10.074367,10.070572,10.06661,10.062849,10.059225,10.055695,10.052547,10.050053,10.047619,10.045229,10.042805,10.039951,10.036583,10.033222,10.030423,10.027782,10.025349,10.023577,10.021872,10.019234,10.01545,10.011244,10.007132,10.002912,9.998856,9.994969,9.990818,9.986362,9.982349,9.97936,9.977107,9.975754,9.975428,9.975937,9.976849,9.977896,9.979166,9.980229,9.980444,9.979622,9.977671,9.974541,9.970535,9.966401,9.962303,9.9571,9.951117,9.944539,9.937491,9.930347,9.923775,9.918152,9.913429,9.910247,9.909405,9.910666,9.912659,9.913988,9.914514,9.913954,9.912073,9.9096365,9.906971,9.903453,9.898596,9.893185,9.887377,9.881752,9.877513,9.875465,9.875318,9.876036,9.876867,9.877447,9.877615,9.877172,9.876328
3.445661,3.5021658,3.5324879,3.5386405,3.5352206,3.5315242,3.5281749,3.524653,3.521007,3.5173044,3.5136287,3.5100532,3.5066211,3.5033264,3.4998775,3.4963064,3.4926739,3.4890366,3.485465,3.4820192,3.478729,3.4753337,3.4717886,3.4681602,3.4645114,3.4609084,3.4574127,3.4540896,3.4507365,3.4472103,3.4435818,3.439918,3.4362836,3.432743,3.4293594,3.4260345,3.4225361,3.4184897,3.4166865,3.4172556,3.4182553,3.419818,3.4213648,3.423697,3.426375,3.429279,3.4322464,3.4354372,3.4391837,3.4428396,3.4467916,3.450954,3.4553704,3.4599288,3.464464,3.4688897,3.4731107,3.4780474,3.483424,3.489149,3.4950283,3.5009654,3.506915,3.5126252,3.5183008,3.5242658,3.5305781,3.5370839,3.5436075,3.5500336,3.556216,3.5622416,3.5685754,3.5751739,3.5819447,3.588544,3.594882,3.600434,3.6024597,3.596651,3.5728216,3.5236025,3.470353,3.4486146,3.4960172,3.6569858,3.99712,4.509882,5.2644176,6.2334914,7.245803,8.1812,9.085917,9.72238,10.275631,10.417585,10.522899,10.658907,10.618313,10.613123,10.584755,10.557539,10.515554,10.467506,10.409748,10.348384,10.314771,10.312088,10.28879,10.296978,10.33255,10.367533,10.387953,10.399155,10.40309,10.402852,10.396999,10.38645,10.372193,10.355146,10.336277,10.316778,10.301082,10.283483,10.26335,10.243522,10.224958,10.206696,10.189075,10.169729,10.14738,10.131273,10.122435,10.1165285,10.110518,10.10465,10.099089,10.096833,10.093975,10.0897255,10.084881,10.080041,10.075056,10.069845,10.06462,10.059366,10.058307,10.06022,10.062727,10.065947,10.069398,10.073639,10.079436,10.086765,10.0952835,10.103617,10.110646,10.1168995,10.12332,10.130362,10.137309,10.143449,10.148093,10.150956,10.152524,10.154142,10.156319,10.158943,10.161985,10.165477,10.16911,10.172647,10.176706,10.181438,10.187019,10.192404,10.197293,10.201313,10.203642,10.204101,10.203482,10.201771,10.199131,10.195865,10.19217,10.188194,10.184206,10.180295,10.17715,10.174162,10.169448,10.163816,10.159218,10.155455,10.151842,10.148028,10.143787,10.138586,10.132665,10.126801,10.121407,10.116301,10.111204,10.106178,10.101461,10.097282,10.094527,10.093857,10.094344,10.095643,10.097893,10.10022,10.102017,10.103285,10.104273,10.104984,10.104971,10.103996,10.102217,10.099503,10.096275,10.093426,10.091491,10.090688,10.090656,10.091852,10.093912,10.095874,10.097293,10.09837,10.09897,10.098572,10.097223,10.095012,10.091858,10.088032,10.084288,10.081193,10.078238,10.075584,10.073202,10.070704,10.0680065,10.0656185,10.064102,10.063395,10.063596,10.065054,10.066967,10.068082,10.067806,10.066447,10.064419,10.061702,10.058506,10.054923,10.050763,10.046118,10.041631,10.037762,10.0343685,10.031641,10.029949,10.029359,10.029558,10.03023,10.031326,10.032278,10.032335,10.030957,10.027823,10.02286,10.016504,10.009783,10.003183,9.99567,9.987762,9.979625,9.971247,9.9628935,9.955173,9.948359,9.942323,9.937975,9.93655,9.937563,9.939327,9.94075,9.942028,9.943045,9.942371,9.939909,9.936031,9.930782,9.924196,9.917143,9.90942,9.901506,9.895338,9.892042,9.891383,9.891964,9.89217,9.891991,9.891387,9.890194,9.888543
3.5009742,3.4959836,3.49221,3.488491,3.4849033,3.4814754,3.4781253,3.4746017,3.4709618,3.46727,3.4636002,3.4600239,3.4565902,3.4532878,3.4498315,3.446247,3.4425988,3.4389448,3.4353557,3.4318914,3.4285765,3.4251552,3.421581,3.4179225,3.4142435,3.4106095,3.4070837,3.4037318,3.4003499,3.396793,3.3931322,3.389436,3.385769,3.3821974,3.3787837,3.3754294,3.3719,3.367825,3.365977,3.366486,3.367423,3.3689222,3.370407,3.3726702,3.3752742,3.3781023,3.380993,3.3841078,3.3877802,3.3913655,3.3952398,3.3993192,3.4036508,3.4081242,3.4125772,3.416926,3.4210732,3.4259262,3.4312127,3.4368422,3.442624,3.448464,3.4543178,3.4599366,3.4655218,3.471393,3.4776034,3.4840035,3.4904196,3.496738,3.5028148,3.5087311,3.5149493,3.5214205,3.5280504,3.5345325,3.5406628,3.5465143,3.5520225,3.5577054,3.5635912,3.570313,3.574505,3.5699732,3.549734,3.5065575,3.422872,3.3219163,3.3360229,3.5575194,4.0918818,4.9378834,5.848284,6.721429,7.8164215,8.697133,9.399317,9.986378,10.316925,10.382749,10.526119,10.561628,10.533264,10.4900055,10.4425745,10.377729,10.301424,10.244738,10.195617,10.180559,10.178865,10.177539,10.177038,10.178463,10.188974,10.193714,10.194782,10.191896,10.1838665,10.170305,10.152519,10.133785,10.12738,10.123223,10.119606,10.117449,10.117255,10.118309,10.119873,10.119859,10.118031,10.123381,10.135355,10.147416,10.156922,10.166525,10.175049,10.182781,10.189682,10.1951275,10.198334,10.199095,10.198276,10.197388,10.198123,10.19946,10.199398,10.199101,10.200264,10.202546,10.205196,10.209967,10.216839,10.22427,10.229708,10.22932,10.22324,10.2175255,10.2135,10.209158,10.204042,10.197924,10.190581,10.1820545,10.173002,10.164721,10.156521,10.1476345,10.143194,10.145478,10.152916,10.1608715,10.160765,10.157694,10.150478,10.140781,10.129873,10.118444,10.106525,10.093206,10.07947,10.065197,10.050592,10.035803,10.020461,10.004085,9.9870205,9.969902,9.951155,9.934747,9.929261,9.934877,9.945601,9.958483,9.97106,9.98238,9.991723,9.997999,10.001499,10.0033,10.004052,10.003993,10.003801,10.003384,10.002802,10.002701,10.001629,9.998882,9.998817,10.000317,10.003214,10.006257,10.008374,10.00916,10.008863,10.007954,10.006304,10.003675,10.000561,9.99719,9.994276,9.99283,9.993267,9.995508,9.999603,10.002922,10.004709,10.005692,10.006472,10.006754,10.006252,10.004238,10.000278,9.994676,9.987982,9.981208,9.975574,9.971632,9.968809,9.9675,9.967864,9.969136,9.970654,9.97241,9.9746475,9.97804,9.982891,9.988994,9.9949875,9.999217,10.000851,10.000195,9.997965,9.994026,9.988195,9.980774,9.972119,9.96307,9.95491,9.948127,9.942455,9.9382105,9.935812,9.9353485,9.936297,9.937973,9.940193,9.9424305,9.944082,9.944497,9.943147,9.939785,9.934905,9.929784,9.92508,9.920202,9.915409,9.910481,9.905371,9.900553,9.896701,9.894168,9.893466,9.894306,9.894939,9.896166,9.899047,9.901129,9.898518,9.889871,9.8786125,9.867853,9.858773,9.8509655,9.844152,9.838947,9.835356,9.834035,9.831993,9.829419,9.826784,9.822965,9.817867,9.812746,9.807999,9.804422,9.801655
3.4522104,3.448297,3.4445257,3.4408069,3.437215,3.4337835,3.4304342,3.4269123,3.423274,3.4195852,3.4159126,3.4123263,3.4088826,3.40557,3.402103,3.3985028,3.394837,3.3911643,3.387557,3.384074,3.3807378,3.377294,3.3736951,3.3700109,3.3663054,3.3626454,3.3590946,3.3557184,3.3523116,3.3487287,3.3450418,3.341319,3.3376253,3.334028,3.3305902,3.3272114,3.323656,3.3195584,3.31767,3.3181221,3.3190005,3.3204384,3.3218637,3.32406,3.3265924,3.329347,3.3321614,3.3352122,3.3388505,3.3424091,3.3462005,3.350171,3.3544035,3.358787,3.3631687,3.3674822,3.3716016,3.3763785,3.3815694,3.3870919,3.3927598,3.3984914,3.404251,3.4097817,3.4152853,3.4210782,3.4271765,3.4334385,3.4397168,3.44591,3.4518685,3.457677,3.463784,3.4701395,3.4766479,3.4830236,3.4890738,3.4948545,3.5003028,3.5059261,3.511743,3.5176651,3.5235987,3.5294414,3.535104,3.5405002,3.5465755,3.5510643,3.535097,3.4825373,3.408431,3.3698761,3.451198,3.8056245,4.57936,5.7490835,6.8257003,7.8180237,8.832228,9.428028,10.043734,10.297257,10.433773,10.463617,10.436476,10.407862,10.333771,10.273512,10.248062,10.225416,10.177824,10.128773,10.102014,10.089281,10.096458,10.099686,10.1056,10.112351,10.117044,10.117796,10.11491,10.11191,10.120108,10.133379,10.149943,10.166883,10.18065,10.19129,10.2028675,10.215074,10.22859,10.241917,10.253048,10.259748,10.262394,10.264254,10.266756,10.268714,10.273407,10.276421,10.275191,10.271299,10.266809,10.262072,10.251524,10.242298,10.235606,10.228514,10.218092,10.204886,10.191378,10.173733,10.155281,10.135522,10.11293,10.099182,10.099516,10.096803,10.095644,10.093422,10.090033,10.085305,10.078894,10.070986,10.062535,10.05446,10.046566,10.041336,10.020401,9.976143,9.91688,9.850963,9.779398,9.707872,9.624971,9.541615,9.461834,9.388212,9.325798,9.273448,9.228423,9.188076,9.151342,9.116323,9.079787,9.038438,8.991746,8.94111,8.88111,8.820181,8.770788,8.7348175,8.704689,8.676117,8.652418,8.63018,8.6100025,8.592052,8.576199,8.562168,8.549622,8.538401,8.528208,8.519543,8.512733,8.508041,8.5011215,8.489269,8.4801235,8.471604,8.463187,8.454918,8.446365,8.437757,8.430176,8.424492,8.4206085,8.418564,8.418335,8.419598,8.422533,8.427889,8.436047,8.446651,8.460579,8.472642,8.480936,8.48645,8.490257,8.492361,8.493336,8.493222,8.49219,8.490519,8.488451,8.486467,8.4851265,8.484472,8.483959,8.483485,8.483002,8.482073,8.480679,8.479376,8.478611,8.478659,8.479596,8.481038,8.481852,8.480736,8.47709,8.471403,8.464649,8.457092,8.449402,8.442622,8.43708,8.432541,8.428787,8.425532,8.42203,8.418359,8.4147415,8.411266,8.407934,8.40492,8.402547,8.400505,8.398174,8.394955,8.390108,8.383289,8.375025,8.366522,8.358231,8.349592,8.340864,8.332119,8.323626,8.31572,8.30852,8.302085,8.296452,8.290321,8.280378,8.268822,8.259018,8.248306,8.231074,8.204737,8.177059,8.154287,8.138386,8.1285515,8.12388,8.123741,8.1284275,8.137973,8.145306,8.148901,8.149185,8.145987,8.141527,8.137787,8.135458,8.135427,8.136439
3.4088857,3.4050214,3.4012506,3.3975275,3.393923,3.390479,3.3871138,3.383574,3.3799171,3.3762095,3.372518,3.3689127,3.3654497,3.3621187,3.3586323,3.3550124,3.351327,3.3476343,3.344006,3.340503,3.3371482,3.3336854,3.3300676,3.3263643,3.3226397,3.3189607,3.3153915,3.3119981,3.3085737,3.3049726,3.3012676,3.2975268,3.2938151,3.2902002,3.286745,3.28335,3.2797775,3.2756662,3.2737396,3.2741287,3.2749443,3.276319,3.2776852,3.2798157,3.2822824,3.2849722,3.287717,3.29072,3.2943711,3.2979555,3.301663,3.305501,3.3096242,3.3139236,3.318257,3.3225908,3.3267345,3.331444,3.336536,3.3419404,3.347478,3.3530917,3.3587623,3.3642123,3.3696485,3.375382,3.381361,3.387453,3.3935661,3.399618,3.4054472,3.4111593,3.4171724,3.4234362,3.4298522,3.4361484,3.4421387,3.447866,3.453269,3.458849,3.4646187,3.470492,3.4763741,3.4821644,3.487773,3.4931092,3.4985297,3.5042124,3.51006,3.5162525,3.5211716,3.5214057,3.513523,3.4831314,3.4737284,3.5404532,3.9304504,4.767554,5.9842844,7.4097157,8.557567,9.322176,9.943769,10.230471,10.277807,10.337709,10.368797,10.307453,10.248933,10.2161045,10.202338,10.197399,10.198681,10.201727,10.195752,10.1895275,10.188154,10.190761,10.197418,10.207583,10.219038,10.230253,10.238781,10.247753,10.256338,10.2614155,10.255045,10.2380495,10.224378,10.210083,10.1963215,10.182657,10.168207,10.156601,10.146012,10.128031,10.107859,10.087196,10.063625,10.042114,10.021324,9.995742,9.965687,9.93741,9.886421,9.829582,9.771437,9.703335,9.6227,9.538771,9.456211,9.358556,9.25551,9.15355,9.053648,9.001074,9.011877,9.014952,9.017757,9.02086,9.024215,9.027587,9.030352,9.032269,9.033865,9.035711,9.03821,9.049931,9.004124,8.872927,8.684147,8.479577,8.300774,8.13672,7.963987,7.8003616,7.6500597,7.5158606,7.4081097,7.327071,7.2631264,7.2107043,7.167188,7.1281033,7.0871696,7.0382013,6.9788823,6.9100475,6.826391,6.730057,6.6105423,6.474933,6.3357506,6.1938334,6.06583,5.9454193,5.836447,5.742819,5.6636596,5.5959272,5.5376177,5.487482,5.4422655,5.403086,5.3707643,5.3437405,5.319334,5.2952814,5.270626,5.2440033,5.215088,5.186372,5.1601076,5.138605,5.123567,5.1149683,5.112116,5.114439,5.121556,5.1323104,5.14549,5.1606894,5.178055,5.1973066,5.219948,5.244783,5.26892,5.289131,5.3041496,5.315417,5.3252926,5.3360415,5.3495355,5.365032,5.380456,5.3939376,5.4043455,5.4108553,5.413313,5.410539,5.4018164,5.3883924,5.3727827,5.3575172,5.344099,5.3315587,5.318539,5.305275,5.2920966,5.2792215,5.266755,5.255,5.244484,5.2367406,5.2347374,5.2402096,5.2522564,5.267022,5.2799835,5.2893643,5.29429,5.2940955,5.288686,5.278281,5.264445,5.2497444,5.235718,5.2223434,5.208748,5.1943684,5.178503,5.160964,5.142061,5.1222916,5.10164,5.0788646,5.0550647,5.0316877,5.0094175,4.987509,4.964661,4.940295,4.911962,4.8800178,4.846499,4.8125343,4.7784324,4.745289,4.715106,4.686813,4.6616755,4.6416683,4.627714,4.620081,4.6182346,4.620373,4.6263313,4.6347475,4.6446705,4.6543527,4.6626177,4.6698093,4.677023,4.685242,4.6949444,4.7051544,4.714239
3.3678226,3.363998,3.3602285,3.3565006,3.3528862,3.349432,3.3460546,3.3425012,3.3388305,3.3351073,3.3314033,3.3277884,3.324316,3.320971,3.3174677,3.3138356,3.3101416,3.3064313,3.3027732,3.2992415,3.2958646,3.2923784,3.2887402,3.2850177,3.2812748,3.2775779,3.2739913,3.2705812,3.2671406,3.2635224,3.2597995,3.2560406,3.2523108,3.2486787,3.2452073,3.241796,3.238206,3.2340875,3.2320957,3.2323685,3.2330785,3.2343583,3.2356472,3.2377028,3.2401128,3.2427602,3.2454565,3.2484088,3.2520347,3.2556167,3.2592623,3.263015,3.267075,3.271344,3.2756705,3.2800086,3.2841382,3.2887788,3.2937813,3.2990847,3.3045135,3.3100276,3.3156185,3.3209958,3.3263655,3.332037,3.3379102,3.3438616,3.349838,3.3557725,3.361494,3.367118,3.3730433,3.379219,3.3855443,3.3917618,3.3976936,3.4033704,3.408732,3.4142728,3.4199886,3.425795,3.4316163,3.4373565,3.4429169,3.4481926,3.4535487,3.4591575,3.4649258,3.4707208,3.4763532,3.48159,3.4861646,3.4895082,3.4944706,3.4993212,3.541348,3.6394615,3.8755512,4.4414663,5.4688597,7.1505446,8.715494,9.656891,9.965666,10.009938,10.106567,10.127348,10.167038,10.195211,10.195487,10.183474,10.180315,10.187402,10.199149,10.208281,10.21754,10.226196,10.233318,10.238252,10.238209,10.227287,10.197325,10.1626835,10.126149,10.072676,10.000784,9.9281435,9.86594,9.80659,9.751942,9.6936455,9.63131,9.5918255,9.581774,9.56659,9.538864,9.513227,9.426187,9.361378,9.321868,9.2361965,9.096779,8.978342,8.855833,8.680534,8.460031,8.204038,7.947222,7.7225266,7.509116,7.301133,7.0992956,6.9091854,6.70407,6.5008926,6.335647,6.1939173,6.0701365,5.9574714,5.855178,5.7627525,5.679414,5.603772,5.5338774,5.4669776,5.396085,5.3179626,5.22968,5.13288,5.0340576,4.9410906,4.8602104,4.786048,4.7165356,4.652954,4.5970287,4.5507126,4.5159206,4.4934115,4.475185,4.460512,4.4496155,4.4406824,4.4321165,4.4232063,4.4131484,4.401425,4.387985,4.3719234,4.3528805,4.331875,4.3105826,4.2903395,4.2720633,4.2551374,4.240271,4.228741,4.2201657,4.2133026,4.2075047,4.202439,4.1974897,4.1928797,4.188821,4.18522,4.1817865,4.178191,4.1742206,4.169685,4.164614,4.1595807,4.1551943,4.1519117,4.149859,4.1488123,4.148491,4.1486664,4.1491423,4.1496286,4.1499023,4.149974,4.150005,4.1500826,4.1503096,4.1506157,4.150654,4.1500845,4.1489205,4.1475477,4.1464796,4.1460686,4.14671,4.148247,4.150115,4.151691,4.1525145,4.1523695,4.1513214,4.149171,4.146,4.1422544,4.1384535,4.1349096,4.1316338,4.128241,4.124378,4.120303,4.116452,4.113192,4.1105638,4.1083326,4.106286,4.1044636,4.1033425,4.1032486,4.1040344,4.105075,4.1057186,4.105754,4.105035,4.103606,4.1015525,4.099037,4.096384,4.0939207,4.091695,4.0894217,4.0868244,4.0837936,4.080429,4.0770283,4.0737476,4.0704317,4.0668335,4.0625987,4.057843,4.0529485,4.048279,4.0438523,4.0394382,4.0349493,4.0298758,4.0242386,4.0182514,4.012163,4.0061865,4.000555,3.9956832,3.9916024,3.9883733,3.9860573,3.9844396,3.983275,3.982514,3.9822843,3.9828472,3.9842558,3.9860697,3.98772,3.9889622,3.9899416,3.99092,3.9920745,3.9933267,3.9942584,3.9945984
3.3248138,3.3210244,3.3172565,3.3135257,3.3099003,3.306436,3.3030457,3.2994788,3.295793,3.2920513,3.288346,3.2847605,3.2813134,3.2779622,3.274446,3.2708254,3.267168,3.2634456,3.259703,3.2560916,3.252666,3.2491293,3.245461,3.2417192,3.2379584,3.2342453,3.2306437,3.22722,3.2237654,3.2201314,3.2163916,3.2126155,3.2088685,3.205224,3.201727,3.1981034,3.1941261,3.1894822,3.1880953,3.189885,3.1918218,3.194017,3.1958473,3.198219,3.2003918,3.2025006,3.2048225,3.2077231,3.2113452,3.2145734,3.217791,3.220965,3.2242274,3.227265,3.2302964,3.2340178,3.2381191,3.242692,3.2476864,3.253068,3.2586412,3.2643409,3.2701216,3.2756064,3.2808974,3.2864778,3.2922623,3.2981257,3.3040233,3.309896,3.3155584,3.321108,3.3269506,3.3330371,3.3392649,3.3454008,3.3512769,3.3569074,3.3622382,3.3677602,3.3733835,3.3790393,3.384738,3.390421,3.3959343,3.4011528,3.4064474,3.4119868,3.417677,3.4233909,3.429021,3.434487,3.4396844,3.4449866,3.44916,3.449545,3.4452639,3.4353862,3.4400702,3.52067,3.7762403,4.2970805,5.2634306,6.7516294,8.291433,9.28271,9.659948,9.81646,9.732448,9.789898,9.880735,9.919978,9.944006,9.9705715,9.989847,9.999325,9.997509,9.982831,9.955883,9.914532,9.8605,9.812912,9.836288,9.800009,9.612447,9.331167,9.054241,8.825642,8.657155,8.563968,8.430997,8.256377,8.053747,7.839176,7.622285,7.4063463,7.1883955,6.967503,6.685358,6.4029484,6.159607,5.945243,5.753541,5.6000943,5.4614763,5.322007,5.1863365,5.055456,4.93598,4.8380938,4.759542,4.686638,4.616503,4.5510445,4.4846354,4.4198475,4.3645267,4.3177586,4.277236,4.24047,4.206952,4.1764708,4.1488504,4.123625,4.1000204,4.0771,4.05252,4.025055,3.9968224,3.9695015,3.9438598,3.9206066,3.8999262,3.8804896,3.8629804,3.8471293,3.8333695,3.8223672,3.8144016,3.8096242,3.806094,3.8036194,3.8021939,3.801321,3.8007812,3.8006463,3.8007102,3.8007913,3.8008947,3.800466,3.7997856,3.7988882,3.7979708,3.7977915,3.7980876,3.7990944,3.801032,3.803989,3.8075123,3.8109398,3.813872,3.8161302,3.8177075,3.8187857,3.8195505,3.8201895,3.8207872,3.8212504,3.8213706,3.821152,3.8206532,3.8201113,3.8198333,3.8199463,3.8203216,3.820718,3.820922,3.820725,3.8198905,3.8182583,3.8158076,3.8127465,3.8094285,3.8060732,3.8025236,3.7988615,3.7950344,3.7910116,3.7869496,3.783135,3.7798443,3.7770994,3.7750807,3.7737303,3.7727714,3.7718554,3.770699,3.769215,3.7674584,3.765406,3.7632947,3.761434,3.7599998,3.7589202,3.7579532,3.756773,3.7551908,3.7533655,3.7516057,3.7501833,3.749096,3.748076,3.7468739,3.7453358,3.7435758,3.741782,3.740065,3.7383914,3.736708,3.7350779,3.7334244,3.731935,3.7307525,3.7299633,3.7295792,3.7295003,3.7295337,3.729419,3.7290075,3.7282522,3.727333,3.7265744,3.726099,3.7256804,3.7250834,3.7240672,3.7225523,3.7207758,3.7190957,3.7177012,3.716593,3.71578,3.7151265,3.7146232,3.71422,3.7139423,3.7138443,3.7139378,3.714344,3.715156,3.7162452,3.7173164,3.7179718,3.7179673,3.7173896,3.7165754,3.715846,3.715385,3.7150626,3.7146654,3.7141383,3.7135887,3.7131493,3.7129083,3.7127705,3.7124956,3.7119818
