29.991673,30.23003,30.470589,30.731047,31.053764,31.446548,31.904682,32.402615,32.891506,33.35663,33.902664,34.667747,36.177284,37.927887,39.98569,42.375664,44.42765,45.773506,46.90126,47.604256,48.032974,48.299385,48.457497,48.566887,48.64269,48.672485,48.7025,48.744896,48.793236,48.836426,48.810364,48.638863,48.50152,48.427704,48.35201,48.322495,48.371483,48.384483,48.21247,47.93159,47.556892,47.191982,46.90703,46.64347,46.31452,45.949905,45.674347,45.40281,45.252495,45.133377,44.998848,44.880344,44.81062,44.786118,44.77475,44.75409,44.73835,44.649918,44.456253,44.207962,43.95214,43.757095,43.581547,43.431892,43.250397,42.98532,42.68351,42.459152,42.350395,42.229607,42.06047,41.883404,41.71568,41.532364,41.306847,41.026962,40.69722,40.3667,40.01832,39.66358,39.285416,38.86601,38.48133,38.07235,37.622353,37.156567,36.705112,36.305824,35.983704,35.730972,35.527767,35.35382,35.184765,34.999176,34.792564,34.57231,34.345448,34.11355,33.86451,33.581028,33.25824,32.90117,32.520477,32.135048,31.775799,31.405804,31.132416,30.944874,30.85043,30.786205,30.646126,30.456789,30.283182,30.120113,30.00241,29.952787,29.978333,30.019554,29.973171,29.937168,29.880356,29.778713,29.66367,29.610014,29.612099,29.580635,29.56071,29.555782,29.564259,29.580402,29.59597,29.604914,29.611103,29.630919,29.672607,29.713228,29.747389,29.773298,29.778378,29.753025,29.713873,29.678734,29.628279,29.565773,29.493353,29.403051,29.29279,29.179455,29.064514,28.936604,28.800724,28.66327,28.530804,28.426758,28.373137,28.318161,28.265314,28.207657,28.149101,28.09011,28.025623,27.952564,27.872852,27.779922,27.673908,27.554708,27.431509,27.326637,27.249077,27.175499,27.135544,27.100048,27.060741,27.017637,26.978603,26.928093,26.827274,26.714266,26.648151,26.590828,26.484207,26.342041,26.206203,26.074343,25.97077,25.860811,25.731985,25.570503,25.42617,25.337154,25.28011,25.263014,25.274136,25.290966,25.305609,25.322947,25.329851,25.31152,25.29669,25.288158,25.192879,25.09483,25.019743,24.952751,24.891935,24.836359,24.788284,24.749735,24.721382,24.689823,24.64685,24.599524,24.561316,24.54177,24.557718,24.605366,24.666346,24.708736,24.662506,24.473724,24.218819,23.906246,23.531967,23.197063,22.961445,22.814945,22.72071,22.64296,22.566406,22.514849,22.561115,22.752586,23.132706,23.674393,24.227486,24.78107,25.297882,25.716282,26.06879,26.418728,26.7506,26.988209,27.163532,27.3194,27.45929,27.558037,27.608173,27.60849,27.508556,27.197683,26.66623,25.301735,23.862259,22.815018,22.15602,21.867895,21.844322,21.922064,22.00592,22.074804,22.159834,22.262074,22.470066,22.984768,23.4123,23.772892,24.289293,24.824558,25.364117,25.71809,25.220144,24.033527,16.991726,12.404839,11.124377,11.01053,10.981314,10.942814,10.941824,10.956531,10.970886,10.984108,10.997284,11.018921,11.058599,11.10636,11.174155,11.25693,11.349237,11.437899,11.503997,11.5383215,11.550356,11.544474,11.532643,11.515021,11.493043,11.470769,11.452251,11.439277,11.433729,11.4316845,11.431197,11.426498,11.409559,11.3791895
30.110184,30.373198,30.641064,30.928753,31.276838,31.692965,32.169697,32.67672,33.167168,33.636322,34.19375,34.98504,36.52571,38.315002,40.43641,42.881332,44.94156,46.32834,47.447018,48.109943,48.50821,48.782387,48.969845,49.09053,49.147327,49.162315,49.141407,49.11927,49.111076,49.112137,49.08101,48.96216,48.802406,48.7082,48.66671,48.65349,48.6773,48.698387,48.616188,48.443016,48.190823,47.937607,47.767498,47.59218,47.337677,47.07242,46.820225,46.557304,46.300262,46.10115,45.938248,45.794174,45.696236,45.64466,45.610428,45.570675,45.530136,45.47908,45.410347,45.32101,45.20272,45.05967,44.85805,44.616608,44.35117,44.10116,43.9162,43.81661,43.78704,43.795906,43.811577,43.783623,43.66976,43.435745,43.07032,42.617744,42.097893,41.532497,40.97994,40.477722,40.02459,39.60532,39.21979,38.818787,38.3788,37.918526,37.463326,37.049057,36.703888,36.42726,36.199707,36.002556,35.81832,35.623413,35.400032,35.142323,34.85701,34.557533,34.23681,33.892662,33.540783,33.194057,32.854687,32.525356,32.221897,31.91907,31.607582,31.33802,31.11858,30.943392,30.829834,30.785088,30.742397,30.678703,30.602684,30.513329,30.424767,30.33114,30.19063,30.076405,30.046913,30.050755,30.07349,30.101002,30.11151,30.103073,30.0866,30.077599,30.072887,30.072456,30.072521,30.069496,30.065926,30.066715,30.0722,30.074816,30.072521,30.064632,30.04562,30.010609,29.96557,29.910755,29.839115,29.75682,29.666645,29.57047,29.470129,29.365822,29.259298,29.1391,29.010487,28.880798,28.757822,28.64723,28.555094,28.496826,28.441381,28.37816,28.31495,28.257051,28.201977,28.146496,28.088274,28.026825,27.963581,27.909588,27.853554,27.791733,27.741636,27.708298,27.665619,27.601057,27.521997,27.450745,27.389215,27.316185,27.222229,27.127062,26.967155,26.77915,26.573896,26.38285,26.234676,26.11172,26.004448,25.927929,25.83582,25.733479,25.629383,25.53102,25.457254,25.415728,25.413128,25.433298,25.440208,25.43332,25.422977,25.407583,25.394798,25.33183,25.248932,25.172342,25.105766,25.044477,24.988186,24.936113,24.890568,24.853062,24.82328,24.786829,24.737638,24.684319,24.638641,24.612823,24.624271,24.66947,24.729048,24.771587,24.726261,24.535954,24.277012,23.961346,23.582153,23.243328,23.006008,22.857742,22.759596,22.676903,22.594517,22.538052,22.579369,22.766966,23.149345,23.699568,24.256626,24.799704,25.318884,25.741772,26.098316,26.454117,26.773064,26.958054,27.123375,27.270786,27.402225,27.494926,27.54377,27.547821,27.456757,27.161678,26.652637,25.27884,23.832558,22.796345,22.148575,21.862267,21.844776,21.923195,22.008228,22.081173,22.175438,22.29433,22.519798,23.02835,23.34917,23.722782,24.299194,24.90971,25.413311,25.552277,24.334612,19.23661,13.812197,11.451988,11.052143,10.996039,10.983371,10.956276,10.974157,10.983656,10.995766,11.003618,11.017712,11.053026,11.106377,11.164749,11.237343,11.319714,11.405354,11.483919,11.540428,11.567307,11.574043,11.5660095,11.553863,11.537771,11.518225,11.498728,11.4826565,11.470147,11.462624,11.457968,11.454706,11.448189,11.431813,11.403966
30.264736,30.55777,30.856152,31.17273,31.545036,31.980465,32.471493,32.981544,33.469215,33.947987,34.521942,35.35814,36.92266,38.746727,40.934166,43.420773,45.46368,46.88121,47.961365,48.60282,48.992912,49.264347,49.46663,49.61701,49.678497,49.680832,49.640156,49.567017,49.48108,49.40207,49.32479,49.21743,49.055855,48.920845,48.86092,48.865383,48.88087,48.862587,48.79885,48.69097,48.533127,48.366016,48.243477,48.126305,47.968845,47.794495,47.616135,47.42547,47.201252,46.999367,46.777542,46.55237,46.408535,46.310715,46.235504,46.160088,46.032967,45.909515,45.823444,45.72989,45.593147,45.415344,45.167007,44.874268,44.582726,44.3384,44.174816,44.10144,44.091827,44.129913,44.18753,44.192814,44.089813,43.846367,43.45729,42.971825,42.414143,41.80436,41.21479,40.68959,40.23296,39.832115,39.474503,39.111412,38.709213,38.318565,37.93197,37.5503,37.20424,36.905464,36.66653,36.46087,36.276016,36.10221,35.927216,35.724808,35.470398,35.17689,34.839783,34.472023,34.10158,33.741264,33.397774,33.083122,32.800446,32.53623,32.266064,32.006313,31.762312,31.544044,31.373636,31.258621,31.182865,31.102407,31.002605,30.886745,30.771126,30.687054,30.662552,30.643257,30.654516,30.68029,30.714108,30.73767,30.732597,30.70483,30.668581,30.637215,30.601719,30.562761,30.53982,30.530548,30.506496,30.471924,30.43291,30.397182,30.369402,30.35041,30.333248,30.308554,30.275265,30.22752,30.159786,30.078087,29.98944,29.8825,29.75183,29.623734,29.49685,29.377777,29.266424,29.158222,29.0548,28.961487,28.880505,28.81556,28.749111,28.68218,28.621758,28.570156,28.516684,28.44983,28.379168,28.323996,28.257153,28.162014,28.01445,27.841572,27.685818,27.512482,27.379269,27.246647,27.098106,26.961483,26.863304,26.788923,26.707859,26.623531,26.505856,26.364788,26.238913,26.143642,26.06837,26.00798,25.955227,25.912184,25.85712,25.792093,25.716106,25.657501,25.652885,25.647608,25.603886,25.577204,25.556868,25.537682,25.514538,25.476582,25.434093,25.374546,25.312153,25.253637,25.198193,25.144924,25.094765,25.047066,25.004135,24.966946,24.934631,24.892262,24.836819,24.778316,24.725353,24.694088,24.701735,24.745323,24.802391,24.842861,24.79639,24.602024,24.338043,24.016457,23.627947,23.28191,23.041378,22.890892,22.789082,22.701946,22.614296,22.553612,22.591013,22.777,23.162704,23.721828,24.29004,24.823193,25.355415,25.779171,26.130604,26.48302,26.782974,26.926437,27.075905,27.205767,27.322659,27.40551,27.450806,27.458883,27.379717,27.106466,26.626337,25.263779,23.81397,22.779545,22.140375,21.855564,21.841145,21.918198,22.001251,22.07556,22.170794,22.296227,22.527197,23.000355,23.246048,23.665401,24.296646,24.893951,25.23953,24.596622,21.574024,15.13891,12.036264,11.124727,11.039783,11.024216,10.985172,10.987734,10.998367,11.005907,11.011284,11.019266,11.042854,11.090212,11.153884,11.218576,11.2915745,11.369747,11.446227,11.513422,11.560073,11.580112,11.582544,11.573843,11.563071,11.55019,11.534529,11.518795,11.5053835,11.49285,11.483408,11.476135,11.469929,11.461304,11.445145,11.419784
30.446634,30.774462,31.105309,31.449806,31.843395,32.292427,32.793747,33.3031,33.78781,34.288284,34.888607,35.794685,37.374237,39.223885,41.480038,43.994385,45.982788,47.41796,48.45073,49.0782,49.47473,49.75542,49.969246,50.142548,50.242664,50.235546,50.18257,50.078907,49.941265,49.802605,49.684784,49.580284,49.44261,49.305397,49.20496,49.14162,49.08487,49.0157,48.945137,48.88462,48.794975,48.68629,48.598206,48.523415,48.429394,48.308872,48.16883,47.970997,47.80761,47.58483,47.29038,47.025566,46.862343,46.75736,46.67363,46.589684,46.467453,46.34099,46.228886,46.09813,45.92629,45.716545,45.43171,45.114864,44.81266,44.58692,44.465473,44.41248,44.396103,44.401894,44.41811,44.403107,44.294865,44.040894,43.6399,43.155785,42.606007,42.013668,41.440308,40.932125,40.50376,40.132034,39.770397,39.392075,38.9913,38.55858,38.082726,37.60309,37.188385,36.870132,36.637054,36.459312,36.3041,36.137215,35.932365,35.674446,35.367973,35.04255,34.690224,34.325104,33.974415,33.649864,33.353737,33.093613,32.876564,32.65328,32.444897,32.24463,32.049503,31.862053,31.688221,31.54691,31.480959,31.458118,31.450352,31.412941,31.350212,31.305584,31.294418,31.314003,31.321396,31.318298,31.269566,31.161713,31.039627,30.949951,30.842716,30.742355,30.648293,30.564869,30.503864,30.459396,30.409615,30.3583,30.307896,30.262863,30.226757,30.199278,30.172775,30.137758,30.09291,30.032413,29.948282,29.846466,29.73436,29.608126,29.468472,29.335907,29.20884,29.08588,28.97246,28.866602,28.768524,28.68152,28.60522,28.534164,28.463528,28.397303,28.340733,28.29355,28.245327,28.18585,28.122902,28.07106,28.000788,27.902534,27.771101,27.630144,27.505281,27.373909,27.273369,27.177322,27.067469,26.95447,26.861553,26.790054,26.718966,26.644571,26.565916,26.473642,26.390545,26.32402,26.263605,26.211147,26.165905,26.119907,26.071953,26.02359,25.974865,25.939533,25.920898,25.857752,25.781528,25.727016,25.669847,25.612709,25.56557,25.518429,25.47256,25.431187,25.38548,25.34063,25.296085,25.25095,25.206528,25.16224,25.120434,25.081696,25.045418,24.996498,24.935986,24.875042,24.816868,24.782299,24.788269,24.83053,24.88467,24.921894,24.871532,24.66957,24.39751,24.068264,23.665758,23.308998,23.064232,22.911749,22.807426,22.717213,22.625685,22.56216,22.597492,22.781343,23.174332,23.754519,24.339354,24.87959,25.427021,25.85318,26.195923,26.520473,26.780548,26.91024,27.042427,27.151161,27.245487,27.31167,27.3497,27.359608,27.292408,27.043518,26.595928,25.261501,23.814703,22.774994,22.13769,21.851955,21.837414,21.91045,21.987686,22.058296,22.149426,22.270004,22.480377,22.888939,23.112814,23.554234,24.176905,24.630007,24.63343,22.619545,16.941673,12.637709,11.3016205,11.058762,11.06363,11.058421,11.011871,11.026742,11.023367,11.025722,11.024748,11.037109,11.073385,11.131554,11.202067,11.268713,11.337249,11.406625,11.470656,11.524546,11.56065,11.5744,11.573736,11.565922,11.558252,11.550224,11.53989,11.528366,11.517175,11.504972,11.493877,11.484435,11.475587,11.464856,11.448513,11.425499
30.65038,31.014942,31.379019,31.74886,32.15998,32.617996,33.11963,33.622257,34.108913,34.63836,35.2772,36.275734,37.86547,39.73214,42.058296,44.586494,46.478767,47.909904,48.892357,49.501656,49.904556,50.202904,50.43222,50.618347,50.75258,50.761124,50.701553,50.582855,50.42736,50.249268,50.06375,49.900917,49.760807,49.646355,49.551003,49.4609,49.384415,49.304466,49.18989,49.12986,49.0726,49.0003,48.939873,48.86901,48.76777,48.659946,48.54035,48.35791,48.18684,47.934113,47.63871,47.39856,47.235985,47.12675,47.03525,46.94172,46.840996,46.72787,46.59223,46.423164,46.219654,45.986206,45.694202,45.392166,45.13148,44.932247,44.801796,44.74917,44.748306,44.77669,44.81147,44.788483,44.654976,44.37303,43.93496,43.406345,42.8363,42.23826,41.65277,41.126358,40.676605,40.27275,39.86871,39.44143,38.94871,38.398018,37.816048,37.265877,36.818916,36.502094,36.281883,36.132343,36.009205,35.856316,35.62885,35.319942,34.965122,34.607994,34.240498,33.87861,33.547943,33.26104,33.016438,32.81315,32.658577,32.49029,32.331123,32.177605,32.022858,31.865128,31.71344,31.590843,31.522102,31.515759,31.55669,31.594162,31.613747,31.621723,31.597202,31.592567,31.560583,31.501411,31.386683,31.211176,31.028791,30.893326,30.746138,30.607006,30.48317,30.377438,30.288643,30.213402,30.148634,30.09507,30.047668,30.003311,29.962091,29.923227,29.882137,29.833492,29.777231,29.707964,29.61773,29.508284,29.38299,29.254856,29.13575,29.022808,28.916122,28.802544,28.690792,28.586794,28.493536,28.410519,28.335024,28.26718,28.202164,28.140503,28.08646,28.041943,28.002378,27.961277,27.919548,27.87444,27.815802,27.750303,27.68729,27.630325,27.581852,27.548855,27.512245,27.470367,27.416632,27.349133,27.276108,27.206886,27.141827,27.0775,27.006554,26.923456,26.834143,26.747768,26.668636,26.597326,26.533722,26.473347,26.414246,26.366283,26.324207,26.259668,26.15356,26.03098,25.942335,25.862568,25.765549,25.673264,25.610334,25.56682,25.533823,25.501966,25.465973,25.430836,25.395115,25.356976,25.317242,25.275303,25.233622,25.192547,25.152172,25.098938,25.03567,24.973103,24.912329,24.876379,24.88233,24.92296,24.972424,25.005394,24.950869,24.73893,24.45311,24.114964,23.693794,23.32352,23.074741,22.921383,22.81645,22.72499,22.631363,22.566572,22.603764,22.783737,23.182703,23.794847,24.408968,24.978298,25.543724,25.972616,26.30161,26.578949,26.782581,26.911194,27.029922,27.120872,27.193579,27.241426,27.269485,27.27893,27.221931,26.996103,26.573128,25.27518,23.833073,22.781235,22.141022,21.85011,21.832539,21.899376,21.968365,22.032135,22.114681,22.220348,22.390453,22.716347,22.988838,23.398766,23.867115,24.121967,22.897099,18.88808,13.239368,11.570061,11.074406,11.071808,11.118213,11.097204,11.066969,11.069653,11.057295,11.049204,11.046426,11.0654745,11.111063,11.175417,11.246744,11.309822,11.369467,11.426563,11.476643,11.517396,11.544064,11.55326,11.551388,11.545912,11.54238,11.539723,11.534927,11.527185,11.517199,11.504961,11.492672,11.481916,11.471273,11.459272,11.443569,11.42325
30.872578,31.273895,31.671835,32.064796,32.49085,32.953228,33.441284,33.929916,34.42419,34.981876,35.666786,36.77377,38.37202,40.250443,42.637505,45.159294,46.92968,48.328766,49.258553,49.841984,50.243126,50.554596,50.800346,50.99636,51.13809,51.179955,51.133522,51.009117,50.83043,50.60099,50.33097,50.075905,49.894463,49.775093,49.707542,49.674942,49.674625,49.651764,49.53813,49.453987,49.383587,49.3144,49.250084,49.156258,49.0297,48.918198,48.82096,48.703598,48.491394,48.238914,47.993332,47.778114,47.604782,47.46226,47.337234,47.21122,47.075768,46.927433,46.75598,46.549126,46.311234,46.055157,45.777916,45.508747,45.281013,45.066936,44.879707,44.81369,44.852062,44.95369,45.07361,45.068268,44.90422,44.596596,44.12529,43.537796,42.89418,42.246105,41.622223,41.05373,40.54476,40.066994,39.606483,39.128128,38.54725,37.95427,37.39721,36.904198,36.506382,36.21037,36.00306,35.862873,35.758156,35.641804,35.464256,35.20311,34.880245,34.535316,34.16547,33.797348,33.460785,33.170227,32.928314,32.73529,32.589615,32.45799,32.32512,32.18746,32.043106,31.892662,31.745363,31.618315,31.503466,31.42583,31.394674,31.414486,31.464828,31.509415,31.527502,31.50935,31.444714,31.337313,31.210464,31.077091,30.937635,30.798649,30.669312,30.546116,30.433815,30.331188,30.241812,30.167686,30.103706,30.048695,29.996784,29.946247,29.89709,29.849815,29.802929,29.753738,29.702274,29.64301,29.570019,29.481886,29.379158,29.27367,29.176235,29.082264,28.99226,28.89843,28.804277,28.715082,28.63493,28.563967,28.499985,28.442307,28.386326,28.332024,28.28388,28.243656,28.20752,28.171276,28.13728,28.096752,28.049122,27.994766,27.93571,27.876537,27.822548,27.776363,27.730515,27.680637,27.620335,27.550978,27.480553,27.41507,27.354889,27.29782,27.236944,27.165342,27.089203,27.015404,26.945503,26.880775,26.821507,26.762281,26.701252,26.633076,26.552334,26.438969,26.29031,26.18285,26.088203,25.968067,25.84306,25.74723,25.686352,25.643131,25.611996,25.583153,25.551697,25.522263,25.492554,25.459606,25.423443,25.383396,25.342068,25.299702,25.257244,25.203117,25.139288,25.07526,25.013783,24.97728,24.98345,25.021217,25.064447,25.093098,25.034225,24.808651,24.504227,24.153889,23.71191,23.327843,23.076088,22.923445,22.819878,22.728886,22.63477,22.570038,22.61314,22.789036,23.193937,23.84642,24.49564,25.104454,25.69091,26.124279,26.43347,26.656677,26.802975,26.924513,27.036346,27.115147,27.173004,27.207968,27.227245,27.233086,27.180916,26.971943,26.56508,25.30223,23.858486,22.788551,22.14463,21.845078,21.82316,21.882843,21.943283,22.000023,22.07086,22.15614,22.281557,22.520512,22.835415,23.178932,23.458494,23.179552,20.16756,14.850849,11.930317,11.227035,11.032913,11.138272,11.198718,11.160528,11.139364,11.125128,11.106616,11.08765,11.08638,11.111959,11.162085,11.226722,11.292715,11.347386,11.395119,11.438236,11.474474,11.503457,11.522394,11.5286045,11.526686,11.523885,11.524121,11.525761,11.525064,11.51997,11.51069,11.498293,11.485447,11.474476,11.463461,11.451405,11.437046,11.41922
31.103031,31.541279,31.972841,32.387962,32.82482,33.28368,33.751686,34.225815,34.729664,35.31378,36.04518,37.273727,38.874138,40.75673,43.192146,45.687256,47.321968,48.666664,49.54495,50.09725,50.48884,50.80696,51.064453,51.266815,51.409966,51.46644,51.445892,51.322136,51.098167,50.812057,50.512066,50.2361,50.021736,49.859802,49.763535,49.73478,49.76609,49.820038,49.835236,49.78321,49.694733,49.603485,49.51326,49.41514,49.304375,49.186398,49.072212,48.926353,48.7185,48.47772,48.228592,47.994606,47.79522,47.62316,47.469612,47.317688,47.165276,47.009415,46.83918,46.64212,46.41932,46.17759,45.91362,45.64028,45.338066,45.067295,44.91693,44.893837,44.965855,45.096085,45.25602,45.271164,45.105213,44.79249,44.31244,43.696648,42.940933,42.208504,41.545303,40.952774,40.416298,39.90442,39.38526,38.849037,38.307137,37.774246,37.265648,36.80943,36.435577,36.156727,35.96473,35.839443,35.75463,35.665436,35.51732,35.280617,34.97364,34.634575,34.261223,33.88583,33.54106,33.243683,32.99665,32.798367,32.646942,32.50782,32.372795,32.239944,32.108006,31.97742,31.853718,31.747177,31.65208,31.570759,31.517815,31.495564,31.496197,31.501812,31.488586,31.45129,31.376228,31.264809,31.132107,30.990284,30.84784,30.714994,30.591042,30.47208,30.36272,30.268372,30.19004,30.123653,30.064373,30.011343,29.95874,29.906199,29.853077,29.799868,29.7465,29.69195,29.636982,29.576187,29.504684,29.427277,29.345585,29.260595,29.174973,29.091595,29.010796,28.925419,28.839909,28.758389,28.68441,28.618752,28.559618,28.507076,28.457516,28.4103,28.37125,28.335339,28.29657,28.259201,28.226028,28.18908,28.145855,28.09591,28.040646,27.983932,27.930765,27.88432,27.838064,27.787779,27.727951,27.660793,27.593212,27.530544,27.475143,27.423656,27.369377,27.307533,27.242899,27.18034,27.120358,27.062744,27.005466,26.944723,26.886276,26.784164,26.647293,26.516644,26.39896,26.293268,26.186495,26.049036,25.923857,25.835762,25.776234,25.732752,25.700909,25.671757,25.641079,25.613869,25.587278,25.557339,25.523403,25.484783,25.444256,25.402195,25.36058,25.307552,25.2445,25.181015,25.120075,25.083363,25.089468,25.12404,25.163044,25.18785,25.120018,24.87529,24.550888,24.182716,23.721298,23.325817,23.071945,22.921124,22.820162,22.730648,22.63701,22.573368,22.621351,22.795984,23.217194,23.917263,24.591358,25.237938,25.84333,26.283682,26.568672,26.738316,26.838882,26.948656,27.056913,27.127882,27.174772,27.204237,27.218838,27.216507,27.162685,26.962555,26.572664,25.336182,23.88192,22.79066,22.142681,21.83478,21.80895,21.861511,21.914026,21.96469,22.0247,22.090122,22.175184,22.3346,22.611958,22.889769,23.091259,21.641125,17.547987,13.024082,11.549146,11.079669,11.061432,11.2304535,11.294968,11.250802,11.221445,11.199683,11.173735,11.14925,11.149335,11.179312,11.23184,11.293979,11.352347,11.397157,11.432183,11.46124,11.484007,11.501696,11.513164,11.516243,11.513697,11.512493,11.514994,11.518995,11.520233,11.516431,11.508105,11.49667,11.483966,11.473776,11.463823,11.452469,11.438835,11.422268
31.32978,31.80621,32.267895,32.706696,33.139317,33.581512,34.03867,34.510826,35.02292,35.635765,36.41359,37.786766,39.369972,41.235817,43.74166,46.2189,47.658394,48.93992,49.75907,50.273964,50.649067,50.966026,51.227962,51.4319,51.573956,51.626987,51.601776,51.477425,51.25607,50.96959,50.661354,50.368996,50.129017,49.934563,49.80031,49.72991,49.716125,49.739365,49.774853,49.815033,49.830738,49.77642,49.67697,49.55567,49.415054,49.260788,49.1065,48.927032,48.72322,48.494507,48.24932,48.00962,47.79357,47.60028,47.428864,47.264866,47.11213,46.966377,46.813705,46.64044,46.444748,46.230476,45.946327,45.63066,45.339256,45.1195,45.00579,45.013725,45.12018,45.290066,45.44667,45.444973,45.262985,44.959267,44.513428,43.822075,43.0252,42.262848,41.5747,40.962093,40.376984,39.77586,39.208603,38.67247,38.141266,37.627438,37.145504,36.71815,36.36943,36.111298,35.93766,35.829865,35.764748,35.6993,35.577095,35.364365,35.076195,34.748985,34.38007,34.003494,33.653454,33.347633,33.09075,32.880447,32.70659,32.545345,32.391357,32.24485,32.10452,31.97039,31.846893,31.740982,31.644133,31.55611,31.482792,31.425354,31.386833,31.360262,31.322245,31.268728,31.18583,31.074749,30.947025,30.813538,30.682913,30.563412,30.452745,30.35091,30.257847,30.1776,30.10776,30.044361,29.987547,29.935787,29.883572,29.82852,29.771414,29.71407,29.657337,29.60131,29.54726,29.489912,29.424793,29.35366,29.27847,29.20129,29.124159,29.049065,28.976276,28.898855,28.820953,28.74622,28.678118,28.617403,28.561893,28.511658,28.462,28.413445,28.37021,28.332375,28.297054,28.263786,28.235203,28.203268,28.165295,28.120539,28.069935,28.016567,27.964718,27.917763,27.871225,27.820301,27.760239,27.692745,27.626938,27.57029,27.522083,27.478409,27.431648,27.378447,27.323256,27.270193,27.218021,27.160267,27.079723,26.98922,26.889292,26.779297,26.666925,26.563028,26.468567,26.372952,26.239311,26.107918,25.998241,25.917976,25.86195,25.819149,25.786585,25.756828,25.72641,25.700487,25.675816,25.64779,25.615358,25.577868,25.538403,25.497667,25.458664,25.409267,25.348392,25.285446,25.226501,25.190248,25.196365,25.23338,25.274498,25.29168,25.20541,24.94112,24.595856,24.205078,23.724808,23.319908,23.064453,22.91542,22.817219,22.729193,22.635935,22.57454,22.616713,22.796568,23.247545,23.98551,24.687294,25.376795,26.001728,26.433327,26.681734,26.809734,26.886032,26.982822,27.080029,27.14842,27.189661,27.21978,27.23117,27.218042,27.166931,26.975533,26.596876,25.376343,23.906374,22.790037,22.13501,21.822683,21.792574,21.837866,21.882458,21.92907,21.980467,22.028824,22.081497,22.180408,22.486393,22.703926,22.686142,20.0177,15.417345,12.240996,11.325209,11.013971,11.110811,11.322081,11.401767,11.358685,11.313099,11.28532,11.253855,11.230784,11.233612,11.2663145,11.318925,11.376371,11.4264345,11.461767,11.485304,11.501961,11.512907,11.520582,11.525242,11.52519,11.521629,11.521112,11.524561,11.529317,11.530844,11.526977,11.518745,11.507978,11.495958,11.487104,11.478504,11.4683,11.455863,11.440556
31.583717,32.099182,32.59076,33.025227,33.460613,33.902706,34.35545,34.82581,35.349625,36.000828,36.860123,38.3519,39.916855,41.787743,44.29585,46.688393,48.030624,49.232975,49.97799,50.44804,50.80156,51.11181,51.373215,51.574966,51.71409,51.76559,51.741814,51.627243,51.422005,51.150925,50.849197,50.54872,50.288475,50.063774,49.894447,49.778225,49.707863,49.67433,49.663376,49.670647,49.676285,49.650642,49.59,49.494534,49.368492,49.224754,49.072906,48.896137,48.69512,48.466682,48.22204,47.985626,47.773544,47.58242,47.408592,47.233734,47.06773,46.912567,46.76025,46.59781,46.41515,46.20498,45.945442,45.673584,45.396362,45.17712,45.10699,45.191086,45.322884,45.517715,45.70383,45.704636,45.504265,45.189873,44.727425,43.957253,43.124153,42.33946,41.641544,40.98426,40.317986,39.656605,39.061043,38.51045,37.977547,37.475456,37.019028,36.625515,36.310402,36.081497,35.93263,35.84562,35.799324,35.75376,35.653812,35.464314,35.19749,34.887512,34.52935,34.15245,33.795006,33.47726,33.205494,32.97924,32.78483,32.60035,32.419456,32.245113,32.083954,31.94125,31.817743,31.712275,31.614239,31.520676,31.435314,31.360607,31.29866,31.246056,31.191559,31.126194,31.035492,30.921011,30.793049,30.662285,30.537788,30.427137,30.32793,30.234634,30.148787,30.07473,30.0113,29.954964,29.904455,29.857763,29.809212,29.755756,29.698128,29.63866,29.579426,29.521822,29.46759,29.411942,29.351116,29.286362,29.219112,29.150791,29.082603,29.01582,28.950457,28.880032,28.80836,28.738472,28.673672,28.615093,28.560875,28.511192,28.462711,28.415157,28.372303,28.334873,28.30057,28.268103,28.238407,28.204391,28.163828,28.11729,28.06643,28.013807,27.96302,27.917713,27.873325,27.82689,27.775867,27.720936,27.668207,27.620405,27.570322,27.507038,27.444134,27.37919,27.315388,27.25293,27.188553,27.120903,27.043846,26.963013,26.880384,26.796894,26.714422,26.632341,26.541153,26.423527,26.29916,26.182571,26.084929,26.011505,25.957869,25.915173,25.881727,25.85175,25.822086,25.797504,25.774246,25.747297,25.715534,25.678692,25.640514,25.602236,25.567932,25.525703,25.471714,25.41362,25.359573,25.327942,25.33988,25.376476,25.411518,25.415749,25.308708,25.020016,24.649824,24.232014,23.729403,23.313618,23.055897,22.907658,22.8113,22.723694,22.629662,22.56982,22.602451,22.787058,23.27156,24.051176,24.788343,25.524385,26.170746,26.58984,26.78902,26.874905,26.943426,27.02747,27.11673,27.182568,27.216526,27.243309,27.256674,27.24438,27.19383,27.008404,26.63763,25.422808,23.931992,22.776539,22.1044,21.806852,21.76959,21.806496,21.842636,21.887108,21.931738,21.964975,21.993011,22.045721,22.366043,22.612534,22.07846,18.655163,14.115347,11.811238,11.197439,11.002914,11.154354,11.422312,11.531338,11.481078,11.417845,11.373471,11.343437,11.322341,11.329891,11.369243,11.423834,11.47703,11.520956,11.545473,11.55681,11.561058,11.560765,11.559178,11.557534,11.554523,11.549982,11.549993,11.554079,11.55881,11.559494,11.554476,11.545658,11.53545,11.5246105,11.517744,11.511406,11.503408,11.493292,11.480371
31.85083,32.397892,32.904533,33.339664,33.78263,34.22829,34.679016,35.151028,35.69168,36.391636,37.372517,38.872692,40.46157,42.408257,44.898094,47.167328,48.440556,49.559902,50.210155,50.628777,50.95816,51.256702,51.51259,51.709,51.84307,51.892395,51.871178,51.76937,51.586,51.338383,51.054436,50.762135,50.493065,50.24611,50.038662,49.87197,49.743095,49.64738,49.57589,49.525955,49.48497,49.43891,49.37488,49.28218,49.162636,49.028954,48.887997,48.7212,48.530693,48.314117,48.08338,47.861732,47.6632,47.484165,47.32213,47.15963,47.008858,46.872704,46.743904,46.60943,46.45672,46.275,46.069748,45.79996,45.521492,45.332176,45.305927,45.442368,45.63043,45.834724,46.048546,46.085194,45.895996,45.5332,44.964615,44.11419,43.256626,42.466324,41.76663,41.06395,40.330345,39.64019,39.017216,38.43772,37.88631,37.383343,36.94493,36.58024,36.294262,36.090683,35.9614,35.88816,35.851295,35.81404,35.725758,35.553463,35.30629,35.011826,34.66453,34.294712,33.93373,33.602554,33.31227,33.063995,32.84701,32.63737,32.43882,32.249237,32.073685,31.92147,31.794422,31.686323,31.585995,31.487244,31.392288,31.305285,31.22685,31.152866,31.079071,30.99953,30.90134,30.787453,30.666067,30.545612,30.433184,30.333961,30.245598,30.161732,30.083908,30.016033,29.957474,29.905132,29.857449,29.813007,29.766483,29.71468,29.657936,29.598194,29.537838,29.479118,29.424183,29.368908,29.310116,29.249138,29.186977,29.12476,29.063694,29.004862,28.947803,28.886524,28.823606,28.760857,28.700817,28.644737,28.591587,28.542135,28.49349,28.445423,28.401424,28.362053,28.325684,28.291916,28.261082,28.226492,28.186207,28.142473,28.09599,28.04794,28.00194,27.961174,27.922043,27.87729,27.813457,27.737196,27.66169,27.591326,27.525454,27.457462,27.392967,27.331442,27.269348,27.208073,27.150951,27.095705,27.035168,26.971216,26.906227,26.834702,26.755554,26.670189,26.575064,26.465319,26.360054,26.25988,26.173973,26.10722,26.055859,26.01349,25.979546,25.949776,25.921032,25.897305,25.874428,25.847378,25.815256,25.778336,25.741314,25.70609,25.677673,25.644577,25.600796,25.55169,25.505468,25.47992,25.49694,25.532972,25.561298,25.552134,25.423943,25.108135,24.710396,24.263557,23.738289,23.311756,23.051609,22.903736,22.808504,22.720278,22.6239,22.563538,22.584887,22.768328,23.27773,24.098215,24.88253,25.66636,26.33738,26.727736,26.880356,26.936487,26.982029,27.032864,27.106943,27.166357,27.236158,27.279419,27.290712,27.287567,27.236938,27.05657,26.69178,25.478989,23.962101,22.762436,22.071947,21.791414,21.743423,21.770973,21.797836,21.842789,21.883999,21.906164,21.920912,21.949375,22.308289,22.598366,21.598969,17.803595,13.494247,11.638535,11.14754,11.024984,11.192181,11.513831,11.65271,11.602991,11.53924,11.466327,11.421194,11.401813,11.41497,11.45982,11.519934,11.573898,11.610311,11.6304035,11.636044,11.633867,11.62389,11.611881,11.602983,11.596291,11.5899,11.589388,11.592798,11.596123,11.594666,11.587857,11.578901,11.570509,11.563107,11.560776,11.559303,11.555842,11.549673,11.540064
32.10813,32.67528,33.18395,33.628197,34.07755,34.52488,34.974716,35.45202,36.018135,36.782402,37.89482,39.369972,41.007965,43.09351,45.567726,47.674225,48.896233,49.938095,50.471962,50.834076,51.138634,51.421825,51.668434,51.856987,51.98378,52.02849,52.006935,51.914635,51.75133,51.52822,51.266037,50.98916,50.722706,50.46099,50.219643,50.008133,49.828297,49.67764,49.55337,49.4562,49.37033,49.284454,49.19226,49.08558,48.962982,48.83265,48.699524,48.541718,48.36464,48.165413,47.95427,47.751705,47.57003,47.407356,47.264446,47.127384,47.008408,46.908073,46.816837,46.721542,46.61061,46.475258,46.31436,46.051765,45.798286,45.658394,45.66728,45.82587,46.03055,46.226597,46.43369,46.488297,46.293205,45.859966,45.192932,44.263786,43.397957,42.622635,41.92151,41.199837,40.445267,39.729202,39.062256,38.44741,37.871082,37.352085,36.90409,36.5409,36.269695,36.083893,35.970535,35.9093,35.87287,35.830685,35.741394,35.575394,35.340534,35.062485,34.730965,34.375927,34.022705,33.688362,33.385468,33.120987,32.89231,32.673485,32.417953,32.171177,31.961851,31.792759,31.661625,31.558773,31.468636,31.379416,31.289486,31.195518,31.103762,31.02242,30.947304,30.873016,30.785133,30.684265,30.575354,30.465199,30.36061,30.266375,30.180271,30.096796,30.017662,29.948444,29.89075,29.842016,29.798645,29.756334,29.707035,29.646713,29.5774,29.5042,29.433168,29.368778,29.312424,29.259348,29.207825,29.159622,29.114246,29.069065,29.02134,28.970535,28.915932,28.853516,28.787968,28.722065,28.658163,28.596855,28.536787,28.479332,28.4226,28.370186,28.327515,28.294569,28.26716,28.241486,28.215221,28.181305,28.13855,28.088856,28.035736,27.983322,27.935352,27.894077,27.855679,27.809168,27.738546,27.651932,27.56327,27.477867,27.400503,27.330357,27.261578,27.197002,27.137142,27.085688,27.044983,27.00931,26.969948,26.924221,26.87418,26.81577,26.74622,26.667816,26.585312,26.502335,26.416988,26.332901,26.25814,26.196728,26.146605,26.104221,26.069664,26.039934,26.011604,25.987698,25.963709,25.934898,25.900867,25.862577,25.825764,25.793049,25.770988,25.747454,25.714897,25.677004,25.640255,25.62199,25.644447,25.682835,25.708149,25.689735,25.544315,25.202625,24.778332,24.302979,23.7577,23.321934,23.059319,22.91133,22.816025,22.725677,22.62473,22.560705,22.568918,22.741405,23.259224,24.11438,24.956842,25.785963,26.483234,26.846893,26.964285,26.993855,27.00415,27.026241,27.080753,27.125677,27.204353,27.29152,27.3394,27.338537,27.288809,27.114206,26.755384,25.547108,24.005264,22.762205,22.052225,21.782202,21.720572,21.73822,21.759636,21.80558,21.843681,21.859432,21.872627,21.90483,22.361513,22.698046,21.49274,17.541122,13.315428,11.595476,11.1244755,11.019821,11.174088,11.508213,11.704924,11.696093,11.624683,11.546627,11.489674,11.468806,11.475744,11.514137,11.570799,11.623503,11.659838,11.678009,11.681383,11.676613,11.6639,11.650091,11.639294,11.629804,11.622941,11.6226015,11.6255455,11.62719,11.622974,11.6139965,11.605183,11.599252,11.596434,11.599779,11.603947,11.606039,11.604706,11.5986595
32.34445,32.920555,33.428696,33.879116,34.33001,34.777405,35.22873,35.71578,36.318027,37.164318,38.404808,39.88083,41.568115,43.835052,46.29963,48.201103,49.389297,50.324417,50.763153,51.07517,51.352806,51.61739,51.851234,52.029633,52.147484,52.18548,52.16095,52.074196,51.927177,51.727154,51.487694,51.228035,50.97104,50.70271,50.441086,50.199364,49.981987,49.78959,49.624214,49.489567,49.368664,49.25383,49.142136,49.02589,48.901657,48.774662,48.647293,48.498577,48.332993,48.147774,47.953087,47.767914,47.603592,47.459797,47.33707,47.223854,47.131912,47.060936,47.001144,46.940197,46.867073,46.773567,46.65035,46.444054,46.247417,46.147446,46.172867,46.315746,46.474262,46.645992,46.817482,46.843437,46.60815,46.107506,45.375546,44.401886,43.542976,42.794662,42.110634,41.404633,40.6547,39.90638,39.19554,38.52939,37.89248,37.33743,36.884995,36.52662,36.25454,36.072266,35.96266,35.90278,35.85865,35.802757,35.70176,35.531567,35.301876,35.041595,34.72533,34.374928,34.025627,33.69555,33.386936,33.096046,32.810905,32.540386,32.221058,31.92223,31.685541,31.508923,31.38192,31.289875,31.212322,31.132294,31.045155,30.946255,30.847507,30.764954,30.695145,30.630653,30.55602,30.469372,30.373186,30.272984,30.175432,30.085632,30.001873,29.917866,29.836086,29.763693,29.704746,29.65855,29.62024,29.580366,29.52792,29.457748,29.373642,29.284126,29.199104,29.125523,29.064556,29.01103,28.963558,28.924686,28.892937,28.862572,28.827255,28.784298,28.732515,28.669184,28.601982,28.5349,28.469044,28.403181,28.335625,28.268845,28.204252,28.148254,28.10834,28.083998,28.067425,28.050085,28.02707,27.99148,27.94368,27.885609,27.824253,27.767307,27.718697,27.67925,27.643612,27.601257,27.544422,27.475296,27.399567,27.3213,27.245358,27.171673,27.095837,27.022888,26.96257,26.918142,26.884674,26.856743,26.831255,26.800295,26.766806,26.73159,26.691008,26.643145,26.58993,26.529324,26.46397,26.395761,26.331568,26.274662,26.224926,26.1822,26.146952,26.117027,26.088295,26.062737,26.035992,26.004396,25.96854,25.929815,25.89429,25.864727,25.848186,25.831602,25.80648,25.776775,25.749132,25.738173,25.767107,25.809849,25.83524,25.812912,25.656578,25.29321,24.846325,24.346863,23.78414,23.341923,23.07883,22.930698,22.834656,22.74128,22.63426,22.563976,22.557674,22.711891,23.222927,24.101814,25.005917,25.873245,26.594967,26.94812,27.043365,27.0456,27.023705,27.034763,27.070568,27.099575,27.147898,27.266123,27.373013,27.389563,27.34358,27.176758,26.825115,25.63013,24.069662,22.78328,22.048332,21.780045,21.704021,21.711607,21.733429,21.779182,21.811253,21.82304,21.843952,21.90469,22.497458,22.92315,21.889301,17.926132,13.488324,11.634388,11.153383,11.009823,11.13245,11.421285,11.674893,11.743565,11.668817,11.597541,11.541262,11.515715,11.515527,11.545065,11.593397,11.642195,11.678442,11.691841,11.689929,11.681599,11.668897,11.65794,11.649656,11.640715,11.634675,11.634937,11.637512,11.637668,11.63093,11.620316,11.612717,11.610519,11.614181,11.625814,11.638651,11.646172,11.647845,11.6459465
32.56145,33.137047,33.646385,34.09478,34.54309,34.990456,35.44737,35.951168,36.599083,37.538883,38.91246,40.39096,42.128235,44.59462,47.051277,48.73368,49.890175,50.670536,51.066383,51.343697,51.592663,51.836502,52.054546,52.221,52.32904,52.35974,52.331795,52.24867,52.115097,51.936417,51.720882,51.482994,51.23902,50.97425,50.70726,50.450916,50.21175,49.993927,49.801937,49.64145,49.495255,49.358162,49.2303,49.10498,48.97772,48.851925,48.72818,48.583305,48.423943,48.249416,48.07042,47.904636,47.76054,47.634495,47.529675,47.43625,47.36461,47.314255,47.27642,47.240273,47.19588,47.134422,47.06012,46.920822,46.777893,46.703716,46.71738,46.80107,46.91249,47.051586,47.1851,47.16386,46.88971,46.335903,45.521698,44.554188,43.710068,42.987297,42.349518,41.68263,40.93756,40.166496,39.41741,38.65914,37.92341,37.319527,36.88138,36.547886,36.271576,36.085228,35.966835,35.89518,35.841564,35.772026,35.652893,35.467636,35.230377,34.972393,34.6575,34.29956,33.94701,33.611862,33.279373,32.935043,32.55092,32.180553,31.858452,31.58273,31.358383,31.192259,31.073465,30.98367,30.903637,30.815292,30.714718,30.611881,30.51512,30.42516,30.343296,30.266914,30.186016,30.10172,30.015903,29.930984,29.849695,29.774233,29.703526,29.631645,29.559914,29.49331,29.434574,29.385403,29.344872,29.303114,29.250828,29.182793,29.101675,29.01371,28.926872,28.848034,28.779938,28.719063,28.662323,28.613264,28.572052,28.53585,28.500847,28.464214,28.423649,28.375229,28.325096,28.27526,28.223572,28.166729,28.104164,28.039824,27.977804,27.922588,27.880575,27.85166,27.829002,27.805073,27.776775,27.738487,27.691797,27.640684,27.589731,27.544235,27.508095,27.480606,27.456547,27.426004,27.381924,27.323362,27.253902,27.179958,27.110033,27.045227,26.978933,26.91543,26.861683,26.820028,26.787212,26.759472,26.734482,26.70729,26.681885,26.66002,26.639935,26.618093,26.590221,26.550491,26.504467,26.451672,26.398,26.34602,26.297268,26.25467,26.218994,26.188671,26.15866,26.130116,26.099537,26.065083,26.028547,25.991295,25.958824,25.933273,25.920101,25.906406,25.882957,25.854868,25.832447,25.826077,25.859468,25.904583,25.930737,25.908026,25.74535,25.36541,24.901512,24.383888,23.806484,23.362123,23.102499,22.955328,22.859482,22.763947,22.651405,22.574055,22.554916,22.68991,23.184692,24.07422,25.033585,25.928795,26.670372,27.024994,27.10786,27.088589,27.045235,27.04932,27.069054,27.08944,27.126354,27.230297,27.36412,27.435503,27.397358,27.241325,26.898682,25.729473,24.156788,22.824703,22.05819,21.782452,21.692719,21.690205,21.714294,21.758305,21.780308,21.78449,21.815296,21.918964,22.623976,23.208061,22.738499,19.133434,14.348907,11.917287,11.344307,11.118004,11.183039,11.394276,11.642067,11.770431,11.726786,11.641125,11.582918,11.554568,11.563135,11.594296,11.638156,11.680326,11.702002,11.706595,11.695286,11.677095,11.654275,11.635281,11.624683,11.618496,11.6138115,11.61586,11.619167,11.618454,11.608725,11.595535,11.589043,11.591803,11.605213,11.629234,11.656155,11.673204,11.680283,11.684343
32.761368,33.328686,33.836304,34.277054,34.720016,35.167953,35.635326,36.16402,36.86463,37.899277,39.40223,40.888687,42.679302,45.30945,47.752327,49.25107,50.373833,51.017994,51.371056,51.618065,51.842873,52.067524,52.2696,52.42348,52.521225,52.544327,52.51192,52.429962,52.30625,52.145584,51.952408,51.737114,51.510155,51.255585,50.9926,50.73383,50.486843,50.25746,50.051018,49.874813,49.711143,49.557518,49.41651,49.28237,49.1503,49.02296,48.899612,48.74388,48.57569,48.40332,48.240665,48.10431,47.991432,47.877953,47.786175,47.70657,47.647915,47.609573,47.584282,47.563328,47.538197,47.5009,47.44698,47.369083,47.283585,47.212692,47.181923,47.214767,47.30538,47.413017,47.509026,47.44942,47.145008,46.552654,45.684296,44.719635,43.888535,43.185017,42.58374,41.96692,41.25829,40.472298,39.6351,38.737022,37.966362,37.329712,36.827152,36.452396,36.188652,36.025963,35.92138,35.86297,35.81671,35.743057,35.605125,35.38748,35.110367,34.81362,34.487183,34.150475,33.831795,33.476242,33.064594,32.675602,32.339527,32.00927,31.689026,31.399525,31.159737,30.977379,30.845585,30.74943,30.670647,30.59111,30.506481,30.417614,30.326935,30.238125,30.156773,30.0807,30.002007,29.922537,29.843952,29.767551,29.694572,29.626087,29.561104,29.49372,29.425001,29.359636,29.299809,29.245525,29.196022,29.147583,29.091843,29.024502,28.947342,28.864399,28.781475,28.703993,28.63401,28.56839,28.50658,28.453575,28.411142,28.376019,28.343235,28.310444,28.274736,28.233948,28.192225,28.15047,28.106768,28.05805,28.00298,27.944637,27.883465,27.826439,27.779305,27.742079,27.710548,27.6804,27.649807,27.613686,27.573084,27.529022,27.485592,27.44715,27.415157,27.38927,27.365955,27.337133,27.297148,27.245989,27.186909,27.124153,27.063038,27.002907,26.940544,26.880241,26.828533,26.787683,26.754892,26.727041,26.702446,26.67731,26.65535,26.638226,26.625511,26.614597,26.601383,26.582369,26.556675,26.51979,26.47528,26.42728,26.38021,26.33817,26.301548,26.26964,26.237152,26.205233,26.170952,26.133142,26.093979,26.055042,26.021751,25.99644,25.984596,25.973408,25.951576,25.921951,25.896318,25.89078,25.925186,25.968794,25.995964,25.974422,25.806072,25.414268,24.939983,24.405231,23.81985,23.378819,23.124828,22.980373,22.886595,22.791042,22.675041,22.591293,22.564377,22.68303,23.155766,24.044594,25.047462,25.961422,26.717625,27.082832,27.155552,27.117046,27.067135,27.067455,27.076468,27.090446,27.119743,27.204227,27.353281,27.474258,27.447578,27.305763,26.974586,25.841106,24.260777,22.882397,22.08096,21.789635,21.685785,21.673021,21.696373,21.736242,21.743477,21.728752,21.760452,21.912426,22.66969,23.458162,23.777958,21.283073,16.474432,12.767719,11.783783,11.447623,11.389971,11.530064,11.722776,11.837997,11.828037,11.739775,11.67652,11.653023,11.666923,11.693184,11.717338,11.733925,11.73632,11.726167,11.704651,11.662931,11.613882,11.57457,11.553144,11.546342,11.547241,11.558603,11.569857,11.57109,11.555454,11.533255,11.521803,11.526647,11.550381,11.585767,11.626117,11.665672,11.695408,11.707779
32.976078,33.531338,34.03305,34.468838,34.909714,35.363674,35.84906,36.421837,37.194584,38.321922,39.978947,41.453857,43.30444,45.97979,48.38021,49.816154,50.895714,51.38894,51.701942,51.921623,52.122837,52.32634,52.509163,52.647552,52.732788,52.74743,52.71034,52.629257,52.514816,52.371334,52.20014,52.008553,51.800377,51.559715,51.305695,51.05046,50.802544,50.568604,50.353714,50.166653,49.991467,49.815296,49.648075,49.49253,49.34455,49.203373,49.067196,48.911976,48.75038,48.589592,48.44194,48.32032,48.225243,48.144775,48.081264,48.01673,47.963875,47.92726,47.902992,47.884815,47.866333,47.840633,47.80067,47.739845,47.66526,47.591248,47.543682,47.55122,47.612778,47.687286,47.748375,47.658157,47.33888,46.722626,45.805023,44.85566,44.040863,43.35037,42.76923,42.20411,41.554424,40.75863,39.81225,38.911705,38.114838,37.431408,36.87764,36.467712,36.184364,35.989113,35.852264,35.76242,35.686897,35.590187,35.43861,35.218994,34.95168,34.669556,34.33152,33.97159,33.610584,33.23922,32.866253,32.52401,32.203495,31.877699,31.554642,31.256493,31.004204,30.808205,30.664461,30.560387,30.47834,30.400112,30.321196,30.239769,30.15561,30.071518,29.993351,29.919558,29.844051,29.76917,29.696697,29.627338,29.56127,29.498722,29.438725,29.375416,29.309616,29.245409,29.18462,29.1276,29.074697,29.023693,28.967018,28.9011,28.827185,28.747837,28.667236,28.589752,28.51738,28.447857,28.38138,28.324085,28.27921,28.244118,28.213512,28.184654,28.154093,28.119553,28.084538,28.049568,28.012207,27.968815,27.917772,27.86195,27.801243,27.742374,27.690525,27.646416,27.607569,27.571384,27.537537,27.50183,27.465508,27.429169,27.395123,27.365822,27.341536,27.321156,27.301891,27.276993,27.241673,27.196701,27.14526,27.090622,27.036938,26.983051,26.925987,26.869438,26.819336,26.777792,26.742596,26.711624,26.68403,26.657076,26.634914,26.619888,26.61245,26.610025,26.60753,26.600935,26.5873,26.563942,26.532558,26.494637,26.452406,26.410412,26.373161,26.340363,26.306133,26.27153,26.234196,26.193672,26.152576,26.11275,26.079409,26.055168,26.045044,26.035835,26.015602,25.984192,25.951427,25.943848,25.9779,26.01551,26.043716,26.024895,25.849865,25.44915,24.970425,24.415495,23.828594,23.394098,23.145123,23.004612,22.913822,22.819242,22.700844,22.610332,22.580948,22.687414,23.135712,24.009968,25.023022,25.971737,26.740547,27.124617,27.18956,27.128405,27.077305,27.075195,27.079103,27.08935,27.113033,27.181334,27.343267,27.506908,27.492567,27.36795,27.053654,25.947655,24.370625,22.958405,22.116787,21.806149,21.683384,21.659819,21.682762,21.71872,21.710182,21.672169,21.701637,21.90687,22.664036,23.683037,24.575096,23.693598,19.906094,15.02907,12.518406,11.901604,11.738794,11.783951,11.868853,11.910652,11.87307,11.772207,11.705545,11.707756,11.75075,11.802559,11.836586,11.841089,11.816234,11.766734,11.703905,11.632701,11.564163,11.510052,11.480232,11.474288,11.478653,11.489834,11.497732,11.492184,11.468201,11.439249,11.425808,11.435856,11.474447,11.528875,11.600157,11.676994,11.733921,11.758095
33.22491,33.763832,34.252445,34.690796,35.13541,35.604813,36.122147,36.753963,37.623283,38.858513,40.542625,42.07883,44.06135,46.739105,49.049706,50.400864,51.364914,51.784904,52.063515,52.25673,52.434395,52.6146,52.775093,52.895233,52.966038,52.971924,52.930477,52.8507,52.745224,52.617996,52.46792,52.299656,52.111122,51.88713,51.646362,51.40033,51.15796,50.92591,50.70842,50.515457,50.323723,50.1192,49.927444,49.755672,49.5951,49.44388,49.29966,49.143204,48.984333,48.830803,48.693462,48.581764,48.495964,48.428036,48.370724,48.31465,48.269344,48.23703,48.214783,48.198647,48.182915,48.159447,48.118668,48.055065,47.97252,47.882652,47.811584,47.789825,47.818962,47.860054,47.88935,47.7771,47.45723,46.823166,45.849678,44.936626,44.13208,43.46403,42.915424,42.37419,41.7482,40.97226,39.982147,39.106255,38.288506,37.557137,36.971806,36.496826,36.1043,35.89698,35.802864,35.714905,35.613045,35.491577,35.311882,35.036285,34.6947,34.369225,34.026665,33.691303,33.36207,33.03356,32.711193,32.40144,32.099068,31.78583,31.470291,31.172274,30.913181,30.706276,30.550749,30.437183,30.348932,30.26824,30.191113,30.114155,30.035244,29.95602,29.881592,29.810684,29.73851,29.66764,29.600128,29.536446,29.476124,29.41896,29.363947,29.305311,29.24371,29.182423,29.122631,29.064896,29.010529,28.958252,28.90158,28.837952,28.768358,28.694183,28.617975,28.542736,28.470154,28.398907,28.329449,28.268833,28.221508,28.18541,28.155094,28.127514,28.098745,28.06617,28.033062,28.000057,27.96479,27.923534,27.8745,27.819931,27.759098,27.69774,27.640297,27.588476,27.541859,27.4997,27.463188,27.429077,27.398577,27.371956,27.349216,27.330357,27.314453,27.299755,27.283916,27.261883,27.229778,27.18941,27.14431,27.097021,27.05053,27.003166,26.951609,26.898663,26.849415,26.80569,26.765833,26.728844,26.69463,26.661385,26.633562,26.614536,26.605942,26.605602,26.608017,26.608929,26.60386,26.59058,26.568974,26.539026,26.504234,26.469917,26.436588,26.403275,26.368153,26.332022,26.292717,26.25044,26.208296,26.168364,26.135725,26.113441,26.10577,26.098831,26.079792,26.047089,26.009192,25.991978,26.016539,26.046644,26.076508,26.059534,25.877644,25.469862,24.990635,24.416603,23.831562,23.404634,23.160591,23.025497,22.93924,22.847275,22.728277,22.63171,22.606186,22.706497,23.128515,23.98001,24.993473,25.966694,26.741997,27.129555,27.187855,27.117708,27.068153,27.065857,27.06953,27.079124,27.10028,27.154663,27.324703,27.524,27.525574,27.420359,27.126923,26.058744,24.494095,23.050968,22.167051,21.832886,21.687988,21.65255,21.6746,21.703106,21.681673,21.621975,21.632963,21.861671,22.509274,23.832539,25.341515,26.11868,24.399345,20.352545,17.050058,14.650014,13.312292,12.74834,12.56469,12.500605,12.506268,12.566433,12.498318,12.297232,12.053936,11.7142,11.516963,11.556912,11.606188,11.667365,11.68879,11.6657295,11.613701,11.543541,11.483032,11.459198,11.455674,11.461716,11.457704,11.439476,11.406603,11.375002,11.367546,11.390631,11.431834,11.492372,11.595639,11.741147,11.866512,11.9209175
33.499058,34.022736,34.50019,34.942703,35.4004,35.900215,36.469513,37.174057,38.15728,39.5226,41.13936,42.767357,44.93364,47.5429,49.70658,50.990158,51.800304,52.192757,52.44324,52.61219,52.766197,52.92065,53.055664,53.154808,53.209145,53.20591,53.15998,53.081596,52.984566,52.87228,52.742096,52.596725,52.429207,52.22561,52.00309,51.77269,51.542847,51.319195,51.105194,50.91127,50.716614,50.495037,50.28425,50.0979,49.925064,49.763573,49.611057,49.448196,49.285164,49.131668,48.997887,48.890686,48.80773,48.73922,48.676434,48.61586,48.562614,48.516853,48.477806,48.44541,48.416855,48.385036,48.338654,48.269474,48.178146,48.07778,47.99639,47.9586,47.950974,47.957054,47.956818,47.844856,47.490623,46.799805,45.851295,44.97696,44.186966,43.51805,42.966686,42.44339,41.83911,41.07412,40.13684,39.292442,38.46342,37.700623,37.03705,36.44436,35.96286,35.738914,35.66001,35.60614,35.51658,35.36288,35.115868,34.774426,34.40091,34.06508,33.73658,33.428635,33.13772,32.852196,32.566544,32.283665,32.00884,31.7209,31.424805,31.137098,30.879105,30.66645,30.50175,30.379147,30.283306,30.197708,30.119286,30.043758,29.967829,29.892265,29.821077,29.753006,29.684021,29.616722,29.553398,29.494446,29.439095,29.386972,29.33696,29.283545,29.227253,29.170502,29.113615,29.056957,29.002422,28.949646,28.893387,28.832312,28.767498,28.699537,28.629486,28.558838,28.488636,28.418175,28.347916,28.285341,28.235565,28.197042,28.164524,28.134981,28.104334,28.069445,28.033531,27.997654,27.960129,27.917816,27.86895,27.814781,27.753677,27.690094,27.62765,27.56902,27.51585,27.469198,27.4315,27.400455,27.377016,27.36098,27.350113,27.341927,27.334219,27.32473,27.31154,27.29131,27.26111,27.223986,27.184116,27.143518,27.104004,27.06319,27.017347,26.968187,26.919695,26.8732,26.827518,26.782784,26.73967,26.697021,26.659317,26.63102,26.614956,26.609737,26.610378,26.613026,26.611767,26.604166,26.588661,26.56426,26.535429,26.508175,26.480576,26.453026,26.418694,26.381948,26.342028,26.29905,26.25668,26.217281,26.185917,26.16623,26.161499,26.157053,26.138962,26.104832,26.062725,26.035976,26.043156,26.063885,26.095474,26.079735,25.892485,25.48098,25.003668,24.413364,23.831535,23.412394,23.173275,23.043839,22.96268,22.874332,22.756397,22.65589,22.63409,22.734943,23.137321,23.960953,24.971653,25.953154,26.726662,27.107285,27.159977,27.089539,27.043144,27.04237,27.050455,27.061943,27.08329,27.126644,27.291948,27.512093,27.545609,27.459095,27.189064,26.17232,24.628635,23.154957,22.228493,21.870712,21.699638,21.652184,21.67117,21.68829,21.653269,21.574114,21.5627,21.795988,22.291746,23.920649,26.10596,27.60053,27.446598,25.840992,23.727304,20.967655,19.335424,18.98125,19.432602,20.03902,20.47634,20.739872,20.781702,20.536318,20.023422,19.442057,18.531372,17.138653,15.612071,14.200615,13.100744,12.391733,11.954336,11.717574,11.619527,11.5643635,11.521652,11.505783,11.479889,11.444296,11.402596,11.379597,11.387865,11.416571,11.546934,11.746824,11.984961,12.149526,12.208696,12.213655
33.780373,34.29635,34.77432,35.22322,35.70951,36.260532,36.906174,37.700954,38.814938,40.334682,41.843056,43.51931,45.91027,48.372154,50.31038,51.56331,52.223774,52.592983,52.8189,52.96486,53.093716,53.219593,53.326553,53.402855,53.43958,53.427525,53.37773,53.3019,53.214237,53.117027,53.006393,52.883774,52.738396,52.55816,52.357674,52.147526,51.935036,51.72428,51.51847,51.328136,51.139572,50.923767,50.705406,50.50363,50.317726,50.143814,49.979958,49.80756,49.636406,49.477394,49.340546,49.231354,49.146397,49.075546,49.008213,48.937164,48.865128,48.792854,48.72282,48.65976,48.60576,48.556107,48.497963,48.417908,48.313457,48.20025,48.10855,48.060143,48.038895,48.036713,48.02398,47.89299,47.47368,46.74239,45.872322,45.00657,44.208397,43.520996,42.93901,42.4255,41.85811,41.12045,40.281326,39.466705,38.635254,37.856533,37.07058,36.33629,35.82631,35.56846,35.447166,35.40531,35.33335,35.157795,34.866524,34.510246,34.16324,33.844555,33.524025,33.216488,32.930943,32.662895,32.4059,32.158512,31.917921,31.663506,31.396393,31.12909,30.881699,30.671219,30.503109,30.374771,30.272297,30.180904,30.098568,30.021101,29.945065,29.870773,29.80119,29.734917,29.668322,29.603964,29.544258,29.489521,29.438725,29.391335,29.346073,29.297775,29.246998,29.195402,29.142475,29.088171,29.034513,28.981726,28.925785,28.866432,28.805252,28.742664,28.67878,28.613823,28.548119,28.480946,28.412498,28.34984,28.298035,28.256008,28.219189,28.184992,28.149689,28.109383,28.067326,28.02509,27.982006,27.93602,27.885704,27.831303,27.770458,27.706257,27.6415,27.579432,27.523083,27.474716,27.437557,27.41022,27.393408,27.386667,27.386204,27.387547,27.387236,27.38255,27.371704,27.352684,27.323463,27.288376,27.252518,27.217842,27.185219,27.15143,27.112354,27.0684,27.022156,26.97416,26.923515,26.871449,26.819473,26.7669,26.717867,26.677692,26.650013,26.634338,26.627058,26.625221,26.621834,26.614952,26.601952,26.580778,26.555008,26.530565,26.50709,26.486368,26.457043,26.421707,26.381477,26.338314,26.295975,26.257107,26.226986,26.209755,26.207722,26.205399,26.187855,26.151741,26.10485,26.07047,26.05798,26.068703,26.101713,26.08788,25.899124,25.488995,25.0155,24.414215,23.83632,23.423119,23.187344,23.062677,22.986042,22.901321,22.785337,22.682835,22.663425,22.766693,23.156244,23.956017,24.961617,25.938564,26.703754,27.075665,27.125523,27.058277,27.016033,27.018661,27.034021,27.048834,27.070915,27.10806,27.261415,27.486168,27.554972,27.484879,27.238974,26.284214,24.768143,23.264593,22.293945,21.909586,21.71701,21.66114,21.673603,21.684078,21.633904,21.533024,21.506084,21.730743,22.172031,23.971226,26.63094,28.203083,28.541641,28.696295,28.317894,27.009243,26.227345,26.381577,27.153881,27.964493,28.49723,28.766483,28.886003,28.82526,28.390312,27.89574,26.802729,24.85183,22.731062,20.69004,18.203833,15.611996,13.611387,12.475603,11.979006,11.772392,11.665981,11.612806,11.557692,11.503536,11.456954,11.443509,11.526557,11.835592,12.691926,14.034325,14.804993,14.888873,14.733057,14.652005
34.059395,34.577347,35.064903,35.53145,36.062508,36.682518,37.422005,38.328133,39.57732,41.21856,42.61903,44.301422,46.872528,49.16732,50.862614,52.078262,52.622414,52.970493,53.174736,53.298508,53.40103,53.496925,53.575073,53.62805,53.647236,53.626877,53.57425,53.5026,53.425766,53.34436,53.253082,53.152122,53.028473,52.87182,52.693993,52.50494,52.310616,52.11365,51.917645,51.733543,51.544697,51.348053,51.134674,50.92122,50.724785,50.540527,50.366997,50.18611,50.006844,49.840317,49.69664,49.581123,49.490456,49.415092,49.343243,49.264927,49.180374,49.089207,48.995167,48.906616,48.82958,48.75943,48.68135,48.582596,48.4578,48.3161,48.18984,48.11853,48.108635,48.11612,48.100937,47.919952,47.465794,46.768417,45.939274,45.044415,44.217064,43.49117,42.878628,42.36404,41.83751,41.176613,40.42206,39.628036,38.796402,38.005318,37.110985,36.256218,35.730694,35.44648,35.292057,35.21858,35.131935,34.958923,34.687347,34.353714,34.004112,33.66502,33.328316,33.01382,32.73168,32.478558,32.24778,32.03346,31.827015,31.608213,31.374426,31.133934,30.904621,30.70367,30.538418,30.4087,30.302025,30.205374,30.11782,30.03601,29.957167,29.881613,29.811642,29.745623,29.680119,29.617691,29.560848,29.509735,29.462967,29.419716,29.378609,29.334743,29.28889,29.242207,29.193518,29.142231,29.09009,29.037575,28.981693,28.92287,28.863518,28.804514,28.745625,28.686304,28.626245,28.564194,28.49979,28.43898,28.386093,28.340437,28.298494,28.258476,28.217373,28.170517,28.121159,28.071262,28.021217,27.970314,27.917765,27.86306,27.803436,27.740849,27.677284,27.615936,27.560284,27.513086,27.477861,27.454052,27.442303,27.44218,27.449226,27.457726,27.463144,27.462326,27.453207,27.434603,27.405342,27.370975,27.337757,27.308044,27.282066,27.25568,27.224415,27.187298,27.145256,27.097813,27.044237,26.986753,26.927704,26.866837,26.807535,26.75558,26.71481,26.685547,26.666164,26.654936,26.644295,26.633093,26.618027,26.596642,26.571991,26.549206,26.527924,26.508461,26.48605,26.454859,26.414772,26.370977,26.328333,26.289425,26.259996,26.244505,26.244453,26.24358,26.226128,26.187832,26.13565,26.091722,26.06478,26.067265,26.10125,26.091461,25.906303,25.501783,25.032011,24.427185,23.852642,23.440792,23.20532,23.084192,23.011139,22.92965,22.815922,22.712559,22.696701,22.800343,23.179897,23.96685,24.966667,25.929863,26.683142,27.04562,27.095173,27.03381,26.996017,27.003536,27.026196,27.044445,27.066275,27.101418,27.245632,27.466747,27.557652,27.500174,27.278263,26.391552,24.90789,23.378757,22.363989,21.946842,21.74377,21.680073,21.684301,21.696457,21.633419,21.50753,21.464262,21.664398,22.148338,23.970966,26.782661,28.61315,29.078426,29.288902,29.402718,29.161892,28.957405,28.859526,28.734108,28.593689,28.574013,28.66447,28.698284,28.721773,28.553223,28.200806,27.830503,27.509758,27.18669,26.859634,24.791576,20.837965,16.713314,13.878006,12.533396,12.0510845,11.859072,11.76424,11.677718,11.607104,11.562576,11.548902,11.803741,12.864631,15.317583,18.234192,19.679878,19.780052,19.48349,19.287506
34.3369,34.86428,35.359787,35.858826,36.441227,37.134407,37.966095,38.99933,40.354492,41.983116,43.342136,45.055847,47.596077,49.771515,51.35041,52.500305,52.99135,53.32349,53.511894,53.61724,53.695465,53.763023,53.813698,53.84365,53.845543,53.81617,53.76014,53.692146,53.625298,53.558495,53.484905,53.403122,53.299587,53.16473,53.007843,52.838093,52.659985,52.474915,52.287247,52.108585,51.921394,51.7371,51.52995,51.311207,51.106483,50.915188,50.735546,50.55021,50.366592,50.194923,50.044945,49.922043,49.823853,49.74253,49.665543,49.58078,49.48714,49.382896,49.271996,49.1653,49.07196,48.987183,48.89592,48.78617,48.650063,48.48192,48.318413,48.226234,48.199425,48.167984,48.12005,47.932938,47.508728,46.85256,46.03129,45.10224,44.29307,43.460182,42.78803,42.29438,41.81664,41.228294,40.54382,39.76954,38.93574,38.13278,37.15558,36.209023,35.67462,35.38322,35.214767,35.112347,35.01149,34.84072,34.57526,34.2391,33.873756,33.52189,33.17414,32.854393,32.574635,32.332893,32.122387,31.934185,31.755398,31.566322,31.361628,31.146198,30.935509,30.74617,30.586506,30.45792,30.349136,30.24869,30.156551,30.070366,29.988264,29.910837,29.839851,29.77349,29.708347,29.647045,29.59213,29.543629,29.499836,29.459671,29.421745,29.381313,29.339405,29.296833,29.251986,29.203754,29.153435,29.10153,29.045876,28.987183,28.928745,28.8721,28.817013,28.762527,28.7079,28.651114,28.591272,28.53306,28.47983,28.43126,28.38505,28.340254,28.294605,28.242847,28.187916,28.131992,28.076286,28.021263,27.967007,27.91267,27.855324,27.7962,27.73653,27.67892,27.626652,27.582472,27.549877,27.529013,27.520714,27.524586,27.53605,27.548851,27.55768,27.558891,27.550241,27.530853,27.50039,27.465523,27.43363,27.407652,27.387363,27.367727,27.343813,27.313452,27.275942,27.229855,27.174725,27.113739,27.049965,26.983383,26.916498,26.855015,26.80235,26.75938,26.726555,26.703224,26.681957,26.662361,26.641245,26.616447,26.590601,26.56787,26.54805,26.530172,26.508705,26.482235,26.444805,26.399504,26.355999,26.316456,26.287075,26.2725,26.2737,26.273811,26.256601,26.216438,26.158405,26.104885,26.074497,26.071095,26.105682,26.103188,25.925554,25.527363,25.057116,24.455025,23.87989,23.464165,23.226997,23.108202,23.03809,22.959639,22.848434,22.745419,22.732285,22.836632,23.211208,23.992153,24.988422,25.93142,26.670513,27.022556,27.070349,27.013737,26.980053,26.991665,27.019627,27.040462,27.0617,27.094078,27.229488,27.448215,27.55936,27.507927,27.310198,26.493217,25.046707,23.50069,22.447926,21.997036,21.78577,21.70413,21.702059,21.713978,21.643154,21.49538,21.421474,21.59158,22.04403,23.875635,26.803478,28.91328,29.593681,29.760036,29.795723,29.728771,29.612354,29.483356,29.37326,29.311893,29.301077,29.302917,29.280535,29.169615,29.047844,28.87927,28.591076,27.995132,27.111805,26.555496,26.37306,24.116364,19.376951,15.055817,13.057442,12.400204,12.090452,11.953411,11.836842,11.752166,11.713432,11.699871,12.180071,14.165535,18.36269,20.911873,22.299932,22.763561,22.561974,22.08508
34.61931,35.172195,35.68607,36.224533,36.86641,37.64141,38.556984,39.727562,41.16808,42.65679,44.033424,45.815273,48.24356,50.29927,51.7992,52.88124,53.358532,53.67772,53.8535,53.941944,53.99599,54.03466,54.056927,54.062542,54.04611,54.006622,53.946617,53.882526,53.8264,53.775124,53.720066,53.657867,53.57457,53.461266,53.32463,53.172424,53.007942,52.83209,52.650253,52.474983,52.289238,52.1045,51.900715,51.682365,51.47171,51.276676,51.094833,50.909767,50.727943,50.55827,50.402016,50.26702,50.16281,50.08058,49.9978,49.905827,49.804497,49.691208,49.56947,49.451805,49.34897,49.251743,49.147926,49.021275,48.85739,48.668133,48.49521,48.380074,48.327843,48.313164,48.245262,48.04152,47.640213,46.99847,46.14514,45.238274,44.430107,43.530994,42.79931,42.285263,41.828327,41.29532,40.653954,39.900475,39.05768,38.237877,37.19282,36.183777,35.655357,35.34361,35.160667,35.046494,34.931564,34.755913,34.48941,34.14518,33.771713,33.411674,33.05739,32.735405,32.458473,32.22539,32.029564,31.86025,31.701693,31.53491,31.352959,31.158588,30.965733,30.788227,30.633408,30.507381,30.400074,30.300375,30.206577,30.117352,30.032696,29.953743,29.881935,29.815262,29.750093,29.689089,29.63479,29.587177,29.54451,29.505672,29.469393,29.43106,29.391771,29.352186,29.310406,29.26485,29.216345,29.165318,29.11014,29.051464,28.993305,28.937904,28.885239,28.834278,28.784164,28.732033,28.676533,28.62108,28.568104,28.517776,28.469097,28.421795,28.374306,28.320904,28.263884,28.205198,28.146484,28.089317,28.03487,27.982279,27.929,27.87578,27.822893,27.771877,27.725185,27.685175,27.655216,27.63615,27.629145,27.634007,27.646484,27.660294,27.66962,27.67046,27.660255,27.638224,27.604908,27.568134,27.53641,27.513294,27.498156,27.484955,27.468191,27.444523,27.411678,27.367664,27.312645,27.250713,27.185585,27.117249,27.04698,26.979744,26.917692,26.86185,26.814796,26.776875,26.741314,26.708675,26.676735,26.64435,26.613983,26.588877,26.569057,26.551544,26.531275,26.505653,26.470432,26.426588,26.381084,26.340462,26.310215,26.293633,26.292978,26.292496,26.27585,26.235203,26.173637,26.11782,26.086174,26.080528,26.119858,26.12797,25.960297,25.568485,25.093334,24.498663,23.913515,23.48919,23.251371,23.133905,23.066761,22.991678,22.883493,22.781824,22.77053,22.876684,23.250114,24.026852,25.018234,25.940338,26.663872,27.004173,27.048857,26.995823,26.965527,26.98032,27.01162,27.036575,27.05706,27.084713,27.209433,27.4276,27.563906,27.510124,27.335865,26.595552,25.198421,23.640526,22.544346,22.053902,21.829578,21.729343,21.718073,21.731203,21.660099,21.499565,21.39294,21.504578,21.912605,23.50408,26.678762,29.277496,30.221375,30.453396,30.607481,30.626938,30.53846,30.345192,30.142374,30.009865,29.921883,29.814648,29.735306,29.666883,29.527033,29.3008,29.044758,28.676247,28.057402,27.331621,26.509594,24.823643,20.149685,15.493637,13.363594,12.569738,12.298519,12.130711,11.993311,11.897921,11.863718,11.8577175,12.573125,15.352568,20.354366,23.097507,24.264347,24.46537,24.202425,23.887497
34.975605,35.556213,36.10818,36.682415,37.390022,38.255074,39.249317,40.55046,42.058426,43.351818,44.733322,46.559097,48.85409,50.795807,52.238266,53.267464,53.739174,54.051117,54.21808,54.291443,54.321884,54.331688,54.324776,54.304375,54.267944,54.215744,54.149517,54.087093,54.03939,54.0015,53.962864,53.917763,53.852573,53.758446,53.639973,53.50291,53.34941,53.180573,53.002876,52.829544,52.644577,52.458614,52.25486,52.03546,51.821648,51.625664,51.445274,51.26838,51.0884,50.910133,50.746582,50.609478,50.50106,50.41591,50.33634,50.24676,50.142773,50.018402,49.87848,49.74135,49.62339,49.51726,49.40946,49.282654,49.118317,48.928093,48.74913,48.612503,48.527576,48.479683,48.40905,48.21072,47.801727,47.15734,46.32913,45.44639,44.63216,43.692886,42.897614,42.3414,41.884804,41.371704,40.74935,39.999214,39.15571,38.275085,37.16963,36.15405,35.637264,35.311317,35.117924,34.993576,34.868233,34.684612,34.412056,34.062195,33.68517,33.322952,32.969086,32.650536,32.38065,32.157337,31.972929,31.816498,31.671772,31.521141,31.358036,31.181595,31.00055,30.83065,30.684128,30.563328,30.456821,30.355843,30.260426,30.16982,30.084175,30.004581,29.931826,29.86379,29.798,29.737492,29.68549,29.641605,29.602938,29.56752,29.533403,29.496155,29.458107,29.420067,29.380308,29.337208,29.290928,29.241463,29.187447,29.129257,29.071342,29.016548,28.96525,28.916615,28.869923,28.82162,28.769997,28.717342,28.665218,28.61428,28.564684,28.516758,28.469696,28.417395,28.361225,28.302578,28.243168,28.185486,28.132023,28.082357,28.034542,27.989155,27.94544,27.903292,27.863789,27.828682,27.801163,27.78274,27.775208,27.778688,27.789585,27.801933,27.809546,27.808056,27.794502,27.76799,27.729935,27.689398,27.65615,27.634438,27.623276,27.615597,27.605026,27.587116,27.558147,27.515823,27.46127,27.399601,27.335041,27.267487,27.19704,27.12732,27.058617,26.991634,26.930693,26.876934,26.824757,26.775751,26.729492,26.686518,26.649216,26.619759,26.598309,26.579552,26.558979,26.532898,26.497168,26.453053,26.406235,26.36177,26.329048,26.311577,26.310719,26.310562,26.294718,26.25444,26.192047,26.135849,26.104572,26.100714,26.149498,26.172432,26.017868,25.632122,25.145454,24.551195,23.95574,23.521595,23.280447,23.16351,23.099411,23.028034,22.923323,22.823725,22.814379,22.92253,23.296024,24.069826,25.055656,25.955492,26.660725,26.986443,27.025612,26.974688,26.947231,26.964367,26.996826,27.029453,27.051788,27.06628,27.171057,27.39109,27.560291,27.510834,27.352243,26.698332,25.364029,23.799328,22.655058,22.115303,21.877052,21.75662,21.735666,21.751225,21.684036,21.51372,21.376684,21.440922,21.79982,22.873398,26.147282,29.420006,30.813862,31.017319,31.1715,31.24887,31.230246,31.109447,30.96443,30.844555,30.734285,30.621805,30.551027,30.442429,30.23211,29.88924,29.499958,29.189148,28.845823,28.032146,26.70888,24.324099,19.552197,15.313,13.51905,12.773653,12.489899,12.298986,12.145008,12.045437,12.02182,12.027526,12.913403,16.258175,21.851974,24.339306,24.941643,24.97599,24.971172,24.933968
35.40776,36.018486,36.61862,37.248188,38.025906,38.941772,40.014954,41.35173,42.79223,44.015,45.371635,47.20675,49.38276,51.241756,52.65333,53.648895,54.12188,54.433395,54.59606,54.657894,54.667908,54.65191,54.61839,54.57358,54.517883,54.452354,54.378323,54.314636,54.271225,54.242043,54.21525,54.183014,54.132423,54.053978,53.950478,53.82573,53.681038,53.51792,53.343704,53.17202,52.987778,52.800903,52.59552,52.37339,52.15633,51.959816,51.78369,51.603134,51.41932,51.23916,51.077206,50.941437,50.829372,50.739296,50.65834,50.56652,50.458138,50.325653,50.174507,50.026207,49.900253,49.790276,49.68296,49.562263,49.407158,49.222515,49.037945,48.880974,48.76236,48.66725,48.571175,48.364265,47.95459,47.328247,46.54098,45.684666,44.867424,43.915405,43.068336,42.45885,41.977654,41.44898,40.817863,40.05278,39.205513,38.21244,37.065826,36.11045,35.605797,35.28099,35.084213,34.950386,34.81267,34.615818,34.33365,33.98166,33.60881,33.254845,32.9137,32.60995,32.347813,32.12801,31.949625,31.800865,31.665068,31.522501,31.366528,31.197926,31.026243,30.8671,30.731453,30.618717,30.516987,30.41804,30.322857,30.23162,30.145195,30.065243,29.992886,29.926138,29.86261,29.806389,29.756954,29.713514,29.675697,29.641632,29.609303,29.574783,29.54064,29.508282,29.474293,29.435078,29.39122,29.344225,29.29256,29.236132,29.179218,29.12474,29.073576,29.025606,28.98046,28.934181,28.884848,28.833935,28.782442,28.73143,28.682007,28.634964,28.590025,28.540916,28.48788,28.431465,28.373108,28.315998,28.264095,28.217941,28.176468,28.140408,28.107822,28.076412,28.045387,28.015736,27.990484,27.971867,27.962564,27.96305,27.970465,27.979364,27.983358,27.977684,27.958942,27.92601,27.881115,27.834614,27.79752,27.77474,27.76495,27.760042,27.752432,27.73671,27.708065,27.66441,27.608276,27.545944,27.48195,27.415897,27.34713,27.27768,27.205791,27.131363,27.059483,26.991615,26.923595,26.85815,26.797234,26.743322,26.698662,26.664131,26.639694,26.617836,26.594543,26.56578,26.526909,26.479153,26.428764,26.381563,26.347456,26.330572,26.33075,26.331814,26.317423,26.278397,26.216805,26.161533,26.132313,26.134144,26.197433,26.240147,26.102085,25.721565,25.215956,24.616459,24.007404,23.55967,23.311611,23.193527,23.131962,23.06432,22.963398,22.866665,22.858685,22.968483,23.34342,24.1161,25.097013,25.973743,26.657442,26.96421,26.993374,26.94107,26.913465,26.930008,26.971445,27.0073,27.027885,27.032146,27.108149,27.324614,27.557545,27.50523,27.357141,26.791763,25.529034,23.972275,22.785227,22.181791,21.92797,21.785652,21.75658,21.774778,21.713604,21.54023,21.38226,21.410099,21.702137,22.506166,25.588974,29.233849,31.207943,31.57832,31.68996,31.775963,31.789803,31.739578,31.684465,31.644836,31.596481,31.533407,31.486286,31.36134,31.137133,30.740795,30.303265,29.991547,29.651888,28.807364,27.045385,23.429607,18.678577,15.16107,13.662262,12.984375,12.666473,12.456056,12.28511,12.185967,12.174852,12.195911,13.219551,16.974764,22.933968,24.989386,25.23288,25.22506,25.413517,25.623177
35.896267,36.55489,37.221527,37.92234,38.744637,39.66725,40.828533,42.138695,43.403187,44.638603,45.954437,47.783142,49.8567,51.655937,53.047195,54.011578,54.48642,54.797775,54.956505,55.00869,55.00254,54.96653,54.91249,54.848812,54.777676,54.700577,54.618286,54.550556,54.5066,54.480175,54.459373,54.435005,54.394566,54.32765,54.235596,54.120903,53.984264,53.82754,53.65863,53.490906,53.310036,53.124886,52.921288,52.6999,52.48276,52.286102,52.102997,51.9151,51.732574,51.56186,51.408684,51.275444,51.161484,51.067184,50.98041,50.8822,50.76895,50.63371,50.4812,50.332222,50.20587,50.094467,49.986916,49.86914,49.718994,49.537045,49.34678,49.17153,49.02379,48.89244,48.756584,48.52906,48.132645,47.541824,46.791176,45.971313,45.157883,44.24892,43.371666,42.688118,42.151173,41.569916,40.89622,40.094376,39.23462,38.09676,36.92623,36.077034,35.585484,35.27279,35.076527,34.93264,34.77839,34.564014,34.270798,33.919037,33.55593,33.217354,32.895164,32.60569,32.35314,32.137054,31.956417,31.803986,31.665941,31.522573,31.368483,31.206621,31.047787,30.90421,30.781607,30.67868,30.584185,30.489668,30.395943,30.304379,30.217247,30.137144,30.065773,30.001228,29.940243,29.887049,29.840157,29.798874,29.76231,29.727245,29.69545,29.663254,29.632776,29.605621,29.577919,29.545017,29.506798,29.464767,29.417297,29.363174,29.307434,29.253727,29.203005,29.155094,29.109865,29.064053,29.015621,28.965515,28.914436,28.863876,28.8156,28.770626,28.729053,28.6847,28.63668,28.58456,28.529276,28.47439,28.425116,28.38327,28.348763,28.32263,28.301687,28.281265,28.258595,28.233898,28.210167,28.190372,28.178143,28.174412,28.177061,28.181229,28.18041,28.169388,28.144257,28.103622,28.050308,27.99588,27.952562,27.925856,27.914268,27.908691,27.9002,27.882685,27.850727,27.802834,27.743126,27.679083,27.615192,27.550705,27.48478,27.417995,27.346817,27.269993,27.19218,27.114649,27.034714,26.955385,26.881702,26.8183,26.767122,26.72768,26.699377,26.672714,26.644077,26.61023,26.565384,26.5108,26.4554,26.407131,26.373297,26.356861,26.358479,26.361319,26.348568,26.311035,26.25048,26.19653,26.170013,26.178963,26.258343,26.322739,26.2028,25.826515,25.297508,24.68966,24.06313,23.598534,23.341476,23.221077,23.161674,23.097755,23.00085,22.907772,22.899609,23.009651,23.386467,24.158833,25.136225,25.991508,26.652018,26.936958,26.953592,26.89721,26.869358,26.891678,26.94019,26.97491,26.991096,26.991043,27.036306,27.226562,27.50747,27.495216,27.359154,26.87135,25.671406,24.134705,22.918875,22.239273,21.97265,21.809265,21.774158,21.794075,21.739311,21.57051,21.402771,21.401073,21.634144,22.388258,25.196388,28.95642,31.460215,32.134842,32.21921,32.331535,32.34446,32.307243,32.310608,32.363304,32.382683,32.324116,32.281513,32.178825,31.98304,31.607943,31.181318,30.839127,30.422306,29.54845,27.394012,22.803936,18.170673,15.202665,13.788818,13.1197,12.78622,12.562401,12.377306,12.272768,12.26557,12.301847,13.450919,17.552628,23.809227,25.427982,25.569565,25.60233,25.834318,26.180088
36.461426,37.188965,37.926567,38.665955,39.491005,40.422783,41.64923,42.923664,44.04016,45.25956,46.54413,48.394257,50.346153,52.071846,53.43387,54.347015,54.8166,55.12121,55.272102,55.314613,55.296963,55.248543,55.18248,55.107925,55.027153,54.941746,54.85179,54.77784,54.728767,54.699104,54.67813,54.656082,54.620445,54.56027,54.47596,54.36946,54.241165,54.09314,53.93347,53.774364,53.602303,53.424614,53.232132,53.018776,52.80223,52.6032,52.408722,52.226257,52.056595,51.898735,51.754997,51.627075,51.51426,51.41834,51.32911,51.22854,51.114487,50.9804,50.829964,50.682392,50.555824,50.442146,50.331818,50.21277,50.06329,49.881165,49.68496,49.49482,49.32431,49.164608,49.00144,48.762062,48.37839,47.82027,47.111336,46.33825,45.53929,44.719208,43.853382,43.090866,42.457607,41.78444,41.0325,40.17279,39.262585,38.000984,36.83374,36.091423,35.619087,35.3207,35.123882,34.96733,34.793755,34.560093,34.255516,33.90446,33.55134,33.22798,32.919212,32.637474,32.39317,32.18012,31.991138,31.825964,31.676683,31.528187,31.378544,31.228832,31.08527,30.956474,30.846136,30.7513,30.66106,30.568409,30.47475,30.382496,30.29491,30.214945,30.144073,30.080265,30.019722,29.965683,29.920864,29.884819,29.852348,29.818672,29.788631,29.758236,29.728968,29.702402,29.676964,29.649426,29.6178,29.581268,29.538109,29.486351,29.431664,29.378931,29.329433,29.282543,29.238035,29.19326,29.146078,29.097134,29.047054,28.99755,28.950787,28.908207,28.870298,28.831192,28.789154,28.74297,28.69297,28.642632,28.597828,28.561502,28.534367,28.517687,28.507187,28.496216,28.48034,28.459208,28.435951,28.414152,28.398365,28.390099,28.387909,28.387417,28.381966,28.36575,28.334375,28.286081,28.223898,28.160393,28.108908,28.075558,28.058979,28.049448,28.036755,28.014473,27.97707,27.923637,27.859577,27.793346,27.729034,27.665607,27.602734,27.54002,27.472816,27.398663,27.320744,27.239681,27.153803,27.065865,26.983858,26.914148,26.858212,26.81447,26.781704,26.749031,26.713326,26.671497,26.617626,26.55532,26.496243,26.44706,26.412014,26.39542,26.399532,26.40487,26.393017,26.355515,26.294487,26.24034,26.215033,26.229397,26.321688,26.405106,26.302433,25.930141,25.381317,24.760565,24.11483,23.633484,23.367493,23.244726,23.187424,23.127052,23.0341,22.945126,22.934982,23.043167,23.42081,24.19226,25.167759,26.004805,26.642834,26.906288,26.911463,26.852465,26.8282,26.863066,26.909657,26.943817,26.957275,26.953964,26.976646,27.12491,27.399529,27.487518,27.367657,26.935509,25.790329,24.278173,23.034527,22.279636,22.001858,21.82109,21.780073,21.799538,21.750937,21.591862,21.423983,21.403675,21.608395,22.268642,24.902225,28.794186,31.694216,32.592133,32.656185,32.837246,32.86113,32.825184,32.887516,33.004177,33.031868,32.962402,32.871407,32.76101,32.57101,32.234837,31.764227,31.32984,30.949936,30.11586,27.770826,22.659908,18.050488,15.29191,13.8448715,13.159132,12.825985,12.59887,12.408444,12.288771,12.271265,12.313062,13.572847,18.004354,24.579578,25.833687,25.878462,25.973213,26.2327,26.602112
37.135643,37.92607,38.69166,39.407295,40.219563,41.196518,42.416634,43.623714,44.692314,45.894722,47.17643,49.080982,50.8715,52.49752,53.816696,54.650955,55.107384,55.398026,55.537346,55.57089,55.54687,55.493904,55.42446,55.346897,55.262142,55.172096,55.076,54.99487,54.93762,54.90026,54.873962,54.84906,54.813103,54.75496,54.67475,54.574398,54.45453,54.317444,54.17077,54.02492,53.86698,53.70098,53.527725,53.3272,53.105576,52.900703,52.717575,52.548485,52.392647,52.247757,52.11418,51.992554,51.882668,51.787193,51.69796,51.597557,51.484962,51.35387,51.206757,51.060944,50.93338,50.81601,50.70066,50.57711,50.42495,50.24051,50.038696,49.83701,49.64965,49.469234,49.286457,49.04041,48.671486,48.1474,47.48342,46.76123,45.9969,45.243866,44.4453,43.650578,42.887833,42.08715,41.229088,40.300865,39.253593,37.942276,36.834404,36.163902,35.718876,35.43411,35.234276,35.06208,34.867165,34.613808,34.29813,33.947205,33.601776,33.28932,32.985653,32.71383,32.467422,32.243534,32.046173,31.872189,31.716528,31.565434,31.419254,31.278605,31.14619,31.027117,30.923405,30.831476,30.741085,30.64693,30.550901,30.456572,30.367996,30.288029,30.217741,30.155037,30.095684,30.0428,29.998272,29.961166,29.929256,29.901382,29.876854,29.851528,29.825245,29.80032,29.775925,29.749077,29.718227,29.68295,29.641216,29.592026,29.53889,29.486374,29.437439,29.39273,29.351795,29.31028,29.265915,29.219332,29.171234,29.123367,29.07817,29.037683,29.002514,28.967682,28.931051,28.891088,28.84764,28.803654,28.764925,28.73507,28.715317,28.706997,28.70506,28.701466,28.690647,28.671904,28.648586,28.624756,28.60585,28.593964,28.588161,28.584337,28.575592,28.555435,28.519085,28.464298,28.393904,28.321156,28.260323,28.218151,28.193737,28.177387,28.157732,28.128506,28.084423,28.024982,27.956268,27.88729,27.821533,27.757717,27.696716,27.637836,27.576141,27.508167,27.43499,27.356274,27.270466,27.181087,27.097404,27.026062,26.967934,26.920807,26.88314,26.84397,26.800426,26.74723,26.682673,26.61438,26.553205,26.503471,26.463797,26.44781,26.455696,26.463943,26.451862,26.41167,26.34734,26.290195,26.263195,26.280132,26.380219,26.477634,26.389874,26.022152,25.463772,24.824009,24.158852,23.663044,23.389158,23.264328,23.208858,23.151478,23.061981,22.977016,22.963945,23.068922,23.446178,24.216238,25.191708,26.012327,26.629932,26.874474,26.870586,26.814095,26.796944,26.836226,26.883795,26.918907,26.931438,26.9247,26.938091,27.058422,27.30701,27.486515,27.384216,26.985617,25.905506,24.42023,23.130333,22.31538,22.018646,21.82386,21.774292,21.79007,21.747007,21.599934,21.439583,21.416164,21.607143,22.198689,24.658422,28.66933,31.911415,32.953903,32.99635,33.20363,33.232918,33.207916,33.338562,33.48337,33.50067,33.50829,33.30271,33.13626,32.93498,32.630066,32.149357,31.633923,31.243204,30.636837,28.207195,22.86334,18.265121,15.486872,13.876655,13.161947,12.828295,12.604813,12.416538,12.281086,12.244988,12.277473,13.630522,18.37099,25.163351,26.28281,26.23901,26.336803,26.575594,26.897995
37.87374,38.677948,39.40828,40.13221,40.944603,41.960945,43.142174,44.28636,45.355522,46.55026,47.88053,49.714233,51.38026,52.942467,54.18988,54.923172,55.3562,55.624252,55.748863,55.774662,55.748848,55.698048,55.632282,55.55764,55.473766,55.38263,55.282356,55.194862,55.129242,55.082817,55.048965,55.01882,54.979454,54.92,54.840584,54.743916,54.631584,54.506096,54.3743,54.245865,54.10547,53.943924,53.777565,53.58971,53.380768,53.189835,53.02102,52.867325,52.726635,52.595306,52.47232,52.35789,52.25235,52.158813,52.070908,51.971237,51.859615,51.730225,51.584682,51.4386,51.30796,51.184837,51.06198,50.931007,50.773926,50.586517,50.380775,50.172173,49.97464,49.781082,49.58613,49.339386,48.989384,48.504482,47.893135,47.226227,46.52845,45.787872,45.06035,44.306007,43.43566,42.44822,41.458103,40.458817,39.158134,37.85982,36.887104,36.268505,35.8525,35.57917,35.373444,35.182663,34.965546,34.69421,34.370148,34.02124,33.683075,33.374847,33.08383,32.805084,32.55115,32.322544,32.114624,31.929565,31.766396,31.612238,31.468834,31.335613,31.21163,31.098831,30.998186,30.906261,30.813747,30.716661,30.617432,30.52058,30.43073,30.350426,30.280258,30.21827,30.159786,30.107712,30.063904,30.0274,29.996052,29.969044,29.94575,29.922993,29.901257,29.88166,29.862516,29.840363,29.81248,29.776852,29.735245,29.685246,29.632017,29.580223,29.532345,29.489285,29.45042,29.411263,29.369518,29.32528,29.279762,29.2365,29.197975,29.162895,29.129898,29.099094,29.067451,29.033604,28.997517,28.961418,28.930271,28.907719,28.895761,28.895437,28.90109,28.903759,28.897007,28.879843,28.855927,28.829613,28.807133,28.791191,28.781425,28.774162,28.762352,28.73872,28.698109,28.63775,28.559853,28.478054,28.40731,28.354965,28.320976,28.29597,28.267637,28.230358,28.179417,28.114666,28.042465,27.971813,27.905338,27.84164,27.782677,27.727814,27.67238,27.612118,27.54589,27.472427,27.390652,27.303787,27.22176,27.151142,27.092207,27.042257,26.99934,26.953384,26.899105,26.833998,26.760185,26.686884,26.62392,26.573889,26.532906,26.517725,26.525888,26.534103,26.520702,26.476677,26.407833,26.346382,26.315655,26.334515,26.438902,26.54518,26.469341,26.105572,25.541653,24.882294,24.199097,23.69061,23.409662,23.282969,23.229164,23.174454,23.088179,23.007114,22.991697,23.094097,23.471443,24.241407,25.219255,26.022903,26.622396,26.851242,26.840546,26.791176,26.78493,26.821785,26.872444,26.910484,26.924755,26.917439,26.926163,27.025837,27.25018,27.497433,27.411695,27.03797,26.01118,24.551058,23.225163,22.359222,22.035358,21.825222,21.762558,21.77091,21.731537,21.59644,21.446388,21.425478,21.617203,22.166836,24.44032,28.563114,32.118458,33.234077,33.244537,33.474648,33.499596,33.501976,33.65114,33.818027,33.874702,33.8871,33.678307,33.37533,33.135925,32.853516,32.44517,31.908344,31.381779,31.106895,28.522423,23.267193,18.71954,15.745548,13.905901,13.159137,12.828327,12.6085005,12.421232,12.2758255,12.224861,12.251954,13.642035,18.511265,25.580318,26.619572,26.530983,26.616722,26.793995,27.05226
38.647198,39.42341,40.151928,40.872517,41.688633,42.734818,43.89159,45.000813,46.09829,47.342094,48.754803,50.394215,51.94303,53.45687,54.593723,55.19126,55.58892,55.825264,55.931374,55.94981,55.925686,55.881905,55.824776,55.757454,55.677483,55.587265,55.48408,55.390736,55.316677,55.26059,55.21805,55.18108,55.136086,55.0727,54.991817,54.897118,54.791233,54.67917,54.565365,54.43933,54.301296,54.154613,54.006554,53.842827,53.662865,53.493984,53.3472,53.21527,53.094025,52.97849,52.86689,52.760147,52.65992,52.569283,52.483047,52.383106,52.269314,52.13668,51.986877,51.834587,51.695206,51.56137,51.425858,51.282658,51.117115,50.92536,50.717087,50.50566,50.303493,50.10298,49.90187,49.66053,49.336945,48.902496,48.360493,47.76836,47.133698,46.44105,45.719345,44.944553,44.018524,42.900867,41.725388,40.55078,39.050705,37.810326,36.97442,36.407585,36.02266,35.757057,35.539497,35.32487,35.08441,34.79866,34.472275,34.130753,33.802773,33.50096,33.20598,32.920547,32.65805,32.417496,32.195198,31.997124,31.825573,31.668018,31.526741,31.39952,31.28153,31.171743,31.070705,30.97582,30.878603,30.777004,30.674261,30.574831,30.48325,30.402185,30.332016,30.270195,30.212126,30.160603,30.117268,30.081617,30.05175,30.026274,30.005095,29.984928,29.965591,29.947454,29.928576,29.906103,29.878744,29.846292,29.80765,29.76151,29.712574,29.664402,29.619534,29.57991,29.54491,29.509457,29.471336,29.430313,29.387758,29.347498,29.313057,29.284922,29.26179,29.234688,29.207844,29.181694,29.15532,29.130058,29.10963,29.097443,29.095343,29.10404,29.117481,29.126112,29.122849,29.106422,29.080738,29.05035,29.022205,28.99986,28.98395,28.971603,28.955887,28.928837,28.88485,28.820353,28.736217,28.645718,28.564028,28.4992,28.452692,28.415966,28.376305,28.329548,28.271923,28.203573,28.130539,28.060932,27.996016,27.934353,27.878683,27.82861,27.779995,27.728004,27.669472,27.602325,27.525558,27.442825,27.363771,27.294094,27.233488,27.179314,27.129772,27.076523,27.008905,26.932037,26.85168,26.7755,26.71142,26.661587,26.621004,26.606564,26.614708,26.621532,26.605701,26.558456,26.485382,26.419691,26.38625,26.406778,26.511944,26.621548,26.553143,26.191235,25.62127,24.942333,24.242188,23.721834,23.434107,23.305664,23.25338,23.201118,23.117853,23.040705,23.023064,23.123405,23.502,24.272892,25.252968,26.042702,26.627035,26.843819,26.82962,26.789494,26.795761,26.832418,26.889185,26.93364,26.954025,26.951118,26.95918,27.044773,27.245127,27.499386,27.455387,27.11052,26.12807,24.688217,23.324446,22.404076,22.042503,21.820677,21.74659,21.744816,21.705307,21.580238,21.44078,21.424988,21.625301,22.134445,24.276197,28.51042,32.319115,33.49145,33.485973,33.71242,33.72421,33.7647,33.915684,34.073624,34.148483,34.142727,33.971916,33.571655,33.28311,33.017826,32.68932,32.148216,31.51844,31.556828,28.979546,23.739754,19.20644,16.019257,13.905807,13.145346,12.821775,12.605366,12.4192505,12.264802,12.200457,12.226443,13.579482,18.372885,25.917011,26.955984,26.80678,26.882793,27.019196,27.17004
39.405884,40.16559,40.888615,41.596893,42.42134,43.49723,44.640354,45.751553,46.925453,48.243034,49.715233,51.125145,52.556503,53.951874,54.94839,55.461853,55.810753,56.012062,56.100006,56.113182,56.0932,56.058887,56.01216,55.952698,55.87719,55.788292,55.682785,55.58465,55.50367,55.43943,55.389015,55.345078,55.29337,55.2241,55.1392,55.04328,54.945988,54.843735,54.72315,54.60287,54.477234,54.34707,54.210236,54.06375,53.912186,53.768894,53.646343,53.53769,53.43656,53.336914,53.236923,53.138687,53.04516,52.95914,52.875477,52.77456,52.655697,52.51539,52.35649,52.193512,52.04177,51.89449,51.743713,51.58571,51.40999,51.213913,51.00557,50.79661,50.596664,50.397087,50.197815,49.96897,49.678276,49.302166,48.840485,48.336388,47.77378,47.13099,46.39492,45.53969,44.54403,43.37936,42.0153,40.426006,38.90474,37.801388,37.071655,36.559364,36.20455,35.94358,35.710655,35.469925,35.20712,34.911076,34.58784,34.259228,33.945755,33.649097,33.340363,33.04766,32.777275,32.523705,32.287796,32.07817,31.899446,31.739136,31.599693,31.477196,31.363457,31.254848,31.151476,31.051693,30.949932,30.844608,30.739277,30.637928,30.544655,30.46213,30.39077,30.327915,30.268925,30.216541,30.172455,30.136763,30.108295,30.085514,30.067198,30.04999,30.03277,30.01494,29.994358,29.968884,29.938622,29.904892,29.864697,29.81781,29.768965,29.721863,29.679264,29.64311,29.612587,29.582527,29.551107,29.517918,29.484035,29.452717,29.426247,29.40409,29.38829,29.372217,29.352135,29.332626,29.316322,29.302559,29.293558,29.292274,29.300167,29.317331,29.3376,29.351173,29.350502,29.334028,29.305906,29.270723,29.236073,29.206379,29.183346,29.165104,29.14505,29.114737,29.068203,29.000965,28.91213,28.814102,28.721813,28.643908,28.583778,28.534065,28.482052,28.42553,28.361916,28.291561,28.219757,28.15306,28.091116,28.032505,27.980368,27.934639,27.891953,27.847298,27.796036,27.735493,27.664595,27.586903,27.511482,27.443195,27.381165,27.322762,27.266705,27.205538,27.126644,27.041706,26.957378,26.879047,26.813889,26.76397,26.724186,26.709501,26.716587,26.720951,26.702093,26.651947,26.574898,26.504795,26.47105,26.491753,26.592575,26.699684,26.634466,26.27288,25.69773,25.00169,24.285713,23.755543,23.462502,23.331676,23.28004,23.229475,23.14878,23.075457,23.056866,23.157013,23.539078,24.312561,25.293388,26.074493,26.647806,26.856049,26.843449,26.813343,26.82787,26.866974,26.932392,26.985722,27.01542,27.020733,27.031631,27.108599,27.289717,27.530817,27.521194,27.197779,26.251022,24.830038,23.432468,22.454472,22.045553,21.815102,21.730186,21.715714,21.67281,21.555626,21.42635,21.417933,21.636822,22.116459,24.202366,28.575989,32.566498,33.729187,33.721977,33.930305,33.92048,34.00901,34.15033,34.274933,34.34105,34.26947,34.14781,33.744865,33.406197,33.140396,32.88144,32.382046,31.751095,31.95588,29.589878,24.272629,19.658108,16.255745,13.889889,13.144566,12.82995,12.617121,12.427065,12.268557,12.196904,12.221211,13.518028,18.177376,26.133274,27.21389,26.996195,27.009033,27.09378,27.159912
40.09263,40.84261,41.551086,42.248222,43.09371,44.199043,45.34881,46.498543,47.79258,49.211876,50.546104,51.823456,53.174797,54.41294,55.265976,55.732464,56.030968,56.199493,56.27225,56.281937,56.26549,56.23851,56.199333,56.144447,56.071236,55.982544,55.875374,55.774963,55.691086,55.623093,55.568497,55.52041,55.463753,55.389923,55.302338,55.20895,55.101776,54.97238,54.835773,54.719753,54.608414,54.494118,54.370148,54.23907,54.10856,53.986538,53.883667,53.79402,53.709335,53.623047,53.533966,53.445175,53.359966,53.280365,53.200466,53.09859,52.973392,52.823483,52.65374,52.47899,52.314556,52.154327,51.988598,51.816,51.63062,51.431557,51.22596,51.02411,50.832336,50.640182,50.449104,50.237373,49.981537,49.664307,49.284508,48.871834,48.38856,47.793457,47.046665,46.095924,45.000237,43.74955,42.096107,40.21042,38.785667,37.81151,37.148697,36.688057,36.357903,36.098244,35.848686,35.582386,35.29955,34.997932,34.68439,34.3725,34.069023,33.76506,33.45466,33.161774,32.887367,32.626167,32.382378,32.16639,31.984362,31.82402,31.687927,31.571413,31.463211,31.35719,31.253693,31.15269,31.049946,30.943993,30.838242,30.736067,30.640991,30.555618,30.480684,30.413778,30.350372,30.293503,30.245617,30.207878,30.179892,30.159977,30.145557,30.132399,30.117962,30.100407,30.077103,30.046444,30.009619,29.96873,29.92156,29.867836,29.813328,29.763004,29.719685,29.684582,29.657082,29.63224,29.608793,29.586174,29.564919,29.54723,29.533558,29.521606,29.514908,29.5116,29.503555,29.491848,29.482365,29.477962,29.478273,29.485636,29.50135,29.52474,29.549706,29.56645,29.567024,29.549612,29.518467,29.478123,29.436611,29.399067,29.368229,29.343304,29.318272,29.284538,29.235987,29.167263,29.075703,28.972439,28.871655,28.782362,28.709969,28.64843,28.58532,28.520569,28.452692,28.382133,28.31321,28.250608,28.192375,28.137106,28.087595,28.044468,28.005516,27.965778,27.919613,27.864277,27.798744,27.7258,27.653723,27.586575,27.52295,27.46046,27.398787,27.33007,27.243767,27.154192,27.067692,26.988468,26.922972,26.8723,26.832172,26.815693,26.820349,26.821787,26.800276,26.747955,26.667885,26.594196,26.561516,26.58153,26.674309,26.77418,26.708763,26.346756,25.768417,25.059399,24.330406,23.792738,23.49524,23.3608,23.308167,23.25798,23.179104,23.109398,23.092014,23.195004,23.58384,24.363354,25.345873,26.12294,26.689232,26.8918,26.88237,26.860483,26.88006,26.923542,26.999245,27.061928,27.101479,27.115772,27.130136,27.201265,27.369127,27.596645,27.605,27.294369,26.377058,24.975796,23.550959,22.514996,22.05877,21.81321,21.71762,21.689571,21.640343,21.527386,21.404598,21.4043,21.634426,22.111938,24.227152,28.77045,32.869102,33.945305,33.947044,34.1336,34.101845,34.20907,34.343285,34.430656,34.45541,34.328644,34.21157,33.936176,33.53841,33.24136,33.045357,32.617905,32.051437,32.294773,30.309587,24.845654,20.013088,16.3968,13.862701,13.155238,12.851225,12.639812,12.448315,12.291073,12.214781,12.234449,13.531927,18.18219,26.13557,27.333256,27.063885,26.989943,27.00545,26.993195
40.672733,41.405228,42.10515,42.80479,43.69297,44.806587,45.98432,47.2255,48.63,50.074127,51.20572,52.44619,53.75353,54.854347,55.58203,56.003,56.261497,56.40349,56.464508,56.47081,56.454613,56.429653,56.392406,56.337494,56.263756,56.174606,56.067688,55.968483,55.885605,55.819084,55.766647,55.718327,55.659374,55.578022,55.481712,55.372272,55.229843,55.064125,54.924564,54.808918,54.704235,54.603645,54.497,54.38224,54.2656,54.15645,54.0655,53.987717,53.913464,53.836372,53.756413,53.677086,53.600853,53.52868,53.453224,53.351078,53.220398,53.062057,52.88321,52.69902,52.524418,52.353897,52.175392,51.989944,51.79606,51.594814,51.392982,51.19979,51.01825,50.835754,50.654694,50.4598,50.235046,49.96947,49.662506,49.332817,48.923985,48.379204,47.627815,46.60647,45.41503,44.0033,41.972797,40.08663,38.753227,37.83959,37.21633,36.794357,36.480595,36.219803,35.95544,35.668915,35.372154,35.063805,34.75261,34.449574,34.149406,33.8413,33.545174,33.261524,32.990322,32.72997,32.486145,32.270653,32.09011,31.932775,31.801268,31.690664,31.588074,31.486115,31.385628,31.28783,31.187466,31.083664,30.97956,30.877884,30.781555,30.69299,30.613277,30.54008,30.469334,30.404724,30.350214,30.308681,30.28038,30.262897,30.252909,30.24416,30.232443,30.214241,30.186316,30.14785,30.101429,30.049984,29.992157,29.927158,29.861946,29.802809,29.753164,29.714603,29.687313,29.665604,29.648844,29.63659,29.62894,29.626474,29.628014,29.63089,29.637737,29.645008,29.651285,29.651348,29.64858,29.650051,29.656166,29.668686,29.688904,29.715359,29.742188,29.759758,29.759878,29.740543,29.70602,29.66077,29.61295,29.568108,29.52977,29.498055,29.467657,29.430355,29.380089,29.310875,29.218609,29.11285,29.006613,28.909012,28.827148,28.756235,28.684494,28.613768,28.5436,28.474464,28.409588,28.351696,28.297466,28.245445,28.197468,28.15489,28.116833,28.078781,28.034815,27.982424,27.920666,27.851418,27.781847,27.715092,27.649452,27.583122,27.516876,27.442059,27.351616,27.259455,27.171848,27.092607,27.027126,26.976078,26.935814,26.916328,26.917377,26.915997,26.892725,26.839125,26.7572,26.680424,26.64856,26.667187,26.74925,26.837826,26.769337,26.406778,25.827835,25.111433,24.373175,23.83118,23.530762,23.3917,23.336481,23.285416,23.207592,23.141418,23.125942,23.2333,23.63137,24.419922,25.40688,26.185091,26.748093,26.947433,26.939568,26.922958,26.947346,26.99517,27.080872,27.151901,27.200428,27.223602,27.241201,27.307636,27.466448,27.679169,27.696548,27.392492,26.498344,25.11726,23.672186,22.581955,22.084724,21.817455,21.709244,21.668457,21.612501,21.500607,21.380898,21.388596,21.61699,22.118399,24.325718,29.033955,33.183777,34.155243,34.166756,34.330185,34.27927,34.36267,34.495113,34.543884,34.491394,34.352837,34.21623,34.11279,33.661697,33.32731,33.18927,32.831726,32.337322,32.597473,30.977406,25.399006,20.252335,16.412035,13.821447,13.162508,12.873509,12.661071,12.475236,12.320611,12.237387,12.2496395,13.642242,18.509335,26.005867,27.31728,26.992624,26.867416,26.851147,26.777493
41.14638,41.870293,42.574093,43.29982,44.249825,45.33859,46.551044,47.93325,49.386913,50.683704,51.829514,53.026894,54.28292,55.265984,55.889328,56.278587,56.50923,56.632416,56.684494,56.68644,56.666733,56.638474,56.5979,56.539078,56.46216,56.369698,56.261658,56.163933,56.083855,56.023186,55.978836,55.933296,55.872845,55.777374,55.656223,55.495758,55.3199,55.164413,55.029858,54.920296,54.82278,54.729332,54.629395,54.520947,54.4105,54.307358,54.221436,54.148956,54.07959,54.00776,53.93483,53.86398,53.79603,53.731155,53.659904,53.55832,53.424267,53.26075,53.076794,52.887424,52.70675,52.529427,52.34118,52.144997,51.943275,51.739098,51.53942,51.352943,51.179443,51.004765,50.831757,50.649887,50.449104,50.223404,49.97258,49.707634,49.359226,48.85766,48.109985,47.048912,45.79428,44.25575,41.943726,40.097664,38.805313,37.916645,37.316338,36.914894,36.61032,36.349495,36.07753,35.77764,35.47111,35.14911,34.823376,34.51561,34.22132,33.933033,33.650154,33.37757,33.116776,32.86554,32.629295,32.420586,32.245148,32.091785,31.962921,31.853077,31.75085,31.650187,31.551548,31.455555,31.357327,31.255928,31.154194,31.054394,30.958773,30.869114,30.786278,30.707893,30.630205,30.557592,30.495926,30.450157,30.421371,30.40628,30.400003,30.394377,30.38401,30.36325,30.328358,30.279827,30.221611,30.157074,30.084766,30.003403,29.920998,29.845226,29.781414,29.733295,29.702084,29.680256,29.667868,29.664968,29.671478,29.686003,29.704185,29.72118,29.740288,29.76001,29.776802,29.78975,29.798534,29.805107,29.81452,29.828789,29.850134,29.876228,29.901682,29.917336,29.915066,29.892939,29.855347,29.806698,29.75494,29.705608,29.662384,29.625677,29.590776,29.550322,29.49855,29.42926,29.33751,29.231272,29.122234,29.01939,28.930925,28.853132,28.775139,28.700253,28.628716,28.561136,28.500008,28.44645,28.396042,28.347107,28.300564,28.257801,28.218487,28.179243,28.135368,28.084265,28.024906,27.958385,27.890568,27.82385,27.75661,27.687561,27.618088,27.538822,27.446747,27.353973,27.26593,27.185888,27.119232,27.068409,27.029406,27.00729,27.004368,27.000448,26.976059,26.921467,26.838102,26.756676,26.724571,26.73996,26.80803,26.881527,26.807564,26.444965,25.86951,25.151245,24.406727,23.865042,23.565298,23.421478,23.362968,23.310356,23.233112,23.170513,23.155075,23.265362,23.672733,24.470297,25.463009,26.248825,26.811985,27.010216,27.00335,26.990398,27.01898,27.069054,27.162325,27.240204,27.297117,27.330624,27.353209,27.416252,27.568268,27.765146,27.786297,27.481213,26.601292,25.238884,23.781109,22.643986,22.111115,21.825907,21.700531,21.649889,21.59007,21.478199,21.36417,21.380175,21.608408,22.141853,24.4617,29.304165,33.478207,34.377205,34.38936,34.52771,34.455303,34.5058,34.63129,34.631645,34.483696,34.332504,34.20929,34.19136,33.735588,33.397034,33.29756,32.999138,32.575134,32.884922,31.459564,25.884209,20.408627,16.327389,13.7708645,13.162807,12.893543,12.682034,12.503417,12.349485,12.257313,12.259844,13.830606,19.13224,25.920803,27.20369,26.808292,26.663448,26.686962,26.63193
