23.345745,23.368483,23.358,23.304937,23.232327,23.079613,22.85006,22.582474,22.353722,22.233452,22.19756,22.204845,22.266685,22.340824,22.414839,22.48441,22.53161,22.573164,22.61398,22.636177,22.639072,22.638378,22.634212,22.63045,22.626043,22.620407,22.615852,22.614906,22.616898,22.621181,22.626614,22.634201,22.642958,22.651463,22.662014,22.673038,22.682053,22.692675,22.705053,22.715895,22.725739,22.735817,22.742981,22.747093,22.751713,22.756218,22.760046,22.765177,22.771278,22.77681,22.783375,22.78994,22.794641,22.798866,22.8029,22.805916,22.808243,22.81208,22.817411,22.82288,22.830729,22.841003,22.850754,22.861046,22.872066,22.8806,22.887001,22.89257,22.894985,22.894604,22.892101,22.88634,22.879135,22.87764,22.88065,22.884714,22.891462,22.899916,22.908012,22.917015,22.930838,22.94852,22.96717,22.99532,23.0243,23.04471,23.076492,23.118484,23.157734,23.197865,23.244335,23.286406,23.324394,23.370382,23.411947,23.442959,23.479813,23.51437,23.539505,23.558807,23.568031,23.564564,23.539883,23.503986,23.471313,23.441822,23.40533,23.370178,23.341167,23.312641,23.293266,23.285185,23.287853,23.317677,23.365067,23.420462,23.48894,23.543552,23.57756,23.594822,23.607416,23.631947,23.70274,23.860004,24.058369,24.320301,24.631243,24.871693,25.031631,25.112637,25.10302,25.066216,25.025152,25.001785,24.999306,25.005463,25.017649,25.026455,25.03001,25.02847,25.024635,25.02145,25.019236,25.020863,25.026371,25.035324,25.045856,25.054806,25.065117,25.075779,25.084686,25.094841,25.108536,25.12318,25.138334,25.159184,25.181763,25.202633,25.230507,25.260445,25.285484,25.314846,25.345749,25.370918,25.397373,25.423592,25.443207,25.460205,25.478848,25.495121,25.50848,25.523342,25.537617,25.549461,25.563387,25.580372,25.596748,25.613892,25.635395,25.656471,25.676178,25.701263,25.72599,25.746387,25.77089,25.795109,25.814137,25.83563,25.85741,25.87449,25.89139,25.91029,25.92707,25.94203,25.959675,25.976898,25.991772,26.010637,26.032446,26.052502,26.07659,26.10588,26.133453,26.16201,26.197662,26.232035,26.262573,26.299747,26.335201,26.363207,26.3946,26.424011,26.445711,26.46727,26.48703,26.500683,26.511723,26.520985,26.526209,26.52927,26.531288,26.532326,26.533283,26.535454,26.539776,26.545292,26.553614,26.56567,26.57778,26.589468,26.603424,26.616545,26.627758,26.64196,26.65681,26.669338,26.68444,26.699446,26.710497,26.721394,26.73478,26.748117,26.760612,26.775671,26.78986,26.801645,26.816525,26.832886,26.847466,26.867245,26.885927,26.896326,26.900654,26.902277,26.904833,26.910513,26.923525,26.938362,26.949226,26.946121,26.931812,26.918224,26.891758,26.857328,26.829048,26.804573,26.78189,26.766335,26.756044,26.743282,26.719818,26.687191,26.616547,26.496738,26.36612,26.213205,26.004272,25.817976,25.72866,25.694542,25.67548,25.620216,25.48249,25.246872,24.993967,24.3321,23.313374,22.375027,21.650402,21.069874,20.696377,20.443966,20.273548,20.18486,20.10322,19.975586,19.820248,19.67912,19.514256,19.365154,19.269028,19.184542,19.101028,19.023859,18.941864,18.824032,18.6941
23.08105,23.114838,23.125343,23.098068,23.04915,22.946747,22.784256,22.582329,22.389725,22.273506,22.234905,22.237522,22.286587,22.344297,22.402369,22.456009,22.491764,22.525406,22.553036,22.561462,22.555124,22.549854,22.544712,22.539654,22.533844,22.526731,22.520916,22.51868,22.519361,22.522678,22.527363,22.534319,22.542688,22.55093,22.561155,22.571861,22.580627,22.590992,22.603321,22.614372,22.624523,22.635157,22.64307,22.648102,22.6537,22.658937,22.663212,22.668797,22.675053,22.680431,22.68686,22.693483,22.698502,22.703182,22.707947,22.711704,22.714592,22.719002,22.724659,22.730194,22.73811,22.748383,22.75808,22.768295,22.77921,22.7877,22.79417,22.800163,22.803465,22.804218,22.803661,22.800499,22.795788,22.797165,22.803284,22.809948,22.819017,22.82994,22.840664,22.853107,22.872368,22.894106,22.91349,22.936035,22.960917,22.984905,23.018497,23.061527,23.101547,23.143532,23.190687,23.23124,23.266165,23.309261,23.349632,23.380714,23.41901,23.454453,23.47894,23.504934,23.525764,23.534508,23.531288,23.511633,23.484486,23.461313,23.431185,23.400377,23.37387,23.345032,23.32328,23.313202,23.313198,23.338026,23.3801,23.432896,23.499767,23.553972,23.588459,23.60837,23.619984,23.636944,23.696098,23.829117,23.994781,24.207825,24.446392,24.617542,24.721428,24.757812,24.729504,24.689236,24.65508,24.642456,24.644762,24.655434,24.67035,24.680134,24.684597,24.683434,24.679546,24.676332,24.674301,24.676163,24.681656,24.690536,24.700863,24.709522,24.719414,24.729445,24.737656,24.74695,24.759472,24.772892,24.786762,24.805935,24.826784,24.846066,24.871918,24.899868,24.9234,24.951233,24.980864,25.005247,25.031063,25.056904,25.076439,25.093386,25.11198,25.128176,25.141413,25.156096,25.170124,25.181704,25.195236,25.211628,25.227333,25.24367,25.263964,25.283672,25.301987,25.325108,25.34773,25.366322,25.388657,25.410736,25.428104,25.447853,25.468052,25.484081,25.500126,25.518421,25.534973,25.54986,25.56757,25.584824,25.599564,25.618029,25.639002,25.658031,25.680597,25.707691,25.732967,25.758984,25.791344,25.822529,25.850288,25.884365,25.91737,25.943855,25.974098,26.003473,26.026035,26.04914,26.071522,26.087988,26.101824,26.114029,26.121254,26.125443,26.127798,26.127884,26.12728,26.126678,26.127045,26.128746,26.132645,26.139711,26.14782,26.15636,26.167332,26.178324,26.18804,26.200531,26.21371,26.224825,26.238426,26.252289,26.262878,26.27398,26.287428,26.300522,26.313055,26.328386,26.342075,26.352106,26.3634,26.375696,26.387564,26.403801,26.421448,26.434664,26.446564,26.455557,26.459896,26.462172,26.467896,26.479149,26.49422,26.505548,26.511799,26.514847,26.505898,26.488503,26.471592,26.450905,26.428644,26.414108,26.408337,26.402971,26.390814,26.371523,26.32432,26.237343,26.138168,26.015644,25.85273,25.713705,25.653843,25.617481,25.582298,25.538393,25.414806,25.190397,24.94099,24.386108,23.43789,22.452671,21.712301,21.121155,20.737123,20.46981,20.280977,20.179508,20.0938,19.966812,19.815498,19.677485,19.514774,19.365555,19.267673,19.180918,19.095772,19.018553,18.93729,18.821274,18.69339
22.797215,22.834446,22.857353,22.8511,22.825527,22.763002,22.652004,22.505001,22.3536,22.251923,22.211697,22.204576,22.234325,22.273079,22.314226,22.356293,22.3867,22.412632,22.43112,22.434872,22.430754,22.423992,22.415823,22.409306,22.402203,22.394085,22.387566,22.384571,22.384407,22.387009,22.391079,22.397356,22.40511,22.412838,22.422398,22.432396,22.440584,22.450218,22.46188,22.472546,22.482414,22.492998,22.501255,22.506947,22.513462,22.519615,22.524595,22.531008,22.537941,22.543697,22.550573,22.557909,22.563803,22.56946,22.575504,22.580473,22.584354,22.589746,22.595993,22.601734,22.609715,22.61982,22.62923,22.639027,22.64949,22.657728,22.664085,22.670313,22.674412,22.676273,22.677921,22.677826,22.676033,22.68069,22.6903,22.699951,22.71236,22.72744,22.741308,22.75484,22.77275,22.791609,22.809048,22.825932,22.847391,22.873878,22.90855,22.950916,22.989311,23.03104,23.078005,23.117573,23.150389,23.18951,23.226368,23.256222,23.29499,23.331635,23.35648,23.38269,23.404,23.416605,23.433664,23.430897,23.409866,23.393955,23.372103,23.34806,23.32598,23.30254,23.28335,23.27203,23.27138,23.293137,23.330616,23.379925,23.443914,23.497004,23.531755,23.55397,23.566046,23.579405,23.629503,23.73927,23.872639,24.03783,24.213299,24.33067,24.394707,24.402065,24.365376,24.330502,24.303507,24.295977,24.300135,24.31268,24.32808,24.337072,24.341034,24.339432,24.335371,24.33228,24.330868,24.333466,24.339325,24.348522,24.358898,24.367367,24.376862,24.386196,24.393627,24.401976,24.413248,24.42541,24.438,24.455555,24.474775,24.492596,24.5166,24.542755,24.564936,24.591402,24.619923,24.643646,24.668968,24.6946,24.714172,24.731182,24.749863,24.766087,24.779278,24.793869,24.807709,24.819061,24.832233,24.848026,24.863056,24.878593,24.897717,24.916119,24.933117,24.954365,24.974972,24.991825,25.01205,25.032051,25.047821,25.065891,25.084595,25.099665,25.114948,25.132748,25.149174,25.164076,25.181978,25.199425,25.214209,25.232523,25.252945,25.271181,25.292519,25.317738,25.340961,25.364632,25.393795,25.421711,25.44647,25.477016,25.506971,25.53135,25.559753,25.588451,25.611439,25.63573,25.660553,25.679882,25.696707,25.712444,25.722603,25.728912,25.733057,25.733763,25.732868,25.73087,25.728432,25.727009,25.72698,25.729237,25.733177,25.738167,25.7454,25.75341,25.760899,25.770836,25.781708,25.791094,25.802973,25.815659,25.825838,25.837013,25.851099,25.864975,25.878124,25.893867,25.907509,25.917309,25.927357,25.936234,25.943413,25.952686,25.964771,25.976768,25.991053,26.00224,26.005787,26.004934,26.006073,26.0117,26.01976,26.033918,26.0501,26.06167,26.067564,26.067188,26.062237,26.049423,26.037222,26.0304,26.023602,26.018147,26.010998,26.000706,25.971859,25.913181,25.84254,25.751059,25.62665,25.521881,25.487118,25.461914,25.429499,25.398962,25.293587,25.088253,24.852213,24.40083,23.533741,22.5317,21.767414,21.162191,20.780544,20.497585,20.287956,20.172634,20.082518,19.957172,19.81187,19.678663,19.519646,19.370972,19.27105,19.181128,19.09298,19.0145,18.932846,18.817486,18.690725
22.557522,22.598093,22.626825,22.631886,22.621387,22.5808,22.497458,22.382135,22.263689,22.180494,22.141386,22.125362,22.136192,22.15694,22.181871,22.218235,22.251696,22.274162,22.291248,22.297564,22.298237,22.29146,22.280724,22.27318,22.265215,22.256523,22.249687,22.24635,22.245806,22.248045,22.251762,22.257591,22.264874,22.272175,22.281178,22.290592,22.29831,22.30736,22.31852,22.328953,22.338688,22.349354,22.357964,22.364218,22.371464,22.37834,22.383926,22.391102,22.398846,22.405277,22.412952,22.421406,22.428486,22.435356,22.442879,22.449192,22.45419,22.460655,22.467564,22.473577,22.481657,22.491589,22.50072,22.51014,22.520153,22.528076,22.534252,22.540596,22.545288,22.548038,22.551388,22.553688,22.554234,22.561539,22.573973,22.586014,22.600964,22.619377,22.635124,22.64714,22.658337,22.668812,22.680428,22.698563,22.724323,22.751522,22.786541,22.828217,22.865154,22.903996,22.94849,22.987192,23.020042,23.056896,23.09021,23.117752,23.153526,23.189331,23.216198,23.244936,23.269333,23.284771,23.305264,23.30851,23.294498,23.284859,23.270657,23.253479,23.236324,23.219704,23.205036,23.194023,23.193348,23.213161,23.247528,23.293247,23.353897,23.40549,23.440289,23.463158,23.476013,23.490166,23.535137,23.625828,23.73156,23.857708,23.990532,24.077995,24.118362,24.10993,24.071592,24.044989,24.022236,24.015064,24.020397,24.033157,24.047478,24.054977,24.057869,24.055656,24.051575,24.048826,24.048304,24.051872,24.058325,24.068048,24.078629,24.08702,24.096233,24.104986,24.111757,24.119324,24.129564,24.140697,24.152275,24.168541,24.186481,24.20318,24.225788,24.250595,24.271763,24.297201,24.324902,24.348167,24.373146,24.398663,24.418312,24.435402,24.454197,24.470478,24.483639,24.498154,24.511831,24.522972,24.53582,24.551083,24.5655,24.580347,24.598501,24.615849,24.631783,24.651575,24.670633,24.686161,24.704771,24.723186,24.737743,24.75456,24.77215,24.786507,24.801235,24.818674,24.834995,24.849894,24.867924,24.88552,24.900337,24.918564,24.938616,24.956303,24.976784,25.000668,25.022394,25.044304,25.07101,25.096327,25.118599,25.14611,25.173298,25.195625,25.222115,25.249794,25.272732,25.297596,25.32405,25.34552,25.364681,25.383467,25.396452,25.405025,25.41151,25.413776,25.413568,25.411503,25.407776,25.404453,25.401781,25.400476,25.40105,25.402962,25.406683,25.411669,25.41681,25.424023,25.432497,25.44022,25.450474,25.462086,25.471914,25.48315,25.497583,25.511822,25.525314,25.541523,25.555609,25.5658,25.575897,25.583836,25.589344,25.59545,25.601551,25.606411,25.611305,25.614899,25.616463,25.617435,25.620125,25.62569,25.633076,25.641724,25.650894,25.658825,25.66698,25.672955,25.675968,25.678856,25.6925,25.704441,25.694134,25.684334,25.67717,25.670376,25.651928,25.611507,25.56025,25.494469,25.395706,25.308064,25.288979,25.279388,25.26006,25.241467,25.153233,24.968584,24.750675,24.375332,23.582186,22.598232,21.817533,21.197838,20.819477,20.522337,20.29468,20.167862,20.07354,19.949913,19.810757,19.682648,19.527826,19.380207,19.2785,19.185425,19.093866,19.013432,18.930573,18.814804,18.688168
22.264904,22.349564,22.403496,22.40887,22.410809,22.372162,22.293531,22.204597,22.115387,22.050049,22.013039,21.990345,21.985832,21.991474,22.002167,22.024605,22.04895,22.0662,22.081348,22.08863,22.090046,22.085114,22.074749,22.06506,22.054413,22.042671,22.033516,22.028023,22.0263,22.028683,22.032764,22.039864,22.049173,22.058477,22.069948,22.082294,22.092936,22.106522,22.124893,22.14328,22.161839,22.182457,22.198639,22.210175,22.219559,22.225113,22.228888,22.234175,22.240921,22.247602,22.256474,22.267601,22.277779,22.287613,22.298344,22.307077,22.313763,22.321312,22.328249,22.333754,22.340965,22.350193,22.3593,22.370224,22.380726,22.387627,22.393282,22.399935,22.405937,22.41087,22.412247,22.410667,22.409492,22.415775,22.428612,22.441088,22.451645,22.461426,22.469288,22.477104,22.488247,22.502434,22.517597,22.54274,22.575607,22.60648,22.641378,22.68044,22.714975,22.750854,22.791634,22.827272,22.858034,22.893906,22.92638,22.951666,22.985294,23.019947,23.046782,23.077003,23.10674,23.127653,23.143017,23.147545,23.14292,23.140448,23.135098,23.125946,23.114597,23.105213,23.096716,23.089,23.089119,23.10561,23.134777,23.175951,23.232054,23.280884,23.314678,23.337877,23.351337,23.365448,23.40283,23.471813,23.549171,23.64214,23.738205,23.797733,23.816708,23.798365,23.76227,23.738708,23.718445,23.712421,23.718273,23.730717,23.743858,23.750166,23.752478,23.75038,23.746967,23.745178,23.746094,23.750927,23.758078,23.768341,23.779015,23.78717,23.795898,23.803879,23.80987,23.816544,23.82565,23.835669,23.846138,23.861015,23.877586,23.893068,23.91418,23.937548,23.957623,23.981928,24.008701,24.03142,24.055988,24.08131,24.100979,24.118122,24.136972,24.153234,24.166302,24.180656,24.194069,24.204895,24.21728,24.231852,24.24554,24.259571,24.276617,24.292809,24.307625,24.32595,24.343512,24.357758,24.374855,24.391815,24.40527,24.420956,24.43755,24.451248,24.465431,24.482456,24.498566,24.51331,24.531254,24.548763,24.563435,24.581345,24.600807,24.617798,24.637276,24.659725,24.679922,24.700111,24.724451,24.747257,24.767128,24.791655,24.816036,24.836227,24.860645,24.88699,24.9095,24.93449,24.962048,24.985184,25.006268,25.027832,25.043722,25.054832,25.06434,25.069214,25.070724,25.06995,25.066423,25.062382,25.05814,25.054083,25.051592,25.050346,25.050045,25.051165,25.053062,25.056452,25.061506,25.066841,25.074806,25.084856,25.09402,25.104935,25.11921,25.133293,25.146584,25.162458,25.17628,25.186417,25.196362,25.20371,25.20824,25.21249,25.215355,25.216587,25.217285,25.216286,25.21392,25.211254,25.207874,25.206291,25.20732,25.210743,25.217772,25.226038,25.237202,25.250065,25.260654,25.269993,25.286022,25.303682,25.31557,25.334759,25.34315,25.330217,25.313343,25.285011,25.250385,25.202858,25.124607,25.053375,25.044914,25.050606,25.047401,25.038788,24.969072,24.8105,24.61746,24.306118,23.588861,22.651268,21.872898,21.238478,20.851875,20.54872,20.307964,20.167439,20.066872,19.944702,19.812853,19.690601,19.541227,19.395527,19.291979,19.195108,19.098957,19.015388,18.930216,18.812853,18.685343
21.915592,22.017612,22.092724,22.111876,22.11953,22.085163,22.019161,21.957111,21.894482,21.844868,21.811539,21.787323,21.77462,21.770302,21.769577,21.777222,21.789482,21.800537,21.810759,21.814564,21.812695,21.80571,21.793346,21.78078,21.767017,21.752361,21.741236,21.733871,21.730728,21.732414,21.73591,21.742683,21.752037,21.761526,21.773289,21.786236,21.797718,21.81292,21.834358,21.856464,21.879341,21.905006,21.925186,21.93953,21.951118,21.957788,21.96212,21.96872,21.977886,21.9874,21.999895,22.015331,22.029047,22.041723,22.05494,22.065252,22.073036,22.081799,22.090145,22.09717,22.10693,22.120007,22.133099,22.148499,22.163366,22.17284,22.179638,22.185408,22.188786,22.190819,22.18951,22.186754,22.185802,22.19283,22.206913,22.220379,22.231243,22.240116,22.247246,22.256462,22.272343,22.292763,22.31276,22.342976,22.380428,22.415043,22.453545,22.494827,22.529716,22.5648,22.602877,22.635315,22.663702,22.698292,22.730213,22.754326,22.786238,22.81961,22.846111,22.875011,22.901985,22.919582,22.929348,22.936522,22.9421,22.94767,22.952091,22.952158,22.948349,22.94654,22.944122,22.940254,22.941334,22.954586,22.978596,23.015085,23.065506,23.10991,23.141506,23.163801,23.176247,23.188087,23.216183,23.265184,23.31884,23.383915,23.448048,23.483139,23.486523,23.463852,23.431784,23.40884,23.38961,23.384136,23.389557,23.400768,23.412342,23.417686,23.419975,23.418913,23.417059,23.417015,23.420103,23.426638,23.4347,23.445606,23.456299,23.464079,23.472149,23.479216,23.484356,23.490026,23.497902,23.506752,23.516064,23.529488,23.544624,23.55885,23.578394,23.600224,23.61913,23.642218,23.667953,23.690025,23.71407,23.739088,23.758678,23.775795,23.794594,23.810745,23.823635,23.837708,23.850708,23.8611,23.872873,23.886593,23.899403,23.912487,23.928328,23.943317,23.956985,23.97387,23.990013,24.003084,24.018818,24.0345,24.047009,24.061707,24.077408,24.09048,24.1041,24.120583,24.136272,24.150639,24.168163,24.185246,24.199505,24.216797,24.235413,24.251541,24.26993,24.290905,24.309599,24.328175,24.350357,24.37087,24.3885,24.410156,24.431717,24.449667,24.471752,24.496277,24.517803,24.542213,24.569946,24.593903,24.61611,24.639797,24.65839,24.67215,24.68528,24.69389,24.698353,24.700556,24.69912,24.695877,24.691555,24.686016,24.681099,24.676888,24.672314,24.668928,24.666857,24.665459,24.666204,24.668556,24.673615,24.681574,24.689705,24.699795,24.7132,24.726383,24.738722,24.753304,24.766039,24.775623,24.78526,24.79255,24.79705,24.801094,24.803305,24.803598,24.803257,24.800674,24.796219,24.791,24.783121,24.77556,24.770405,24.767105,24.76902,24.774689,24.78379,24.79641,24.80798,24.81797,24.830946,24.848984,24.874977,24.913036,24.94229,24.95071,24.95147,24.93496,24.908,24.86507,24.799498,24.745607,24.742119,24.759186,24.772564,24.77568,24.728157,24.600082,24.435387,24.189457,23.559738,22.690342,21.935635,21.294851,20.892887,20.573679,20.317404,20.167244,20.059017,19.938572,19.81689,19.704414,19.562813,19.419933,19.314806,19.213657,19.111822,19.024036,18.935581,18.815796,18.686897
21.598928,21.676262,21.752853,21.793175,21.802362,21.782082,21.741291,21.702967,21.661366,21.624367,21.596798,21.575977,21.562332,21.554287,21.547588,21.5464,21.550331,21.555073,21.55748,21.55412,21.547039,21.534391,21.517765,21.502998,21.487389,21.471775,21.460403,21.452759,21.449001,21.449738,21.452187,21.457308,21.464684,21.472343,21.48187,21.492422,21.50182,21.51409,21.531567,21.549778,21.568562,21.589947,21.60725,21.619793,21.63197,21.641409,21.64842,21.658813,21.672417,21.68567,21.702076,21.721031,21.736938,21.75124,21.765656,21.776669,21.78505,21.795086,21.80568,21.81534,21.829227,21.847675,21.865517,21.884756,21.904222,21.917603,21.926184,21.93064,21.929947,21.92699,21.925373,21.92646,21.929064,21.939964,21.957417,21.973618,21.991055,22.009308,22.024765,22.040583,22.062233,22.085995,22.107994,22.138424,22.175652,22.21133,22.253815,22.299057,22.33518,22.370165,22.40629,22.436073,22.462301,22.494862,22.525993,22.550655,22.582182,22.614937,22.64127,22.667582,22.687298,22.697376,22.707586,22.720497,22.733633,22.74585,22.758514,22.76692,22.77073,22.775005,22.776503,22.775135,22.776817,22.788445,22.80967,22.842415,22.887474,22.927275,22.956373,22.977133,22.98761,22.996004,23.016277,23.05208,23.091461,23.1377,23.179321,23.197548,23.192936,23.168816,23.139023,23.116074,23.09711,23.091454,23.095848,23.105455,23.11558,23.120396,23.123127,23.12363,23.123718,23.125679,23.131077,23.139313,23.148294,23.159817,23.170519,23.177944,23.185417,23.191683,23.196114,23.200928,23.207767,23.21564,23.223993,23.23621,23.250149,23.263332,23.281548,23.302063,23.319958,23.341986,23.366774,23.388203,23.41169,23.43631,23.455711,23.472668,23.491291,23.507233,23.519886,23.5336,23.546135,23.556072,23.56726,23.580189,23.592201,23.604462,23.619284,23.633295,23.646048,23.661808,23.676895,23.689114,23.703876,23.718662,23.730515,23.74451,23.759525,23.77206,23.785149,23.801014,23.81611,23.829912,23.846748,23.863148,23.876804,23.893305,23.911003,23.926294,23.943714,23.963474,23.980984,23.998346,24.018948,24.037792,24.053764,24.073235,24.092537,24.108604,24.128601,24.151234,24.17146,24.194733,24.221714,24.245483,24.267788,24.292398,24.312733,24.32848,24.344711,24.35697,24.364601,24.370384,24.372078,24.370693,24.367565,24.362007,24.355865,24.349659,24.34179,24.334637,24.329102,24.323456,24.320324,24.319973,24.322323,24.3282,24.335142,24.344093,24.35615,24.367943,24.378906,24.391718,24.402996,24.411762,24.420965,24.428488,24.433556,24.438465,24.441845,24.44321,24.44402,24.442764,24.439383,24.435007,24.427479,24.418663,24.410923,24.402245,24.397316,24.397469,24.400719,24.407394,24.41462,24.422459,24.434284,24.45044,24.471062,24.503328,24.543602,24.585073,24.613049,24.612875,24.593119,24.55214,24.49493,24.454302,24.45047,24.472206,24.49675,24.508392,24.480412,24.38041,24.241425,24.048908,23.503466,22.714775,21.994236,21.354637,20.938564,20.59766,20.324635,20.168167,20.052738,19.932545,19.819582,19.717468,19.585217,19.446903,19.341118,19.236725,19.130154,19.038822,18.94778,18.826588,18.697464
21.343227,21.399456,21.463573,21.505672,21.521019,21.514174,21.490822,21.469059,21.446754,21.425875,21.407824,21.39127,21.377075,21.367071,21.358486,21.353195,21.351013,21.348034,21.341269,21.330603,21.318995,21.302269,21.28329,21.267664,21.251656,21.236418,21.225777,21.218864,21.215912,21.217283,21.22026,21.225744,21.233139,21.24065,21.249737,21.259491,21.267954,21.27834,21.29256,21.307076,21.321526,21.338272,21.352425,21.3632,21.3741,21.383291,21.39072,21.40165,21.415941,21.429832,21.446941,21.46669,21.48355,21.49955,21.516354,21.52961,21.539762,21.551474,21.56309,21.57322,21.587162,21.60492,21.62169,21.639599,21.657566,21.66995,21.678097,21.682865,21.68351,21.682487,21.683601,21.688148,21.694225,21.709337,21.731579,21.751991,21.773975,21.797287,21.81697,21.836426,21.86158,21.887672,21.911133,21.942314,21.978775,22.012749,22.05233,22.093552,22.125935,22.15683,22.188204,22.213982,22.236835,22.267176,22.298573,22.325157,22.358398,22.391567,22.417122,22.443035,22.464573,22.478392,22.493006,22.511139,22.529041,22.545794,22.565151,22.581287,22.59242,22.601692,22.60595,22.606611,22.608498,22.61986,22.64061,22.669807,22.710026,22.746185,22.77325,22.793095,22.802723,22.8092,22.82442,22.850727,22.879364,22.912825,22.940063,22.947926,22.93898,22.912813,22.882683,22.860168,22.841537,22.835506,22.838875,22.84704,22.856022,22.860573,22.863811,22.865795,22.8677,22.871502,22.878967,22.888714,22.898544,22.910654,22.921432,22.928642,22.935661,22.941294,22.945148,22.949306,22.955303,22.962357,22.969925,22.981152,22.994104,23.006409,23.023533,23.042976,23.06004,23.081167,23.105103,23.125908,23.148838,23.173,23.192122,23.208841,23.227207,23.242876,23.255241,23.268581,23.280678,23.29021,23.3009,23.313175,23.324562,23.336174,23.350195,23.363438,23.37549,23.390408,23.404713,23.416313,23.430372,23.444506,23.455853,23.469303,23.483746,23.495789,23.508356,23.523558,23.537981,23.55113,23.567154,23.582756,23.595764,23.611462,23.62828,23.642815,23.659386,23.678156,23.694736,23.711153,23.730526,23.748074,23.762787,23.780548,23.798021,23.812521,23.83072,23.851578,23.870422,23.89238,23.918226,23.941319,23.963211,23.988033,24.00938,24.026497,24.04511,24.060394,24.070782,24.079876,24.08472,24.085442,24.083904,24.078999,24.07238,24.064945,24.054775,24.044819,24.036625,24.027687,24.021505,24.019005,24.0191,24.02312,24.028893,24.036634,24.047245,24.05763,24.06723,24.078394,24.088383,24.096449,24.105305,24.113096,24.118748,24.124567,24.129242,24.131897,24.134163,24.134651,24.132744,24.129574,24.122707,24.11341,24.104507,24.093819,24.08503,24.080437,24.079235,24.082478,24.08778,24.093603,24.102253,24.11393,24.128426,24.154865,24.190714,24.227234,24.266241,24.293196,24.301289,24.281893,24.236492,24.19727,24.189217,24.21328,24.245073,24.25565,24.241266,24.168324,24.055637,23.891483,23.421577,22.738468,22.048927,21.405033,20.97929,20.62808,20.341396,20.173706,20.051296,19.92806,19.818668,19.723328,19.602667,19.472366,19.366196,19.25953,19.14951,19.055943,18.963661,18.842815,18.715282
21.069265,21.109337,21.159084,21.196674,21.216078,21.221115,21.213184,21.204826,21.196259,21.186245,21.175293,21.163052,21.150093,21.139727,21.13039,21.122753,21.117123,21.110226,21.099144,21.085136,21.071249,21.052538,21.032389,21.016216,20.999607,20.98415,20.97371,20.967066,20.964544,20.966373,20.969799,20.975647,20.983112,20.99049,20.999233,21.00837,21.016098,21.025097,21.036882,21.048588,21.059864,21.072626,21.083271,21.091362,21.09974,21.107319,21.113903,21.123762,21.137066,21.150307,21.166824,21.186432,21.203588,21.219912,21.237272,21.251236,21.262188,21.274586,21.28638,21.296267,21.309086,21.324608,21.338985,21.354614,21.370098,21.38063,21.387747,21.39256,21.394833,21.3965,21.40103,21.408945,21.417637,21.436035,21.46183,21.485188,21.510477,21.537712,21.560894,21.58349,21.611757,21.639954,21.664742,21.696398,21.731556,21.763176,21.798958,21.835232,21.863274,21.88978,21.916624,21.939087,21.95958,21.988266,22.01878,22.04442,22.07726,22.110119,22.135044,22.16142,22.18598,22.204361,22.223892,22.24797,22.271399,22.293312,22.31905,22.341282,22.35741,22.37095,22.378063,22.380547,22.38505,22.39777,22.417412,22.442883,22.47792,22.510075,22.534815,22.553696,22.562778,22.567772,22.578545,22.596224,22.615042,22.636797,22.651888,22.651768,22.638943,22.611464,22.581926,22.560158,22.541897,22.535263,22.537365,22.543903,22.551786,22.55632,22.560417,22.564396,22.568594,22.574623,22.584473,22.595884,22.606594,22.619305,22.630165,22.637175,22.64375,22.648766,22.652094,22.655628,22.660812,22.667063,22.673847,22.684067,22.696,22.707401,22.723387,22.741676,22.75782,22.777924,22.800865,22.820919,22.843102,22.86659,22.885246,22.901552,22.919443,22.934635,22.946547,22.95934,22.970863,22.979885,22.989979,23.001543,23.012272,23.023228,23.036522,23.049116,23.060562,23.074732,23.088339,23.099396,23.112822,23.126339,23.137188,23.150047,23.163795,23.175192,23.187057,23.201336,23.214798,23.22702,23.24187,23.256325,23.268396,23.282978,23.298676,23.31231,23.327915,23.345612,23.361233,23.376734,23.39494,23.411278,23.424839,23.441025,23.456738,23.469658,23.485924,23.504631,23.521605,23.541594,23.565418,23.587,23.607662,23.63182,23.653522,23.67157,23.692278,23.710638,23.724041,23.737038,23.74596,23.74968,23.750797,23.747688,23.741444,23.733448,23.721563,23.70911,23.698359,23.686172,23.676823,23.671917,23.669365,23.670998,23.675095,23.681004,23.689495,23.697937,23.705708,23.71479,23.723194,23.730343,23.73872,23.74685,23.75329,23.760395,23.767036,23.771744,23.776367,23.77975,23.780394,23.779377,23.774246,23.76538,23.755981,23.743763,23.731997,23.723972,23.717907,23.716923,23.72027,23.724722,23.731312,23.739635,23.749493,23.768986,23.79659,23.82469,23.861517,23.89444,23.91234,23.916653,23.905548,23.89151,23.88306,23.908264,23.944714,23.950161,23.942993,23.895065,23.813942,23.684109,23.307138,22.754494,22.109085,21.46822,21.037222,20.68213,20.375908,20.18583,20.057163,19.928764,19.819408,19.72909,19.617203,19.496244,19.395449,19.291195,19.181332,19.087536,18.996218,18.87923,18.75725
20.818523,20.850063,20.88895,20.919893,20.939957,20.951767,20.953613,20.95338,20.951294,20.945705,20.938374,20.92944,20.91885,20.90966,20.901043,20.893244,20.886984,20.879898,20.868568,20.854374,20.840431,20.822258,20.80316,20.787964,20.771877,20.756725,20.74655,20.740227,20.738132,20.740372,20.744158,20.750334,20.757906,20.765167,20.77367,20.782373,20.789585,20.79771,20.807999,20.81799,20.82745,20.837727,20.845829,20.85159,20.85749,20.863106,20.868347,20.876495,20.888096,20.900072,20.915329,20.933994,20.950588,20.966036,20.982338,20.995497,21.006058,21.018032,21.02934,21.038712,21.050453,21.064125,21.076504,21.090025,21.103367,21.112526,21.119034,21.124245,21.128036,21.131731,21.138577,21.14833,21.15807,21.177341,21.203682,21.22741,21.25337,21.281712,21.306072,21.329727,21.358921,21.387527,21.412422,21.443516,21.476982,21.506367,21.539045,21.57167,21.596745,21.620562,21.644892,21.665375,21.683962,21.709824,21.737118,21.759727,21.79013,21.821865,21.846628,21.873905,21.901165,21.922989,21.946213,21.974766,22.002232,22.027721,22.057129,22.082144,22.100142,22.116493,22.12677,22.131815,22.139704,22.153824,22.171925,22.194565,22.225666,22.254704,22.277683,22.296097,22.305271,22.309624,22.317492,22.329098,22.3409,22.354233,22.361343,22.3567,22.341524,22.314182,22.286386,22.265842,22.248394,22.241547,22.24274,22.248089,22.255249,22.259954,22.264904,22.270618,22.276705,22.284489,22.296106,22.30864,22.31988,22.332907,22.34378,22.350687,22.357025,22.361752,22.364864,22.368118,22.372883,22.378658,22.384958,22.39449,22.405666,22.41639,22.431479,22.448826,22.46419,22.483393,22.505398,22.524689,22.546051,22.568727,22.586761,22.602497,22.61973,22.634296,22.645657,22.657814,22.668732,22.677284,22.686855,22.697851,22.708061,22.71845,22.730932,22.742702,22.75349,22.766958,22.78003,22.790726,22.80381,22.817062,22.82773,22.840364,22.853779,22.864735,22.875862,22.889084,22.901466,22.912642,22.926178,22.939354,22.95041,22.963829,22.978409,22.99118,23.005901,23.02268,23.037537,23.052351,23.069748,23.085297,23.098133,23.113297,23.127785,23.139534,23.154228,23.17097,23.18607,23.203926,23.22533,23.244898,23.263771,23.286427,23.307568,23.325695,23.347427,23.367847,23.38352,23.399765,23.412466,23.419266,23.42344,23.422993,23.41819,23.410818,23.398722,23.385174,23.372986,23.358753,23.34709,23.340204,23.335249,23.334415,23.33658,23.340347,23.34644,23.352844,23.358809,23.365955,23.372921,23.37919,23.386978,23.395163,23.402061,23.410034,23.418198,23.424625,23.431297,23.43732,23.440397,23.441505,23.43842,23.43066,23.421524,23.408764,23.39562,23.386087,23.377012,23.372404,23.373196,23.37611,23.38144,23.38809,23.395426,23.40902,23.428425,23.448912,23.476091,23.500265,23.51382,23.527843,23.540516,23.548973,23.547215,23.578815,23.625122,23.64402,23.644388,23.608732,23.55299,23.455078,23.1674,22.73933,22.148104,21.526615,21.100904,20.744633,20.422039,20.212149,20.076153,19.93993,19.826067,19.735542,19.627043,19.513636,19.420563,19.32196,19.21659,19.12642,19.039448,18.93068,18.819466
20.613214,20.639359,20.672234,20.699593,20.71885,20.733376,20.740456,20.74521,20.747065,20.74427,20.739388,20.732685,20.723988,20.716148,20.708908,20.701794,20.695415,20.688322,20.676296,20.661476,20.647743,20.630856,20.614117,20.601288,20.587246,20.573677,20.564465,20.559088,20.557892,20.560757,20.564995,20.57156,20.57928,20.586494,20.594826,20.603153,20.609907,20.617235,20.626192,20.634727,20.642612,20.651295,20.658184,20.662888,20.667543,20.6721,20.676662,20.683912,20.694546,20.705729,20.720108,20.737732,20.753387,20.768002,20.783335,20.79565,20.805532,20.816856,20.827742,20.836906,20.84858,20.862032,20.873878,20.886185,20.898458,20.907404,20.914255,20.920614,20.925768,20.93035,20.937843,20.947914,20.957874,20.976353,21.001312,21.023932,21.0489,21.076323,21.099941,21.1228,21.15084,21.178173,21.201927,21.231575,21.263334,21.291088,21.321941,21.352846,21.376776,21.399809,21.423405,21.442627,21.458824,21.48019,21.503078,21.523418,21.55146,21.582005,21.606915,21.634773,21.663519,21.687153,21.71238,21.742975,21.771864,21.798393,21.82869,21.854464,21.873236,21.891449,21.905012,21.91353,21.923208,21.937275,21.954163,21.975203,22.004112,22.031439,22.0536,22.072186,22.081871,22.086147,22.092358,22.100063,22.10728,22.115128,22.117104,22.10975,22.093742,22.067429,22.0416,22.02253,22.006369,21.99996,22.000885,22.005718,22.012543,22.017399,22.022833,22.029463,22.036499,22.045109,22.05746,22.070358,22.08168,22.094685,22.10549,22.112381,22.118717,22.1235,22.12672,22.130064,22.134829,22.14049,22.146645,22.155872,22.166645,22.176968,22.191513,22.208244,22.22308,22.241646,22.26292,22.281563,22.30221,22.324133,22.341553,22.35672,22.37329,22.387257,22.39812,22.409718,22.42014,22.428322,22.4375,22.448101,22.45795,22.467861,22.479385,22.490076,22.50009,22.512852,22.525497,22.53599,22.548996,22.562336,22.573149,22.586002,22.599585,22.610466,22.621002,22.633314,22.644783,22.65509,22.667538,22.679684,22.689934,22.702436,22.71614,22.728245,22.742296,22.758417,22.772762,22.787134,22.804081,22.819244,22.831734,22.846394,22.860222,22.87128,22.884974,22.900326,22.914019,22.930206,22.94961,22.967396,22.98465,23.005705,23.02586,23.04353,23.065327,23.086586,23.103413,23.121567,23.136806,23.145893,23.152534,23.154623,23.151655,23.1456,23.134464,23.121147,23.108728,23.093796,23.080957,23.072842,23.066174,23.063332,23.063782,23.06566,23.069714,23.074493,23.079132,23.084938,23.090939,23.096577,23.103785,23.111633,23.118412,23.1264,23.13493,23.14196,23.149458,23.1567,23.161037,23.163332,23.161598,23.154858,23.146276,23.133774,23.120285,23.110077,23.100452,23.093803,23.091576,23.092117,23.09576,23.101181,23.106567,23.116318,23.130592,23.146158,23.168123,23.189228,23.202023,23.209562,23.21255,23.21616,23.223845,23.266962,23.329628,23.384409,23.399948,23.366943,23.32518,23.24935,23.028595,22.694633,22.157055,21.56648,21.153198,20.793293,20.463829,20.247551,20.102314,19.95734,19.837376,19.742617,19.63463,19.525711,19.437183,19.34314,19.243496,19.159254,19.078293,18.979221,18.880692
20.384228,20.405273,20.431957,20.455067,20.472906,20.488592,20.498516,20.505508,20.51055,20.511044,20.508556,20.50365,20.495937,20.488369,20.480808,20.472754,20.465458,20.457787,20.4464,20.433418,20.421623,20.407177,20.39289,20.381931,20.370064,20.358883,20.35165,20.348005,20.34843,20.352459,20.357676,20.365013,20.372978,20.38009,20.3881,20.39589,20.402107,20.408731,20.416649,20.424055,20.43068,20.437817,20.443508,20.447584,20.45196,20.45656,20.46118,20.468199,20.47811,20.488321,20.501389,20.51738,20.531631,20.545063,20.559246,20.57064,20.579693,20.590145,20.600277,20.608837,20.619444,20.631496,20.642105,20.65311,20.664352,20.673035,20.680262,20.687906,20.694834,20.701073,20.71014,20.721096,20.731297,20.749249,20.772978,20.794395,20.818308,20.844788,20.867704,20.889877,20.916813,20.942768,20.965202,20.992826,21.021984,21.047234,21.075043,21.102741,21.124195,21.144882,21.166313,21.184216,21.199894,21.220264,21.241978,21.26152,21.288727,21.318802,21.343672,21.371683,21.400864,21.424967,21.450504,21.481167,21.509914,21.536304,21.56658,21.59274,21.612219,21.631979,21.647823,21.658457,21.669842,21.684593,21.701036,21.721027,21.748333,21.774456,21.796204,21.815342,21.82587,21.830353,21.83522,21.83942,21.842453,21.845364,21.842892,21.833477,21.817333,21.79284,21.769657,21.752651,21.738396,21.73288,21.733776,21.738306,21.744871,21.749815,21.755558,21.76278,21.770393,21.779408,21.791973,21.804798,21.815891,21.828604,21.839233,21.846123,21.85255,21.857603,21.861137,21.864828,21.869873,21.875645,21.88184,21.890953,21.901457,21.911499,21.92559,21.941776,21.95612,21.974056,21.99458,22.012524,22.032368,22.053392,22.07008,22.08461,22.100502,22.113903,22.1243,22.135546,22.145267,22.152325,22.160109,22.169167,22.177814,22.186657,22.19743,22.20779,22.217487,22.22994,22.24239,22.252777,22.26567,22.2789,22.289612,22.30223,22.315466,22.326052,22.336498,22.348625,22.35979,22.369781,22.381927,22.39366,22.403313,22.414827,22.427402,22.438656,22.451782,22.467113,22.48099,22.494965,22.511534,22.52642,22.538738,22.553106,22.56648,22.577026,22.589867,22.603912,22.6162,22.630653,22.64788,22.663685,22.679071,22.69817,22.716906,22.733683,22.754986,22.776533,22.794096,22.813736,22.831228,22.842543,22.851809,22.856865,22.856304,22.852242,22.842972,22.830734,22.818752,22.803839,22.790295,22.781116,22.772816,22.767845,22.766361,22.766117,22.767918,22.770977,22.774261,22.77878,22.783854,22.788857,22.79533,22.80252,22.808826,22.816345,22.82462,22.831705,22.83946,22.847324,22.852495,22.855696,22.855225,22.849705,22.842062,22.830418,22.81731,22.807034,22.797066,22.789625,22.786266,22.784908,22.785025,22.786835,22.790226,22.796797,22.806816,22.817986,22.835033,22.852623,22.864073,22.870878,22.871181,22.86911,22.868164,22.889853,22.938847,23.007479,23.070019,23.088692,23.070166,23.016098,22.851023,22.60202,22.148075,21.61008,21.204773,20.849266,20.511753,20.281424,20.126637,19.973341,19.848364,19.750631,19.644012,19.539906,19.455952,19.366625,19.273071,19.19563,19.122658,19.036205,18.952244
20.139263,20.155867,20.176825,20.195293,20.210213,20.224,20.233244,20.239681,20.245014,20.246635,20.245306,20.241566,20.235088,20.228577,20.221985,20.214916,20.208595,20.202015,20.193,20.18306,20.173855,20.162346,20.150677,20.14156,20.131805,20.122839,20.11736,20.115223,20.116938,20.121761,20.127598,20.135277,20.143106,20.149849,20.157288,20.164417,20.170107,20.17614,20.183266,20.189812,20.195465,20.201336,20.205952,20.209377,20.213291,20.2176,20.221909,20.228224,20.236874,20.245653,20.256886,20.270618,20.28289,20.294537,20.306835,20.316738,20.324638,20.333843,20.342922,20.350735,20.360502,20.371738,20.381744,20.392284,20.40335,20.41225,20.420025,20.428816,20.437126,20.444618,20.454752,20.466076,20.476084,20.493145,20.515282,20.53513,20.55743,20.582224,20.60376,20.624651,20.65004,20.674541,20.69579,20.721928,20.749458,20.773254,20.799374,20.825424,20.84569,20.86522,20.885624,20.903053,20.91895,20.939415,20.960896,20.980038,21.006748,21.036335,21.060848,21.088528,21.117321,21.140945,21.165718,21.19516,21.222658,21.247974,21.277346,21.30334,21.323254,21.344294,21.362171,21.374725,21.38814,21.404343,21.421162,21.44086,21.467285,21.492613,21.514103,21.53373,21.54491,21.549526,21.553135,21.55428,21.553814,21.5527,21.54686,21.536263,21.520773,21.498833,21.478798,21.464231,21.452274,21.44793,21.448967,21.45332,21.459637,21.4646,21.470448,21.477898,21.485676,21.494625,21.506807,21.519032,21.529526,21.541594,21.55185,21.558693,21.565285,21.570784,21.574831,21.579113,21.584728,21.590862,21.597315,21.60656,21.617008,21.626911,21.640726,21.656502,21.670433,21.687874,21.70776,21.725056,21.744125,21.764305,21.780193,21.793743,21.80835,21.82048,21.829815,21.839798,21.848274,21.854328,21.860996,21.86889,21.876627,21.884682,21.89497,21.905201,21.914745,21.927063,21.939442,21.949804,21.962643,21.975767,21.986338,21.998638,22.011375,22.021492,22.03161,22.043257,22.053843,22.063267,22.074726,22.085867,22.09512,22.106241,22.118572,22.12975,22.14307,22.158224,22.171494,22.18499,22.201132,22.215809,22.228117,22.24245,22.25566,22.265938,22.278194,22.291151,22.302166,22.314976,22.330025,22.343739,22.357124,22.373943,22.390825,22.406254,22.426382,22.447474,22.465157,22.485582,22.504768,22.518059,22.529877,22.538158,22.540533,22.539196,22.53284,22.522745,22.51209,22.498186,22.4847,22.474876,22.465271,22.458279,22.454811,22.452374,22.451826,22.453083,22.454933,22.458082,22.462126,22.466297,22.471722,22.477852,22.483337,22.48994,22.497465,22.504166,22.511723,22.519697,22.525303,22.529125,22.529827,22.525806,22.519564,22.509594,22.497894,22.488415,22.478931,22.471664,22.468113,22.465757,22.463581,22.462414,22.462948,22.464924,22.469837,22.476894,22.489698,22.504055,22.51374,22.520355,22.519323,22.512234,22.500456,22.498539,22.52399,22.577936,22.661545,22.726948,22.746231,22.722298,22.611708,22.442793,22.09571,21.63144,21.239536,20.902832,20.566364,20.322002,20.155842,19.994015,19.865341,19.765797,19.660984,19.56206,19.483479,19.400137,19.314394,19.245419,19.18229,19.110527,19.042809
19.923946,19.937151,19.953651,19.96812,19.979628,19.989956,19.99664,20.001331,20.004734,20.005205,20.00378,20.00062,19.995731,19.991205,19.987179,19.983212,19.979641,19.97561,19.969482,19.962055,19.954807,19.945583,19.936058,19.928524,19.920315,19.91264,19.907967,19.906517,19.908663,19.913553,19.91932,19.926704,19.934023,19.940228,19.94703,19.953585,19.958889,19.964527,19.971144,19.977142,19.982195,19.987316,19.9912,19.993944,19.997013,20.000427,20.003931,20.009068,20.016186,20.023499,20.032988,20.044641,20.055035,20.064886,20.07516,20.083422,20.090176,20.09814,20.106264,20.1135,20.123098,20.134533,20.144785,20.155659,20.167244,20.176697,20.184998,20.194489,20.203417,20.211311,20.22159,20.232628,20.24215,20.258156,20.278736,20.2971,20.317722,20.340607,20.360508,20.379879,20.403679,20.427021,20.447506,20.473095,20.500431,20.524221,20.550533,20.577065,20.597893,20.61802,20.639002,20.65674,20.672697,20.692856,20.713703,20.732208,20.7581,20.786858,20.810722,20.837757,20.865845,20.88877,20.912655,20.940819,20.96703,20.991196,21.019524,21.045155,21.065292,21.087357,21.107151,21.1217,21.13733,21.155403,21.173115,21.193123,21.219265,21.244072,21.265247,21.284908,21.296185,21.300602,21.302975,21.301716,21.298725,21.2948,21.286785,21.275692,21.261131,21.241625,21.224377,21.211945,21.202003,21.198708,21.199894,21.2041,21.210173,21.215084,21.22089,21.228298,21.235954,21.24456,21.256046,21.267422,21.277168,21.288445,21.298212,21.304943,21.31166,21.317593,21.322151,21.327038,21.333286,21.339863,21.346657,21.356178,21.366732,21.37662,21.390331,21.40588,21.419554,21.436565,21.45581,21.472458,21.490757,21.510082,21.525139,21.537622,21.550777,21.561434,21.569523,21.577856,21.585102,21.590775,21.597157,21.60485,21.61239,21.620243,21.63026,21.64024,21.649601,21.661777,21.674095,21.68445,21.697277,21.710371,21.720884,21.733002,21.745377,21.75503,21.764494,21.775223,21.784874,21.79342,21.80372,21.813972,21.822891,21.834034,21.846737,21.858328,21.872433,21.887941,21.900936,21.914318,21.930473,21.94526,21.957596,21.971996,21.985231,21.995453,22.007425,22.0197,22.02983,22.041447,22.054817,22.066853,22.078588,22.093407,22.108517,22.122562,22.141277,22.161446,22.178743,22.19925,22.219322,22.23393,22.247646,22.25861,22.263681,22.265049,22.26183,22.254314,22.245487,22.233252,22.22053,22.210636,22.20039,22.192001,22.186993,22.182823,22.180344,22.180027,22.180538,22.182348,22.185272,22.188461,22.192654,22.197575,22.202139,22.207733,22.21438,22.220554,22.22772,22.235518,22.24126,22.24541,22.247023,22.24441,22.239635,22.23161,22.221817,22.21364,22.205269,22.198563,22.195015,22.192505,22.19017,22.188046,22.185856,22.183243,22.183304,22.186802,22.195745,22.207209,22.215466,22.22111,22.219234,22.210545,22.195389,22.18557,22.195526,22.222233,22.285252,22.359932,22.41452,22.425432,22.364979,22.257227,22.00549,21.617094,21.25032,20.938375,20.612534,20.362675,20.187061,20.018051,19.887104,19.787788,19.685059,19.590942,19.51793,19.441025,19.363422,19.302696,19.248623,19.18961,19.135807
19.72963,19.740025,19.752808,19.76392,19.772694,19.780273,19.784863,19.787996,19.789783,19.789318,19.787743,19.784964,19.78127,19.778263,19.776146,19.774464,19.772923,19.77079,19.76685,19.761383,19.7557,19.748297,19.740496,19.734272,19.727417,19.720955,19.717102,19.71632,19.718897,19.723871,19.729591,19.73671,19.743595,19.749361,19.755651,19.761751,19.766762,19.772137,19.778467,19.78417,19.788906,19.793655,19.797218,19.799694,19.802464,19.805536,19.808674,19.813187,19.819344,19.82563,19.833866,19.84399,19.853008,19.861547,19.870392,19.87746,19.88322,19.890188,19.897594,19.90439,19.913675,19.924984,19.935238,19.946201,19.958038,19.967838,19.976536,19.986616,19.996101,20.004398,20.014927,20.025867,20.035053,20.050259,20.0696,20.086775,20.106052,20.127426,20.14603,20.16418,20.186638,20.208874,20.22855,20.253334,20.280092,20.303537,20.32965,20.356213,20.37719,20.397514,20.418674,20.436436,20.452318,20.472065,20.492212,20.510002,20.534962,20.562733,20.58582,20.612053,20.639307,20.661488,20.684507,20.71149,20.736534,20.759642,20.786982,20.812233,20.83252,20.8555,20.87707,20.893503,20.911343,20.931452,20.950304,20.970915,20.997137,21.021646,21.042519,21.062038,21.073162,21.077238,21.078411,21.075098,21.070042,21.063843,21.054146,21.042755,21.02905,21.011684,20.996872,20.986324,20.97818,20.975826,20.977163,20.981245,20.987068,20.99187,20.997528,21.004728,21.012089,21.020205,21.030857,21.04131,21.05026,21.060707,21.069954,21.076519,21.083313,21.089622,21.094646,21.100079,21.106928,21.113955,21.121101,21.130936,21.141668,21.151642,21.165442,21.18103,21.194674,21.210964,21.228985,21.244486,21.261497,21.279293,21.293114,21.304787,21.317196,21.327305,21.334957,21.342846,21.349714,21.355103,21.36115,21.36852,21.375816,21.383404,21.393124,21.402863,21.412045,21.424065,21.436287,21.446606,21.459373,21.472393,21.482828,21.494762,21.506844,21.51617,21.525211,21.53533,21.544338,21.552273,21.561808,21.57133,21.579674,21.59013,21.60213,21.613134,21.62638,21.641897,21.655926,21.670479,21.688217,21.70399,21.716084,21.730198,21.743317,21.753593,21.76545,21.777313,21.78687,21.797611,21.809727,21.820477,21.83088,21.844006,21.857513,21.870216,21.887463,21.906506,21.923153,21.943333,21.963766,21.979216,21.994328,22.0075,22.014969,22.018875,22.01878,22.014015,22.007282,21.997124,21.985636,21.976093,21.965702,21.956417,21.950237,21.9447,21.940586,21.938854,21.938126,21.938599,21.940338,21.94246,21.94535,21.949,21.952572,21.957083,21.962765,21.968315,21.97493,21.982338,21.988018,21.992332,21.994629,21.993261,21.989906,21.983852,21.976099,21.969423,21.96239,21.956446,21.952967,21.950169,21.947079,21.94395,21.940722,21.936825,21.93452,21.934483,21.937456,21.944597,21.952572,21.957878,21.955692,21.94595,21.928318,21.911617,21.91119,21.926258,21.972477,22.042534,22.111198,22.158323,22.142487,22.06914,21.893864,21.58413,21.257948,20.96178,20.646523,20.400925,20.219994,20.044327,19.910547,19.813606,19.713352,19.623589,19.55598,19.485447,19.415699,19.36262,19.3167,19.26895,19.226702
19.498016,19.505274,19.514065,19.52166,19.527634,19.532444,19.534988,19.536646,19.537062,19.535934,19.534395,19.53223,19.529907,19.528461,19.528217,19.52871,19.529045,19.528625,19.526691,19.523064,19.51886,19.513216,19.50709,19.502121,19.496582,19.491241,19.488049,19.48775,19.490507,19.495342,19.500841,19.507565,19.51397,19.51931,19.525139,19.530865,19.535654,19.540874,19.547043,19.552586,19.557194,19.561832,19.565355,19.567846,19.570686,19.573776,19.576826,19.581043,19.586536,19.591991,19.599148,19.607897,19.61567,19.62306,19.6307,19.636784,19.64172,19.647873,19.654678,19.66109,19.670074,19.681232,19.691444,19.70245,19.714497,19.724607,19.73368,19.74432,19.754326,19.762966,19.77366,19.784393,19.793137,19.807388,19.825346,19.841238,19.859093,19.87893,19.896252,19.91317,19.934229,19.955256,19.973953,19.99771,20.02361,20.046436,20.07203,20.0983,20.11921,20.13954,20.160725,20.178423,20.194141,20.213364,20.232643,20.249514,20.273111,20.299353,20.321201,20.34616,20.372215,20.393486,20.41558,20.441479,20.46553,20.487743,20.514336,20.53947,20.560144,20.584318,20.608034,20.626749,20.647266,20.669888,20.690212,20.711662,20.738003,20.76201,20.782242,20.801115,20.811611,20.81503,20.814749,20.809273,20.802181,20.793785,20.782522,20.77097,20.758295,20.743294,20.73115,20.722729,20.716656,20.715488,20.717136,20.721275,20.72699,20.731756,20.7373,20.74427,20.751259,20.758753,20.768372,20.777702,20.7857,20.795153,20.803764,20.810112,20.816956,20.82367,20.8292,20.835247,20.84277,20.850327,20.857952,20.868332,20.879353,20.889278,20.902334,20.916828,20.92969,20.945202,20.96241,20.977152,20.993202,21.009838,21.022688,21.03364,21.045326,21.054863,21.062092,21.069588,21.076174,21.081375,21.087208,21.093906,21.100227,21.106987,21.115858,21.124939,21.133604,21.14515,21.157131,21.167393,21.180202,21.193352,21.203896,21.215826,21.22773,21.236776,21.245445,21.255072,21.263662,21.27134,21.280663,21.289927,21.297897,21.30774,21.318972,21.329319,21.341715,21.35669,21.370705,21.38529,21.403332,21.419846,21.433117,21.449032,21.46327,21.473282,21.484802,21.496166,21.505207,21.515202,21.526192,21.535725,21.544863,21.556286,21.56808,21.5793,21.594805,21.612343,21.62798,21.647367,21.667717,21.683716,21.699978,21.715305,21.725391,21.73225,21.736034,21.734964,21.731228,21.724213,21.714937,21.706469,21.696636,21.686985,21.679913,21.673203,21.667433,21.664028,21.66169,21.660252,21.660145,21.660618,21.66156,21.663391,21.665619,21.668667,21.673008,21.67762,21.68333,21.68993,21.69519,21.699352,21.70205,21.701786,21.699814,21.695812,21.690313,21.685368,21.679972,21.675114,21.671955,21.669079,21.665436,21.66151,21.657497,21.6526,21.648737,21.646606,21.64656,21.649961,21.654675,21.658403,21.655872,21.646181,21.629173,21.609282,21.59988,21.601353,21.63048,21.690235,21.758217,21.828178,21.858818,21.834677,21.729723,21.500704,21.231487,20.963142,20.668941,20.434738,20.255676,20.078236,19.943974,19.851593,19.755116,19.670547,19.609272,19.546165,19.485197,19.440176,19.402618,19.364483,19.333908
19.2701,19.27462,19.280106,19.284904,19.288727,19.29154,19.292751,19.293528,19.293303,19.292099,19.290855,19.289452,19.288345,19.288094,19.289146,19.291054,19.292557,19.29317,19.292492,19.290089,19.286919,19.28254,19.277626,19.27355,19.26894,19.264309,19.26142,19.261253,19.26384,19.268291,19.2734,19.279648,19.285625,19.290634,19.296162,19.301682,19.306358,19.311525,19.317657,19.323174,19.327856,19.33266,19.336433,19.33924,19.342545,19.346056,19.349361,19.353737,19.35907,19.364128,19.370678,19.378593,19.385601,19.392315,19.399307,19.404911,19.409454,19.415213,19.42171,19.427889,19.43665,19.447636,19.457739,19.468708,19.480824,19.491104,19.500423,19.51146,19.521814,19.530636,19.541355,19.551804,19.560081,19.573433,19.590164,19.60497,19.62167,19.640331,19.656715,19.672707,19.692661,19.712654,19.730446,19.753155,19.778042,19.800064,19.824867,19.850515,19.871073,19.891144,19.91216,19.929722,19.94524,19.963987,19.982485,19.998478,20.020634,20.04516,20.065605,20.089128,20.113976,20.134518,20.155996,20.181362,20.205048,20.226929,20.253376,20.278843,20.300163,20.325653,20.351448,20.37232,20.39534,20.420324,20.442036,20.464226,20.490501,20.513714,20.53292,20.55061,20.560017,20.562538,20.560825,20.55355,20.544895,20.53484,20.522457,20.510895,20.499153,20.48619,20.476374,20.469852,20.465702,20.465755,20.467873,20.472286,20.478113,20.482986,20.488552,20.49539,20.502068,20.509016,20.51772,20.526062,20.533234,20.541824,20.549896,20.556065,20.56296,20.570023,20.576,20.58262,20.590809,20.598824,20.606665,20.61697,20.62761,20.637087,20.649252,20.662674,20.674728,20.689718,20.706554,20.720917,20.736404,20.752384,20.764675,20.77511,20.786245,20.795364,20.802334,20.809399,20.815369,20.819931,20.825111,20.830923,20.836304,20.842209,20.850163,20.858479,20.866505,20.877422,20.88902,20.899143,20.911926,20.92517,20.935818,20.947762,20.959526,20.968334,20.976719,20.985998,20.994354,21.00195,21.0113,21.020609,21.028542,21.038246,21.049225,21.0593,21.071384,21.085924,21.09943,21.113237,21.130445,21.146908,21.161293,21.178822,21.19432,21.204779,21.216919,21.228535,21.237343,21.246883,21.257103,21.265793,21.274065,21.284214,21.294601,21.304531,21.318405,21.334375,21.348827,21.367058,21.386776,21.40281,21.419594,21.436436,21.448711,21.458252,21.465834,21.468658,21.46827,21.464945,21.458588,21.451855,21.44337,21.434162,21.426805,21.4195,21.412481,21.407524,21.403542,21.399937,21.397615,21.396126,21.3948,21.394577,21.395317,21.39678,21.39962,21.403103,21.407656,21.41308,21.417519,21.421137,21.423714,21.42401,21.422955,21.42044,21.41671,21.413204,21.409237,21.405426,21.402683,21.399902,21.396006,21.391607,21.387104,21.381521,21.376976,21.374332,21.374052,21.375725,21.377235,21.37926,21.37674,21.368347,21.353966,21.334583,21.320488,21.312555,21.328075,21.37427,21.43153,21.503635,21.561062,21.577423,21.527206,21.36874,21.158901,20.931995,20.668541,20.449703,20.281548,20.110462,19.979595,19.892244,19.801468,19.723166,19.667513,19.611115,19.557564,19.518711,19.4867,19.455902,19.434755
19.080658,19.08324,19.086494,19.089466,19.091915,19.093576,19.094154,19.094566,19.09422,19.093254,19.092396,19.091644,19.091404,19.091908,19.09367,19.096268,19.098305,19.099407,19.099339,19.097584,19.095024,19.091413,19.08725,19.083714,19.079645,19.07537,19.072567,19.072327,19.074589,19.078604,19.083292,19.0891,19.094736,19.099503,19.10485,19.11027,19.114876,19.12001,19.126118,19.131645,19.13646,19.141514,19.145618,19.148811,19.15268,19.156742,19.160423,19.16515,19.170612,19.175573,19.181885,19.189423,19.196087,19.202507,19.209267,19.214745,19.219185,19.224846,19.23124,19.237293,19.2459,19.256699,19.266655,19.27753,19.289606,19.29992,19.309372,19.320639,19.33118,19.340057,19.350733,19.360916,19.368816,19.381474,19.397299,19.411335,19.427258,19.445168,19.460964,19.476372,19.495596,19.514843,19.531967,19.553799,19.577759,19.599026,19.623055,19.648035,19.66815,19.687868,19.708643,19.72607,19.741434,19.759857,19.777813,19.793169,19.81419,19.837313,19.856602,19.87895,19.90292,19.923069,19.944328,19.969677,19.993492,20.015495,20.042221,20.068228,20.09024,20.116903,20.144361,20.166872,20.191797,20.218555,20.241276,20.263897,20.289886,20.312195,20.330265,20.346638,20.354895,20.35654,20.353642,20.345074,20.33536,20.324186,20.311098,20.299587,20.288506,20.27703,20.26894,20.26385,20.2612,20.262285,20.264889,20.269642,20.275682,20.280743,20.286427,20.293242,20.299728,20.306332,20.314415,20.322086,20.328707,20.336742,20.344471,20.350555,20.357525,20.364868,20.37119,20.378271,20.387032,20.395344,20.402967,20.41225,20.421635,20.430357,20.442377,20.45602,20.468075,20.48285,20.499262,20.513187,20.528128,20.54351,20.555347,20.565388,20.576183,20.585129,20.59208,20.598701,20.603619,20.606924,20.610815,20.615858,20.621136,20.626753,20.634295,20.642178,20.649776,20.660206,20.671425,20.681309,20.693867,20.706944,20.717474,20.729248,20.74078,20.749353,20.757492,20.766481,20.774563,20.781898,20.790956,20.800133,20.808134,20.81811,20.829388,20.839596,20.85181,20.866608,20.880314,20.893826,20.910482,20.926361,20.94021,20.956827,20.972404,20.984491,20.998604,21.011492,21.020344,21.02967,21.039421,21.047646,21.055428,21.064781,21.074194,21.083172,21.09576,21.110407,21.123789,21.140858,21.159725,21.175457,21.192287,21.209969,21.223766,21.23531,21.24591,21.251999,21.254534,21.254555,21.251007,21.246086,21.239197,21.23085,21.223621,21.216187,21.208405,21.202255,21.196945,21.191452,21.187136,21.183872,21.180536,21.178503,21.177917,21.177982,21.179485,21.181911,21.18534,21.189545,21.193043,21.195972,21.198114,21.19852,21.197918,21.196228,21.193579,21.191013,21.187998,21.184896,21.18243,21.17972,21.175644,21.17093,21.166142,21.160202,21.155281,21.152298,21.151419,21.152792,21.154526,21.15609,21.154099,21.147348,21.134724,21.116299,21.101215,21.0917,21.096884,21.12954,21.178688,21.244701,21.304737,21.333508,21.327286,21.228876,21.067223,20.884914,20.653198,20.448198,20.294163,20.133638,20.00813,19.92437,19.840345,19.768833,19.717216,19.665815,19.617384,19.582285,19.552532,19.52847,19.514137
18.86414,18.864983,18.866314,18.867762,18.869078,18.869852,18.87001,18.870205,18.869892,18.869284,18.868862,18.868795,18.869396,18.87059,18.872967,18.87613,18.878597,18.880087,18.880573,18.879467,18.87754,18.874752,18.871426,18.86853,18.865093,18.861275,18.858627,18.858341,18.86029,18.863846,18.868107,18.87347,18.878792,18.883371,18.888586,18.893927,18.898487,18.903584,18.909657,18.915188,18.920134,18.925482,18.93,18.933691,18.938238,18.942959,18.947096,18.952274,18.957949,18.962852,18.968967,18.97615,18.982485,18.988644,18.995205,19.000599,19.00499,19.010614,19.016933,19.02287,19.031294,19.041862,19.051613,19.062325,19.074314,19.084652,19.094212,19.105663,19.11634,19.125244,19.135788,19.1456,19.153027,19.16484,19.179604,19.19277,19.207775,19.22482,19.239979,19.25478,19.27324,19.291695,19.308094,19.32898,19.351927,19.37234,19.395502,19.41974,19.439396,19.458794,19.479393,19.49675,19.512045,19.530249,19.547728,19.562458,19.582268,19.603842,19.62183,19.642836,19.665789,19.685503,19.706547,19.73199,19.756107,19.778381,19.805618,19.832363,19.85516,19.883083,19.912231,19.936352,19.963093,19.991486,20.015064,20.037937,20.063358,20.084442,20.101067,20.115753,20.122543,20.12313,20.118927,20.10907,20.098383,20.086147,20.07244,20.061089,20.050724,20.04081,20.034555,20.031033,20.03003,20.032307,20.035568,20.040833,20.04724,20.052578,20.05843,20.06525,20.071554,20.077805,20.085281,20.092316,20.09845,20.10603,20.113647,20.11995,20.127365,20.135162,20.141602,20.148096,20.155956,20.163616,20.170849,20.179981,20.189377,20.197992,20.209827,20.223186,20.234924,20.249321,20.265247,20.278702,20.29316,20.30806,20.319561,20.329493,20.339619,20.347408,20.353188,20.35871,20.362999,20.366125,20.36979,20.374641,20.37976,20.385118,20.392221,20.399593,20.406689,20.416523,20.427235,20.436773,20.449005,20.46183,20.472187,20.483723,20.494976,20.503313,20.511234,20.519962,20.527819,20.53501,20.54391,20.552929,20.560785,20.57055,20.58147,20.59124,20.602886,20.616951,20.630102,20.643482,20.660255,20.676418,20.69062,20.70756,20.72325,20.735264,20.749287,20.76261,20.772427,20.783028,20.794132,20.803003,20.810314,20.818707,20.827007,20.834814,20.845974,20.85915,20.871246,20.886837,20.90448,20.919586,20.936096,20.954292,20.969452,20.982956,20.996714,21.006397,21.01226,21.016157,21.015995,21.013395,21.008615,21.001612,20.994877,20.987598,20.979229,20.971912,20.965233,20.957718,20.9512,20.94598,20.940386,20.936264,20.934122,20.932507,20.932331,20.933378,20.93534,20.937973,20.940262,20.942266,20.943735,20.944057,20.943752,20.942726,20.94101,20.93928,20.937115,20.934647,20.932434,20.929829,20.92569,20.920828,20.915901,20.909784,20.904633,20.901377,20.899944,20.900827,20.902416,20.90403,20.903023,20.89801,20.8878,20.871367,20.856236,20.845577,20.842894,20.862875,20.900578,20.956951,21.016216,21.053833,21.071619,21.028332,20.93031,20.797909,20.608795,20.429827,20.29592,20.151058,20.033905,19.955353,19.880358,19.817722,19.771322,19.725313,19.681965,19.650736,19.624537,19.605652,19.595352
18.633862,18.633512,18.633715,18.634403,18.635199,18.635754,18.636032,18.636402,18.636528,18.636545,18.636683,18.637314,18.638626,18.640312,18.643023,18.6464,18.649006,18.650646,18.651432,18.65079,18.64938,18.64729,18.64471,18.642406,18.639574,18.636215,18.633755,18.633461,18.63515,18.63832,18.642208,18.647232,18.652367,18.656872,18.662067,18.667416,18.671959,18.677015,18.683022,18.688522,18.693562,18.699177,18.704113,18.708298,18.713537,18.718935,18.723568,18.729229,18.735191,18.740154,18.746197,18.75319,18.759338,18.76537,18.771896,18.777363,18.781858,18.787594,18.793945,18.799822,18.808083,18.818367,18.827835,18.838295,18.85009,18.86035,18.869928,18.881413,18.89207,18.900875,18.911152,18.920498,18.927406,18.938354,18.952065,18.964378,18.978516,18.994762,19.009361,19.023651,19.041462,19.059214,19.074932,19.094877,19.116777,19.136284,19.158531,19.181976,19.201147,19.220226,19.240704,19.258083,19.273418,19.291576,19.308754,19.322989,19.341724,19.36186,19.378609,19.398302,19.420238,19.439535,19.460442,19.486126,19.510723,19.533455,19.561386,19.58895,19.612497,19.641499,19.671947,19.697224,19.725212,19.75459,19.77848,19.80109,19.8254,19.84482,19.859653,19.872286,19.87738,19.876833,19.871452,19.860651,19.849365,19.8365,19.82257,19.811588,19.802006,19.793585,19.789051,19.787025,19.787628,19.79114,19.795158,19.801075,19.80796,19.813639,19.819725,19.826595,19.832773,19.838758,19.845871,19.852606,19.858574,19.866093,19.873438,19.87913,19.886074,19.893549,19.899792,19.906036,19.913528,19.920872,19.928017,19.937305,19.946877,19.955418,19.966965,19.979887,19.991241,20.005169,20.020557,20.033463,20.046898,20.060574,20.07111,20.080235,20.08944,20.096405,20.101503,20.106579,20.110912,20.114378,20.11837,20.1234,20.128466,20.133682,20.140419,20.1473,20.153885,20.163055,20.173159,20.182257,20.194035,20.206486,20.216576,20.227785,20.238716,20.24683,20.254559,20.263107,20.27085,20.277996,20.286854,20.295765,20.303436,20.312857,20.323196,20.332317,20.343107,20.356045,20.368223,20.381008,20.397291,20.413147,20.427162,20.444029,20.45971,20.47166,20.485592,20.499527,20.510605,20.522442,20.53466,20.5442,20.552006,20.560707,20.56902,20.576797,20.586887,20.598274,20.608849,20.62265,20.638653,20.652725,20.668404,20.686502,20.7025,20.717491,20.733974,20.747028,20.756153,20.763994,20.767494,20.767574,20.765392,20.760334,20.754614,20.74802,20.739586,20.731482,20.7237,20.714376,20.705763,20.698643,20.690807,20.684546,20.680744,20.677292,20.67519,20.674606,20.67482,20.675568,20.676369,20.677187,20.67764,20.677515,20.677174,20.67638,20.675167,20.673933,20.67229,20.670254,20.668266,20.665817,20.661825,20.657097,20.652313,20.646324,20.64116,20.637764,20.63587,20.636234,20.637617,20.639462,20.639627,20.636517,20.629211,20.615883,20.602188,20.591608,20.585056,20.594645,20.618126,20.660648,20.712719,20.751999,20.780209,20.776335,20.734152,20.657326,20.524668,20.383633,20.272455,20.149208,20.046162,19.974636,19.90806,19.853485,19.81314,19.772545,19.733194,19.70496,19.684832,19.67051,19.660685
18.434275,18.433372,18.433258,18.433926,18.434786,18.435703,18.436543,18.437397,18.438236,18.43901,18.439724,18.44096,18.442768,18.44471,18.447472,18.450758,18.45324,18.454803,18.45561,18.455154,18.454033,18.452366,18.450272,18.448359,18.44597,18.443,18.44075,18.440521,18.44211,18.445086,18.448769,18.45364,18.45874,18.463272,18.468536,18.473951,18.478495,18.483501,18.489399,18.494823,18.499878,18.505638,18.51084,18.515354,18.521069,18.526949,18.53194,18.53796,18.544186,18.549278,18.555378,18.562366,18.568504,18.574558,18.581203,18.586868,18.59156,18.597496,18.603947,18.609821,18.61795,18.627954,18.637121,18.647293,18.658808,18.668882,18.678358,18.68972,18.700205,18.708809,18.718765,18.727695,18.734205,18.744507,18.757456,18.769157,18.782698,18.798409,18.812634,18.826591,18.843967,18.861212,18.8764,18.895592,18.916607,18.93534,18.956797,18.979546,18.998262,19.017036,19.037376,19.054766,19.070152,19.088333,19.105366,19.119297,19.13733,19.156485,19.172386,19.191166,19.212406,19.231434,19.252317,19.27829,19.303333,19.326496,19.355003,19.383152,19.407173,19.436745,19.467754,19.493439,19.52179,19.55122,19.574743,19.59655,19.61936,19.636988,19.65005,19.66072,19.664316,19.66286,19.656721,19.645542,19.634174,19.621264,19.607601,19.59718,19.588387,19.581226,19.578045,19.577202,19.579077,19.583578,19.588236,19.594707,19.602,19.607944,19.614233,19.621185,19.62733,19.633255,19.640152,19.646648,19.652502,19.65998,19.666853,19.671505,19.67741,19.684134,19.690163,19.696987,19.705261,19.713036,19.720432,19.72971,19.738998,19.74721,19.758251,19.77055,19.781326,19.794533,19.80915,19.821346,19.833488,19.84562,19.854898,19.862797,19.8713,19.878386,19.883892,19.889492,19.894302,19.898056,19.90237,19.907627,19.912758,19.917944,19.924469,19.931,19.937187,19.945793,19.955341,19.964014,19.975311,19.987339,19.997124,20.007992,20.018616,20.026539,20.034119,20.04258,20.050314,20.057484,20.066374,20.075256,20.082832,20.092045,20.101982,20.110605,20.120708,20.132751,20.144041,20.155794,20.170769,20.185425,20.19843,20.214354,20.229805,20.242233,20.256786,20.271523,20.283298,20.295467,20.307755,20.31753,20.326544,20.33655,20.345745,20.354332,20.364117,20.37434,20.38398,20.396454,20.410969,20.423893,20.438515,20.456024,20.472195,20.487883,20.506008,20.521358,20.532848,20.543713,20.55024,20.55269,20.552975,20.550003,20.545593,20.540083,20.532207,20.523966,20.515705,20.50531,20.495277,20.486805,20.477303,20.469345,20.464155,20.459118,20.455286,20.453196,20.451786,20.450762,20.45013,20.449766,20.449097,20.448278,20.447607,20.44662,20.445435,20.444313,20.442814,20.440943,20.439098,20.43679,20.433018,20.42854,20.424007,20.41822,20.413074,20.40955,20.407188,20.406977,20.408016,20.409763,20.410664,20.409088,20.40423,20.393959,20.382313,20.372541,20.36535,20.368647,20.380486,20.409885,20.452301,20.48894,20.522585,20.53858,20.527105,20.495667,20.416597,20.314486,20.223946,20.12257,20.035173,19.971115,19.9103,19.860924,19.826036,19.78983,19.754139,19.72927,19.715624,19.704487,19.69272
18.250254,18.249031,18.24887,18.249754,18.250877,18.25235,18.253891,18.255363,18.257,18.25857,18.259878,18.26167,18.263878,18.265974,18.268661,18.271717,18.273954,18.275303,18.275948,18.27549,18.274483,18.272995,18.271172,18.269547,18.26749,18.2649,18.262943,18.262882,18.264534,18.267477,18.271101,18.275944,18.28107,18.285656,18.290989,18.296448,18.300983,18.3059,18.311646,18.316942,18.321945,18.327744,18.333084,18.337795,18.343788,18.349943,18.35516,18.361423,18.367882,18.373154,18.379387,18.386501,18.392757,18.398945,18.4058,18.411703,18.41661,18.422756,18.429308,18.435171,18.443146,18.452847,18.461699,18.471523,18.482685,18.4925,18.501755,18.512865,18.523098,18.531475,18.54113,18.549757,18.556028,18.565918,18.578373,18.589684,18.602844,18.618206,18.63218,18.645899,18.662926,18.67973,18.694468,18.712996,18.733227,18.751257,18.77199,18.794052,18.812275,18.830696,18.85075,18.867958,18.88324,18.901299,18.91814,18.931828,18.94936,18.967869,18.983234,19.001507,19.022438,19.041428,19.06245,19.088772,19.114218,19.137722,19.16665,19.195152,19.219398,19.249178,19.28025,19.305851,19.333935,19.362732,19.385374,19.40596,19.426926,19.442596,19.45383,19.462578,19.464813,19.462624,19.455994,19.44479,19.43367,19.421074,19.408018,19.398386,19.390514,19.384653,19.382774,19.383049,19.386053,19.391376,19.396547,19.403416,19.41096,19.417065,19.423504,19.430716,19.437164,19.443563,19.449863,19.454933,19.459694,19.465912,19.472332,19.47758,19.48404,19.491274,19.497635,19.504738,19.513191,19.521006,19.528347,19.537579,19.546799,19.55495,19.56519,19.575916,19.585064,19.596508,19.609364,19.620285,19.631721,19.643385,19.652393,19.660164,19.668652,19.675863,19.681564,19.687458,19.692596,19.69662,19.70125,19.706749,19.711964,19.71719,19.723606,19.72989,19.735765,19.743904,19.752935,19.761173,19.771957,19.7835,19.792934,19.803429,19.81374,19.821484,19.828932,19.837326,19.845074,19.852306,19.861248,19.87011,19.877607,19.886635,19.896202,19.904379,19.91386,19.92506,19.935526,19.946415,19.960335,19.974037,19.986263,20.001347,20.01614,20.02816,20.04238,20.056969,20.068808,20.08158,20.094992,20.105843,20.115612,20.126022,20.135105,20.143173,20.15349,20.164976,20.175613,20.188053,20.201332,20.212706,20.225882,20.24231,20.258194,20.274055,20.293056,20.309923,20.323124,20.336344,20.34544,20.350039,20.352722,20.35199,20.349155,20.3451,20.338295,20.330456,20.32227,20.311462,20.300589,20.291222,20.280485,20.27112,20.264694,20.258213,20.252748,20.249212,20.246233,20.243484,20.241438,20.239864,20.237991,20.236336,20.235157,20.233742,20.232334,20.231136,20.22959,20.227707,20.225864,20.223557,20.219847,20.215456,20.210976,20.205128,20.199715,20.19583,20.192745,20.191662,20.192074,20.193302,20.194344,20.193695,20.190552,20.182785,20.173225,20.164803,20.157475,20.157146,20.162968,20.18085,20.213097,20.246952,20.282932,20.3129,20.323704,20.31958,20.283045,20.221306,20.156298,20.076027,20.000927,19.94447,19.889687,19.845592,19.815807,19.782576,19.754032,19.738007,19.72816,19.716549,19.701061
18.040455,18.039207,18.039413,18.040894,18.04261,18.045017,18.047606,18.049965,18.05269,18.055279,18.057314,18.05974,18.062338,18.064526,18.067015,18.069668,18.071507,18.072521,18.072868,18.072289,18.0713,18.069891,18.06826,18.066895,18.06519,18.063084,18.061573,18.061848,18.063763,18.066847,18.070557,18.07552,18.080784,18.085487,18.090946,18.096466,18.100998,18.105808,18.111368,18.116514,18.121414,18.12719,18.132599,18.137405,18.143545,18.14986,18.155209,18.16166,18.168373,18.173897,18.180376,18.187754,18.194248,18.200666,18.207836,18.214046,18.219233,18.225636,18.232298,18.238132,18.245892,18.255184,18.263626,18.272991,18.283648,18.293045,18.30194,18.31261,18.322432,18.330467,18.339745,18.348076,18.354185,18.363756,18.375824,18.38683,18.399654,18.41468,18.428383,18.441833,18.458443,18.474724,18.488934,18.506704,18.526035,18.543259,18.563133,18.584375,18.601997,18.619938,18.63955,18.656427,18.67147,18.689304,18.705938,18.71941,18.736567,18.75463,18.769644,18.787632,18.808445,18.827488,18.84866,18.875225,18.900883,18.924522,18.953558,18.98202,19.006088,19.035484,19.065853,19.090637,19.117582,19.14476,19.165699,19.184326,19.202702,19.215868,19.224892,19.231434,19.232271,19.229467,19.222652,19.211933,19.201565,19.189848,19.177986,19.169565,19.16296,19.158695,19.158297,19.159798,19.163996,19.170145,19.175802,19.183123,19.191032,19.197386,19.20398,19.210526,19.215767,19.221205,19.226833,19.231682,19.236324,19.242453,19.249126,19.254982,19.26205,19.269821,19.276522,19.283854,19.292484,19.3004,19.307878,19.316368,19.324053,19.330662,19.339117,19.348215,19.356138,19.366163,19.377605,19.38749,19.398224,19.409384,19.418137,19.425808,19.434307,19.441647,19.447517,19.453688,19.45917,19.463486,19.468447,19.474236,19.479609,19.484943,19.491344,19.49745,19.503056,19.510727,19.519197,19.526917,19.537056,19.547958,19.556915,19.566895,19.57679,19.58432,19.591635,19.599987,19.607784,19.615108,19.624146,19.633026,19.64046,19.649305,19.658485,19.666187,19.674992,19.685265,19.694817,19.704739,19.717476,19.73011,19.741455,19.755568,19.76957,19.781052,19.794827,19.809204,19.821035,19.834137,19.84821,19.859684,19.869867,19.8805,19.889437,19.89702,19.90715,19.918598,19.929028,19.94144,19.95501,19.966818,19.980492,19.996698,20.011702,20.026714,20.04545,20.063046,20.077469,20.092655,20.104221,20.1111,20.116495,20.118591,20.11795,20.116043,20.111168,20.104519,20.097092,20.086634,20.075518,20.065643,20.054012,20.043375,20.03569,20.027668,20.020386,20.015205,20.010445,20.005707,20.001984,19.998936,19.995523,19.992687,19.990704,19.988527,19.986588,19.9851,19.983315,19.981316,19.979456,19.97715,19.97352,19.96922,19.96476,19.958725,19.95282,19.94831,19.944117,19.941662,19.940952,19.94105,19.941547,19.941303,19.939468,19.934195,19.927254,19.920967,19.914661,19.912613,19.914919,19.924747,19.946428,19.972591,20.006817,20.045881,20.07402,20.091713,20.090292,20.064896,20.028248,19.973793,19.916485,19.87244,19.82706,19.789047,19.763884,19.737236,19.717453,19.708487,19.701382,19.690434,19.673456
17.845692,17.8447,17.845547,17.847841,17.850315,17.853786,17.857471,17.860744,17.864532,17.868065,17.870749,17.873688,17.87653,17.87869,17.880888,17.883045,17.884426,17.88507,17.885067,17.884283,17.883232,17.88179,17.880245,17.879047,17.87761,17.875952,17.8749,17.87555,17.87782,17.881157,17.88504,17.890217,17.89568,17.900543,17.906149,17.911755,17.91629,17.921026,17.926453,17.931477,17.936275,17.941994,17.947392,17.952194,17.958344,17.96468,17.970058,17.976608,17.983532,17.989311,17.996056,18.003738,18.010506,18.017185,18.024666,18.031168,18.03661,18.043238,18.049973,18.055746,18.063263,18.072128,18.080143,18.089027,18.099133,18.108055,18.116533,18.126686,18.136034,18.143707,18.152615,18.16072,18.16676,18.176151,18.187996,18.19881,18.211388,18.226124,18.239544,18.252695,18.268847,18.284569,18.298225,18.315224,18.333658,18.350098,18.369122,18.38953,18.406528,18.423935,18.44303,18.459517,18.474255,18.491856,18.50837,18.521759,18.53879,18.556736,18.571701,18.58971,18.610645,18.629837,18.651146,18.677776,18.703362,18.726814,18.755482,18.783365,18.806774,18.835114,18.864021,18.88734,18.912441,18.937325,18.9561,18.97247,18.988115,18.998856,19.00587,19.010536,19.010368,19.007317,19.000813,18.991093,18.981876,18.971466,18.961136,18.95408,18.9488,18.94604,18.946934,18.94949,18.954681,18.961496,18.967564,18.974869,18.982376,18.988285,18.994358,18.99984,19.003822,19.008087,19.013554,19.019238,19.024614,19.031647,19.039053,19.0453,19.052807,19.060951,19.067884,19.075462,19.083878,19.091154,19.098106,19.105309,19.111183,19.11603,19.122822,19.130804,19.138103,19.14732,19.157934,19.167198,19.17729,19.187897,19.196348,19.203838,19.212257,19.219635,19.225578,19.231922,19.237648,19.242176,19.247396,19.253424,19.258957,19.264431,19.270885,19.276909,19.282345,19.28966,19.297636,19.30487,19.314365,19.32459,19.333027,19.342472,19.351929,19.35923,19.36642,19.374746,19.382595,19.390007,19.399157,19.4081,19.415512,19.424248,19.433144,19.44048,19.448748,19.458263,19.467045,19.47615,19.487873,19.499569,19.510124,19.523369,19.53666,19.547672,19.56107,19.575283,19.587118,19.600258,19.614414,19.625961,19.636227,19.64692,19.655754,19.663061,19.672386,19.68259,19.6918,19.703619,19.717506,19.730068,19.74438,19.760817,19.775682,19.79082,19.809631,19.827332,19.841976,19.858105,19.871386,19.880085,19.887848,19.892677,19.894352,19.894802,19.892319,19.887436,19.88137,19.872047,19.861443,19.851673,19.839787,19.828405,19.819815,19.810606,19.801826,19.795238,19.788958,19.78247,19.777208,19.77277,19.767807,19.763676,19.760738,19.757597,19.754923,19.752987,19.750832,19.74865,19.746773,19.74448,19.740944,19.736715,19.732227,19.725922,19.719421,19.714188,19.708807,19.704872,19.702888,19.70161,19.701105,19.700699,19.699453,19.696033,19.691528,19.687544,19.683144,19.681349,19.682629,19.689278,19.704079,19.722425,19.751457,19.790764,19.825375,19.854706,19.872797,19.869577,19.85413,19.822498,19.783745,19.752697,19.717785,19.685932,19.664171,19.644157,19.630436,19.62431,19.61869,19.609306,19.59351
17.68835,17.687656,17.689102,17.692112,17.695255,17.699608,17.704172,17.70816,17.712738,17.716938,17.720068,17.723318,17.726238,17.728285,17.730177,17.731878,17.732843,17.733154,17.732826,17.731842,17.730696,17.729181,17.727644,17.726517,17.72524,17.723886,17.723166,17.72408,17.726627,17.730186,17.734215,17.739573,17.745209,17.750206,17.755943,17.761631,17.766201,17.770916,17.776268,17.781216,17.785957,17.791622,17.79699,17.801767,17.80787,17.814178,17.819553,17.826149,17.833221,17.839195,17.846142,17.854057,17.861042,17.867924,17.875652,17.88237,17.887993,17.894772,17.901531,17.907234,17.914528,17.923025,17.930683,17.939148,17.94878,17.957302,17.965405,17.975105,17.984055,17.991444,18.00006,18.007998,18.01401,18.023304,18.035011,18.0457,18.05811,18.072601,18.085758,18.098621,18.11433,18.12952,18.142662,18.158955,18.176598,18.192347,18.210632,18.230305,18.246729,18.263636,18.282257,18.298399,18.312868,18.330315,18.346832,18.360271,18.377346,18.395382,18.410473,18.428684,18.449867,18.469257,18.490711,18.517353,18.54274,18.565857,18.593927,18.620993,18.64355,18.670616,18.697887,18.719662,18.74287,18.765532,18.782337,18.796734,18.810123,18.818962,18.824505,18.827877,18.827171,18.824177,18.818264,18.8097,18.80167,18.792547,18.783632,18.77776,18.773554,18.77194,18.77378,18.777136,18.783073,18.79041,18.796852,18.803482,18.80941,18.813818,18.81847,18.82351,18.82805,18.83273,18.838684,18.844822,18.850632,18.858158,18.866035,18.872677,18.88065,18.889194,18.896357,18.904285,18.911911,18.917439,18.922684,18.928684,18.934166,18.938786,18.945103,18.9524,18.959042,18.967484,18.977312,18.985983,18.99553,19.005688,19.013887,19.021215,19.02952,19.036861,19.042814,19.04923,19.05508,19.059725,19.065102,19.071281,19.076912,19.082489,19.088993,19.094976,19.100313,19.107378,19.114973,19.12182,19.130772,19.14041,19.148388,19.157375,19.166454,19.17355,19.18063,19.188915,19.196795,19.204266,19.213507,19.222513,19.22995,19.238659,19.247414,19.254526,19.262457,19.271465,19.279707,19.288248,19.299238,19.310226,19.320183,19.33274,19.345459,19.356083,19.36914,19.383183,19.394993,19.408176,19.42247,19.434143,19.444483,19.45517,19.46384,19.470875,19.47966,19.489147,19.497688,19.508389,19.52074,19.531874,19.544468,19.560526,19.57685,19.594608,19.615255,19.633106,19.64721,19.66344,19.677681,19.687614,19.69712,19.704113,19.707714,19.710194,19.709879,19.706722,19.70211,19.694134,19.684357,19.675028,19.663303,19.65163,19.642536,19.63262,19.622854,19.615295,19.607944,19.600178,19.593737,19.588215,19.581963,19.576687,19.57286,19.568802,19.565407,19.563023,19.560503,19.55814,19.556238,19.553963,19.550499,19.546295,19.54174,19.535147,19.528114,19.522274,19.515955,19.510866,19.507885,19.505507,19.504108,19.503399,19.502321,19.500065,19.497368,19.495205,19.492676,19.49171,19.49271,19.49765,19.509731,19.525517,19.549091,19.58234,19.61481,19.648262,19.6764,19.685745,19.681913,19.66548,19.640461,19.618206,19.591702,19.56557,19.54656,19.52893,19.51706,19.512161,19.507587,19.498875,19.48435
17.510855,17.51064,17.512829,17.516611,17.520472,17.525724,17.531113,17.53574,17.540966,17.545658,17.549078,17.552464,17.555294,17.557102,17.558586,17.559757,17.560276,17.560234,17.559576,17.558388,17.55714,17.555557,17.554031,17.552982,17.551863,17.55082,17.550444,17.551645,17.554485,17.558262,17.562439,17.567959,17.573742,17.578854,17.584713,17.590477,17.595068,17.599773,17.605078,17.609962,17.614658,17.620277,17.625607,17.630354,17.636402,17.642664,17.64802,17.654655,17.661865,17.668015,17.675158,17.6833,17.690475,17.697529,17.705456,17.712334,17.718071,17.724918,17.731625,17.737202,17.74419,17.752253,17.75951,17.767517,17.776634,17.78471,17.792408,17.801624,17.810154,17.817234,17.825565,17.833366,17.839382,17.84859,17.86016,17.87071,17.882896,17.897043,17.909813,17.922266,17.937366,17.95186,17.964355,17.97979,17.996498,18.01145,18.028898,18.04774,18.063505,18.0798,18.097841,18.113586,18.127754,18.145067,18.161674,18.17529,18.1926,18.210953,18.226376,18.245012,18.266659,18.286385,18.308096,18.33479,18.35992,18.382572,18.409777,18.43565,18.456993,18.482283,18.507347,18.52709,18.547861,18.567768,18.582237,18.594364,18.605272,18.612139,18.616219,18.61841,18.6174,18.614727,18.609749,18.602737,18.596218,18.588718,18.581509,18.577015,18.574139,18.573997,18.576754,18.580238,18.585747,18.592167,18.59769,18.60358,18.608912,18.612843,18.617085,18.622063,18.626902,18.631973,18.638493,18.645264,18.65174,18.659977,18.668491,18.675655,18.683514,18.691341,18.697672,18.70452,18.711346,18.716541,18.721237,18.726677,18.731716,18.73594,18.741657,18.748207,18.754154,18.761784,18.77078,18.778816,18.78777,18.79742,18.80532,18.812447,18.820572,18.827808,18.833702,18.840128,18.846054,18.85079,18.856289,18.862604,18.868336,18.874037,18.880638,18.88662,18.8919,18.89874,18.905943,18.912363,18.920692,18.929653,18.937107,18.945549,18.954182,18.961031,18.967964,18.976181,18.984074,18.991573,19.000896,19.009998,19.017485,19.02621,19.03488,19.041836,19.049482,19.05804,19.065798,19.073784,19.084034,19.094296,19.103628,19.115448,19.127525,19.137693,19.150352,19.164162,19.17589,19.189075,19.203445,19.21519,19.225544,19.236145,19.244576,19.251278,19.259457,19.2681,19.27582,19.285355,19.29622,19.305971,19.316978,19.33144,19.34665,19.363232,19.384295,19.404572,19.422058,19.440273,19.455069,19.465435,19.476269,19.485413,19.491142,19.495878,19.49812,19.497139,19.49443,19.488373,19.479946,19.471478,19.460346,19.448694,19.439274,19.428799,19.418152,19.40968,19.401308,19.392296,19.38467,19.378006,19.370354,19.36377,19.358902,19.353764,19.349497,19.346542,19.343582,19.340992,19.339039,19.336731,19.333275,19.329033,19.324322,19.317314,19.309595,19.303017,19.295618,19.289234,19.28513,19.281494,19.279,19.27779,19.276695,19.275501,19.274727,19.274645,19.274612,19.275333,19.276854,19.280756,19.289856,19.30212,19.320862,19.349121,19.37851,19.409405,19.439793,19.456942,19.462925,19.459354,19.445984,19.431341,19.412462,19.392397,19.377104,19.36224,19.351025,19.345242,19.34016,19.331482,19.318096
17.330814,17.331171,17.334047,17.338436,17.342823,17.348682,17.354568,17.35952,17.36501,17.369793,17.373192,17.376417,17.378927,17.380377,17.38142,17.382092,17.382229,17.381916,17.381006,17.37967,17.37836,17.376736,17.375221,17.374218,17.373217,17.372417,17.372307,17.37371,17.376747,17.380672,17.384945,17.390577,17.396471,17.401672,17.407639,17.41349,17.418125,17.422882,17.428225,17.433132,17.437855,17.443495,17.448826,17.453573,17.459595,17.465828,17.471176,17.477848,17.485163,17.49144,17.498726,17.507017,17.514301,17.521448,17.52946,17.536398,17.54216,17.548977,17.555552,17.560932,17.567575,17.575176,17.582024,17.589584,17.598192,17.605833,17.613121,17.62185,17.629951,17.6367,17.64471,17.652332,17.658302,17.66737,17.678726,17.689045,17.700901,17.714561,17.726799,17.738693,17.753012,17.766663,17.778385,17.792858,17.80856,17.82265,17.839203,17.85715,17.872211,17.88784,17.905298,17.920715,17.93472,17.952137,17.969154,17.983276,18.00122,18.020279,18.036327,18.055666,18.077976,18.09812,18.120125,18.146774,18.171413,18.193304,18.219154,18.243256,18.262882,18.285805,18.30814,18.325516,18.34358,18.360638,18.372845,18.38287,18.39164,18.396961,18.399977,18.401432,18.400475,18.398386,18.394604,18.389383,18.384586,18.378979,18.373638,18.37035,18.368025,18.368193,18.370987,18.37432,18.379333,18.38493,18.389595,18.395012,18.400232,18.40418,18.408497,18.413673,18.418787,18.424229,18.431341,18.438534,18.444942,18.45307,18.461426,18.468409,18.475906,18.483162,18.488884,18.49485,18.501255,18.506603,18.51125,18.51645,18.5211,18.524944,18.530113,18.536,18.541332,18.54823,18.556469,18.563917,18.572323,18.581509,18.58913,18.596066,18.604034,18.611187,18.617035,18.623484,18.62951,18.634354,18.639994,18.64647,18.652332,18.6582,18.664974,18.671062,18.67638,18.68313,18.690063,18.69614,18.703934,18.712286,18.719254,18.727184,18.735394,18.742016,18.748793,18.756931,18.764809,18.7723,18.78167,18.790852,18.798393,18.80719,18.815893,18.822811,18.830357,18.83869,18.84615,18.853756,18.863453,18.873127,18.881912,18.893064,18.904522,18.914234,18.926466,18.939976,18.951544,18.964626,18.97891,18.990547,19.00072,19.010973,19.018923,19.025097,19.032463,19.040089,19.046856,19.055164,19.06456,19.072956,19.082445,19.09481,19.107792,19.12175,19.141317,19.162228,19.181416,19.201895,19.219254,19.231945,19.245113,19.256317,19.263596,19.27029,19.27496,19.276218,19.275566,19.271793,19.26522,19.25809,19.24815,19.237122,19.227833,19.217281,19.206242,19.19726,19.188251,19.178368,19.169838,19.162247,19.153355,19.1455,19.139557,19.133232,19.127926,19.124252,19.120672,19.117683,19.115559,19.113127,19.109608,19.105293,19.100426,19.09306,19.084782,19.077602,19.069338,19.061882,19.0568,19.052048,19.048462,19.046587,19.045166,19.044437,19.04486,19.046173,19.04799,19.050129,19.052227,19.055483,19.06203,19.070965,19.08553,19.109005,19.134281,19.160072,19.187971,19.207409,19.218197,19.22175,19.2156,19.20618,19.19282,19.1776,19.165611,19.153538,19.142673,19.135433,19.129889,19.122171,19.111029
17.179995,17.180809,17.184109,17.18877,17.193356,17.199375,17.205318,17.210245,17.215582,17.220089,17.223202,17.226051,17.228127,17.229214,17.229897,17.230213,17.230118,17.22966,17.228638,17.227247,17.225927,17.2243,17.222801,17.221817,17.220882,17.220217,17.220242,17.221718,17.224817,17.228794,17.233082,17.238754,17.244709,17.249966,17.256014,17.261951,17.266655,17.271511,17.276966,17.281963,17.28677,17.292492,17.29788,17.302668,17.308708,17.314943,17.320292,17.326992,17.33437,17.340723,17.348072,17.356415,17.363722,17.370882,17.378891,17.385796,17.391521,17.398254,17.404675,17.409859,17.416199,17.423418,17.429924,17.437119,17.445332,17.452625,17.459572,17.467886,17.475605,17.482044,17.489723,17.49711,17.502968,17.511827,17.522898,17.53293,17.544416,17.557556,17.56924,17.580557,17.594112,17.606968,17.617977,17.6316,17.646437,17.659794,17.675558,17.692728,17.707182,17.722256,17.739271,17.754526,17.768562,17.786335,17.80402,17.818882,17.837719,17.857689,17.874489,17.894608,17.917583,17.938108,17.960354,17.986835,18.010818,18.03181,18.056099,18.07825,18.096062,18.116583,18.136326,18.151588,18.167366,18.182182,18.19274,18.201305,18.208733,18.213207,18.215714,18.216923,18.216238,18.214756,18.212082,18.208344,18.204857,18.200737,18.196789,18.194191,18.191677,18.191124,18.193336,18.196701,18.20188,18.207642,18.212349,18.217678,18.222763,18.22665,18.230986,18.236225,18.241417,18.246933,18.254276,18.261417,18.267109,18.274414,18.281937,18.28815,18.295475,18.302979,18.308949,18.315132,18.321562,18.326744,18.331228,18.33617,18.34052,18.3441,18.34888,18.354301,18.359211,18.365585,18.373266,18.380285,18.388294,18.397148,18.404577,18.411383,18.419281,18.426432,18.432299,18.438831,18.444998,18.449974,18.455784,18.462444,18.468466,18.47451,18.481506,18.487778,18.493217,18.500015,18.506855,18.512753,18.52023,18.528183,18.534819,18.542393,18.550304,18.556767,18.56342,18.57148,18.579327,18.58678,18.596134,18.605335,18.612904,18.621784,18.630585,18.637566,18.64518,18.65351,18.660877,18.668339,18.67775,18.687061,18.695477,18.706142,18.717125,18.726463,18.738325,18.751534,18.762901,18.775803,18.789856,18.801226,18.811049,18.820751,18.82804,18.83355,18.839993,18.846607,18.85249,18.859716,18.867912,18.87525,18.883533,18.894361,18.90578,18.918156,18.935362,18.95383,18.970749,18.991909,19.012777,19.029055,19.0452,19.058437,19.06686,19.075043,19.081614,19.084734,19.085865,19.08421,19.079502,19.073782,19.065273,19.055252,19.046492,19.036318,19.025415,19.016392,19.007223,18.996979,18.987965,18.97985,18.97013,18.961315,18.954502,18.94712,18.940813,18.9364,18.932114,18.928585,18.926176,18.923546,18.919907,18.915527,18.910591,18.903084,18.894583,18.887152,18.878489,18.870472,18.864822,18.859375,18.855007,18.85252,18.850628,18.849716,18.85029,18.851864,18.854103,18.856504,18.858559,18.86111,18.865858,18.872515,18.883892,18.903202,18.924896,18.947899,18.973806,18.992855,19.004204,19.009743,19.006626,19.000006,18.989628,18.977032,18.966835,18.956944,18.947063,18.93966,18.93473,18.929035,18.920887
17.03619,17.037386,17.040945,17.045677,17.050255,17.056166,17.06189,17.06657,17.071474,17.075445,17.078102,17.080414,17.081951,17.082645,17.082977,17.082996,17.082727,17.082174,17.081093,17.079699,17.078394,17.076784,17.075302,17.074333,17.073433,17.072845,17.072956,17.07446,17.077572,17.081537,17.085812,17.091473,17.097427,17.10271,17.108809,17.114824,17.119602,17.124561,17.130142,17.135244,17.140135,17.145948,17.151413,17.156246,17.162308,17.168537,17.173872,17.180584,17.187992,17.194372,17.201761,17.210106,17.217386,17.22453,17.2325,17.239346,17.244995,17.25161,17.257856,17.262854,17.268923,17.275793,17.28199,17.288853,17.296696,17.303669,17.31033,17.31826,17.325592,17.331707,17.33905,17.34618,17.351887,17.36052,17.371286,17.38102,17.392124,17.40473,17.415848,17.426596,17.439407,17.451511,17.461863,17.474709,17.488762,17.501457,17.516506,17.532959,17.54686,17.561407,17.578035,17.593212,17.60736,17.625612,17.644108,17.659855,17.679745,17.700775,17.718441,17.739449,17.763184,17.784145,17.806652,17.832954,17.856264,17.876318,17.898947,17.91904,17.93497,17.953053,17.970234,17.983456,17.997093,18.009892,18.01902,18.026413,18.03281,18.036694,18.038925,18.040218,18.0401,18.039356,18.038044,18.03542,18.032196,18.028408,18.024658,18.022255,18.020512,18.020695,18.023258,18.02681,18.03204,18.03772,18.042334,18.047504,18.052507,18.05645,18.061058,18.065935,18.070171,18.074928,18.081318,18.087887,18.093727,18.101154,18.108707,18.114899,18.12225,18.129791,18.135769,18.141943,18.148308,18.15337,18.157715,18.162441,18.166546,18.169903,18.174368,18.179413,18.183968,18.18991,18.197134,18.203796,18.21146,18.220024,18.2273,18.234005,18.241852,18.249016,18.254932,18.261574,18.267895,18.27302,18.279003,18.285858,18.292042,18.298294,18.305536,18.312016,18.317625,18.324543,18.331373,18.337177,18.344429,18.352062,18.358414,18.365707,18.373383,18.3797,18.386248,18.394218,18.401993,18.409363,18.418644,18.427807,18.435371,18.444305,18.453213,18.460302,18.468037,18.476458,18.483833,18.491241,18.500477,18.50951,18.517624,18.527874,18.53842,18.547392,18.558887,18.571785,18.582928,18.595573,18.609318,18.620337,18.629715,18.638742,18.645256,18.650023,18.655464,18.661022,18.666042,18.672249,18.67936,18.685776,18.693047,18.702589,18.71268,18.723633,18.738976,18.755665,18.771122,18.790844,18.811024,18.827394,18.845333,18.862099,18.873955,18.884352,18.893131,18.898403,18.901703,18.902557,18.899899,18.89555,18.888536,18.879688,18.871616,18.862,18.851368,18.84238,18.833195,18.822823,18.813572,18.805126,18.79477,18.785122,18.777515,18.769123,18.761787,18.756573,18.751503,18.747318,18.74451,18.741604,18.737782,18.733322,18.72834,18.720808,18.71228,18.704798,18.696033,18.687782,18.68182,18.675938,18.670982,18.66795,18.665531,18.66412,18.664343,18.66563,18.66758,18.669674,18.671402,18.673244,18.67657,18.681438,18.690231,18.705921,18.724127,18.743801,18.766762,18.784435,18.795511,18.801884,18.800499,18.795515,18.786922,18.775938,18.766865,18.75805,18.749498,18.743317,18.739017,18.734503,18.728703
16.87423,16.87577,16.879425,16.88401,16.88837,16.893867,16.899048,16.903194,16.907286,16.910336,16.912243,16.91376,16.914566,16.914772,16.914734,16.914503,16.914139,16.913555,16.912502,16.911175,16.909931,16.908379,16.906933,16.905975,16.90511,16.904585,16.904758,16.906263,16.909348,16.91327,16.917488,16.923065,16.928959,16.934216,16.940323,16.946377,16.951195,16.956257,16.961979,16.967196,16.972189,16.9781,16.983624,16.988495,16.99455,17.000736,17.006042,17.012745,17.020172,17.026577,17.033981,17.042313,17.04955,17.056648,17.064537,17.07127,17.076805,17.083271,17.089317,17.094097,17.099876,17.106415,17.112316,17.118872,17.126362,17.133018,17.139362,17.14687,17.153774,17.159527,17.166477,17.173302,17.178825,17.187187,17.197592,17.206955,17.217606,17.229584,17.24004,17.25011,17.262074,17.273357,17.282993,17.29507,17.308393,17.320486,17.3349,17.350735,17.364164,17.378262,17.3946,17.409798,17.42419,17.443113,17.462654,17.47951,17.500744,17.523115,17.54182,17.56387,17.588432,17.609802,17.632492,17.658424,17.68077,17.699589,17.720127,17.737717,17.751429,17.766727,17.781086,17.792145,17.803585,17.814388,17.822166,17.828506,17.834127,17.837715,17.840054,17.840984,17.840416,17.839666,17.838692,17.836853,17.834526,17.831705,17.82891,17.82727,17.826488,17.82748,17.83038,17.83401,17.839256,17.844908,17.849506,17.854742,17.859285,17.862263,17.866001,17.870205,17.874104,17.878632,17.88469,17.891037,17.897007,17.904501,17.91202,17.918133,17.925392,17.932838,17.93874,17.944817,17.951065,17.956005,17.960213,17.96477,17.968704,17.971909,17.976158,17.980923,17.985197,17.990784,17.997608,18.003944,18.011282,18.01957,18.026684,18.033272,18.041042,18.048204,18.054142,18.06086,18.067316,18.072578,18.078743,18.08581,18.092196,18.098711,18.106285,18.11306,18.118938,18.12608,18.132984,18.138748,18.145847,18.153214,18.159304,18.166325,18.173756,18.17992,18.18634,18.194178,18.201817,18.209045,18.218155,18.22718,18.23468,18.243607,18.252615,18.259857,18.267786,18.276413,18.28391,18.29139,18.300564,18.309399,18.317268,18.327148,18.337276,18.345886,18.356987,18.369516,18.380375,18.392658,18.405905,18.41637,18.425087,18.433163,18.438662,18.442513,18.446789,18.451208,18.455357,18.460617,18.466782,18.472406,18.478804,18.48719,18.496021,18.505556,18.518974,18.533722,18.547523,18.565262,18.58382,18.5993,18.617283,18.63545,18.649292,18.662037,18.674004,18.68216,18.687351,18.690529,18.690224,18.687927,18.683163,18.676262,18.669573,18.661455,18.652374,18.64458,18.636112,18.625925,18.616404,18.607632,18.596691,18.586267,18.577888,18.568453,18.55997,18.553822,18.54776,18.542671,18.539276,18.535906,18.531723,18.527117,18.52214,18.514744,18.506454,18.499207,18.490675,18.482523,18.476494,18.470387,18.464966,18.46138,18.458363,18.456161,18.4556,18.456173,18.457302,18.458656,18.459805,18.46089,18.462982,18.466303,18.472736,18.484835,18.499294,18.515142,18.534164,18.549263,18.558975,18.564894,18.564114,18.559967,18.552406,18.542458,18.534111,18.525957,18.51849,18.513638,18.510464,18.507837,18.504822
16.72502,16.726723,16.730242,16.734463,16.738426,16.743313,16.747766,16.751219,16.754337,16.756338,16.757416,16.758093,16.75818,16.757942,16.757631,16.75727,16.756912,16.756388,16.755459,16.754269,16.753128,16.751675,16.750294,16.74937,16.74855,16.748085,16.748306,16.749804,16.752846,16.756708,16.760845,16.766306,16.772095,16.777283,16.783352,16.78939,16.794205,16.799322,16.805138,16.810444,16.815514,16.821472,16.827,16.831852,16.837847,16.843956,16.849207,16.85587,16.863285,16.869698,16.877087,16.885384,16.892574,16.899616,16.907406,16.91403,16.919464,16.925804,16.931698,16.936306,16.94188,16.948181,16.95388,16.960209,16.967447,16.973854,16.979929,16.987059,16.993591,16.999027,17.005629,17.012177,17.017525,17.025639,17.035706,17.04472,17.054953,17.06636,17.07623,17.085701,17.096935,17.10754,17.11662,17.12814,17.141003,17.152733,17.166805,17.18235,17.195578,17.209484,17.225765,17.24113,17.255836,17.275457,17.296017,17.313934,17.336468,17.360088,17.379704,17.402615,17.427761,17.44931,17.471943,17.49725,17.518469,17.535955,17.554388,17.569595,17.581276,17.594131,17.606148,17.615498,17.625286,17.63469,17.641552,17.64714,17.651985,17.655018,17.657143,17.657452,17.656225,17.655228,17.654095,17.652872,17.651798,17.650326,17.648943,17.64831,17.648241,17.649757,17.652847,17.656507,17.661587,17.666939,17.671295,17.676308,17.680222,17.682247,17.68496,17.688774,17.693039,17.697893,17.704292,17.710787,17.716679,17.724003,17.731283,17.737164,17.744188,17.751434,17.75721,17.763159,17.769304,17.774183,17.778341,17.782866,17.786795,17.790012,17.794249,17.798948,17.803125,17.80856,17.815168,17.821297,17.828407,17.836481,17.843452,17.849922,17.857588,17.864704,17.870611,17.87733,17.883844,17.889189,17.89547,17.902708,17.909275,17.916035,17.923925,17.931004,17.937168,17.944576,17.951614,17.957401,17.96445,17.971657,17.977554,17.984364,17.99158,17.997578,18.003845,18.011488,18.018923,18.025942,18.034779,18.043571,18.050922,18.059742,18.068775,18.076136,18.084251,18.093111,18.100803,18.108433,18.117664,18.126423,18.134155,18.143793,18.15361,18.161926,18.172672,18.184826,18.195362,18.207209,18.219847,18.229664,18.237644,18.244715,18.249207,18.252197,18.255451,18.258965,18.26248,18.267147,18.272812,18.278034,18.28397,18.291649,18.299595,18.30806,18.319923,18.333008,18.345314,18.361319,18.378292,18.392588,18.40918,18.426254,18.4398,18.453583,18.467712,18.478073,18.484894,18.490427,18.49267,18.492527,18.490131,18.485344,18.48024,18.473873,18.466606,18.46024,18.45285,18.443405,18.434216,18.425758,18.414734,18.403786,18.394802,18.38448,18.374977,18.367981,18.360954,18.354933,18.35088,18.346964,18.342348,18.337599,18.3327,18.325634,18.317867,18.311142,18.303215,18.295551,18.28976,18.283752,18.278137,18.274136,18.270586,18.26751,18.26595,18.265575,18.265604,18.266022,18.266525,18.267027,18.268414,18.270845,18.275776,18.285301,18.296822,18.309464,18.32483,18.337135,18.345041,18.349716,18.348621,18.34458,18.337318,18.32778,18.319748,18.31185,18.304846,18.300762,18.298725,18.298126,18.297657
