2.7988381,2.7819242,2.7668295,2.7538376,2.7433906,2.7352223,2.728093,2.7216349,2.7194202,2.7180045,2.7161617,2.7131548,2.708816,2.7037592,2.698835,2.694739,2.6924005,2.6917086,2.691866,2.6919684,2.6914463,2.6902514,2.6889596,2.6875262,2.6863396,2.6855872,2.685201,2.6848922,2.684308,2.6833959,2.6820927,2.680238,2.678213,2.6761155,2.6740408,2.6723185,2.6706288,2.6694474,2.6689236,2.6688535,2.6689277,2.669046,2.6692924,2.6696885,2.670631,2.67161,2.6730359,2.6755176,2.6793914,2.6845865,2.6908598,2.6988888,2.708795,2.7203293,2.7322524,2.7433803,2.7534757,2.7613854,2.7605252,2.7443132,2.7274675,2.7178524,2.71775,2.7266083,2.7422087,2.7622833,2.7882075,2.8207984,2.8576403,2.8969126,2.936854,2.975418,3.0122318,3.0485153,3.084046,3.114686,3.1378274,3.1533456,3.1627843,3.1681747,3.1706128,3.170934,3.1695786,3.1678638,3.1673932,3.168858,3.1717346,3.1757104,3.1810026,3.1875143,3.1936512,3.1985059,3.2021394,3.204552,3.2057905,3.2057316,3.2040257,3.1996403,3.1931238,3.1860814,3.1794605,3.1732664,3.16605,3.1580904,3.1498647,3.141769,3.1341681,3.1273942,3.1216092,3.1166897,3.1122527,3.108534,3.105659,3.1040082,3.1039696,3.1053915,3.1079516,3.1113114,3.114974,3.1184843,3.121515,3.1240163,3.126164,3.1280937,3.130386,3.1334786,3.1371708,3.1414723,3.1438437,3.1417747,3.1394837,3.1372864,3.135209,3.1332488,3.1314776,3.129956,3.1287088,3.127798,3.127111,3.1266365,3.1263704,3.126433,3.1269336,3.1278334,3.1289735,3.1302042,3.1315327,3.1328936,3.1342213,3.135474,3.136613,3.137585,3.1383185,3.1388144,3.139093,3.139233,3.1393154,3.1393695,3.1393912,3.1393805,3.1393142,3.139231,3.139235,3.1394024,3.1397772,3.140367,3.1411064,3.141959,3.142911,3.143816,3.1445184,3.1449113,3.1449814,3.1448085,3.1444783,3.143989,3.1433873,3.1427102,3.1419814,3.1412725,3.140689,3.1402688,3.139978,3.139843,3.1398075,3.139772,3.139666,3.1394486,3.1390915,3.1385942,3.137933,3.1371129,3.1361825,3.1352046,3.1342485,3.133419,3.1327252,3.1322,3.1319237,3.1318502,3.1318698,3.1318908,3.1318483,3.1316957,3.1314774,3.1313372,3.1315455,3.131495,3.130869,3.1305077,3.1302786,3.130229,3.1306148,3.1317606,3.133676,3.1359317,3.1380231,3.1398077,3.1414242,3.1430016,3.1446073,3.1461492,3.1475773,3.1483693,3.1472607,3.14551,3.1435485,3.141622,3.139895,3.1384578,3.1372716,3.13618,3.1349626,3.1334233,3.1316547,3.1299467,3.1284773,3.1272779,3.1263697,3.125611,3.1249542,3.1242695,3.1235127,3.1226978,3.1218867,3.121117,3.1203856,3.1197093,3.1190848,3.118547,3.118134,3.1179123,3.1179385,3.118211,3.1187923,3.119643,3.1206799,3.121721,3.122628,3.1234112,3.1241872,3.1250477,3.1260319,3.12709,3.1281643,3.1292377,3.1302814,3.1312222,3.1320274,3.1327162,3.1332817,3.1337447,3.1341422,3.134511,3.134869,3.1351674,3.1353967,3.1355457,3.1356406,3.1357193,3.13584,3.136036,3.1362488,3.1363122,3.136236,3.1360726,3.1358871,3.135682,3.1354294,3.1351297,3.134662,3.1340363,3.1334276,3.133132,3.133453,3.1345167,3.1361496,3.1379507,3.1399217,3.141802,3.1436124,3.145354,3.1470275,3.1487095,3.1503084,3.1517558,3.1488843,3.1419125,3.1335402,3.1257856
2.9511604,2.9238544,2.9047377,2.8920376,2.8844256,2.8805532,2.8776581,2.8741603,2.8706672,2.8644695,2.8553097,2.8414922,2.8228388,2.8017151,2.779397,2.7616992,2.7464495,2.731619,2.7183788,2.7083778,2.7006805,2.6934447,2.687386,2.681415,2.6774664,2.6748834,2.6730304,2.6718526,2.6706371,2.6698585,2.669211,2.6685982,2.668192,2.6681113,2.6682332,2.6682372,2.6677003,2.6673956,2.6674514,2.6674707,2.6670337,2.6660905,2.6648817,2.663621,2.6625028,2.661615,2.6611855,2.6609097,2.6612701,2.6631532,2.6662884,2.6712043,2.6786056,2.688765,2.7004063,2.711928,2.7218666,2.728969,2.7338185,2.736661,2.7384367,2.7337728,2.7221925,2.7108254,2.7059915,2.7064838,2.7127562,2.7240925,2.7393162,2.7581367,2.7802806,2.8049939,2.832009,2.861342,2.8935332,2.9249396,2.953311,2.977602,2.9974804,3.0137658,3.0267015,3.0369308,3.0446625,3.0515823,3.0589826,3.067243,3.07659,3.0871181,3.0986543,3.1072035,3.1144085,3.1214085,3.1273406,3.1319947,3.1353588,3.13764,3.1384811,3.1363177,3.1321425,3.1279774,3.1243458,3.1211185,3.1176825,3.113937,3.1095371,3.1047263,3.100112,3.0961318,3.09297,3.0907307,3.0891829,3.0885563,3.0889115,3.0896447,3.0902724,3.091154,3.0922885,3.0934892,3.09439,3.0948353,3.0948215,3.0944211,3.09374,3.092898,3.0920446,3.0913749,3.090735,3.090025,3.0887923,3.0866766,3.0846004,3.0825038,3.08047,3.078507,3.0767016,3.0751317,3.0738435,3.0729277,3.0722682,3.0718706,3.0717242,3.0719273,3.0725582,3.0736167,3.075029,3.0765219,3.0781298,3.0797825,3.0814018,3.0829306,3.0843139,3.0854893,3.086402,3.0871243,3.0876596,3.088089,3.088515,3.0889823,3.0894728,3.0899396,3.0903988,3.090886,3.0914786,3.0922077,3.0930805,3.0940876,3.0951633,3.0963027,3.0975263,3.0986907,3.0996456,3.1002762,3.1005502,3.1005325,3.1003027,3.099881,3.0993178,3.0986357,3.0978665,3.0970993,3.096434,3.0959153,3.0955143,3.095261,3.0950763,3.0948339,3.094497,3.0940833,3.0935297,3.0927591,3.0917258,3.0904064,3.0888562,3.087246,3.0857325,3.0843306,3.0830479,3.0819364,3.081109,3.080572,3.0802674,3.080113,3.0800064,3.0799222,3.0798478,3.0798912,3.0804493,3.0814183,3.0824256,3.0834606,3.0845318,3.0856988,3.0870385,3.0887172,3.0907602,3.092939,3.0949678,3.0967462,3.0983512,3.0997021,3.1007214,3.1012807,3.101347,3.1009116,3.099821,3.0983171,3.0964587,3.094477,3.0925536,3.0908184,3.089304,3.087918,3.0864854,3.0848596,3.0831728,3.0816975,3.0806124,3.0799258,3.0795615,3.0793338,3.0792396,3.0791922,3.0791454,3.07906,3.078925,3.0787325,3.0784712,3.078175,3.0778534,3.077531,3.0772579,3.077122,3.0771909,3.0774636,3.078016,3.0788221,3.0798202,3.080839,3.081736,3.0825093,3.0832639,3.0840988,3.0850587,3.086088,3.087128,3.0881386,3.0890756,3.0898824,3.0905483,3.0911245,3.0915954,3.0919867,3.0923383,3.09267,3.0929866,3.0932755,3.0935352,3.0937493,3.0939248,3.0940948,3.094299,3.0945315,3.094707,3.0946584,3.0943537,3.093811,3.093081,3.0922036,3.0911982,3.0900805,3.0887618,3.0873127,3.086014,3.0851004,3.0847852,3.0851853,3.0861797,3.0874543,3.089078,3.0908403,3.0928082,3.0949216,3.0970721,3.0992315,3.101159,3.1027656,3.1033669,3.103215,3.1028361,3.1025534
3.0194554,2.987009,2.9692054,2.9618387,2.9620051,2.967669,2.9745421,2.9805436,2.9848692,2.9860134,2.9839168,2.9757123,2.959978,2.9389236,2.9141636,2.8902385,2.8651905,2.8388276,2.8140929,2.7923727,2.7714944,2.7499247,2.7291718,2.707223,2.6891348,2.6772416,2.6696296,2.6640759,2.6609187,2.659883,2.6596112,2.659882,2.6603599,2.6613884,2.6631846,2.6651049,2.6665835,2.668171,2.6691976,2.6695151,2.668951,2.6674714,2.6653666,2.6629233,2.6602876,2.6573725,2.6544948,2.651089,2.6478834,2.6463351,2.6460822,2.6478157,2.651947,2.6593733,2.6696672,2.6810083,2.6913395,2.6997786,2.7074614,2.7162619,2.724861,2.7305942,2.733318,2.7360797,2.7394042,2.7352881,2.7275066,2.7233825,2.7235188,2.7284184,2.7387846,2.753948,2.7732751,2.7966595,2.8247447,2.8546586,2.8842454,2.912102,2.9373097,2.9597378,2.9788847,2.9961176,3.0109591,3.0201983,3.0257854,3.032627,3.040878,3.0503116,3.0616198,3.0735106,3.0810988,3.0840793,3.0855427,3.086403,3.0866985,3.0865784,3.0858428,3.083867,3.0809946,3.0781102,3.0756156,3.0734682,3.0713265,3.069031,3.0663602,3.0634818,3.0607758,3.0584722,3.056621,3.0554662,3.05486,3.0548182,3.0552812,3.0559366,3.056531,3.0571494,3.0577233,3.058157,3.0582023,3.0578184,3.0570388,3.0559154,3.054523,3.0529404,3.0511758,3.0493119,3.047264,3.0451043,3.0429838,3.0409312,3.038916,3.0368226,3.0347552,3.0327764,3.03096,3.0293686,3.0280883,3.0272388,3.0267138,3.0265272,3.0266519,3.0271506,3.028078,3.0294006,3.0310059,3.0326986,3.0344658,3.0362616,3.038008,3.039651,3.0411484,3.042447,3.043506,3.044405,3.0451603,3.0458808,3.0466757,3.0475755,3.0485454,3.0495236,3.0505404,3.051622,3.0528011,3.054059,3.0553613,3.0566802,3.057965,3.0592399,3.0605474,3.0617757,3.0628018,3.0635266,3.0639167,3.064015,3.0638804,3.0635195,3.0629754,3.0622685,3.0614452,3.0606084,3.0598617,3.0592568,3.0587656,3.058413,3.058135,3.0578108,3.057391,3.0568728,3.0561872,3.0552382,3.0539742,3.0523775,3.0505004,3.0484738,3.046439,3.044488,3.0426009,3.040834,3.0393276,3.038156,3.0373397,3.0369139,3.0368981,3.0370455,3.0373588,3.0379186,3.0389128,3.0403917,3.0421216,3.043791,3.0453925,3.0469704,3.048481,3.050146,3.0520775,3.0541322,3.056127,3.0580182,3.059824,3.0614095,3.0626066,3.063232,3.0632086,3.0626407,3.061707,3.0604134,3.0586293,3.0565662,3.0544271,3.052399,3.0506094,3.0490713,3.0477126,3.0463128,3.0450237,3.0441008,3.0436764,3.043707,3.044067,3.0445366,3.0451558,3.0458055,3.046462,3.047103,3.0476632,3.0480566,3.0482888,3.0484233,3.048453,3.0483942,3.048307,3.0482757,3.048367,3.0486193,3.04911,3.0498302,3.0507545,3.0517402,3.0526516,3.0534668,3.0542588,3.055122,3.0560884,3.0570521,3.0579484,3.0587354,3.0593805,3.0598707,3.060227,3.0605145,3.0607362,3.0609388,3.0611753,3.0614529,3.0617576,3.0620866,3.0624204,3.0627356,3.063026,3.0633035,3.0635858,3.0638475,3.0639977,3.0638747,3.063401,3.0625663,3.061405,3.059977,3.058349,3.056569,3.0545588,3.0522957,3.0500536,3.0481827,3.046955,3.0464633,3.0465927,3.0470445,3.0478666,3.048902,3.0503232,3.0521822,3.0543356,3.0566015,3.0587132,3.0609632,3.0633922,3.0661001,3.0688813,3.0714555
3.0097861,2.9892535,2.9792578,2.9762444,2.97792,2.9831176,2.989086,2.9947119,3.0056968,3.0172567,3.0273452,3.0317376,3.027817,3.016718,2.9995773,2.9803953,2.9586568,2.9350815,2.9108915,2.8869414,2.8631148,2.8387647,2.8113017,2.7793252,2.7472403,2.7194805,2.6965475,2.678009,2.6658258,2.6593666,2.65591,2.653864,2.6533456,2.654519,2.6564026,2.657969,2.659937,2.6624792,2.6647816,2.666432,2.6669827,2.6662107,2.6644459,2.662269,2.6595964,2.6561847,2.6526344,2.648778,2.6447077,2.6411626,2.6385815,2.63771,2.6386814,2.6425683,2.6495194,2.6583662,2.6675239,2.6760292,2.6835861,2.6912928,2.6990948,2.7081127,2.7187552,2.7302513,2.7401805,2.7431262,2.7423737,2.7432432,2.7469392,2.750432,2.7527733,2.757624,2.767787,2.7830677,2.8045201,2.8303027,2.858821,2.887946,2.914975,2.938456,2.95945,2.9785428,2.9947338,3.0053573,3.0115821,3.016361,3.0196157,3.0237942,3.029614,3.0374684,3.0422993,3.0431182,3.042831,3.0424,3.0417612,3.041092,3.0401978,3.0389194,3.037158,3.03515,3.0333133,3.0317044,3.0300274,3.028247,3.026345,3.0244336,3.022674,3.021143,3.0198371,3.0189533,3.01837,3.0180478,3.0179114,3.018023,3.0184493,3.0190449,3.0196905,3.0203228,3.0207736,3.0209641,3.0208416,3.020426,3.0197988,3.0189853,3.0180597,3.0170946,3.0159602,3.0146408,3.0131292,3.0113926,3.0096312,3.0078013,3.006028,3.0043654,3.0028758,3.0016136,3.000656,3.0001168,2.9999008,3.0000272,3.000444,3.001175,3.0022566,3.0036483,3.00523,3.0068932,3.0086417,3.0104256,3.0121603,3.0137963,3.015307,3.0166621,3.0178251,3.0188863,3.0198665,3.020873,3.021997,3.0232472,3.0245776,3.0259316,3.0273542,3.0288625,3.0304618,3.032098,3.0336995,3.0352187,3.0366142,3.0379248,3.0392065,3.0403936,3.041407,3.0421703,3.0426488,3.04286,3.0428257,3.042541,3.0420382,3.0413485,3.0405407,3.0397341,3.0390253,3.0384567,3.0380049,3.0376747,3.0374243,3.037149,3.036765,3.0362287,3.0354884,3.0344586,3.033091,3.0313926,3.0294023,3.027173,3.0248065,3.0224848,3.0201588,3.0178888,3.0158358,3.0141263,3.0128446,3.0120466,3.0117311,3.01171,3.01199,3.0126448,3.0137115,3.0151882,3.0169013,3.01855,3.0200853,3.021533,3.0227976,3.0241091,3.0256233,3.0272982,3.0290456,3.0307875,3.0325432,3.0342188,3.0356355,3.036604,3.0370345,3.0369635,3.0364618,3.0355968,3.0342484,3.0325968,3.030838,3.0291562,3.0276878,3.026472,3.0254607,3.0244899,3.0237107,3.0233288,3.0234313,3.0239499,3.0247407,3.0255923,3.0265985,3.0276055,3.028607,3.029602,3.0305047,3.031181,3.0316277,3.0319505,3.0321538,3.0322497,3.0322742,3.0322986,3.032404,3.0326452,3.0330958,3.0337648,3.034659,3.0356617,3.0366492,3.0375767,3.0384574,3.0393791,3.0403595,3.041271,3.0420394,3.0426183,3.0429873,3.0431752,3.0432208,3.0432045,3.0431445,3.043109,3.0431623,3.0433154,3.0435505,3.0438693,3.0442224,3.0445912,3.0449378,3.0452452,3.0455198,3.045745,3.0458474,3.045678,3.0451415,3.0441937,3.0428352,3.0411286,3.0391731,3.0370584,3.0347595,3.0321817,3.029501,3.0271177,3.0253415,3.0242386,3.0237055,3.0234618,3.0235028,3.0237403,3.024304,3.025281,3.0265856,3.0280209,3.0293655,3.0309477,3.0326407,3.0344117,3.036315,3.0382383
3.001154,2.9949439,2.991591,2.989523,2.9878721,2.9864106,2.9847422,2.9839127,2.9903698,2.9984913,3.0069613,3.0127053,3.0129018,3.007322,2.9965246,2.984233,2.9707308,2.9577837,2.9438577,2.9286041,2.9137368,2.8986688,2.8793504,2.85387,2.82316,2.7895107,2.756721,2.7282267,2.705246,2.6876287,2.6725562,2.661264,2.655657,2.653687,2.6521575,2.6510625,2.6515589,2.6524806,2.654317,2.65654,2.6583781,2.659338,2.6592984,2.6583776,2.6568968,2.654727,2.6523538,2.6497874,2.6466503,2.6430454,2.639807,2.6370614,2.6353912,2.6358519,2.638764,2.6435006,2.649116,2.654976,2.6607728,2.6672878,2.674217,2.6815286,2.6891918,2.6969438,2.7047558,2.7135782,2.7238271,2.7347178,2.7464755,2.754884,2.7581587,2.7611387,2.7678647,2.7784305,2.7939987,2.8139625,2.8377452,2.8637314,2.8888884,2.9106877,2.9308755,2.9489837,2.963624,2.9750156,2.9832234,2.9876118,2.9886634,2.9899688,2.9920616,2.9944534,2.9965627,2.9980004,2.9988866,2.9996161,3.0000985,3.0006857,3.0011258,3.0010326,3.0003297,2.9993207,2.9983459,2.9974868,2.996557,2.995592,2.9945078,2.9933798,2.992354,2.991484,2.9907532,2.9902782,2.9899654,2.9898295,2.989831,2.9899914,2.990353,2.9908516,2.9914737,2.9921641,2.992845,2.993429,2.9938223,2.9940147,2.9940522,2.9939234,2.9937716,2.9936671,2.993435,2.9928646,2.991927,2.9907904,2.9896412,2.988463,2.9874063,2.9864745,2.9857016,2.9851215,2.9847748,2.9847522,2.9849794,2.985477,2.986172,2.9870508,2.988141,2.9894457,2.9909058,2.9924326,2.9940867,2.9958014,2.9974933,2.9991136,3.0006495,3.0020895,3.0033891,3.0046587,3.005906,3.0072014,3.008607,3.0101147,3.0116723,3.0132303,3.0148563,3.016571,3.0183775,3.0202093,3.0219731,3.023603,3.0250535,3.026369,3.0276175,3.0287776,3.029809,3.0306518,3.0312576,3.0316129,3.0317001,3.0315142,3.0310822,3.030448,3.0297093,3.0289989,3.0284004,3.0279417,3.0276017,3.0273638,3.027192,3.026981,3.0266266,3.0260715,3.025283,3.024179,3.0227237,3.020947,3.018882,3.0165596,3.0140676,3.0115771,3.0090234,3.006462,3.0040522,3.0019443,3.0002465,2.9989674,2.998023,2.9973826,2.99705,2.9971306,2.9976993,2.9987507,3.0000882,3.001409,3.0026345,3.0037694,3.0047128,3.0055985,3.0065541,3.007649,3.008922,3.0102816,3.0117197,3.0131636,3.014457,3.0154567,3.0161123,3.016446,3.01647,3.0162106,3.0155907,3.0147405,3.0138211,3.0129733,3.0122776,3.0117333,3.0112834,3.010891,3.0106716,3.0107503,3.0111818,3.0119123,3.0128126,3.0137286,3.0147858,3.015851,3.016924,3.0179987,3.0189905,3.0197678,3.0203004,3.0206935,3.0209723,3.021154,3.0212545,3.0213394,3.0214963,3.021762,3.0222008,3.0228376,3.0236855,3.024648,3.0256252,3.0265691,3.0274591,3.0283694,3.029309,3.0301626,3.0308464,3.0313058,3.0315313,3.0315685,3.0314636,3.0313013,3.0311024,3.0309305,3.0308442,3.0308576,3.0309658,3.0311794,3.031435,3.0317135,3.0319586,3.032142,3.0322766,3.0323648,3.032359,3.0321145,3.0315435,3.03058,3.0292103,3.0274959,3.025542,3.0234494,3.0212235,3.0187612,3.0161872,3.0138407,3.011978,3.0106418,3.009756,3.0090914,3.008582,3.008177,3.0079195,3.007864,3.0079975,3.0082283,3.0084183,3.008654,3.0090613,3.009624,3.0104525,3.011528
3.017511,3.0136318,3.0112743,3.0092854,3.0071073,3.0043907,3.001068,2.9994063,2.9971871,2.993609,2.9903724,2.987305,2.982581,2.9752336,2.9658656,2.955409,2.9440799,2.935244,2.9278736,2.9203358,2.9124308,2.9032078,2.8947964,2.883347,2.8671663,2.8451622,2.8205323,2.7965984,2.7722263,2.7472227,2.7203853,2.6978786,2.6823204,2.670664,2.6608589,2.6547117,2.650717,2.6471567,2.6455584,2.6456246,2.6466846,2.6483216,2.6499043,2.6503549,2.6505625,2.650181,2.649353,2.6478775,2.645731,2.6432443,2.640549,2.637272,2.634316,2.6327953,2.6330175,2.634787,2.6377006,2.64119,2.6449838,2.649397,2.6547034,2.660827,2.6676707,2.6750197,2.6823826,2.6893535,2.6962214,2.703174,2.7098114,2.7164946,2.7237635,2.7317345,2.7406068,2.7509563,2.7636673,2.7791772,2.7978451,2.8195004,2.8428144,2.8654885,2.8871603,2.9075391,2.92493,2.9379025,2.9463844,2.9516377,2.9551072,2.9578066,2.9610019,2.9644003,2.9671202,2.9686785,2.9694214,2.9699636,2.9704382,2.9712737,2.972238,2.9729414,2.973211,2.973189,2.9730968,2.973022,2.972868,2.9726853,2.9723735,2.9720154,2.9717624,2.9716272,2.9715204,2.971574,2.9717605,2.9720597,2.9724143,2.9728315,2.9733403,2.9738927,2.9745412,2.9752448,2.9760175,2.976839,2.9776,2.9782171,2.9786696,2.9789338,2.9791884,2.9794908,2.9796987,2.979645,2.9792933,2.9787605,2.978201,2.9776206,2.9771917,2.9769,2.9767356,2.976694,2.9767983,2.9771233,2.9776268,2.978324,2.979136,2.980029,2.9810257,2.982162,2.9834294,2.9847655,2.9862332,2.9877863,2.9893556,2.9909005,2.992415,2.9938955,2.9952836,2.996682,2.9980898,2.9995456,3.0010931,3.002717,3.0043633,3.0059874,3.0076656,3.0094247,3.011268,3.0131269,3.014903,3.0165234,3.017941,3.0192041,3.0203857,3.0214982,3.0225296,3.023428,3.0241299,3.0245886,3.0247645,3.0246577,3.024291,3.0237226,3.023066,3.0224442,3.021922,3.0215383,3.021264,3.0210793,3.0209513,3.020769,3.0204139,3.0198216,3.0189764,3.0177913,3.0162554,3.0144138,3.0123062,3.0099902,3.0075545,3.0050893,3.0025225,2.9998899,2.9973302,2.9949927,2.9929826,2.991324,2.9899786,2.9888616,2.9879818,2.9874911,2.987495,2.988003,2.988846,2.9897447,2.9905744,2.9913168,2.9918828,2.9923668,2.9928813,2.993524,2.994391,2.9954622,2.996645,2.9978528,2.998959,2.9998739,3.000588,3.0011225,3.001451,3.001601,3.0015073,3.001243,3.0009298,3.0006833,3.0005548,3.0005302,3.000598,3.0007377,3.0010066,3.0014498,3.0020828,3.002868,3.0037212,3.0045633,3.0055065,3.0064685,3.0074537,3.0084488,3.0093818,3.0101488,3.0107179,3.0111463,3.011464,3.011702,3.0118895,3.0120866,3.0123537,3.0126977,3.0131712,3.0138013,3.014585,3.0154374,3.0162883,3.0171154,3.0179095,3.0187268,3.0195785,3.0203586,3.0209818,3.0213957,3.0215964,3.0216303,3.0215485,3.0214229,3.0212746,3.0211418,3.0210545,3.0210195,3.0210419,3.0211425,3.0212617,3.0213718,3.021429,3.0214176,3.0213652,3.0212984,3.021182,3.0208778,3.0203052,3.0194035,3.0181742,3.016676,3.0149913,3.0132039,3.011275,3.0090902,3.0067875,3.00465,3.002863,3.0014591,3.0004098,2.9995353,2.9987402,2.9979708,2.997283,2.9967399,2.9963472,2.9960685,2.995841,2.995699,2.9957252,2.9959717,2.9964066,2.996978
3.0041995,3.002008,3.0011837,3.0007658,3.0002048,2.9994526,2.9986339,2.9983358,2.9984965,2.9986,2.9971352,2.993245,2.9870062,2.9788337,2.9693074,2.959263,2.9477391,2.9348426,2.9223795,2.9114141,2.9007423,2.889402,2.8825724,2.8778725,2.8715572,2.8624816,2.851636,2.839336,2.824422,2.8058453,2.783916,2.7602403,2.7346926,2.7097073,2.689395,2.6744914,2.6606536,2.6504254,2.6435823,2.6393223,2.6369112,2.6363127,2.6374156,2.6391401,2.6410713,2.6423407,2.6432886,2.6437747,2.6434112,2.6421072,2.6400404,2.637835,2.635634,2.6343412,2.6338067,2.6340303,2.635204,2.6369014,2.6389585,2.6413956,2.6442156,2.6474385,2.651306,2.655856,2.6606097,2.6650548,2.6692817,2.6737905,2.6783373,2.6825309,2.686615,2.6913385,2.6969872,2.7039952,2.7134523,2.7260752,2.7430754,2.7640853,2.7873898,2.8119862,2.836945,2.8618388,2.884828,2.903717,2.9175906,2.9269748,2.9328132,2.9368453,2.9405775,2.9438758,2.946352,2.947928,2.9490085,2.950093,2.951356,2.9531589,2.95518,2.956926,2.9582024,2.9591174,2.9598207,2.96041,2.960878,2.9612863,2.9615402,2.9617317,2.9620032,2.96235,2.962667,2.9631124,2.963713,2.9644525,2.9652653,2.9661412,2.967084,2.96802,2.9690037,2.9700184,2.9710932,2.9722552,2.9733944,2.9743955,2.9752328,2.9758778,2.9765265,2.977232,2.9778419,2.9781754,2.9782028,2.9780445,2.9778137,2.9775262,2.9773982,2.9774034,2.9775043,2.977686,2.9779682,2.978395,2.9789433,2.979624,2.9803746,2.9811554,2.9819808,2.982902,2.9839363,2.9850333,2.986261,2.9875956,2.9889948,2.9904304,2.9918988,2.9933906,2.994828,2.996304,2.9977965,2.999322,3.0009174,3.0025742,3.0042424,3.005883,3.0075665,3.0093188,3.0111308,3.0129304,3.0146227,3.0161436,3.0174563,3.0186155,3.0196972,3.0207343,3.021729,3.0226297,3.0233636,3.0238647,3.0240853,3.0240393,3.023751,3.0232882,3.0227451,3.022203,3.0217013,3.0213113,3.0210023,3.0207667,3.02059,3.0203743,3.019982,3.01932,3.018402,3.0171375,3.0155363,3.0136628,3.0115685,3.0093107,3.0069633,3.0045948,3.0021205,2.9995556,2.9970117,2.994608,2.9924316,2.9905133,2.9888577,2.9874487,2.9862347,2.985385,2.9850063,2.9850998,2.9855046,2.985968,2.9863772,2.9866946,2.9868581,2.9870133,2.9873173,2.9878435,2.9886084,2.9895651,2.9906106,2.9916506,2.992596,2.993399,2.994078,2.994671,2.9951544,2.9955404,2.9957788,2.9958997,2.9960039,2.9961863,2.9964738,2.9968514,2.9973133,2.9978614,2.9984992,2.9992113,2.9999852,3.0007813,3.0015357,3.002226,3.0029738,3.003739,3.0045352,3.0053496,3.0061245,3.0067754,3.0072668,3.007649,3.0079632,3.0082502,3.0085242,3.0088263,3.0092006,3.009623,3.0101385,3.0107722,3.0114973,3.0122347,3.012938,3.013612,3.0142689,3.014962,3.015709,3.016419,3.01701,3.0174274,3.0176659,3.0177658,3.0177681,3.0177424,3.0177064,3.0176806,3.0176706,3.0176697,3.0176861,3.017743,3.0177844,3.0177903,3.0177302,3.0176015,3.01745,3.0173163,3.017171,3.0168762,3.016367,3.0155945,3.014572,3.0133517,3.0119977,3.0105748,3.0090165,3.0072012,3.0052314,3.0033298,3.0016532,3.0002532,2.9991393,2.9981823,2.9972863,2.9963994,2.9955657,2.9948509,2.9942734,2.993802,2.9933915,2.9930496,2.9927673,2.992599,2.9925866,2.9927013
2.9765487,2.9757915,2.97581,2.976219,2.97665,2.9768615,2.9768822,2.9774537,2.978774,2.9806185,2.9814374,2.979889,2.9760227,2.9705725,2.9636261,2.955924,2.9467773,2.9372358,2.927424,2.917148,2.906333,2.8949058,2.8843768,2.8752806,2.8663526,2.8562448,2.8487592,2.8447092,2.8370445,2.827825,2.8159747,2.8022408,2.7857084,2.7664633,2.7445657,2.7193737,2.6924944,2.672541,2.6542745,2.640633,2.6333296,2.630571,2.6298933,2.6303577,2.6320171,2.6347606,2.6375146,2.6395688,2.64074,2.64096,2.640205,2.6389778,2.6373184,2.6358047,2.6346536,2.6339335,2.6336975,2.6337895,2.6337633,2.6334963,2.633432,2.6338658,2.6350243,2.6369238,2.6393027,2.6419368,2.6448145,2.6480527,2.6512923,2.6542983,2.6571507,2.660214,2.6639957,2.66882,2.6757126,2.6855035,2.6996317,2.718218,2.7402468,2.765183,2.7916732,2.8199906,2.847867,2.872293,2.891587,2.9055197,2.9143968,2.9203272,2.9249856,2.9284391,2.9306118,2.9318361,2.9329607,2.934668,2.9367416,2.9394143,2.9423773,2.9451137,2.9473996,2.9492745,2.950825,2.9521742,2.9532094,2.9539912,2.9545755,2.9551177,2.9557505,2.956394,2.9568005,2.9573894,2.9581666,2.9591327,2.960248,2.9614897,2.9628062,2.9640784,2.965341,2.9666107,2.9679115,2.969252,2.9705548,2.9717295,2.972714,2.9734612,2.974133,2.974732,2.9752154,2.9755707,2.975821,2.9760284,2.976285,2.9765313,2.9769268,2.9773932,2.9778962,2.9784255,2.9789834,2.9796267,2.9803476,2.981204,2.982129,2.9830713,2.9840255,2.9850197,2.986065,2.9871135,2.9882643,2.989512,2.9908624,2.9923224,2.9938936,2.995553,2.9972115,2.9990034,3.000687,3.0022855,3.00392,3.005612,3.0072978,3.0089464,3.0106187,3.012341,3.0141058,3.015838,3.0174456,3.0188694,3.020075,3.0211241,3.0220923,3.023034,3.0239568,3.0248199,3.0255535,3.0260792,3.0263515,3.0263932,3.0262146,3.025879,3.025466,3.0250373,3.0246234,3.0242662,3.02394,3.0236468,3.0233886,3.0230782,3.0225997,3.0218835,3.0209208,3.0196211,3.0180068,3.016168,3.014155,3.0120106,3.0098004,3.0075793,3.005278,3.002884,3.0004785,2.9981441,2.9959407,2.9939003,2.9920552,2.9904256,2.9889417,2.987775,2.9870286,2.9866915,2.986609,2.9865584,2.986439,2.986236,2.9859157,2.9856644,2.985667,2.98598,2.9865818,2.987418,2.9883387,2.9892497,2.990101,2.9908762,2.9916255,2.9924061,2.9931707,2.9939384,2.994649,2.9952931,2.995945,2.9966662,2.9974577,2.9983044,2.9992132,3.0002003,3.001202,3.0021443,3.002991,3.00371,3.0042691,3.0047174,3.0051818,3.0056596,3.0061908,3.0067735,3.0073547,3.0078502,3.0082207,3.008514,3.008787,3.0090866,3.009414,3.0097926,3.0102491,3.010734,3.0112789,3.0119061,3.0125647,3.0131836,3.013739,3.014257,3.014781,3.015365,3.016026,3.016692,3.0172782,3.017726,3.0180268,3.018211,3.0183158,3.0183988,3.018485,3.0185761,3.01866,3.0187178,3.018752,3.0187917,3.0187855,3.018713,3.018569,3.0183687,3.0181637,3.0180001,3.0178542,3.01758,3.0171394,3.0164974,3.015686,3.014756,3.0137534,3.0127268,3.0115817,3.010192,3.0086203,3.0070314,3.0055552,3.0042546,3.0031624,3.002202,3.0012825,3.000345,2.9993968,2.9984722,2.9975872,2.9967341,2.9959002,2.99507,2.9942942,2.993638,2.9930723,2.992515
2.9246771,2.9251153,2.9261034,2.9271834,2.9279277,2.9281993,2.9284391,2.9295607,2.9319143,2.9350538,2.9376721,2.9383626,2.9369729,2.934278,2.9304643,2.926064,2.9215984,2.9171944,2.9124207,2.906907,2.900766,2.8944185,2.8881674,2.8807874,2.872651,2.8635452,2.8559844,2.8505228,2.8430462,2.8362072,2.8283262,2.8186336,2.8099504,2.801999,2.7901998,2.7715452,2.7489734,2.7223442,2.690765,2.6647944,2.6466045,2.633194,2.6252952,2.6238241,2.6243634,2.6260064,2.6283855,2.6314483,2.6340742,2.6351113,2.6353307,2.6351652,2.6344876,2.633648,2.6327813,2.6320012,2.6313386,2.6306005,2.629766,2.6287775,2.6282246,2.6274064,2.6266341,2.6268148,2.6278238,2.6290898,2.630619,2.6325648,2.634698,2.636467,2.6378205,2.639368,2.6414912,2.6445928,2.6492548,2.6562474,2.6670108,2.6822238,2.7016485,2.7249293,2.7510033,2.7807217,2.8124526,2.8421059,2.8670194,2.8865533,2.9001787,2.9093056,2.9158778,2.920104,2.9224253,2.9235973,2.9247503,2.9267573,2.929205,2.932341,2.9359698,2.9395375,2.9424744,2.9446979,2.946344,2.947082,2.9477067,2.948289,2.94879,2.9492927,2.9499226,2.9506578,2.9513395,2.952212,2.9533265,2.9546683,2.9561832,2.957816,2.9594748,2.9610167,2.962471,2.9638715,2.9652433,2.9665961,2.9678688,2.9689922,2.9699178,2.9706116,2.9711668,2.9716637,2.9720795,2.9723887,2.9726315,2.9729104,2.9733033,2.9737248,2.9742985,2.9749084,2.9755034,2.9760742,2.976634,2.9772515,2.9779565,2.9787571,2.9796267,2.9805415,2.9814796,2.9824448,2.9834468,2.9844275,2.9854953,2.9866598,2.9879684,2.9894652,2.9911542,2.992991,2.994862,2.9968936,2.9989667,3.0010643,3.0032115,3.00537,3.0074549,3.0094302,3.011377,3.0133271,3.0152621,3.0170848,3.0187054,3.0201044,3.0212784,3.0222545,3.0231574,3.0240507,3.0249438,3.0258083,3.0265868,3.0271883,3.0275729,3.0277812,3.0277882,3.027638,3.0273666,3.0269885,3.0265229,3.0260065,3.0254369,3.024875,3.0243444,3.023784,3.0230985,3.0222204,3.0211449,3.0197737,3.0181398,3.016315,3.014358,3.0123296,3.0102885,3.0082705,3.006054,3.0038223,3.0016794,2.9996657,2.997795,2.99607,2.9944673,2.9928317,2.9912684,2.989953,2.9888835,2.9880395,2.987393,2.9868484,2.986361,2.985831,2.985385,2.985074,2.9850805,2.9855106,2.9862514,2.987207,2.9882574,2.989239,2.9901083,2.990877,2.9915962,2.9923317,2.9930933,2.9938245,2.994615,2.9954705,2.9964092,2.997417,2.9984508,2.9994998,3.0005724,3.0017185,3.002852,3.0038614,3.0046935,3.0053153,3.0057,3.005949,3.0061593,3.0063477,3.0065804,3.0068855,3.0072474,3.0076113,3.007931,3.0082479,3.008587,3.008994,3.0094533,3.0099647,3.0105453,3.0111246,3.0117202,3.0123456,3.0129323,3.0134332,3.0138488,3.0142164,3.0146005,3.0150623,3.0156207,3.0162468,3.016882,3.0174809,3.0179996,3.018394,3.018704,3.0190175,3.019343,3.0196671,3.0199575,3.0201626,3.020228,3.020115,3.0199003,3.019557,3.0191207,3.018651,3.0182185,3.01788,3.01764,3.0173678,3.0170517,3.0166547,3.016191,3.0156598,3.0150566,3.0144253,3.0136743,3.012692,3.0115047,3.0101798,3.0087988,3.0074592,3.0062523,3.0051517,3.0041034,3.003066,3.0020442,3.0010254,3.0000172,2.999062,2.9981337,2.9972148,2.9963324,2.9955187,2.9947567,2.9939651
2.8772318,2.877653,2.8786561,2.8797352,2.8803906,2.8805082,2.8806462,2.881637,2.8838997,2.886908,2.8895564,2.89082,2.8906713,2.889651,2.8877501,2.8857465,2.8847108,2.8846242,2.885089,2.8856225,2.8858685,2.8856995,2.8847861,2.882457,2.8796182,2.875212,2.8693197,2.8627777,2.855238,2.8480582,2.840005,2.831159,2.8247597,2.8195555,2.812642,2.804247,2.793459,2.7733393,2.744937,2.713224,2.6830113,2.6584384,2.641701,2.630415,2.624158,2.622271,2.6228766,2.6247416,2.6268294,2.6283088,2.6294565,2.6297858,2.6299477,2.63018,2.6302433,2.629931,2.6293583,2.6287162,2.6280055,2.627189,2.6263218,2.6251154,2.6239936,2.6233144,2.622771,2.622787,2.623178,2.6240757,2.6252487,2.6261477,2.6267228,2.6274936,2.6286252,2.6302938,2.633037,2.6375093,2.644979,2.656344,2.671927,2.6918125,2.7155626,2.7446814,2.7785072,2.812856,2.843789,2.8690357,2.88726,2.900924,2.9108834,2.9170914,2.9202538,2.9216297,2.9227931,2.9248648,2.9273996,2.9307618,2.9347281,2.9383202,2.9410856,2.9429965,2.9440436,2.9445472,2.9449897,2.9455092,2.9460125,2.9465413,2.9472241,2.9480743,2.9489648,2.9500415,2.9514246,2.9530797,2.9549165,2.9568396,2.9587288,2.9604313,2.9619746,2.9633996,2.9647355,2.966003,2.9671547,2.9681344,2.9689064,2.969452,2.969861,2.9702194,2.9705288,2.9708056,2.971085,2.9714162,2.9718509,2.9722295,2.9727466,2.9732904,2.9737968,2.9742541,2.9746842,2.9751682,2.9757805,2.9765005,2.9773161,2.9782093,2.9791517,2.9801304,2.9811351,2.982098,2.9831262,2.9842465,2.9855533,2.9870844,2.9888346,2.990798,2.9928527,2.995103,2.997497,2.9999838,3.0025244,3.0050387,3.0074334,3.0096712,3.0118546,3.0140114,3.0161138,3.018052,3.0197558,3.0212514,3.0225544,3.0236218,3.0245872,3.0254936,3.0263376,3.027121,3.0278504,3.0284808,3.0290294,3.029566,3.0299976,3.03028,3.030346,3.0301032,3.0295281,3.0287347,3.0278018,3.0267544,3.025685,3.024634,3.0235639,3.0224137,3.0211744,3.0197244,3.0180798,3.016326,3.0145311,3.0127559,3.0110588,3.0094457,3.0074563,3.005454,3.003521,3.0016773,2.9999576,2.9984062,2.9970238,2.9956899,2.9943702,2.9931278,2.9918895,2.9905953,2.9892426,2.9878721,2.986634,2.9855647,2.984857,2.9846025,2.9849222,2.9857917,2.9869766,2.9883153,2.9896858,2.990931,2.9919662,2.9927254,2.9932423,2.9936695,2.9941313,2.9946632,2.995358,2.996223,2.99725,2.9983702,2.9994972,3.0006237,3.0017493,3.002948,3.004128,3.005162,3.0059798,3.006536,3.006804,3.0069075,3.006925,3.0069025,3.0069308,3.0070672,3.0073192,3.0076418,3.0079787,3.0083594,3.008791,3.0093148,3.009902,3.010539,3.01123,3.011892,3.0125356,3.0131657,3.0136967,3.0140977,3.0143836,3.0146027,3.01485,3.015193,3.015658,3.016251,3.0169315,3.017659,3.01838,3.0190225,3.0196095,3.0202026,3.020786,3.021322,3.0217533,3.022019,3.0220726,3.0218854,3.021535,3.0210023,3.0203478,3.0196695,3.0190663,3.0186095,3.018322,3.0180697,3.0178657,3.0176542,3.0174189,3.0171304,3.0167675,3.0163703,3.0158472,3.015096,3.014115,3.0129166,3.0115619,3.0101662,3.0088458,3.0076423,3.006513,3.0054092,3.0043626,3.003348,3.0023465,3.0014024,3.0004907,2.999595,2.9987144,2.9978604,2.9970384,2.9961915
2.8446002,2.8447804,2.8455548,2.846549,2.8472924,2.8475962,2.8478465,2.8486443,2.8504283,2.852789,2.854774,2.8558633,2.856127,2.8556871,2.8545105,2.853598,2.853907,2.855798,2.8589516,2.8627458,2.8665211,2.8696342,2.871787,2.8738356,2.8761647,2.8768346,2.8748097,2.8709853,2.8662844,2.861137,2.8543286,2.8470573,2.8398216,2.831075,2.8225224,2.8180048,2.812491,2.8025985,2.7868114,2.7618284,2.7319908,2.7036486,2.6788373,2.6587605,2.6422772,2.6310086,2.6255364,2.6235902,2.6231923,2.623813,2.6246185,2.6249897,2.6256225,2.6265206,2.6274805,2.6281667,2.6283655,2.6281672,2.6277907,2.6272216,2.6262932,2.6251369,2.6241002,2.6231704,2.6220562,2.621135,2.620637,2.6207004,2.621055,2.6213117,2.6214714,2.6218753,2.6226583,2.6237319,2.6251082,2.6275148,2.6321514,2.6398356,2.6511407,2.6667233,2.6866226,2.7129889,2.7454267,2.7815962,2.8174105,2.84838,2.8719354,2.8902254,2.9043565,2.914331,2.9200165,2.9225407,2.9241028,2.92624,2.9287136,2.9321055,2.936192,2.9397178,2.9423223,2.9440422,2.9448638,2.9456882,2.9463348,2.9470053,2.9476242,2.9482417,2.9490027,2.9499216,2.9508355,2.9519405,2.9534166,2.9552183,2.957216,2.9592743,2.9612536,2.9630003,2.964542,2.9659295,2.9671986,2.9683776,2.9694324,2.9703093,2.9709663,2.9713848,2.9716668,2.9718611,2.9719963,2.9721565,2.9724073,2.972766,2.9732492,2.9736562,2.9741259,2.974519,2.9747663,2.974909,2.9750614,2.975349,2.975801,2.9764252,2.9772243,2.9781823,2.97925,2.98037,2.9814892,2.9825215,2.9835649,2.9846487,2.9859097,2.98742,2.9891918,2.9912286,2.9933982,2.9958239,2.998423,3.0011303,3.003901,3.0066407,3.0092297,3.0116153,3.0139024,3.0161152,3.0182304,3.020177,3.0219235,3.0235167,3.0249639,3.026208,3.0273385,3.028337,3.029158,3.0298295,3.0304446,3.0310564,3.0317068,3.0324838,3.0332584,3.0339248,3.034295,3.0341926,3.0336285,3.032784,3.0317206,3.0303364,3.028866,3.0274782,3.0261626,3.024859,3.023542,3.022066,3.020413,3.0186872,3.0169604,3.0152931,3.013769,3.0124233,3.0108514,3.0090919,3.0073318,3.0056384,3.0040398,3.0025938,3.0013332,3.0002587,2.999158,2.997973,2.9965606,2.9948077,2.9927382,2.9905484,2.988517,2.9868774,2.9858427,2.9856057,2.986228,2.9875154,2.9891353,2.9908953,2.9926548,2.9942293,2.9954703,2.9962573,2.9966526,2.996894,2.997157,2.9976053,2.9982662,2.999135,3.0002074,3.0013957,3.0025873,3.0037727,3.0049343,3.0061507,3.0073233,3.008315,3.0090532,3.0094948,3.0096195,3.0095644,3.0094042,3.009213,3.009102,3.009141,3.0093408,3.0096452,3.009983,3.0103698,3.010807,3.0113358,3.011931,3.01258,3.0132842,3.0139604,3.014617,3.0152502,3.0157676,3.0161362,3.0163703,3.0165236,3.01671,3.0170045,3.0174356,3.0180204,3.0187206,3.0194898,3.02028,3.0210319,3.0217528,3.0224733,3.0231647,3.023779,3.024245,3.0245032,3.024538,3.0243583,3.0239847,3.0234008,3.0226812,3.0219436,3.0213,3.020828,3.0205503,3.020321,3.0201607,3.0200095,3.0198517,3.019662,3.0194142,3.0191402,3.018745,3.0181265,3.0172634,3.0161476,3.0148377,3.0134447,3.0120811,3.0108485,3.0097008,3.0086055,3.0075912,3.0066292,3.0056834,3.0047796,3.0039036,3.0030365,3.0021782,3.0013366,3.0005217,2.999688
2.823781,2.8243613,2.8254862,2.8268657,2.828104,2.8290067,2.8298402,2.8309884,2.8328953,2.8352232,2.8372307,2.8386598,2.8394074,2.839301,2.8386703,2.8383777,2.8392546,2.8414767,2.84476,2.848621,2.8524938,2.855884,2.8592632,2.8631215,2.867086,2.8700442,2.8711,2.8704724,2.8691573,2.8677115,2.8650565,2.8611033,2.8551667,2.8468409,2.8384066,2.8323264,2.8245177,2.8173397,2.808271,2.7941706,2.7750082,2.7511842,2.7247367,2.7037163,2.6812139,2.6595693,2.644207,2.6349216,2.6295242,2.6269546,2.6254644,2.6249855,2.6253748,2.6262174,2.6276927,2.6295152,2.630858,2.631411,2.6316466,2.6314538,2.6311665,2.630415,2.6293328,2.6285439,2.6280842,2.6270206,2.6261008,2.625372,2.6248384,2.6242876,2.623764,2.6236792,2.6242194,2.6252806,2.626122,2.6273136,2.6298373,2.6343803,2.6416595,2.6526656,2.6677363,2.68942,2.7173538,2.7513576,2.7888637,2.8249302,2.8554258,2.8791156,2.8978286,2.9121585,2.9217992,2.927264,2.9304552,2.933198,2.9356914,2.939034,2.943154,2.9469204,2.949699,2.9515672,2.9528115,2.9538298,2.9545922,2.955317,2.9559312,2.9564857,2.957147,2.957964,2.958792,2.9598455,2.961312,2.9631405,2.9651768,2.9672556,2.969222,2.9709313,2.972414,2.973734,2.9749327,2.9760494,2.977059,2.977902,2.9785192,2.9788866,2.9790802,2.9791522,2.9791305,2.979103,2.9791908,2.9794734,2.979938,2.9804077,2.9808266,2.980988,2.9808586,2.980565,2.98031,2.9802938,2.980486,2.9809422,2.9816866,2.9826791,2.9838567,2.985139,2.9864042,2.9875536,2.9886374,2.989675,2.9908478,2.9923046,2.9940934,2.996181,2.9983943,3.000821,3.0033882,3.006089,3.0089242,3.0117912,3.014532,3.0170708,3.0194883,3.0217955,3.023931,3.0258608,3.0276117,3.0292342,3.0307086,3.0320475,3.0333421,3.0344877,3.0353925,3.0360565,3.0365896,3.0371315,3.0377555,3.0385823,3.0394645,3.0402918,3.0408177,3.0408473,3.0404663,3.039836,3.0389135,3.0375168,3.0359988,3.03459,3.03327,3.031985,3.0307193,3.0293303,3.0277634,3.026101,3.0243897,3.0226784,3.0210738,3.019682,3.0184445,3.0170417,3.0156882,3.0143642,3.0130599,3.0118613,3.0107448,3.009705,3.0085778,3.0072675,3.005536,3.0032384,3.0005126,2.9977193,2.9951494,2.993104,2.9918804,2.991652,2.992432,2.9939682,2.9958618,2.997923,3.0000277,3.0018852,3.0032992,3.0041723,3.004617,3.0048974,3.005187,3.005657,3.0063467,3.0072541,3.008379,3.0096288,3.010879,3.0121112,3.0132847,3.014476,3.0155835,3.0164552,3.0170255,3.0172787,3.0172129,3.0169766,3.0166373,3.016286,3.0160437,3.0159826,3.0161138,3.0163689,3.0166566,3.0169795,3.0173292,3.0177479,3.018222,3.0187588,3.0193744,3.019993,3.0206223,3.0212498,3.0217838,3.0221815,3.0224438,3.0226197,3.02282,3.0231233,3.0235548,3.024134,3.0248222,3.0255692,3.0263186,3.0270143,3.0276718,3.02833,3.0289636,3.029533,3.0299735,3.0302172,3.030241,3.030048,3.0296655,3.0290647,3.0283318,3.0275903,3.0269518,3.02649,3.026221,3.0259998,3.0258386,3.0256882,3.025557,3.0254285,3.0252645,3.0250893,3.0248075,3.0243206,3.0235949,3.0226047,3.0213966,3.02007,3.0187337,3.0175145,3.016377,3.0153425,3.0144114,3.0135274,3.0126562,3.011825,3.0110219,3.0102217,3.009435,3.0086722,3.0079517,3.0072246
2.8137288,2.814737,2.8163133,2.8181944,2.820065,2.821766,2.8234477,2.8252978,2.8277612,2.8305442,2.8331532,2.8352857,2.8367434,2.8374124,2.8375468,2.837994,2.8393998,2.8418689,2.8450885,2.8486533,2.8521214,2.8550367,2.8578773,2.8611631,2.8645854,2.8674428,2.869236,2.869981,2.8700569,2.8700652,2.8708167,2.8704677,2.8692305,2.8666687,2.8618407,2.8550267,2.8471644,2.8390622,2.8306475,2.8192677,2.8047466,2.7884855,2.7705903,2.7505887,2.7296534,2.7066438,2.6839323,2.6644504,2.6506977,2.6426783,2.6373863,2.6341171,2.6328351,2.6329117,2.634452,2.6366522,2.6385558,2.6405087,2.641921,2.6424153,2.642542,2.6423302,2.6418428,2.641326,2.64088,2.6403258,2.6396146,2.6382375,2.6366158,2.6350951,2.6338837,2.6332643,2.6333256,2.6339264,2.6348374,2.6358905,2.6372852,2.639526,2.6434717,2.6501737,2.6603322,2.6765876,2.699458,2.7290902,2.7646005,2.803053,2.839762,2.8709178,2.895409,2.913625,2.9272563,2.9370174,2.9433956,2.9478397,2.9509373,2.9545472,2.9587069,2.9624643,2.965146,2.9669633,2.9684181,2.969517,2.9702826,2.9709363,2.9714234,2.9718056,2.9722638,2.9728937,2.9736118,2.9746203,2.9760466,2.9778376,2.9798422,2.981885,2.9838033,2.9854543,2.9868739,2.9881322,2.9892716,2.9903498,2.9913533,2.992213,2.9928503,2.993234,2.9934273,2.9934793,2.993414,2.993333,2.9933748,2.993615,2.9940143,2.9943738,2.9945884,2.994425,2.993944,2.9932961,2.9926252,2.9921923,2.9920406,2.9922514,2.9928718,2.9938004,2.9949877,2.9963772,2.997746,2.9990158,3.0001428,3.0011485,3.0022779,3.0036952,3.0054471,3.0075226,3.0096712,3.011849,3.0140002,3.016271,3.018795,3.0214994,3.02421,3.0268574,3.029468,3.0320158,3.034318,3.0363042,3.0380564,3.0396557,3.0410676,3.042366,3.0437386,3.0450068,3.046049,3.0468106,3.0473254,3.0477486,3.0482821,3.0491533,3.0501556,3.051145,3.0518806,3.0521631,3.052024,3.0515826,3.0507584,3.049481,3.0480654,3.046722,3.0454638,3.044272,3.04317,3.042049,3.0408163,3.039506,3.0380921,3.0365543,3.0349722,3.0335004,3.0322716,3.0314012,3.0307329,3.0298805,3.0288458,3.0278609,3.0268474,3.025827,3.024631,3.0231419,3.021051,3.0181942,3.01478,3.0112762,3.0080743,3.00557,3.004081,3.0037937,3.0047033,3.0064855,3.0086513,3.0109653,3.0133204,3.0154045,3.0170126,3.018007,3.0184774,3.0187192,3.0189552,3.0193892,3.020052,3.0209513,3.0220883,3.0233665,3.0246549,3.0259166,3.0270905,3.0282533,3.029308,3.0300832,3.0305142,3.030614,3.030407,3.030044,3.0295794,3.0291219,3.028792,3.0286646,3.02875,3.028966,3.0291998,3.0294518,3.0297012,3.0299873,3.030311,3.030705,3.0312061,3.031748,3.0323355,3.0329528,3.0335078,3.0339422,3.0342393,3.0344357,3.0346427,3.0349293,3.035327,3.0358605,3.036497,3.0371797,3.0378475,3.0384512,3.0390172,3.0395768,3.0401113,3.0405884,3.0409472,3.0411239,3.0411,3.0408754,3.0404744,3.0398622,3.0391223,3.038375,3.037735,3.0372818,3.0370193,3.0368066,3.03665,3.0364943,3.0363543,3.0362253,3.03608,3.0359468,3.0357256,3.0353231,3.0347052,3.033844,3.032775,3.0315754,3.0303383,3.029199,3.0281281,3.0271735,3.0263362,3.0255423,3.0247455,3.0239751,3.0232234,3.0224638,3.0217152,3.0210073,3.0203733,3.019773
2.8070168,2.808527,2.8105145,2.8127851,2.8151708,2.8175945,2.820127,2.8228202,2.826119,2.8297982,2.8334043,2.8365555,2.8390303,2.8407493,2.8418326,2.843135,2.8451214,2.847842,2.8509338,2.8540432,2.8568482,2.858941,2.860874,2.8630834,2.8653345,2.8671167,2.8680868,2.8683224,2.8681755,2.8680658,2.8688445,2.8702517,2.872126,2.8730764,2.8725352,2.8716984,2.8703375,2.8652916,2.8578832,2.846953,2.8347898,2.8229704,2.8095837,2.7940712,2.7759116,2.7536826,2.72972,2.705037,2.6830177,2.6669257,2.6543722,2.6467166,2.641953,2.6399798,2.6404257,2.6422257,2.6445694,2.6473932,2.6492555,2.6506531,2.6516576,2.6519585,2.6516457,2.651151,2.6506526,2.6500084,2.649212,2.6477287,2.6454763,2.6431248,2.6413527,2.6403384,2.6401465,2.6405263,2.641127,2.6422372,2.643729,2.6454675,2.6478972,2.651812,2.6582515,2.6695895,2.6868005,2.7108898,2.7415667,2.7772758,2.815542,2.8521762,2.8848357,2.910666,2.9289522,2.9419663,2.9519756,2.9592667,2.9643266,2.968967,2.9732988,2.977432,2.9806385,2.9826608,2.9841962,2.9853349,2.9860997,2.986695,2.9870682,2.9872942,2.987564,2.988,2.9885716,2.9894702,2.9907768,2.9924579,2.9943757,2.9963577,2.9982386,2.9998746,3.001296,3.0025804,3.00377,3.0049322,3.0060601,3.0070772,3.0078812,3.0084329,3.0088,3.0090272,3.0091243,3.009191,3.0093856,3.0097811,3.010274,3.0106528,3.0107367,3.0102725,3.0092907,3.0080104,3.006731,3.005784,3.0051637,3.0047731,3.0049975,3.0059648,3.0074868,3.0092206,3.010846,3.012283,3.0134559,3.0143783,3.0153365,3.01654,3.018055,3.0198367,3.0215015,3.023272,3.0251064,3.0271332,3.0294905,3.0321078,3.0347757,3.037404,3.0399644,3.0423903,3.0445528,3.0463233,3.047763,3.0490618,3.0502584,3.0514507,3.0527909,3.0540643,3.0550838,3.0558624,3.056504,3.0570312,3.0574923,3.0582635,3.0592422,3.060302,3.061175,3.0616465,3.0617518,3.061631,3.0608866,3.0598986,3.0589075,3.0580528,3.0573568,3.0567594,3.0562525,3.055747,3.0551019,3.054278,3.0532095,3.0517879,3.0500875,3.0485091,3.0471838,3.0462928,3.0458388,3.0455031,3.0449972,3.0442307,3.0432057,3.042101,3.0408196,3.0392802,3.0368938,3.0334525,3.0293567,3.025159,3.0213192,3.0183754,3.016252,3.0153694,3.016057,3.0179815,3.0204062,3.0230165,3.0255966,3.0279298,3.0298386,3.0310965,3.031722,3.0319996,3.032106,3.0324469,3.0330544,3.0339303,3.035077,3.0363898,3.0377173,3.0390103,3.040182,3.0413113,3.0423026,3.0429826,3.0432997,3.0432992,3.0430279,3.0426228,3.0421276,3.041645,3.0412858,3.0411196,3.0411587,3.0413196,3.0414848,3.0416555,3.0418024,3.0419588,3.0421414,3.042404,3.042798,3.0432715,3.0438294,3.0444524,3.0450592,3.045576,3.045961,3.0462322,3.0464883,3.0467916,3.0471735,3.0476627,3.0482283,3.048809,3.0493484,3.0498075,3.0502214,3.0506268,3.0510077,3.0513406,3.0515747,3.0516586,3.0515802,3.05134,3.050951,3.050372,3.0496745,3.048967,3.048359,3.0479302,3.0476856,3.0474687,3.047277,3.0470672,3.0468655,3.046681,3.0464993,3.0463548,3.0461469,3.0457993,3.045281,3.04457,3.043684,3.0426664,3.0415854,3.0405698,3.0395918,3.038711,3.0379224,3.0371466,3.0363398,3.0355372,3.0347464,3.0339289,3.0331154,3.0323505,3.031684,3.0310879
2.8021245,2.8043613,2.8067813,2.80941,2.8123274,2.815504,2.8189232,2.8225043,2.8266373,2.8311677,2.8357553,2.840045,2.8437643,2.8467553,2.8490105,2.851387,2.8542156,2.857491,2.8608067,2.8638396,2.866364,2.8680363,2.8694558,2.8709805,2.8724546,2.8735442,2.8740356,2.8739629,2.8735228,2.873048,2.8733392,2.874536,2.8766756,2.8793874,2.8819952,2.8840575,2.8857918,2.8857906,2.8832574,2.8767056,2.8670592,2.8551283,2.8411689,2.8280861,2.8138099,2.7955236,2.7744155,2.7510319,2.7266903,2.7042441,2.6859837,2.6722307,2.6601906,2.6534538,2.6509197,2.6505013,2.6517243,2.6540742,2.6562626,2.6584468,2.6597095,2.660387,2.660832,2.6608639,2.6603603,2.659668,2.6586986,2.6569948,2.654073,2.6508212,2.6482625,2.6465442,2.6458607,2.645929,2.6465495,2.647838,2.6497335,2.6518471,2.6537867,2.6556816,2.658988,2.6655107,2.6765432,2.6940553,2.7186007,2.749378,2.785254,2.824454,2.8646219,2.9010458,2.9279423,2.9464893,2.9605181,2.9703803,2.9778132,2.984099,2.9892755,2.9938526,2.997639,3.000191,3.0017369,3.0028868,3.0036075,3.004092,3.0043187,3.0043855,3.004498,3.0047913,3.0052454,3.0060513,3.0072803,3.0088995,3.0107698,3.0127149,3.0145714,3.0162067,3.0176349,3.0189455,3.020175,3.0213928,3.022602,3.0237322,3.0246782,3.0253916,3.0259397,3.0263748,3.026711,3.0270786,3.0274591,3.0277734,3.028316,3.0288975,3.0292435,3.0286276,3.0269902,3.0248349,3.0226722,3.020786,3.0190337,3.018034,3.018066,3.0191507,3.0209904,3.0230885,3.0250106,3.0265927,3.0277758,3.0285916,3.0293388,3.0302625,3.031436,3.032814,3.0341563,3.0356236,3.0371866,3.0389986,3.0412235,3.0437732,3.0463927,3.0489748,3.0514293,3.053663,3.0555396,3.0569305,3.0579314,3.058807,3.0596762,3.0606494,3.0618782,3.0631256,3.0641508,3.06488,3.065364,3.0656817,3.0661058,3.0668874,3.0679302,3.069055,3.0700226,3.070622,3.0707893,3.070693,3.0702896,3.069799,3.0693965,3.0691934,3.0692005,3.0693493,3.0696015,3.0698671,3.0699244,3.0697308,3.0690093,3.067545,3.0656266,3.0638933,3.0623918,3.0614223,3.0610452,3.0609038,3.0605886,3.059894,3.0588093,3.057581,3.0561876,3.054544,3.0520585,3.0482903,3.0435233,3.0384977,3.0334632,3.0289578,3.0260959,3.0253315,3.0267382,3.0294967,3.032291,3.0349815,3.0377116,3.0397105,3.0409513,3.0416467,3.0420732,3.042479,3.042927,3.043573,3.0442164,3.0450463,3.0461178,3.0473204,3.0485945,3.0499902,3.0513582,3.052731,3.0539384,3.054716,3.054983,3.0548048,3.054257,3.0535374,3.052755,3.0520926,3.051732,3.0517511,3.0521011,3.0525942,3.0529845,3.0532484,3.0533504,3.0533514,3.0533512,3.0534794,3.0538194,3.0543208,3.0549974,3.0557985,3.0566175,3.0573206,3.0578022,3.0580726,3.058279,3.058498,3.0587902,3.059214,3.0597398,3.0602856,3.060781,3.0611973,3.0615718,3.061861,3.0621119,3.062337,3.062504,3.062561,3.0624764,3.062251,3.06186,3.0613031,3.0606492,3.0599535,3.0593228,3.0588894,3.0586548,3.058443,3.0582247,3.0579362,3.0576344,3.057373,3.057147,3.0569668,3.056729,3.0563455,3.0558174,3.0551414,3.0543346,3.0534284,3.052475,3.0515714,3.050686,3.04986,3.0491157,3.0483897,3.047614,3.0467842,3.045888,3.0449393,3.0440285,3.0432248,3.0425715,3.0420356
2.8000586,2.8026707,2.8054798,2.8084288,2.811545,2.8149247,2.8186727,2.8226888,2.8272114,2.8321729,2.8373208,2.842328,2.8468845,2.850759,2.8538704,2.8571048,2.8606648,2.8645608,2.868414,2.8719044,2.8748484,2.876985,2.8788462,2.880715,2.8824449,2.8836832,2.8843365,2.8844767,2.8840814,2.8834639,2.8832083,2.8834424,2.8844786,2.8865156,2.8892765,2.8921745,2.8949509,2.8973355,2.8984048,2.8967342,2.8916392,2.8827477,2.870689,2.8583305,2.8441174,2.829174,2.812551,2.793489,2.772441,2.7508273,2.7303333,2.7116497,2.6941338,2.67982,2.6695185,2.6636205,2.6615956,2.6615114,2.6625342,2.6645203,2.6666036,2.6680155,2.6688404,2.669416,2.669598,2.6691985,2.6682134,2.6664042,2.663083,2.659121,2.6557474,2.6532416,2.6517916,2.6511157,2.6513672,2.652596,2.65469,2.6571445,2.659182,2.6604216,2.6620305,2.6654453,2.6719303,2.683721,2.7020745,2.7270122,2.7579331,2.7931805,2.8342683,2.8776836,2.9154425,2.9432588,2.9629927,2.977932,2.9886827,2.9975371,3.0048363,3.0107226,3.015318,3.0184443,3.0201106,3.0212803,3.0219572,3.0223188,3.0224137,3.0223794,3.0224311,3.0227075,3.0231705,3.023982,3.025212,3.0268219,3.0286736,3.0305896,3.0324173,3.034039,3.0354407,3.036726,3.0379152,3.0390868,3.040272,3.041428,3.0424566,3.0432992,3.0440211,3.0447469,3.045219,3.045545,3.0459728,3.0465589,3.04742,3.048366,3.0489497,3.0480967,3.04571,3.0425668,3.0392532,3.0358047,3.032895,3.031269,3.0310478,3.032279,3.0345967,3.037206,3.0394216,3.041061,3.0420828,3.0426195,3.0430596,3.0436797,3.0445628,3.0456991,3.0468912,3.0482292,3.0496836,3.0513897,3.0534763,3.0558228,3.0581586,3.060386,3.0623703,3.0639882,3.0651352,3.0657496,3.0660152,3.0662792,3.0667105,3.0674443,3.0686219,3.0699682,3.071168,3.0720317,3.0725222,3.0727491,3.0731177,3.0737994,3.0747204,3.0757725,3.0767016,3.0772598,3.0774248,3.0773602,3.0771995,3.0770712,3.0771337,3.077467,3.0780563,3.0788393,3.0797606,3.0807366,3.0815325,3.0820286,3.0818887,3.080827,3.0791354,3.0776286,3.0763464,3.075668,3.0756583,3.0759094,3.0759153,3.0753996,3.0743709,3.0732017,3.071385,3.0693803,3.0667892,3.062807,3.0573263,3.0511293,3.044655,3.0388894,3.0354228,3.0347147,3.0367117,3.0403185,3.0437593,3.0466037,3.0489779,3.050432,3.051045,3.0511882,3.0512533,3.0514731,3.051868,3.0524542,3.0530186,3.053688,3.0545576,3.0556116,3.056848,3.058316,3.0598178,3.061385,3.0628138,3.0637946,3.064219,3.0641313,3.0635858,3.062796,3.0619001,3.061124,3.0607233,3.0608077,3.0613132,3.0620093,3.0625873,3.0630121,3.0632281,3.0632968,3.0633464,3.0635264,3.0639215,3.0644941,3.0652747,3.0661993,3.067165,3.0680032,3.0685596,3.0688283,3.0689793,3.0690963,3.0692735,3.0696044,3.0700674,3.0705745,3.071054,3.0714753,3.0718465,3.0721688,3.0724769,3.072745,3.0729098,3.0729218,3.072783,3.0725217,3.0721211,3.071542,3.0708456,3.0700877,3.0693946,3.0689294,3.0687025,3.0684962,3.0682635,3.0679543,3.0676274,3.067348,3.0671256,3.0669508,3.06671,3.066296,3.0657759,3.0651622,3.0644288,3.0635672,3.0626295,3.061723,3.0608048,3.0599372,3.0591655,3.0584157,3.0575929,3.0566964,3.0557413,3.0547047,3.053699,3.0528102,3.0520706,3.0514374
2.8000202,2.8029833,2.8061137,2.8092747,2.8124864,2.8159199,2.8196857,2.8236585,2.8282022,2.8332844,2.8386307,2.8439243,2.8488836,2.8532882,2.8570304,2.8608456,2.8648944,2.8692644,2.8736258,2.8776355,2.881115,2.8838694,2.886349,2.888823,2.8911552,2.8930502,2.894425,2.8952785,2.8954966,2.895394,2.8952534,2.8951712,2.8953044,2.895787,2.896875,2.8987432,2.900897,2.903228,2.9054298,2.9063656,2.9051065,2.9008038,2.8932548,2.8839211,2.871334,2.8579042,2.8432994,2.8275042,2.810719,2.7928753,2.7743137,2.7557454,2.73697,2.7177749,2.7002635,2.6869435,2.678434,2.6736836,2.6717224,2.6715355,2.6727343,2.6741855,2.6754594,2.6765938,2.6772432,2.6771338,2.6763597,2.6746235,2.6713142,2.6672006,2.663371,2.6601067,2.6576471,2.6558964,2.6553159,2.6561089,2.658194,2.6610193,2.6636534,2.6654143,2.6669488,2.6690435,2.6725714,2.6795015,2.6915026,2.7095363,2.7337153,2.762191,2.7985885,2.8418448,2.8868525,2.926581,2.956931,2.9787817,2.9948583,3.0075107,3.0177412,3.02582,3.0318544,3.0359683,3.0384555,3.0398374,3.0406084,3.040929,3.0409274,3.0408106,3.0408301,3.0411327,3.041655,3.0425189,3.043774,3.0453658,3.0471742,3.049035,3.050796,3.0523515,3.0536594,3.0548377,3.0559015,3.0569367,3.058015,3.0591316,3.0601926,3.0611334,3.0619683,3.0627058,3.0631485,3.06346,3.064032,3.065029,3.066271,3.067524,3.0681598,3.0668657,3.0636134,3.0590692,3.0538378,3.0487652,3.0446014,3.042037,3.0416203,3.0433562,3.0464878,3.0498118,3.0524077,3.0541475,3.055047,3.055328,3.055491,3.0558581,3.0565338,3.0575514,3.0586877,3.0600114,3.0614839,3.0631666,3.0651097,3.0671444,3.068984,3.0705552,3.0717034,3.0722806,3.0722885,3.0718079,3.0711823,3.0708623,3.0709872,3.0716534,3.072991,3.0746632,3.0762486,3.07743,3.0780787,3.0783024,3.078527,3.0789104,3.0794897,3.0802808,3.0810351,3.081483,3.0816467,3.0816636,3.0816216,3.081682,3.0819945,3.0825973,3.0834665,3.0845718,3.0858662,3.0872827,3.0886388,3.0897455,3.0902681,3.0899754,3.0891013,3.0882587,3.0875754,3.0875673,3.0883107,3.0892882,3.0898614,3.0896804,3.0887215,3.087266,3.0851932,3.0831146,3.0805094,3.0762138,3.0698795,3.0624328,3.0546088,3.0478537,3.0437827,3.0430875,3.0456033,3.0499353,3.0540638,3.0571842,3.0592728,3.0602727,3.0604591,3.0601807,3.059773,3.0595112,3.0594687,3.0596828,3.059988,3.0604417,3.0611467,3.062115,3.0633354,3.0648513,3.0664468,3.068181,3.069852,3.0711217,3.0718303,3.0719748,3.0715861,3.07087,3.069974,3.0691555,3.068686,3.068725,3.0692554,3.0700436,3.070763,3.0713844,3.071818,3.0721116,3.0723805,3.0727448,3.0732727,3.0739496,3.0748124,3.0758116,3.0768695,3.0778065,3.0784426,3.078755,3.0789075,3.0789866,3.0791163,3.0794113,3.079854,3.0803494,3.0808196,3.08123,3.0815802,3.0819352,3.0822966,3.082594,3.082735,3.0826879,3.0825002,3.08221,3.0818243,3.081264,3.0805728,3.0798168,3.0791314,3.0786748,3.0784614,3.0782647,3.0780191,3.0776892,3.077321,3.0769773,3.0766811,3.0764215,3.0760834,3.0755746,3.0749857,3.0743656,3.0736747,3.0728576,3.0719445,3.0710528,3.0701365,3.0692785,3.0685277,3.0677934,3.0669656,3.0660555,3.0651088,3.0640593,3.0630045,3.0620275,3.0611565,3.0603602
2.8013873,2.8047433,2.8080974,2.8113909,2.8147707,2.81839,2.822225,2.8260884,2.8305175,2.8354998,2.840829,2.846159,2.8512075,2.855831,2.8599303,2.8641157,2.8684783,2.8730955,2.8776875,2.8819273,2.8856373,2.8886745,2.8914456,2.8942783,2.8970714,2.8996887,2.901988,2.9038076,2.9050388,2.9059258,2.9064994,2.9068458,2.9067903,2.906423,2.906104,2.906127,2.906654,2.9077487,2.9091334,2.9101462,2.910295,2.9087873,2.9051332,2.900392,2.8928869,2.882593,2.8697095,2.8559303,2.8415203,2.8259668,2.810955,2.7956488,2.7784734,2.7595005,2.7398424,2.721004,2.7049885,2.6937852,2.6864247,2.681829,2.6796348,2.679338,2.6802745,2.6815543,2.6823716,2.6825988,2.6823506,2.6809278,2.6781144,2.6744914,2.6706653,2.666859,2.6634464,2.6605415,2.6587884,2.6585727,2.6600897,2.6629155,2.6660414,2.668673,2.671121,2.6734843,2.6759882,2.679758,2.6864986,2.6979518,2.714992,2.7369814,2.7667382,2.8043618,2.8489106,2.895941,2.937653,2.9686136,2.9924097,3.0108051,3.0254376,3.037069,3.0457392,3.051662,3.0555432,3.0576458,3.0588322,3.0592618,3.0591974,3.058973,3.05892,3.0592146,3.059764,3.0606527,3.0618982,3.0634205,3.0651271,3.0668714,3.0684967,3.0699048,3.071034,3.0720127,3.0728674,3.0736966,3.074616,3.0756605,3.0767345,3.0777698,3.078684,3.0793185,3.079783,3.0803204,3.08116,3.0823839,3.0838134,3.085198,3.0854206,3.0833826,3.079149,3.0729256,3.0654106,3.0588465,3.0531793,3.049737,3.0494957,3.0520906,3.056178,3.0602312,3.0631971,3.065024,3.065838,3.0659173,3.0658631,3.0660596,3.0666227,3.0675898,3.0687354,3.070071,3.0715275,3.0730565,3.074627,3.076047,3.0770454,3.0776072,3.0776052,3.076905,3.0756884,3.0742462,3.0730515,3.0725627,3.0728369,3.0738418,3.0756838,3.0779352,3.0800624,3.081635,3.0824642,3.0826797,3.0827317,3.0827844,3.0829954,3.0834475,3.0839508,3.0842645,3.084373,3.0843983,3.0843935,3.0845046,3.0848398,3.0853825,3.0861049,3.0870414,3.0882065,3.0895557,3.0910025,3.0923958,3.0933747,3.0938072,3.0939753,3.094181,3.0946069,3.095796,3.0977306,3.0998383,3.1014037,3.1019578,3.1013746,3.0998,3.0980654,3.0964236,3.093958,3.0892406,3.0819495,3.073288,3.064174,3.0563073,3.0516095,3.0509577,3.0540147,3.0590487,3.0638108,3.067379,3.069723,3.0705853,3.0704172,3.069683,3.0687323,3.0678847,3.0672905,3.0670204,3.0668676,3.0670035,3.067555,3.0684667,3.069692,3.0713105,3.0731,3.075149,3.0772567,3.0790477,3.080268,3.0808344,3.0807643,3.0802598,3.0794983,3.0787683,3.0783129,3.0783327,3.0788739,3.079711,3.080525,3.0813267,3.0819893,3.0825303,3.083025,3.0835457,3.0841398,3.0848293,3.0856624,3.0866194,3.0876546,3.0885906,3.089235,3.0895514,3.0896907,3.0897422,3.0898452,3.0901256,3.0905676,3.091069,3.0915387,3.091933,3.0922692,3.0926018,3.092927,3.0931697,3.093237,3.0931125,3.0928679,3.092541,3.0921469,3.0916214,3.0909886,3.0902987,3.089674,3.0892591,3.0890567,3.0888166,3.0884914,3.0880623,3.0875678,3.0870633,3.0865822,3.086135,3.0856256,3.0849988,3.0843308,3.0836477,3.0829434,3.0821881,3.0813684,3.080574,3.0797691,3.0790262,3.0783885,3.077765,3.077046,3.0762362,3.0753758,3.0744104,3.073416,3.0724556,3.071559,3.0707169
2.804119,2.8075655,2.8110409,2.8144743,2.8179736,2.821685,2.8256116,2.8295593,2.833858,2.8385434,2.8436365,2.8487983,2.8536654,2.858129,2.8621235,2.8664322,2.8709748,2.8756504,2.8802505,2.8845396,2.8883507,2.8915968,2.894628,2.8978434,2.9011765,2.904509,2.907683,2.9104962,2.9127736,2.9146295,2.9159694,2.9168231,2.9169517,2.916441,2.915541,2.9144301,2.913618,2.9127963,2.9122462,2.9123032,2.9126973,2.912512,2.911016,2.908382,2.9044945,2.900146,2.8923805,2.8816175,2.8691034,2.8554335,2.8424335,2.82848,2.8130827,2.7960124,2.7774286,2.7574375,2.7373266,2.7199554,2.7059855,2.6958866,2.6893559,2.6857018,2.6843235,2.6846223,2.685649,2.6862783,2.6866894,2.6858683,2.684012,2.681305,2.6778505,2.6739864,2.670035,2.6661105,2.6629844,2.6611652,2.6611652,2.6629071,2.6656692,2.6688366,2.6723475,2.676265,2.680169,2.683704,2.6880538,2.6952868,2.706385,2.7215722,2.744248,2.7745275,2.8129425,2.8578024,2.9040174,2.945421,2.9785295,3.0051742,3.0268385,3.0439076,3.0565221,3.0650856,3.0705256,3.0738425,3.0756445,3.0763447,3.0763078,3.075975,3.0757904,3.0759974,3.0764852,3.0772972,3.0784278,3.0797796,3.0812855,3.082817,3.084217,3.0853944,3.0862699,3.0869772,3.0875554,3.088132,3.088873,3.08985,3.0909574,3.0921192,3.093161,3.094038,3.0947542,3.0954823,3.096461,3.097767,3.0991938,3.100411,3.0996642,3.0966277,3.09136,3.0837023,3.0744596,3.066184,3.0592089,3.0556207,3.0560093,3.059494,3.0644026,3.0690184,3.072176,3.0739176,3.074482,3.0742466,3.0739412,3.0740104,3.0745502,3.0755482,3.0767477,3.078051,3.0793228,3.080392,3.0811598,3.081472,3.0811672,3.0803459,3.0789669,3.076963,3.0747566,3.0728474,3.0716977,3.0716097,3.0725455,3.0743155,3.0769653,3.079939,3.082613,3.084527,3.0855095,3.0857258,3.085641,3.0854793,3.085425,3.0855975,3.0858598,3.0860014,3.0859997,3.0859687,3.0859408,3.0860147,3.0862217,3.0864577,3.086668,3.0869594,3.0874748,3.0881953,3.0891738,3.0903811,3.0915048,3.092421,3.0934443,3.094904,3.0969357,3.099913,3.103529,3.1072245,3.1103208,3.1122465,3.1128116,3.1122644,3.1113389,3.1102264,3.107891,3.10281,3.0946262,3.0846462,3.074163,3.0652027,3.059986,3.0592287,3.0625787,3.068252,3.0736897,3.0778735,3.0807142,3.0817637,3.0814037,3.0802474,3.078776,3.0773237,3.0760922,3.075193,3.0744352,3.0741024,3.0743906,3.0752254,3.076508,3.0783043,3.0803883,3.0828893,3.0856264,3.088219,3.0903058,3.0916734,3.0922928,3.0923352,3.0920112,3.091601,3.0913098,3.0913568,3.091842,3.0925927,3.093368,3.0942554,3.0951078,3.0958796,3.0965602,3.0971408,3.0976417,3.0981402,3.098711,3.099381,3.100154,3.1008797,3.1013696,3.1015759,3.1016192,3.101582,3.101593,3.1017928,3.10218,3.102661,3.1031375,3.1035457,3.1038814,3.1041985,3.1044838,3.1046576,3.1046286,3.1043868,3.1040173,3.1035876,3.103115,3.1025448,3.1018944,3.1011958,3.1005569,3.1001143,3.0998704,3.0995064,3.0990412,3.0984921,3.0978847,3.0972438,3.0966058,3.0960164,3.0954182,3.0947738,3.0941699,3.0935407,3.092877,3.0922008,3.0914638,3.0907593,3.0900595,3.089423,3.0888886,3.088373,3.087781,3.0871186,3.0864077,3.085605,3.0847697,3.083947,3.083167,3.0824423
2.8072045,2.8107507,2.8143325,2.8178825,2.8214927,2.8252928,2.8292832,2.8332608,2.8375804,2.842173,2.846904,2.8517194,2.8564324,2.8607512,2.8646355,2.8688126,2.873342,2.877973,2.8825026,2.8867607,2.8905926,2.8939395,2.8971117,2.9005432,2.904306,2.9083302,2.912366,2.91608,2.919241,2.9220142,2.924307,2.925971,2.9264872,2.9258814,2.924541,2.922846,2.9216099,2.9205155,2.919465,2.9186974,2.9182885,2.9179883,2.917404,2.9162393,2.9144092,2.911561,2.9070213,2.9000633,2.8906903,2.8795862,2.8673239,2.8531013,2.8377695,2.8215928,2.8040926,2.7854893,2.7661157,2.7463021,2.7297885,2.715119,2.7030416,2.6953216,2.6915147,2.6898456,2.6894133,2.6893015,2.6897213,2.6896305,2.6889424,2.6874201,2.6848855,2.6815276,2.6774552,2.672927,2.6686878,2.6652713,2.6634803,2.6636658,2.6655593,2.6688786,2.6732159,2.6784701,2.6840377,2.6886234,2.6921928,2.696302,2.7024698,2.7115235,2.7268202,2.749795,2.7820508,2.82269,2.8680735,2.9138312,2.956802,2.99375,3.0240703,3.0474956,3.0646362,3.0765624,3.084391,3.0887692,3.090807,3.0919366,3.0921552,3.0917456,3.0913157,3.0912342,3.091426,3.0919137,3.092671,3.0936208,3.0947344,3.0959053,3.0969772,3.097856,3.098444,3.0988674,3.09919,3.0995643,3.1001992,3.1011894,3.1024065,3.103763,3.1049762,3.106116,3.107098,3.1079993,3.1090403,3.1103106,3.1115777,3.111909,3.1103308,3.1064186,3.1000772,3.0911953,3.080501,3.070342,3.062983,3.0597076,3.0609045,3.0653982,3.0712056,3.0763974,3.079749,3.081399,3.0817063,3.0811536,3.0805917,3.0805168,3.0809934,3.0819497,3.083098,3.0842195,3.085124,3.085547,3.085344,3.084425,3.0827699,3.0805907,3.0779395,3.0748358,3.0719705,3.069925,3.069099,3.0696926,3.0714922,3.0741286,3.0775816,3.0811656,3.0841804,3.0861926,3.0871186,3.087182,3.0868454,3.0864182,3.0860834,3.086024,3.0861454,3.086244,3.0862908,3.0863554,3.086449,3.0866513,3.0868669,3.0868676,3.0865655,3.0861387,3.085857,3.085731,3.0859685,3.086701,3.0877242,3.0889473,3.090636,3.093022,3.0962133,3.100863,3.1064239,3.1119063,3.1166027,3.120203,3.1224723,3.1233363,3.123465,3.1227484,3.1203897,3.1150432,3.1061368,3.0948675,3.0831633,3.073225,3.0674217,3.0665433,3.0701842,3.076375,3.082341,3.0869834,3.090142,3.0913572,3.0909796,3.089573,3.0876362,3.0855913,3.0837154,3.0822077,3.0809207,3.0802233,3.08036,3.0812128,3.0826006,3.0845675,3.0869098,3.0898046,3.0931158,3.0964801,3.0994434,3.1016612,3.1030383,3.103698,3.1038952,3.1038785,3.1038022,3.1039028,3.1043313,3.1049678,3.10568,3.106566,3.1075106,3.1084332,3.1092386,3.1098256,3.110179,3.1104298,3.1106615,3.1109366,3.1113439,3.1117768,3.1120734,3.1121812,3.112165,3.1120923,3.1120615,3.112225,3.1125977,3.1130924,3.1135936,3.11399,3.1142187,3.1143913,3.11449,3.1144655,3.114268,3.113912,3.1134787,3.1130009,3.1124833,3.1118813,3.1112123,3.1104703,3.1097312,3.1091375,3.108712,3.1082892,3.1078184,3.1072905,3.1067133,3.106079,3.1053963,3.104731,3.1040754,3.1034045,3.1028218,3.1023746,3.1019945,3.101513,3.1008368,3.100216,3.0996032,3.0990453,3.0985734,3.0981207,3.097619,3.097066,3.0964265,3.0957205,3.0949864,3.0942736,3.0936532,3.093163
2.8122873,2.8159688,2.8196943,2.823386,2.8271115,2.8309858,2.8350148,2.8389876,2.8432736,2.8477778,2.852385,2.8569174,2.8612845,2.8654358,2.8691475,2.8731284,2.8774133,2.881916,2.886331,2.8903928,2.8940392,2.8973022,2.9005451,2.9041324,2.908063,2.9122567,2.916523,2.920579,2.924182,2.9274497,2.930327,2.932645,2.9338067,2.9337642,2.9328523,2.9313722,2.9300127,2.9286366,2.927147,2.9257984,2.924749,2.923942,2.9231613,2.9220932,2.9206314,2.918425,2.9151359,2.910525,2.9043083,2.8961744,2.8861508,2.8743477,2.860312,2.8438063,2.8267379,2.8098454,2.7922297,2.7740664,2.7565985,2.7392318,2.724047,2.7115989,2.7031114,2.6985838,2.6957023,2.6940055,2.6932654,2.6930904,2.6932783,2.6931238,2.69204,2.6898966,2.6864572,2.682084,2.6772873,2.6725316,2.6687617,2.6667352,2.6667752,2.6690736,2.67304,2.6786075,2.6849618,2.6903925,2.6943383,2.6976547,2.701313,2.706605,2.716704,2.7334456,2.7592583,2.7939153,2.8349056,2.8792033,2.923171,2.9691646,3.0094082,3.041388,3.0656137,3.0828905,3.0941768,3.1014123,3.1056323,3.1073523,3.1071458,3.1064568,3.1060295,3.10564,3.1053793,3.105334,3.1054657,3.1057334,3.1061778,3.1067448,3.107292,3.1077275,3.1079454,3.108049,3.1081383,3.1083765,3.1090086,3.1101398,3.1115313,3.1128461,3.1141539,3.1155534,3.1167893,3.1177864,3.1187272,3.1197047,3.1204653,3.119831,3.1172996,3.1124659,3.1050186,3.0947542,3.0828161,3.0723038,3.0653348,3.0629187,3.0652695,3.0708442,3.0773726,3.0828576,3.0861282,3.087438,3.0872836,3.0862343,3.08524,3.084836,3.0850403,3.0857034,3.086502,3.0870755,3.087195,3.086608,3.0852408,3.0831594,3.0805206,3.0776043,3.074543,3.0714345,3.0689826,3.0677605,3.0681095,3.070078,3.0732312,3.0769787,3.081293,3.0853574,3.088449,3.0902376,3.0907555,3.090301,3.0894575,3.0885427,3.08786,3.0876026,3.0876927,3.0879588,3.0883303,3.0887938,3.089364,3.0899696,3.090406,3.0903351,3.08961,3.0884657,3.0872958,3.0861318,3.0852914,3.084997,3.08516,3.0857594,3.087061,3.0892997,3.0925708,3.0976367,3.1044135,3.1114595,3.1177251,3.1230826,3.1272945,3.1302505,3.13164,3.1317751,3.129827,3.1247,3.1157742,3.1036568,3.0910902,3.080432,3.0741115,3.0729795,3.076653,3.0830894,3.089391,3.0944338,3.0979152,3.0993276,3.098926,3.0971744,3.0946274,3.0918925,3.0893445,3.087311,3.0857196,3.0849369,3.0851843,3.0862188,3.0877094,3.0896947,3.0920572,3.0950058,3.0985084,3.1022563,3.1057367,3.1085174,3.1104639,3.1116529,3.1123753,3.1128232,3.11307,3.113307,3.1136901,3.1141617,3.1147208,3.1155155,3.1164799,3.117533,3.118498,3.1191692,3.1194775,3.1195683,3.1195288,3.1194704,3.119546,3.1197119,3.1198487,3.1199026,3.1198916,3.1198697,3.1199014,3.1201434,3.1206203,3.1212115,3.1217427,3.1221023,3.1223373,3.1224966,3.1225543,3.1224697,3.122215,3.1218123,3.1213336,3.1208158,3.120263,3.1196387,3.1189632,3.1182022,3.1174304,3.116813,3.116352,3.115912,3.1154306,3.1148949,3.114307,3.1136818,3.113054,3.1124616,3.1117902,3.1111221,3.1105714,3.1102076,3.1099486,3.1095781,3.1089742,3.1084032,3.1078796,3.1074398,3.1070485,3.1066508,3.1061683,3.1055613,3.1049604,3.1042879,3.1035879,3.1029,3.1023035,3.1018944
2.8191566,2.8229074,2.8267264,2.8305283,2.8343453,2.8382707,2.8423157,2.8462496,2.8504562,2.8548203,2.8592257,2.863502,2.8675766,2.8714275,2.8748477,2.878487,2.8824348,2.8866854,2.8909762,2.8949928,2.898573,2.9016953,2.9047575,2.908193,2.9119873,2.9160638,2.9202604,2.924333,2.9280474,2.9314754,2.9346256,2.9373465,2.9390502,2.939656,2.9394484,2.9386697,2.937881,2.9369345,2.9357395,2.9343562,2.9329457,2.9315867,2.9301648,2.9284685,2.9263108,2.923483,2.9199984,2.9160337,2.9113479,2.9053857,2.8980184,2.888897,2.8781645,2.8640356,2.8480287,2.8314538,2.8142595,2.797121,2.7804227,2.7628717,2.7459087,2.7304125,2.7185469,2.7109284,2.7053332,2.7015972,2.6991978,2.6980636,2.698238,2.698864,2.6990118,2.6982055,2.695785,2.6920655,2.687115,2.6813126,2.675603,2.6710222,2.668552,2.6690397,2.671887,2.6772833,2.6843867,2.6911826,2.6966033,2.7008371,2.7041702,2.7073584,2.7128127,2.7228503,2.7403805,2.7662039,2.7995625,2.8390133,2.8811078,2.9284334,2.979383,3.0235453,3.057053,3.0817876,3.0990374,3.1105013,3.1175928,3.120685,3.1211026,3.1203427,3.119268,3.1183076,3.117783,3.1171403,3.1164782,3.1158376,3.1153564,3.1150708,3.114897,3.1147623,3.1145358,3.1142888,3.1141446,3.1142855,3.114811,3.115747,3.1170006,3.1182616,3.1196887,3.1213078,3.1227508,3.1238241,3.1246371,3.125266,3.1254656,3.1242685,3.120843,3.1151888,3.106741,3.095046,3.082013,3.0719037,3.06577,3.0644584,3.0679958,3.0744734,3.0813885,3.0867908,3.0896752,3.0904226,3.0896778,3.0880857,3.0866482,3.085906,3.0857995,3.086059,3.0863132,3.0860639,3.0850534,3.0831332,3.0803885,3.0771232,3.0737402,3.07058,3.0676768,3.0653257,3.0642693,3.064971,3.067487,3.0715117,3.076377,3.0812836,3.0862892,3.090551,3.0934186,3.0947318,3.094698,3.093701,3.0923774,3.0910275,3.0900295,3.089589,3.0896533,3.0900846,3.090795,3.091704,3.092841,3.0940185,3.0948865,3.0949373,3.0939188,3.0920966,3.0899758,3.087614,3.0853088,3.0834727,3.082159,3.0814075,3.0815468,3.0828962,3.085516,3.0903378,3.0974073,3.105581,3.1137054,3.1211314,3.127329,3.1325493,3.1363854,3.1379893,3.1368105,3.132194,3.1235337,3.111464,3.0985823,3.0876307,3.0809684,3.0794606,3.0827937,3.0889802,3.0951576,3.1002612,3.1038625,3.105404,3.1050153,3.103006,3.0999465,3.0966063,3.0934563,3.0909548,3.0891259,3.0883126,3.0887082,3.0899415,3.0915127,3.0934372,3.095702,3.0985367,3.1020484,3.1060157,3.109909,3.1132355,3.1158147,3.1176531,3.1190724,3.120154,3.12084,3.1212344,3.1214845,3.1216254,3.1218424,3.122354,3.1231737,3.124232,3.1252608,3.1259377,3.1261387,3.1260147,3.1256723,3.1252737,3.1250234,3.124938,3.12493,3.1249294,3.1249166,3.124932,3.1250181,3.125342,3.1259332,3.126676,3.127399,3.1279697,3.1283715,3.1285741,3.1286054,3.128481,3.1282024,3.12779,3.1273007,3.1267786,3.1261787,3.1255493,3.1248932,3.124185,3.1234918,3.1229358,3.1225262,3.122129,3.1216419,3.1210933,3.1204574,3.1197486,3.119045,3.118383,3.1177135,3.1170921,3.116598,3.1161513,3.1157246,3.1153069,3.1148193,3.1143603,3.1139429,3.1135702,3.1132116,3.1128373,3.1124163,3.1119413,3.1114788,3.1109197,3.1102645,3.1095917,3.1090298,3.1086655
2.827568,2.8313336,2.8351777,2.8390074,2.8428187,2.846684,2.8506222,2.8543923,2.8583908,2.8624473,2.8665223,2.8705885,2.8744905,2.8780284,2.8811674,2.8845015,2.888115,2.8919833,2.8959427,2.8997667,2.9032702,2.9063544,2.9092846,2.9124522,2.9158783,2.9195647,2.923393,2.9271407,2.9306145,2.9338596,2.9369717,2.9398098,2.9418635,2.9430516,2.943603,2.9437125,2.9438558,2.9437866,2.9433644,2.9423885,2.94096,2.9391975,2.9370139,2.9343672,2.9309826,2.9268398,2.9219713,2.9168863,2.912034,2.9072604,2.9020133,2.8953767,2.887618,2.8776786,2.865386,2.8510575,2.8354793,2.8199706,2.8045998,2.787929,2.7709517,2.754548,2.7402956,2.7290812,2.7202878,2.7138293,2.7089021,2.7058058,2.7047372,2.7050848,2.7059102,2.706284,2.7051249,2.702608,2.6981559,2.6920419,2.68504,2.6782455,2.67315,2.6711893,2.6719022,2.6757774,2.682211,2.6894317,2.6961484,2.7019324,2.7065225,2.710184,2.713881,2.7195783,2.7300396,2.7471144,2.771698,2.8035994,2.8403904,2.884069,2.9363801,2.9899454,3.0352714,3.0691478,3.094318,3.111963,3.1236343,3.1300535,3.1324692,3.1321487,3.1306098,3.1290998,3.1274686,3.1258864,3.1240635,3.122189,3.1206396,3.1195655,3.118817,3.1182027,3.1175652,3.1169288,3.1164443,3.11626,3.1164503,3.1171165,3.1183043,3.119746,3.1214304,3.1230574,3.124333,3.1251168,3.1254547,3.1253757,3.1246586,3.1227593,3.1185398,3.1119514,3.1021843,3.089454,3.0767431,3.0680246,3.0635693,3.0639334,3.0688953,3.0762086,3.0832543,3.0882893,3.0905805,3.09065,3.0892909,3.0871913,3.0853443,3.0842552,3.08377,3.0834925,3.0830302,3.0818105,3.0796068,3.0765257,3.072907,3.0692873,3.0661955,3.0637965,3.0622172,3.0617738,3.0630443,3.0662756,3.0711446,3.076964,3.083034,3.0887208,3.0940385,3.0982265,3.1007872,3.1017337,3.101401,3.1002002,3.0987337,3.097271,3.0962005,3.0957189,3.0957804,3.0962758,3.0971305,3.0982366,3.0996394,3.1011012,3.1021676,3.1022048,3.1008797,3.0984604,3.0955226,3.0921052,3.0885139,3.0852475,3.0823116,3.0797415,3.0779972,3.077499,3.0782654,3.081414,3.0872273,3.0952215,3.1043568,3.1134543,3.121665,3.1293054,3.136076,3.140132,3.1404328,3.136609,3.1286514,3.117391,3.104857,3.0940866,3.0872893,3.0853667,3.0881472,3.093789,3.0995479,3.1044416,3.1078959,3.1092997,3.1086888,3.1062737,3.1026883,3.0988843,3.095409,3.0928023,3.0911765,3.0907576,3.0916328,3.0932622,3.0949605,3.0967298,3.09868,3.101036,3.1040578,3.1076374,3.1112986,3.1145775,3.1172993,3.1194196,3.1212611,3.1227856,3.1237872,3.1242397,3.124246,3.1239343,3.1236823,3.1237893,3.1243663,3.1254044,3.12656,3.1273987,3.1277287,3.1276546,3.1272998,3.1268573,3.126542,3.126411,3.1263964,3.1264164,3.1264458,3.1265254,3.12669,3.1271238,3.127861,3.128786,3.1297245,3.1305134,3.1310542,3.1313746,3.1314898,3.1314168,3.1311584,3.130736,3.1302233,3.1296816,3.1290922,3.1285167,3.1279418,3.1273685,3.126857,3.126471,3.1262026,3.125916,3.125491,3.1249437,3.1242661,3.1235018,3.1227345,3.121984,3.1212626,3.1205683,3.1199782,3.1194396,3.1189451,3.118526,3.1181498,3.1178122,3.1175036,3.1171887,3.1168327,3.1164303,3.1160054,3.1155849,3.1151588,3.114631,3.1140032,3.113315,3.1126997,3.1122777
2.83609,2.8398123,2.8436017,2.8473606,2.8510602,2.8547678,2.858518,2.862033,2.865713,2.8695192,2.8733826,2.8772242,2.8808482,2.8840582,2.8869143,2.8899646,2.8932266,2.8966632,2.9001727,2.9036305,2.9069157,2.9098988,2.9126883,2.9155936,2.9186664,2.9219527,2.9253657,2.9287162,2.9318483,2.9347758,2.9376662,2.940414,2.9426227,2.944251,2.9454675,2.9463694,2.9473386,2.9481297,2.9486032,2.9483397,2.9472556,2.9454098,2.9427717,2.9394512,2.9351382,2.9299407,2.9238076,2.917354,2.9115856,2.9068327,2.9024062,2.8977056,2.8919818,2.88551,2.877525,2.8672597,2.8550963,2.8421507,2.8283253,2.8127964,2.7966127,2.7803092,2.764802,2.7509828,2.7391672,2.7298903,2.7221384,2.7166038,2.713482,2.7125516,2.7131832,2.7141843,2.7141242,2.7128534,2.7094276,2.703784,2.6962762,2.6879134,2.680518,2.6758928,2.6738033,2.6749659,2.679213,2.6855829,2.6929598,2.7003891,2.707117,2.7130146,2.717834,2.7224076,2.7286026,2.738513,2.754228,2.776938,2.8053598,2.8431666,2.8893495,2.9445539,3.0000043,3.045545,3.0796802,3.105031,3.1228168,3.1344957,3.140223,3.1412268,3.139811,3.1376762,3.1346948,3.1318192,3.1286874,3.1255245,3.122867,3.1209953,3.1197152,3.1187062,3.1177864,3.11691,3.1162162,3.1157818,3.1157155,3.1162248,3.1173723,3.1188273,3.1204503,3.1217651,3.1224728,3.1224918,3.1219242,3.1208348,3.1190178,3.1161268,3.1109557,3.1029837,3.0919867,3.0793946,3.06843,3.0618927,3.0597944,3.0622482,3.068718,3.0766845,3.083565,3.0879622,3.0895023,3.0888424,3.086896,3.0843453,3.0821157,3.0806427,3.0796804,3.0787387,3.077457,3.0752683,3.0720296,3.068213,3.0644832,3.0614972,3.0597324,3.0591965,3.0600328,3.0624058,3.0664864,3.0721421,3.078808,3.085719,3.0922673,3.0981512,3.1033335,3.1072526,3.10962,3.110578,3.1104848,3.1096673,3.1086087,3.1075425,3.1067777,3.1064515,3.1064968,3.1068337,3.107448,3.108276,3.109366,3.110512,3.1112514,3.110929,3.109192,3.1062908,3.1028006,3.0987048,3.0943294,3.0901175,3.0859265,3.0817118,3.0779665,3.0751553,3.0732093,3.0734816,3.0767148,3.0830736,3.0919466,3.1020656,3.1121187,3.1220965,3.1314492,3.1385324,3.1410356,3.1384096,3.131639,3.121774,3.1101818,3.100015,3.09331,3.0910606,3.093296,3.0983672,3.1036685,3.1082764,3.1114364,3.1124737,3.1113784,3.108341,3.1041286,3.099919,3.0963392,3.093945,3.0929074,3.0932565,3.0948844,3.0970423,3.0988727,3.1003804,3.1018064,3.1033325,3.105368,3.1079245,3.1106439,3.1131854,3.115447,3.1173668,3.1192312,3.1208942,3.1220055,3.1223812,3.1220527,3.1212301,3.1204643,3.1201255,3.1204224,3.1214495,3.122817,3.12399,3.124703,3.124973,3.1249237,3.124762,3.1246748,3.124733,3.1248755,3.1250134,3.125145,3.1253185,3.1255898,3.1261635,3.127077,3.1281948,3.1293023,3.1302042,3.1308088,3.1312459,3.1314812,3.1315076,3.1313121,3.1309195,3.1304226,3.1298995,3.129395,3.128926,3.1284745,3.1280453,3.1276927,3.1274533,3.1272895,3.1270752,3.1267,3.126141,3.1254318,3.1246595,3.1238894,3.1231108,3.122322,3.1215143,3.1207879,3.120226,3.119807,3.1194565,3.1191506,3.1188965,3.1186767,3.1184216,3.1180513,3.1175745,3.1170473,3.1165042,3.1159651,3.1153414,3.1146684,3.1139157,3.113193,3.1126747
2.842761,2.846365,2.850027,2.853657,2.85721,2.8607473,2.8643188,2.867633,2.8710654,2.8747933,2.8785672,2.8820915,2.885241,2.8880365,2.8905332,2.89321,2.8961015,2.8992038,2.9024048,2.90557,2.908573,2.9112563,2.9137094,2.9163024,2.919115,2.9221396,2.925264,2.9283319,2.931194,2.9338243,2.9364228,2.9389424,2.941092,2.9429045,2.9445152,2.9459133,2.947397,2.9488027,2.950056,2.9506173,2.950219,2.948803,2.946351,2.9430716,2.9387197,2.9333441,2.927149,2.9204755,2.914061,2.9085572,2.9039083,2.9001064,2.8961415,2.8914309,2.8855107,2.8780463,2.8687932,2.8578656,2.8458703,2.831924,2.8163404,2.8003411,2.7851858,2.7711384,2.75804,2.7469988,2.7372313,2.7294483,2.7240114,2.721095,2.7204695,2.721095,2.7214575,2.7209666,2.7185612,2.7137804,2.7064059,2.6972442,2.6883056,2.6815517,2.6769834,2.6754503,2.6772447,2.682262,2.6897178,2.6983662,2.7070384,2.714809,2.7210467,2.7258167,2.729752,2.7343779,2.7424436,2.7565465,2.7766356,2.806877,2.8475766,2.8982844,2.9566097,3.013001,3.0568976,3.090218,3.1147776,3.132734,3.1431637,3.1468823,3.1462731,3.1435914,3.1399689,3.1357393,3.131299,3.127077,3.123498,3.1207926,3.118875,3.1174645,3.1163604,3.115456,3.1148186,3.114508,3.1144903,3.1148286,3.1156025,3.1165082,3.1174207,3.1181028,3.118069,3.1171608,3.1156101,3.1135802,3.1108475,3.106956,3.1006079,3.0911922,3.0798326,3.0685244,3.059543,3.055203,3.0553074,3.059516,3.0669937,3.0751011,3.081429,3.0849853,3.0857635,3.084498,3.0821557,3.0793571,3.0768828,3.0750647,3.0735917,3.0719433,3.0698519,3.0668402,3.0628703,3.0587907,3.0555162,3.0536895,3.0536964,3.055523,3.0589185,3.0638962,3.0702336,3.0774426,3.0849524,3.0922143,3.0986912,3.104208,3.1088486,3.11233,3.1145802,3.11583,3.1163998,3.1164644,3.1163118,3.1161313,3.1160412,3.1160474,3.116032,3.1159496,3.1159048,3.115967,3.116177,3.1164546,3.1164193,3.115472,3.1132789,3.1100574,3.1063228,3.1020203,3.097436,3.0929747,3.0884328,3.0836172,3.0788188,3.074418,3.0702713,3.0678349,3.068159,3.0720983,3.0797806,3.0901194,3.1012993,3.1129122,3.1241727,3.1338038,3.1388168,3.1380036,3.1326883,3.124555,3.1142774,3.1050062,3.098607,3.0961971,3.0980144,3.1025987,3.1074932,3.111807,3.1146188,3.1151948,3.1135366,3.1098602,3.10507,3.100545,3.0969784,3.094871,3.0944116,3.0954435,3.0976598,3.100157,3.1019878,3.1031604,3.104017,3.1046922,3.105699,3.1071606,3.1088421,3.1105385,3.1122324,3.1138403,3.1155934,3.1172538,3.1183481,3.1185615,3.1178718,3.1165662,3.1153355,3.114588,3.114609,3.1155784,3.1170774,3.1184926,3.1195092,3.1200829,3.1203294,3.1204662,3.120656,3.120964,3.1213117,3.1215942,3.1218276,3.1220617,3.1223962,3.1230593,3.1240988,3.12537,3.1266277,3.1276412,3.1283288,3.1288176,3.129097,3.1291823,3.1290655,3.1287656,3.1283712,3.1279497,3.1275415,3.1271749,3.1268244,3.1264753,3.1261663,3.1259336,3.1257396,3.125488,3.1250677,3.1244624,3.12371,3.1229007,3.1220944,3.121272,3.120452,3.119627,3.118886,3.1182914,3.1178343,3.1174664,3.1171594,3.1169171,3.1167073,3.116436,3.115994,3.1154008,3.1147451,3.1140752,3.1134262,3.1127172,3.11197,3.1111696,3.110435,3.109919
2.8467643,2.8502207,2.853743,2.8572578,2.8606958,2.864056,2.8674006,2.8706243,2.8740292,2.8774457,2.8807926,2.883938,2.8867247,2.8891277,2.8912988,2.8936338,2.8962507,2.8992045,2.902235,2.905164,2.9079595,2.9104242,2.9126272,2.914884,2.9172912,2.9198642,2.922519,2.9251223,2.9275365,2.9297338,2.9319327,2.9340947,2.936005,2.937735,2.9393964,2.9409404,2.942628,2.9443328,2.9459443,2.9470558,2.9475217,2.9470372,2.9452415,2.9425263,2.938815,2.934114,2.9284449,2.9221506,2.9159245,2.910386,2.9057264,2.90201,2.8984513,2.8945699,2.8900082,2.884114,2.8763914,2.867144,2.8563976,2.8439898,2.8297715,2.8147008,2.80005,2.7866495,2.7745953,2.763195,2.7522945,2.7425518,2.7346067,2.7292428,2.7266238,2.7258577,2.7258558,2.7259426,2.7241874,2.720334,2.7137837,2.704885,2.6955748,2.6877596,2.681614,2.6779563,2.677411,2.6805024,2.6868258,2.695156,2.7042181,2.7127178,2.7196298,2.7249327,2.7284212,2.7313094,2.735794,2.7438936,2.7578158,2.780974,2.8144011,2.8590856,2.9130871,2.9710627,3.024979,3.0661173,3.0986137,3.1234488,3.139802,3.1478305,3.149454,3.1472561,3.142652,3.1371853,3.131034,3.1257753,3.1217685,3.1187387,3.1164906,3.114803,3.113493,3.112464,3.1117473,3.1114643,3.111458,3.1115556,3.1117892,3.112012,3.1120954,3.1118772,3.1109896,3.1093178,3.1070385,3.1042094,3.100513,3.0954971,3.088167,3.0782704,3.0672405,3.057122,3.0498703,3.0472775,3.0489197,3.0541093,3.0618308,3.0695305,3.0750942,3.07791,3.0782542,3.0768332,3.0745702,3.0719697,3.069569,3.0675554,3.0656114,3.0632768,3.0604496,3.0568578,3.0526135,3.0489101,3.046675,3.0464811,3.0486526,3.0526679,3.058023,3.0644493,3.0714912,3.0787659,3.0858746,3.092379,3.0979567,3.102572,3.1063592,3.10924,3.111288,3.1127977,3.1140602,3.1151114,3.1160536,3.1170197,3.1178637,3.1183894,3.1183703,3.1177766,3.1168604,3.1158798,3.1148837,3.1139593,3.1128962,3.111209,3.1086032,3.1052623,3.101618,3.097601,3.093579,3.0899558,3.0863981,3.0824823,3.078192,3.0736196,3.0687842,3.0646386,3.0624492,3.0637734,3.0693152,3.0783868,3.0895152,3.1016831,3.114017,3.1250882,3.1325135,3.1341658,3.1304123,3.1237922,3.1149242,3.106637,3.10065,3.098228,3.0997946,3.1040244,3.1085708,3.1125479,3.1149096,3.1149063,3.1126318,3.1084123,3.103283,3.0987306,3.0954247,3.0937204,3.093774,3.0952618,3.097733,3.1002598,3.1019235,3.1027403,3.1031232,3.103181,3.1034658,3.1041825,3.1051824,3.1063297,3.1076488,3.1090226,3.110619,3.1121516,3.113102,3.1131032,3.11212,3.1104937,3.108986,3.1079876,3.1078272,3.108715,3.1102037,3.111651,3.1127343,3.1133919,3.1137347,3.113996,3.114338,3.1148133,3.115315,3.1157076,3.1159956,3.116232,3.1165447,3.117189,3.118236,3.1195555,3.120892,3.1219902,3.1227646,3.1233404,3.1237116,3.12389,3.123857,3.1236296,3.1233065,3.1229517,3.1226037,3.1222954,3.121992,3.121667,3.121357,3.1211014,3.1208634,3.1205707,3.1201115,3.1194701,3.1186838,3.1178389,3.1169853,3.1160944,3.1152017,3.114304,3.1134818,3.1127954,3.112236,3.1117516,3.1113179,3.1109438,3.1105895,3.110159,3.1095424,3.1087797,3.107984,3.1072094,3.1064973,3.1057773,3.1050544,3.1043177,3.1036694,3.1032314
2.8490539,2.8524845,2.8559966,2.8594751,2.8627214,2.86577,2.8688488,2.871728,2.8747315,2.8776958,2.8805833,2.8832986,2.885746,2.8879285,2.889893,2.891994,2.8943467,2.897013,2.8999329,2.9029634,2.9058166,2.908099,2.9100173,2.911921,2.9139287,2.916069,2.9182749,2.9204304,2.9224052,2.9241583,2.925919,2.927649,2.9292076,2.930728,2.9323392,2.9339635,2.9357748,2.9376853,2.9395933,2.9411068,2.9420724,2.9421666,2.941024,2.939054,2.9362264,2.93251,2.927788,2.9223354,2.916725,2.9114933,2.9069808,2.903359,2.8999481,2.8965197,2.8927429,2.8880382,2.8818998,2.8742762,2.8649063,2.853348,2.8403506,2.8265343,2.81287,2.8002276,2.788745,2.7781563,2.7673702,2.7565582,2.7466226,2.7389925,2.734291,2.7318869,2.731062,2.7309813,2.729745,2.7267478,2.7210693,2.7127705,2.7034712,2.6949024,2.687349,2.6815298,2.6783452,2.6789265,2.683391,2.6908002,2.6999702,2.7093654,2.7178245,2.7247605,2.7294092,2.7320852,2.734252,2.7377653,2.7444963,2.7592611,2.7833962,2.8195915,2.8673449,2.9231625,2.9815197,3.0345325,3.076366,3.1092417,3.1323185,3.145186,3.1493888,3.1479752,3.143195,3.1370354,3.1299906,3.123749,3.1192079,3.1160188,3.1134918,3.1114779,3.1099935,3.108923,3.1082532,3.1080346,3.1080596,3.1079984,3.1076872,3.1071362,3.1062102,3.104869,3.1028745,3.1001844,3.0969627,3.0931866,3.0884442,3.08229,3.0740037,3.063655,3.0530584,3.044341,3.0390522,3.0383918,3.041679,3.047884,3.0558138,3.0630631,3.0678825,3.0700617,3.0701327,3.0687108,3.0666153,3.0642068,3.0617623,3.059369,3.0567904,3.053693,3.0501404,3.0461082,3.0419164,3.038838,3.038098,3.0401998,3.0448475,3.0512,3.0582504,3.0656605,3.0728807,3.0795255,3.0854359,3.0905643,3.094818,3.0982647,3.1010537,3.1032386,3.1049998,3.106702,3.1086273,3.1106849,3.1128073,3.1150699,3.1170177,3.1182141,3.1182873,3.117191,3.1153216,3.113153,3.110739,3.1083777,3.106081,3.103536,3.100528,3.097215,3.0939198,3.0905445,3.0875757,3.0854058,3.0835285,3.0812237,3.078075,3.073769,3.0683384,3.0628772,3.058232,3.0566561,3.0596476,3.066845,3.0770836,3.089394,3.1023276,3.1145988,3.1236362,3.1273336,3.1257014,3.1204855,3.1129932,3.1057134,3.1002274,3.0979545,3.0995183,3.1037097,3.1082315,3.112165,3.1142955,3.1138196,3.1109095,3.1060297,3.100412,3.0957127,3.0925913,3.0912511,3.0918264,3.093819,3.0966172,3.0992594,3.1008554,3.1014142,3.1014102,3.1009064,3.100461,3.1003728,3.1005936,3.1010659,3.1018744,3.102878,3.1041658,3.1054218,3.106114,3.105855,3.1046133,3.1027741,3.10113,3.1000376,3.099844,3.100781,3.1023722,3.10394,3.1051548,3.1059303,3.1063602,3.106707,3.1071458,3.1077287,3.1083395,3.1088219,3.109158,3.109395,3.1096916,3.1103234,3.111391,3.1127791,3.1142192,3.1154344,3.1163359,3.1170416,3.1175435,3.1178386,3.1178946,3.1177278,3.1174452,3.1171207,3.116797,3.116507,3.1162157,3.1158874,3.1155546,3.1152658,3.1149907,3.114669,3.1142008,3.1135645,3.112793,3.1119637,3.1111064,3.1101818,3.1092348,3.1082683,3.1073494,3.1065311,3.1058044,3.105116,3.1044471,3.1038342,3.1032286,3.102553,3.101708,3.1007566,3.0998225,3.0989475,3.0981665,3.0974169,3.0966926,3.095983,3.0953763,3.0949688
2.8477068,2.8508053,2.8539393,2.857026,2.8599925,2.86291,2.8658772,2.8686285,2.871478,2.8742766,2.876996,2.8795524,2.881863,2.8839343,2.8857841,2.8877606,2.8899574,2.8924541,2.8952708,2.8982713,2.9010835,2.9032524,2.9048457,2.906258,2.9076543,2.9091933,2.9109178,2.912716,2.9143915,2.9158854,2.917387,2.918906,2.9203906,2.9218798,2.9232786,2.9245074,2.926168,2.9282079,2.9304159,2.932325,2.933679,2.9342647,2.9339225,2.932923,2.9312153,2.9287596,2.9252982,2.9210048,2.916278,2.911509,2.9071393,2.9033778,2.899684,2.896097,2.8924088,2.888239,2.8831205,2.8766656,2.8685963,2.8583193,2.8464613,2.8341975,2.8224373,2.8115458,2.8015227,2.7920365,2.7822595,2.771893,2.7609313,2.7511728,2.7441187,2.7395582,2.7372766,2.7363286,2.73503,2.7326083,2.7278273,2.7203958,2.711572,2.7028422,2.6946015,2.687422,2.682314,2.6806145,2.6827476,2.6881251,2.6958303,2.7044406,2.7131062,2.7210069,2.7270312,2.7308633,2.7330694,2.7348108,2.7379947,2.7457895,2.7612524,2.7882164,2.827023,2.876121,2.9327784,2.9903684,3.0435843,3.085956,3.11755,3.1377923,3.146628,3.1470013,3.1426172,3.1363063,3.1287313,3.1214688,3.1162994,3.113091,3.1105304,3.1083002,3.1063795,3.1048198,3.1039698,3.1036692,3.1035929,3.1033163,3.1024218,3.1011636,3.0994065,3.0973,3.0947554,3.0917413,3.0883002,3.084227,3.0789585,3.0720878,3.0631604,3.052541,3.0423512,3.0347567,3.0309145,3.0314536,3.0355053,3.0417564,3.04894,3.0550094,3.0587015,3.0601926,3.0602221,3.0592144,3.0577555,3.0559726,3.0537474,3.0510006,3.0476499,3.043633,3.039258,3.03486,3.0307655,3.0286543,3.0298347,3.0343285,3.0412087,3.0493236,3.0572765,3.064692,3.0709982,3.075964,3.0798593,3.0831194,3.0858278,3.08802,3.089776,3.091105,3.0921774,3.0934522,3.0953221,3.0977027,3.1004891,3.1037245,3.1066794,3.1086502,3.109034,3.107678,3.1050816,3.1019464,3.098377,3.094923,3.091834,3.0889175,3.0859642,3.0830512,3.080367,3.077838,3.0762064,3.075944,3.0764775,3.076838,3.0761116,3.0733886,3.0686965,3.062877,3.0568132,3.052776,3.052692,3.0569835,3.0650427,3.0761542,3.0886097,3.1014347,3.111876,3.117641,3.1183515,3.1150553,3.109097,3.1029143,3.0979567,3.0958662,3.097496,3.101743,3.1063428,3.1103158,3.1122804,3.111396,3.1079526,3.102586,3.0967145,3.0921063,3.0893588,3.0884438,3.0894265,3.091639,3.0943408,3.0966527,3.0978541,3.0979843,3.0975828,3.0967035,3.0958796,3.095465,3.0954323,3.0957098,3.0963843,3.097268,3.0983932,3.099457,3.0999622,3.0995543,3.0982232,3.0963564,3.094719,3.093605,3.0933526,3.094184,3.0956125,3.096966,3.0979366,3.0984688,3.098641,3.0987725,3.0991125,3.0997303,3.1004953,3.1012006,3.1017284,3.1021051,3.1024966,3.103166,3.1042557,3.1056824,3.1071923,3.108519,3.1095712,3.1104615,3.1111736,3.1116738,3.1118994,3.1118536,3.111647,3.1113558,3.1110353,3.1107163,3.1103702,3.1099548,3.1095066,3.1090956,3.1087022,3.1082802,3.107737,3.1070504,3.1062477,3.1053953,3.1045113,3.1035457,3.1025443,3.1015177,3.1005123,3.0995636,3.0986443,3.0976915,3.0966988,3.0957403,3.0947623,3.0937357,3.0926013,3.0914476,3.0903952,3.08946,3.0886488,3.0879002,3.0871847,3.0864944,3.0859013,3.085483
2.8450236,2.8476727,2.8503275,2.8529646,2.8556342,2.858427,2.861331,2.864099,2.866998,2.8698769,2.8726857,2.8753111,2.8776543,2.8797126,2.8815017,2.883371,2.8854082,2.8877096,2.8903117,2.893075,2.8956547,2.8976583,2.8990269,2.900089,2.9009984,2.9019485,2.9031377,2.9045472,2.9058843,2.9070487,2.9081273,2.9091492,2.9100986,2.911065,2.9120808,2.913179,2.914844,2.9171035,2.9197443,2.922266,2.9242163,2.9254036,2.9258976,2.9258714,2.9252722,2.9240599,2.9218895,2.9188457,2.9151435,2.9110074,2.9069147,2.903069,2.8990743,2.8952334,2.8915155,2.8876257,2.8831234,2.877555,2.8705068,2.8614907,2.8509014,2.8401053,2.8301802,2.821262,2.8129237,2.8047009,2.7960248,2.786412,2.775487,2.7646937,2.755774,2.749272,2.745428,2.7432914,2.741467,2.7392116,2.7349033,2.728012,2.7197213,2.7111924,2.7027662,2.6947546,2.6882505,2.6845293,2.6841311,2.6868362,2.6920984,2.6987891,2.7066991,2.7151036,2.7228484,2.7290423,2.7331188,2.7352738,2.7374902,2.7409859,2.7485895,2.7653418,2.7933788,2.8332348,2.8841615,2.940577,3.001539,3.0558581,3.0978947,3.1265879,3.1418946,3.145233,3.1416159,3.1350918,3.1269884,3.1192222,3.113267,3.1095164,3.1071062,3.104728,3.102397,3.1003444,3.099052,3.0985088,3.098362,3.097909,3.0965204,3.0947332,3.0924757,3.090083,3.0875823,3.0848742,3.0818496,3.0780938,3.0727177,3.065435,3.0560467,3.0452008,3.0352898,3.0285091,3.0256662,3.0268621,3.0310683,3.0367444,3.0426154,3.0471106,3.0495174,3.0503733,3.0505652,3.05028,3.0497785,3.0488882,3.0470293,3.0439117,3.039658,3.0346067,3.0293498,3.0246181,3.020836,3.01997,3.0232077,3.0299547,3.0385919,3.0476046,3.0556843,3.0621958,3.0666924,3.0692863,3.0707989,3.0721655,3.0735445,3.0747848,3.0758164,3.0763974,3.0765524,3.0768418,3.077894,3.0797968,3.0825791,3.0862985,3.0900602,3.0929155,3.093954,3.092805,3.089984,3.0863595,3.0821297,3.0780773,3.074676,3.0718055,3.069207,3.066864,3.0648298,3.0630822,3.0626984,3.064283,3.0673115,3.0706663,3.072948,3.0725923,3.06959,3.0643322,3.0576234,3.0518014,3.0488677,3.0497494,3.054852,3.0636663,3.0748272,3.0876694,3.0992868,3.107049,3.1100602,3.108727,3.104204,3.0989935,3.0944448,3.0924902,3.0942416,3.098672,3.1035085,3.1076868,3.1096296,3.108459,3.1045902,3.0988421,3.092824,3.0884113,3.0861034,3.0856237,3.086959,3.089258,3.0916529,3.0934243,3.0941024,3.0937595,3.0929675,3.091836,3.090876,3.0904608,3.0905247,3.0909204,3.0916963,3.0926104,3.0936522,3.0945673,3.0949426,3.0944972,3.0932243,3.0914533,3.0899034,3.0887961,3.0884483,3.0890584,3.090148,3.0910697,3.0915518,3.0915954,3.0912647,3.0909572,3.0910344,3.091603,3.0925243,3.0935197,3.0943213,3.0949183,3.0954618,3.0961807,3.0972595,3.0986738,3.1002135,3.101652,3.1028929,3.1040401,3.1050644,3.1058793,3.1063719,3.1065207,3.1064289,3.1061811,3.1058497,3.1054635,3.1050084,3.104444,3.1038184,3.10323,3.1026776,3.1021256,3.1014853,3.100741,3.0999105,3.0990453,3.0981522,3.0971746,3.0961604,3.0951264,3.0940957,3.09307,3.0919836,3.0907536,3.0893974,3.0880437,3.0866365,3.0852118,3.0837739,3.0824285,3.0812795,3.0803113,3.0794928,3.0787385,3.0780056,3.077279,3.076621,3.076108
2.8443658,2.8466444,2.8489141,2.8511992,2.853592,2.8561969,2.8590012,2.861775,2.8647351,2.867731,2.8706777,2.8734212,2.8758416,2.877932,2.8797011,2.8814883,2.883395,2.885518,2.8878977,2.890399,2.8927026,2.8944674,2.8956218,2.89638,2.8968763,2.8973322,2.8980412,2.8990517,2.9000287,2.9008198,2.90142,2.901803,2.9019966,2.9022558,2.9028802,2.9040112,2.9057436,2.9081426,2.9110632,2.9140143,2.9164171,2.9180377,2.9190497,2.9196343,2.9197378,2.9193387,2.918079,2.9159927,2.9131572,2.9096613,2.9059691,2.9022646,2.8982656,2.8944974,2.8910918,2.8876767,2.8837159,2.878854,2.8727055,2.8647676,2.8552387,2.845327,2.8364482,2.8289433,2.8219876,2.8148804,2.807169,2.798431,2.7885928,2.778205,2.7684886,2.7607405,2.7555428,2.7520428,2.7492151,2.7463226,2.741712,2.734817,2.7266672,2.7181869,2.709693,2.7013206,2.6940255,2.6889088,2.6865315,2.6869116,2.6898117,2.6944258,2.7011213,2.7094064,2.7182975,2.7264876,2.7325199,2.735802,2.7379513,2.7397676,2.7426615,2.7510624,2.7689424,2.7992296,2.8424544,2.894164,2.9556127,3.0191343,3.070404,3.1076262,3.1313164,3.1398346,3.138851,3.1332445,3.1252055,3.1172228,3.1104736,3.1055906,3.102439,3.0997038,3.0971558,3.0949283,3.0932617,3.0924537,3.092283,3.0918088,3.0902405,3.088223,3.0858328,3.0835438,3.081457,3.0792656,3.0765595,3.072827,3.0672884,3.0595164,3.0496454,3.038611,3.0290265,3.0230784,3.0212257,3.0230558,3.0274029,3.0325718,3.0373049,3.0405107,3.0420012,3.0425873,3.0431812,3.0437353,3.0441017,3.0437803,3.04184,3.0379157,3.032494,3.0264587,3.0206335,3.016039,3.0133293,3.0142393,3.0195165,3.028005,3.0375953,3.0467482,3.0542812,3.059421,3.061989,3.0624886,3.0622013,3.0624046,3.0632014,3.0641665,3.0650654,3.065291,3.0646393,3.0637558,3.0635495,3.0643864,3.0665545,3.070187,3.0743752,3.0780196,3.0799131,3.0793953,3.0768843,3.0733273,3.0690176,3.0649009,3.0616302,3.0590959,3.0569391,3.0550442,3.0533347,3.0518007,3.0518298,3.0541916,3.0585704,3.0639205,3.0685601,3.0704098,3.0693622,3.0654507,3.0591292,3.0526276,3.0478508,3.0459368,3.048044,3.0538642,3.0628989,3.0748243,3.0867913,3.0959966,3.1009865,3.1014037,3.098228,3.0939286,3.089766,3.0880022,3.0900307,3.0948892,3.1002584,3.104938,3.1071281,3.1058342,3.1016438,3.0955746,3.0893962,3.0850801,3.0830715,3.0828857,3.0844293,3.0867677,3.0890186,3.0904493,3.0906296,3.0898156,3.0887833,3.087528,3.0865264,3.0861583,3.0863314,3.086834,3.0876741,3.0885699,3.089518,3.0903428,3.0906115,3.0900476,3.0887642,3.0871627,3.0857449,3.0846791,3.0842667,3.0847,3.0855103,3.0860631,3.0861032,3.0856738,3.084818,3.0840073,3.0837224,3.0841436,3.085157,3.0864227,3.0875297,3.0884178,3.089189,3.090013,3.0910966,3.0924613,3.0939598,3.0954366,3.0968013,3.098151,3.0994482,3.1005502,3.101286,3.1016006,3.1015878,3.1013374,3.1009388,3.1004243,3.0998044,3.0990522,3.0982306,3.0974622,3.0967622,3.0961008,3.0953891,3.0946178,3.0938025,3.0929785,3.0921369,3.0912156,3.090261,3.089294,3.0883226,3.0873122,3.0861554,3.0847507,3.08314,3.08151,3.0798116,3.078147,3.0765772,3.0752,3.0740752,3.0731514,3.0723577,3.0715752,3.0707545,3.0698488,3.0689297,3.0681078
2.8466158,2.8486304,2.8505945,2.8525672,2.8546982,2.8571138,2.8597832,2.8624992,2.8654413,2.8684688,2.8714697,2.8742661,2.8767242,2.87883,2.880603,2.8823655,2.884232,2.886284,2.8885472,2.8908944,2.8930216,2.89458,2.8954778,2.8958664,2.8959076,2.8959632,2.8963463,2.897056,2.8977916,2.8983493,2.898672,2.8986993,2.8984823,2.898364,2.8987095,2.8996572,2.9012954,2.9035804,2.9063823,2.9092069,2.911537,2.9131644,2.9142222,2.9149203,2.9152346,2.9151106,2.914248,2.9126716,2.9103708,2.907347,2.9040308,2.9005876,2.8968143,2.893385,2.8905473,2.8878546,2.8845925,2.8803551,2.8749518,2.8678021,2.8588862,2.8494453,2.841114,2.8344107,2.828426,2.822041,2.815165,2.8075268,2.7990665,2.7897255,2.780247,2.7720685,2.7659438,2.7611718,2.757082,2.752983,2.7475958,2.7403996,2.7320442,2.7233744,2.7148147,2.7065701,2.6991696,2.6934614,2.689945,2.6886764,2.6895967,2.6922324,2.6972518,2.7044666,2.7131982,2.722145,2.7295542,2.7343607,2.7375557,2.7396646,2.7415915,2.7455647,2.7554786,2.7762117,2.8101368,2.8539453,2.9101496,2.9757571,3.0338235,3.079701,3.112379,3.1287744,3.1331003,3.130465,3.1236122,3.115425,3.1078682,3.1016874,3.0969782,3.0935304,3.0907815,3.0885634,3.0868063,3.0858307,3.0855656,3.0851486,3.0837278,3.0817392,3.0795321,3.0776384,3.0761766,3.0745413,3.071856,3.0675776,3.0616078,3.0531123,3.0426726,3.0315218,3.02242,3.0174637,3.0167332,3.0193076,3.0239267,3.0288286,3.0327911,3.0351734,3.0362525,3.0369925,3.0381906,3.0395756,3.0405285,3.0402145,3.0375342,3.0322664,3.0254545,3.0186493,3.0128021,3.0090714,3.0082731,3.0114758,3.0187116,3.0283422,3.0381017,3.0468235,3.053406,3.0570326,3.0580187,3.057232,3.0561533,3.056147,3.057167,3.0585103,3.059801,3.06006,3.058837,3.056823,3.055182,3.0545921,3.0556703,3.0586777,3.0628364,3.0670092,3.069755,3.070109,3.068291,3.065249,3.0613384,3.0575995,3.054813,3.0528235,3.0511363,3.0495272,3.0477848,3.0458329,3.0453012,3.0471263,3.0513604,3.0572717,3.0631533,3.0666504,3.067727,3.06584,3.0609136,3.054757,3.0491567,3.0453444,3.0446553,3.0471258,3.053218,3.0631223,3.0743937,3.084308,3.0908937,3.0929475,3.0911677,3.087866,3.0842109,3.0828004,3.0853105,3.0908387,3.0969923,3.1023908,3.1049752,3.1038995,3.099565,3.093076,3.0865836,3.0822968,3.0804758,3.0804415,3.0821147,3.0845814,3.086944,3.0882485,3.087934,3.0865693,3.0853639,3.0840383,3.0830379,3.0827403,3.083024,3.0836284,3.0845323,3.085433,3.0863419,3.087141,3.087327,3.0865886,3.0851758,3.0836062,3.0821774,3.0811357,3.0806804,3.080987,3.0815969,3.0818727,3.0815597,3.0807216,3.0793793,3.0780613,3.077352,3.0775309,3.078538,3.0800009,3.0813956,3.0826063,3.0836463,3.084611,3.085693,3.0869374,3.0882673,3.0896318,3.0909631,3.0923564,3.0937781,3.0950391,3.0959144,3.096313,3.0963154,3.0960054,3.0954804,3.094782,3.0939527,3.0929863,3.0919616,3.091021,3.0901916,3.0894392,3.0886722,3.087883,3.0870914,3.086321,3.0855458,3.0847077,3.0838447,3.0829873,3.0821426,3.0812516,3.0801718,3.078783,3.0771413,3.0754724,3.0737505,3.0721183,3.0706697,3.0694652,3.0685048,3.0677047,3.066965,3.0661435,3.0651822,3.0639777,3.062632,3.0613241
