11.753718,11.990464,12.224899,12.410106,12.514695,12.542792,12.527386,12.507074,12.504569,12.508645,12.517854,12.528079,12.535918,12.540254,12.541611,12.5421295,12.542957,12.544573,12.546696,12.549412,12.552789,12.556425,12.560201,12.563847,12.567284,12.5701475,12.572649,12.5749855,12.577105,12.578938,12.579941,12.580577,12.581139,12.58078,12.579603,12.578587,12.577808,12.577051,12.576807,12.577305,12.5784235,12.579758,12.580867,12.581537,12.581776,12.581884,12.582102,12.582443,12.582759,12.582808,12.582357,12.581306,12.579605,12.577103,12.574001,12.570477,12.566862,12.563618,12.560933,12.558422,12.555872,12.5531435,12.55006,12.546829,12.543917,12.541563,12.539854,12.538631,12.537817,12.537219,12.536523,12.535496,12.534104,12.532337,12.529913,12.526953,12.523767,12.520624,12.517796,12.515377,12.513237,12.511003,12.50875,12.506648,12.504868,12.503511,12.502529,12.501789,12.501162,12.50042,12.499512,12.498267,12.496585,12.494598,12.492535,12.490532,12.488407,12.486184,12.48391,12.48172,12.479808,12.47843,12.477821,12.477714,12.47794,12.478217,12.478482,12.478699,12.478785,12.478809,12.478521,12.4778805,12.476851,12.475568,12.4742565,12.473139,12.472471,12.47213,12.472119,12.472321,12.472823,12.473585,12.47432,12.474827,12.475015,12.474823,12.474184,12.473132,12.471689,12.469889,12.467921,12.465732,12.463298,12.460545,12.457743,12.455105,12.452886,12.451266,12.450207,12.449797,12.449853,12.449982,12.449625,12.448556,12.4469185,12.444862,12.442629,12.439867,12.437363,12.435189,12.433059,12.430763,12.428207,12.425291,12.422739,12.422639,12.425705,12.431624,12.439302,12.447008,12.453557,12.459514,12.465519,12.470675,12.471513,12.466324,12.457354,12.446334,12.43332,12.418641,12.402098,12.384055,12.365143,12.345917,12.327342,12.309007,12.292329,12.278369,12.267282,12.258953,12.2531,12.248949,12.245403,12.242273,12.237801,12.23233,12.226454,12.219662,12.21157,12.203215,12.194525,12.186346,12.179659,12.174827,12.171574,12.1693945,12.167852,12.166489,12.16534,12.16371,12.161215,12.156616,12.148815,12.139508,12.127689,12.1157,12.112722,12.119937,12.13262,12.1453705,12.152369,12.14519,12.128804,12.105095,12.078911,12.053522,12.029225,12.006453,11.987441,11.969612,11.955894,11.947727,11.942708,11.93804,11.933755,11.930317,11.928263,11.926113,11.92454,11.925381,11.92998,11.938076,11.948257,11.960207,11.969507,11.975435,11.980247,11.985942,11.992707,12.000081,12.007395,12.015349,12.022589,12.026022,12.023836,12.015312,12.000068,11.981321,11.960349,11.94102,11.922622,11.904407,11.886709,11.869593,11.853849,11.838531,11.825501,11.816221,11.814241,11.817068,11.817152,11.814795,11.810051,11.8046,11.799044,11.793582,11.787849,11.781036,11.772858,11.764223,11.754233,11.739907,11.721169,11.700014,11.678423,11.658773,11.646867,11.64026,11.636367,11.635132,11.636443,11.639771,11.645305,11.653368,11.664064,11.673132,11.6781025,11.681454,11.686567,11.693848,11.702537,11.712481,11.72313,11.7328415,11.739696,11.743807,11.746794,11.749055,11.750842,11.754131,11.757761,11.762124,11.766614,11.768074,11.763771,11.755383,11.743076,11.727327
11.771309,11.959133,12.146476,12.287426,12.357423,12.369617,12.358396,12.352049,12.350909,12.355206,12.362733,12.369692,12.373836,12.37512,12.374437,12.373621,12.37344,12.373986,12.375167,12.377066,12.379609,12.382457,12.385548,12.388829,12.39205,12.394929,12.397314,12.399216,12.400839,12.402221,12.402433,12.40205,12.4013195,12.400462,12.399537,12.398569,12.397713,12.396742,12.396152,12.396316,12.397152,12.398281,12.399277,12.399906,12.400156,12.400313,12.400602,12.401035,12.40145,12.401612,12.401333,12.40053,12.399117,12.396953,12.3941765,12.390896,12.387419,12.384241,12.38163,12.379227,12.3768635,12.374405,12.371594,12.368599,12.365876,12.363633,12.361984,12.360775,12.359889,12.359112,12.358124,12.356731,12.354978,12.352878,12.350166,12.346971,12.343604,12.3403635,12.337549,12.335289,12.3334465,12.331664,12.329971,12.328479,12.327284,12.326459,12.325956,12.3256,12.325269,12.324741,12.323965,12.3228035,12.3212,12.319302,12.317324,12.315405,12.313367,12.311255,12.30912,12.307081,12.305308,12.304026,12.303438,12.303261,12.303355,12.303419,12.303368,12.303184,12.302805,12.302328,12.301559,12.300455,12.299038,12.297465,12.2959385,12.2946615,12.293888,12.293465,12.293401,12.293562,12.294039,12.294809,12.295605,12.296244,12.296632,12.296706,12.296373,12.295615,12.294457,12.292957,12.291278,12.289384,12.287284,12.284846,12.2823105,12.279865,12.2777605,12.276201,12.275141,12.274661,12.274574,12.274498,12.273884,12.272545,12.27067,12.2683935,12.265951,12.263068,12.260657,12.258862,12.25741,12.25603,12.254434,12.2524185,12.2506075,12.250828,12.253744,12.259139,12.266105,12.273161,12.279308,12.285021,12.290662,12.29513,12.296633,12.293789,12.286704,12.277222,12.265978,12.253208,12.238503,12.221812,12.203861,12.185574,12.167531,12.1494055,12.132764,12.11866,12.106931,12.097625,12.091072,12.086647,12.082315,12.078791,12.074545,12.06983,12.064983,12.05931,12.0523205,12.044855,12.036805,12.028963,12.022246,12.017059,12.013449,12.011175,12.009445,12.007648,12.006035,12.004173,12.001824,11.998318,11.993012,11.986719,11.977803,11.968218,11.964708,11.968703,11.9773035,11.98708,11.994508,11.993965,11.98868,11.978542,11.966077,11.952639,11.937967,11.92287,11.908296,11.892858,11.878515,11.867187,11.85862,11.85174,11.8466215,11.843521,11.842373,11.841492,11.84134,11.843554,11.848948,11.856849,11.86637,11.877085,11.88509,11.889677,11.892813,11.896287,11.900111,11.903519,11.906012,11.907618,11.907626,11.904333,11.897175,11.886036,11.87043,11.852594,11.833347,11.815834,11.798807,11.781382,11.764095,11.747316,11.732044,11.717766,11.706127,11.698454,11.697922,11.701933,11.7033,11.702564,11.700056,11.697473,11.696543,11.697364,11.698725,11.699029,11.697037,11.692078,11.683802,11.669556,11.6501875,11.628267,11.60592,11.585549,11.57196,11.562834,11.556437,11.552893,11.552317,11.554221,11.558394,11.565234,11.574451,11.582191,11.586393,11.589494,11.594532,11.601679,11.610184,11.619997,11.630251,11.639761,11.646561,11.650277,11.65209,11.652172,11.651081,11.649901,11.647782,11.6456175,11.643417,11.639391,11.632471,11.623874,11.613104,11.600429
11.757018,11.915398,12.061283,12.161135,12.203484,12.208993,12.205629,12.20407,12.204008,12.207853,12.2131815,12.216784,12.217592,12.216487,12.214474,12.2129345,12.212342,12.212259,12.212769,12.214224,12.216565,12.219267,12.2221155,12.2247925,12.227422,12.229966,12.231725,12.232416,12.232603,12.232645,12.232628,12.232511,12.232174,12.231552,12.230665,12.2296505,12.228751,12.227709,12.2270565,12.227144,12.227898,12.228956,12.229905,12.230511,12.230738,12.230892,12.231158,12.231541,12.231911,12.232069,12.231857,12.2312155,12.230043,12.228181,12.225691,12.222623,12.219262,12.216133,12.213567,12.211236,12.209003,12.206724,12.204103,12.201256,12.198591,12.19632,12.19458,12.193231,12.192132,12.191113,12.189883,12.1882515,12.186288,12.184019,12.181172,12.177897,12.174495,12.17128,12.168569,12.166477,12.16489,12.163451,12.162175,12.16111,12.160315,12.159835,12.159618,12.159486,12.159337,12.15896,12.158297,12.157221,12.155695,12.153865,12.151947,12.150076,12.148084,12.146044,12.144012,12.14209,12.140433,12.139242,12.138656,12.138417,12.138395,12.13828,12.137976,12.137478,12.136759,12.135883,12.134728,12.133239,12.131476,12.129623,12.127875,12.126421,12.125501,12.12494,12.124724,12.124706,12.125002,12.1256275,12.126352,12.127033,12.12756,12.127871,12.127858,12.1274395,12.126606,12.125396,12.123925,12.122201,12.120241,12.1179,12.115395,12.112924,12.110744,12.109081,12.107907,12.107272,12.106998,12.106739,12.105964,12.104519,12.10261,12.100349,12.09795,12.095203,12.093081,12.091756,12.090963,12.090377,12.089579,12.08832,12.087173,12.087698,12.090514,12.095482,12.101857,12.108389,12.114222,12.119712,12.125128,12.129421,12.130759,12.127943,12.121416,12.112792,12.102824,12.091314,12.078418,12.063459,12.046428,12.028686,12.0115595,11.994439,11.978292,11.963761,11.951746,11.942725,11.936622,11.933067,11.928652,11.925432,11.92177,11.917851,11.913988,11.909425,11.903537,11.897016,11.889688,11.88232,11.875757,11.870465,11.866623,11.86409,11.86216,11.860463,11.858946,11.857113,11.854786,11.851776,11.847918,11.843538,11.836691,11.829128,11.825808,11.8279505,11.83403,11.841768,11.8481,11.850538,11.851098,11.849046,11.845457,11.840439,11.8334465,11.825338,11.815905,11.804765,11.792865,11.782212,11.773577,11.766676,11.76166,11.758961,11.758345,11.758451,11.759629,11.76303,11.76907,11.776954,11.785786,11.795193,11.801695,11.80464,11.805672,11.806439,11.807032,11.806651,11.804974,11.801721,11.796581,11.788946,11.779066,11.767001,11.752042,11.735637,11.718242,11.70248,11.686934,11.670778,11.6545925,11.638725,11.624264,11.610725,11.5995245,11.591888,11.590801,11.594006,11.595085,11.594709,11.592897,11.591238,11.591957,11.59506,11.599388,11.603523,11.605518,11.6038065,11.598341,11.586704,11.57021,11.5513735,11.5319605,11.514167,11.50181,11.492896,11.486073,11.481566,11.479644,11.479946,11.482316,11.487647,11.495456,11.502293,11.506417,11.509699,11.5146885,11.521599,11.529237,11.537571,11.545513,11.552528,11.55679,11.557842,11.556778,11.5534725,11.548648,11.542871,11.535711,11.528438,11.521339,11.513447,11.504824,11.496239,11.486687,11.476391
11.731785,11.86058,11.969055,12.034626,12.062901,12.070154,12.0682125,12.066728,12.067702,12.070932,12.074107,12.074793,12.0729685,12.070181,12.0673485,12.065214,12.064177,12.064269,12.065132,12.066798,12.069237,12.071949,12.0745535,12.075609,12.076536,12.077391,12.078193,12.078892,12.079346,12.079519,12.079499,12.079309,12.078929,12.078324,12.077464,12.076458,12.075571,12.074553,12.073921,12.074019,12.074739,12.075731,12.076622,12.077178,12.07736,12.077461,12.077638,12.077909,12.078163,12.078253,12.0780735,12.07755,12.076586,12.074999,12.072776,12.0699,12.066635,12.0635395,12.060992,12.058722,12.056591,12.054465,12.052023,12.04931,12.046698,12.044386,12.042525,12.040979,12.039653,12.038421,12.037022,12.035265,12.033222,12.030897,12.028018,12.024764,12.021418,12.018291,12.015723,12.013811,12.012424,12.011238,12.01023,12.009415,12.008833,12.0085125,12.008395,12.008341,12.00827,12.007963,12.00736,12.006352,12.004906,12.003147,12.001285,11.9994545,11.997512,11.995536,11.993594,11.991789,11.990234,11.989089,11.988491,11.98817,11.988028,11.987733,11.987215,11.986482,11.985495,11.984343,11.982889,11.981103,11.979059,11.976968,11.975046,11.973447,11.972399,11.971694,11.971287,11.971021,11.97104,11.971408,11.971959,11.972576,11.973148,11.97365,11.97392,11.973855,11.97338,11.972453,11.971175,11.969559,11.967632,11.965271,11.962675,11.960054,11.957705,11.955834,11.954456,11.953611,11.953113,11.952654,11.951742,11.950248,11.948397,11.946267,11.944046,11.941547,11.939768,11.938894,11.938654,11.938678,11.938497,11.937836,11.937227,11.937979,11.940681,11.945271,11.951144,11.957257,11.962863,11.96822,11.97345,11.977546,11.9788265,11.976278,11.970451,11.962844,11.953924,11.943703,11.93211,11.918327,11.90237,11.885617,11.869272,11.852751,11.836859,11.822353,11.80998,11.800118,11.792867,11.788357,11.785431,11.784551,11.7826,11.77972,11.776789,11.773245,11.768345,11.762708,11.7561035,11.749261,11.742953,11.737696,11.733811,11.731286,11.729458,11.727799,11.7262745,11.7244,11.722076,11.719358,11.716236,11.712889,11.707718,11.702073,11.699264,11.700421,11.704992,11.711371,11.716819,11.720169,11.7226925,11.724411,11.725627,11.72571,11.724138,11.721603,11.71722,11.711153,11.7034645,11.695967,11.68955,11.684049,11.679787,11.677544,11.677102,11.677767,11.680006,11.684516,11.691204,11.699061,11.707132,11.715252,11.720205,11.721481,11.720404,11.718485,11.716042,11.712415,11.707512,11.700885,11.692487,11.68249,11.6715555,11.659656,11.645918,11.63113,11.615528,11.60135,11.587249,11.572582,11.557863,11.543236,11.529808,11.516849,11.505572,11.497074,11.4942665,11.495497,11.4952965,11.494385,11.49222,11.490193,11.490524,11.493152,11.497444,11.502647,11.506506,11.50725,11.504716,11.496898,11.485211,11.471668,11.457423,11.444268,11.435089,11.428308,11.422573,11.418145,11.415436,11.4142475,11.414717,11.418513,11.425093,11.431336,11.435583,11.439216,11.44421,11.4504595,11.456503,11.462378,11.467215,11.470357,11.47068,11.468117,11.463403,11.456341,11.447681,11.437761,11.426548,11.415565,11.405134,11.3946905,11.385063,11.376546,11.36815,11.359581
11.689485,11.789921,11.866354,11.911021,11.929588,11.932901,11.930519,11.929875,11.931179,11.933336,11.93417,11.932222,11.92821,11.9239645,11.920589,11.918725,11.9181385,11.918758,11.920352,11.922281,11.923763,11.924666,11.925929,11.926837,11.9276085,11.928236,11.928837,11.929365,11.929659,11.929677,11.929499,11.929172,11.928715,11.92812,11.927309,11.926355,11.925526,11.924564,11.923935,11.923987,11.924613,11.925478,11.926247,11.926709,11.926828,11.926882,11.926969,11.927132,11.927276,11.9273,11.9271755,11.926826,11.926146,11.924898,11.923003,11.9203415,11.9171505,11.914041,11.9114485,11.9091625,11.907085,11.905089,11.902838,11.900329,11.89785,11.895576,11.893644,11.891939,11.890392,11.888957,11.887424,11.88561,11.883548,11.881222,11.878378,11.875182,11.871918,11.868916,11.866508,11.86478,11.863567,11.862573,11.861746,11.861071,11.860559,11.860259,11.860132,11.860048,11.859941,11.85962,11.859046,11.85809,11.856712,11.855051,11.853293,11.8515415,11.849697,11.84785,11.846061,11.844401,11.842966,11.841896,11.841294,11.840902,11.840613,11.84013,11.83939,11.838417,11.837196,11.835806,11.834128,11.832102,11.829836,11.82756,11.825496,11.8238125,11.822676,11.821858,11.821247,11.820693,11.820356,11.820361,11.820612,11.821045,11.821558,11.822153,11.822665,11.822952,11.822874,11.822296,11.82126,11.819769,11.817884,11.815494,11.81279,11.810004,11.807448,11.805351,11.803747,11.802657,11.80192,11.801246,11.800173,11.798621,11.796833,11.794824,11.792797,11.79055,11.789061,11.788526,11.788703,11.789196,11.789465,11.78926,11.789047,11.7899,11.792406,11.796593,11.801993,11.807763,11.813282,11.81863,11.823833,11.827866,11.829176,11.826942,11.821804,11.81521,11.807414,11.79848,11.788254,11.775787,11.7609625,11.745106,11.729497,11.713612,11.698077,11.683582,11.670844,11.660282,11.652176,11.646925,11.64351,11.642144,11.641293,11.641178,11.640837,11.638542,11.634543,11.6298485,11.623987,11.617666,11.611611,11.606414,11.602565,11.600152,11.598534,11.597134,11.595869,11.594091,11.591714,11.589041,11.586331,11.583802,11.580024,11.576011,11.574003,11.574738,11.577924,11.5827,11.587417,11.5913105,11.595037,11.598515,11.602,11.605209,11.6078005,11.609936,11.610392,11.60951,11.606668,11.603285,11.599833,11.596003,11.592495,11.590441,11.58974,11.5905285,11.593391,11.598597,11.605621,11.613296,11.620511,11.627367,11.630962,11.6309,11.628168,11.624101,11.619244,11.613138,11.605959,11.597184,11.586981,11.575988,11.565001,11.55383,11.541474,11.528274,11.514347,11.501626,11.4890175,11.476026,11.462976,11.449788,11.437478,11.424979,11.413372,11.403537,11.39838,11.39699,11.394868,11.392679,11.389415,11.386241,11.385073,11.385879,11.388742,11.393619,11.3981495,11.400745,11.401045,11.397435,11.3912735,11.383871,11.375663,11.367997,11.362908,11.359365,11.355664,11.352054,11.3490305,11.346577,11.345356,11.347806,11.353392,11.359255,11.363714,11.367426,11.37173,11.376428,11.380019,11.382576,11.383105,11.381485,11.377338,11.370863,11.36259,11.352209,11.340325,11.327124,11.312878,11.299246,11.286566,11.274514,11.264363,11.256031,11.248436,11.241078
11.622868,11.696363,11.747129,11.776119,11.787829,11.788992,11.78714,11.787318,11.788607,11.789031,11.787512,11.783325,11.777803,11.773082,11.769982,11.768812,11.769261,11.770846,11.7717495,11.772238,11.773087,11.773863,11.7748375,11.77566,11.776211,11.776508,11.776727,11.77688,11.77687,11.77666,11.77631,11.775864,11.775378,11.774845,11.774153,11.773333,11.772617,11.7717495,11.771154,11.771146,11.771633,11.772322,11.772915,11.773243,11.773264,11.773233,11.773213,11.773245,11.773263,11.773233,11.773191,11.773064,11.772705,11.771865,11.770346,11.767931,11.764835,11.761705,11.759035,11.756702,11.754623,11.752714,11.750653,11.748374,11.74608,11.743892,11.741934,11.740081,11.738328,11.736718,11.735104,11.733297,11.73129,11.729033,11.72626,11.723164,11.720021,11.717175,11.71495,11.713388,11.712315,11.711445,11.710705,11.710056,11.709496,11.709078,11.708803,11.708569,11.708327,11.707901,11.707273,11.706326,11.705,11.703427,11.701787,11.700165,11.698483,11.696823,11.695238,11.693773,11.6924925,11.691512,11.690915,11.690458,11.690016,11.689323,11.688345,11.687138,11.685715,11.684141,11.682295,11.680092,11.677664,11.675274,11.67315,11.671439,11.670294,11.669405,11.668628,11.667781,11.667046,11.666616,11.66648,11.66662,11.666977,11.66756,11.668226,11.6688175,11.669115,11.668889,11.668101,11.666757,11.664927,11.662521,11.659733,11.656815,11.654085,11.651782,11.649964,11.648645,11.647667,11.6467705,11.64554,11.643933,11.642186,11.640283,11.638403,11.636352,11.63505,11.63471,11.635125,11.635897,11.636468,11.6365795,11.636629,11.637486,11.639704,11.643418,11.64833,11.653765,11.659221,11.664616,11.669857,11.673917,11.675351,11.673506,11.669136,11.663646,11.657167,11.649616,11.640754,11.629625,11.61602,11.601142,11.586311,11.571174,11.556127,11.541778,11.528814,11.517685,11.50881,11.502814,11.498724,11.496728,11.495825,11.49615,11.497002,11.496915,11.4953575,11.4921465,11.486993,11.481184,11.475565,11.4706,11.466804,11.464485,11.463123,11.4621,11.461274,11.4597845,11.457465,11.454784,11.452251,11.450198,11.447472,11.444878,11.443864,11.444773,11.447303,11.450919,11.454708,11.458408,11.4627075,11.467318,11.472121,11.476858,11.481525,11.486476,11.490638,11.494415,11.496441,11.49759,11.497589,11.495662,11.492813,11.490595,11.489147,11.489452,11.492296,11.497597,11.504497,11.511703,11.517972,11.523651,11.526141,11.525243,11.521559,11.516169,11.509827,11.50233,11.494082,11.484609,11.474184,11.463653,11.453707,11.443918,11.433215,11.421659,11.409322,11.397924,11.386735,11.375459,11.364231,11.352703,11.341709,11.329796,11.317839,11.306482,11.298631,11.294161,11.289623,11.2856865,11.280928,11.27618,11.272874,11.270993,11.271267,11.27435,11.278153,11.281455,11.2836895,11.283785,11.2829275,11.281705,11.27978,11.27792,11.277488,11.277996,11.277208,11.275183,11.272416,11.269115,11.266546,11.267917,11.272826,11.278585,11.283299,11.286769,11.289666,11.291855,11.2920475,11.290382,11.285988,11.279225,11.270377,11.260015,11.248575,11.235545,11.221259,11.205804,11.189714,11.174677,11.160947,11.14818,11.137645,11.129339,11.122239,11.115805
11.531734,11.5807495,11.61418,11.632997,11.640736,11.642079,11.641739,11.642725,11.64355,11.642841,11.639969,11.634676,11.628679,11.624248,11.621989,11.621752,11.621737,11.622543,11.622756,11.622738,11.623427,11.624412,11.625389,11.626038,11.626311,11.626259,11.626102,11.62594,11.625741,11.6254425,11.625073,11.62468,11.624313,11.623939,11.623438,11.622809,11.622231,11.621458,11.620895,11.620819,11.621143,11.62162,11.621996,11.622122,11.621998,11.621817,11.621633,11.62149,11.621347,11.621238,11.621255,11.621325,11.621268,11.620837,11.61972,11.617609,11.614688,11.611614,11.608905,11.606524,11.60442,11.602545,11.600616,11.598545,11.596464,11.594442,11.592569,11.590721,11.588923,11.587295,11.585734,11.584034,11.582149,11.57999,11.57729,11.574244,11.571154,11.56837,11.56621,11.564686,11.563616,11.562742,11.561958,11.561196,11.560458,11.559808,11.559273,11.558797,11.558352,11.557764,11.557024,11.556019,11.554695,11.553178,11.551626,11.5501175,11.548587,11.547113,11.545717,11.54442,11.543269,11.542353,11.541742,11.541197,11.540567,11.539628,11.538394,11.536962,11.535374,11.533693,11.531752,11.529451,11.526939,11.524508,11.5224085,11.520773,11.5197315,11.518894,11.518093,11.517103,11.516117,11.515383,11.514948,11.514819,11.514992,11.51547,11.516146,11.51688,11.517399,11.51738,11.516745,11.515496,11.513709,11.511318,11.508519,11.50556,11.502754,11.500338,11.49838,11.49689,11.495741,11.49469,11.493354,11.4917145,11.489986,11.488127,11.486286,11.48426,11.482934,11.482542,11.482913,11.48369,11.484338,11.484584,11.484746,11.4855,11.487368,11.4905615,11.494907,11.499895,11.505146,11.510426,11.515564,11.519566,11.52109,11.519638,11.516085,11.511759,11.506698,11.500711,11.493366,11.483658,11.471368,11.457634,11.443734,11.429545,11.41519,11.401178,11.388176,11.376651,11.36713,11.360437,11.355691,11.353024,11.3515215,11.351269,11.352045,11.352784,11.35249,11.350649,11.347137,11.343051,11.3385725,11.334018,11.330307,11.32808,11.326855,11.326119,11.325683,11.324583,11.322569,11.320123,11.317854,11.3161955,11.314247,11.31263,11.312302,11.313335,11.315369,11.318019,11.320822,11.323898,11.327951,11.332765,11.33822,11.344029,11.350102,11.356664,11.36308,11.369832,11.375483,11.380347,11.383305,11.38315,11.381107,11.378968,11.377129,11.3771305,11.3798485,11.384949,11.391369,11.3978,11.4029665,11.40746,11.409013,11.407597,11.4035,11.397507,11.390471,11.382422,11.373931,11.364599,11.354788,11.345365,11.336833,11.328588,11.319578,11.309715,11.299057,11.289127,11.279472,11.269943,11.260521,11.250694,11.241163,11.230208,11.218554,11.206564,11.197065,11.190517,11.184264,11.178932,11.172896,11.166664,11.161128,11.156344,11.153536,11.153875,11.155729,11.158367,11.161045,11.163214,11.165896,11.169141,11.172061,11.174821,11.178293,11.182459,11.184562,11.18445,11.182583,11.179308,11.17629,11.177271,11.182,11.187911,11.192867,11.195867,11.197069,11.196584,11.193498,11.188023,11.179559,11.1687355,11.156292,11.143084,11.129466,11.1147375,11.099025,11.082298,11.065096,11.049137,11.034677,11.021452,11.010853,11.002618,10.99589,10.990091
11.4210615,11.452102,11.474586,11.487935,11.494654,11.497591,11.498893,11.50048,11.501196,11.5002775,11.497152,11.491958,11.486628,11.482795,11.480279,11.479799,11.479126,11.479017,11.479139,11.479388,11.479891,11.480537,11.481222,11.481589,11.481594,11.481277,11.480883,11.480581,11.480381,11.480196,11.480001,11.479842,11.4797325,11.479603,11.479323,11.478877,11.478421,11.477715,11.477154,11.476984,11.477139,11.477394,11.477529,11.477433,11.477127,11.476757,11.476371,11.476025,11.4757,11.475478,11.475513,11.475718,11.475901,11.475825,11.475105,11.47335,11.470704,11.4678,11.465145,11.4627695,11.460633,11.45873,11.45685,11.454912,11.45301,11.451193,11.449497,11.447803,11.446136,11.444657,11.443277,11.441777,11.44006,11.437994,11.435347,11.432293,11.42915,11.426299,11.424052,11.422421,11.421221,11.420219,11.419277,11.418308,11.417316,11.416373,11.415523,11.41477,11.414087,11.413312,11.412437,11.411333,11.409956,11.408431,11.40691,11.405458,11.404028,11.402687,11.401419,11.400237,11.399179,11.398307,11.397685,11.397053,11.396243,11.395061,11.393581,11.391964,11.390266,11.3885355,11.386571,11.384238,11.381689,11.379253,11.377223,11.375736,11.37488,11.374209,11.373539,11.372601,11.371577,11.370758,11.370209,11.36993,11.369961,11.370295,11.370845,11.371531,11.372063,11.372058,11.371439,11.370202,11.368439,11.366101,11.363394,11.360531,11.357787,11.355386,11.353402,11.351855,11.350654,11.349563,11.348207,11.346568,11.344837,11.34295,11.341028,11.338832,11.337244,11.336521,11.336557,11.3370695,11.337554,11.337747,11.337879,11.338448,11.339941,11.342602,11.346315,11.350722,11.355565,11.360472,11.3652525,11.368993,11.370474,11.369336,11.366549,11.363365,11.359692,11.355343,11.349629,11.341437,11.33059,11.318196,11.305451,11.292426,11.278975,11.265474,11.2526045,11.240854,11.230815,11.223503,11.218114,11.214653,11.212413,11.211516,11.211682,11.211884,11.211402,11.210091,11.207816,11.205057,11.201643,11.197982,11.195272,11.194079,11.193264,11.19273,11.19265,11.192021,11.190529,11.188595,11.186764,11.185513,11.184064,11.18286,11.182638,11.183391,11.184772,11.186551,11.188554,11.191046,11.194574,11.199107,11.204715,11.21113,11.218091,11.225651,11.233119,11.241097,11.248421,11.255306,11.260101,11.261264,11.260152,11.258515,11.256935,11.257128,11.2598715,11.264662,11.270403,11.275883,11.27993,11.2832985,11.284134,11.282489,11.278434,11.272492,11.265464,11.257528,11.249363,11.240625,11.231763,11.223568,11.21636,11.209487,11.202023,11.193823,11.184917,11.176645,11.168659,11.160802,11.15298,11.144718,11.13666,11.1270075,11.116451,11.105034,11.095426,11.088382,11.081623,11.075705,11.069073,11.061945,11.054769,11.047691,11.042194,11.03968,11.039011,11.039929,11.0415945,11.043878,11.047657,11.052724,11.057971,11.063162,11.06879,11.075198,11.079325,11.080833,11.080129,11.077609,11.07507,11.07638,11.081361,11.087582,11.092705,11.095125,11.094742,11.092058,11.08659,11.078619,11.06781,11.054902,11.040786,11.026383,11.011907,10.996453,10.980139,10.962838,10.945153,10.92876,10.913891,10.900422,10.889893,10.881681,10.875127,10.86962
11.3018875,11.32239,11.337853,11.348857,11.356473,11.361248,11.36393,11.365973,11.367132,11.366253,11.363382,11.358799,11.354066,11.350169,11.346684,11.345226,11.345154,11.345565,11.345643,11.345488,11.345471,11.345575,11.345799,11.345793,11.345495,11.344945,11.3444,11.344072,11.343989,11.344026,11.344127,11.344294,11.344499,11.3446455,11.344572,11.344258,11.343878,11.343189,11.342595,11.342315,11.342308,11.342362,11.342284,11.3420105,11.341532,11.340992,11.340427,11.339893,11.339393,11.339045,11.339037,11.339289,11.339591,11.339742,11.339318,11.337894,11.335574,11.332936,11.330439,11.328151,11.326007,11.324049,11.322142,11.320233,11.31841,11.316729,11.315184,11.313632,11.312129,11.310827,11.309649,11.308361,11.306811,11.304848,11.302246,11.299191,11.295983,11.293026,11.290652,11.288865,11.287504,11.286331,11.285205,11.284025,11.282778,11.281545,11.2803955,11.279377,11.27846,11.277508,11.2765,11.275295,11.273829,11.27223,11.270671,11.269215,11.267815,11.266525,11.26531,11.264189,11.2632,11.262371,11.261772,11.261112,11.260196,11.258843,11.257183,11.255434,11.253684,11.251927,11.249976,11.247621,11.2450285,11.2425785,11.240608,11.239266,11.238609,11.238138,11.237665,11.236879,11.235965,11.235227,11.234722,11.23442,11.234399,11.234613,11.235011,11.235554,11.235968,11.235867,11.235177,11.233916,11.23219,11.2299595,11.227433,11.224787,11.222228,11.219959,11.218057,11.216565,11.21541,11.2143545,11.213044,11.21143,11.20967,11.207711,11.20562,11.203145,11.201146,11.199907,11.199416,11.199472,11.199625,11.199621,11.199622,11.199977,11.201124,11.203288,11.206382,11.210156,11.214446,11.218785,11.222992,11.226265,11.227533,11.226567,11.2243805,11.222174,11.21973,11.216854,11.212675,11.206009,11.196686,11.185775,11.174362,11.162655,11.150269,11.137434,11.1248455,11.113035,11.102637,11.09482,11.088848,11.084592,11.081514,11.079787,11.079186,11.078838,11.07809,11.076596,11.074201,11.071229,11.068051,11.065279,11.063868,11.064082,11.064287,11.064756,11.065597,11.065596,11.064647,11.063344,11.06205,11.061182,11.06,11.058804,11.058279,11.058505,11.059231,11.060336,11.0618,11.06389,11.067082,11.071366,11.07677,11.082945,11.0897665,11.097558,11.105304,11.113488,11.121021,11.12849,11.134156,11.136223,11.136023,11.135102,11.134143,11.134774,11.137583,11.141998,11.1469965,11.151546,11.1546955,11.15722,11.157698,11.156187,11.1526165,11.147289,11.140857,11.133557,11.126125,11.118261,11.110472,11.103441,11.0973625,11.091618,11.08544,11.078727,11.071427,11.064758,11.058337,11.051914,11.045395,11.038449,11.031721,11.023476,11.0144,11.00425,10.995527,10.989057,10.982668,10.976899,10.970403,10.963163,10.95528,10.946936,10.939634,10.93477,10.93165,10.930413,10.930185,10.931175,10.93416,10.938863,10.944225,10.949815,10.955884,10.96296,10.967971,10.970404,10.970589,10.968959,10.967255,10.969147,10.974467,10.980963,10.986126,10.988001,10.986441,10.982336,10.975641,10.966723,10.955396,10.94235,10.928336,10.914123,10.899813,10.884485,10.868296,10.851073,10.833639,10.817492,10.80276,10.789349,10.778683,10.77018,10.763361,10.757689
11.187258,11.200008,11.211823,11.222605,11.231312,11.237361,11.241296,11.243925,11.245002,11.243993,11.241293,11.236917,11.231226,11.226061,11.223455,11.222723,11.22293,11.223348,11.223193,11.2225895,11.222009,11.221551,11.221294,11.220921,11.220358,11.2196245,11.219009,11.218754,11.218867,11.219168,11.219597,11.220111,11.220637,11.221033,11.22112,11.220891,11.220518,11.219801,11.219149,11.218762,11.218619,11.2185335,11.218315,11.217911,11.21733,11.216672,11.2159815,11.215305,11.214654,11.214163,11.214028,11.214196,11.2144375,11.214619,11.214302,11.213084,11.2110615,11.208725,11.206465,11.204348,11.20227,11.200284,11.198306,11.19634,11.194487,11.192808,11.191291,11.189767,11.188317,11.187108,11.186055,11.184901,11.183472,11.181614,11.179083,11.17607,11.172872,11.169876,11.167431,11.165543,11.164075,11.1627865,11.161526,11.160173,11.158724,11.15726,11.155867,11.154636,11.153542,11.152458,11.151339,11.150042,11.148484,11.146783,11.145134,11.143596,11.142138,11.140806,11.139561,11.1384325,11.1374655,11.136674,11.136125,11.135506,11.134577,11.133156,11.131405,11.1295805,11.127794,11.126032,11.124074,11.121662,11.118988,11.116481,11.11452,11.113277,11.112764,11.112443,11.112139,11.111515,11.110757,11.11018,11.109819,11.109594,11.1096115,11.10981,11.110139,11.110583,11.110877,11.110671,11.109932,11.108681,11.107036,11.104974,11.102681,11.100295,11.097988,11.095921,11.094153,11.092772,11.091687,11.09068,11.089413,11.087824,11.08602,11.083958,11.081675,11.078901,11.076465,11.074672,11.0735855,11.073107,11.072842,11.072575,11.072399,11.072551,11.073421,11.075177,11.077725,11.080898,11.084574,11.088261,11.091772,11.094436,11.095341,11.094368,11.09257,11.091066,11.089579,11.087895,11.085025,11.079755,11.071924,11.062517,11.052504,11.042187,11.030939,11.018886,11.006714,10.995001,10.984447,10.976295,10.9698715,10.964907,10.961029,10.958459,10.95706,10.956115,10.955023,10.953362,10.9509735,10.948061,10.944856,10.941893,10.940069,10.939993,10.941328,10.944103,10.946748,10.94766,10.947384,10.9468565,10.9461355,10.945656,10.944677,10.943395,10.942518,10.94223,10.942413,10.943024,10.944063,10.945766,10.948536,10.952358,10.957266,10.962924,10.969148,10.976285,10.983829,10.991766,10.999146,11.0067,11.012802,11.015646,11.016371,11.016268,11.016087,11.017219,11.020106,11.024186,11.0285425,11.032327,11.034878,11.036926,11.037389,11.036276,11.033421,11.028954,11.023337,11.016814,11.01013,11.003064,10.996129,10.989953,10.98469,10.979775,10.974555,10.969038,10.9630165,10.957674,10.952507,10.947187,10.941677,10.935775,10.930136,10.923171,10.915567,10.906855,10.89939,10.893967,10.888418,10.883314,10.8774605,10.870734,10.862911,10.854147,10.845847,10.839305,10.834177,10.83091,10.8286085,10.827748,10.829061,10.832357,10.836726,10.841614,10.847098,10.853783,10.858746,10.861367,10.861925,10.8608675,10.859773,10.862011,10.867422,10.873933,10.8789835,10.8805065,10.878354,10.873686,10.866905,10.858477,10.848178,10.836469,10.823753,10.810463,10.796746,10.78219,10.766808,10.750371,10.733618,10.717869,10.7032585,10.689767,10.678713,10.669585,10.662075,10.6557865
11.074854,11.083234,11.09324,11.104377,11.114854,11.122752,11.127487,11.129877,11.130396,11.129375,11.125288,11.119167,11.1132345,11.109101,11.107068,11.106571,11.106817,11.1071,11.106634,11.105574,11.104467,11.103506,11.102835,11.102146,11.101416,11.100617,11.100045,11.099953,11.1003065,11.10091,11.101677,11.102515,11.103314,11.103893,11.104071,11.10386,11.103437,11.102645,11.101897,11.101402,11.101153,11.100971,11.100662,11.100183,11.099551,11.098853,11.098098,11.09732,11.096534,11.095883,11.095576,11.0955305,11.095587,11.0956335,11.095282,11.094183,11.092423,11.090402,11.088415,11.08653,11.084589,11.082614,11.080568,11.078508,11.076568,11.0748205,11.073261,11.071717,11.070275,11.069104,11.068111,11.067032,11.065697,11.063894,11.061451,11.058493,11.055329,11.052357,11.049889,11.047936,11.046392,11.045029,11.043666,11.042191,11.0406,11.038974,11.037403,11.036024,11.034816,11.033641,11.032471,11.031124,11.029489,11.027693,11.025942,11.02429,11.022721,11.021268,11.019909,11.018704,11.01772,11.016963,11.016485,11.015964,11.0151,11.013703,11.011944,11.010105,11.008305,11.006536,11.004566,11.002079,10.999281,10.996654,10.994626,10.993389,10.992931,10.992677,10.992466,10.991943,10.99132,10.990926,10.990759,10.990691,10.990859,10.991141,10.991512,10.991956,10.992202,10.991943,10.991216,10.990035,10.988536,10.986681,10.984667,10.982574,10.980525,10.97868,10.9770775,10.975809,10.974791,10.973834,10.972614,10.971039,10.969177,10.966997,10.964502,10.961426,10.95853,10.956152,10.954431,10.953355,10.952615,10.952023,10.951632,10.951584,10.952194,10.9535885,10.955663,10.958277,10.96134,10.964339,10.967105,10.969098,10.969561,10.968472,10.966898,10.96589,10.965118,10.964393,10.962633,10.958638,10.952242,10.944316,10.93572,10.926784,10.9167,10.905467,10.893798,10.882326,10.87178,10.863421,10.856645,10.851055,10.846392,10.842974,10.840786,10.839245,10.837808,10.83599,10.833588,10.830725,10.82756,10.824587,10.82267,10.822414,10.823538,10.826023,10.829303,10.83232,10.83478,10.835841,10.835036,10.834688,10.833799,10.832477,10.831322,10.830633,10.830407,10.830614,10.831273,10.832617,10.83498,10.838288,10.842598,10.847615,10.853162,10.859558,10.866271,10.873695,10.880816,10.8881445,10.89428,10.897668,10.899218,10.899962,10.900648,10.902397,10.90546,10.909327,10.913213,10.916432,10.918631,10.920474,10.921106,10.920506,10.918425,10.91485,10.910084,10.904293,10.898232,10.8917465,10.885426,10.879888,10.875214,10.870886,10.866368,10.861641,10.856599,10.852306,10.84803,10.843361,10.8384695,10.833379,10.828585,10.822699,10.816444,10.809225,10.803254,10.79924,10.794969,10.790944,10.786206,10.780531,10.773441,10.7650385,10.756552,10.749092,10.742562,10.737627,10.733441,10.730486,10.729559,10.730811,10.733616,10.737208,10.741329,10.746822,10.750965,10.753099,10.753498,10.752643,10.751942,10.75435,10.759646,10.765932,10.770722,10.771958,10.769457,10.764549,10.75824,10.751019,10.742623,10.733489,10.72337,10.712081,10.699771,10.686342,10.671971,10.656473,10.640449,10.625138,10.610549,10.596614,10.584839,10.57482,10.566495,10.559559
10.955761,10.961111,10.970636,10.98288,10.99488,11.003921,11.009016,11.010992,11.0114,11.007907,11.002395,10.996202,10.990814,10.987367,10.985691,10.985255,10.985397,10.985438,10.984671,10.983242,10.98172,10.980378,10.979414,10.978529,10.97772,10.976972,10.976549,10.976679,10.977315,10.978214,10.979264,10.980343,10.981283,10.981874,10.981967,10.981603,10.980989,10.980002,10.979067,10.97836,10.9779215,10.977596,10.977187,10.9766655,10.976031,10.975366,10.974675,10.973947,10.9731655,10.97245,10.972002,10.971752,10.971582,10.971442,10.971002,10.969962,10.968405,10.966663,10.964948,10.963304,10.961528,10.959616,10.95756,10.955457,10.953457,10.951656,10.950054,10.948465,10.946998,10.945791,10.94475,10.943631,10.94227,10.94047,10.938051,10.935154,10.932041,10.929099,10.926631,10.9246435,10.9230585,10.921653,10.920235,10.918724,10.917103,10.915423,10.9137945,10.912348,10.911074,10.909849,10.908631,10.907231,10.905526,10.903628,10.901739,10.899923,10.8981695,10.896523,10.894994,10.893702,10.892733,10.89209,10.891818,10.891551,10.890946,10.889761,10.888147,10.886395,10.884626,10.882845,10.8808155,10.878187,10.875183,10.872335,10.870133,10.868777,10.868247,10.867944,10.867716,10.867207,10.866652,10.866388,10.866381,10.866469,10.866781,10.867176,10.867627,10.868116,10.868407,10.868225,10.867646,10.866684,10.865472,10.863945,10.862284,10.860549,10.858831,10.857265,10.855878,10.85478,10.853895,10.853033,10.85188,10.850308,10.848358,10.846002,10.843249,10.839814,10.836418,10.833403,10.830968,10.829197,10.827871,10.826845,10.826105,10.825758,10.826043,10.827044,10.828667,10.830764,10.833269,10.835654,10.837763,10.839161,10.839253,10.838101,10.836731,10.836153,10.83599,10.836053,10.835245,10.832416,10.82741,10.820978,10.813827,10.806273,10.797366,10.787003,10.775921,10.76481,10.754396,10.745928,10.738826,10.732545,10.726993,10.722591,10.719493,10.717288,10.715464,10.713464,10.711063,10.708289,10.705244,10.70237,10.700475,10.70014,10.701112,10.703398,10.706636,10.709989,10.71302,10.715299,10.716669,10.718048,10.717797,10.716244,10.714541,10.713271,10.712633,10.712735,10.713368,10.714598,10.716776,10.719809,10.723618,10.727951,10.732776,10.738376,10.744152,10.750607,10.757014,10.763913,10.769968,10.773665,10.775753,10.776943,10.778032,10.779957,10.78286,10.786286,10.789595,10.792287,10.794264,10.796068,10.797057,10.797139,10.795983,10.793461,10.789736,10.784892,10.779752,10.774314,10.768996,10.764253,10.760176,10.756342,10.752302,10.748216,10.7439785,10.740676,10.737332,10.733292,10.728718,10.723852,10.719364,10.714172,10.708878,10.702842,10.69816,10.695458,10.692507,10.689768,10.686431,10.682266,10.676581,10.669374,10.661633,10.654203,10.647169,10.64137,10.635647,10.630813,10.627767,10.626777,10.627448,10.629179,10.631729,10.635717,10.6386385,10.639797,10.639456,10.638148,10.637102,10.638747,10.643074,10.648437,10.652342,10.652816,10.649845,10.644945,10.639311,10.63356,10.6274185,10.621106,10.6139965,10.605367,10.595114,10.583473,10.570683,10.556702,10.542096,10.527754,10.513558,10.499556,10.487265,10.476489,10.467459,10.459974
10.835753,10.840371,10.850179,10.863061,10.875528,10.884712,10.889715,10.891183,10.889133,10.8839245,10.87796,10.872206,10.867413,10.864303,10.862683,10.8620615,10.861887,10.861563,10.860465,10.85875,10.856955,10.855382,10.854279,10.853342,10.852595,10.852011,10.851833,10.852253,10.853191,10.854368,10.855649,10.856873,10.857813,10.85827,10.858132,10.857491,10.856598,10.855358,10.854156,10.8531885,10.852522,10.852023,10.851513,10.850966,10.850385,10.849839,10.849325,10.848788,10.848141,10.847453,10.846914,10.846484,10.846096,10.845745,10.845177,10.844146,10.842732,10.841216,10.83973,10.838309,10.83672,10.834942,10.832971,10.830921,10.828957,10.827176,10.825595,10.8240185,10.822552,10.821284,10.820104,10.818812,10.817291,10.8153715,10.81289,10.809984,10.806879,10.803934,10.801442,10.799402,10.797766,10.796334,10.794922,10.793463,10.791919,10.790314,10.788752,10.787347,10.78609,10.784857,10.783619,10.782177,10.780405,10.778411,10.77638,10.7743635,10.772374,10.770464,10.768711,10.767307,10.766375,10.765902,10.765927,10.766037,10.7658415,10.765021,10.763684,10.762093,10.760372,10.758574,10.756449,10.753619,10.750345,10.747197,10.744709,10.743126,10.742405,10.741938,10.741587,10.741011,10.740454,10.740242,10.740325,10.740523,10.74094,10.741432,10.741945,10.742502,10.742912,10.742935,10.742645,10.74203,10.741214,10.740093,10.738831,10.737471,10.73609,10.734815,10.733681,10.732795,10.732074,10.731356,10.730309,10.728759,10.72672,10.724184,10.721173,10.717413,10.713558,10.709933,10.706792,10.704304,10.702347,10.700808,10.699638,10.698904,10.698792,10.699383,10.700584,10.702245,10.704296,10.706185,10.707768,10.708705,10.708527,10.707364,10.706196,10.705943,10.706221,10.706834,10.706718,10.704834,10.701045,10.695959,10.690149,10.683884,10.6761,10.666623,10.656227,10.645639,10.635544,10.627097,10.619731,10.612781,10.606286,10.600838,10.596801,10.593935,10.59174,10.589601,10.587261,10.5846405,10.581809,10.579168,10.577448,10.577182,10.578132,10.580337,10.583386,10.586525,10.589422,10.592049,10.59441,10.596523,10.597079,10.596385,10.59532,10.594615,10.594353,10.594395,10.594938,10.596083,10.598101,10.600904,10.604417,10.608345,10.612618,10.617535,10.622494,10.628002,10.633574,10.639767,10.645316,10.648821,10.650941,10.65217,10.653249,10.654967,10.657421,10.660247,10.662939,10.665178,10.667051,10.66894,10.670363,10.671178,10.67096,10.669477,10.666792,10.6629305,10.658674,10.654075,10.649549,10.645451,10.641871,10.638489,10.634899,10.631329,10.627676,10.625024,10.6222515,10.61864,10.614368,10.609677,10.605369,10.60051,10.595721,10.590475,10.586757,10.585112,10.583377,10.5819645,10.580182,10.577799,10.573983,10.568618,10.562412,10.555975,10.549469,10.543465,10.536945,10.530951,10.526326,10.523382,10.522009,10.521862,10.522743,10.524991,10.526302,10.525984,10.524207,10.521552,10.519361,10.519821,10.522767,10.526693,10.529199,10.52853,10.524863,10.519798,10.514726,10.510283,10.506267,10.502865,10.498992,10.493343,10.485622,10.476313,10.465739,10.4539,10.44132,10.428471,10.415005,10.401163,10.38872,10.377713,10.367512,10.358272
10.719058,10.722893,10.732866,10.746311,10.758747,10.767089,10.770685,10.77013,10.765866,10.760431,10.754821,10.749579,10.745279,10.742372,10.740635,10.739669,10.739041,10.738278,10.7368355,10.73488,10.732917,10.731249,10.730118,10.729248,10.728675,10.728341,10.728459,10.729197,10.730425,10.731836,10.733288,10.734563,10.735405,10.735647,10.735225,10.734285,10.733127,10.731662,10.730243,10.729066,10.728214,10.727575,10.726986,10.7264385,10.725939,10.725554,10.7252655,10.724977,10.724533,10.723954,10.723404,10.722863,10.722334,10.721851,10.721228,10.720262,10.719016,10.717711,10.71644,10.715224,10.713838,10.712259,10.710475,10.708601,10.706814,10.705202,10.703786,10.702389,10.7010565,10.699811,10.698508,10.696993,10.695227,10.693069,10.690403,10.687349,10.684114,10.681041,10.678416,10.676232,10.674482,10.672972,10.671536,10.670116,10.668666,10.667187,10.665743,10.664424,10.663203,10.661954,10.660676,10.65918,10.657341,10.65527,10.653115,10.650908,10.648683,10.646489,10.644499,10.642966,10.642048,10.641742,10.642037,10.642503,10.642706,10.642257,10.641209,10.639786,10.638115,10.636304,10.634079,10.631058,10.627535,10.624094,10.621302,10.61945,10.618488,10.617814,10.617292,10.616602,10.615981,10.615748,10.61584,10.616074,10.616499,10.61699,10.617467,10.617994,10.618453,10.618636,10.6186075,10.618311,10.617838,10.617061,10.61611,10.615032,10.6139145,10.612886,10.611995,10.611353,10.610864,10.610391,10.609585,10.608202,10.606217,10.603633,10.600511,10.596582,10.592424,10.588341,10.584617,10.581495,10.578958,10.576912,10.57531,10.574168,10.573648,10.573834,10.574641,10.575918,10.577582,10.579066,10.580236,10.580822,10.580458,10.57932,10.578314,10.578255,10.578783,10.579662,10.579917,10.578668,10.575809,10.571831,10.567162,10.5619955,10.555241,10.546658,10.537061,10.527197,10.517646,10.509405,10.501915,10.494426,10.48707,10.480637,10.475723,10.47224,10.469714,10.467487,10.465253,10.462844,10.460317,10.45803,10.456621,10.456555,10.457611,10.459812,10.462748,10.465747,10.468544,10.471044,10.473177,10.475069,10.47591,10.475901,10.475432,10.475225,10.475508,10.476141,10.477358,10.479235,10.482051,10.48495,10.488125,10.491665,10.495455,10.499768,10.50403,10.508737,10.513502,10.518896,10.523801,10.526895,10.528698,10.529672,10.530437,10.531703,10.5335455,10.535671,10.537703,10.539452,10.541137,10.543012,10.5447035,10.546024,10.546486,10.545783,10.543918,10.540889,10.53742,10.533547,10.529731,10.526256,10.523173,10.520227,10.517069,10.513913,10.510681,10.508394,10.50586,10.502407,10.498258,10.49362,10.489331,10.484554,10.4799595,10.47521,10.472202,10.471394,10.470712,10.470482,10.470179,10.469686,10.468,10.464849,10.460698,10.45589,10.450537,10.445016,10.438728,10.432482,10.426975,10.42263,10.419626,10.417866,10.417193,10.417755,10.417385,10.415386,10.411926,10.4077,10.404129,10.403231,10.4045315,10.406614,10.407257,10.405092,10.400469,10.394947,10.390182,10.386683,10.3843975,10.38353,10.382593,10.379833,10.374797,10.368033,10.36,10.350626,10.340383,10.329346,10.317108,10.303845,10.290766,10.277963,10.265941,10.255001
10.607713,10.610833,10.620499,10.633613,10.644979,10.651445,10.652653,10.649613,10.645328,10.640244,10.635298,10.630831,10.627128,10.624457,10.622628,10.621364,10.620325,10.61917,10.617443,10.615315,10.613269,10.611595,10.610509,10.60976,10.609381,10.609306,10.609701,10.610696,10.6121435,10.613699,10.615233,10.616483,10.617172,10.617169,10.616478,10.615291,10.613949,10.612351,10.610838,10.609562,10.608616,10.607908,10.607298,10.606777,10.606369,10.6061325,10.606049,10.605985,10.605747,10.605315,10.604828,10.604276,10.603717,10.603237,10.602687,10.601891,10.600876,10.599803,10.598755,10.597736,10.596571,10.595247,10.593742,10.592159,10.59068,10.589385,10.588282,10.587225,10.586182,10.585082,10.58374,10.582025,10.579975,10.577501,10.57453,10.571193,10.567683,10.564345,10.561471,10.559064,10.557138,10.555485,10.553958,10.55252,10.551119,10.549739,10.548393,10.547139,10.545906,10.544591,10.543204,10.54159,10.539661,10.537516,10.535261,10.532907,10.530481,10.528057,10.525869,10.52423,10.523312,10.52312,10.52359,10.524286,10.524749,10.52455,10.523698,10.522382,10.520731,10.518898,10.516574,10.5134115,10.509718,10.506074,10.503061,10.501001,10.499844,10.499011,10.498349,10.497549,10.496846,10.496539,10.496557,10.496718,10.497025,10.497355,10.497629,10.497941,10.498244,10.498393,10.498442,10.498299,10.497994,10.497395,10.4965925,10.495654,10.494699,10.49385,10.493162,10.492785,10.492619,10.492527,10.492136,10.491132,10.489422,10.487018,10.484017,10.480144,10.475911,10.471595,10.467491,10.463905,10.4609165,10.458451,10.45648,10.454982,10.454101,10.453915,10.454345,10.455255,10.456547,10.45766,10.458469,10.45874,10.458208,10.457068,10.456114,10.456097,10.456672,10.457552,10.457885,10.456967,10.454746,10.451614,10.447861,10.4435835,10.437724,10.430027,10.421319,10.412344,10.403547,10.395717,10.388296,10.38047,10.372448,10.365199,10.359519,10.35547,10.3526325,10.350321,10.348174,10.345976,10.34377,10.341878,10.340844,10.341051,10.34229,10.34456,10.347412,10.350269,10.352908,10.355259,10.357263,10.358999,10.3596,10.359299,10.358532,10.358002,10.358378,10.359877,10.362154,10.36512,10.369105,10.37261,10.375902,10.379392,10.383092,10.387218,10.39098,10.394959,10.398955,10.403619,10.407967,10.410698,10.412163,10.412773,10.4130945,10.413771,10.414908,10.416276,10.417589,10.418786,10.420182,10.421893,10.423601,10.425115,10.425887,10.425591,10.424249,10.421832,10.419063,10.415976,10.412951,10.410151,10.40759,10.405061,10.402269,10.399475,10.396595,10.394564,10.392176,10.388732,10.384474,10.379669,10.3751955,10.370368,10.365778,10.361297,10.358753,10.358525,10.358646,10.359333,10.360219,10.361328,10.361652,10.360765,10.3588295,10.355889,10.351991,10.347648,10.342417,10.336642,10.330933,10.32585,10.321766,10.318837,10.317031,10.316283,10.314564,10.31118,10.306376,10.300938,10.296195,10.293873,10.2933855,10.293412,10.291935,10.28803,10.282258,10.276075,10.271288,10.26825,10.267079,10.267887,10.269088,10.268751,10.266205,10.26188,10.256315,10.249393,10.241567,10.2326565,10.221733,10.208542,10.194311,10.179303,10.165945,10.154442
10.503622,10.5084915,10.517456,10.527762,10.535903,10.539669,10.539061,10.535677,10.5314865,10.526999,10.522909,10.519303,10.516253,10.51392,10.512139,10.510764,10.509505,10.508137,10.506285,10.504128,10.502117,10.500506,10.499522,10.498896,10.498668,10.498766,10.499332,10.500458,10.501974,10.503548,10.505046,10.50621,10.5067215,10.506488,10.505571,10.5042095,10.502771,10.501146,10.499632,10.498381,10.4974375,10.496746,10.496201,10.495763,10.4954605,10.495356,10.495413,10.495499,10.495385,10.495041,10.494603,10.494057,10.4935,10.493059,10.492615,10.492005,10.49122,10.490374,10.489547,10.488734,10.487831,10.486825,10.485676,10.48447,10.483363,10.482424,10.481668,10.480978,10.480239,10.479316,10.477971,10.476067,10.473718,10.470907,10.467576,10.4639015,10.460078,10.4564495,10.4533205,10.450713,10.448627,10.446855,10.445242,10.443789,10.442426,10.441108,10.439827,10.438606,10.437326,10.435894,10.434348,10.432559,10.430491,10.428269,10.425944,10.4235115,10.420961,10.4184,10.416102,10.41441,10.4135065,10.413375,10.41392,10.41471,10.415263,10.415159,10.414375,10.413064,10.411369,10.409474,10.407045,10.403787,10.400011,10.396281,10.393187,10.391047,10.389797,10.388891,10.38815,10.387293,10.38653,10.38612,10.385991,10.385984,10.3860655,10.386107,10.386038,10.385991,10.3859825,10.385929,10.385896,10.385758,10.385483,10.38493,10.384158,10.383263,10.38239,10.38165,10.381129,10.380992,10.381146,10.381471,10.381552,10.381014,10.379711,10.377654,10.3749695,10.37134,10.367244,10.362924,10.358658,10.354803,10.351518,10.34878,10.346548,10.344787,10.343615,10.34311,10.343199,10.343742,10.344667,10.3454075,10.345849,10.345774,10.344994,10.343719,10.34265,10.342493,10.342895,10.343558,10.343776,10.342998,10.341215,10.338724,10.335716,10.332181,10.32711,10.3202715,10.312483,10.304461,10.296532,10.289253,10.282072,10.274141,10.265701,10.257861,10.251573,10.2470255,10.243879,10.241449,10.239322,10.237257,10.235296,10.233729,10.233034,10.23351,10.234936,10.2372875,10.240077,10.242776,10.245219,10.247358,10.24914,10.250644,10.251043,10.250587,10.249695,10.24911,10.24948,10.250944,10.25319,10.256174,10.260027,10.264219,10.268517,10.272739,10.276987,10.281544,10.28521,10.28879,10.292394,10.296628,10.30048,10.302804,10.304041,10.30436,10.304297,10.304394,10.304826,10.30546,10.306102,10.3068075,10.307983,10.309523,10.3111315,10.312668,10.313521,10.313354,10.31227,10.310253,10.307967,10.305419,10.302945,10.300611,10.298418,10.296221,10.293749,10.291284,10.28872,10.286889,10.284605,10.281202,10.276912,10.272027,10.267439,10.262547,10.257881,10.253484,10.25114,10.25119,10.251787,10.253102,10.254811,10.256892,10.258677,10.25968,10.259683,10.258514,10.25627,10.253441,10.249522,10.244618,10.23929,10.234152,10.22969,10.226233,10.2238865,10.222363,10.219846,10.215713,10.210128,10.203832,10.198153,10.19462,10.192577,10.190758,10.187343,10.181795,10.174875,10.167947,10.162778,10.159636,10.158804,10.160356,10.162813,10.164235,10.163727,10.161525,10.158168,10.153448,10.147821,10.141024,10.130839,10.116732,10.102187,10.088069,10.074953,10.063218
10.407309,10.4126,10.420035,10.427463,10.432458,10.433801,10.431882,10.428081,10.4240055,10.419973,10.416494,10.413513,10.410997,10.40904,10.407482,10.406221,10.40502,10.403721,10.401988,10.400002,10.398181,10.396745,10.39589,10.395385,10.395247,10.395395,10.395979,10.397068,10.398483,10.399935,10.401294,10.402302,10.402637,10.402225,10.401172,10.399729,10.398288,10.396751,10.395351,10.394253,10.393469,10.392944,10.392592,10.392351,10.39222,10.392241,10.39236,10.392437,10.392258,10.391798,10.3912115,10.390493,10.389784,10.389221,10.388741,10.388204,10.387585,10.386958,10.386366,10.385815,10.385248,10.384658,10.383951,10.383173,10.382448,10.381807,10.3812895,10.380826,10.380245,10.379381,10.377972,10.375876,10.373246,10.370122,10.366473,10.362495,10.358415,10.354584,10.3513155,10.348621,10.346481,10.344689,10.343072,10.341641,10.340312,10.339022,10.337768,10.336542,10.335197,10.333637,10.331941,10.330001,10.327828,10.325576,10.323258,10.32085,10.318301,10.315744,10.313454,10.311764,10.310854,10.310715,10.3112,10.311893,10.312334,10.3121395,10.311276,10.309879,10.308107,10.306146,10.303638,10.300361,10.296616,10.292953,10.289924,10.287817,10.28657,10.285639,10.284852,10.283945,10.283112,10.282586,10.282304,10.282105,10.281931,10.281658,10.281232,10.280835,10.280532,10.28028,10.28015,10.279988,10.279696,10.2791395,10.278347,10.2774315,10.276557,10.275843,10.275394,10.275369,10.275698,10.276262,10.2766485,10.276466,10.275555,10.273885,10.27161,10.268377,10.264592,10.260445,10.256208,10.252263,10.248846,10.245977,10.243627,10.241746,10.240422,10.239689,10.239472,10.239673,10.240215,10.240557,10.240549,10.240023,10.238839,10.237212,10.235813,10.235296,10.235295,10.235544,10.235485,10.234737,10.233325,10.2314415,10.229167,10.226364,10.222101,10.216154,10.209293,10.20221,10.195159,10.188515,10.181691,10.173908,10.165351,10.1572,10.150535,10.14563,10.142193,10.139621,10.137431,10.1354,10.133577,10.132233,10.131783,10.1324625,10.134036,10.136423,10.139136,10.141676,10.143897,10.14579,10.147326,10.148575,10.148745,10.148112,10.14707,10.146372,10.146681,10.148114,10.150345,10.153379,10.157292,10.161512,10.165768,10.169853,10.173828,10.178081,10.182026,10.186289,10.190961,10.196042,10.199947,10.201804,10.202779,10.202848,10.202503,10.202227,10.202195,10.202307,10.202441,10.20271,10.203543,10.204852,10.206297,10.207734,10.20854,10.20836,10.207324,10.205481,10.203443,10.201157,10.198924,10.196797,10.194766,10.192685,10.190336,10.188068,10.185749,10.184067,10.181871,10.178542,10.174311,10.169472,10.164951,10.16016,10.155612,10.15146,10.149392,10.149688,10.150611,10.152307,10.154577,10.157448,10.160154,10.16225,10.163513,10.163706,10.162924,10.161346,10.158737,10.154906,10.150358,10.1456995,10.141405,10.137941,10.13555,10.13384,10.131122,10.126788,10.120966,10.11435,10.108193,10.1038885,10.100745,10.09756,10.0926895,10.085907,10.078159,10.070686,10.065031,10.061475,10.060483,10.062126,10.06512,10.067669,10.068719,10.06825,10.0668125,10.063761,10.059313,10.052835,10.043379,10.031239,10.018207,10.005075,9.992454,9.980772
10.308524,10.313282,10.318453,10.322583,10.324348,10.323395,10.320348,10.316288,10.312405,10.308764,10.305754,10.303265,10.301247,10.299746,10.298553,10.297588,10.2966795,10.295695,10.294311,10.29269,10.291216,10.290053,10.289381,10.288977,10.288857,10.288965,10.289427,10.290312,10.291485,10.2926855,10.293796,10.294571,10.294684,10.294092,10.292913,10.291413,10.290007,10.288584,10.287341,10.286461,10.285923,10.285677,10.28563,10.285668,10.285771,10.285947,10.286087,10.2860775,10.28572,10.285016,10.28418,10.283201,10.282237,10.281449,10.280834,10.280305,10.279831,10.279437,10.279122,10.2788725,10.278721,10.278626,10.278447,10.278161,10.277825,10.277429,10.277056,10.276695,10.276159,10.275258,10.2737255,10.271432,10.268531,10.265135,10.261195,10.256967,10.252705,10.248771,10.245479,10.242821,10.24074,10.239006,10.23746,10.236076,10.234772,10.233487,10.232192,10.230888,10.229414,10.227696,10.225807,10.223688,10.221413,10.219165,10.216925,10.214638,10.212211,10.209783,10.20761,10.205993,10.205094,10.204899,10.205222,10.20569,10.205865,10.2054405,10.204397,10.202853,10.200963,10.198918,10.196358,10.19312,10.18951,10.186035,10.183197,10.181243,10.180064,10.179152,10.178343,10.1773815,10.176456,10.175789,10.175314,10.17488,10.174423,10.173794,10.172988,10.172228,10.171621,10.171169,10.17094,10.170738,10.170425,10.169846,10.1690235,10.16806,10.167141,10.166392,10.165938,10.165924,10.1663,10.1669655,10.1675005,10.167549,10.166984,10.165731,10.163926,10.161207,10.157858,10.15401,10.149923,10.146001,10.142528,10.139622,10.137255,10.135342,10.133945,10.133053,10.132553,10.132387,10.132515,10.132388,10.131862,10.130763,10.129019,10.126883,10.1249695,10.123909,10.123337,10.123009,10.122544,10.121758,10.120709,10.119464,10.117973,10.115976,10.112577,10.107579,10.101705,10.095604,10.089485,10.083561,10.077241,10.069786,10.061317,10.053046,10.0461235,10.040888,10.03711,10.034296,10.0318985,10.029752,10.027914,10.026648,10.026321,10.027094,10.028696,10.031031,10.033592,10.03589,10.037805,10.039355,10.040553,10.041457,10.041354,10.040489,10.039252,10.03839,10.0385475,10.039845,10.041952,10.04491,10.048771,10.052967,10.057214,10.061248,10.065079,10.0690775,10.07278,10.076741,10.08105,10.086082,10.090681,10.093704,10.0955925,10.096452,10.096745,10.096384,10.095966,10.095676,10.095419,10.09535,10.09585,10.096794,10.097825,10.098876,10.099326,10.0988245,10.097544,10.095607,10.093575,10.091362,10.089197,10.087124,10.08515,10.08317,10.081001,10.078946,10.076875,10.075346,10.073287,10.070147,10.066118,10.061462,10.057113,10.052462,10.047995,10.043925,10.041898,10.0421915,10.043189,10.045065,10.047699,10.051086,10.054568,10.057535,10.059781,10.061226,10.061744,10.061394,10.0601015,10.057479,10.053999,10.050189,10.046433,10.04331,10.04119,10.03967,10.037204,10.033186,10.027683,10.021306,10.015194,10.010563,10.006796,10.002701,9.996923,9.989614,9.981041,9.971574,9.963903,9.958658,9.956936,9.9586935,9.96248,9.966253,9.968565,9.969119,9.968652,9.96698,9.96456,9.960253,9.95294,9.943021,9.931843,9.920132,9.908369,9.897008
10.208331,10.211536,10.213982,10.2149315,10.213954,10.211268,10.207549,10.203516,10.199956,10.196744,10.194173,10.192143,10.190627,10.189637,10.188913,10.188372,10.187862,10.187294,10.186368,10.185216,10.1841545,10.183315,10.182818,10.182473,10.182293,10.182224,10.182417,10.182959,10.183741,10.184573,10.185357,10.185841,10.18571,10.184936,10.183619,10.182026,10.180622,10.179258,10.178126,10.177415,10.17708,10.177082,10.177331,10.177646,10.177983,10.178317,10.178476,10.178369,10.177839,10.176925,10.175873,10.1746855,10.173502,10.1725,10.17173,10.171161,10.170784,10.1705885,10.170532,10.170595,10.170874,10.17129,10.171642,10.171829,10.171821,10.17156,10.171201,10.170757,10.170078,10.16901,10.167297,10.164801,10.161682,10.158081,10.153946,10.149581,10.145279,10.141407,10.138263,10.135803,10.13391,10.13236,10.130977,10.129701,10.128438,10.127128,10.12575,10.124328,10.122701,10.120793,10.118681,10.116372,10.114006,10.111776,10.109671,10.107595,10.105425,10.103273,10.10135,10.099916,10.099121,10.098912,10.099084,10.099326,10.099238,10.0986,10.097405,10.095752,10.093791,10.091683,10.089091,10.085934,10.082502,10.079279,10.0767,10.074927,10.073844,10.072952,10.072093,10.071043,10.070002,10.069189,10.068523,10.067861,10.067134,10.066179,10.065039,10.0639715,10.063137,10.062559,10.062285,10.062086,10.06182,10.061281,10.060476,10.059501,10.058532,10.057713,10.057175,10.057065,10.057323,10.057873,10.058332,10.058409,10.05802,10.057056,10.0556345,10.053358,10.050403,10.046835,10.042905,10.039026,10.035543,10.032629,10.030254,10.028309,10.026826,10.025741,10.024923,10.024374,10.024048,10.023453,10.022421,10.020771,10.018475,10.015803,10.013329,10.011663,10.010443,10.009493,10.008594,10.007747,10.00706,10.006473,10.005788,10.004646,10.002159,9.998153,9.9932575,9.988096,9.982872,9.977662,9.971901,9.964918,9.956726,9.948512,9.9414425,9.935892,9.93171,9.928511,9.925741,9.923304,9.921286,9.919951,9.919629,9.920394,9.921934,9.924131,9.92645,9.928407,9.929912,9.931023,9.931786,9.932287,9.931858,9.930727,9.929293,9.92825,9.928206,9.929272,9.931126,9.933852,9.937496,9.941542,9.945713,9.949701,9.953435,9.957237,9.960611,9.964098,9.967818,9.972367,9.976923,9.980328,9.982631,9.98393,9.984726,9.985002,9.985165,9.985228,9.985101,9.985078,9.985626,9.986676,9.987905,9.988712,9.9886465,9.987684,9.986039,9.983877,9.981718,9.979441,9.97723,9.9751215,9.973134,9.971199,9.96916,9.967284,9.96539,9.963945,9.962002,9.959084,9.955339,9.950996,9.946941,9.942517,9.938193,9.934179,9.9321,9.932276,9.9331875,9.935029,9.937782,9.941376,9.945307,9.948914,9.951852,9.95405,9.955476,9.956142,9.9560175,9.954597,9.952324,9.949597,9.946673,9.94418,9.942525,9.94139,9.939426,9.936109,9.931452,9.925929,9.92047,9.91607,9.912237,9.907996,9.901382,9.892409,9.882109,9.871521,9.862843,9.85633,9.853409,9.854203,9.857566,9.861629,9.86478,9.866465,9.867291,9.867343,9.867094,9.865183,9.860361,9.852909,9.84392,9.834025,9.823488,9.812799
10.110768,10.11162,10.111265,10.109546,10.106624,10.10297,10.099101,10.095386,10.092281,10.089526,10.08737,10.085763,10.084713,10.084221,10.083996,10.083922,10.083851,10.083719,10.083255,10.082565,10.081908,10.081362,10.080994,10.080643,10.080305,10.079934,10.079725,10.079795,10.080093,10.080486,10.080896,10.081053,10.080681,10.079739,10.078291,10.076597,10.075135,10.073745,10.072627,10.071945,10.071656,10.071756,10.072169,10.072674,10.073189,10.073667,10.07387,10.07372,10.073122,10.072149,10.071047,10.069821,10.068579,10.067493,10.066639,10.066048,10.0657425,10.065697,10.065862,10.066203,10.066857,10.06772,10.068532,10.069113,10.069346,10.0691185,10.068654,10.067984,10.067009,10.065661,10.063728,10.061057,10.057801,10.054098,10.049886,10.045496,10.041274,10.03759,10.0347,10.03252,10.030886,10.029577,10.028392,10.027247,10.026038,10.024698,10.02323,10.021688,10.019926,10.017882,10.015619,10.013203,10.010825,10.008693,10.006782,10.005003,10.0031805,10.0014,9.999813,9.998634,9.997983,9.997786,9.997852,9.997913,9.997644,9.996888,9.995654,9.994014,9.992092,9.990008,9.987467,9.98444,9.981215,9.978254,9.975918,9.974288,9.973251,9.972309,9.971317,9.970098,9.968889,9.96792,9.96709,9.966241,9.965318,9.964142,9.962788,9.96155,9.960621,9.960025,9.959788,9.959654,9.959488,9.959047,9.958304,9.957331,9.956301,9.955354,9.954643,9.954313,9.95429,9.954519,9.9546795,9.954559,9.954125,9.953257,9.95204,9.950037,9.947335,9.943946,9.940105,9.936247,9.932749,9.929804,9.927378,9.925345,9.923702,9.9223585,9.921191,9.920244,9.919501,9.9185295,9.917121,9.915081,9.912388,9.9093,9.90634,9.90411,9.902258,9.900688,9.899322,9.898361,9.897968,9.897968,9.898048,9.897741,9.896175,9.8931675,9.889236,9.884968,9.880579,9.876055,9.870872,9.864443,9.856668,9.848643,9.841503,9.835635,9.830965,9.827225,9.823905,9.820997,9.818641,9.817108,9.816682,9.817353,9.818763,9.820749,9.822764,9.824316,9.825351,9.825969,9.826244,9.826309,9.825528,9.82411,9.822451,9.821193,9.820874,9.821584,9.823037,9.825345,9.828565,9.83227,9.83622,9.840063,9.843655,9.847241,9.850292,9.853311,9.856476,9.860397,9.864424,9.867572,9.869874,9.871317,9.872353,9.873106,9.873729,9.874053,9.874024,9.874035,9.874571,9.875607,9.876802,9.8775215,9.877297,9.876149,9.874358,9.872139,9.870036,9.867913,9.865912,9.864056,9.862324,9.860621,9.858826,9.8571825,9.855412,9.853924,9.851846,9.848791,9.844951,9.840561,9.836501,9.832014,9.827565,9.823368,9.821063,9.821049,9.82189,9.823708,9.826515,9.830099,9.834053,9.837794,9.841021,9.843697,9.845826,9.847465,9.84858,9.8485565,9.847731,9.846294,9.844345,9.8425865,9.841532,9.841042,9.839867,9.837477,9.833836,9.829328,9.824749,9.82091,9.817452,9.813183,9.80625,9.79661,9.785759,9.77525,9.76638,9.75904,9.754787,9.753877,9.755815,9.759274,9.762647,9.765167,9.767147,9.768706,9.770167,9.770195,9.767616,9.762593,9.755885,9.748032,9.739046,9.729421
10.016267,10.014868,10.012302,10.008741,10.004646,10.000538,9.996744,9.99339,9.9907055,9.988338,9.986535,9.985297,9.984661,9.984621,9.984876,9.985243,9.985582,9.985831,9.985732,9.985376,9.984984,9.984593,9.984238,9.983767,9.9831705,9.982427,9.98175,9.981298,9.981086,9.981034,9.981067,9.980912,9.980346,9.979301,9.977793,9.97605,9.974525,9.973058,9.97184,9.971027,9.9706,9.970589,9.970956,9.971487,9.972062,9.972615,9.972874,9.972793,9.972305,9.971504,9.97062,9.969636,9.968626,9.967739,9.96704,9.966601,9.966464,9.966592,9.966962,9.96751,9.968413,9.969555,9.97064,9.971449,9.971804,9.971542,9.970933,9.97002,9.96874,9.9671135,9.964983,9.962201,9.958882,9.955155,9.950927,9.946542,9.942386,9.93883,9.936099,9.934078,9.932587,9.931404,9.930311,9.929222,9.928022,9.926643,9.9251,9.923476,9.921645,9.919582,9.917311,9.914929,9.912676,9.91074,9.909092,9.907654,9.906197,9.90479,9.903522,9.90256,9.902002,9.901779,9.901729,9.9016285,9.901229,9.900433,9.899262,9.897749,9.895966,9.893999,9.891606,9.888757,9.885752,9.883026,9.880875,9.879312,9.878223,9.877146,9.875945,9.87449,9.873073,9.871938,9.8709755,9.870013,9.868993,9.867719,9.866284,9.865,9.864056,9.8634815,9.863289,9.863194,9.863081,9.862677,9.861932,9.860912,9.8597765,9.858663,9.8577385,9.857142,9.856803,9.856665,9.856465,9.856074,9.855504,9.854624,9.853502,9.851658,9.849115,9.845841,9.842063,9.838215,9.834691,9.831689,9.829157,9.826972,9.825108,9.823462,9.821948,9.820639,9.819559,9.818314,9.816687,9.814465,9.811606,9.808321,9.805054,9.802395,9.800007,9.797866,9.796017,9.794848,9.7946,9.795029,9.795744,9.796182,9.795509,9.793521,9.790604,9.787281,9.78377,9.779985,9.775448,9.769657,9.762414,9.754692,9.747544,9.741363,9.736151,9.731766,9.727769,9.724266,9.721468,9.71966,9.719082,9.719641,9.720902,9.722683,9.72442,9.725612,9.726233,9.726421,9.726257,9.72592,9.72481,9.723113,9.721216,9.719705,9.719049,9.719311,9.7202425,9.721974,9.724573,9.727742,9.73127,9.734796,9.738124,9.74141,9.744103,9.746662,9.749297,9.752676,9.756316,9.759353,9.761749,9.763418,9.764682,9.76548,9.766015,9.766191,9.76602,9.765905,9.76622,9.766911,9.767608,9.768135,9.767895,9.766671,9.764815,9.762588,9.760582,9.758642,9.756863,9.755259,9.753777,9.752276,9.7506695,9.749193,9.747457,9.745827,9.7435,9.740175,9.736125,9.731619,9.72751,9.722978,9.718461,9.714169,9.711732,9.711601,9.712378,9.714131,9.716853,9.720213,9.72383,9.727224,9.730288,9.733101,9.735564,9.73785,9.739898,9.741082,9.741593,9.74139,9.740423,9.739421,9.7389345,9.739067,9.738707,9.737356,9.734938,9.731746,9.728421,9.72557,9.722962,9.719043,9.712822,9.70446,9.694891,9.6852,9.676441,9.668638,9.663394,9.6608925,9.661182,9.663493,9.666328,9.668807,9.671017,9.673134,9.675409,9.676599,9.675631,9.672552,9.667836,9.661924,9.654614,9.646384
9.92403,9.92132,9.917608,9.913147,9.908458,9.904061,9.900233,9.897022,9.894554,9.892431,9.890892,9.889969,9.889702,9.890069,9.890743,9.891478,9.892142,9.892652,9.892759,9.892536,9.892179,9.891737,9.8912325,9.890518,9.889607,9.888468,9.88734,9.886417,9.885731,9.885284,9.884983,9.884579,9.88389,9.882835,9.881374,9.879679,9.8781595,9.876609,9.875215,9.87416,9.873455,9.873171,9.873303,9.87368,9.874175,9.874706,9.875018,9.875099,9.874895,9.8744755,9.874061,9.873591,9.873121,9.872758,9.872537,9.872512,9.87271,9.873103,9.873671,9.874356,9.875359,9.876557,9.877674,9.878492,9.878822,9.878492,9.877772,9.876697,9.875229,9.873432,9.871197,9.868366,9.865042,9.861319,9.857076,9.852654,9.848442,9.844818,9.841997,9.839875,9.838276,9.836976,9.835778,9.834594,9.833316,9.831875,9.830289,9.828648,9.826848,9.824872,9.822727,9.820525,9.818504,9.816839,9.815506,9.814393,9.813263,9.81216,9.811115,9.810264,9.809702,9.809373,9.809144,9.808863,9.808331,9.807518,9.806444,9.805098,9.803505,9.801705,9.7995,9.796858,9.794064,9.79152,9.789478,9.78791,9.786695,9.785437,9.783991,9.782288,9.78066,9.779374,9.778325,9.777326,9.776299,9.775026,9.773611,9.772329,9.7713785,9.770789,9.770556,9.770398,9.770202,9.769673,9.768786,9.767619,9.766319,9.765031,9.7639265,9.763127,9.762564,9.762172,9.76173,9.761173,9.760528,9.759668,9.758641,9.756944,9.754548,9.75141,9.747731,9.743931,9.740413,9.737352,9.734682,9.732311,9.7302065,9.728271,9.726453,9.724867,9.723525,9.722078,9.72035,9.718124,9.715322,9.712071,9.708733,9.705826,9.703058,9.700439,9.698139,9.696687,9.696415,9.697085,9.698243,9.699288,9.699452,9.698484,9.696649,9.694376,9.691843,9.688896,9.685104,9.680043,9.673433,9.666112,9.659037,9.652591,9.64686,9.641825,9.637131,9.633014,9.62975,9.627667,9.6269655,9.62745,9.6286125,9.630276,9.631847,9.632826,9.633215,9.633146,9.63269,9.632068,9.630699,9.628774,9.626673,9.624917,9.623915,9.623713,9.6240835,9.625166,9.627041,9.629526,9.632462,9.635503,9.638437,9.64135,9.643683,9.645882,9.64816,9.651205,9.654637,9.65765,9.660159,9.662048,9.663546,9.6645,9.665111,9.665292,9.665099,9.664968,9.665174,9.665667,9.666111,9.666292,9.665681,9.664132,9.662008,9.65957,9.6574,9.655296,9.653311,9.651488,9.649793,9.648096,9.646371,9.644823,9.642983,9.641195,9.638784,9.635508,9.631652,9.627503,9.62379,9.619707,9.615673,9.611798,9.60964,9.609595,9.610245,9.611728,9.614084,9.617012,9.620129,9.623017,9.625608,9.627994,9.630151,9.632373,9.6345215,9.636148,9.637365,9.637984,9.637859,9.63757,9.637488,9.637874,9.638006,9.63764,9.6367445,9.635424,9.633948,9.63262,9.631354,9.628809,9.624152,9.617479,9.609577,9.601313,9.593347,9.585816,9.580195,9.576597,9.575348,9.576143,9.57779,9.579416,9.580964,9.582673,9.58473,9.586098,9.585852,9.58394,9.580634,9.57626,9.57049,9.5638075
9.83739,9.834058,9.829945,9.825209,9.820298,9.815715,9.811771,9.808541,9.806146,9.804125,9.80274,9.802034,9.802048,9.80274,9.803742,9.804753,9.805673,9.806346,9.806527,9.806284,9.805811,9.805177,9.804441,9.803444,9.802209,9.8007,9.799168,9.797839,9.796764,9.795971,9.795391,9.794781,9.7940235,9.7930155,9.791676,9.790122,9.78867,9.787066,9.785497,9.784162,9.783137,9.78253,9.78237,9.782523,9.782865,9.783327,9.783685,9.783941,9.784051,9.784071,9.784188,9.784311,9.78447,9.784749,9.785127,9.785622,9.786233,9.786924,9.787689,9.788475,9.789478,9.790617,9.79162,9.7923155,9.792555,9.792138,9.791344,9.790175,9.788606,9.786732,9.784459,9.781646,9.778366,9.774683,9.770451,9.765976,9.761639,9.757822,9.754751,9.752343,9.750463,9.748882,9.747423,9.74604,9.744632,9.743126,9.741538,9.739944,9.738273,9.736485,9.734579,9.732672,9.730974,9.729638,9.728618,9.72781,9.726956,9.726086,9.725183,9.72435,9.723694,9.723178,9.72273,9.722224,9.721538,9.720694,9.7197075,9.718526,9.717134,9.715532,9.713532,9.711111,9.7085085,9.7061,9.7041,9.702461,9.701093,9.69962,9.697925,9.695969,9.694137,9.692723,9.691625,9.690649,9.689692,9.688504,9.687168,9.68595,9.685025,9.684406,9.68408,9.683794,9.68341,9.682663,9.681538,9.680129,9.678612,9.677134,9.675857,9.6749,9.674172,9.673617,9.673044,9.672406,9.671757,9.670947,9.670023,9.66847,9.666236,9.66326,9.659723,9.656021,9.652544,9.649452,9.646669,9.64412,9.641799,9.639634,9.637589,9.635801,9.634291,9.6327305,9.631006,9.628903,9.626302,9.623253,9.620016,9.617016,9.613982,9.61097,9.608249,9.606486,9.606084,9.606815,9.608252,9.609744,9.610617,9.610567,9.6097555,9.6085205,9.606957,9.604851,9.601833,9.597502,9.5915575,9.5847025,9.577782,9.571163,9.565,9.559388,9.554068,9.549387,9.545705,9.543386,9.542597,9.543045,9.544165,9.545795,9.547327,9.548252,9.5485935,9.548456,9.54787,9.547083,9.545557,9.543467,9.54118,9.539184,9.537848,9.537201,9.537037,9.537487,9.538631,9.540394,9.542671,9.545149,9.547606,9.550098,9.552083,9.553978,9.556009,9.55884,9.562133,9.565115,9.5676565,9.56966,9.571297,9.572351,9.573015,9.573221,9.573046,9.572928,9.573072,9.573429,9.573689,9.573645,9.57281,9.571076,9.568803,9.566242,9.564002,9.56179,9.559643,9.557621,9.555707,9.553811,9.551946,9.550284,9.548321,9.54637,9.543851,9.540561,9.536781,9.532833,9.52937,9.525619,9.521985,9.518513,9.51668,9.516784,9.517384,9.518685,9.520733,9.523265,9.525883,9.528234,9.530287,9.532145,9.533849,9.53578,9.537741,9.539445,9.540956,9.542016,9.542423,9.542613,9.54286,9.543507,9.54401,9.544339,9.544625,9.544884,9.545034,9.545159,9.545296,9.544239,9.541328,9.536607,9.530688,9.524248,9.51759,9.510778,9.505238,9.501004,9.498488,9.497732,9.497914,9.498259,9.498638,9.499331,9.500502,9.50135,9.501126,9.499711,9.497257,9.493976,9.489513,9.48432
9.748169,9.744721,9.740667,9.736009,9.731081,9.726383,9.722303,9.7189865,9.716552,9.714497,9.713102,9.712415,9.712489,9.713296,9.714452,9.715623,9.716681,9.71743,9.717596,9.71722,9.716516,9.715599,9.714567,9.713274,9.711737,9.70991,9.708049,9.706369,9.704939,9.703841,9.702983,9.7021885,9.701406,9.7005205,9.699412,9.698121,9.696824,9.695251,9.693569,9.691999,9.690679,9.689756,9.689292,9.689198,9.689358,9.689703,9.690052,9.690421,9.690752,9.691099,9.691639,9.692257,9.693003,9.693917,9.694919,9.695969,9.697018,9.697998,9.6989355,9.699797,9.700762,9.70176,9.702583,9.7031145,9.703232,9.702745,9.701911,9.700693,9.699089,9.697196,9.69495,9.692229,9.689076,9.685509,9.681364,9.676876,9.672405,9.668342,9.664932,9.662128,9.65985,9.657869,9.656065,9.654405,9.652817,9.651248,9.6496935,9.6481905,9.646693,9.645168,9.643591,9.642054,9.640739,9.639761,9.63905,9.638508,9.637877,9.637158,9.636321,9.635437,9.634598,9.633816,9.633064,9.632269,9.631366,9.630424,9.629465,9.628406,9.627183,9.625775,9.623987,9.6217785,9.619357,9.617047,9.615042,9.613299,9.611746,9.61006,9.60812,9.605946,9.603957,9.602455,9.601346,9.600445,9.599597,9.598563,9.597376,9.596272,9.595393,9.594729,9.594293,9.593842,9.593217,9.592176,9.590738,9.589041,9.587289,9.585638,9.584239,9.583186,9.582384,9.581778,9.581183,9.580571,9.579992,9.579289,9.578497,9.577122,9.575082,9.572304,9.568956,9.565402,9.561999,9.558916,9.556048,9.553375,9.5509,9.548581,9.546418,9.544546,9.542976,9.541425,9.5398445,9.537997,9.535725,9.533005,9.529968,9.526947,9.523718,9.520357,9.517228,9.515091,9.514421,9.515045,9.516547,9.518272,9.519654,9.520372,9.520509,9.520278,9.519662,9.518411,9.51618,9.512606,9.507392,9.501093,9.494432,9.487774,9.4813175,9.475249,9.469395,9.464205,9.460122,9.457567,9.456693,9.457127,9.45825,9.459934,9.461551,9.462591,9.463051,9.462997,9.462426,9.461594,9.459977,9.457769,9.455311,9.453074,9.451397,9.450312,9.449643,9.449486,9.449942,9.451001,9.452597,9.454471,9.456416,9.458461,9.460103,9.461713,9.463514,9.46615,9.469285,9.472148,9.474623,9.476641,9.478293,9.479384,9.480084,9.480332,9.480218,9.480139,9.480264,9.480533,9.48064,9.480398,9.479368,9.47748,9.475081,9.472405,9.470091,9.467728,9.465345,9.463026,9.460796,9.458624,9.456547,9.454729,9.452635,9.450546,9.447958,9.444685,9.441002,9.437247,9.433975,9.430541,9.427322,9.424311,9.422864,9.423173,9.423759,9.424874,9.426568,9.428646,9.430687,9.432414,9.4338455,9.435073,9.436201,9.437657,9.439217,9.440745,9.442284,9.443556,9.444339,9.444915,9.4454565,9.446329,9.447225,9.44813,9.449324,9.450899,9.452536,9.454071,9.45565,9.456243,9.455347,9.452929,9.449411,9.445254,9.440408,9.43497,9.429962,9.425474,9.42195,9.419684,9.418274,9.417084,9.415953,9.415209,9.414954,9.414719,9.413982,9.412569,9.410554,9.408001,9.404634,9.400846
9.656057,9.653032,9.649501,9.645275,9.640544,9.635811,9.631573,9.628076,9.625488,9.623251,9.62167,9.620763,9.620618,9.621258,9.622287,9.623379,9.624385,9.625034,9.625025,9.624377,9.623327,9.622057,9.620703,9.619139,9.617359,9.615325,9.613243,9.611306,9.609606,9.608244,9.6071415,9.606185,9.605389,9.604662,9.603843,9.602867,9.601797,9.600332,9.598632,9.59692,9.595393,9.594223,9.5934925,9.593159,9.593126,9.593312,9.593582,9.593974,9.594401,9.594919,9.595728,9.596703,9.5978985,9.599363,9.600953,9.602538,9.60401,9.605281,9.60637,9.607276,9.608159,9.608965,9.609557,9.609879,9.609847,9.609307,9.608474,9.607286,9.605734,9.603924,9.601802,9.599265,9.596352,9.593009,9.589061,9.584686,9.580172,9.575898,9.572146,9.568915,9.566199,9.563766,9.561547,9.559566,9.557767,9.556096,9.554537,9.553111,9.55177,9.550477,9.549208,9.548022,9.547058,9.5464,9.545959,9.545634,9.545182,9.544584,9.543792,9.542843,9.541813,9.540745,9.539659,9.538526,9.53735,9.536245,9.535238,9.534213,9.5330715,9.531792,9.530151,9.5281,9.525805,9.523533,9.521459,9.519579,9.517854,9.515997,9.513885,9.511581,9.509505,9.507966,9.506887,9.506091,9.505386,9.504534,9.503516,9.502531,9.501693,9.500986,9.500429,9.499789,9.498897,9.497548,9.495792,9.493813,9.4918585,9.490091,9.488647,9.487605,9.486854,9.486334,9.485861,9.485386,9.48494,9.484369,9.483725,9.482517,9.48067,9.478106,9.474973,9.471599,9.468322,9.465289,9.462398,9.459662,9.457109,9.454731,9.452562,9.450726,9.449222,9.44781,9.44649,9.44503,9.443219,9.440946,9.438227,9.435289,9.43197,9.428353,9.424857,9.422305,9.421245,9.421551,9.422836,9.424482,9.426045,9.427237,9.428069,9.428622,9.428766,9.428249,9.426735,9.4238825,9.419432,9.413801,9.407588,9.401119,9.3946085,9.3882675,9.382039,9.376428,9.371968,9.369173,9.368206,9.368631,9.369799,9.371619,9.3734255,9.374709,9.375443,9.375632,9.375211,9.374446,9.372815,9.370535,9.367924,9.365445,9.363441,9.361948,9.360826,9.36013,9.359978,9.36039,9.361344,9.362627,9.364057,9.365663,9.366985,9.368365,9.369989,9.372471,9.375442,9.378128,9.380437,9.382335,9.383875,9.384903,9.385571,9.385822,9.385749,9.385704,9.38581,9.3860035,9.385978,9.38556,9.384367,9.382354,9.379864,9.377113,9.374705,9.372151,9.369476,9.366798,9.364186,9.361676,9.359363,9.35738,9.355173,9.353013,9.35043,9.347237,9.3436775,9.340088,9.336965,9.333787,9.330936,9.328362,9.327299,9.327807,9.328362,9.329283,9.330601,9.332201,9.333684,9.334837,9.335694,9.336332,9.336901,9.337811,9.338852,9.340019,9.341339,9.342582,9.343548,9.344359,9.34511,9.346109,9.347242,9.348565,9.350384,9.352799,9.3554535,9.358202,9.3611145,9.363381,9.364615,9.364699,9.363877,9.36238,9.359834,9.356426,9.352642,9.348507,9.344457,9.3409815,9.338061,9.335283,9.332505,9.330025,9.327955,9.326202,9.324439,9.322433,9.320274,9.317923,9.315111,9.312351
9.565443,9.562933,9.559934,9.556122,9.551565,9.546783,9.542381,9.5386915,9.535901,9.533435,9.53154,9.530223,9.52961,9.529768,9.530333,9.531027,9.531678,9.531949,9.531546,9.530494,9.52904,9.527407,9.525785,9.524034,9.522159,9.520087,9.517973,9.515971,9.514171,9.512681,9.5114155,9.510348,9.509524,9.508877,9.508245,9.50749,9.506563,9.505161,9.50345,9.501648,9.500007,9.498714,9.497849,9.497391,9.497247,9.497324,9.497549,9.497946,9.498404,9.498968,9.499867,9.500994,9.502425,9.504218,9.506195,9.508162,9.509949,9.511443,9.512644,9.513565,9.514357,9.514975,9.515341,9.515462,9.5153055,9.514746,9.513955,9.51285,9.511423,9.509766,9.507842,9.505577,9.503005,9.500003,9.496396,9.492296,9.487923,9.4836235,9.479692,9.476169,9.473115,9.470314,9.467735,9.465461,9.463453,9.461649,9.4600315,9.45861,9.457326,9.456147,9.455065,9.454103,9.453369,9.452921,9.452655,9.452473,9.452162,9.451701,9.451017,9.450109,9.449025,9.44781,9.446521,9.44516,9.443764,9.442503,9.441396,9.440303,9.4391365,9.437871,9.4362545,9.434228,9.431933,9.429607,9.427422,9.425407,9.423573,9.421642,9.419482,9.417179,9.41513,9.413614,9.412571,9.411843,9.411238,9.410502,9.409605,9.408707,9.4079,9.407169,9.406539,9.405799,9.404746,9.403219,9.40128,9.399133,9.397065,9.395262,9.393834,9.392855,9.392219,9.391839,9.39151,9.391159,9.390801,9.390289,9.389696,9.388549,9.386785,9.384344,9.381358,9.378117,9.374944,9.371972,9.369105,9.366389,9.363885,9.36161,9.359612,9.357994,9.356738,9.355644,9.354752,9.35382,9.352585,9.350852,9.348532,9.34576,9.342435,9.3386345,9.334821,9.3318405,9.330263,9.330027,9.330784,9.33198,9.333284,9.3344755,9.335527,9.336405,9.336922,9.336841,9.335816,9.333545,9.329807,9.324946,9.319422,9.313495,9.307355,9.301147,9.294885,9.289095,9.284373,9.281353,9.280279,9.28069,9.281932,9.2839365,9.285996,9.287601,9.288688,9.289183,9.288977,9.288331,9.286738,9.284418,9.281667,9.278956,9.2766485,9.274794,9.273295,9.272182,9.271559,9.27146,9.271898,9.272693,9.273689,9.274926,9.275977,9.277156,9.278601,9.280879,9.28359,9.285964,9.287939,9.289542,9.290793,9.29161,9.292138,9.292324,9.292237,9.292193,9.292277,9.2924385,9.292355,9.291871,9.2906275,9.2885895,9.286093,9.28334,9.2808895,9.27819,9.275255,9.272243,9.269284,9.266483,9.263966,9.261831,9.259547,9.257372,9.2548485,9.251779,9.248369,9.244921,9.241905,9.238933,9.236382,9.23418,9.233429,9.234057,9.234516,9.235178,9.236073,9.2371855,9.238168,9.238862,9.239299,9.239514,9.23967,9.240119,9.240683,9.241443,9.242443,9.243515,9.244504,9.245426,9.246288,9.247297,9.248489,9.249954,9.252028,9.254838,9.258031,9.261489,9.265299,9.268881,9.271987,9.274411,9.276176,9.277294,9.2771435,9.2760105,9.273889,9.270683,9.266758,9.262702,9.258772,9.254754,9.250498,9.246326,9.242411,9.23901,9.235978,9.233035,9.230301,9.227664,9.224896,9.222473
9.479155,9.476969,9.474218,9.470569,9.4660425,9.461171,9.456632,9.452804,9.449852,9.447192,9.444974,9.443182,9.441958,9.441408,9.441244,9.441259,9.441263,9.440907,9.439921,9.438368,9.436498,9.434538,9.432726,9.430892,9.429051,9.427109,9.425158,9.4233055,9.421615,9.42017,9.418876,9.417772,9.4169035,9.416223,9.415611,9.414903,9.413967,9.412525,9.410753,9.408876,9.407189,9.405894,9.405033,9.404572,9.404423,9.404475,9.404724,9.405153,9.405615,9.406151,9.406999,9.408082,9.409521,9.411381,9.413483,9.415611,9.417554,9.419161,9.420419,9.42133,9.4220295,9.422482,9.422656,9.422622,9.422398,9.421865,9.421167,9.420189,9.418943,9.4175,9.415831,9.41391,9.411746,9.40917,9.406026,9.402361,9.398329,9.394234,9.390361,9.38677,9.383568,9.380568,9.377772,9.375293,9.373117,9.371187,9.369459,9.367953,9.366598,9.365369,9.3642845,9.363357,9.362664,9.362263,9.36204,9.361908,9.361697,9.361393,9.360896,9.360168,9.35922,9.358071,9.356792,9.355397,9.353925,9.352568,9.351346,9.350122,9.348837,9.3474655,9.345735,9.343588,9.341159,9.338689,9.3363695,9.334264,9.332413,9.330526,9.328473,9.326323,9.32442,9.322996,9.321989,9.321278,9.320683,9.319962,9.319099,9.3182335,9.317436,9.316696,9.316061,9.315335,9.314287,9.312775,9.310848,9.308708,9.30666,9.304913,9.303567,9.302687,9.30219,9.301939,9.301706,9.301398,9.301011,9.3004265,9.299729,9.298488,9.296655,9.294197,9.291235,9.2880335,9.2849,9.281977,9.279152,9.276529,9.274186,9.272156,9.270489,9.269263,9.26841,9.26778,9.267433,9.267093,9.266471,9.265306,9.263408,9.2608385,9.257545,9.2536125,9.249531,9.246124,9.243949,9.242998,9.242991,9.243437,9.244086,9.244807,9.245569,9.246279,9.246732,9.246727,9.24591,9.24402,9.240881,9.236818,9.232178,9.227114,9.221767,9.216118,9.210189,9.2044935,9.199634,9.196398,9.195175,9.195533,9.196838,9.199017,9.201334,9.203255,9.20466,9.205431,9.205438,9.204911,9.203371,9.201038,9.19817,9.195254,9.192679,9.190525,9.188737,9.187323,9.186369,9.185918,9.185988,9.186435,9.187124,9.188089,9.188945,9.18995,9.191199,9.1932125,9.195564,9.197502,9.199025,9.200198,9.201037,9.20153,9.20183,9.20188,9.201733,9.201642,9.201706,9.201883,9.201838,9.2014265,9.200276,9.198336,9.195934,9.19326,9.190842,9.188087,9.185002,9.181768,9.178587,9.1756115,9.172979,9.170752,9.168435,9.166285,9.163855,9.16094,9.157707,9.154388,9.15147,9.148665,9.146339,9.144407,9.1438465,9.14447,9.1447315,9.14505,9.14549,9.1461115,9.146668,9.147049,9.147255,9.147274,9.147236,9.147416,9.1476755,9.148136,9.148858,9.149739,9.150673,9.151616,9.152491,9.153416,9.154493,9.155809,9.157759,9.1605625,9.16388,9.167589,9.171853,9.1763,9.18076,9.184962,9.188809,9.192153,9.194134,9.195145,9.194783,9.192888,9.189677,9.1857395,9.181494,9.176739,9.171398,9.165873,9.160405,9.155531,9.151281,9.14735,9.143829,9.140582,9.137442,9.134741
9.397999,9.395977,9.393269,9.389617,9.385046,9.38009,9.375462,9.371551,9.368512,9.365722,9.36327,9.361079,9.359271,9.357991,9.357032,9.356268,9.355496,9.354413,9.352786,9.350725,9.348481,9.346254,9.344326,9.342488,9.340736,9.339003,9.337311,9.335712,9.334253,9.332949,9.33173,9.330641,9.329721,9.328949,9.328244,9.3274555,9.326423,9.324888,9.323043,9.321113,9.319432,9.318198,9.317402,9.316983,9.316867,9.316924,9.317211,9.317678,9.318144,9.318632,9.319378,9.320322,9.321618,9.323363,9.325404,9.327523,9.329485,9.331115,9.33238,9.33326,9.333855,9.33414,9.334139,9.333973,9.333698,9.333225,9.332655,9.331844,9.330821,9.329628,9.328246,9.32667,9.324904,9.32276,9.320099,9.31693,9.313353,9.309607,9.305949,9.302465,9.2992735,9.2962265,9.293347,9.290773,9.2885065,9.286477,9.284631,9.282995,9.281496,9.280098,9.278868,9.27782,9.277017,9.276521,9.276236,9.276076,9.27591,9.275734,9.275429,9.274933,9.274217,9.273256,9.27212,9.270826,9.269395,9.268004,9.266681,9.265314,9.263863,9.262314,9.260393,9.258053,9.255432,9.252789,9.250353,9.248222,9.246452,9.244718,9.242897,9.2410145,9.239338,9.238052,9.2371025,9.236378,9.235734,9.234964,9.234072,9.233183,9.23236,9.231613,9.231005,9.230335,9.229395,9.22802,9.226242,9.224239,9.222317,9.220693,9.219481,9.2187395,9.218387,9.2182455,9.218068,9.217735,9.217221,9.216473,9.215568,9.2141285,9.212141,9.209588,9.206587,9.203379,9.200258,9.197383,9.194614,9.19212,9.189978,9.1882305,9.186948,9.186161,9.185741,9.185591,9.185758,9.185951,9.18587,9.18521,9.183693,9.181325,9.178088,9.174075,9.169786,9.165993,9.163222,9.161517,9.160663,9.160245,9.160057,9.160064,9.160256,9.160506,9.160616,9.160441,9.15963,9.157959,9.155289,9.151975,9.148277,9.144221,9.139865,9.134988,9.12959,9.12411,9.119157,9.11567,9.114216,9.114438,9.115743,9.118012,9.120504,9.1226425,9.124265,9.125231,9.125408,9.124999,9.123536,9.121248,9.118332,9.115286,9.112527,9.110153,9.108152,9.106524,9.105337,9.104638,9.1044445,9.104641,9.10512,9.105907,9.106646,9.107533,9.108631,9.110411,9.112427,9.113954,9.115039,9.115785,9.116214,9.116367,9.116408,9.116286,9.116031,9.115858,9.115888,9.116091,9.116135,9.115878,9.114914,9.1131525,9.110917,9.1084,9.106084,9.103375,9.100279,9.0969925,9.093756,9.090753,9.0881195,9.085886,9.083589,9.081484,9.079154,9.0764065,9.073354,9.070161,9.0673485,9.06468,9.062515,9.060746,9.060255,9.060766,9.060753,9.060688,9.06069,9.060863,9.061092,9.061299,9.061442,9.0614605,9.061419,9.061519,9.061664,9.061977,9.06252,9.063246,9.0641,9.065002,9.065813,9.066592,9.067428,9.068415,9.069989,9.072454,9.07556,9.079289,9.08374,9.088727,9.094024,9.099351,9.104632,9.109617,9.113269,9.1160755,9.11734,9.116865,9.114685,9.111338,9.107295,9.102201,9.096223,9.08978,9.083221,9.077268,9.072062,9.067281,9.062964,9.058985,9.055196,9.051917
9.322422,9.320444,9.3177185,9.314049,9.309447,9.304432,9.299745,9.295781,9.29269,9.289851,9.287281,9.28486,9.282671,9.280844,9.279224,9.277798,9.276332,9.274592,9.272409,9.269934,9.267418,9.265041,9.263083,9.261282,9.2596445,9.258099,9.2566185,9.255229,9.253962,9.252776,9.251618,9.250531,9.249551,9.248673,9.247841,9.246926,9.245779,9.244158,9.242269,9.240322,9.238682,9.237526,9.236788,9.23639,9.23628,9.236319,9.236617,9.237136,9.237655,9.238162,9.238854,9.239671,9.240804,9.24237,9.244266,9.246291,9.248205,9.24982,9.251061,9.251896,9.252371,9.252476,9.252292,9.251976,9.25162,9.251186,9.250725,9.25008,9.249268,9.248296,9.247151,9.245837,9.244361,9.242531,9.240255,9.237499,9.234333,9.230948,9.227555,9.224235,9.221121,9.218104,9.215227,9.212645,9.21036,9.2082815,9.206358,9.204629,9.202991,9.201446,9.200059,9.198867,9.197931,9.1973,9.196915,9.196693,9.196517,9.196406,9.19622,9.195881,9.195342,9.194545,9.193554,9.192377,9.191015,9.189627,9.188234,9.186751,9.185154,9.183446,9.181367,9.178847,9.176073,9.173335,9.17087,9.168793,9.16717,9.165653,9.164104,9.162517,9.161081,9.159941,9.15904,9.158298,9.157594,9.156765,9.155826,9.154893,9.154029,9.153265,9.152682,9.15207,9.151239,9.150034,9.148443,9.146598,9.144799,9.143303,9.142191,9.141562,9.141316,9.141245,9.141069,9.14065,9.139969,9.139017,9.137894,9.136256,9.13413,9.131504,9.128495,9.125325,9.122261,9.119458,9.116781,9.1144085,9.112442,9.110944,9.109975,9.109533,9.109458,9.109679,9.1102295,9.110818,9.111139,9.110867,9.109654,9.107464,9.104315,9.100274,9.09585,9.091756,9.088487,9.086127,9.084516,9.0833,9.082346,9.081697,9.081331,9.081102,9.080845,9.08045,9.07958,9.078033,9.075748,9.073104,9.070279,9.067181,9.063775,9.05967,9.054789,9.049501,9.0444145,9.040598,9.038806,9.038798,9.039991,9.042224,9.044742,9.046951,9.048659,9.049732,9.050044,9.049757,9.048424,9.046279,9.043442,9.040396,9.037569,9.035074,9.032934,9.031155,9.02978,9.028868,9.028444,9.028429,9.028745,9.029405,9.030073,9.030905,9.031936,9.033594,9.035409,9.036661,9.03743,9.03785,9.037948,9.037815,9.037626,9.037321,9.036921,9.036646,9.036603,9.036809,9.036936,9.036842,9.036091,9.034555,9.032537,9.03024,9.02812,9.025571,9.022609,9.019442,9.016333,9.013469,9.010942,9.008768,9.006517,9.004449,9.002181,8.999546,8.996626,8.993551,8.990843,8.988292,8.986262,8.984616,8.9841385,8.9845,8.984208,8.983794,8.98341,8.983217,8.983215,8.983339,8.983512,8.983626,8.983672,8.983788,8.983919,8.984169,8.984604,8.985217,8.98599,8.986834,8.987562,8.988185,8.988758,8.989382,8.990524,8.992545,8.995301,8.998867,9.003264,9.008472,9.014248,9.020318,9.026518,9.03246,9.037239,9.041332,9.043901,9.0446825,9.043544,9.040935,9.037303,9.0321665,9.025896,9.018943,9.011783,9.005239,8.999476,8.994138,8.989237,8.9846325,8.98021,8.976258
9.24614,9.244131,9.241337,9.237633,9.233012,9.227968,9.223249,9.219268,9.2161665,9.213348,9.210784,9.208309,9.205937,9.203757,9.201661,9.199712,9.197681,9.195398,9.192766,9.189979,9.187289,9.184866,9.182955,9.181231,9.179701,9.178298,9.1769705,9.175717,9.174564,9.173459,9.172342,9.171249,9.170211,9.169237,9.168295,9.167261,9.165994,9.164312,9.162412,9.160488,9.158909,9.1578245,9.157123,9.1567135,9.156563,9.156549,9.156844,9.157397,9.157976,9.158529,9.159192,9.1599045,9.160867,9.162223,9.163926,9.165813,9.167655,9.16924,9.170467,9.171249,9.171609,9.1715355,9.1711445,9.170647,9.170183,9.169764,9.169386,9.16889,9.168275,9.1675,9.1665325,9.165404,9.164123,9.162531,9.160549,9.15814,9.155336,9.152281,9.14915,9.146012,9.143014,9.140076,9.137253,9.13472,9.13248,9.130425,9.128489,9.126704,9.124983,9.123339,9.121844,9.120534,9.119464,9.118682,9.118157,9.117816,9.117573,9.117432,9.117253,9.11696,9.116495,9.1157875,9.114899,9.113817,9.112529,9.111162,9.109739,9.108192,9.106522,9.104728,9.102568,9.099972,9.097138,9.094389,9.091978,9.09003,9.088613,9.08734,9.086079,9.084787,9.083604,9.082622,9.081787,9.081047,9.080319,9.079449,9.078493,9.077558,9.076685,9.075913,9.07535,9.074787,9.074063,9.073015,9.071588,9.069882,9.0681925,9.066769,9.065707,9.065113,9.064889,9.0648,9.064548,9.063972,9.063069,9.061886,9.060528,9.0587,9.056458,9.053803,9.050834,9.04774,9.044768,9.042072,9.039495,9.037243,9.035429,9.034121,9.033388,9.0332155,9.033388,9.033885,9.03471,9.035578,9.036195,9.036212,9.035246,9.033227,9.030184,9.02617,9.021691,9.017397,9.013735,9.010828,9.0085945,9.006701,9.005104,9.003906,9.003072,9.002442,9.001869,9.00127,9.000334,8.998902,8.996979,8.994954,8.992933,8.990732,8.988219,8.984847,8.980441,8.97528,8.96997,8.96571,8.96344,8.963063,8.964017,8.966071,8.968492,8.970649,8.972325,8.973421,8.973834,8.973662,8.972529,8.970626,8.96799,8.965066,8.962278,8.959749,8.957551,8.955665,8.954137,8.953033,8.952388,8.9521675,8.952327,8.952867,8.953483,8.954279,8.955286,8.956861,8.958525,8.959589,8.960128,8.960282,8.960152,8.959797,8.959398,8.958911,8.958355,8.957941,8.957817,8.958005,8.9581995,8.95827,8.957759,8.9564905,8.954744,8.952738,8.950871,8.948597,8.94591,8.943022,8.940195,8.937587,8.935248,8.933166,8.930968,8.928893,8.926632,8.924065,8.921261,8.918308,8.915729,8.913328,8.911444,8.909922,8.909454,8.909661,8.9091015,8.908355,8.90761,8.907084,8.906874,8.906926,8.907135,8.9073515,8.907505,8.907675,8.907848,8.908086,8.908468,8.909022,8.909742,8.910549,8.911207,8.911704,8.912044,8.912324,8.913044,8.914617,8.916973,8.92026,8.924446,8.929611,8.935483,8.9418335,8.948501,8.955027,8.9605465,8.96552,8.96905,8.970874,8.970705,8.968907,8.965901,8.961035,8.954852,8.947837,8.940595,8.933975,8.928115,8.92261,8.917414,8.912353,8.907419,8.90284
9.163869,9.161767,9.158915,9.155252,9.150744,9.145826,9.141221,9.137327,9.134295,9.131571,9.129081,9.126638,9.124197,9.121804,9.119404,9.117112,9.114727,9.112114,9.10924,9.106315,9.103588,9.101201,9.099376,9.097739,9.096286,9.094962,9.093698,9.09248,9.091358,9.0902815,9.089171,9.08808,9.087015,9.085994,9.084994,9.083909,9.082613,9.080959,9.079121,9.077286,9.075797,9.074764,9.074066,9.073626,9.073404,9.073302,9.073546,9.074082,9.074673,9.075226,9.075809,9.07635,9.077061,9.078099,9.079475,9.081076,9.082693,9.084109,9.085201,9.085863,9.086059,9.085798,9.085221,9.08457,9.084039,9.083661,9.083406,9.083107,9.08271,9.082125,9.081305,9.0802965,9.079129,9.077683,9.075902,9.073755,9.0712595,9.06851,9.065642,9.062725,9.05991,9.057138,9.054471,9.052114,9.050049,9.048132,9.046278,9.044527,9.042784,9.041072,9.039465,9.038009,9.036749,9.035739,9.034972,9.034402,9.033924,9.033551,9.033149,9.03266,9.032047,9.031238,9.030307,9.029227,9.027957,9.026609,9.025214,9.023714,9.022109,9.020384,9.018319,9.015836,9.013131,9.010539,9.008323,9.006591,9.005411,9.004407,9.003444,9.002466,9.001559,9.000785,9.0001,8.999462,8.998803,8.998022,8.997172,8.996324,8.995515,8.994797,8.994269,8.993756,8.993123,8.992197,8.990897,8.989293,8.987667,8.986277,8.985218,8.984611,8.984341,8.984152,8.983741,8.98295,8.98179,8.980362,8.978778,8.9767885,8.974496,8.971905,8.969082,8.966173,8.963377,8.960836,8.958396,8.956261,8.954564,8.953381,8.9527855,8.95276,8.953062,8.953687,8.954623,8.955593,8.956346,8.956543,8.955761,8.953917,8.951029,8.947154,8.94275,8.938397,8.934506,8.931226,8.92855,8.926185,8.924154,8.922623,8.921535,8.920719,8.920027,8.919369,8.918485,8.917234,8.915669,8.914157,8.912751,8.911201,8.909283,8.906371,8.902179,8.89691,8.891192,8.886305,8.883358,8.882444,8.882998,8.884721,8.886911,8.888933,8.89053,8.891628,8.892178,8.892191,8.891373,8.889868,8.887618,8.884997,8.882404,8.87998,8.877822,8.875917,8.874303,8.873045,8.872185,8.87174,8.871716,8.8721,8.872651,8.87342,8.874428,8.87598,8.87757,8.878534,8.8789625,8.878973,8.878729,8.878249,8.877705,8.877076,8.876389,8.8758545,8.875633,8.875765,8.87597,8.876122,8.875779,8.874743,8.873267,8.871578,8.870039,8.868143,8.865889,8.863446,8.861046,8.858808,8.856717,8.854775,8.852648,8.850563,8.848298,8.8457775,8.84305,8.8402,8.837734,8.835484,8.833746,8.832339,8.831883,8.831963,8.831191,8.830184,8.829161,8.828369,8.827989,8.8279705,8.828182,8.828455,8.828681,8.828873,8.829049,8.829238,8.829538,8.830002,8.830646,8.831413,8.832011,8.832434,8.832605,8.832629,8.833006,8.834177,8.836155,8.839117,8.842985,8.847919,8.853627,8.85994,8.866724,8.873491,8.879441,8.884976,8.889222,8.8919115,8.8926525,8.891735,8.889526,8.885227,8.87953,8.872899,8.86609,8.859888,8.854345,8.849032,8.843829,8.838548,8.833298,8.828276
9.077833,9.075605,9.072741,9.069209,9.064969,9.060377,9.056055,9.052375,9.0494995,9.046918,9.0445595,9.042186,9.039718,9.037219,9.034696,9.032285,9.029798,9.027138,9.024294,9.021454,9.018845,9.01659,9.014882,9.013333,9.01193,9.010607,9.0092945,9.007995,9.006785,9.005638,9.004474,9.003359,9.00228,9.001245,9.000246,8.9991865,8.997934,8.9963875,8.994674,8.992951,8.991529,8.990505,8.989767,8.989262,8.988947,8.988743,8.988912,8.9894085,8.989998,8.990551,8.991074,8.991459,8.991925,8.992626,8.993624,8.994857,8.996146,8.997284,8.99815,8.998631,8.998643,8.998223,8.9975195,8.99678,8.996232,8.995932,8.99581,8.9957075,8.995507,8.995071,8.994333,8.9933405,8.99216,8.990735,8.989014,8.98699,8.984664,8.982111,8.979449,8.976732,8.974129,8.971578,8.969146,8.967046,8.965241,8.963557,8.961886,8.960261,8.95857,8.95685,8.95518,8.953605,8.952161,8.950898,8.9498415,8.948953,8.9481125,8.947329,8.946488,8.945572,8.944582,8.943482,8.942358,8.941155,8.939838,8.938506,8.9372015,8.935875,8.934492,8.9330225,8.931255,8.929107,8.926748,8.924497,8.922593,8.921143,8.920212,8.9194565,8.918758,8.918053,8.917412,8.916875,8.916392,8.915943,8.915456,8.914874,8.91423,8.913557,8.912877,8.912241,8.911751,8.911268,8.910677,8.909811,8.908566,8.906993,8.905367,8.903952,8.902853,8.902169,8.901764,8.901394,8.900755,8.899703,8.898279,8.896622,8.894851,8.89275,8.89048,8.888052,8.885479,8.882849,8.880308,8.877979,8.875704,8.873692,8.872075,8.870946,8.870388,8.870384,8.870685,8.871288,8.872179,8.873087,8.873822,8.874079,8.873415,8.87176,8.869105,8.865479,8.861301,8.857078,8.853166,8.849748,8.84687,8.844284,8.842099,8.840521,8.839474,8.838757,8.838211,8.837727,8.837046,8.836072,8.834871,8.833741,8.8327,8.83148,8.829796,8.827026,8.822748,8.817117,8.810798,8.805121,8.801333,8.799723,8.799732,8.800995,8.802873,8.804698,8.806164,8.807244,8.807937,8.808168,8.807738,8.806749,8.805027,8.802864,8.800617,8.798425,8.796425,8.794603,8.792992,8.791643,8.7906,8.7899275,8.789682,8.789871,8.790306,8.791022,8.792019,8.793549,8.7951,8.796026,8.796419,8.796383,8.796118,8.795595,8.794967,8.794233,8.793442,8.792804,8.792485,8.792513,8.79265,8.792775,8.79249,8.791605,8.790346,8.788966,8.78778,8.786338,8.784626,8.782742,8.780866,8.77907,8.777261,8.775485,8.773444,8.771377,8.769118,8.766627,8.763955,8.7611885,8.758818,8.756704,8.755116,8.753837,8.753424,8.753441,8.752547,8.75141,8.75022,8.74927,8.748771,8.74867,8.748829,8.7490835,8.749294,8.749431,8.749514,8.749563,8.749699,8.750001,8.750517,8.751211,8.751769,8.752166,8.752255,8.752149,8.752312,8.753172,8.754815,8.757433,8.760925,8.765501,8.770852,8.776882,8.783512,8.790237,8.7963505,8.802164,8.806903,8.810279,8.811862,8.811887,8.8106165,8.807165,8.802317,8.796487,8.790565,8.785212,8.780363,8.775577,8.770669,8.765458,8.760175,8.755015
