8.285734,8.285699,8.285972,8.285175,8.2828665,8.279564,8.275636,8.270088,8.264299,8.259239,8.253157,8.24737,8.24299,8.238747,8.235499,8.233902,8.233395,8.236154,8.241447,8.2467985,8.25568,8.2660885,8.27529,8.28587,8.298523,8.311615,8.326764,8.345737,8.364834,8.387422,8.416709,8.443327,8.464515,8.482549,8.496391,8.509382,8.5378,8.597887,8.674362,8.773038,8.874464,8.940602,8.988438,8.987117,8.946625,8.907859,8.83659,9.012371,9.429274,12.130077,15.229486,16.58084,16.948366,16.938198,17.072107,17.129549,17.197824,17.246632,17.241676,17.1524,17.01971,16.924421,16.8047,16.694944,16.625376,16.556929,16.504402,16.475227,16.443285,16.423853,16.4184,16.405277,16.410582,16.51554,16.712639,16.947626,17.1872,17.362333,17.516338,17.645939,17.722477,17.76111,17.780777,17.78712,17.795538,17.806105,17.82718,17.85737,17.895754,17.939138,17.973162,18.001144,18.005335,17.988932,17.97577,17.966125,17.973513,17.994936,18.05587,18.153355,18.249773,18.373055,18.506449,18.608723,18.700245,18.782904,18.84265,18.892998,18.969269,19.061596,19.149767,19.263512,19.360275,19.408875,19.41807,19.347582,19.227814,19.077631,18.913525,18.80025,18.727818,18.695007,18.706093,18.724098,18.74295,18.755253,18.757822,18.75282,18.743002,18.736523,18.736359,18.74452,18.760618,18.77967,18.815529,18.85437,18.880098,18.908165,18.926182,18.926947,18.908894,18.776657,18.59026,18.55399,18.269138,17.534369,16.432308,14.837789,13.632063,13.327419,13.1540165,13.131538,13.127341,13.154154,13.198582,13.228468,13.237442,13.233405,13.224032,13.2193985,13.223171,13.239283,13.260277,13.286781,13.306995,13.312004,13.305574,13.286011,13.26664,13.255292,13.267551,13.30246,13.340673,13.377245,13.391951,13.38446,13.357424,13.347254,13.373607,13.381898,13.56388,14.047427,14.823015,16.366976,17.847149,18.476269,19.067848,19.416443,19.544575,19.622547,19.655321,19.686218,19.737562,19.813622,19.887775,19.946619,20.003733,20.04636,20.077742,20.11711,20.160498,20.199663,20.25196,20.33773,20.437628,20.55016,20.688711,20.771225,20.763348,20.69079,20.39766,19.904648,19.204266,18.177378,17.142252,16.569921,16.358744,16.37555,16.471483,16.619244,16.761223,16.896772,17.043915,17.177961,17.290894,17.43548,17.611563,17.77825,17.968042,18.171825,18.328827,18.452288,18.57011,18.66218,18.74049,18.835003,18.925041,18.994736,19.084215,19.168987,19.225554,19.285042,19.351309,19.410547,19.465721,19.528944,19.585623,19.632488,19.689112,19.746511,19.794777,19.860191,19.933554,19.993446,20.054974,20.12126,20.176165,20.22272,20.275908,20.324738,20.365522,20.41508,20.466772,20.51097,20.562588,20.619387,20.667948,20.717945,20.771059,20.814154,20.851234,20.891224,20.923824,20.947504,20.973309,20.995035,21.009481,21.022738,21.032516,21.037785,21.041553,21.04518,21.049658,21.05563,21.067022,21.082962,21.099102,21.1199,21.141953,21.159958,21.18256,21.214474,21.250088,21.29152,21.353315,21.421995,21.487186,21.570286,21.653677,21.722107,21.801817,21.880747,21.941916,22.003408,22.064177,22.111721,22.153917,22.201181,22.246286,22.288837
8.283414,8.282758,8.282593,8.281474,8.279088,8.276031,8.272615,8.267932,8.263123,8.258947,8.253835,8.2487335,8.244643,8.240641,8.237381,8.235555,8.234754,8.236997,8.2416725,8.246318,8.254621,8.26475,8.273753,8.284566,8.29793,8.311813,8.327997,8.348195,8.368344,8.391999,8.422424,8.449829,8.471408,8.48957,8.502887,8.514747,8.542139,8.602509,8.680586,8.781981,8.8870735,8.956598,9.008987,9.00954,8.967444,8.925969,8.856427,9.040983,9.469402,12.194929,15.3334255,16.720823,17.081455,17.054861,17.18499,17.240948,17.283081,17.32095,17.380934,17.31163,17.158562,17.05186,16.920216,16.799335,16.72121,16.64399,16.582384,16.545574,16.506119,16.482351,16.461973,16.404902,16.39205,16.504316,16.708172,16.975859,17.240574,17.41276,17.566607,17.694485,17.76893,17.805687,17.825212,17.834724,17.848671,17.866522,17.894554,17.9296,17.972977,18.019283,18.053614,18.08145,18.083252,18.062876,18.045578,18.030436,18.032652,18.05003,18.108265,18.205019,18.30157,18.426111,18.561413,18.664944,18.756542,18.83824,18.896421,18.944798,19.019331,19.112112,19.203104,19.320002,19.420677,19.473278,19.4853,19.414755,19.292444,19.139063,18.97004,18.852053,18.776236,18.740528,18.750164,18.767723,18.78668,18.799349,18.802017,18.796879,18.786808,18.780296,18.780632,18.790106,18.808128,18.829348,18.868282,18.909325,18.935406,18.963469,18.98025,18.978888,18.957901,18.818003,18.624609,18.597088,18.307056,17.540506,16.380678,14.781747,13.608387,13.31846,13.1573925,13.140671,13.136739,13.163026,13.205614,13.233618,13.241157,13.235886,13.226138,13.221909,13.226779,13.244191,13.2660265,13.293445,13.314001,13.318618,13.311337,13.290081,13.268708,13.255392,13.2652445,13.2977705,13.333752,13.367758,13.38113,13.373992,13.349679,13.342259,13.371807,13.394697,13.60305,14.116007,14.917855,16.519861,18.026022,18.596527,19.168705,19.521212,19.645065,19.720407,19.75136,19.780094,19.825777,19.894758,19.963545,20.018824,20.072279,20.112274,20.142202,20.180609,20.223991,20.26379,20.318174,20.40834,20.513231,20.630978,20.773483,20.85071,20.821205,20.74112,20.441565,19.92606,19.14472,18.085892,17.113419,16.570713,16.386953,16.425533,16.520348,16.667885,16.81319,16.947992,17.092913,17.224941,17.337633,17.477222,17.644718,17.8043,17.993896,18.199465,18.356464,18.477089,18.59601,18.692644,18.775045,18.864548,18.947279,19.016579,19.102188,19.185537,19.24534,19.3087,19.381943,19.445847,19.495584,19.55307,19.60684,19.652006,19.70735,19.764267,19.812485,19.877916,19.951422,20.011404,20.072538,20.138481,20.193176,20.23923,20.291496,20.339302,20.379328,20.427883,20.478243,20.521006,20.570532,20.624153,20.669348,20.715708,20.76503,20.805485,20.840813,20.880068,20.913218,20.937807,20.965006,20.988424,21.004318,21.019287,21.030779,21.037191,21.041626,21.045744,21.05061,21.056978,21.069077,21.085728,21.10231,21.123154,21.14407,21.160082,21.179714,21.207535,21.239166,21.2764,21.333233,21.397255,21.45815,21.535433,21.613512,21.678577,21.755833,21.834608,21.89738,21.962084,22.027369,22.078892,22.124569,22.175701,22.223747,22.26825
8.282693,8.281388,8.280745,8.279247,8.2767,8.273808,8.270839,8.266994,8.263214,8.260025,8.256067,8.251909,8.248358,8.244836,8.2417145,8.23969,8.238546,8.240079,8.243869,8.2475815,8.254976,8.264524,8.273155,8.284016,8.29792,8.312463,8.329547,8.350821,8.371876,8.396426,8.427791,8.455852,8.477778,8.496089,8.50898,8.519821,8.546905,8.607746,8.686623,8.790929,8.900303,8.973822,9.032034,9.034362,8.991227,8.952718,8.886954,9.081188,9.526457,12.2682905,15.427734,16.8368,17.194818,17.158628,17.28494,17.338215,17.370104,17.40535,17.489809,17.444426,17.296429,17.175884,17.031351,16.898233,16.810503,16.723755,16.652725,16.60838,16.561842,16.532837,16.49967,16.409182,16.383055,16.500462,16.707394,17.003567,17.291245,17.461077,17.614424,17.740494,17.813135,17.848179,17.867487,17.879265,17.896923,17.919725,17.952208,17.989906,18.035975,18.08365,18.117865,18.145578,18.146431,18.124334,18.104866,18.086435,18.085112,18.099373,18.15501,18.250278,18.346104,18.471008,18.607094,18.710867,18.801949,18.882593,18.939648,18.986835,19.060343,19.153997,19.24808,19.368214,19.472687,19.52917,19.544376,19.474709,19.35085,19.194786,19.021132,18.898428,18.819008,18.779947,18.787651,18.804468,18.823385,18.836601,18.83974,18.834908,18.825073,18.818884,18.819935,18.830769,18.850576,18.873774,18.915474,18.958315,18.98436,19.01172,19.026659,19.022972,18.999025,18.851374,18.650364,18.629135,18.333399,17.537945,16.32509,14.726344,13.587064,13.310707,13.16136,13.1500025,13.146057,13.171232,13.212198,13.239166,13.245377,13.239009,13.228974,13.224948,13.231113,13.250092,13.272687,13.300942,13.321814,13.326087,13.317961,13.295317,13.272458,13.25761,13.265579,13.296147,13.330178,13.361686,13.373523,13.366412,13.340246,13.3343,13.370734,13.406457,13.638287,14.179273,15.007906,16.666647,18.199295,18.717697,19.268187,19.618513,19.735987,19.807924,19.837132,19.86375,19.903595,19.966978,20.03242,20.08406,20.134165,20.172266,20.201351,20.239384,20.283337,20.32431,20.381462,20.47679,20.587378,20.711594,20.858099,20.929665,20.880894,20.788488,20.48065,19.953533,19.088404,17.996292,17.095272,16.576958,16.412214,16.468493,16.558556,16.705555,16.856457,16.991425,17.136623,17.269543,17.383492,17.529232,17.696943,17.848255,18.037899,18.244814,18.401209,18.520935,18.635986,18.72689,18.804472,18.887094,18.961893,19.024134,19.097216,19.173775,19.237698,19.309547,19.397778,19.474386,19.526905,19.58536,19.63901,19.683178,19.738146,19.794052,19.840004,19.903862,19.977142,20.037891,20.099411,20.165564,20.220356,20.266687,20.319239,20.366941,20.406433,20.454103,20.502935,20.543863,20.590824,20.640953,20.682802,20.725622,20.7725,20.81228,20.847155,20.886618,20.920645,20.946213,20.974731,20.999489,21.016363,21.032265,21.044453,21.051147,21.055475,21.059366,21.06413,21.070528,21.082922,21.100086,21.117207,21.13808,21.157923,21.172174,21.18927,21.213694,21.242146,21.276325,21.329477,21.389324,21.445223,21.51596,21.588066,21.649036,21.723953,21.802921,21.86721,21.934628,22.00484,22.06168,22.111933,22.167795,22.219175,22.265808
8.282913,8.281049,8.279977,8.27813,8.275376,8.272551,8.269919,8.266793,8.26397,8.261744,8.25896,8.255827,8.252914,8.24996,8.247012,8.244768,8.243217,8.243912,8.246686,8.249373,8.255736,8.264597,8.272804,8.283636,8.297983,8.313085,8.330947,8.353123,8.374906,8.400165,8.432266,8.46085,8.48308,8.501554,8.514318,8.52475,8.552494,8.614498,8.694204,8.801179,8.914632,8.992163,9.055922,9.0603895,9.017703,8.984989,8.923624,9.127288,9.591076,12.352224,15.523556,16.93437,17.289335,17.248278,17.371763,17.42227,17.452621,17.482552,17.544796,17.534727,17.427485,17.288975,17.130936,16.985926,16.889017,16.793333,16.713863,16.663088,16.610535,16.57677,16.533203,16.41669,16.381275,16.504953,16.716885,17.033989,17.337715,17.505928,17.658207,17.782269,17.85325,17.886477,17.904882,17.917688,17.937687,17.963629,17.9988,18.03791,18.085472,18.133919,18.168133,18.196215,18.197405,18.175201,18.155027,18.134901,18.131176,18.142979,18.196224,18.289669,18.384302,18.509096,18.645287,18.748615,18.838654,18.918219,18.97462,19.021164,19.09432,19.189117,19.285969,19.408913,19.516668,19.57659,19.595287,19.5276,19.403366,19.245234,19.06747,18.940384,18.857452,18.815006,18.820683,18.836668,18.855421,18.869164,18.872885,18.86846,18.858986,18.853214,18.854996,18.867075,18.88842,18.913273,18.957214,19.001307,19.026934,19.053064,19.065702,19.059498,19.033192,18.878256,18.669113,18.651587,18.349812,17.529903,16.273085,14.676535,13.56835,13.3048725,13.166026,13.159282,13.155427,13.1795435,13.218849,13.244679,13.24967,13.242407,13.232279,13.228603,13.236193,13.256774,13.280098,13.309157,13.330445,13.3345585,13.325424,13.301729,13.278151,13.262146,13.268677,13.297684,13.330035,13.359193,13.369437,13.362136,13.329907,13.323975,13.370215,13.416936,13.668323,14.233832,15.088108,16.792543,18.348764,18.838217,19.366154,19.703953,19.815742,19.883198,19.909718,19.934612,19.972382,20.032183,20.093616,20.142017,20.189098,20.225357,20.253527,20.291035,20.335388,20.377457,20.437395,20.538015,20.65446,20.78543,20.935406,21.001055,20.934904,20.831758,20.516575,19.978207,19.041208,17.92266,17.085735,16.587942,16.437439,16.506968,16.59067,16.738039,16.89665,17.032612,17.180534,17.317497,17.435009,17.585255,17.756067,17.907982,18.098145,18.303848,18.457462,18.573921,18.683191,18.767584,18.839855,18.916868,18.985971,19.042654,19.108252,19.176167,19.233078,19.299047,19.383333,19.464874,19.543295,19.620836,19.677376,19.719193,19.773125,19.829235,19.875414,19.935738,20.006687,20.068762,20.130844,20.19757,20.252838,20.299583,20.35236,20.399979,20.43925,20.486408,20.53422,20.573887,20.619232,20.667315,20.70723,20.747934,20.792446,20.830284,20.863512,20.90149,20.934639,20.95974,20.988056,21.01294,21.030018,21.046082,21.058466,21.065336,21.06971,21.073586,21.078226,21.0844,21.09618,21.112411,21.128616,21.148235,21.166729,21.179932,21.195757,21.218473,21.244999,21.276876,21.326056,21.381304,21.432976,21.499443,21.56879,21.628471,21.704832,21.786789,21.853224,21.922592,21.995953,22.05635,22.109413,22.167618,22.219816,22.265898
8.284631,8.282159,8.280615,8.278349,8.2753105,8.272481,8.270116,8.267656,8.265802,8.264589,8.263131,8.261235,8.259144,8.256963,8.254322,8.2518635,8.249842,8.24949,8.250971,8.252354,8.257434,8.26544,8.273083,8.283818,8.298603,8.314257,8.332871,8.355886,8.37831,8.404142,8.436829,8.465857,8.488416,8.507005,8.519953,8.530958,8.559011,8.6218815,8.703246,8.812731,8.93143,9.015449,9.086533,9.093511,9.051851,9.029226,8.97375,9.188296,9.675753,12.470049,15.6529045,17.045395,17.3952,17.351595,17.471928,17.519619,17.549,17.571764,17.60293,17.629393,17.570667,17.418007,17.24559,17.08546,16.97764,16.871504,16.78222,16.724043,16.667288,16.615705,16.549297,16.419636,16.381628,16.512495,16.731216,17.072336,17.394495,17.561548,17.71275,17.834093,17.902822,17.935074,17.952341,17.964792,17.985954,18.01355,18.04972,18.08865,18.135853,18.183767,18.21769,18.246199,18.24892,18.228388,18.209051,18.18848,18.182827,18.192215,18.242302,18.33264,18.42507,18.549328,18.685308,18.787754,18.87653,18.95514,19.01127,19.057537,19.13066,19.227013,19.327312,19.45344,19.565058,19.62947,19.653196,19.588963,19.465057,19.304996,19.122396,18.989685,18.902048,18.85484,18.857403,18.871899,18.890224,18.904678,18.909296,18.905643,18.89696,18.89192,18.89458,18.908026,18.930996,18.957594,19.00344,19.048517,19.074045,19.098825,19.108362,19.098736,19.071062,18.910135,18.692007,18.67165,18.363937,17.51378,16.176105,14.595652,13.552201,13.3015375,13.17428,13.171798,13.167149,13.190755,13.228584,13.252663,13.256051,13.247637,13.237437,13.234347,13.243158,13.265419,13.290291,13.32051,13.341965,13.345445,13.335478,13.310794,13.286632,13.270912,13.276712,13.3038845,13.334407,13.360375,13.367941,13.35973,13.318211,13.307892,13.36156,13.422392,13.698545,14.294828,15.189966,16.921835,18.486519,18.985203,19.49604,19.809746,19.914654,19.974993,19.996656,20.01896,20.054018,20.10963,20.166527,20.211267,20.254715,20.288568,20.315458,20.352055,20.39669,20.44005,20.503263,20.610378,20.734177,20.875843,21.018288,21.06634,21.000395,20.883593,20.54918,20.003448,18.994848,17.851288,17.082634,16.606192,16.46351,16.53917,16.624783,16.778198,16.944199,17.081894,17.234394,17.377857,17.500948,17.656975,17.834381,17.992182,18.18416,18.386765,18.53459,18.64565,18.746174,18.82129,18.886425,18.957228,19.020756,19.07149,19.130325,19.19113,19.242159,19.3019,19.380192,19.460024,19.542807,19.63694,19.71265,19.764305,19.822794,19.880325,19.929686,19.988087,20.057123,20.12047,20.183372,20.250896,20.306728,20.354008,20.407156,20.454685,20.493532,20.539808,20.586123,20.624138,20.667482,20.71345,20.751682,20.790543,20.833021,20.869213,20.901058,20.937845,20.970398,20.99529,21.023678,21.048891,21.06629,21.082495,21.094969,21.101915,21.106209,21.109945,21.114353,21.12015,21.131004,21.145878,21.160765,21.178663,21.1955,21.207548,21.22213,21.24322,21.267847,21.29736,21.342312,21.392431,21.43916,21.499908,21.564547,21.621172,21.695753,21.779343,21.849869,21.92584,22.005125,22.068539,22.125296,22.187243,22.241753,22.288866
8.287898,8.284914,8.282932,8.280235,8.27681,8.273802,8.271449,8.2693,8.268066,8.267585,8.267215,8.266463,8.26521,8.263873,8.261663,8.259098,8.256678,8.255324,8.255548,8.255716,8.25956,8.266718,8.273831,8.284445,8.29956,8.315628,8.334736,8.358216,8.380919,8.406937,8.439821,8.469087,8.491879,8.511197,8.524998,8.536491,8.564505,8.627961,8.7110195,8.822564,8.946582,9.037858,9.116798,9.127253,9.08841,9.078822,9.030561,9.263203,9.792458,12.616814,15.791751,17.148884,17.492563,17.450115,17.567888,17.613466,17.642128,17.658846,17.66506,17.71299,17.689945,17.537025,17.354706,17.179447,17.061523,16.945667,16.84694,16.781382,16.72197,16.645372,16.549135,16.414562,16.373175,16.506092,16.731487,17.103468,17.450409,17.616623,17.768177,17.888124,17.955494,17.987656,18.004957,18.017258,18.038092,18.065191,18.09999,18.136778,18.181503,18.227436,18.260653,18.289492,18.294521,18.276924,18.259577,18.239532,18.232237,18.23901,18.285378,18.371624,18.460814,18.583847,18.719183,18.820515,18.908077,18.9858,19.04157,19.087337,19.160149,19.257957,19.361897,19.491144,19.606546,19.67559,19.705425,19.645903,19.523046,19.361927,19.17484,19.036163,18.943375,18.890768,18.88967,18.902369,18.920242,18.935806,18.941864,18.939594,18.932198,18.928074,18.93156,18.946005,18.970037,18.997818,19.044636,19.090021,19.115425,19.138973,19.145676,19.132854,19.103956,18.937952,18.711006,18.684479,18.359339,17.46777,16.046368,14.500189,13.5407505,13.301288,13.184836,13.185629,13.179692,13.203004,13.23933,13.2611885,13.262724,13.252993,13.242693,13.240284,13.250082,13.273715,13.3000765,13.331388,13.353018,13.356,13.345767,13.320803,13.296584,13.281421,13.287838,13.314558,13.343351,13.365561,13.368417,13.356457,13.306177,13.287424,13.340203,13.414918,13.715862,14.345964,15.301573,17.054308,18.610935,19.127401,19.624565,19.912788,20.00853,20.059895,20.075695,20.095398,20.128023,20.180252,20.2335,20.275187,20.315369,20.346806,20.372253,20.407557,20.452011,20.496328,20.56235,20.674824,20.804636,20.955858,21.092094,21.126417,21.067852,20.923063,20.55705,20.019241,18.958332,17.797255,17.087944,16.630486,16.48996,16.565096,16.657099,16.819107,16.991291,17.131088,17.28852,17.438845,17.567982,17.729136,17.913273,18.078339,18.270966,18.4678,18.607445,18.711687,18.802298,18.867731,18.926014,18.991718,19.051725,19.098782,19.154133,19.211975,19.26075,19.3175,19.392366,19.468678,19.54353,19.643394,19.73809,19.809492,19.877363,19.936275,19.988535,20.04818,20.117405,20.180943,20.244455,20.312653,20.368963,20.416723,20.47016,20.517447,20.555647,20.600723,20.64528,20.681543,20.722834,20.76679,20.803576,20.840916,20.881842,20.916893,20.947859,20.984095,21.016726,21.042042,21.071291,21.09765,21.116028,21.133106,21.146435,21.154072,21.158928,21.16312,21.167654,21.173283,21.183348,21.19688,21.210394,21.226578,21.241816,21.252811,21.266266,21.285889,21.3088,21.336115,21.377167,21.422506,21.464594,21.519634,21.579163,21.632198,21.703438,21.786873,21.860453,21.94194,22.027359,22.095116,22.156471,22.22313,22.28124,22.331379
8.291484,8.288152,8.285825,8.282744,8.278895,8.275573,8.273011,8.27081,8.269785,8.269661,8.269958,8.27003,8.269457,8.26884,8.267067,8.264506,8.261831,8.25973,8.25901,8.258343,8.261245,8.267723,8.274483,8.28502,8.300352,8.316679,8.3360195,8.35961,8.382276,8.408174,8.440974,8.470327,8.493234,8.513989,8.529081,8.540051,8.5680685,8.632136,8.716082,8.829362,8.957617,9.054528,9.140213,9.15489,9.120321,9.12292,9.082123,9.339786,9.926307,12.763576,15.90834,17.229586,17.568266,17.52923,17.64541,17.689657,17.717817,17.731558,17.72599,17.77838,17.770998,17.628666,17.442152,17.255096,17.129776,17.00658,16.90023,16.828314,16.766146,16.669836,16.548828,16.405975,16.353851,16.482332,16.712677,17.119417,17.495264,17.660654,17.814074,17.934769,18.002363,18.034552,18.053368,18.067028,18.086945,18.112509,18.144852,18.178822,18.220482,18.264055,18.29641,18.325441,18.332548,18.317625,18.302118,18.282518,18.273504,18.27744,18.320229,18.402557,18.488367,18.60976,18.744263,18.844707,18.93132,19.008099,19.06305,19.107712,19.179611,19.27836,19.385414,19.51734,19.63586,19.708645,19.744242,19.689413,19.567812,19.4065,19.216036,19.072266,18.974997,18.91763,18.913317,18.924524,18.94219,18.959126,18.966932,18.966381,18.960434,18.957129,18.96123,18.976133,19.000475,19.028666,19.075706,19.12086,19.145758,19.16828,19.173183,19.15831,19.127335,18.956148,18.721615,18.691372,18.336052,17.39686,15.925255,14.419728,13.532259,13.302256,13.194484,13.197742,13.191008,13.213697,13.248264,13.267989,13.267777,13.25681,13.24638,13.24453,13.255277,13.279881,13.306855,13.338828,13.360884,13.363992,13.353917,13.329428,13.305643,13.289866,13.29773,13.325883,13.353204,13.372017,13.369076,13.350788,13.295306,13.268127,13.313589,13.3986435,13.718958,14.380474,15.405352,17.189209,18.732803,19.239735,19.721025,19.992706,20.077919,20.120703,20.13152,20.149426,20.180706,20.23111,20.28218,20.32192,20.359865,20.389446,20.413652,20.447634,20.491518,20.536211,20.60402,20.719364,20.85216,21.007616,21.150154,21.186829,21.12588,20.940071,20.540691,20.024012,18.932186,17.760649,17.096529,16.654375,16.515991,16.590315,16.68514,16.852781,17.030231,17.17186,17.33291,17.488224,17.622044,17.786413,17.97416,18.14305,18.333748,18.523638,18.655355,18.753124,18.835356,18.893372,18.946829,19.009226,19.0679,19.114182,19.169083,19.226845,19.275688,19.332672,19.408161,19.485344,19.561611,19.658993,19.756327,19.8452,19.922369,19.982067,20.034004,20.096474,20.167528,20.230127,20.293793,20.362364,20.418974,20.467024,20.520535,20.567432,20.604958,20.648859,20.691849,20.726646,20.766233,20.808407,20.843788,20.879736,20.919285,20.95338,20.983679,21.01966,21.052723,21.078802,21.1094,21.1375,21.157396,21.176117,21.191202,21.200298,21.206543,21.211998,21.217188,21.223047,21.232769,21.245363,21.257807,21.272692,21.286743,21.296947,21.309454,21.327808,21.349241,21.374651,21.412382,21.45384,21.492355,21.543255,21.599339,21.650087,21.719639,21.802357,21.875832,21.95683,22.045444,22.119066,22.184755,22.255474,22.316929,22.37053
8.296682,8.293078,8.290426,8.286936,8.282561,8.278765,8.275774,8.273215,8.27211,8.272123,8.272823,8.273537,8.27359,8.273662,8.272356,8.269866,8.266994,8.264208,8.2626095,8.261203,8.263239,8.269078,8.27554,8.286077,8.301689,8.3183,8.33788,8.361559,8.384151,8.409874,8.442571,8.472038,8.4951,8.517198,8.533707,8.544777,8.573145,8.637766,8.722366,8.837728,8.97048,9.073165,9.167169,9.186424,9.155918,9.172319,9.143078,9.433607,10.0880995,12.938629,16.041262,17.31235,17.646786,17.614468,17.72802,17.770487,17.79728,17.808527,17.795267,17.852621,17.857449,17.721773,17.530794,17.33375,17.202133,17.072409,16.95855,16.879879,16.814665,16.699059,16.554525,16.405457,16.339989,16.461397,16.69897,17.141949,17.548126,17.713945,17.868965,17.99033,18.058678,18.090923,18.11131,18.12606,18.144127,18.166878,18.195494,18.225718,18.26318,18.303635,18.33498,18.364204,18.373878,18.3624,18.349463,18.330822,18.320112,18.320965,18.359575,18.437593,18.520164,18.63887,18.772636,18.873787,18.95973,19.035543,19.089558,19.132809,19.203426,19.302883,19.412958,19.547777,19.669968,19.74707,19.788567,19.738901,19.619331,19.457998,19.263884,19.114462,19.01214,18.949318,18.941242,18.95062,18.96821,18.986904,18.996721,18.998428,18.994423,18.992064,18.996672,19.011618,19.035662,19.063583,19.109953,19.154274,19.178604,19.199724,19.202515,19.185593,19.15205,18.9782,18.739107,18.70006,18.312597,17.323639,15.787815,14.329503,13.52809,13.307557,13.206126,13.211107,13.20639,13.2284565,13.260545,13.277757,13.275587,13.263319,13.252856,13.251717,13.263576,13.289289,13.3169775,13.349598,13.371977,13.3751335,13.365225,13.341589,13.318531,13.301151,13.311235,13.342243,13.367449,13.385634,13.378017,13.349619,13.289153,13.254814,13.29299,13.387038,13.725852,14.430416,15.573841,17.381731,18.875732,19.380764,19.841328,20.088436,20.16227,20.193666,20.197119,20.21235,20.241455,20.289505,20.338234,20.375956,20.411589,20.43929,20.462282,20.494856,20.537918,20.582659,20.651558,20.76853,20.902924,21.06002,21.213003,21.257868,21.191832,20.953243,20.513783,20.027588,18.90615,17.722973,17.105656,16.678823,16.54363,16.618874,16.715815,16.887663,17.069674,17.213837,17.378925,17.539322,17.677933,17.846182,18.037472,18.209057,18.39692,18.579208,18.702282,18.791107,18.86466,18.916634,18.96526,19.023241,19.079727,19.125792,19.180803,19.23905,19.288343,19.345797,19.422125,19.500412,19.57797,19.6766,19.7757,19.866447,19.959608,20.032799,20.081707,20.144283,20.215124,20.276648,20.341028,20.410168,20.466679,20.514973,20.568531,20.61496,20.651642,20.694145,20.735268,20.768297,20.805819,20.84579,20.879383,20.913488,20.951122,20.983791,21.013006,21.048246,21.081306,21.107826,21.139343,21.168776,21.189928,21.210228,21.227146,21.237816,21.245596,21.252659,21.25901,21.26562,21.275536,21.287611,21.29933,21.313328,21.326628,21.336412,21.348412,21.365784,21.385757,21.40916,21.443346,21.480703,21.515549,21.56227,21.61483,21.663174,21.73018,21.810575,21.882242,21.961067,22.047699,22.120321,22.185577,22.257593,22.322256,22.379711
8.303772,8.300142,8.2973175,8.293495,8.288564,8.2841425,8.280469,8.277174,8.275596,8.275408,8.276127,8.277201,8.277756,8.278415,8.277571,8.275222,8.272238,8.268887,8.266545,8.264574,8.265912,8.271242,8.277531,8.288193,8.304164,8.321076,8.340877,8.364568,8.386993,8.412439,8.444908,8.474619,8.498649,8.522101,8.539719,8.551327,8.580424,8.645729,8.730892,8.848426,8.985778,9.094466,9.19773,9.224061,9.199434,9.226908,9.213206,9.550827,10.29335,13.1583805,16.19706,17.391306,17.72379,17.705498,17.81528,17.855963,17.881056,17.891235,17.876854,17.936775,17.946445,17.814482,17.62005,17.416138,17.280039,17.145061,17.024035,16.938251,16.869217,16.736567,16.572199,16.417627,16.344881,16.467422,16.71746,17.184294,17.608744,17.776512,17.933918,18.056597,18.125452,18.157135,18.178288,18.193151,18.208097,18.226542,18.250235,18.276047,18.308546,18.34547,18.375889,18.40556,18.41853,18.411428,18.401913,18.384815,18.372732,18.370989,18.40545,18.479183,18.558962,18.675308,18.80893,18.911453,18.9969,19.07151,19.124062,19.165216,19.23359,19.332403,19.443678,19.581472,19.708385,19.790195,19.837946,19.794031,19.67714,19.516075,19.318314,19.163025,19.05537,18.986805,18.974806,18.98233,19.000217,19.021278,19.033571,19.038158,19.036636,19.035427,19.040424,19.0549,19.077875,19.104742,19.149258,19.191721,19.215,19.234688,19.235548,19.216537,19.178396,19.006557,18.770573,18.717203,18.29441,17.254927,15.64764,14.240203,13.532314,13.321072,13.22467,13.230352,13.228059,13.248986,13.277863,13.292109,13.287747,13.274106,13.263699,13.263395,13.276466,13.303276,13.331573,13.36467,13.387189,13.390293,13.380521,13.358055,13.336214,13.317472,13.330083,13.364571,13.38882,13.406858,13.39367,13.353492,13.286696,13.248093,13.284487,13.385958,13.7454605,14.506575,15.802599,17.635654,19.060896,19.56786,19.99288,20.198683,20.259186,20.275324,20.2686,20.280169,20.306526,20.352098,20.398691,20.434772,20.468596,20.49486,20.51697,20.548355,20.590574,20.635145,20.70455,20.821611,20.95528,21.110983,21.266136,21.312864,21.245348,20.969439,20.499628,20.033445,18.890388,17.701609,17.122202,16.708445,16.576523,16.652544,16.749426,16.923082,17.108177,17.253948,17.422443,17.58759,17.730665,17.903236,18.097794,18.27071,18.455526,18.630692,18.74571,18.825628,18.89149,18.938936,18.983753,19.037075,19.09111,19.137995,19.194014,19.253334,19.303253,19.361162,19.438112,19.517242,19.595903,19.696154,19.795656,19.882988,19.98938,20.078064,20.128492,20.19057,20.258179,20.316809,20.381697,20.451921,20.508684,20.556955,20.610203,20.65584,20.69137,20.732111,20.771011,20.801973,20.837032,20.87426,20.905516,20.937237,20.972357,21.003096,21.030844,21.064997,21.097725,21.124323,21.15624,21.186462,21.208479,21.230095,21.248898,21.261492,21.271439,21.28101,21.289305,21.29722,21.308048,21.32024,21.33157,21.345062,21.357964,21.367609,21.379381,21.395983,21.414593,21.436054,21.466871,21.500484,21.532148,21.575407,21.624985,21.671062,21.734737,21.810488,21.877304,21.949812,22.02805,22.093079,22.152233,22.21975,22.283468,22.342115
8.31081,8.307392,8.304592,8.300621,8.29528,8.290291,8.28591,8.281781,8.279557,8.278961,8.279422,8.280573,8.281411,8.282435,8.281924,8.279718,8.27669,8.272989,8.270185,8.267899,8.268831,8.273896,8.280168,8.291055,8.307391,8.3245735,8.344545,8.368193,8.390419,8.415568,8.447776,8.4778185,8.50334,8.528003,8.546361,8.558775,8.588802,8.654845,8.74048,8.8596,9.000681,9.114528,9.225082,9.260015,9.243014,9.275577,9.276626,9.66512,10.498291,13.377394,16.3461,17.455563,17.788485,17.788013,17.89418,17.93364,17.957325,17.967966,17.958084,18.017761,18.024853,17.893282,17.696898,17.49011,17.351954,17.213818,17.087217,16.99522,16.922272,16.776772,16.59839,16.439482,16.368362,16.502316,16.768824,17.241545,17.667017,17.837234,17.996872,18.120638,18.189043,18.219442,18.240025,18.253866,18.265528,18.27971,18.298912,18.320984,18.349247,18.383255,18.413067,18.44336,18.459572,18.456684,18.450542,18.435081,18.422142,18.418785,18.45012,18.520634,18.598644,18.714142,18.848593,18.952549,19.037865,19.111422,19.162304,19.201096,19.266632,19.36345,19.473717,19.613682,19.745098,19.830835,19.883944,19.845152,19.730867,19.570255,19.369621,19.209518,19.0974,19.024044,19.008831,19.014896,19.033289,19.056707,19.07141,19.07874,19.079594,19.079475,19.084684,19.098326,19.119745,19.145037,19.187,19.227009,19.248877,19.26723,19.266613,19.245882,19.202194,19.035822,18.808935,18.740002,18.28593,17.20553,15.538136,14.173357,13.543937,13.340367,13.247688,13.253071,13.251926,13.271231,13.296857,13.308269,13.3019085,13.287077,13.276766,13.277221,13.291308,13.318923,13.347549,13.380816,13.403238,13.406188,13.396585,13.374781,13.353814,13.335516,13.350483,13.387727,13.413185,13.429536,13.409723,13.360743,13.2901745,13.251736,13.290679,13.396284,13.776078,14.596313,16.041271,17.898739,19.255384,19.760942,20.142258,20.300348,20.34757,20.348553,20.331821,20.339546,20.363247,20.406551,20.451323,20.486185,20.518929,20.544605,20.566534,20.59762,20.639692,20.684357,20.754028,20.870077,21.001114,21.153023,21.299618,21.33823,21.270557,20.984142,20.504442,20.041798,18.887943,17.700752,17.14414,16.73916,16.609272,16.684553,16.779032,16.952343,17.138958,17.28448,17.45476,17.623383,17.769667,17.946144,18.142897,18.315264,18.4977,18.667913,18.77726,18.851036,18.91188,18.956566,18.998968,19.048777,19.101059,19.149233,19.206518,19.266756,19.316885,19.374636,19.451265,19.530294,19.609222,19.709993,19.809677,19.895939,20.005392,20.102222,20.16202,20.226904,20.291658,20.346395,20.409597,20.479733,20.537157,20.585321,20.638205,20.683102,20.71762,20.756702,20.793526,20.822638,20.855467,20.890121,20.919106,20.948551,20.98124,21.010092,21.036396,21.069395,21.101532,21.12779,21.15944,21.189663,21.211918,21.234224,21.25453,21.269047,21.281433,21.294014,21.304766,21.314379,21.32666,21.339481,21.350788,21.36413,21.376907,21.386581,21.398281,21.41434,21.431927,21.451899,21.480265,21.511328,21.540998,21.582262,21.629974,21.6743,21.734388,21.803919,21.863642,21.926632,21.992395,22.046099,22.095495,22.153627,22.211657,22.267706
8.317088,8.313936,8.311223,8.307205,8.301577,8.296115,8.2911005,8.2862215,8.283389,8.282356,8.282496,8.283612,8.284609,8.285847,8.285559,8.283467,8.280405,8.276486,8.2734165,8.270965,8.27168,8.276631,8.282979,8.29413,8.310819,8.328251,8.34837,8.371975,8.394027,8.4189205,8.450967,8.481326,8.507873,8.533741,8.553225,8.566693,8.59777,8.6645,8.750468,8.870564,9.0146265,9.1328745,9.248335,9.292409,9.28463,9.319196,9.332366,9.769443,10.690122,13.580429,16.481995,17.51428,17.84844,17.865406,17.968994,18.007757,18.03028,18.042217,18.039906,18.097445,18.097565,17.964664,17.766968,17.559414,17.420732,17.28087,17.149849,17.052235,16.975573,16.818033,16.626875,16.464634,16.395788,16.54244,16.827879,17.302755,17.724928,17.897158,18.057598,18.181126,18.248404,18.2772,18.296534,18.308939,18.31788,18.328588,18.344193,18.363281,18.388094,18.419725,18.449093,18.479946,18.499006,18.499834,18.496653,18.482655,18.468973,18.464117,18.492847,18.560877,18.637693,18.753124,18.889214,18.99516,19.080763,19.15361,19.20299,19.239397,19.301937,19.39634,19.505005,19.64618,19.78099,19.869793,19.927305,19.892971,19.781143,19.6211,19.418213,19.254139,19.138283,19.06083,19.04283,19.047657,19.06647,19.09199,19.108923,19.118689,19.121662,19.122528,19.127827,19.140434,19.160023,19.18335,19.222391,19.25971,19.280048,19.296614,19.294346,19.272305,19.223665,19.063208,18.845764,18.76195,18.280102,17.16464,15.444782,14.118755,13.5591955,13.361902,13.271824,13.276407,13.2761345,13.293566,13.315914,13.324665,13.316475,13.300572,13.290394,13.291649,13.306586,13.334688,13.36338,13.396575,13.418766,13.421535,13.412372,13.390006,13.368521,13.352903,13.370651,13.410022,13.438372,13.450823,13.423153,13.368914,13.303705,13.269362,13.305738,13.411192,13.809136,14.690454,16.291355,18.168375,19.445864,19.948284,20.28378,20.392317,20.425085,20.412817,20.388079,20.392025,20.413141,20.454052,20.496778,20.530151,20.561914,20.587547,20.60993,20.641777,20.684782,20.73015,20.800179,20.914675,21.04209,21.18794,21.327435,21.3585,21.279812,20.984005,20.50359,20.048397,18.88836,17.703663,17.166683,16.769098,16.640053,16.713373,16.804144,16.976713,17.164814,17.308846,17.479818,17.651054,17.79966,17.979708,18.177359,18.346956,18.526913,18.693106,18.797838,18.866705,18.924072,18.967049,19.007105,19.05435,19.105806,19.15525,19.21371,19.27459,19.32457,19.381638,19.45724,19.535505,19.6141,19.71488,19.814585,19.900612,20.005615,20.10666,20.183826,20.25966,20.326172,20.375767,20.430582,20.496273,20.555243,20.604004,20.657421,20.702354,20.736519,20.774206,20.808994,20.836424,20.867306,20.899706,20.926699,20.954245,20.984905,21.012123,21.037138,21.068897,21.100111,21.125675,21.15649,21.186049,21.208023,21.230572,21.252083,21.268389,21.283176,21.29895,21.312578,21.324465,21.338562,21.352226,21.36387,21.377342,21.39018,21.40001,21.411707,21.427313,21.444035,21.462746,21.489216,21.518482,21.546925,21.587082,21.63362,21.676577,21.732857,21.795115,21.846382,21.89814,21.948875,21.989462,22.030119,22.081766,22.136053,22.188591
8.32375,8.32104,8.318607,8.314741,8.30901,8.303177,8.29755,8.291857,8.288275,8.286647,8.286253,8.28711,8.288088,8.289345,8.289141,8.287127,8.284017,8.280062,8.276998,8.274501,8.275212,8.280296,8.286893,8.298453,8.315545,8.333208,8.353382,8.376787,8.398517,8.423009,8.454649,8.485238,8.513201,8.540801,8.561957,8.577021,8.609605,8.67714,8.763241,8.883617,9.030238,9.152617,9.27008,9.323031,9.326739,9.36335,9.390128,9.88617,10.915108,13.823726,16.649237,17.591019,17.925545,17.962395,18.063543,18.101429,18.122215,18.136477,18.147463,18.199036,18.183191,18.044706,17.845873,17.640306,17.502754,17.362518,17.227537,17.123835,17.043312,16.869162,16.661182,16.499119,16.43472,16.597643,16.90897,17.383966,17.798456,17.97211,18.13156,18.252928,18.317867,18.344452,18.361498,18.371693,18.378178,18.385584,18.397594,18.413614,18.43469,18.463652,18.492455,18.52389,18.546146,18.551186,18.55137,18.539026,18.524527,18.518019,18.54408,18.60997,18.68629,18.803122,18.94242,19.051422,19.139137,19.212507,19.260365,19.293947,19.352518,19.443254,19.549122,19.690575,19.828255,19.919838,19.981571,19.952044,19.84334,19.684254,19.479073,19.31054,19.190374,19.10801,19.08647,19.089546,19.108341,19.135775,19.154987,19.167307,19.172487,19.174232,19.179243,19.189882,19.206394,19.226542,19.26155,19.295492,19.313946,19.328001,19.32388,19.301043,19.247345,19.093367,18.886168,18.786892,18.270475,17.122011,15.380987,14.0889,13.579284,13.391623,13.30323,13.305578,13.306183,13.320948,13.339072,13.344578,13.334264,13.317248,13.307093,13.308517,13.324344,13.353218,13.381836,13.414661,13.436341,13.438883,13.430566,13.407579,13.385407,13.373623,13.395966,13.438773,13.470214,13.478561,13.442396,13.382238,13.322599,13.293034,13.32769,13.434281,13.854856,14.814865,16.62589,18.529627,19.674358,20.100983,20.400017,20.500406,20.520006,20.494034,20.459097,20.45843,20.475868,20.512722,20.551855,20.58272,20.61322,20.639389,20.662956,20.696842,20.74221,20.789251,20.860249,20.97266,21.094862,21.232117,21.360857,21.38135,21.289997,20.984734,20.505552,20.060452,18.897974,17.716076,17.194902,16.804264,16.674978,16.743723,16.828152,16.998241,17.187496,17.32997,17.501186,17.674404,17.824892,18.008965,18.206282,18.37001,18.54702,18.709606,18.810013,18.874184,18.92867,18.97015,19.006666,19.052143,19.104033,19.154425,19.21373,19.274603,19.323658,19.379156,19.452902,19.529957,19.608013,19.708958,19.809093,19.895315,19.9974,20.097147,20.177822,20.26175,20.340519,20.400497,20.461386,20.523788,20.574596,20.621428,20.673492,20.717478,20.750969,20.788225,20.822647,20.849567,20.879795,20.911228,20.937115,20.963017,20.992105,21.018414,21.04279,21.0739,21.104565,21.129675,21.16006,21.189438,21.211489,21.234402,21.256775,21.27427,21.290834,21.309052,21.325016,21.338995,21.35508,21.369902,21.382019,21.395483,21.407629,21.416626,21.42854,21.44437,21.460672,21.478527,21.503563,21.531464,21.559063,21.598427,21.643475,21.68419,21.73436,21.785152,21.82331,21.856367,21.892853,21.92286,21.934164,21.941984,21.962788,22.004017
8.328835,8.32668,8.324696,8.3211975,8.315635,8.309664,8.303634,8.297301,8.293049,8.290838,8.289862,8.290348,8.29118,8.292322,8.292141,8.290242,8.287198,8.2835045,8.2808075,8.278538,8.27958,8.285075,8.292089,8.3041315,8.321575,8.339366,8.359456,8.382503,8.403779,8.427622,8.458958,8.4900675,8.519277,8.548719,8.571819,8.588565,8.622679,8.690857,8.776794,8.896734,9.04491,9.170279,9.287226,9.347099,9.362461,9.403651,9.443009,9.992499,11.122195,14.059332,16.82249,17.675875,18.008366,18.062601,18.161676,18.198442,18.2165,18.232412,18.25822,18.301325,18.265171,18.11903,17.920023,17.719025,17.584251,17.445322,17.307846,17.198927,17.115124,16.924522,16.70069,16.542175,16.482855,16.662558,17.00324,17.474195,17.875595,18.049505,18.205744,18.323265,18.385347,18.409557,18.424133,18.43249,18.437902,18.443542,18.453085,18.4666,18.484386,18.510708,18.53865,18.570295,18.595171,18.60386,18.606945,18.595894,18.580442,18.572256,18.595924,18.660326,18.736885,18.856482,19.00042,19.113447,19.204912,19.280136,19.326881,19.357689,19.411938,19.498257,19.600487,19.7409,19.880033,19.973372,20.038078,20.012709,19.907335,19.749672,19.54284,19.370369,19.24625,19.159067,19.133728,19.1347,19.152702,19.181087,19.201853,19.216122,19.222982,19.225176,19.229439,19.237486,19.250212,19.266325,19.2968,19.327263,19.343723,19.354803,19.349594,19.328001,19.270428,19.120773,18.920517,18.807476,18.257391,17.08466,15.35352,14.087414,13.603766,13.426807,13.338362,13.336977,13.338249,13.350245,13.364243,13.366663,13.354399,13.336603,13.326192,13.326239,13.341995,13.372004,13.40172,13.434187,13.454992,13.457253,13.449382,13.4259405,13.403802,13.396301,13.4241295,13.470811,13.504402,13.509669,13.466416,13.4002495,13.344042,13.318493,13.35302,13.4604225,13.904768,14.933622,16.904068,18.843569,19.881739,20.188591,20.461624,20.588675,20.6068,20.571426,20.526787,20.522875,20.537521,20.570738,20.606358,20.634943,20.66468,20.69191,20.716948,20.753332,20.801348,20.849983,20.92132,21.03049,21.146248,21.273714,21.388914,21.397194,21.295897,20.985312,20.511301,20.07887,18.919659,17.741688,17.230711,16.844835,16.71347,16.775791,16.853497,17.018536,17.206882,17.35086,17.522936,17.69674,17.848398,18.035698,18.231447,18.387974,18.561827,18.721241,18.817894,18.878082,18.929485,18.969135,19.003235,19.048079,19.100548,19.150974,19.210129,19.270132,19.317781,19.371267,19.442787,19.518414,19.595749,19.69688,19.797764,19.884567,19.986443,20.082504,20.156712,20.24126,20.3288,20.399775,20.470407,20.535526,20.582857,20.629513,20.680935,20.723549,20.755423,20.79117,20.824553,20.850866,20.880653,20.911367,20.936056,20.960016,20.985718,21.008156,21.02888,21.055824,21.082497,21.103996,21.129465,21.154243,21.17359,21.195833,21.221815,21.245785,21.270351,21.299314,21.324797,21.345695,21.367437,21.384815,21.39746,21.412004,21.426764,21.439144,21.451712,21.46699,21.48279,21.5001,21.52439,21.551683,21.579094,21.618189,21.661734,21.699747,21.742683,21.780283,21.803864,21.82463,21.825592,21.804213,21.76749,21.722,21.70756,21.735521
8.3317995,8.330165,8.328635,8.325561,8.32029,8.3143425,8.308112,8.3013935,8.296686,8.294055,8.292645,8.292845,8.293566,8.29464,8.294555,8.292868,8.290042,8.286781,8.284605,8.282766,8.284325,8.290317,8.297775,8.310249,8.327936,8.345768,8.365704,8.388364,8.409184,8.432234,8.463664,8.495748,8.525593,8.556488,8.58134,8.59937,8.634602,8.703134,8.788769,8.90814,9.057177,9.184573,9.301109,9.366366,9.39174,9.440128,9.489528,10.076787,11.279654,14.250053,16.973879,17.752748,18.081446,18.148287,18.245533,18.281113,18.295843,18.311644,18.34861,18.384096,18.331348,18.179436,17.981256,17.78517,17.65354,17.516558,17.37777,17.265017,17.178612,16.976412,16.742031,16.587168,16.531713,16.725863,17.093596,17.55705,17.942692,18.116152,18.26838,18.381985,18.441778,18.46396,18.476843,18.484539,18.490198,18.495644,18.504,18.515717,18.530981,18.554962,18.58181,18.613207,18.639715,18.65094,18.65602,18.645672,18.629175,18.619387,18.641014,18.704294,18.781233,18.903755,19.052519,19.169743,19.264996,19.342327,19.388405,19.416851,19.467234,19.549423,19.64813,19.786877,19.926369,20.020594,20.087093,20.064861,19.96244,19.806366,19.598698,19.423346,19.29625,19.205133,19.176424,19.175394,19.19216,19.220604,19.242096,19.257547,19.265425,19.267689,19.27105,19.276712,19.286026,19.29825,19.32462,19.352053,19.366686,19.374887,19.369644,19.351126,19.291027,19.14289,18.945353,18.820562,18.244307,17.054546,15.334982,14.091965,13.629498,13.460982,13.371379,13.365931,13.367599,13.37744,13.38831,13.388368,13.374629,13.356453,13.345586,13.34316,13.357687,13.38892,13.421228,13.453649,13.473428,13.475371,13.467049,13.443262,13.422073,13.418531,13.451101,13.500774,13.535513,13.538726,13.490263,13.418855,13.364481,13.341976,13.3768,13.482656,13.947711,15.017404,17.035614,19.014011,20.030567,20.244883,20.491787,20.638897,20.667126,20.627544,20.576077,20.571323,20.58534,20.617125,20.650951,20.678568,20.708443,20.736814,20.762945,20.801146,20.850754,20.899906,20.970165,21.075092,21.18434,21.302738,21.404636,21.40155,21.2938,20.983181,20.51824,20.099073,18.946405,17.773857,17.270805,16.887676,16.753084,16.80936,16.88242,17.041142,17.226528,17.375488,17.549524,17.722963,17.875397,18.064598,18.258543,18.409279,18.580093,18.736334,18.829517,18.886284,18.933716,18.970955,19.005173,19.049894,19.101852,19.151628,19.20985,19.268644,19.315105,19.366926,19.436552,19.51086,19.58739,19.6885,19.790037,19.877506,19.979586,20.07482,20.147541,20.228333,20.309599,20.375023,20.4429,20.51579,20.575737,20.627031,20.680717,20.722542,20.752079,20.78395,20.813578,20.837862,20.866009,20.894825,20.917206,20.93856,20.958244,20.972565,20.98539,21.003334,21.0215,21.035387,21.050163,21.064589,21.077557,21.097807,21.131023,21.168394,21.209099,21.259583,21.30379,21.33763,21.369284,21.390572,21.403725,21.420818,21.442911,21.46472,21.478338,21.491596,21.506416,21.52311,21.546932,21.574059,21.601639,21.640818,21.68322,21.718904,21.755573,21.782032,21.793797,21.816483,21.7548,21.63095,21.546545,21.477274,21.457829,21.47833
8.333637,8.3326435,8.331724,8.329249,8.324479,8.318732,8.312437,8.305436,8.300311,8.297258,8.295386,8.29527,8.295874,8.2969265,8.297084,8.29581,8.293439,8.290949,8.289627,8.288513,8.290884,8.297571,8.305578,8.318501,8.336341,8.35409,8.373713,8.395683,8.415756,8.438106,8.469755,8.502902,8.533626,8.566106,8.592916,8.612744,8.64927,8.718002,8.803113,8.921571,9.071215,9.200498,9.315804,9.38677,9.423117,9.477849,9.538573,10.171501,11.461571,14.474201,17.155413,17.848671,18.171291,18.250883,18.345503,18.37895,18.388947,18.403309,18.45053,18.477753,18.409,18.253098,18.05658,17.865858,17.73795,17.60328,17.462992,17.345896,17.256077,17.04559,16.804043,16.64935,16.599306,16.810375,17.203188,17.655754,18.02261,18.194534,18.341408,18.450777,18.508894,18.529135,18.541414,18.550158,18.557367,18.563667,18.57112,18.580744,18.592794,18.613382,18.638187,18.668499,18.695843,18.708996,18.715555,18.705214,18.686901,18.674719,18.693895,18.75593,18.833105,18.959494,19.114693,19.237473,19.337755,19.41819,19.4638,19.48924,19.53484,19.611988,19.70639,19.842457,19.981693,20.076841,20.145443,20.12693,20.028051,19.874397,19.66629,19.487799,19.357327,19.261492,19.228493,19.224733,19.239418,19.267208,19.289024,19.305422,19.31419,19.316402,19.31868,19.32151,19.326752,19.33438,19.35596,19.379843,19.392242,19.396954,19.390768,19.374437,19.311766,19.164608,18.96848,18.831686,18.221205,17.00884,15.312395,14.100352,13.661621,13.5029745,13.411678,13.4012,13.403424,13.411238,13.419079,13.4168005,13.401751,13.382529,13.370845,13.367486,13.381268,13.412855,13.446527,13.478953,13.498192,13.499668,13.488499,13.464745,13.447541,13.44867,13.486799,13.539866,13.5751,13.576715,13.523144,13.445194,13.391577,13.371664,13.406254,13.506332,13.984011,15.087624,17.15356,19.157457,20.156853,20.330376,20.554893,20.698145,20.72641,20.681515,20.626501,20.622877,20.638294,20.670462,20.703592,20.731062,20.761923,20.791994,20.819412,20.859507,20.910286,20.959087,21.026844,21.125248,21.225567,21.3321,21.41847,21.403543,21.29005,20.981342,20.52763,20.12265,18.984652,17.824211,17.328278,16.94772,16.808327,16.856722,16.925386,17.07951,17.26337,17.416727,17.59253,17.765741,17.918955,18.10958,18.302326,18.448801,18.614283,18.764408,18.852612,18.904621,18.94638,18.979042,19.010065,19.056856,19.111341,19.158705,19.215067,19.272232,19.31736,19.367083,19.435024,19.508759,19.584871,19.686377,19.789013,19.877642,19.980604,20.075596,20.147133,20.225252,20.301931,20.362526,20.425106,20.493244,20.549713,20.59658,20.644926,20.682161,20.708397,20.736788,20.763733,20.786438,20.81306,20.840578,20.862038,20.882647,20.901888,20.91565,20.927341,20.941078,20.954641,20.966825,20.980337,20.99513,21.00978,21.033737,21.072968,21.11739,21.16913,21.234127,21.289665,21.329063,21.364979,21.388218,21.401917,21.42008,21.44456,21.470098,21.494911,21.52276,21.546524,21.56177,21.583157,21.609333,21.635307,21.67249,21.71262,21.74615,21.776176,21.79324,21.792652,21.754595,21.633364,21.486965,21.392267,21.31895,21.295494,21.30565
8.335086,8.3347435,8.334476,8.332668,8.328503,8.323068,8.316837,8.309689,8.304244,8.300831,8.298548,8.2981615,8.298699,8.299818,8.300365,8.29967,8.297941,8.296444,8.296181,8.295982,8.299341,8.306809,8.315386,8.328681,8.346496,8.363979,8.383123,8.404226,8.4234495,8.445308,8.477392,8.511697,8.543429,8.577521,8.606281,8.628019,8.665735,8.734444,8.818875,8.936203,9.086349,9.217388,9.330344,9.406925,9.455156,9.516164,9.589588,10.275267,11.665562,14.728693,17.361961,17.955181,18.266937,18.35937,18.45251,18.484169,18.48967,18.501808,18.556072,18.576422,18.495754,18.337885,18.143652,17.958145,17.834087,17.70179,17.559942,17.438452,17.344563,17.130388,16.886395,16.727861,16.687265,16.91832,17.32945,17.766397,18.111614,18.280706,18.421265,18.525755,18.582245,18.601944,18.615519,18.627089,18.637524,18.646198,18.653442,18.660942,18.669397,18.685785,18.707705,18.736156,18.763512,18.777895,18.785364,18.774227,18.753325,18.738304,18.753365,18.813404,18.892176,19.023418,19.186167,19.315596,19.422083,19.505936,19.550674,19.57334,19.61379,19.685146,19.774792,19.907282,20.045563,20.141584,20.212555,20.198217,20.103277,19.952703,19.744596,19.562908,19.428774,19.32757,19.289433,19.282206,19.29394,19.320326,19.342016,19.359041,19.368464,19.370396,19.371271,19.370594,19.370895,19.37303,19.388935,19.4086,19.418293,19.418653,19.411335,19.397842,19.332005,19.184223,18.988148,18.842781,18.180725,16.93143,15.285572,14.116638,13.699783,13.551798,13.458372,13.44203,13.444625,13.450714,13.455967,13.451599,13.435453,13.415109,13.402785,13.399595,13.413866,13.445275,13.477719,13.510177,13.529426,13.529955,13.5152235,13.492254,13.480577,13.486149,13.529137,13.585174,13.621098,13.6222725,13.564147,13.478646,13.424778,13.408051,13.443355,13.532998,14.011392,15.132761,17.225542,19.24096,20.237137,20.41291,20.632513,20.763535,20.779222,20.728962,20.67477,20.674438,20.693811,20.729546,20.764809,20.79442,20.828257,20.860867,20.889578,20.930626,20.980528,21.02671,21.088713,21.176483,21.264383,21.356066,21.424957,21.398518,21.281443,20.979174,20.537384,20.139278,19.030945,17.898151,17.407465,17.02841,16.881222,16.919025,16.983915,17.135506,17.31892,17.474907,17.65223,17.825743,17.979359,18.170088,18.361155,18.504225,18.662949,18.80502,18.887161,18.934103,18.968767,18.995403,19.023737,19.070934,19.127022,19.174156,19.228777,19.283733,19.32749,19.375353,19.441242,19.513462,19.588451,19.689518,19.792805,19.882624,19.987797,20.085194,20.15829,20.237036,20.312231,20.369534,20.426235,20.48445,20.530357,20.567892,20.60619,20.636091,20.658123,20.683111,20.70832,20.730328,20.756449,20.78406,20.806124,20.82779,20.849478,20.865978,20.879345,20.894547,20.908907,20.921282,20.936165,20.95388,20.97195,21.000734,21.045477,21.094898,21.153803,21.229012,21.29384,21.339714,21.379997,21.40453,21.418476,21.437155,21.462305,21.489017,21.522177,21.560911,21.592201,21.614075,21.637337,21.661076,21.685904,21.720732,21.756565,21.784843,21.805637,21.813023,21.801668,21.697222,21.534399,21.399395,21.307238,21.232088,21.202768,21.208027
8.336915,8.337059,8.3372965,8.3360195,8.332351,8.327197,8.321077,8.313887,8.308247,8.304586,8.302021,8.301475,8.302021,8.30327,8.304225,8.304079,8.302967,8.302335,8.302941,8.303521,8.30769,8.315756,8.32474,8.3382225,8.355858,8.372985,8.391594,8.411956,8.430603,8.452402,8.48506,8.520319,8.552964,8.588382,8.618644,8.641826,8.680328,8.748865,8.832702,8.949091,9.099831,9.232484,9.342815,9.42427,9.48352,9.550311,9.635912,10.372412,11.859166,14.969607,17.554298,18.048891,18.347406,18.451313,18.544336,18.57535,18.578037,18.587982,18.644827,18.66136,18.575045,18.416634,18.22422,18.042358,17.921246,17.790777,17.64767,17.522686,17.425064,17.210892,16.96822,16.8043,16.777214,17.028252,17.44701,17.866314,18.19136,18.357407,18.492281,18.59199,18.646717,18.667685,18.683731,18.698404,18.71266,18.724405,18.732065,18.737873,18.743233,18.75578,18.774935,18.80157,18.82871,18.843958,18.85205,18.839865,18.816332,18.798706,18.809376,18.867218,18.94788,19.08359,19.25322,19.388805,19.501032,19.587288,19.630531,19.651665,19.687881,19.753857,19.839342,19.968388,20.10551,20.202255,20.275404,20.264847,20.17342,20.025715,19.81784,19.63348,19.496113,19.390034,19.3471,19.33654,19.345375,19.370272,19.391693,19.409155,19.419033,19.420547,19.419916,19.415651,19.411,19.407719,19.418018,19.433462,19.440348,19.436821,19.42881,19.41811,19.348917,19.199493,19.002956,18.853565,18.13592,16.844955,15.2611475,14.136497,13.735977,13.597271,13.501837,13.480054,13.482637,13.487497,13.490941,13.485034,13.468062,13.447181,13.434891,13.432224,13.447845,13.479122,13.508997,13.541105,13.560048,13.559165,13.542534,13.520809,13.513166,13.521904,13.567947,13.625975,13.66321,13.664922,13.603657,13.512054,13.457107,13.443058,13.479636,13.557497,14.027114,15.150541,17.250853,19.270636,20.273968,20.46823,20.699095,20.823425,20.82082,20.766132,20.714977,20.718462,20.74263,20.783731,20.823273,20.856726,20.894676,20.92986,20.959337,20.999702,21.046238,21.087605,21.141344,21.21627,21.290781,21.367886,21.421204,21.386072,21.268343,20.975517,20.544779,20.147491,19.076277,17.978857,17.490896,17.112503,16.956125,16.982107,17.044106,17.194939,17.3784,17.534567,17.71277,17.886923,18.040215,18.229544,18.41787,18.55767,18.710083,18.844791,18.921663,18.965029,18.993898,19.015718,19.043856,19.088795,19.143469,19.192335,19.246334,19.299452,19.341719,19.38806,19.451149,19.520157,19.592619,19.691599,19.794456,19.88509,19.993647,20.096485,20.174664,20.258604,20.337143,20.394678,20.448399,20.49943,20.536606,20.565498,20.594059,20.616823,20.635012,20.65737,20.682022,20.704521,20.731628,20.760805,20.784426,20.807964,20.831863,20.850117,20.864319,20.88253,20.899313,20.910635,20.924398,20.941597,20.960068,20.990782,21.039421,21.093216,21.156363,21.238169,21.310669,21.364601,21.410969,21.438097,21.453394,21.473541,21.50014,21.52802,21.560863,21.597683,21.62918,21.662767,21.692713,21.714964,21.739859,21.77329,21.804565,21.826178,21.837902,21.83572,21.815714,21.68311,21.503931,21.373081,21.277374,21.194014,21.158213,21.165308
8.339148,8.3397045,8.340379,8.339568,8.336356,8.331483,8.32551,8.31833,8.31255,8.308689,8.305891,8.305223,8.305809,8.307219,8.308577,8.30895,8.308475,8.30861,8.309897,8.311113,8.315918,8.324408,8.333648,8.34716,8.364513,8.381247,8.399199,8.418912,8.437334,8.459647,8.49301,8.528909,8.5624,8.598925,8.630357,8.654684,8.693707,8.761985,8.845305,8.960887,9.112768,9.247696,9.355319,9.441584,9.512044,9.5849085,9.682814,10.471256,12.056954,15.2219925,17.757046,18.140623,18.423065,18.538221,18.630314,18.660849,18.661045,18.668043,18.724274,18.738562,18.650328,18.492184,18.300806,18.121105,18.002249,17.873367,17.72929,17.601362,17.500217,17.288351,17.04979,16.880375,16.873877,17.14757,17.564018,17.961493,18.265917,18.429216,18.558586,18.653324,18.70613,18.729576,18.748314,18.765553,18.78386,18.799028,18.80751,18.811964,18.814636,18.823746,18.840452,18.865648,18.892954,18.909332,18.918238,18.905174,18.87908,18.858618,18.867441,18.92408,19.00348,19.142778,19.319254,19.460754,19.578289,19.66569,19.706507,19.727375,19.759996,19.820477,19.901974,20.027597,20.163488,20.260883,20.335878,20.328718,20.240591,20.095503,19.887941,19.701319,19.561127,19.450659,19.403385,19.38987,19.396185,19.41988,19.441212,19.459251,19.469627,19.470676,19.46846,19.460464,19.450726,19.441956,19.446524,19.457504,19.461212,19.454988,19.446472,19.43675,19.364576,19.21384,19.016777,18.86356,18.1009,16.776928,15.244057,14.157418,13.772379,13.642071,13.544228,13.516854,13.519223,13.523035,13.52505,13.517916,13.500233,13.479447,13.467861,13.465702,13.48222,13.513777,13.542875,13.573389,13.589849,13.586945,13.570729,13.550427,13.544458,13.555981,13.604689,13.66452,13.7034235,13.705801,13.642649,13.547488,13.489872,13.475252,13.511082,13.576395,14.0322,15.150686,17.254766,19.281504,20.298695,20.516031,20.760048,20.878338,20.859087,20.800194,20.75209,20.759796,20.788504,20.835306,20.87996,20.91773,20.959883,20.997105,21.02655,21.06469,21.105684,21.140186,21.183514,21.24385,21.304253,21.366821,21.406076,21.364727,21.248793,20.967152,20.550798,20.160954,19.129128,18.064997,17.576838,17.199425,17.03338,17.045685,17.105082,17.255907,17.43948,17.594608,17.773088,17.947563,18.099768,18.286472,18.470882,18.606867,18.753145,18.881283,18.954023,18.995523,19.021042,19.0398,19.067947,19.111273,19.163296,19.210043,19.264734,19.317663,19.357037,19.400478,19.458956,19.52304,19.591288,19.686697,19.788635,19.880379,19.993998,20.105524,20.19226,20.285744,20.371956,20.432589,20.4854,20.530363,20.558968,20.579039,20.597717,20.613533,20.62837,20.648985,20.67426,20.698292,20.727518,20.759197,20.78484,20.810387,20.836199,20.855452,20.870022,20.885942,20.899467,20.909433,20.92117,20.936754,20.95474,20.986057,21.036423,21.092527,21.159754,21.245747,21.321041,21.376842,21.428068,21.462082,21.48368,21.507566,21.535578,21.56437,21.598215,21.635492,21.667685,21.705173,21.739887,21.764587,21.788858,21.821247,21.850555,21.869415,21.876448,21.866793,21.838219,21.689125,21.498142,21.365612,21.26691,21.183416,21.14917,21.156555
8.343586,8.344469,8.345522,8.3451185,8.342316,8.337711,8.33192,8.324771,8.318856,8.314814,8.31181,8.311058,8.311717,8.313317,8.315067,8.315905,8.316019,8.316778,8.318548,8.320259,8.325551,8.33434,8.343733,8.357163,8.37413,8.390385,8.407652,8.426797,8.445189,8.468462,8.502987,8.539787,8.574306,8.612108,8.644823,8.670362,8.709938,8.777979,8.860829,8.976059,9.127752,9.262856,9.369772,9.463862,9.547461,9.626467,9.740005,10.591425,12.295623,15.474636,17.932106,18.236235,18.513165,18.640553,18.729443,18.76021,18.758425,18.762077,18.816704,18.829227,18.739428,18.580063,18.38856,18.21041,18.09372,17.966694,17.822487,17.69248,17.588276,17.377506,17.142654,16.972012,16.983507,17.277206,17.696095,18.07079,18.352577,18.513569,18.636995,18.72624,18.777071,18.803915,18.825142,18.844236,18.867075,18.88607,18.89547,18.898438,18.898163,18.903563,18.917698,18.941528,18.969421,18.987455,18.997536,18.983587,18.95453,18.930828,18.936556,18.99113,19.069649,19.212973,19.397232,19.545502,19.667257,19.756193,19.79607,19.816002,19.84462,19.899534,19.976692,20.098686,20.233337,20.331491,20.408655,20.405472,20.321228,20.179392,19.972462,19.783356,19.639866,19.524122,19.471498,19.45423,19.457346,19.479462,19.500547,19.51914,19.529951,19.53028,19.52597,19.513294,19.497295,19.481853,19.479593,19.485117,19.484505,19.47716,19.468647,19.457495,19.381607,19.228832,19.030174,18.872566,18.061556,16.70247,15.225001,14.180138,13.812637,13.691986,13.592853,13.560179,13.561956,13.564775,13.565411,13.556988,13.538523,13.518017,13.507435,13.505916,13.523261,13.555006,13.583406,13.61275,13.627092,13.62208,13.60543,13.585765,13.581279,13.595539,13.6473,13.709508,13.750358,13.753704,13.68984,13.593116,13.532047,13.516502,13.552593,13.603355,14.039088,15.14603,17.249062,19.296738,20.344501,20.581362,20.833889,20.945477,20.914265,20.850773,20.802301,20.811422,20.845308,20.898544,20.948275,20.990805,21.037409,21.076296,21.104893,21.138828,21.17144,21.196505,21.226221,21.268665,21.312702,21.359163,21.384083,21.337982,21.226479,20.958244,20.561913,20.19069,19.199278,18.166998,17.682125,17.309517,17.131777,17.123987,17.179531,17.329947,17.512953,17.665604,17.843437,18.017395,18.167114,18.348885,18.526695,18.656673,18.792875,18.912066,18.980965,19.020163,19.04526,19.064821,19.093468,19.135553,19.184658,19.228426,19.280834,19.332487,19.371174,19.413124,19.46742,19.525358,19.586367,19.673737,19.771542,19.863691,19.983486,20.10697,20.206057,20.314404,20.414371,20.48279,20.5384,20.579912,20.600986,20.612528,20.621367,20.6304,20.642403,20.662258,20.689484,20.716282,20.749,20.784412,20.812803,20.840868,20.868563,20.888134,20.902222,20.91294,20.91913,20.924301,20.931349,20.943296,20.95888,20.988314,21.037386,21.092844,21.160366,21.246153,21.32094,21.376719,21.43055,21.469814,21.496962,21.52879,21.564295,21.597319,21.633116,21.670853,21.703526,21.740429,21.788656,21.828316,21.847162,21.87371,21.89838,21.913076,21.920263,21.896284,21.839664,21.683403,21.492397,21.360117,21.263773,21.184742,21.153353,21.159788
8.349836,8.350828,8.352072,8.351891,8.349324,8.344894,8.339259,8.332152,8.326151,8.321996,8.318879,8.318118,8.318876,8.320653,8.32266,8.323749,8.324193,8.325192,8.327069,8.328954,8.33442,8.343293,8.352688,8.365961,8.382574,8.398432,8.41523,8.434204,8.452957,8.477409,8.513365,8.551285,8.5868435,8.625867,8.659763,8.686392,8.726514,8.794457,8.877017,8.992475,9.142446,9.275159,9.383479,9.485934,9.580812,9.664799,9.795082,10.704648,12.513092,15.662724,18.038641,18.318836,18.60226,18.739567,18.824594,18.85526,18.851267,18.851797,18.905746,18.916199,18.822674,18.65908,18.465824,18.288609,18.173725,18.048725,17.90576,17.775425,17.669973,17.45524,17.21881,17.053455,17.075773,17.381498,17.80863,18.168896,18.434227,18.593693,18.712296,18.796925,18.846087,18.875566,18.898243,18.91822,18.944662,18.9666,18.97649,18.977974,18.975048,18.97734,18.98949,19.012474,19.041447,19.06147,19.072935,19.0583,19.026447,18.999758,19.001295,19.053066,19.131542,19.278454,19.469597,19.624025,19.74885,19.839878,19.880302,19.898516,19.923763,19.974709,20.048391,20.167627,20.301544,20.400547,20.479864,20.480507,20.400055,20.261667,20.055712,19.864405,19.717762,19.596733,19.538565,19.517313,19.51694,19.537128,19.557653,19.57642,19.587307,19.586664,19.579956,19.562435,19.540285,19.51845,19.509703,19.50998,19.504992,19.498238,19.490412,19.476257,19.396797,19.24128,19.039835,18.878622,18.02498,16.63476,15.206653,14.19935,13.847976,13.736224,13.637367,13.601085,13.60226,13.604364,13.6039,13.594352,13.57522,13.554859,13.545058,13.544174,13.562212,13.594049,13.621836,13.650603,13.663694,13.657059,13.63904,13.619085,13.615763,13.632059,13.686945,13.752059,13.794799,13.7994995,13.736422,13.640326,13.57649,13.561135,13.599621,13.637913,14.054665,15.151873,17.259583,19.34393,20.427208,20.661453,20.905947,21.010914,20.980324,20.91235,20.858393,20.865318,20.90182,20.960201,21.014671,21.060951,21.110918,21.150522,21.177464,21.206028,21.229258,21.244478,21.260584,21.286312,21.316101,21.349339,21.363567,21.315493,21.210133,20.953096,20.578096,20.236681,19.272343,18.2614,17.789955,17.416325,17.22433,17.20165,17.252388,17.400455,17.581482,17.730742,17.906673,18.078623,18.224443,18.399244,18.568325,18.690714,18.814331,18.923138,18.988691,19.026424,19.05463,19.078636,19.108112,19.149776,19.196856,19.23808,19.28658,19.335766,19.37452,19.415546,19.466751,19.51963,19.573978,19.652954,19.744398,19.832903,19.955482,20.08972,20.201685,20.326689,20.444092,20.524483,20.587784,20.631464,20.64962,20.656424,20.659195,20.664103,20.674892,20.695429,20.72549,20.755503,20.792063,20.831268,20.862186,20.892345,20.921026,20.939735,20.951965,20.95663,20.953625,20.949764,20.949404,20.955774,20.96671,20.991112,21.034983,21.085798,21.146996,21.226292,21.297234,21.351309,21.40533,21.447634,21.479086,21.520117,21.566084,21.605795,21.646545,21.686794,21.719862,21.754253,21.811327,21.8658,21.89149,21.918787,21.93871,21.949121,21.948996,21.897318,21.80212,21.64616,21.468006,21.343296,21.25408,21.181618,21.1523,21.15612
8.356104,8.357043,8.358331,8.358227,8.355759,8.351415,8.345889,8.338829,8.332792,8.3285885,8.3254385,8.324718,8.325579,8.3274975,8.32964,8.330811,8.33136,8.332333,8.334082,8.335919,8.341354,8.350182,8.359501,8.372617,8.388987,8.4046,8.421165,8.44034,8.459771,8.485319,8.522608,8.561618,8.598085,8.638112,8.672951,8.700469,8.741076,8.809028,8.891447,9.007287,9.155308,9.285081,9.394895,9.503226,9.605676,9.69366,9.839224,10.792192,12.672155,15.790107,18.107958,18.387318,18.678417,18.822401,18.905214,18.9345,18.927282,18.925083,18.97993,18.987541,18.887785,18.718088,18.522293,18.345827,18.232449,18.109447,17.968489,17.838924,17.733723,17.510605,17.267185,17.109955,17.14001,17.453026,17.888105,18.243168,18.500542,18.65875,18.774036,18.855335,18.903065,18.93362,18.95696,18.977585,19.006279,19.02995,19.039825,19.039953,19.034903,19.034954,19.045864,19.068512,19.098774,19.120745,19.133524,19.118408,19.084234,19.055044,19.052834,19.101957,19.180283,19.32981,19.52617,19.685423,19.813488,19.906727,19.947456,19.963959,19.986929,20.035599,20.107016,20.224583,20.358295,20.458172,20.539335,20.54317,20.465937,20.33068,20.125807,19.932793,19.783571,19.657986,19.594927,19.570148,19.566536,19.584742,19.604494,19.623068,19.633692,19.632004,19.622961,19.601166,19.57391,19.546938,19.532942,19.528948,19.520403,19.514618,19.50783,19.491268,19.409084,19.250683,19.046085,18.882856,17.995565,16.58016,15.191386,14.214092,13.875599,13.770836,13.672682,13.634124,13.635054,13.636704,13.6354065,13.624984,13.605376,13.584907,13.575437,13.575079,13.593754,13.625763,13.653116,13.681207,13.693149,13.685303,13.66618,13.645843,13.643225,13.66086,13.7186165,13.786755,13.831214,13.837534,13.7758875,13.681057,13.615716,13.601836,13.643944,13.673425,14.077463,15.172789,17.2971,19.422789,20.531254,20.742146,20.964777,21.063654,21.042988,20.97082,20.909107,20.91293,20.948326,21.009962,21.069498,21.118233,21.170277,21.209925,21.234976,21.258469,21.273434,21.280281,21.285137,21.297895,21.3174,21.341705,21.349335,21.30109,21.201649,20.951675,20.594992,20.286674,19.33461,18.335716,17.886688,17.49978,17.29144,17.266838,17.312899,17.456764,17.634819,17.780827,17.954218,18.123215,18.264723,18.43219,18.592424,18.707369,18.81922,18.918089,18.980453,19.018515,19.051153,19.079834,19.110071,19.151802,19.19777,19.237251,19.283573,19.330288,19.366928,19.405584,19.453852,19.503792,19.555166,19.63002,19.715786,19.796188,19.916592,20.057692,20.18035,20.31989,20.453934,20.547083,20.620413,20.670143,20.68935,20.695147,20.695753,20.699156,20.710005,20.73197,20.764755,20.797464,20.837143,20.879202,20.911804,20.943134,20.971811,20.988901,20.998444,20.998386,20.987404,20.972765,20.964224,20.96452,20.969887,20.987846,21.024757,21.069023,21.119896,21.189562,21.255707,21.307377,21.361456,21.407278,21.443813,21.491467,21.544724,21.590458,21.639147,21.684708,21.718225,21.75216,21.801706,21.856905,21.911865,21.954554,21.972954,21.981068,21.95822,21.868572,21.742779,21.587105,21.425175,21.314281,21.23182,21.164425,21.136124,21.136625
8.363985,8.364825,8.36613,8.366085,8.363719,8.359485,8.354104,8.347129,8.341088,8.336861,8.333709,8.3330555,8.334036,8.336111,8.338359,8.33953,8.340084,8.340864,8.342316,8.343973,8.34927,8.358014,8.367257,8.380299,8.39657,8.412071,8.428593,8.448437,8.46908,8.495763,8.534449,8.574702,8.612103,8.653162,8.689028,8.717573,8.758897,8.827124,8.909607,9.026143,9.172147,9.298666,9.410366,9.525239,9.635563,9.726134,9.892145,10.89721,12.854438,15.939533,18.193537,18.467768,18.764462,18.914595,18.99533,19.02357,19.012363,19.00681,19.06477,19.067856,18.957504,18.77859,18.579008,18.403416,18.291735,18.171234,18.033432,17.9059,17.802319,17.568344,17.314833,17.167765,17.206978,17.526821,17.968037,18.32104,18.574024,18.73135,18.843992,18.922504,18.968946,19.000023,19.023315,19.04395,19.074257,19.09893,19.1083,19.106907,19.099651,19.097519,19.107311,19.129898,19.161777,19.185894,19.200048,19.184341,19.147594,19.116098,19.104057,19.147984,19.232985,19.385979,19.58676,19.751335,19.883543,19.979748,20.021132,20.036388,20.057257,20.103676,20.173107,20.288992,20.422516,20.523533,20.606588,20.613857,20.540382,20.409073,20.20612,20.011833,19.860191,19.729704,19.661045,19.632154,19.624502,19.639978,19.658508,19.676195,19.68573,19.68225,19.670065,19.643019,19.609875,19.57739,19.5566,19.54918,19.542421,19.535576,19.526134,19.507328,19.421982,19.259645,19.051014,18.887838,17.962376,16.516747,15.173267,14.230496,13.90668,13.809714,13.7125025,13.671566,13.672291,13.673552,13.671434,13.660095,13.640015,13.619496,13.610474,13.610774,13.630175,13.662441,13.68948,13.716998,13.727882,13.718886,13.698652,13.677708,13.675407,13.6938,13.754667,13.826374,13.872273,13.880447,13.820847,13.727803,13.661552,13.648442,13.693032,13.716862,14.11171,15.210306,17.36538,19.545197,20.674776,20.838839,21.024555,21.117157,21.114534,21.039194,20.968672,20.969364,21.003332,21.067225,21.130877,21.182129,21.23611,21.27526,21.29771,21.315128,21.320702,21.3183,21.311308,21.311207,21.321201,21.337662,21.340405,21.293684,21.201456,20.961105,20.618828,20.329002,19.407461,18.43338,17.990263,17.594797,17.373898,17.342836,17.382551,17.520779,17.694843,17.837004,18.007,18.1718,18.30762,18.464205,18.611712,18.717407,18.819513,18.909739,18.967735,19.005499,19.04117,19.073652,19.105669,19.148361,19.193718,19.231697,19.27603,19.320717,19.355871,19.392689,19.437582,19.483227,19.529987,19.598618,19.679304,19.757374,19.874176,20.015823,20.144726,20.297817,20.449692,20.556858,20.642267,20.701523,20.725212,20.732294,20.732948,20.736332,20.748068,20.772116,20.80796,20.843513,20.88634,20.931118,20.965199,20.997498,21.025768,21.040705,21.047024,21.041056,21.021961,20.998833,20.980448,20.97182,20.970901,20.980963,21.00866,21.044508,21.086597,21.14309,21.197002,21.241558,21.292685,21.341143,21.38224,21.43623,21.495804,21.545712,21.598715,21.647757,21.68274,21.71673,21.761818,21.811342,21.863922,21.912317,21.933464,21.93223,21.886894,21.779816,21.654932,21.510628,21.36932,21.275795,21.201408,21.139324,21.111397,21.107754
8.3727865,8.373467,8.374713,8.3746395,8.372311,8.368167,8.3629055,8.356035,8.350059,8.345889,8.342835,8.342346,8.343521,8.345807,8.348192,8.349361,8.349766,8.350133,8.351107,8.352419,8.357439,8.366056,8.375242,8.388355,8.404806,8.4204855,8.437347,8.458367,8.480648,8.50858,8.548696,8.590186,8.628419,8.670407,8.707265,8.736848,8.779122,8.848001,8.930859,9.048471,9.192623,9.315958,9.430526,9.552456,9.670709,9.76382,9.95482,11.022707,13.071346,16.123621,18.29953,18.55293,18.851353,19.009281,19.089518,19.117579,19.10172,19.092064,19.155283,19.15239,19.027897,18.83792,18.633507,18.458405,18.348171,18.230507,18.095524,17.96964,17.870407,17.626862,17.36272,17.2262,17.273167,17.596891,18.041378,18.396364,18.64988,18.80695,18.918053,18.994505,19.039637,19.070534,19.092445,19.11165,19.14244,19.167114,19.175537,19.17268,19.163443,19.159403,19.168201,19.19062,19.223688,19.249416,19.264545,19.248041,19.208904,19.175852,19.149965,19.186474,19.282213,19.440935,19.64669,19.81614,19.953083,20.052835,20.095213,20.109903,20.129337,20.174097,20.242235,20.356762,20.490019,20.59199,20.676348,20.686512,20.616714,20.489464,20.289124,20.094463,19.940987,19.805872,19.731426,19.698057,19.685629,19.697405,19.713856,19.729609,19.736916,19.73081,19.714909,19.682417,19.643658,19.606194,19.578634,19.568718,19.566555,19.55729,19.543179,19.522547,19.434042,19.26767,19.05215,18.872992,17.911188,16.450123,15.153355,14.246721,13.937218,13.844843,13.750644,13.710061,13.710279,13.71128,13.708494,13.69639,13.675976,13.655512,13.647023,13.64814,13.668397,13.701141,13.728222,13.755605,13.765892,13.756049,13.734788,13.712719,13.709705,13.727458,13.79063,13.865891,13.913186,13.923342,13.866566,13.776591,13.710867,13.699671,13.748196,13.772608,14.16763,15.278668,17.47994,19.687775,20.804209,20.931679,21.086586,21.173203,21.185617,21.107256,21.029251,21.027634,21.060925,21.12698,21.194073,21.247759,21.303223,21.341396,21.3612,21.372873,21.370155,21.360054,21.343985,21.334408,21.337477,21.348305,21.348207,21.303835,21.218227,20.986431,20.653938,20.373114,19.493252,18.546394,18.089304,17.690186,17.462805,17.422468,17.454844,17.58655,17.75612,17.894373,18.060282,18.219711,18.34887,18.491165,18.622108,18.716658,18.808891,18.891052,18.945143,18.983366,19.022789,19.060019,19.095518,19.141127,19.187614,19.225397,19.269173,19.313286,19.348162,19.38439,19.426779,19.468258,19.510174,19.571709,19.646242,19.721407,19.83363,19.970968,20.097626,20.257225,20.42306,20.5438,20.641888,20.712511,20.74294,20.753891,20.756992,20.761446,20.77413,20.799603,20.837189,20.87433,20.918938,20.965286,21.000225,21.033054,21.060867,21.074072,21.077854,21.067244,21.042332,21.013935,20.987902,20.97128,20.96444,20.966444,20.983852,21.01001,21.042934,21.08561,21.126137,21.162361,21.20729,21.253494,21.294392,21.34848,21.408794,21.459574,21.512331,21.560755,21.594887,21.626925,21.667206,21.708097,21.746807,21.790379,21.811142,21.803528,21.75175,21.650818,21.544947,21.427443,21.312002,21.232292,21.166367,21.109098,21.080425,21.072712
8.380749,8.381305,8.382473,8.382326,8.379979,8.375879,8.370685,8.363898,8.358018,8.353959,8.351063,8.350784,8.3521805,8.354683,8.35723,8.358435,8.358617,8.358511,8.358992,8.359923,8.364632,8.37312,8.382277,8.395546,8.412342,8.428387,8.445808,8.468066,8.491857,8.520932,8.562223,8.604626,8.643416,8.686072,8.723743,8.754242,8.797544,8.867325,8.950782,9.069203,9.211864,9.333002,9.450794,9.579158,9.704721,9.801503,10.016714,11.149052,13.296589,16.31828,18.409243,18.630735,18.925823,19.090734,19.171604,19.200104,19.180147,19.166777,19.235703,19.226826,19.08896,18.890202,18.681282,18.505728,18.396164,18.280766,18.147173,18.021713,17.927984,17.679628,17.408272,17.279152,17.330526,17.654959,18.099607,18.458347,18.715271,18.872528,18.98304,19.058157,19.102047,19.132214,19.151892,19.168797,19.199217,19.22328,19.230782,19.2269,19.216307,19.21095,19.218954,19.240978,19.274408,19.300808,19.31626,19.298899,19.258028,19.224297,19.18608,19.21478,19.318428,19.48523,19.697742,19.870497,20.01167,20.114668,20.158062,20.17269,20.191399,20.235155,20.302505,20.41591,20.548649,20.651064,20.735868,20.747963,20.681162,20.557274,20.35968,20.165585,20.011118,19.872467,19.793114,19.75573,19.738781,19.746647,19.760567,19.773857,19.778461,19.769588,19.750282,19.71336,19.67037,19.629263,19.596752,19.585068,19.58644,19.574778,19.556602,19.534576,19.443481,19.27374,19.049511,18.839912,17.850195,16.392445,15.135853,14.260641,13.96232,13.8701935,13.780234,13.74262,13.74231,13.743208,13.7399645,13.72734,13.706764,13.686373,13.678349,13.680311,13.701446,13.734836,13.762288,13.79001,13.800266,13.790007,13.767998,13.744547,13.740021,13.756078,13.819716,13.897257,13.946333,13.958094,13.903799,13.817307,13.753094,13.744707,13.798219,13.828353,14.232351,15.360991,17.608055,19.804943,20.877127,20.996494,21.13993,21.22217,21.239813,21.159155,21.077557,21.075335,21.10957,21.178469,21.248718,21.304646,21.36125,21.3986,21.41661,21.424492,21.41666,21.402164,21.38139,21.366886,21.366089,21.373472,21.371685,21.32881,21.24707,21.019993,20.693537,20.419006,19.575436,18.64745,18.16879,17.768665,17.538967,17.489826,17.515682,17.641645,17.807491,17.942936,18.105364,18.25957,18.38223,18.511143,18.626556,18.71044,18.792618,18.867737,18.919909,18.959541,19.00364,19.046429,19.086071,19.13564,19.184559,19.22334,19.267921,19.31278,19.348389,19.385168,19.426588,19.465414,19.503822,19.55951,19.62734,19.696331,19.80418,19.936829,20.056824,20.214231,20.385466,20.515736,20.623463,20.703625,20.740427,20.755966,20.762356,20.768137,20.78143,20.807337,20.845158,20.882486,20.927393,20.974083,21.009254,21.042183,21.069706,21.08211,21.084677,21.072012,21.044567,21.01382,20.984657,20.964073,20.953217,20.949322,20.95864,20.976757,21.000767,21.032824,21.064564,21.09472,21.132671,21.172775,21.209356,21.258099,21.313942,21.36221,21.411427,21.45559,21.485764,21.513561,21.548,21.582685,21.61559,21.650532,21.666445,21.660889,21.62007,21.537704,21.450031,21.362663,21.270838,21.198336,21.13965,21.086435,21.056828,21.04624
8.389085,8.389651,8.390831,8.3906765,8.3883505,8.384313,8.379187,8.372481,8.366687,8.362719,8.3599615,8.359863,8.361432,8.364104,8.366754,8.367933,8.3678875,8.367309,8.36729,8.367834,8.37222,8.380567,8.389687,8.403122,8.420287,8.436722,8.454667,8.478115,8.503363,8.533405,8.575579,8.618605,8.657719,8.700832,8.739283,8.770842,8.81538,8.886373,8.970677,9.088519,9.229409,9.349689,9.470555,9.605093,9.738552,9.840825,10.081435,11.283995,13.544057,16.526861,18.524586,18.721972,19.006245,19.169825,19.250038,19.278852,19.25528,19.238838,19.314564,19.298483,19.147047,18.943254,18.730183,18.552717,18.442936,18.328844,18.196554,18.072142,17.983315,17.732649,17.456318,17.331041,17.385395,17.70956,18.151392,18.51471,18.776775,18.934292,19.04473,19.119127,19.16198,19.190645,19.207748,19.222408,19.25208,19.275227,19.28188,19.277395,19.266014,19.259851,19.267324,19.289118,19.322723,19.349388,19.364807,19.346571,19.304287,19.270184,19.22092,19.239586,19.344683,19.524225,19.748367,19.923023,20.068157,20.17419,20.21853,20.23316,20.251303,20.294086,20.360407,20.472237,20.604055,20.706764,20.791775,20.805794,20.742275,20.622059,20.427906,20.23516,20.080263,19.938477,19.854366,19.81303,19.791584,19.79535,19.80636,19.816864,19.818462,19.806688,19.784029,19.742857,19.695917,19.651556,19.614182,19.600704,19.60583,19.591845,19.569412,19.545692,19.452446,19.27819,19.044037,18.808708,17.794724,16.339912,15.120792,14.275401,13.987754,13.895235,13.80817,13.773121,13.773251,13.774235,13.770546,13.757425,13.736725,13.716249,13.70853,13.711451,13.733562,13.767726,13.795723,13.824106,13.834679,13.824215,13.801688,13.776855,13.7705,13.784637,13.846367,13.924334,13.977173,13.990115,13.936642,13.852953,13.790172,13.7830105,13.839333,13.878555,14.297777,15.44709,17.734833,19.917141,20.942379,21.04789,21.177542,21.256998,21.282513,21.202562,21.12023,21.11919,21.155672,21.228676,21.303019,21.36163,21.41984,21.456905,21.47371,21.479097,21.467978,21.4507,21.426302,21.408113,21.40472,21.40943,21.406113,21.363813,21.28383,21.05972,20.737522,20.46687,19.653332,18.742329,18.24715,17.844229,17.610313,17.553074,17.572496,17.692776,17.85531,17.989092,18.149061,18.297663,18.411945,18.52969,18.632294,18.705654,18.77787,18.847248,18.89918,18.939499,18.987473,19.035511,19.079035,19.132439,19.183865,19.223797,19.26937,19.315208,19.35177,19.389353,19.430338,19.467203,19.50279,19.5534,19.615166,19.678614,19.780464,19.908922,20.027079,20.175138,20.342524,20.479382,20.594017,20.683788,20.728806,20.748957,20.759094,20.767038,20.781551,20.808678,20.847313,20.88504,20.930363,20.977327,21.012537,21.045263,21.072224,21.083763,21.085215,21.071075,21.04216,21.010202,20.979425,20.956434,20.942755,20.934193,20.93776,20.950455,20.96678,20.987846,21.009336,21.032055,21.063025,21.098713,21.133062,21.1796,21.230669,21.271896,21.314226,21.35137,21.37591,21.398598,21.426031,21.45401,21.482048,21.512861,21.52904,21.527695,21.496685,21.437426,21.378284,21.311338,21.235989,21.174423,21.12347,21.075613,21.046648,21.033802
8.400501,8.401264,8.402549,8.402427,8.400107,8.396078,8.390957,8.38426,8.378494,8.374578,8.371899,8.37191,8.373593,8.376348,8.379011,8.380113,8.379772,8.378651,8.378076,8.378187,8.382188,8.390327,8.399356,8.412891,8.430336,8.447068,8.465748,8.490404,8.516792,8.5476055,8.590372,8.633734,8.672977,8.716552,8.756101,8.789194,8.835713,8.908741,8.994477,9.111733,9.250534,9.369824,9.494071,9.635522,9.778843,9.88979,10.15987,11.461863,13.899632,16.817465,18.667788,18.832323,19.10029,19.26118,19.339832,19.366348,19.34026,19.324245,19.407633,19.384676,19.219593,19.010807,18.792313,18.6112,18.500153,18.386501,18.255089,18.131855,18.048481,17.796783,17.515966,17.39289,17.448658,17.770138,18.205513,18.575886,18.846674,19.004719,19.115604,19.189539,19.230892,19.256063,19.269447,19.281654,19.309788,19.331593,19.337585,19.332973,19.321463,19.315147,19.322456,19.34421,19.377926,19.404636,19.419806,19.400604,19.357006,19.322668,19.262804,19.271162,19.376474,19.57063,19.80855,19.985529,20.135286,20.245028,20.290754,20.305584,20.323345,20.364801,20.429054,20.537735,20.667263,20.76969,20.85429,20.870502,20.811356,20.695927,20.506939,20.317093,20.162544,20.017765,19.928349,19.882353,19.855494,19.854115,19.86133,19.868105,19.86577,19.85037,19.823727,19.77769,19.726303,19.677788,19.638515,19.624979,19.62959,19.611492,19.584372,19.558266,19.460302,19.279896,19.035376,18.772913,17.719034,16.257786,15.100791,14.296905,14.018093,13.923688,13.839536,13.80782,13.808886,13.810127,13.805939,13.792188,13.771316,13.750346,13.742636,13.746912,13.770332,13.805618,13.834613,13.863692,13.87504,13.865322,13.84259,13.81609,13.807149,13.818342,13.876526,13.953464,14.009365,14.023147,13.970564,13.889845,13.829347,13.823313,13.881887,13.934248,14.376695,15.551163,17.874529,20.023975,20.988567,21.087097,21.214012,21.29435,21.319801,21.243105,21.165312,21.167688,21.208332,21.2864,21.365131,21.427467,21.48814,21.525488,21.541656,21.545343,21.531696,21.51215,21.485092,21.464104,21.458456,21.46067,21.455547,21.41262,21.331804,21.109596,20.791664,20.52423,19.737188,18.841671,18.3326,17.925999,17.686329,17.620293,17.63224,17.745804,17.904926,18.038334,18.196552,18.339066,18.443836,18.549585,18.638569,18.700613,18.76254,18.825434,18.87691,18.921162,18.975422,19.02932,19.077442,19.13534,19.189613,19.230768,19.277218,19.323898,19.361452,19.400028,19.44112,19.476723,19.510197,19.556398,19.61235,19.670174,19.765125,19.887812,20.00266,20.144917,20.30488,20.436869,20.555897,20.65446,20.707594,20.735447,20.75211,20.764292,20.78272,20.81342,20.854588,20.89398,20.94067,20.9882,21.023169,21.055058,21.080383,21.090015,21.089497,21.073399,21.04334,21.011078,20.979345,20.95501,20.940157,20.930214,20.929539,20.935474,20.942638,20.952894,20.965273,20.980122,21.00237,21.030533,21.059172,21.098385,21.141317,21.175665,21.21241,21.245285,21.266739,21.285345,21.30766,21.330824,21.354183,21.381487,21.39978,21.405334,21.391088,21.357456,21.322,21.275164,21.218489,21.17048,21.128963,21.088177,21.06057,21.044376
8.413181,8.414322,8.415817,8.415785,8.413473,8.409407,8.404211,8.397427,8.3916,8.387651,8.384927,8.384897,8.386558,8.389271,8.391815,8.39272,8.392056,8.390457,8.389433,8.389198,8.392876,8.400799,8.409689,8.423186,8.4406805,8.45748,8.47688,8.50246,8.529409,8.560609,8.603536,8.646895,8.686102,8.730161,8.771074,8.8060465,8.85515,8.930813,9.018324,9.13558,9.272411,9.390128,9.516524,9.664212,9.817933,9.938387,10.244829,11.6429825,14.233389,17.10666,18.827852,18.941238,19.190174,19.349358,19.426037,19.44889,19.42182,19.409153,19.50002,19.47262,19.296453,19.082392,18.857738,18.671686,18.558167,18.443745,18.312563,18.19001,18.108864,17.857466,17.575796,17.454174,17.509947,17.8268,18.253725,18.631283,18.911633,19.070286,19.18182,19.255419,19.295048,19.315672,19.324865,19.334723,19.360989,19.38147,19.387272,19.38315,19.372349,19.366703,19.374336,19.396334,19.430138,19.456675,19.47142,19.451355,19.406796,19.372461,19.303606,19.303345,19.409285,19.61632,19.866476,20.045944,20.20033,20.31403,20.361486,20.376734,20.394276,20.433935,20.494896,20.598637,20.72446,20.826162,20.909674,20.928116,20.87415,20.764236,20.581718,20.396164,20.242981,20.096052,20.001719,19.95118,19.918907,19.91227,19.915565,19.91847,19.912167,19.893272,19.862925,19.812534,19.757217,19.70464,19.66615,19.653786,19.65437,19.631308,19.599686,19.570616,19.466038,19.279345,19.026604,18.740341,17.641651,16.168226,15.081105,14.320096,14.047232,13.950644,13.869055,13.84067,13.84296,13.844652,13.840086,13.825731,13.8047,13.782821,13.774724,13.780643,13.805492,13.841988,13.872206,13.902069,13.914516,13.90608,13.883426,13.855296,13.843533,13.851334,13.905386,13.979824,14.035703,14.049908,13.999077,13.921026,13.863178,13.858014,13.918237,13.987825,14.452085,15.642064,17.984922,20.099377,21.01377,21.112173,21.244154,21.328,21.349901,21.278572,21.20857,21.215424,21.260426,21.342564,21.424404,21.49,21.55293,21.59084,21.60696,21.609886,21.594776,21.573738,21.54472,21.521204,21.513191,21.512999,21.505623,21.460945,21.37764,21.156166,20.842062,20.57792,19.80756,18.922552,18.4068,17.996614,17.750473,17.676409,17.68113,17.787949,17.944155,18.079098,18.23695,18.375086,18.473198,18.5695,18.647453,18.700577,18.754587,18.811697,18.862103,18.911402,18.971878,19.030384,19.082262,19.14382,19.20042,19.242588,19.289701,19.337013,19.375391,19.41496,19.456684,19.492033,19.52463,19.568268,19.62025,19.673897,19.763014,19.879452,19.989346,20.129324,20.282515,20.404268,20.521568,20.623013,20.68169,20.717884,20.743832,20.763052,20.786354,20.821028,20.865019,20.906734,20.955276,21.00339,21.037693,21.068047,21.090805,21.097795,21.094841,21.07669,21.046003,21.01425,20.98276,20.958853,20.944706,20.934809,20.930796,20.930735,20.930834,20.933743,20.94016,20.948942,20.963358,20.983292,21.004665,21.034063,21.067894,21.096777,21.12887,21.15925,21.180174,21.197992,21.219534,21.241346,21.26171,21.287086,21.308073,21.320097,21.32182,21.307446,21.28554,21.255674,21.216831,21.181625,21.149399,21.115814,21.090115,21.071218
8.424955,8.426526,8.42828,8.428377,8.426102,8.422004,8.416714,8.409811,8.403879,8.399844,8.397003,8.396839,8.398375,8.401012,8.403363,8.403966,8.402995,8.401035,8.399713,8.399261,8.402733,8.410498,8.419239,8.432623,8.450032,8.466768,8.486675,8.512908,8.540194,8.571558,8.614434,8.65767,8.696814,8.741368,8.783676,8.82055,8.87233,8.950654,9.039858,9.15751,9.292691,9.408504,9.535307,9.688053,9.85153,9.979897,10.328682,11.788934,14.430323,17.320082,18.996778,19.039196,19.268234,19.426735,19.501663,19.522379,19.494427,19.48427,19.583027,19.553062,19.367498,19.148127,18.917486,18.726303,18.60971,18.49396,18.362722,18.240133,18.156939,17.906559,17.628176,17.50844,17.56406,17.876205,18.295284,18.678047,18.965897,19.12496,19.236937,19.310167,19.348255,19.365005,19.370329,19.377857,19.40256,19.422024,19.427948,19.424633,19.414944,19.410368,19.418575,19.440987,19.474865,19.501108,19.515354,19.494583,19.449396,19.415298,19.338198,19.330248,19.437376,19.6553,19.915543,20.097017,20.255585,20.373049,20.422266,20.438047,20.455412,20.493034,20.550186,20.648205,20.769918,20.871117,20.953142,20.97359,20.925014,20.820606,20.644655,20.463743,20.31246,20.16413,20.065636,20.011173,19.974134,19.962826,19.962662,19.962223,19.95259,19.930882,19.897615,19.843918,19.785671,19.730087,19.691803,19.679928,19.677563,19.650341,19.614471,19.582321,19.471521,19.279642,19.020807,18.714388,17.582481,16.102215,15.067564,14.339327,14.071783,13.9740715,13.894609,13.868914,13.872486,13.874731,13.869979,13.855173,13.834068,13.811165,13.802513,13.81011,13.836277,13.873784,13.90508,13.935996,13.949559,13.94199,13.919401,13.889866,13.875561,13.880274,13.930569,14.001839,14.05519,14.069786,14.021616,13.945786,13.890236,13.885534,13.947247,14.037548,14.515702,15.705495,18.05601,20.150475,21.037605,21.134892,21.267036,21.353413,21.378607,21.313368,21.249825,21.260544,21.308458,21.392954,21.476479,21.543823,21.607943,21.646158,21.662355,21.664928,21.649117,21.627346,21.596128,21.569426,21.558655,21.556004,21.546165,21.499584,21.41436,21.19305,20.881924,20.621576,19.860653,18.982313,18.465223,18.052036,17.799599,17.718658,17.7171,17.817816,17.971643,18.10923,18.267641,18.40352,18.498774,18.589293,18.659851,18.707111,18.755682,18.80866,18.857994,18.909883,18.973879,19.03517,19.08927,19.153072,19.211271,19.254314,19.302195,19.350266,19.389418,19.429956,19.472523,19.508135,19.540564,19.58297,19.632586,19.683504,19.768215,19.8793,19.984531,20.119133,20.267916,20.386782,20.496641,20.59459,20.656942,20.6992,20.73579,20.764103,20.79032,20.826607,20.871737,20.915306,20.96525,21.013596,21.046947,21.07552,21.095642,21.100176,21.095139,21.075485,21.04464,21.01353,20.98347,20.961525,20.948835,20.936464,20.928228,20.925003,20.922312,20.921211,20.923128,20.927706,20.936775,20.951096,20.96745,20.990261,21.016842,21.039658,21.064556,21.089441,21.108921,21.12864,21.152237,21.174398,21.193787,21.219082,21.242348,21.258224,21.267576,21.265165,21.255424,21.239029,21.214298,21.189552,21.165298,21.137934,21.1145,21.095118
8.436637,8.438834,8.440988,8.441317,8.43913,8.434996,8.429574,8.422462,8.416294,8.412031,8.4088745,8.408324,8.409488,8.41179,8.413692,8.413795,8.412355,8.40996,8.408354,8.407728,8.411044,8.418648,8.427198,8.440355,8.45747,8.473908,8.494218,8.520981,8.548413,8.579738,8.622333,8.665321,8.704405,8.749779,8.794163,8.833722,8.889199,8.971002,9.062224,9.180544,9.313391,9.426018,9.552166,9.711021,9.887258,10.020622,10.459221,12.020494,14.683744,17.52421,19.127254,19.137703,19.350756,19.505049,19.578901,19.59628,19.572504,19.569386,19.66768,19.633741,19.441565,19.21592,18.97762,18.779222,18.657877,18.53777,18.406567,18.284698,18.18752,17.9403,17.677317,17.56096,17.616737,17.922827,18.331926,18.718742,19.014177,19.174303,19.286703,19.359568,19.396048,19.407764,19.408733,19.414179,19.437284,19.455858,19.462227,19.460072,19.45187,19.448624,19.45747,19.480217,19.513891,19.539488,19.552921,19.530977,19.484865,19.451395,19.362774,19.344416,19.454082,19.686071,19.958578,20.141823,20.305702,20.427797,20.47887,20.495186,20.511614,20.545588,20.597063,20.687183,20.802286,20.900818,20.983927,21.009018,20.966335,20.871235,20.705872,20.531784,20.383633,20.234169,20.130798,20.071564,20.028713,20.011791,20.007607,20.003475,19.990385,19.965836,19.929653,19.872631,19.811394,19.752632,19.714895,19.703577,19.697441,19.66547,19.623865,19.586468,19.470003,19.271105,19.001831,18.67302,17.503967,16.016989,15.04539,14.355608,14.09364,13.994833,13.917646,13.8951435,13.900744,13.904014,13.899358,13.884219,13.863251,13.838898,13.829337,13.839361,13.867323,13.906132,13.938892,13.971373,13.986538,13.980114,13.957821,13.926794,13.9095125,13.910584,13.955676,14.022198,14.072291,14.085699,14.039131,13.965832,13.912832,13.907806,13.968904,14.076332,14.562023,15.744089,18.089874,20.179794,21.06329,21.156649,21.291021,21.382015,21.40882,21.350067,21.293749,21.308344,21.358574,21.444504,21.528948,21.597446,21.662432,21.701061,21.71762,21.720228,21.703428,21.679895,21.646002,21.615677,21.601345,21.594439,21.579464,21.528954,21.441225,21.22043,20.913845,20.659449,19.907265,19.03608,18.521112,18.105074,17.844992,17.755795,17.746258,17.83937,17.991013,18.133553,18.29485,18.431114,18.526747,18.6148,18.680511,18.72315,18.76678,18.814857,18.860994,18.91109,18.97515,19.037548,19.091803,19.156118,19.215181,19.259102,19.307957,19.35716,19.39737,19.4391,19.482822,19.519104,19.551884,19.593864,19.64191,19.6907,19.771238,19.8764,19.975906,20.103144,20.244375,20.357878,20.46252,20.55827,20.622662,20.668888,20.712543,20.748526,20.780743,20.822464,20.868896,20.91003,20.960295,21.008657,21.04031,21.06616,21.082817,21.08455,21.077332,21.056107,21.026646,21.000065,20.97447,20.953945,20.939354,20.924913,20.91435,20.90909,20.903648,20.898603,20.896416,20.897247,20.901653,20.911156,20.9232,20.940397,20.960867,20.978619,20.99786,21.017487,21.03345,21.049932,21.070686,21.091465,21.110535,21.136482,21.163078,21.18435,21.203032,21.212402,21.212763,21.20858,21.197283,21.18299,21.167328,21.145882,21.12438,21.105858
8.446903,8.449858,8.45253,8.453228,8.451277,8.447221,8.441768,8.434531,8.428156,8.423656,8.420116,8.419075,8.419783,8.421498,8.422673,8.422123,8.420097,8.4172325,8.415387,8.414633,8.417823,8.425235,8.433502,8.446262,8.462824,8.4787035,8.499309,8.526512,8.55396,8.585148,8.627399,8.670182,8.709348,8.755896,8.802902,8.845738,8.905677,8.991447,9.084731,9.204139,9.334345,9.442661,9.567822,9.727174,9.912748,10.056805,10.631004,12.331976,15.004493,17.724415,19.213081,19.230122,19.431469,19.576252,19.64674,19.662418,19.652092,19.661842,19.747272,19.70969,19.517464,19.283955,19.036282,18.828491,18.700352,18.57257,18.44072,18.320967,18.205982,17.964264,17.722836,17.61118,17.667297,17.966328,18.36426,18.751432,19.051811,19.213373,19.325846,19.398558,19.43396,19.440056,19.437778,19.443197,19.465544,19.48413,19.491644,19.491081,19.484772,19.483067,19.492529,19.515411,19.548302,19.57251,19.584469,19.560417,19.51291,19.48069,19.379074,19.348595,19.460802,19.70749,19.99235,20.176567,20.345388,20.47253,20.526192,20.543194,20.558128,20.587381,20.632195,20.713375,20.820507,20.91488,20.999092,21.030525,20.996094,20.912996,20.760653,20.594707,20.45065,20.300539,20.19225,20.128132,20.079264,20.056562,20.048365,20.04073,20.02456,19.99758,19.95896,19.899157,19.835352,19.773687,19.736813,19.726097,19.715843,19.679129,19.631422,19.587986,19.466438,19.261265,18.981527,18.630608,17.417828,15.918083,15.015473,14.36645,14.109791,14.011133,13.937181,13.918487,13.926443,13.931133,13.926821,13.911377,13.890522,13.864786,13.854329,13.866525,13.89614,13.936234,13.970444,14.005041,14.022018,14.016304,13.99438,13.962056,13.9418745,13.939331,13.97874,14.039699,14.085935,14.096573,14.050805,13.980974,13.930965,13.92527,13.9838295,14.099919,14.586896,15.758562,18.088062,20.18656,21.08954,21.182014,21.325861,21.423634,21.445751,21.391508,21.341225,21.357813,21.408337,21.49355,21.57728,21.645626,21.71058,21.74939,21.766317,21.769148,21.75119,21.725256,21.688484,21.653782,21.634373,21.621151,21.597775,21.540392,21.4486,21.227352,20.926558,20.681753,19.933334,19.067705,18.562616,18.145466,17.878067,17.78126,17.763542,17.848108,17.99745,18.147232,18.31246,18.451075,18.551737,18.641306,18.705616,18.746284,18.786957,18.83091,18.872997,18.918701,18.978767,19.038733,19.091156,19.15425,19.213352,19.258072,19.308132,19.358837,19.400303,19.443405,19.488583,19.525982,19.5597,19.60225,19.649775,19.697279,19.774128,19.873014,19.965864,20.08376,20.214321,20.319674,20.418318,20.51017,20.573662,20.620876,20.668043,20.709188,20.746479,20.793533,20.842052,20.881517,20.929384,20.973555,21.000748,21.022396,21.035345,21.035583,21.02877,21.010756,20.986235,20.964088,20.94111,20.920624,20.90498,20.890453,20.879505,20.873055,20.865637,20.857761,20.852821,20.851286,20.85292,20.859598,20.869026,20.882776,20.89936,20.91377,20.929298,20.94469,20.956608,20.968098,20.983318,21.000032,21.016506,21.039833,21.06552,21.087723,21.110588,21.12764,21.136055,21.141914,21.142368,21.137753,21.130352,21.115633,21.097797,21.081919
8.454588,8.4582405,8.461433,8.462572,8.461006,8.457201,8.451907,8.444779,8.438398,8.433815,8.4300375,8.428645,8.429029,8.430137,8.4305525,8.429399,8.426819,8.423501,8.421417,8.420533,8.423579,8.430749,8.438667,8.4509325,8.466887,8.482233,8.503037,8.530603,8.558096,8.589241,8.631314,8.67406,8.713475,8.761264,8.810781,8.856694,8.920777,9.010064,9.104978,9.225503,9.353257,9.457339,9.5828085,9.73631,9.924496,10.086253,10.800707,12.647131,15.34221,17.918177,19.27221,19.30777,19.499601,19.6327,19.697474,19.714094,19.721504,19.74554,19.81344,19.77338,19.585434,19.345219,19.088627,18.871124,18.735725,18.599705,18.466408,18.34948,18.223822,17.988274,17.76377,17.656683,17.712961,18.005228,18.393002,18.777094,19.078632,19.24098,19.353508,19.4263,19.461039,19.462952,19.459661,19.467058,19.489826,19.509478,19.518692,19.519865,19.515488,19.515217,19.525131,19.54787,19.579487,19.601753,19.611729,19.585138,19.53561,19.50315,19.391445,19.351578,19.464737,19.722887,20.017296,20.20169,20.37378,20.505302,20.562035,20.579824,20.59336,20.618374,20.65755,20.731226,20.831608,20.922312,21.005816,21.042933,21.018026,20.945883,20.804941,20.646168,20.505877,20.355433,20.243101,20.175003,20.121185,20.093744,20.082308,20.07197,20.053535,20.024826,19.98451,19.922764,19.857151,19.793491,19.757423,19.747028,19.733248,19.692602,19.640066,19.591936,19.46583,19.256956,18.97071,18.600374,17.345549,15.829847,14.985552,14.37126,14.119938,14.022802,13.952906,13.938162,13.948183,13.954224,13.950221,13.934412,13.913427,13.88687,13.875906,13.889097,13.919608,13.960569,13.99574,14.032318,14.050732,14.045038,14.023383,13.990178,13.967818,13.962461,13.997271,14.05349,14.096192,14.103661,14.058417,13.992611,13.945577,13.939462,13.995158,14.111839,14.598169,15.764555,18.077774,20.187256,21.11451,21.210896,21.368633,21.473177,21.486378,21.433792,21.38685,21.403122,21.45216,21.535088,21.617004,21.684309,21.748594,21.7873,21.804403,21.807343,21.788393,21.76041,21.7211,21.6818,21.656612,21.636555,21.603727,21.538137,21.441029,21.218431,20.92347,20.68918,19.93829,19.075243,18.58569,18.169466,17.896915,17.795124,17.771118,17.848215,17.994982,18.15074,18.319477,18.46152,18.568998,18.662127,18.727375,18.768162,18.807823,18.849277,18.888184,18.930178,18.98483,19.040148,19.090302,19.151703,19.210518,19.255898,19.307169,19.359377,19.402027,19.446436,19.493076,19.531694,19.5665,19.609983,19.657476,19.704142,19.777813,19.870827,19.957243,20.06586,20.185366,20.281717,20.372509,20.45805,20.518518,20.564718,20.613152,20.6566,20.695026,20.743715,20.794113,20.835032,20.878819,20.915888,20.93757,20.954979,20.965145,20.96548,20.96118,20.949747,20.93148,20.911102,20.887543,20.86686,20.853474,20.840734,20.830212,20.822824,20.814413,20.805204,20.79906,20.796618,20.797358,20.8031,20.811485,20.82372,20.83833,20.850824,20.864044,20.876585,20.885736,20.894327,20.905046,20.916534,20.927925,20.945145,20.965153,20.98285,21.003315,21.022928,21.037155,21.04999,21.05902,21.061789,21.060661,21.052702,21.040012,21.027359
