3.083127,3.0820012,3.0814795,3.0813653,3.0821092,3.0833693,3.0854964,3.0881867,3.0904975,3.0928116,3.0955548,3.0978975,3.0995898,3.1014223,3.1028452,3.10371,3.1045895,3.1050627,3.1050673,3.104898,3.1043565,3.1036038,3.1027448,3.101295,3.100058,3.0997553,3.0994453,3.099289,3.099319,3.099409,3.0997906,3.10036,3.1009502,3.101563,3.1019893,3.1022,3.1025426,3.1028912,3.1030622,3.1032715,3.103366,3.1033,3.1032484,3.1030924,3.102851,3.102553,3.102162,3.1018682,3.1018353,3.1017768,3.1016722,3.101581,3.1013262,3.1009617,3.1006398,3.100134,3.0994346,3.0987415,3.0979362,3.096971,3.0961132,3.095354,3.094498,3.093712,3.09305,3.0921779,3.091195,3.090333,3.0893118,3.0881329,3.0871916,3.0867088,3.0863547,3.086129,3.0860186,3.0858803,3.0858607,3.0860243,3.086248,3.0865426,3.0868273,3.0871081,3.0875707,3.0881205,3.0886476,3.089232,3.0896459,3.0898283,3.0899868,3.09017,3.0903945,3.0908122,3.0914528,3.0921185,3.0929794,3.093986,3.0948672,3.0957341,3.0969272,3.0982695,3.0996113,3.101373,3.103174,3.1046376,3.1062493,3.1078637,3.1091883,3.1105628,3.1121027,3.1134868,3.1147857,3.1164083,3.1179996,3.1193821,3.1210227,3.1225357,3.1236587,3.125361,3.127326,3.1289463,3.1307645,3.1327531,3.1344576,3.136121,3.138019,3.1397293,3.14117,3.1428719,3.1446867,3.1463413,3.148335,3.1505885,3.1525288,3.1544654,3.1566305,3.158512,3.1601207,3.1619387,3.1635573,3.1648345,3.166494,3.1682572,3.1697216,3.1714585,3.1733432,3.1749315,3.1766298,3.1785684,3.180266,3.1817534,3.1834188,3.1849058,3.1861205,3.1874354,3.18864,3.189555,3.1904616,3.1912925,3.1918836,3.192373,3.1927137,3.1927114,3.1924052,3.1918535,3.1910849,3.19027,3.189297,3.1884074,3.1878426,3.1874475,3.187324,3.187447,3.1877208,3.1882262,3.1887336,3.1891336,3.1891525,3.1881628,3.1864882,3.1823816,3.1751556,3.1672125,3.1574502,3.1442752,3.1315098,3.1198432,3.1077068,3.0992086,3.094182,3.0915463,3.0930786,3.096725,3.1020498,3.1086013,3.114143,3.1193542,3.125688,3.1325562,3.1403894,3.1517272,3.1636238,3.173706,3.1859343,3.1955402,3.2001872,3.2061534,3.2141352,3.2238178,3.239967,3.2681937,3.3038225,3.3444138,3.405384,3.4696653,3.5216851,3.5815158,3.6314886,3.662012,3.6894517,3.707082,3.7137537,3.7157416,3.7125728,3.7066941,3.700802,3.6928196,3.6844869,3.677299,3.6683846,3.659196,3.6517787,3.643795,3.636064,3.6304348,3.625619,3.6213913,3.6189127,3.6175876,3.6178765,3.6181636,3.6165862,3.6146078,3.6128764,3.6121716,3.6131492,3.6192412,3.630313,3.6461248,3.6741662,3.7121606,3.7541184,3.8223684,3.914698,4.0080733,4.173688,4.3826065,4.558914,4.7492676,4.939234,5.078151,5.1933336,5.2928505,5.348609,5.3761754,5.393712,5.404548,5.4180136,5.445933,5.489396,5.530059,5.5611186,5.5453916,5.4774475,5.3981066,5.202061,4.8689556,4.4414783,4.0163193,3.7724786,3.7200747,3.6816921,3.6789176,3.6892614,3.696072,3.699638,3.6990504,3.6982055,3.6975377,3.6985688,3.7013478,3.7059708,3.7126694,3.7196248,3.728618,3.737304,3.742704,3.746962,3.7492094,3.7488577,3.7471852,3.7440448,3.7404928,3.7376518,3.7343202,3.7307262,3.7274373
3.0914912,3.0917816,3.09233,3.093448,3.095179,3.0969162,3.0987654,3.101137,3.1034749,3.105665,3.1081085,3.1100535,3.111369,3.1127052,3.1136432,3.1141381,3.1145875,3.1146595,3.114376,3.1138916,3.1130552,3.1121042,3.1110854,3.1095219,3.1082397,3.1079133,3.1075797,3.1073923,3.1073847,3.1074452,3.1077538,3.1082144,3.108702,3.1092284,3.1096067,3.1097822,3.1101036,3.1104531,3.1106374,3.1108744,3.1110046,3.110971,3.1109524,3.1108272,3.1106071,3.1103327,3.1099596,3.1096702,3.1096299,3.10956,3.1094441,3.1093426,3.109085,3.1087284,3.10842,3.107935,3.107264,3.106598,3.1058195,3.1048927,3.1040788,3.1033654,3.1025653,3.101829,3.1012025,3.100368,3.0994127,3.0985641,3.0975559,3.0963902,3.0954633,3.0949993,3.0946789,3.0944955,3.0944307,3.094349,3.0943775,3.0945725,3.094829,3.0951524,3.0954595,3.095769,3.0962875,3.09691,3.0975168,3.0982113,3.0987391,3.0990286,3.0992932,3.0995545,3.0998316,3.100294,3.1009684,3.1016612,3.1025474,3.1035635,3.104432,3.1052809,3.1063933,3.1075945,3.1087735,3.1103148,3.111915,3.113253,3.1147585,3.1163125,3.1176162,3.1189926,3.1205575,3.1219685,3.1232843,3.1249058,3.1264682,3.1278071,3.129386,3.130833,3.1319025,3.1335325,3.1354356,3.1370218,3.138791,3.1407244,3.1423779,3.143974,3.1458154,3.1475027,3.1489382,3.150663,3.152536,3.1542573,3.1563225,3.1586378,3.1606166,3.162593,3.1648335,3.1668072,3.1684947,3.170407,3.1721108,3.1734533,3.1751714,3.176965,3.178432,3.180152,3.1819882,3.1835155,3.1851406,3.1869893,3.1886082,3.190028,3.1916292,3.193078,3.1942751,3.1955876,3.1968138,3.1977596,3.1987214,3.1996474,3.2003503,3.2009745,3.2014983,3.201683,3.2015522,3.2012172,3.2006438,3.1999655,3.1991272,3.1982985,3.19771,3.1972249,3.1969042,3.1968024,3.1968422,3.1971822,3.1977477,3.1983643,3.1990519,3.1992025,3.198745,3.1963463,3.19099,3.1843767,3.1749468,3.1619635,3.14932,3.1368728,3.1233182,3.1131432,3.1064699,3.1015868,3.1009889,3.1032133,3.1071756,3.112589,3.1173863,3.1224914,3.1285315,3.1346476,3.1413684,3.1522214,3.1644127,3.1747975,3.1870613,3.1982746,3.2063966,3.2125266,3.21872,3.2261772,3.2368546,3.2567754,3.2840981,3.3165555,3.3681035,3.42835,3.4843526,3.5470054,3.6027799,3.6427464,3.677019,3.7006168,3.7122598,3.7183628,3.7181702,3.7136497,3.7086585,3.7017694,3.6943545,3.687655,3.6791906,3.6702266,3.662818,3.6546497,3.646369,3.6399608,3.6340907,3.6283205,3.624242,3.621464,3.619506,3.619374,3.6204462,3.6221728,3.6233735,3.6234736,3.6244974,3.6283402,3.6349063,3.64334,3.6609728,3.6873817,3.7173872,3.765982,3.832448,3.9010699,4.005975,4.1567287,4.3122964,4.498897,4.70833,4.8795056,5.03749,5.1753855,5.25638,5.311202,5.3499756,5.371072,5.3896465,5.41971,5.460653,5.497073,5.525536,5.5057173,5.4367437,5.3708386,5.1780567,4.841009,4.418543,4.0053554,3.7720428,3.7216866,3.6856735,3.6840737,3.69454,3.7016292,3.70533,3.7047915,3.7041583,3.7036822,3.7048259,3.7076845,3.712503,3.7194357,3.7265444,3.7353811,3.743815,3.7490664,3.753068,3.7549844,3.7543364,3.7524033,3.748963,3.745143,3.7420874,3.738543,3.734821,3.7315037
3.1018953,3.103684,3.1055317,3.1076474,3.109767,3.1114693,3.1132197,3.1153696,3.117429,3.1192155,3.1210518,3.122355,3.123098,3.1237173,3.1239963,3.124024,3.1239579,3.1235986,3.1230464,3.1222897,3.121244,3.1201982,3.119131,3.1176047,3.1164274,3.116208,3.1159806,3.1158586,3.1158776,3.1158955,3.1160998,3.1164556,3.1168177,3.1172037,3.1174695,3.11755,3.1177697,3.1180415,3.1181746,3.118359,3.1184568,3.1184134,3.118382,3.1182566,3.1180494,3.1177921,3.117441,3.1171677,3.1171331,3.1170683,3.116961,3.1168714,3.1166382,3.116324,3.1160622,3.115641,3.115049,3.1144533,3.1137452,3.1129007,3.1121578,3.1114993,3.1107574,3.110071,3.1094851,3.1086898,3.107757,3.1069136,3.1058998,3.1047115,3.1037552,3.1032557,3.1028981,3.1026912,3.1026127,3.1025343,3.1025794,3.1027868,3.1030724,3.1034374,3.103786,3.1041698,3.1047864,3.105504,3.106227,3.1070952,3.1078188,3.108304,3.1088047,3.1092734,3.1096957,3.110303,3.111056,3.1117535,3.1126366,3.113607,3.114398,3.115158,3.1161067,3.117095,3.1180587,3.1193166,3.1206193,3.1217039,3.1229792,3.1243787,3.1256108,3.126945,3.1284974,3.1299105,3.1312351,3.1328592,3.1344106,3.1357327,3.137287,3.1387105,3.1397648,3.141371,3.143237,3.1447854,3.1465154,3.1484094,3.150035,3.1516085,3.153445,3.1551511,3.1566133,3.1583872,3.160329,3.1621182,3.1642609,3.166656,3.1686976,3.1707325,3.173016,3.1750085,3.1767056,3.1786723,3.1804488,3.1818376,3.1835868,3.1853771,3.1868181,3.1884885,3.1902466,3.1916916,3.193221,3.1949608,3.1964893,3.1978343,3.19937,3.20079,3.201984,3.203319,3.2045984,3.2056055,3.2066483,3.2076886,3.2085114,3.2092667,3.209968,3.2103496,3.2104206,3.2103734,3.210108,3.2096872,3.2091472,3.208529,3.2080011,3.2074828,3.2069507,3.2065396,3.2062082,3.20617,3.2065682,3.2071939,3.208352,3.2095642,3.210358,3.209876,3.2068572,3.20218,3.1944082,3.1826925,3.170511,3.1578128,3.142817,3.1305304,3.1220798,3.1144629,3.110866,3.1107411,3.112855,3.1170077,3.1210196,3.1256943,3.131627,3.1375532,3.1433768,3.1528428,3.1641083,3.174582,3.186808,3.1986675,3.2082787,3.2167058,3.2235394,3.229074,3.2369208,3.2500405,3.2685065,3.292704,3.3331714,3.3850079,3.438023,3.5030732,3.5648565,3.6095197,3.6534204,3.686617,3.703498,3.7152066,3.7199485,3.7180715,3.7139382,3.708301,3.7022839,3.6965578,3.6891704,3.681169,3.6744561,3.6668997,3.6589384,3.6524506,3.6461215,3.6393356,3.6339447,3.6298065,3.6259503,3.6243393,3.6248672,3.6267972,3.6299863,3.6329267,3.6355848,3.63793,3.6403034,3.6439147,3.6535225,3.6695755,3.6883283,3.7204614,3.7661214,3.8141093,3.8822923,3.982545,4.092271,4.2348857,4.428031,4.6139326,4.784751,4.9648294,5.098298,5.1862307,5.259113,5.3026924,5.3303413,5.3675156,5.410165,5.4448967,5.4721603,5.4505177,5.3822613,5.325817,5.1391363,4.805814,4.3921366,3.9936886,3.7717423,3.7232084,3.689589,3.689156,3.6996713,3.7071533,3.711063,3.7105355,3.7100909,3.7097545,3.710942,3.7138207,3.7187634,3.7259185,3.7332385,3.741807,3.7498636,3.754943,3.7586775,3.7602758,3.759359,3.7572012,3.753511,3.7494674,3.7462254,3.7424974,3.7386827,3.7353776
3.1132603,3.1162207,3.1189613,3.1215763,3.123717,3.12527,3.126928,3.1287794,3.1303666,3.1316354,3.1327882,3.133431,3.1336162,3.133552,3.1332223,3.132833,3.1323338,3.1316442,3.1309114,3.1299906,3.1288464,3.1277878,3.126749,3.1253438,3.1243427,3.1242878,3.1242235,3.1242046,3.1242678,3.1242404,3.1243322,3.1245818,3.1248093,3.12503,3.1251507,3.1251004,3.1251698,3.1253133,3.125352,3.1254349,3.1254587,3.1253786,3.1253066,3.125161,3.1249585,3.1247134,3.1243858,3.1241348,3.1241121,3.1240644,3.1239805,3.1239164,3.123732,3.1234913,3.1233063,3.1229892,3.122524,3.1220412,3.1214454,3.1207244,3.120088,3.1195264,3.1188815,3.1182761,3.1177626,3.1170485,3.1161761,3.1153605,3.114359,3.1131501,3.1121514,3.1115956,3.1111646,3.1108918,3.1107621,3.1106434,3.1106706,3.1108704,3.1111732,3.1115806,3.1119766,3.1124492,3.113182,3.1140103,3.1148696,3.115938,3.1168818,3.117581,3.1183567,3.1190758,3.1196718,3.120448,3.121287,3.1219797,3.122842,3.1237385,3.1244226,3.1250615,3.1258078,3.12655,3.1272748,3.128224,3.129206,3.130019,3.131031,3.1322265,3.133339,3.1345878,3.1360903,3.1374853,3.1388028,3.1404176,3.1419559,3.1432629,3.1448004,3.1462088,3.1472552,3.1488454,3.1506824,3.1521971,3.1538959,3.1557643,3.157381,3.1589584,3.1608193,3.1625652,3.164067,3.165896,3.1679,3.169742,3.1719456,3.1744099,3.1765103,3.178604,3.1809263,3.1829314,3.18464,3.1866283,3.18842,3.1898022,3.1915436,3.1933138,3.1947236,3.196331,3.1979985,3.1993556,3.2007818,3.2024033,3.2038321,3.2050886,3.2065458,3.207925,3.209105,3.2104545,3.211783,3.212848,3.2139664,3.21511,3.216037,3.2168999,3.2177503,3.21831,3.218581,3.2188425,3.2189384,3.2188396,3.2186828,3.218377,3.2180037,3.217558,3.2169328,3.2163072,3.2156885,3.215283,3.2154126,3.2158923,3.217207,3.2190766,3.2207675,3.221881,3.2210903,3.218503,3.2130907,3.2035217,3.192534,3.1806374,3.1651797,3.1511092,3.1405978,3.1299715,3.122939,3.1198184,3.1192737,3.1216297,3.1247787,3.1288362,3.134507,3.1403072,3.1458335,3.1539507,3.163661,3.1735263,3.185533,3.1976244,3.207586,3.2187002,3.2278442,3.2332664,3.2399876,3.2487698,3.2604241,3.2767396,3.3062773,3.347692,3.3925042,3.4553928,3.5204928,3.5687127,3.621048,3.6645603,3.6888545,3.707169,3.7180645,3.7201536,3.718134,3.7137256,3.7084522,3.7039146,3.697844,3.6911051,3.6853895,3.6788716,3.6718044,3.6657953,3.6596012,3.6524627,3.6462781,3.6411529,3.635885,3.632505,3.6311333,3.631248,3.6341734,3.638402,3.6425633,3.6462836,3.6488867,3.651329,3.656621,3.6656713,3.6766772,3.6975787,3.728566,3.7611637,3.809782,3.8757324,3.9428587,4.03411,4.1768627,4.334488,4.4945707,4.692075,4.863653,4.9873195,5.1077785,5.1912675,5.2392054,5.2912245,5.340133,5.3764734,5.4061446,5.3860455,5.319459,5.2681265,5.0863724,4.7608805,4.3621116,3.981814,3.7716107,3.7247477,3.6932836,3.6937904,3.7043154,3.7122166,3.7164807,3.7161102,3.715851,3.7156267,3.7168212,3.7196698,3.7247157,3.7319765,3.7392735,3.747573,3.7552986,3.7601776,3.763661,3.7649837,3.7638483,3.7615204,3.75764,3.7534206,3.7500238,3.7461445,3.742271,3.7390108
3.1228204,3.1263413,3.1292307,3.1319022,3.1340685,3.135682,3.137157,3.1386242,3.1398134,3.1407046,3.1414063,3.141648,3.1415162,3.141066,3.1403968,3.1397786,3.1390538,3.1382055,3.137395,3.1364117,3.135233,3.1341708,3.1331508,3.1318216,3.1309307,3.1309786,3.1310136,3.1310487,3.1311202,3.1310592,3.1310701,3.1312327,3.1313558,3.1314516,3.1314616,3.1313112,3.1312613,3.1313007,3.1312633,3.131265,3.1312313,3.1311235,3.1310203,3.1308575,3.1306562,3.1304202,3.1301074,3.129869,3.12985,3.1298125,3.1297476,3.1297047,3.1295664,3.1293967,3.1292853,3.1290693,3.1287296,3.1283581,3.1278753,3.1272817,3.126762,3.1263156,3.1257963,3.1253,3.124878,3.1242745,3.1234987,3.122741,3.121788,3.1205964,3.1195855,3.1190052,3.1185308,3.1182146,3.1180506,3.1179,3.1179085,3.1181004,3.1184134,3.1188517,3.1192842,3.119817,3.1206365,3.121556,3.122523,3.123741,3.1248388,3.12568,3.1266422,3.1275337,3.1282444,3.1291223,3.1300073,3.1306953,3.1315372,3.1323743,3.1329775,3.1335273,3.1341171,3.134666,3.1352,3.1359024,3.1366496,3.1372921,3.1381228,3.1391537,3.140149,3.141306,3.1427467,3.1441102,3.1454015,3.1469836,3.148487,3.1497583,3.151256,3.152627,3.1536417,3.155189,3.1569843,3.158472,3.1601396,3.1619833,3.1635914,3.1651664,3.16704,3.1688118,3.1703382,3.1721992,3.1742368,3.1761067,3.178339,3.1808348,3.1829672,3.1850991,3.1874733,3.1895306,3.191297,3.1933067,3.195077,3.196433,3.1981578,3.1999145,3.2013054,3.2028666,3.204464,3.2057524,3.2070932,3.2086093,3.2099433,3.2111144,3.2124891,3.2138133,3.2149596,3.2162971,3.217644,3.2187386,3.2199044,3.221119,3.2221208,3.2230635,3.2240262,3.224723,3.2251515,3.2256603,3.226049,3.226215,3.226369,3.2263434,3.2261493,3.2258487,3.2252977,3.2246656,3.2240045,3.2234693,3.2234416,3.2237935,3.225064,3.2271302,3.2291903,3.2311807,3.2318468,3.2307858,3.227255,3.2197802,3.2104068,3.199919,3.1851919,3.1703959,3.1580386,3.1448398,3.1348398,3.1289957,3.1254575,3.1255643,3.1277554,3.131196,3.1363587,3.1417947,3.1474795,3.1551228,3.1637485,3.1724958,3.184115,3.1964986,3.2067723,3.2189784,3.230025,3.2369266,3.2426832,3.249168,3.257326,3.2675643,3.2890048,3.3222284,3.3593693,3.4159575,3.4806993,3.533533,3.590045,3.6408072,3.6734786,3.6978579,3.7143743,3.7205796,3.721819,3.7187347,3.7133832,3.709528,3.7043488,3.6985426,3.6935544,3.687864,3.6816227,3.67619,3.6703944,3.6633742,3.6569326,3.6513398,3.6452487,3.6408155,3.6384537,3.6371498,3.638099,3.64047,3.644324,3.6506245,3.6566842,3.6600463,3.6637802,3.6691327,3.6761727,3.6896813,3.709875,3.7311366,3.7648594,3.81351,3.8644028,3.9316401,4.024737,4.1304736,4.272369,4.454178,4.6251464,4.7742157,4.937171,5.063779,5.1394634,5.2113123,5.2692795,5.3087955,5.3432603,5.3269205,5.262211,5.2125034,5.0319805,4.713542,4.3322945,3.9705074,3.77112,3.7258878,3.6961598,3.6972957,3.707861,3.7160876,3.720766,3.720716,3.720642,3.720531,3.7217422,3.7245545,3.7297175,3.7369614,3.7439632,3.7520976,3.7596502,3.7643256,3.7676034,3.7687118,3.7674127,3.7649612,3.7609391,3.7565844,3.7530646,3.7490683,3.7451553,3.741941
3.1325517,3.1361256,3.1386933,3.1412168,3.143268,3.1446884,3.1458724,3.146947,3.1477823,3.148378,3.1487813,3.1488018,3.1485214,3.1478968,3.1470733,3.1463504,3.1455002,3.1445596,3.1437154,3.142713,3.141529,3.14047,3.1394577,3.138165,3.137327,3.1374216,3.137498,3.1375504,3.137621,3.1375372,3.1375036,3.1376188,3.13769,3.1377258,3.1376815,3.1374831,3.1373692,3.1373475,3.1372666,3.1372209,3.1371539,3.1370335,3.1369128,3.1367393,3.1365368,3.1362994,3.1359813,3.1357312,3.1356974,3.1356475,3.1355832,3.135549,3.1354413,3.135327,3.135276,3.1351464,3.1349096,3.1346292,3.1342583,3.1338143,3.1334214,3.1330354,3.1326332,3.1322627,3.1319094,3.1313891,3.1306968,3.1300068,3.1291232,3.1279821,3.1269903,3.1264162,3.1259413,3.1256242,3.1254616,3.1253195,3.125342,3.1255455,3.1258802,3.1263494,3.126813,3.1273913,3.1282701,3.1292496,3.130287,3.1316044,3.132814,3.1337662,3.1348772,3.1359015,3.1366944,3.1376443,3.138553,3.1392226,3.1400347,3.1408186,3.1413596,3.1418457,3.1423278,3.1427388,3.143132,3.1436462,3.1442046,3.144701,3.1453838,3.1462877,3.1471934,3.1482627,3.1496072,3.1508856,3.1521084,3.1536107,3.1550412,3.1562557,3.1577,3.15903,3.1600118,3.161512,3.1632595,3.1647146,3.166349,3.1681654,3.1697605,3.1713297,3.1732092,3.1749945,3.176533,3.1784065,3.180453,3.1823277,3.1845632,3.1870682,3.189217,3.191376,3.193794,3.1958997,3.1977143,3.199772,3.2016006,3.2030435,3.2048159,3.206552,3.2078876,3.209414,3.210968,3.212198,3.2134566,3.2148438,3.2160578,3.2171607,3.2184634,3.2197306,3.220838,3.222155,3.2235131,3.2246366,3.2258484,3.2271352,3.2282133,3.2292397,3.2303116,3.2311316,3.2316952,3.2324147,3.2330523,3.233443,3.2338758,3.2341294,3.2341473,3.2340574,3.233707,3.233218,3.2326703,3.2321677,3.232069,3.232308,3.2334132,3.2353852,3.237466,3.2398577,3.2414813,3.2416,3.2397184,3.2344084,3.226908,3.217754,3.2046447,3.1905458,3.1772766,3.1617632,3.1485462,3.1398833,3.1327794,3.1297598,3.1303153,3.1328855,3.1378398,3.143368,3.1490421,3.156714,3.1649394,3.1725245,3.183108,3.1949325,3.2050414,3.2170928,3.229371,3.2382224,3.2436094,3.2484927,3.254287,3.26132,3.2762744,3.30182,3.3328729,3.3825827,3.4444768,3.4995058,3.5583982,3.614717,3.6544864,3.6853063,3.7080564,3.718622,3.7231755,3.7230797,3.718719,3.7137375,3.70898,3.7043614,3.7000642,3.695269,3.6900816,3.6855607,3.6806254,3.6744251,3.6684482,3.6630151,3.6567423,3.6516201,3.648326,3.645543,3.6446092,3.6452959,3.6472354,3.6515539,3.6566594,3.661755,3.6661658,3.669566,3.6733441,3.6815324,3.6949654,3.7098079,3.7330232,3.7674398,3.8045526,3.85467,3.926108,4.005783,4.09918,4.244933,4.4087305,4.5584774,4.740747,4.90257,5.0124836,5.115153,5.1898375,5.2319803,5.271405,5.261169,5.2004814,5.1469393,4.9681425,4.6620803,4.300024,3.9585354,3.7709303,3.7272873,3.6991844,3.7008393,3.7114587,3.719955,3.7250376,3.7253518,3.7254777,3.7254882,3.7267122,3.7294774,3.734772,3.7419953,3.7486567,3.7565749,3.7639241,3.7683954,3.7714682,3.7723765,3.7709403,3.7683916,3.764269,3.7598238,3.7562227,3.7521534,3.7482345,3.7450817
3.143293,3.1462674,3.1484642,3.1506257,3.1523027,3.1533566,3.1541305,3.1547835,3.155314,3.155706,3.1559124,3.1557765,3.1553836,3.1546538,3.1537902,3.1530895,3.152308,3.1515036,3.1508026,3.1498919,3.1487513,3.147698,3.1466873,3.1454034,3.1445777,3.1446788,3.1447601,3.1448116,3.1448767,3.1447835,3.144731,3.1448245,3.1448712,3.144876,3.144801,3.1445737,3.1444097,3.1443338,3.1442132,3.1441202,3.1440172,3.1438797,3.1437356,3.1435397,3.1433215,3.1430662,3.1427207,3.142439,3.1423726,3.1422958,3.1422236,3.1421936,3.1421158,3.142058,3.142067,3.1420178,3.141903,3.1417532,3.1415071,3.1412125,3.140954,3.1406786,3.1404002,3.140132,3.1398478,3.1394165,3.1388173,3.1382022,3.1373944,3.136313,3.1353507,3.134794,3.1343412,3.1340537,3.1339254,3.1338325,3.133908,3.134156,3.1345434,3.1350658,3.1355722,3.1362019,3.1371365,3.1381633,3.139249,3.1406384,3.141935,3.1429803,3.1442165,3.145352,3.146214,3.1472158,3.1481307,3.1487718,3.1495442,3.150272,3.1507583,3.1511903,3.1515818,3.151877,3.152154,3.1525102,3.1529007,3.1532564,3.1537895,3.1545496,3.155341,3.1562922,3.157505,3.158671,3.1598024,3.1612031,3.1625433,3.163682,3.165031,3.1662674,3.1671774,3.1686134,3.1703107,3.1717322,3.1733375,3.175136,3.1767287,3.1783056,3.1802034,3.1820076,3.1835558,3.185431,3.1874661,3.1893227,3.1915348,3.194019,3.1961613,3.19833,3.2007754,3.2029214,3.2047822,3.2069402,3.2088838,3.2104068,3.2122433,3.214006,3.215341,3.2168598,3.2183766,3.2195482,3.2207355,3.2220407,3.2231755,3.2241836,3.2253797,3.2265732,3.2276502,3.2289522,3.2303214,3.2314692,3.2327256,3.2340817,3.2352326,3.2363353,3.2375093,3.2384481,3.239141,3.2400608,3.2409382,3.2415507,3.2422597,3.2428172,3.2430954,3.243304,3.2433004,3.243116,3.242866,3.242591,3.242538,3.242712,3.2435713,3.2452002,3.2470016,3.2493587,3.251481,3.2524772,3.2520714,3.2490237,3.2437444,3.2364872,3.2253594,3.2125719,3.200084,3.1830764,3.1666737,3.155302,3.14411,3.1370888,3.1353085,3.1361399,3.1402318,3.1455984,3.1510222,3.1582875,3.1657743,3.1722796,3.181489,3.1922348,3.2018843,3.213606,3.226533,3.2367868,3.2439773,3.2492566,3.2534318,3.2585506,3.2682834,3.286219,3.3099651,3.3501449,3.405015,3.458105,3.5196257,3.5813632,3.6262357,3.666031,3.6972852,3.7128143,3.721826,3.7259839,3.7238855,3.7192552,3.7141938,3.7096293,3.7063687,3.7025785,3.6986027,3.695233,3.6914892,3.6865864,3.6815333,3.6766386,3.6704912,3.6647155,3.6603103,3.6556067,3.6521347,3.6505253,3.649734,3.651004,3.6540565,3.6588197,3.6646633,3.6698718,3.6744294,3.6807194,3.6897058,3.7000945,3.715981,3.7395754,3.7653062,3.8004353,3.853025,3.9112315,3.9704657,4.071616,4.201086,4.332632,4.515771,4.701805,4.8421936,4.9826,5.084795,5.134571,5.1778173,5.1785774,5.129098,5.061029,4.8827257,4.598662,4.2634296,3.946213,3.770918,3.729364,3.7030144,3.7050824,3.7157235,3.7245266,3.7300758,3.7307978,3.73115,3.7312732,3.7324584,3.735118,3.7403274,3.7473722,3.7537446,3.761404,3.7684977,3.7727556,3.7756295,3.77636,3.774811,3.7721858,3.7679822,3.763464,3.7597952,3.7556798,3.7517943,3.7487435
3.1526363,3.1546974,3.1565154,3.1581438,3.1592674,3.159903,3.160305,3.160572,3.1607985,3.1610494,3.1611838,3.1610513,3.1607084,3.1600857,3.159387,3.1588612,3.15835,3.1578257,3.1573064,3.1565332,3.1554677,3.154432,3.1534257,3.1521277,3.151274,3.1513407,3.1513882,3.1514158,3.151465,3.1513653,3.1513104,3.1513996,3.1514418,3.1514385,3.1513524,3.1511126,3.1509178,3.150803,3.1506524,3.1505232,3.1503906,3.1502347,3.150066,3.1498399,3.149593,3.1493053,3.148914,3.1485858,3.1484747,3.1483593,3.1482692,3.1482341,3.148173,3.1481586,3.1482162,3.148234,3.1482239,3.1481872,3.1480508,3.1478705,3.1477141,3.1475544,3.1473691,3.1471624,3.1469426,3.1465993,3.1460938,3.1455524,3.1448197,3.143805,3.142889,3.1423712,3.1419759,3.141759,3.1417017,3.141699,3.141862,3.1421797,3.142642,3.143231,3.1437855,3.1444612,3.145434,3.1464827,3.147581,3.1489882,3.1503148,3.151401,3.1526961,3.1538863,3.1547813,3.1557999,3.1567001,3.157311,3.1580472,3.1587372,3.1591947,3.159603,3.1599517,3.1601884,3.1604059,3.160673,3.1609564,3.1612124,3.1616235,3.162245,3.1629152,3.1637359,3.164807,3.1658568,3.166891,3.168189,3.1694384,3.1704984,3.1717381,3.1728625,3.1736882,3.1750422,3.1766796,3.1780696,3.17965,3.181437,3.1830325,3.1846197,3.1865363,3.1883545,3.1899061,3.1917706,3.193777,3.195599,3.1977673,3.2002077,3.202323,3.2044792,3.206936,3.2091186,3.2110314,3.2132964,3.2153435,3.2169075,3.2188025,3.220633,3.2220268,3.2235808,3.225103,3.226261,3.227429,3.2287173,3.2298167,3.2307317,3.2318249,3.232944,3.2339778,3.2352388,3.23659,3.237741,3.2390132,3.240405,3.2415977,3.2427442,3.2439861,3.2450125,3.2458048,3.2468774,3.247946,3.2487428,3.2496877,3.2505345,3.2510939,3.2516541,3.252107,3.25236,3.2525597,3.252682,3.2527943,3.2529736,3.2535644,3.2546854,3.255978,3.257897,3.259974,3.2613578,3.2619262,3.2606945,3.2574487,3.2522721,3.2431188,3.2317839,3.2208347,3.2040858,3.1861262,3.172542,3.157784,3.146851,3.142373,3.140716,3.1429849,3.1475523,3.152608,3.1591737,3.1657586,3.1715848,3.179676,3.1893187,3.1983247,3.2097025,3.2225394,3.233099,3.2428756,3.250122,3.2541327,3.258531,3.265689,3.2784982,3.2956154,3.3263128,3.3720112,3.4194555,3.4810157,3.5459156,3.5940282,3.6413326,3.6811755,3.7028105,3.7165966,3.7252588,3.7262108,3.7236252,3.7185721,3.7132802,3.7103527,3.7072706,3.7043738,3.7020483,3.699485,3.6960092,3.6921315,3.6880739,3.6824918,3.6765442,3.6714373,3.6652956,3.6596975,3.6560497,3.6529365,3.6517496,3.652854,3.655287,3.661103,3.6686516,3.6757066,3.6834273,3.6913142,3.6990042,3.7109315,3.7281091,3.7463355,3.770842,3.8074722,3.8496923,3.8993824,3.9698548,4.058875,4.1613526,4.3246427,4.5121045,4.6674213,4.8343906,4.9655733,5.032691,5.082217,5.0931168,5.0540056,4.9741106,4.79846,4.5377436,4.232089,3.9376128,3.7716618,3.731981,3.7069263,3.7091014,3.719678,3.7287297,3.734706,3.7358136,3.7364142,3.7366695,3.7378154,3.7403636,3.7453337,3.7521076,3.758304,3.765728,3.7725832,3.7766764,3.7794142,3.7800374,3.7784271,3.7757614,3.7715068,3.7669325,3.7632089,3.7590604,3.755209,3.7522473
3.1599169,3.1612716,3.1624641,3.163439,3.1640036,3.16426,3.1644456,3.1643498,3.1641273,3.1641698,3.1643,3.1643858,3.1643698,3.1641793,3.1638856,3.163647,3.1635041,3.1631985,3.162677,3.1619744,3.1609848,3.1599889,3.1589954,3.1576762,3.1567721,3.1567802,3.1567638,3.1567407,3.156757,3.1566381,3.1565764,3.1566627,3.1567075,3.1567073,3.156622,3.1563845,3.1561792,3.1560464,3.1558828,3.1557393,3.1555924,3.1554272,3.155243,3.1549916,3.1547155,3.1543915,3.153947,3.1535654,3.1534047,3.1532412,3.1531212,3.1530685,3.153005,3.153016,3.1531153,3.1531973,3.153245,3.1532416,3.153192,3.1531122,3.1530237,3.1529045,3.152772,3.1526265,3.1524656,3.1522045,3.1517923,3.15133,3.150683,3.1497576,3.1489162,3.1484709,3.148174,3.1480613,3.1481023,3.1482134,3.148474,3.1488662,3.149402,3.1500506,3.1506457,3.151353,3.15234,3.1533847,3.1544652,3.1558414,3.1571407,3.1582155,3.1595047,3.1606927,3.1615841,3.1625862,3.1634588,3.164042,3.1647534,3.1654305,3.1658907,3.1663098,3.1666675,3.1669044,3.1671147,3.1673536,3.1675873,3.1677914,3.1681185,3.1686282,3.1691933,3.1698942,3.1708252,3.1717553,3.1726866,3.1738744,3.1750312,3.1760154,3.1771712,3.1782227,3.1789942,3.1802492,3.1818027,3.1831644,3.1847165,3.1864843,3.1880724,3.1896558,3.1915722,3.193388,3.1949322,3.196776,3.1987453,3.2005272,3.2026467,3.205037,3.207117,3.2092469,3.2117162,3.213952,3.215939,3.2182646,3.2203522,3.2219622,3.223913,3.2258027,3.2272482,3.228867,3.2304616,3.231674,3.232882,3.2341552,3.2351925,3.2360444,3.2370849,3.2381449,3.2390869,3.2402468,3.2415276,3.2426558,3.2439098,3.2452974,3.2464976,3.2476625,3.248943,3.2500262,3.2508864,3.2520685,3.2532825,3.25423,3.2553797,3.256507,3.2573605,3.2582982,3.2592723,3.2600465,3.2607768,3.2613826,3.261715,3.2619257,3.262228,3.2627506,3.2634134,3.2646942,3.2664242,3.2678857,3.2690606,3.2692318,3.2677057,3.2643704,3.257391,3.2475839,3.2370796,3.222029,3.2044804,3.1885867,3.1708794,3.156496,3.1491957,3.1448736,3.144827,3.1481824,3.1531222,3.1594734,3.165601,3.1710105,3.1784453,3.1872597,3.1954994,3.2061388,3.2184763,3.2290115,3.2397175,3.2487266,3.2540736,3.2584558,3.2652164,3.275846,3.288646,3.3119655,3.34935,3.3907387,3.4473114,3.5122037,3.564413,3.6142864,3.660911,3.6906657,3.7085948,3.7213833,3.7253017,3.724361,3.7207327,3.715333,3.71106,3.7082944,3.7063956,3.7049003,3.7033992,3.7013526,3.698814,3.6958547,3.6913757,3.6860375,3.6810343,3.6745615,3.667986,3.6631298,3.6584387,3.6552672,3.654561,3.6552553,3.6587586,3.6645885,3.6710744,3.681203,3.6910386,3.6969318,3.7060518,3.7189507,3.7326894,3.7518992,3.7797875,3.8114219,3.8490632,3.9074326,3.9792304,4.050732,4.181117,4.353713,4.5150824,4.6905746,4.843972,4.938732,5.000815,5.0143094,4.974535,4.8995066,4.7320924,4.487282,4.2089124,3.9332254,3.773387,3.7347884,3.710337,3.7123232,3.7227674,3.7319512,3.7382712,3.739746,3.740623,3.7410698,3.7422426,3.7447348,3.7495522,3.7561185,3.762146,3.7693796,3.776059,3.7800384,3.7826958,3.783266,3.781631,3.7789512,3.7746677,3.77005,3.7662802,3.7620928,3.758235,3.7552972
3.1678631,3.1683815,3.1688614,3.1691296,3.1691492,3.1690538,3.1686392,3.1680536,3.167686,3.1677117,3.1679993,3.1683817,3.1687164,3.1689897,3.1691513,3.169271,3.1693373,3.1691012,3.1686158,3.1680095,3.1671128,3.1661572,3.1651742,3.1638267,3.1628616,3.1627994,3.1627061,3.1626244,3.1626067,3.1624665,3.1623938,3.1624722,3.162516,3.162518,3.1624355,3.1622038,3.1620016,3.1618683,3.161705,3.161559,3.161409,3.1612408,3.161047,3.16077,3.1604567,3.1600869,3.159579,3.159134,3.1589146,3.1586945,3.1585383,3.1584635,3.1583877,3.1583948,3.1584916,3.1586192,3.1587381,3.1587937,3.158799,3.158781,3.158749,3.158679,3.158611,3.1585388,3.1584506,3.1582928,3.158,3.1576405,3.157106,3.1563032,3.155569,3.1552334,3.1550813,3.1551166,3.155295,3.155562,3.1559541,3.1564415,3.157068,3.1577854,3.158424,3.1591592,3.1601467,3.1611683,3.1622062,3.1635158,3.1647525,3.165783,3.167031,3.1681857,3.1690502,3.170013,3.1708412,3.1713893,3.172073,3.1727452,3.173224,3.1736717,3.174069,3.174338,3.1745687,3.1748087,3.1750154,3.1751823,3.1754375,3.1758375,3.1762915,3.1768608,3.1776357,3.1784294,3.1792443,3.1803021,3.1813433,3.1822295,3.183269,3.1842122,3.1849022,3.1860564,3.1875062,3.1887894,3.1902652,3.1919746,3.193534,3.195097,3.1969934,3.1987913,3.200318,3.2021306,3.2040539,3.2057889,3.2078493,3.2101994,3.2122765,3.2144284,3.216943,3.219229,3.2212672,3.2236533,3.2257993,3.2274618,3.2294803,3.231443,3.2329516,3.2346468,3.2363214,3.237595,3.2388568,3.240158,3.2411904,3.2420344,3.2430122,3.2439632,3.2447963,3.2458777,3.2471006,3.2481713,3.249378,3.2507362,3.2519312,3.2531075,3.2544272,3.2555776,3.2565231,3.2578425,3.2592354,3.2603598,3.2617579,3.2632346,3.2644596,3.2658863,3.26749,3.2688441,3.2701435,3.2712412,3.2717705,3.2719715,3.272018,3.2720122,3.2720785,3.272683,3.2739577,3.2753778,3.2769938,3.27839,3.2785058,3.2770705,3.2725072,3.2646961,3.2553992,3.2415948,3.2247071,3.208817,3.1887262,3.1703975,3.1597452,3.1519341,3.148562,3.1497526,3.1532307,3.1588001,3.164692,3.1697004,3.176353,3.184197,3.1916504,3.2015238,3.2134213,3.2240214,3.2352085,3.2467313,3.2549553,3.2598643,3.265989,3.274063,3.2830272,3.298754,3.3260627,3.3587012,3.407001,3.4696028,3.525629,3.5789585,3.632676,3.6707587,3.6954474,3.7143805,3.7221456,3.7235947,3.721921,3.717095,3.712359,3.7088966,3.707119,3.7067335,3.7062688,3.705639,3.7045069,3.7027726,3.699636,3.6952257,3.6906319,3.684207,3.6769834,3.6710992,3.6649241,3.6596866,3.6569576,3.6555977,3.6566653,3.6604888,3.665532,3.6747231,3.6852555,3.6932888,3.7019567,3.7116933,3.7214727,3.7350674,3.7548375,3.7773032,3.80341,3.8460295,3.900186,3.9546468,4.046674,4.1823683,4.329772,4.516451,4.693071,4.8028846,4.889138,4.9189196,4.883406,4.819375,4.6616745,4.431796,4.183881,3.9291644,3.7759514,3.738162,3.7139182,3.7153575,3.7255507,3.7347476,3.7414973,3.7435699,3.7448606,3.7456625,3.7469926,3.749495,3.7542086,3.7605886,3.7664576,3.7735171,3.7800546,3.7839642,3.7865863,3.7871428,3.785499,3.7828088,3.7784803,3.7737823,3.7699242,3.7656271,3.7617269,3.7588365
3.17446,3.1743085,3.1742458,3.1740377,3.173716,3.173387,3.1725864,3.1718097,3.171547,3.171692,3.1721807,3.172803,3.1733866,3.174004,3.1744196,3.1746037,3.1746445,3.1743884,3.173966,3.173442,3.172622,3.1717017,3.170733,3.169374,3.1683698,3.168254,3.1681051,3.1679842,3.1679454,3.1678116,3.1677566,3.1678421,3.167892,3.1678972,3.1678152,3.167582,3.1673694,3.16722,3.1670446,3.166883,3.1667182,3.1665401,3.1663303,3.1660242,3.165676,3.165263,3.1646986,3.1642013,3.1639338,3.16367,3.1634855,3.1633928,3.163311,3.163326,3.1634314,3.163585,3.1637502,3.1638503,3.1638818,3.1638963,3.1639028,3.1638737,3.1638572,3.1638432,3.1638145,3.163742,3.1635504,3.1632795,3.1628473,3.1621628,3.1615381,3.1613183,3.1613216,3.1615138,3.1618366,3.1622658,3.1627939,3.163378,3.164095,3.1648774,3.1655545,3.1663098,3.1672847,3.1682692,3.1692495,3.1704743,3.1716294,3.1725974,3.1737807,3.1748815,3.1757045,3.1766167,3.1773987,3.1779184,3.178583,3.179265,3.17978,3.1802745,3.1807349,3.1810608,3.1813352,3.1816056,3.1818154,3.181969,3.1821795,3.182497,3.1828601,3.1833186,3.183958,3.1846323,3.1853426,3.1862812,3.1872134,3.188004,3.1889272,3.1897597,3.1903658,3.1914306,3.1927886,3.1939929,3.1953945,3.19704,3.1985593,3.20009,3.2019534,3.2037225,3.2052245,3.2070036,3.2088866,3.210581,3.2125983,3.2149158,3.2169824,3.2191477,3.2216835,3.2239876,3.2260418,3.2284598,3.2306466,3.2323444,3.2344139,3.2364383,3.2380028,3.2397673,3.2415175,3.2428532,3.2441764,3.2455378,3.2466116,3.2474911,3.2484522,3.249341,3.2501173,3.2511353,3.252282,3.2532778,3.2544346,3.2557607,3.25694,3.2581115,3.2594466,3.2606401,3.2616487,3.263077,3.2646165,3.2658877,3.267498,3.2692761,3.2708232,3.2726789,3.274829,3.2766845,3.2784755,3.2800336,3.2808034,3.2810764,3.2809775,3.2805896,3.2802265,3.280303,3.2811265,3.2823482,3.2840557,3.2860892,3.2872765,3.2872775,3.284821,3.2791474,3.2716622,3.2594032,3.24392,3.2296045,3.2096343,3.1891322,3.17519,3.1635575,3.1559334,3.1538117,3.1544542,3.1579533,3.1630867,3.1678457,3.1741738,3.1815176,3.1883593,3.1975515,3.2088847,3.2192574,3.2303782,3.2434049,3.2539687,3.2606034,3.2668424,3.2728043,3.279004,3.2888224,3.3072696,3.3312058,3.369615,3.4262743,3.482726,3.5398352,3.5993705,3.6436315,3.676519,3.702791,3.7150695,3.7197814,3.72088,3.7175553,3.7133155,3.7091327,3.7066393,3.70647,3.706625,3.707027,3.7070148,3.7063847,3.7046604,3.7015417,3.697865,3.692301,3.6854486,3.6794207,3.672711,3.666267,3.6620412,3.6589632,3.6578913,3.6596506,3.66276,3.6690927,3.6783476,3.6879241,3.697298,3.7058258,3.7128966,3.7224333,3.7366128,3.753056,3.771727,3.8017151,3.8420672,3.8876705,3.9538121,4.050993,4.1627665,4.337455,4.5227575,4.6460953,4.7532725,4.8076315,4.7903194,4.7392697,4.59313,4.3794165,4.160177,3.9259791,3.7794552,3.741754,3.717136,3.7176337,3.7273877,3.736384,3.7435262,3.7463148,3.7480683,3.7493155,3.7509034,3.7534819,3.7581573,3.7644053,3.770157,3.7770967,3.7835598,3.7874637,3.790112,3.7907104,3.7890942,3.7864146,3.782054,3.7772787,3.7733288,3.768941,3.7650242,3.7621949
3.1786375,3.1781535,3.1778483,3.1774945,3.1770773,3.1766543,3.1760201,3.1754737,3.1753383,3.1755862,3.1761804,3.1768932,3.1775556,3.1782913,3.1786711,3.1785884,3.1784985,3.1782446,3.1778727,3.1773877,3.176605,3.1757107,3.1747606,3.1734138,3.1724074,3.1722736,3.172113,3.1719894,3.1719499,3.171849,3.1718354,3.1719408,3.172001,3.172008,3.171918,3.1716707,3.171422,3.171229,3.1710215,3.1708236,3.170628,3.1704278,3.1701922,3.1698575,3.1694846,3.1690426,3.168445,3.16792,3.167629,3.167347,3.1671557,3.1670594,3.1669903,3.1670427,3.1671948,3.167368,3.1675391,3.1676474,3.1677,3.1677425,3.1677754,3.1677687,3.1677792,3.1677947,3.1677952,3.1677666,3.1676292,3.167409,3.1670394,3.166434,3.1658869,3.1657538,3.1658745,3.1661868,3.1666179,3.167169,3.1677995,3.1684573,3.1692433,3.1700745,3.1707802,3.171547,3.1725073,3.173458,3.17439,3.1755462,3.1766362,3.1775532,3.178681,3.1797352,3.1805234,3.1813967,3.182148,3.182653,3.1833124,3.1840143,3.184568,3.1851096,3.1856298,3.1860087,3.1863256,3.1866329,3.1868591,3.1870146,3.1872053,3.1874738,3.1877806,3.1881678,3.1887195,3.1893148,3.1899529,3.1908092,3.1916652,3.1923888,3.193229,3.1939826,3.1945305,3.1955261,3.196824,3.1979952,3.199365,3.2009754,3.2024627,3.2039645,3.2057974,3.2075398,3.2090173,3.2107716,3.2126284,3.2142973,3.216296,3.218583,3.2206092,3.2227402,3.2252467,3.2275355,3.2295852,3.2320023,3.2341945,3.2359004,3.23799,3.2400475,3.2416477,3.2434587,3.2452667,3.2466536,3.2480288,3.249445,3.2505612,3.2514758,3.2524757,3.2533932,3.2541852,3.2551506,3.25621,3.257149,3.2582755,3.2595806,3.2607398,3.2618961,3.2632205,3.2644186,3.2654467,3.26692,3.268533,3.269885,3.271614,3.2735624,3.2752905,3.2773857,3.2798629,3.2820456,3.284171,3.2861066,3.28716,3.2876225,3.287508,3.2869053,3.286322,3.2861114,3.286613,3.287586,3.2891417,3.2912774,3.2928994,3.2936714,3.2926145,3.2886763,3.28291,3.2727628,3.2591894,3.2461915,3.2284958,3.2083402,3.1920722,3.1773124,3.1656227,3.1599724,3.1575599,3.158177,3.1617975,3.1663272,3.1727843,3.180203,3.1867065,3.1953578,3.205958,3.2157283,3.226559,3.2393727,3.2503557,3.2592673,3.2666304,3.2715447,3.2759194,3.2822387,3.2951553,3.3131561,3.3433607,3.3924584,3.4457502,3.5054314,3.5686812,3.6165228,3.656095,3.6889284,3.7057593,3.7138739,3.7180402,3.7166088,3.7132063,3.7092156,3.7059517,3.704852,3.7050986,3.7060137,3.7066836,3.7068415,3.7063007,3.704505,3.7019715,3.6977706,3.692093,3.6867428,3.6804895,3.6739302,3.6690633,3.665012,3.6624022,3.6624565,3.663962,3.6682189,3.6751802,3.6825411,3.6917758,3.7002544,3.7058353,3.713535,3.7247381,3.7377896,3.7533398,3.777474,3.809221,3.8445058,3.9031749,3.9808955,4.0561447,4.193804,4.368514,4.509597,4.624275,4.699236,4.7080708,4.6668077,4.533225,4.3373756,4.140542,3.923501,3.7830858,3.7449288,3.7196565,3.719112,3.728313,3.736968,3.7443552,3.7477508,3.7498794,3.751514,3.7533536,3.7560263,3.7607021,3.76687,3.7725499,3.7794185,3.7858543,3.789784,3.7924862,3.7931566,3.7915936,3.7889493,3.7845926,3.7797832,3.775783,3.7713926,3.7675214,3.7647452
3.182497,3.181756,3.1812801,3.180859,3.1804652,3.1800828,3.1796412,3.1793442,3.1793833,3.1797595,3.1805081,3.1812973,3.1818826,3.1823788,3.1825442,3.1824431,3.1823215,3.1820529,3.1816864,3.1812124,3.1804545,3.1795855,3.178649,3.1773114,3.1763182,3.1762083,3.1760933,3.1760216,3.1760187,3.175929,3.1759033,3.175992,3.1760263,3.1759987,3.175875,3.1755905,3.1752915,3.1750546,3.1748223,3.1746035,3.1743894,3.1741698,3.1739087,3.173544,3.1731458,3.1726828,3.1720657,3.171526,3.1712196,3.1709423,3.1707797,3.1707168,3.1706786,3.1707454,3.1708984,3.171071,3.1712453,3.171362,3.171431,3.1714969,3.1715522,3.1715672,3.171604,3.1716473,3.1716747,3.171689,3.1716077,3.171441,3.1711392,3.170621,3.1701586,3.1701198,3.1703622,3.170792,3.171329,3.1719973,3.1727247,3.1734498,3.1742992,3.1751742,3.175901,3.1766758,3.177618,3.1785326,3.1794162,3.1805055,3.1815324,3.1823978,3.1834702,3.184478,3.1852326,3.186069,3.1867943,3.1872895,3.1879497,3.1886778,3.1892748,3.1898656,3.1904516,3.1908908,3.1912541,3.1916046,3.1918564,3.1920214,3.1922035,3.1924376,3.1927,3.1930304,3.1935096,3.1940374,3.1946125,3.1953933,3.1961765,3.196836,3.197594,3.198268,3.1987557,3.199681,3.2009141,3.20204,3.2033668,3.204936,3.2063909,3.207861,3.209659,3.2113714,3.2128234,3.2145455,3.2163658,3.2180014,3.2199636,3.2222116,3.2242055,3.2263079,3.2287896,3.231062,3.233097,3.235503,3.237691,3.2393973,3.2414937,3.243573,3.245201,3.2470512,3.248911,3.2503452,3.2517674,3.2532368,3.2543988,3.2553513,3.2563908,3.2573338,3.2581377,3.2591076,3.2601504,3.2610576,3.2621114,3.2633348,3.2644465,3.2655883,3.2669072,3.2681048,3.26914,3.270639,3.272301,3.2737098,3.2755291,3.277615,3.2794926,3.2817879,3.2845445,3.2870069,3.289414,3.291677,3.293008,3.2936904,3.293747,3.293187,3.2925634,3.292131,3.2922988,3.293013,3.2943711,3.2964673,3.2983148,3.2996116,3.299656,3.2972474,3.2931042,3.285308,3.274023,3.2625303,3.2474575,3.2287495,3.2116117,3.194243,3.1786118,3.169355,3.1635776,3.1609378,3.1625018,3.1659164,3.1717002,3.1789353,3.185336,3.1932526,3.2027826,3.2117527,3.2220707,3.2348442,3.2465239,3.2570877,3.2663498,3.2715988,3.274342,3.2778358,3.2855058,3.2970262,3.3186793,3.3592534,3.4076297,3.4657784,3.5321856,3.5857081,3.6294909,3.6698704,3.6939747,3.7055368,3.7131789,3.7140896,3.7117605,3.70852,3.7048569,3.7027304,3.7026212,3.7037838,3.7051845,3.7061129,3.7067795,3.7064157,3.7051892,3.702628,3.6984901,3.6941457,3.6887107,3.6823525,3.6770067,3.672051,3.6678228,3.6659665,3.6656237,3.6675525,3.6722312,3.6777143,3.6861324,3.6945975,3.7001274,3.7073002,3.7170658,3.7278419,3.740151,3.7593439,3.7840867,3.810409,3.8556824,3.9171574,3.977538,4.072199,4.214383,4.3580127,4.4867764,4.582572,4.608068,4.581447,4.4680414,4.2946224,4.120202,3.9211845,3.7875972,3.7486725,3.7225087,3.7206173,3.7289796,3.7371159,3.7446485,3.748631,3.751152,3.753236,3.7554016,3.758222,3.7629504,3.7690718,3.7746935,3.7815013,3.7879214,3.7918937,3.79468,3.7954679,3.7940059,3.79144,3.787136,3.7823308,3.7783031,3.7739582,3.7701569,3.7674134
3.1851954,3.1844735,3.1840653,3.1837997,3.1836767,3.1835873,3.1834986,3.1835616,3.183824,3.184294,3.184968,3.1855521,3.1859243,3.1861491,3.1861243,3.1859765,3.185776,3.1854315,3.1850166,3.184494,3.183703,3.1828299,3.1819167,3.1806302,3.1796842,3.1795926,3.1795034,3.1794584,3.1794767,3.179388,3.179345,3.1794107,3.1794066,3.179336,3.1791852,3.1788933,3.1785822,3.1783292,3.1780834,3.177848,3.177619,3.1773896,3.1771188,3.1767468,3.1763456,3.175878,3.1752653,3.1747398,3.1744509,3.1742105,3.1740947,3.1740751,3.1740806,3.1741738,3.1743326,3.1745143,3.1746998,3.1748304,3.1749187,3.1750085,3.1750853,3.1751204,3.1751773,3.1752372,3.1752782,3.1753159,3.1752687,3.1751375,3.1748838,3.1744342,3.1740432,3.1740837,3.1744266,3.1749513,3.175571,3.1763334,3.177137,3.1779137,3.178815,3.1797264,3.180472,3.181251,3.1821742,3.1830547,3.1838937,3.1849203,3.1858854,3.186698,3.1877098,3.1886642,3.1893768,3.1901674,3.1908612,3.1913476,3.1920142,3.1927779,3.1934261,3.194075,3.1947396,3.1952543,3.1956804,3.1960983,3.1964025,3.1966019,3.1968079,3.197043,3.19729,3.1975937,3.198031,3.198515,3.1990452,3.199768,3.2004926,3.2010956,3.2017817,3.2023861,3.2028213,3.2036839,3.2048585,3.205944,3.2072287,3.2087536,3.2101693,3.2115998,3.2133503,3.2150187,3.216435,3.2181165,3.2198944,3.2214909,3.2234106,3.2256153,3.2275746,3.2296443,3.2320943,3.234342,3.2363572,3.2387414,3.2409153,3.242617,3.244718,3.246818,3.2484741,3.2503657,3.2522788,3.2537642,3.25524,3.256771,3.2579904,3.2589953,3.2600932,3.2610807,3.2619123,3.2629106,3.2639632,3.2648582,3.265865,3.2670162,3.2680593,3.2691193,3.2703333,3.2714462,3.272437,3.2738943,3.2755303,3.2769296,3.2787561,3.2808807,3.282814,3.28519,3.2880788,3.290692,3.2932608,3.295783,3.2974272,3.2984247,3.2988896,3.2986932,3.2983065,3.2979007,3.2978094,3.2981527,3.2990127,3.3005548,3.3021393,3.3035765,3.3045106,3.3038027,3.3017418,3.2970686,3.288991,3.2797813,3.2674518,3.2512608,3.235395,3.2168174,3.1973972,3.1836028,3.1735568,3.166585,3.1651816,3.1667857,3.1711125,3.1777644,3.1841626,3.1914172,3.1998158,3.207762,3.2172465,3.2295763,3.2414572,3.2525828,3.2640784,3.2710333,3.2728786,3.2745166,3.2783012,3.2848163,3.2989147,3.330153,3.3711634,3.423773,3.4907007,3.5493314,3.5957112,3.6426659,3.6747708,3.6917806,3.7043383,3.708527,3.7080293,3.706128,3.702675,3.6998796,3.6985936,3.6991234,3.7008755,3.7023606,3.7041001,3.7052145,3.7054667,3.7049048,3.7028728,3.700119,3.696257,3.6910121,3.6859846,3.6808884,3.675752,3.6723986,3.6704147,3.6700492,3.672264,3.675648,3.6819985,3.6899095,3.6963212,3.7033308,3.7124257,3.7220697,3.7322192,3.7475743,3.766801,3.7867804,3.8197737,3.8667605,3.9164162,3.979556,4.08027,4.1961107,4.329118,4.4411154,4.4808335,4.4724,4.386158,4.241363,4.091963,3.9150255,3.7912931,3.7520556,3.725019,3.721421,3.7286994,3.7360415,3.7436604,3.7483723,3.751315,3.7539206,3.7564993,3.759516,3.7643218,3.7703834,3.7759166,3.7826147,3.7889628,3.7929401,3.795779,3.7966728,3.7953277,3.792869,3.7886686,3.7839355,3.779953,3.7757316,3.7720842,3.7694511
3.18644,3.1859825,3.185832,3.1858737,3.1861296,3.1864123,3.186688,3.1870685,3.18749,3.1879616,3.1884036,3.188665,3.1888237,3.188902,3.1887808,3.1885118,3.1881769,3.1877122,3.1872196,3.186627,3.1857858,3.1848974,3.1839993,3.1827629,3.1818595,3.1817598,3.1816564,3.1815987,3.181611,3.1815228,3.1814759,3.18153,3.1815119,3.1814313,3.181284,3.1810105,3.1807194,3.1804752,3.1802287,3.179985,3.1797495,3.1795232,3.1792612,3.178908,3.1785274,3.1780736,3.177487,3.1769986,3.1767497,3.1765604,3.1764922,3.176509,3.1765575,3.1766858,3.1768641,3.1770644,3.1772666,3.1774118,3.1775155,3.1776233,3.177714,3.1777594,3.1778214,3.1778798,3.1779165,3.1779492,3.1779025,3.1777782,3.1775382,3.1771185,3.176766,3.1768496,3.1772475,3.1778219,3.1784842,3.1792953,3.1801395,3.1809444,3.1818752,3.182811,3.1835713,3.1843529,3.1852617,3.1861184,3.1869254,3.1879053,3.1888218,3.1895902,3.1905475,3.1914492,3.1921196,3.192863,3.1935244,3.1940033,3.1946774,3.1954741,3.1961708,3.196875,3.1976142,3.198204,3.198697,3.199192,3.1995656,3.1998172,3.200073,3.2003427,3.2006054,3.2009158,3.2013469,3.2018154,3.202324,3.2030163,3.2037044,3.2042706,3.2049103,3.2054698,3.2058725,3.206697,3.2078364,3.2088978,3.210154,3.2116442,3.213025,3.214418,3.2161212,3.2177453,3.2191253,3.220769,3.22251,3.2240736,3.2259593,3.228128,3.2300558,3.2320967,3.234515,3.2367368,3.2387323,3.2410936,3.243253,3.2449503,3.2470589,3.2491815,3.2508655,3.2527966,3.2547617,3.256297,3.2578275,3.2594247,3.260705,3.2617702,3.2629364,3.2639804,3.264851,3.2658825,3.2669516,3.2678475,3.2688484,3.2699635,3.2709403,3.2718863,3.2729425,3.2739134,3.2748008,3.2761343,3.277663,3.2789924,3.280745,3.2828088,3.2847023,3.2870393,3.2899055,3.29253,3.2951293,3.2978058,3.2997313,3.3010578,3.30202,3.3023458,3.3023586,3.3021967,3.3020015,3.301987,3.3022387,3.30297,3.3039935,3.3052607,3.3067455,3.307507,3.3074226,3.3057556,3.3009741,3.2943811,3.284357,3.2705095,3.2566543,3.238811,3.217304,3.1995072,3.1854887,3.1742191,3.1696453,3.1692061,3.1716151,3.1771622,3.1832051,3.1899934,3.1975641,3.204491,3.2130418,3.224629,3.2362084,3.2470639,3.2599764,3.2688677,3.2713375,3.2725759,3.2745042,3.2785769,3.287797,3.3113477,3.3448415,3.3900614,3.4537482,3.5141425,3.562355,3.6134162,3.6514745,3.6747313,3.6928606,3.7008958,3.702691,3.7024672,3.699808,3.6969705,3.694551,3.6938672,3.695194,3.6968575,3.6992173,3.7013924,3.702816,3.703946,3.703878,3.7027678,3.7007113,3.697143,3.6931615,3.688785,3.683808,3.679899,3.6770349,3.6750956,3.6753302,3.6769223,3.6808043,3.6874409,3.6943612,3.7013767,3.7104282,3.719847,3.729323,3.7425056,3.7582803,3.7749443,3.8003914,3.8362844,3.875201,3.9266996,3.9966688,4.071456,4.190472,4.3040285,4.354045,4.3624964,4.3022556,4.184847,4.059569,3.905441,3.793212,3.7546659,3.7271304,3.7216983,3.7277057,3.7341714,3.7418172,3.7472045,3.7504983,3.7535815,3.756568,3.7597795,3.7646499,3.7706175,3.7760162,3.7825334,3.7887216,3.7926285,3.7954419,3.7963772,3.79512,3.7927608,3.788682,3.7840698,3.7801957,3.776143,3.7727013,3.7702513
3.1873372,3.1871614,3.1872659,3.1876004,3.1881351,3.188627,3.1891484,3.1897073,3.190165,3.1905665,3.1909237,3.1911097,3.1911607,3.1910942,3.190828,3.1904485,3.1899772,3.189386,3.1888125,3.188191,3.1873622,3.1864905,3.185573,3.1843174,3.1834018,3.1832852,3.183172,3.183114,3.1831298,3.1830502,3.1830044,3.1830516,3.1830602,3.1830232,3.1829047,3.1826262,3.1823258,3.1820781,3.1818314,3.1815886,3.1813574,3.1811385,3.1808877,3.1805544,3.180196,3.1797662,3.1792135,3.1787612,3.1785445,3.1784,3.178378,3.1784346,3.1785226,3.178679,3.1788735,3.1790853,3.1792946,3.1794453,3.179555,3.1796694,3.179763,3.1798046,3.1798587,3.179903,3.1799226,3.179935,3.1798716,3.17974,3.1794977,3.179087,3.1787524,3.1788604,3.1792898,3.1798935,3.1805792,3.181417,3.1822867,3.18311,3.1840615,3.1850162,3.1857893,3.1865735,3.1874723,3.1883104,3.1890929,3.1900368,3.1909142,3.1916447,3.1925535,3.193406,3.1940367,3.194738,3.1953723,3.1958451,3.1965241,3.1973495,3.1980884,3.1988404,3.199646,3.200303,3.200857,3.2014232,3.2018638,3.202168,3.2024775,3.2027893,3.203075,3.203402,3.2038376,3.204299,3.2047963,3.205466,3.206127,3.2066665,3.2072725,3.2078025,3.208187,3.2089906,3.2101102,3.2111554,3.2123957,3.2138655,3.2152228,3.2165878,3.2182546,3.2198448,3.2211986,3.2228127,3.224525,3.2260642,3.2279243,3.2300644,3.2319674,3.2339845,3.2363758,3.2385728,3.2405488,3.2428904,3.2450385,3.246735,3.248851,3.2509966,3.2527099,3.2546787,3.2566967,3.2582846,3.2598698,3.261536,3.2628827,3.2640104,3.265248,3.266353,3.2672658,3.2683344,3.2694228,3.2703218,3.2713108,3.272388,3.2733126,3.2741938,3.2751572,3.2760127,3.2767553,3.2779052,3.2792873,3.2805433,3.2822044,3.2841828,3.2860167,3.28829,3.2911065,3.293717,3.296322,3.299112,3.30127,3.3028815,3.3042815,3.3050728,3.305442,3.3055255,3.3053038,3.3050518,3.3048632,3.3049853,3.305562,3.306631,3.3084168,3.3101716,3.3114665,3.3120823,3.3100762,3.3059182,3.2981777,3.2856848,3.2722964,3.2564015,3.2348244,3.214366,3.1973855,3.1826143,3.1751957,3.1727495,3.1732116,3.1772876,3.1823282,3.188745,3.1957269,3.2015767,3.2092197,3.2200809,3.231406,3.2423723,3.2556252,3.2656193,3.2702723,3.2722054,3.2730503,3.2754722,3.2809877,3.2984426,3.325682,3.3639307,3.4220304,3.4812868,3.5322194,3.5867634,3.6290627,3.6577032,3.6812348,3.6933143,3.6973743,3.698958,3.6971781,3.6944118,3.6918845,3.6901395,3.6903188,3.6920114,3.6946893,3.6974874,3.6996675,3.7019448,3.703314,3.7034984,3.7029417,3.7009213,3.698069,3.694622,3.690208,3.6862273,3.6829553,3.680017,3.6787786,3.6789281,3.681035,3.6861248,3.6923027,3.7001011,3.7099776,3.7193708,3.7288666,3.7412188,3.7547166,3.7680554,3.7882745,3.8160615,3.845474,3.887755,3.939468,3.9897647,4.082926,4.183653,4.240614,4.2646546,4.2259064,4.1306214,4.0279775,3.8954737,3.794598,3.757416,3.7297065,3.7223682,3.7268426,3.732528,3.740168,3.7460184,3.7495737,3.7530599,3.7564087,3.7597923,3.7647085,3.7705593,3.7757926,3.782086,3.7880592,3.791848,3.7945921,3.7955265,3.7943277,3.7920504,3.7880821,3.7835903,3.7798288,3.775938,3.7726946,3.7704265
3.188211,3.188355,3.1887257,3.1893299,3.1900816,3.1907115,3.1913571,3.191984,3.1924336,3.1927607,3.1930113,3.1930892,3.1930232,3.1928136,3.1924162,3.1919353,3.1913905,3.190773,3.1902013,3.1895576,3.1887188,3.1878552,3.1869323,3.1856818,3.1847744,3.184649,3.1845322,3.184476,3.1844926,3.1844068,3.184371,3.1844468,3.1844742,3.184452,3.1843424,3.1840687,3.183775,3.183536,3.183297,3.183062,3.1828396,3.1826305,3.1823938,3.1820831,3.1817508,3.1813483,3.1808338,3.18042,3.180236,3.1801355,3.1801558,3.1802435,3.18036,3.180532,3.1807294,3.1809363,3.18114,3.1812897,3.1813986,3.1815133,3.1816068,3.1816447,3.1816888,3.1817172,3.1817188,3.181708,3.1816254,3.1814823,3.181234,3.1808314,3.1805155,3.1806455,3.181101,3.181726,3.182425,3.183278,3.1841588,3.1849885,3.185948,3.1869106,3.1876884,3.1884713,3.1893585,3.190178,3.1909368,3.1918468,3.1926877,3.1933825,3.194242,3.195046,3.1956382,3.196298,3.1969073,3.1973772,3.1980631,3.1989183,3.1997008,3.2004995,3.2013717,3.2020998,3.2027154,3.20336,3.2038789,3.2042475,3.2046258,3.2049975,3.205323,3.2056823,3.2061386,3.2066066,3.2071004,3.2077556,3.208394,3.2089105,3.209489,3.2099972,3.2103693,3.2111557,3.2122583,3.2132926,3.2145154,3.2159612,3.2172933,3.218628,3.2202568,3.2218127,3.2231402,3.2247298,3.2264204,3.2279387,3.2297745,3.2318873,3.2337663,3.2357583,3.2381186,3.240288,3.2422419,3.2445598,3.2466938,3.2483883,3.2505097,3.252673,3.2544107,3.2564118,3.2584743,3.260108,3.2617435,3.2634752,3.2648902,3.2660832,3.2673988,3.2685697,3.2695296,3.270642,3.2717538,3.2726557,3.2736273,3.2746558,3.275517,3.2763197,3.2771735,3.2779088,3.278528,3.279519,3.280737,3.2818456,3.2833953,3.2852948,3.287063,3.2892675,3.292018,3.2945871,3.2971654,3.3000202,3.3023639,3.3042207,3.306036,3.307312,3.3080866,3.3085203,3.3084316,3.3080935,3.30761,3.3072023,3.3072958,3.3080385,3.3098536,3.3122754,3.3146622,3.317292,3.317992,3.3163939,3.3116016,3.3014169,3.2890925,3.2741947,3.2538822,3.233654,3.2137396,3.1949341,3.1839113,3.1785612,3.1760051,3.1777039,3.1811857,3.1861877,3.1924703,3.1982193,3.2052386,3.215328,3.2261546,3.2369447,3.250103,3.2609277,3.267829,3.2707934,3.2709084,3.2718143,3.2749393,3.2871728,3.3076608,3.3378296,3.3880134,3.4438825,3.4967394,3.553566,3.5989957,3.632437,3.6628246,3.6809,3.6878471,3.6921902,3.6921835,3.6900294,3.6877832,3.685417,3.6845453,3.685551,3.6880887,3.691348,3.6940532,3.697236,3.6998897,3.7013397,3.7023578,3.7021785,3.7008915,3.6989198,3.6958115,3.6924722,3.6893978,3.686071,3.6837463,3.6826124,3.6829882,3.686153,3.6908603,3.6978135,3.7078052,3.7177072,3.7269306,3.7386193,3.750659,3.76169,3.7776637,3.7986944,3.8204732,3.852666,3.8917181,3.9279473,3.9843917,4.060966,4.1214676,4.1515856,4.1343975,4.0687065,3.9912682,3.8837671,3.796753,3.7616854,3.7336442,3.7235813,3.7258945,3.730479,3.7379465,3.7442122,3.748054,3.752035,3.7558446,3.7594526,3.7644265,3.7701101,3.7751017,3.781068,3.7867134,3.7903,3.792901,3.793786,3.7926412,3.7904625,3.7866511,3.7823446,3.7787604,3.7750769,3.772073,3.77004
3.1889782,3.1894238,3.1900234,3.190825,3.1916907,3.1923618,3.1929963,3.193565,3.1939402,3.1941645,3.1942723,3.1942093,3.1940207,3.1936743,3.1931825,3.1926656,3.192112,3.1915288,3.1910033,3.1903653,3.1895332,3.1886907,3.187792,3.1865778,3.1856956,3.185571,3.1854517,3.1853883,3.1853957,3.1853018,3.1852775,3.18538,3.1854072,3.1853774,3.1852672,3.1850052,3.1847315,3.1845105,3.184286,3.1840649,3.183854,3.1836555,3.183435,3.1831484,3.182841,3.1824665,3.1819897,3.1816115,3.1814554,3.1813893,3.181439,3.1815457,3.181676,3.181849,3.182038,3.1822305,3.1824195,3.1825614,3.1826656,3.1827765,3.1828656,3.1828992,3.1829338,3.1829464,3.1829305,3.1828966,3.182794,3.182639,3.1823814,3.1819825,3.1816802,3.1818242,3.182294,3.182925,3.183625,3.1844754,3.1853495,3.1861718,3.187124,3.188082,3.1888566,3.1896343,3.1905117,3.1913185,3.1920626,3.1929522,3.1937706,3.1944413,3.1952672,3.1960359,3.1966004,3.1972296,3.1978211,3.1982903,3.1989827,3.1998615,3.2006757,3.201508,3.202428,3.203209,3.2038732,3.2045813,3.2051678,3.205596,3.2060418,3.2064776,3.2068493,3.207251,3.2077417,3.2082272,3.208728,3.2093801,3.2100081,3.210513,3.2110786,3.2115781,3.2119496,3.21273,3.2138262,3.2148561,3.2160673,3.2174935,3.2188044,3.2201142,3.221712,3.2232418,3.2245507,3.2261267,3.2278056,3.2293115,3.2311316,3.2332244,3.2350845,3.2370555,3.239389,3.2415333,3.2434673,3.2457638,3.2478838,3.2495756,3.2516983,3.2538695,3.2556195,3.257637,3.2597237,3.2613835,3.263051,3.2648299,3.2662973,3.267545,3.2689276,3.2701597,3.2711663,3.2723246,3.2734637,3.2743726,3.2753317,3.2763188,3.2771215,3.2778516,3.2786028,3.2792342,3.2797613,3.2806344,3.2817137,3.2826796,3.2840953,3.2858896,3.2875872,3.2897105,3.2923675,3.2948587,3.2973676,3.3002138,3.3026524,3.3046625,3.3067846,3.3084645,3.3096056,3.3104334,3.3106475,3.3104439,3.3099494,3.3093307,3.309136,3.30959,3.3112183,3.3138306,3.3167334,3.3205433,3.3231354,3.3235488,3.3214874,3.31405,3.303494,3.2893922,3.2706952,3.2520185,3.2312074,3.2096734,3.1951084,3.1866527,3.180627,3.1793916,3.1809008,3.1838293,3.1889439,3.194593,3.2014585,3.2110715,3.2212224,3.2315059,3.2442174,3.255299,3.2633007,3.2681456,3.269215,3.2693214,3.2713037,3.279943,3.29492,3.3174136,3.3584242,3.4082303,3.4594164,3.5170465,3.5655532,3.6023629,3.6389408,3.663609,3.6746655,3.6826239,3.6851492,3.6842184,3.6826963,3.6804159,3.6789641,3.678879,3.6807942,3.6841106,3.6870139,3.6906433,3.6941094,3.6964884,3.6987748,3.7002964,3.7006516,3.7003698,3.699039,3.6969533,3.6946907,3.6917205,3.688953,3.6869648,3.6859324,3.6871228,3.6899738,3.6950622,3.7040768,3.7141361,3.723681,3.7359066,3.7481284,3.7588413,3.7730517,3.7901797,3.807168,3.8309684,3.8621058,3.8921895,3.9232798,3.9738903,4.024455,4.0547695,4.0548544,4.0154843,3.9588473,3.8739238,3.8003535,3.7671485,3.7384515,3.7252975,3.7251253,3.7284212,3.7355247,3.7420468,3.746134,3.7506213,3.7549326,3.758798,3.7638433,3.7693353,3.7740364,3.7796006,3.7848198,3.7881188,3.790495,3.791264,3.7901464,3.7880642,3.7844353,3.7803593,3.776998,3.7735558,3.7708168,3.7690382
3.189602,3.1902778,3.191042,3.1919703,3.192886,3.193552,3.1941352,3.1946065,3.1948767,3.194973,3.1949234,3.1947212,3.1944184,3.193946,3.1933923,3.1928978,3.192349,3.1917748,3.1912713,3.1906664,3.1898808,3.1890843,3.1882272,3.18706,3.186207,3.186086,3.1859617,3.1858835,3.1858728,3.1857812,3.185761,3.185855,3.1858697,3.1858344,3.1857305,3.1854794,3.1852217,3.1850176,3.1848068,3.1845987,3.184399,3.1842093,3.1840029,3.1837366,3.1834507,3.1830993,3.1826525,3.1823032,3.182167,3.1821232,3.18219,3.1823065,3.1824412,3.1826086,3.182788,3.1829686,3.1831448,3.183278,3.1833782,3.183484,3.183568,3.183596,3.183622,3.183622,3.1835895,3.1835363,3.1834164,3.1832533,3.1829863,3.1825867,3.1822913,3.1824412,3.182914,3.1835427,3.1842368,3.1850748,3.185934,3.1867447,3.1876845,3.1886325,3.1894011,3.1901731,3.1910443,3.191845,3.1925836,3.1934667,3.1942759,3.194935,3.1957448,3.196496,3.1970463,3.197657,3.1982374,3.198707,3.1994038,3.2002962,3.2011282,3.2019777,3.2029228,3.2037325,3.2044277,3.2051742,3.2058046,3.2062745,3.2067704,3.2072563,3.2076654,3.2081048,3.2086282,3.2091327,3.2096453,3.2103019,3.210928,3.2114325,3.2119963,3.212498,3.2128766,3.2136617,3.2147598,3.215789,3.2169976,3.2184153,3.2197127,3.2210069,3.2225864,3.224101,3.2254019,3.2269714,3.2286463,3.2301474,3.2319617,3.234044,3.23589,3.2378466,3.2401614,3.242288,3.2442079,3.246489,3.2486,3.2502894,3.2524116,3.2545848,3.2563372,3.258359,3.2604532,3.2621236,3.263807,3.265614,3.2671156,3.2683995,3.2698307,3.271111,3.2721572,3.2733562,3.2745235,3.275443,3.2764025,3.2773666,3.2781315,3.2788105,3.279489,3.2800438,3.2804987,3.2812786,3.282268,3.283166,3.2844458,3.2861052,3.2877316,3.2897644,3.292315,3.2947145,3.2971365,3.2999363,3.3024082,3.3045,3.3068185,3.3087816,3.3101907,3.3113565,3.3119144,3.3119564,3.3116457,3.311115,3.3108945,3.3112264,3.3126702,3.3152132,3.3182106,3.3224492,3.3260055,3.327634,3.3273606,3.3221817,3.3135548,3.3009582,3.2831235,3.264841,3.245366,3.2231417,3.2059383,3.1950393,3.1860902,3.1821914,3.1818151,3.1829615,3.186582,3.1913064,3.198207,3.2077014,3.2172706,3.226955,3.2391894,3.250107,3.257928,3.2650726,3.268472,3.2685661,3.2697208,3.2759428,3.2874255,3.3040817,3.3370552,3.3801284,3.4265537,3.4842603,3.5364676,3.5755014,3.6160195,3.6459153,3.6616564,3.6731875,3.6782067,3.678654,3.6779869,3.6761503,3.6745434,3.6736603,3.6748338,3.6778383,3.6807542,3.6845012,3.6883478,3.691266,3.6943579,3.6970901,3.6987193,3.699812,3.7000523,3.6992211,3.6978915,3.6955671,3.692772,3.6903267,3.688293,3.687889,3.689177,3.6928196,3.700319,3.7096043,3.720166,3.7339149,3.7473326,3.7589853,3.773354,3.7886872,3.8025458,3.8210342,3.8449302,3.868515,3.896439,3.9308777,3.961896,3.9938776,4.0052876,3.9809723,3.9373896,3.8684216,3.8048704,3.7724166,3.7428265,3.727007,3.7246222,3.7267153,3.7334077,3.7400851,3.7443414,3.7492464,3.753998,3.7580984,3.7632136,3.7685332,3.772965,3.7781487,3.7829523,3.7859602,3.7881012,3.7887392,3.7876334,3.7856338,3.782175,3.7783196,3.7751665,3.771955,3.7694597,3.7678974
3.1901755,3.1910076,3.1918776,3.192866,3.1937728,3.1943932,3.1948864,3.195221,3.195354,3.1953018,3.195076,3.1947222,3.1943007,3.1937125,3.193099,3.1926022,3.1920564,3.1915154,3.1910644,3.190519,3.1898084,3.1890821,3.1882925,3.187202,3.186404,3.1863072,3.1861959,3.1861124,3.1860871,3.1860018,3.18598,3.186054,3.1860547,3.1860113,3.1859088,3.1856673,3.1854248,3.1852374,3.185041,3.184848,3.1846597,3.1844778,3.1842804,3.1840277,3.1837573,3.183423,3.1829977,3.1826653,3.1825392,3.1825018,3.1825662,3.182675,3.1827915,3.1829324,3.1830873,3.1832373,3.1833847,3.1834984,3.183583,3.1836753,3.183748,3.1837678,3.1837838,3.183772,3.1837265,3.1836567,3.1835208,3.1833472,3.183072,3.1826694,3.1823754,3.1825256,3.182993,3.183609,3.184285,3.1850972,3.185929,3.1867156,3.1876287,3.1885538,3.189309,3.1900678,3.1909277,3.1917214,3.1924572,3.1933372,3.1941433,3.194799,3.1956005,3.1963425,3.1968856,3.1974902,3.1980689,3.1985424,3.1992455,3.2001488,3.2009933,3.201854,3.2028172,3.2036495,3.2043686,3.2051501,3.205823,3.206333,3.2068782,3.207416,3.2078667,3.2083488,3.2089124,3.2094436,3.2099752,3.210647,3.2112823,3.2117941,3.2123694,3.2128878,3.2132833,3.2140837,3.2151937,3.21623,3.2174416,3.2188597,3.2201548,3.2214427,3.2230167,3.2245307,3.2258344,3.2274122,3.229096,3.2306004,3.2324176,3.234499,3.2363405,3.2382894,3.2405906,3.242704,3.2446108,3.2468781,3.248981,3.25067,3.252791,3.2549646,3.2567186,3.25874,3.2608395,3.2625213,3.2642179,3.2660496,3.2675838,3.2689042,3.270383,3.27171,3.2727935,3.2740343,3.2752333,3.2761695,3.2771354,3.2780876,3.2788262,3.2794695,3.2800946,3.2805896,3.280983,3.2816772,3.2825732,3.283393,3.2845435,3.28606,3.2875829,3.2895048,3.2919278,3.2942147,3.2965302,3.2992516,3.301723,3.3038669,3.3063474,3.3085794,3.310266,3.3118343,3.3128781,3.3133335,3.313425,3.3132071,3.3130789,3.3132968,3.3143764,3.3164868,3.3191545,3.323245,3.3272686,3.3298476,3.3312411,3.3284822,3.3221743,3.3120985,3.295964,3.2785063,3.2614074,3.2391725,3.2192025,3.2053132,3.192772,3.185637,3.1830354,3.1822376,3.1846228,3.1887977,3.1951268,3.2044656,3.2139745,3.222786,3.2340178,3.2443786,3.2520542,3.2603254,3.265432,3.266567,3.267828,3.2723374,3.2807674,3.2928967,3.3185205,3.35438,3.3952394,3.4515076,3.5061173,3.547029,3.5912468,3.6263084,3.646758,3.6622195,3.6702185,3.6723628,3.6727781,3.671397,3.669622,3.6684291,3.6683712,3.6701574,3.6728656,3.6763825,3.6802735,3.6835146,3.6872196,3.691062,3.6939857,3.6965504,3.6986005,3.69937,3.6993592,3.6982238,3.6959662,3.693522,3.6908898,3.6890743,3.6887453,3.690603,3.695928,3.7034888,3.713135,3.7271795,3.7419515,3.7551684,3.7703943,3.7847571,3.7964144,3.8106914,3.828798,3.8472462,3.87039,3.897756,3.921511,3.9463508,3.9625154,3.953166,3.9230134,3.868125,3.8119292,3.778977,3.7477694,3.7289295,3.7240057,3.7244225,3.7306514,3.7377784,3.742157,3.7474656,3.7526855,3.757017,3.7621696,3.7672567,3.7713633,3.7761176,3.7804863,3.7832162,3.7851644,3.7857456,3.7847323,3.7828913,3.779691,3.7761226,3.773217,3.7702596,3.7679982,3.7666285
3.190588,3.1915054,3.192426,3.193418,3.1942654,3.1948023,3.1951709,3.1953354,3.1953058,3.1950917,3.1946774,3.1941662,3.1936235,3.192936,3.1922808,3.1917791,3.1912546,3.1907768,3.1904025,3.1899452,3.1893368,3.1887002,3.1879964,3.1869998,3.1862676,3.1862009,3.1861012,3.1860163,3.1859949,3.1858993,3.185851,3.1858945,3.1858685,3.1858025,3.1856873,3.1854424,3.1852,3.1850152,3.184824,3.1846347,3.1844466,3.184264,3.1840658,3.1838155,3.1835504,3.1832242,3.1828105,3.1824872,3.1823616,3.1823149,3.182361,3.1824484,3.1825314,3.182631,3.1827493,3.182858,3.1829662,3.1830525,3.1831121,3.1831799,3.183235,3.1832433,3.1832469,3.1832232,3.183167,3.1830816,3.182931,3.1827466,3.1824622,3.182056,3.181762,3.1819098,3.182365,3.1829596,3.1836114,3.1843886,3.185183,3.1859384,3.1868148,3.187706,3.1884384,3.1891756,3.1900187,3.1908038,3.1915364,3.1924174,3.1932259,3.1938837,3.194685,3.1954257,3.19597,3.196576,3.1971605,3.1976428,3.1983552,3.1992686,3.2001219,3.2009902,3.2019663,3.2028172,3.2035553,3.204368,3.20508,3.205628,3.2062201,3.20681,3.207305,3.2078333,3.2084432,3.2090087,3.209567,3.210264,3.210919,3.2114482,3.212048,3.2125974,3.2130237,3.2138522,3.2149873,3.2160408,3.2172675,3.2186995,3.220006,3.221304,3.2228906,3.2244198,3.225739,3.2273393,3.2290437,3.2305603,3.2323895,3.234478,3.23632,3.238266,3.2405572,3.2426572,3.2445517,3.2468061,3.2489023,3.2505903,3.2527113,3.2548857,3.2566404,3.2586615,3.2607646,3.262454,3.2641644,3.2660184,3.267581,3.2689333,3.270455,3.2718265,3.2729478,3.2742321,3.2754703,3.2764306,3.2774177,3.278378,3.2791114,3.2797437,3.2803466,3.280809,3.2811618,3.281793,3.2826142,3.2833657,3.284419,3.2857947,3.287169,3.288962,3.2912378,3.2933834,3.2955642,3.2981663,3.3005927,3.3027468,3.3053348,3.3077903,3.3097305,3.3117213,3.3133454,3.3143477,3.3150465,3.315404,3.3155699,3.3157973,3.316523,3.3180358,3.320096,3.323594,3.327596,3.3307495,3.3334632,3.3330066,3.3291688,3.3220391,3.3085508,3.2926226,3.2769306,3.2558136,3.235075,3.2181363,3.2017503,3.190969,3.1857615,3.18267,3.183597,3.1871152,3.192586,3.2013533,3.2105134,3.2185273,3.2285962,3.23812,3.2456112,3.254361,3.2610793,3.2642784,3.2665353,3.2699776,3.2756958,3.284028,3.302765,3.3309484,3.3648293,3.4168181,3.4720001,3.5157847,3.5636954,3.6036677,3.629088,3.6489234,3.660465,3.66474,3.6665795,3.665904,3.6641076,3.6627731,3.661738,3.6621826,3.6639755,3.6669369,3.6707191,3.6740546,3.6781116,3.6827781,3.6867676,3.69059,3.6943166,3.6967149,3.698145,3.6984982,3.6972132,3.6951895,3.6923842,3.6894503,3.6875906,3.687461,3.6900878,3.6952894,3.703285,3.7168465,3.732473,3.7468898,3.7638125,3.779139,3.7905085,3.8020828,3.815405,3.8293755,3.8480554,3.8724737,3.8947084,3.9148116,3.9311576,3.9296722,3.9112275,3.8694844,3.820178,3.7859974,3.7528515,3.7307615,3.7229347,3.7210362,3.726787,3.7349138,3.7395315,3.7453372,3.7510936,3.755692,3.7608733,3.765667,3.7693744,3.773615,3.7774844,3.7799191,3.781684,3.782258,3.7814102,3.7798066,3.776963,3.773771,3.7711804,3.7685187,3.7665048,3.7653356
3.190645,3.1915765,3.1924982,3.1934605,3.1942391,3.1946979,3.1949625,3.1949906,3.1948345,3.1944995,3.1939478,3.193323,3.1926951,3.1919494,3.1912785,3.190778,3.1902843,3.1898704,3.1895647,3.1891863,3.1886652,3.1880996,3.1874647,3.1865416,3.1858563,3.1858044,3.1857097,3.1856248,3.1856103,3.1854858,3.1853924,3.1854043,3.1853442,3.1852436,3.1851034,3.1848416,3.1845818,3.1843839,3.184186,3.1839857,3.1837869,3.1835966,3.1833897,3.1831322,3.1828651,3.1825387,3.1821291,3.1818085,3.1816764,3.181614,3.1816359,3.1816978,3.1817455,3.1818047,3.181888,3.1819596,3.1820316,3.1820908,3.1821256,3.182167,3.1822028,3.1821995,3.1821904,3.1821566,3.1820936,3.1819973,3.1818357,3.181645,3.1813545,3.1809473,3.1806545,3.1807985,3.1812406,3.1818142,3.1824422,3.1831858,3.183945,3.184671,3.1855135,3.1863732,3.187082,3.1877959,3.1886196,3.1893957,3.190124,3.1910067,3.1918192,3.1924806,3.1932852,3.1940298,3.1945791,3.1951904,3.1957831,3.1962762,3.1969972,3.1979184,3.1987767,3.1996484,3.2006316,3.2014933,3.2022457,3.2030811,3.2038221,3.2043982,3.2050264,3.2056568,3.2061868,3.206754,3.2074046,3.2080026,3.208588,3.209312,3.209992,3.2105436,3.2111738,3.2117596,3.2122219,3.2130837,3.2142477,3.215324,3.21657,3.2180223,3.2193475,3.2206635,3.2222724,3.223824,3.2251635,3.22679,3.2285185,3.23005,3.231895,3.2339938,3.2358394,3.2377884,3.2400753,3.2421675,3.2440553,3.246304,3.2483988,3.2500896,3.252214,3.2543921,3.2561483,3.2581697,3.260274,3.2619677,3.2636867,3.2655559,3.267136,3.268508,3.2700577,3.2714605,3.2726097,3.2739296,3.2752018,3.2761874,3.2772021,3.2781844,3.2789304,3.2795742,3.2801843,3.2806435,3.2809834,3.2815866,3.2823658,3.2830725,3.2840714,3.2853389,3.2865689,3.2882304,3.29036,3.2923717,3.2944212,3.296897,3.299255,3.301386,3.3040147,3.3065991,3.308702,3.311003,3.313097,3.3145757,3.3158545,3.3168383,3.3174138,3.3178122,3.318409,3.3194904,3.3210025,3.323823,3.327471,3.3307421,3.3341064,3.3351917,3.3332534,3.3285103,3.3178716,3.3039665,3.2886705,3.2691379,3.2494624,3.2309608,3.211821,3.1978035,3.1900563,3.1846073,3.1838522,3.1865008,3.191113,3.1989734,3.207386,3.2149222,3.2240834,3.2328,3.240096,3.2489352,3.2568655,3.2620924,3.265627,3.2686195,3.2723432,3.2778263,3.2913918,3.3134112,3.3408132,3.3870015,3.4407823,3.4872832,3.538105,3.5819242,3.6115313,3.6353092,3.650292,3.6567743,3.6601844,3.6604598,3.6588655,3.6574497,3.6560836,3.6557322,3.6563478,3.658607,3.6621687,3.665463,3.669608,3.6746514,3.6792042,3.6837196,3.6884904,3.6920376,3.6945693,3.6962187,3.6959996,3.6946535,3.6921163,3.6886587,3.6857903,3.6841373,3.6844497,3.687488,3.6939569,3.7065766,3.7221622,3.7368674,3.755299,3.7723908,3.7846017,3.7949958,3.8050678,3.8155632,3.8303747,3.8525205,3.8750677,3.896688,3.9129448,3.9129145,3.9013348,3.8694892,3.826405,3.7914968,3.7568727,3.7319741,3.7214737,3.7172475,3.722337,3.731417,3.7367606,3.7432892,3.7494974,3.7543526,3.7595515,3.7640467,3.7673569,3.7710946,3.774497,3.7766805,3.7783132,3.778935,3.7782907,3.7769508,3.7744808,3.7716665,3.7693865,3.7670012,3.7651987,3.764192
3.1903977,3.1913013,3.1922,3.1931243,3.1938534,3.1942666,3.1944714,3.1944227,3.1941943,3.1937923,3.1931605,3.1924691,3.1917956,3.1910248,3.1903539,3.1898565,3.1893826,3.189008,3.1887455,3.1884165,3.1879478,3.187424,3.1868281,3.1859481,3.185287,3.1852303,3.18515,3.1850724,3.185036,3.1848779,3.184744,3.184723,3.184629,3.1844928,3.1843257,3.1840436,3.1837637,3.1835504,3.183341,3.1831293,3.182921,3.1827235,3.1825073,3.1822448,3.1819773,3.1816502,3.181244,3.1809244,3.1807847,3.1807063,3.1807055,3.1807413,3.1807556,3.1807804,3.1808357,3.1808763,3.1809182,3.1809545,3.1809669,3.180987,3.181007,3.180992,3.1809719,3.1809301,3.1808631,3.1807613,3.180595,3.1804016,3.1801114,3.179706,3.1794147,3.1795542,3.1799831,3.1805377,3.181142,3.1818538,3.1825814,3.1832829,3.1840968,3.1849298,3.1856198,3.1863136,3.1871216,3.187889,3.188614,3.1894956,3.1903112,3.1909761,3.1917841,3.1925325,3.1930864,3.1937037,3.1943054,3.1948066,3.1955328,3.1964567,3.1973155,3.1981864,3.1991692,3.200035,3.2007942,3.201645,3.202407,3.2030025,3.2036572,3.2043185,3.2048764,3.205474,3.2061586,3.2067842,3.2073953,3.208147,3.2088518,3.2094276,3.210091,3.210715,3.2112112,3.2121043,3.2132945,3.2143893,3.2156508,3.2171202,3.2184608,3.2197895,3.221417,3.2229884,3.2243452,3.2259934,3.2277417,3.229288,3.2311475,3.2332582,3.2351117,3.237067,3.2393603,3.241455,3.2433457,3.2455978,3.247699,3.2494004,3.251534,3.2537165,3.255475,3.2574947,3.2595959,3.2612884,3.2630067,3.2648802,3.2664695,3.2678528,3.2694168,3.2708368,3.2720034,3.273346,3.2746427,3.275649,3.2766857,3.2776892,3.27845,3.2791088,3.2797346,3.2802005,3.2805393,3.2811291,3.281878,3.2825496,3.283493,3.2846704,3.2857976,3.2873058,3.289278,3.2911813,3.2931147,3.295474,3.2977612,3.2998629,3.3024974,3.3051455,3.307337,3.3098297,3.312242,3.3140633,3.3157945,3.3173313,3.3183398,3.3190103,3.3196783,3.3205333,3.3216434,3.3238175,3.3269176,3.3299842,3.33348,3.3354635,3.33491,3.3321366,3.3240614,3.3123674,3.2988946,3.28053,3.2612321,3.2433114,3.2226825,3.2056482,3.1953123,3.1873899,3.1847627,3.1864028,3.190144,3.197196,3.2050042,3.2121897,3.2206287,3.22862,3.23561,3.2443633,3.2530189,3.2595558,3.2640307,3.2668343,3.2692142,3.272515,3.2823856,3.29992,3.321991,3.3628864,3.4143896,3.46167,3.5142817,3.5613132,3.5943952,3.6216412,3.6398923,3.6486385,3.653748,3.6551764,3.6539662,3.6525893,3.6510348,3.6501727,3.6500845,3.6515408,3.6546254,3.6579065,3.6620266,3.6671915,3.6719983,3.6768618,3.6822572,3.686603,3.6899762,3.6927454,3.6936207,3.6931078,3.6911774,3.6876962,3.684299,3.68177,3.6803877,3.681566,3.686511,3.6979873,3.71326,3.728139,3.7471325,3.7647038,3.7769322,3.7866597,3.7946637,3.8024454,3.8141499,3.8340054,3.8563905,3.8794813,3.8990753,3.9027643,3.8935008,3.867875,3.8301365,3.7957249,3.7601428,3.7327332,3.7198439,3.7136734,3.7175536,3.7267683,3.733677,3.7413397,3.747826,3.7529092,3.7581074,3.7623105,3.7652445,3.7685146,3.7715077,3.7734995,3.775062,3.7757854,3.7753675,3.774293,3.7721763,3.769699,3.7676878,3.7655354,3.7638946,3.7629986
3.1897836,3.190618,3.191461,3.1923158,3.1929731,3.193329,3.1934772,3.1933653,3.1930816,3.1926308,3.1919599,3.1912582,3.1906056,3.189835,3.1891553,3.1886635,3.1882071,3.18786,3.187622,3.1873162,3.186866,3.1863575,3.1857927,3.1849523,3.1843157,3.1842604,3.1841671,3.184059,3.1839852,3.1837811,3.183598,3.1835375,3.1834047,3.1832259,3.1830237,3.1827154,3.1824064,3.1821709,3.1819472,3.1817198,3.1814995,3.1812935,3.181064,3.18079,3.1805186,3.1801896,3.1797838,3.179462,3.179309,3.179207,3.1791756,3.1791809,3.1791534,3.179135,3.179156,3.1791604,3.1791663,3.1791768,3.1791625,3.1791553,3.1791558,3.1791272,3.1790943,3.1790457,3.1789753,3.1788683,3.1786985,3.178505,3.178217,3.177816,3.177526,3.1776595,3.1780705,3.1785982,3.1791725,3.1798449,3.180534,3.1812055,3.1819854,3.1827865,3.1834528,3.1841218,3.1849089,3.1856647,3.1863804,3.1872578,3.188074,3.1887426,3.1895542,3.190307,3.1908667,3.191494,3.1921077,3.1926196,3.1933541,3.1942818,3.1951404,3.1960092,3.196991,3.1978602,3.198628,3.1994934,3.2002764,3.200893,3.201573,3.2022643,3.202849,3.2034783,3.204198,3.2048545,3.2054949,3.2062795,3.2070158,3.207623,3.2083297,3.2090025,3.2095428,3.210476,3.2117004,3.2128196,3.2141018,3.2155929,3.2169538,3.2183008,3.2199526,3.2215495,3.222928,3.2246037,3.2263765,3.22794,3.2298164,3.231943,3.233808,3.235777,3.238083,3.240187,3.2420876,3.2443542,3.2464736,3.2481933,3.2503471,3.2525444,3.2543104,3.2563338,3.2584355,3.2601273,3.2618442,3.2637174,3.2653093,3.2666965,3.2682683,3.2696981,3.2708735,3.272232,3.2735496,3.2745743,3.275635,3.2766666,3.277452,3.278139,3.2788,3.2792957,3.2796552,3.280252,3.2809834,3.281625,3.2825117,3.2835975,3.2846236,3.285955,3.2877247,3.2894802,3.2912874,3.2935162,3.2957072,3.2977538,3.3003564,3.303021,3.3052573,3.3078842,3.310553,3.3126712,3.314824,3.316915,3.3183975,3.3194275,3.3203185,3.3210967,3.3219104,3.3235083,3.326009,3.3287215,3.3321218,3.3347683,3.3354654,3.3346057,3.3293152,3.3203106,3.3093147,3.292696,3.2742543,3.257544,3.2362475,3.2166486,3.20359,3.192826,3.187777,3.1879463,3.1903636,3.1961334,3.202929,3.209331,3.2166777,3.22372,3.2302165,3.2388494,3.2480023,3.25534,3.261754,3.265419,3.2665558,3.2677407,3.2736537,3.2862053,3.302616,3.3366857,3.3836808,3.4298272,3.484477,3.5355406,3.5717068,3.6032972,3.6258955,3.6374059,3.64469,3.647669,3.6470623,3.6458402,3.6441483,3.64291,3.6424563,3.6430447,3.6453657,3.648468,3.6525378,3.6577928,3.6627517,3.6678438,3.6737578,3.6788738,3.6831164,3.6871486,3.6893768,3.6899772,3.688987,3.6857686,3.6819825,3.6785269,3.6752062,3.6741488,3.6769514,3.686541,3.7009788,3.7157664,3.7354136,3.7537446,3.766109,3.7754984,3.781888,3.7873168,3.796125,3.813635,3.8356602,3.860023,3.8835626,3.8923633,3.8871458,3.8671646,3.8334012,3.7995672,3.7632122,3.7332246,3.717527,3.7090855,3.7115195,3.7208676,3.7296536,3.7386465,3.74542,3.7507463,3.75591,3.7597384,3.7622104,3.764927,3.7674675,3.7692847,3.7708335,3.7717614,3.7716813,3.7709756,3.7693224,3.7672663,3.7655678,3.763723,3.762238,3.7613459
3.1887846,3.1895313,3.1903017,3.1910706,3.1916485,3.191949,3.1920533,3.1919105,3.191618,3.1911907,3.1905665,3.189918,3.1893203,3.1885796,3.1879086,3.1874337,3.1869974,3.1866684,3.1864417,3.1861553,3.1857166,3.1852074,3.1846476,3.183812,3.18317,3.1830952,3.1829524,3.1827788,3.1826527,3.182389,3.1821468,3.1820405,3.1818624,3.1816335,3.1813881,3.1810462,3.1806989,3.180431,3.1801844,3.1799312,3.1796877,3.1794665,3.1792157,3.1789227,3.1786408,3.1783047,3.1778932,3.1775632,3.1773934,3.1772642,3.1772003,3.177174,3.177106,3.1770463,3.1770363,3.1770067,3.17698,3.176965,3.1769247,3.1768894,3.1768675,3.1768231,3.176775,3.1767156,3.1766396,3.1765249,3.1763499,3.176156,3.1758695,3.1754706,3.1751807,3.1753058,3.175696,3.1761951,3.1767387,3.1773725,3.1780267,3.1786718,3.1794224,3.1801965,3.1808424,3.18149,3.1822577,3.183,3.183706,3.1845763,3.1853907,3.1860619,3.1868763,3.187634,3.188201,3.188839,3.189466,3.1899886,3.1907296,3.1916595,3.1925163,3.1933818,3.1943605,3.1952314,3.196005,3.1968827,3.1976824,3.1983156,3.1990142,3.1997266,3.2003322,3.200984,3.2017317,3.202414,3.2030807,3.2038972,3.204667,3.205308,3.2060618,3.2067885,3.2073755,3.208352,3.2096133,3.2107587,3.2120643,3.2135806,3.2149649,3.2163353,3.2180166,3.2196426,3.221047,3.2227528,3.2245526,3.2261336,3.228029,3.230173,3.2320518,3.234037,3.2363596,3.2384782,3.240395,3.2426846,3.2448282,3.24657,3.2487476,3.2509627,3.252736,3.254764,3.2568657,3.2585564,3.260271,3.2621422,3.2637336,3.2651234,3.2667,3.2681367,3.26932,3.2706923,3.272032,3.2730784,3.274169,3.2752376,3.2760594,3.2767873,3.2775016,3.278048,3.27845,3.2790809,3.279821,3.2804523,3.2813032,3.2823195,3.2832632,3.284461,3.2860346,3.2876031,3.2892623,3.291339,3.293409,3.2953596,3.2978635,3.3004618,3.3026652,3.305325,3.3081362,3.3104568,3.3129373,3.3155112,3.3174577,3.3188972,3.3201504,3.321032,3.3217118,3.3228817,3.324781,3.326993,3.3299923,3.33284,3.3343542,3.3349442,3.3321338,3.3258376,3.317539,3.3033657,3.2864265,3.2708325,3.2500324,3.2293534,3.2141526,3.2007046,3.1928735,3.1910725,3.1917543,3.1959443,3.2015843,3.2070053,3.213272,3.2194767,3.22545,3.2337065,3.2428212,3.2503798,3.258619,3.2637084,3.2644749,3.264338,3.267092,3.275388,3.2872634,3.31461,3.3556623,3.398534,3.4537103,3.5077944,3.546178,3.5821302,3.6094356,3.6239333,3.6337938,3.638843,3.6392717,3.6385155,3.6369483,3.6355753,3.6350553,3.635138,3.6367688,3.6394138,3.643186,3.6482654,3.6531372,3.6581433,3.6641967,3.6697686,3.6746364,3.6797516,3.6833277,3.6851552,3.6853828,3.6828947,3.6791923,3.67522,3.670648,3.6680114,3.668736,3.6761765,3.6893759,3.7037196,3.7236736,3.7426362,3.755231,3.7645526,3.7698343,3.7734218,3.7797656,3.7950387,3.8164315,3.841541,3.8687377,3.8829622,3.8826985,3.867627,3.8368492,3.803978,3.7672894,3.7350583,3.7166088,3.7058668,3.7067573,3.7160401,3.7262034,3.7362278,3.7432547,3.7487617,3.7538233,3.757217,3.759184,3.7613006,3.7633593,3.7649999,3.7665505,3.7677102,3.7679923,3.7676766,3.7665062,3.7648792,3.7634943,3.7619762,3.7606778,3.7598057
3.187698,3.188373,3.189081,3.1897779,3.1902912,3.1905503,3.1906283,3.190483,3.1902194,3.1898785,3.1893554,3.188774,3.1882071,3.1875057,3.1868725,3.1864243,3.1860142,3.185705,3.1854923,3.1852446,3.1848388,3.1843348,3.1837573,3.182891,3.1822085,3.1820838,3.1818786,3.1816404,3.1814575,3.181131,3.180827,3.180674,3.1804485,3.1801682,3.1798794,3.1795006,3.1791122,3.1788068,3.1785307,3.1782432,3.1779687,3.1777258,3.1774492,3.177134,3.1768394,3.1764894,3.1760676,3.1757278,3.1755424,3.1753898,3.1752987,3.175244,3.1751447,3.1750555,3.1750216,3.174968,3.1749172,3.1748815,3.1748197,3.1747599,3.1747174,3.1746562,3.17459,3.174517,3.1744316,3.1743064,3.1741238,3.173927,3.1736383,3.1732388,3.172947,3.173063,3.1734343,3.1739097,3.174428,3.1750321,3.1756618,3.1762905,3.1770225,3.1777806,3.1784153,3.1790495,3.1798034,3.1805358,3.1812356,3.1821003,3.1829119,3.183584,3.1844008,3.1851635,3.1857378,3.1863847,3.1870217,3.1875525,3.1882963,3.1892247,3.1900792,3.19094,3.191914,3.192784,3.1935606,3.1944456,3.1952567,3.1959004,3.19661,3.1973362,3.1979542,3.198618,3.199382,3.2000837,3.2007694,3.201612,3.2024102,3.2030802,3.2038765,3.2046514,3.2052782,3.206293,3.2075865,3.2087545,3.2100809,3.2116203,3.213028,3.2144213,3.2161322,3.2177877,3.2192163,3.2209504,3.222775,3.224372,3.226285,3.2284448,3.230335,3.2323332,3.234671,3.236806,3.2387388,3.2410486,3.2432122,3.2449732,3.2471676,3.2493923,3.2511683,3.253196,3.2552943,3.2569807,3.258693,3.260564,3.2621593,3.263554,3.26514,3.266589,3.267785,3.269177,3.270543,3.271617,3.2727404,3.273851,3.274712,3.2754836,3.2762527,3.276852,3.2772994,3.2779748,3.2787395,3.279377,3.2802186,3.2811913,3.2820735,3.2832086,3.284638,3.286019,3.2875156,3.2894301,3.2913728,3.2932062,3.2955747,3.2980585,3.3001847,3.3028173,3.3056989,3.3081574,3.3108864,3.31386,3.3162165,3.318039,3.3196673,3.320714,3.3213463,3.3221905,3.3235366,3.3252227,3.327686,3.330427,3.3323808,3.3339357,3.3330245,3.3289852,3.3230221,3.311469,3.2962656,3.2812123,3.261431,3.2408538,3.224309,3.2087405,3.1982858,3.1944132,3.1933436,3.1960783,3.2007954,3.205442,3.2110047,3.2167094,3.2223008,3.2299201,3.2386043,3.2462115,3.255103,3.2612047,3.262546,3.2619553,3.2627916,3.2682261,3.2771692,3.299445,3.3351357,3.3741562,3.4277854,3.4828663,3.5229187,3.562339,3.593669,3.6109443,3.6233788,3.6307044,3.632454,3.6324096,3.6312294,3.6298807,3.6293063,3.6293428,3.6306427,3.6327076,3.6359334,3.6405547,3.6451464,3.6498191,3.6556773,3.661365,3.6665444,3.6723895,3.6770453,3.6799526,3.6813908,3.67989,3.6766834,3.6727347,3.6679485,3.6648474,3.6641784,3.6699018,3.6819065,3.6956625,3.715396,3.7345097,3.7472951,3.756575,3.7609293,3.7629251,3.7671096,3.780336,3.801002,3.8265362,3.856605,3.8752384,3.8789492,3.8683739,3.8408504,3.8093743,3.772687,3.738664,3.717957,3.7052143,3.704646,3.7135959,3.724308,3.7348537,3.742077,3.7476797,3.7525945,3.7555661,3.757063,3.7586122,3.7601993,3.761642,3.7631555,3.7644744,3.7650378,3.7650337,3.7642555,3.7629833,3.7618656,3.760622,3.759546,3.758819
3.1863418,3.1869264,3.1875548,3.1881528,3.1885843,3.1888084,3.1889179,3.1888423,3.1886387,3.188354,3.187902,3.1873853,3.1868675,3.1862164,3.1856275,3.1852164,3.1848679,3.1846132,3.1844244,3.1841762,3.1837497,3.1832185,3.1826143,3.1817107,3.1809807,3.1807957,3.1805134,3.1801956,3.179946,3.179545,3.1791682,3.1789584,3.178676,3.1783361,3.177999,3.1775794,3.177144,3.176797,3.1764898,3.1761658,3.1758597,3.1755934,3.1752899,3.1749492,3.1746364,3.1742725,3.1738377,3.1734843,3.1732779,3.1730962,3.1729732,3.1728885,3.1727526,3.1726286,3.1725688,3.1724877,3.1724098,3.1723518,3.172267,3.1721811,3.1721156,3.1720347,3.171948,3.1718583,3.1717618,3.1716251,3.1714334,3.1712317,3.1709406,3.17054,3.1702442,3.170348,3.1706944,3.1711392,3.17163,3.172202,3.1728044,3.1734147,3.174129,3.1748729,3.1754973,3.1761217,3.176866,3.1775923,3.178287,3.1791482,3.1799598,3.180635,3.1814566,3.182227,3.18281,3.183469,3.1841187,3.1846578,3.1854053,3.186332,3.1871808,3.188032,3.1889985,3.1898673,3.1906455,3.1915364,3.1923575,3.1930108,3.1937306,3.1944678,3.1950955,3.1957717,3.1965504,3.197267,3.1979713,3.19884,3.1996698,3.200373,3.2012172,3.2020445,3.2027159,3.2037725,3.2050996,3.2062902,3.207638,3.209204,3.2106385,3.2120569,3.2138023,3.2154927,3.2169492,3.218717,3.2205703,3.222186,3.2241178,3.2262943,3.228198,3.2302117,3.2325683,3.2347212,3.2366717,3.2390044,3.2411914,3.2429724,3.2451825,3.247414,3.2491906,3.2512147,3.2533045,3.254984,3.2566905,3.2585607,3.260161,3.2615612,3.2631583,3.264624,3.265838,3.2672567,3.2686563,3.269761,3.2709293,3.2720957,3.2730083,3.2738352,3.2746737,3.2753346,3.275834,3.2765594,3.2773535,3.2780032,3.2788372,3.2797658,3.2805843,3.2816334,3.2829368,3.2841744,3.2854767,3.2871537,3.288908,3.2906318,3.29286,3.2952213,3.2972732,3.2998757,3.3028212,3.3054082,3.3083658,3.3117,3.3144326,3.3166347,3.318674,3.3199706,3.3206728,3.3213758,3.3223379,3.323585,3.3255641,3.3281388,3.3303962,3.332739,3.3335562,3.331696,3.3280575,3.3192534,3.306161,3.2922978,3.2735672,3.2529988,3.2354856,3.2182996,3.2054343,3.1992664,3.1961572,3.1970563,3.2005062,3.2040508,3.2085624,3.2135222,3.218595,3.2254946,3.2335796,3.240929,3.2497392,3.25712,3.2602975,3.259565,3.2586317,3.2612262,3.266931,3.2839818,3.313796,3.3477051,3.397726,3.4529877,3.4958718,3.538919,3.5746117,3.5954108,3.6108708,3.6209154,3.6243296,3.625226,3.6246414,3.623461,3.6229315,3.6230035,3.624124,3.6258163,3.6285794,3.6325788,3.6366277,3.6409576,3.6466022,3.652341,3.657776,3.6642962,3.6700032,3.673983,3.6766798,3.676279,3.673688,3.6698465,3.6650753,3.6617117,3.6593904,3.663021,3.6735435,3.6865325,3.7057803,3.7248888,3.7379193,3.7473605,3.7509637,3.751381,3.7534204,3.7645626,3.7844286,3.8103204,3.8430955,3.866281,3.8747568,3.869323,3.8454876,3.8157628,3.7792883,3.7435272,3.7205238,3.7055898,3.7033088,3.711707,3.7227175,3.7335808,3.7409036,3.746545,3.7512307,3.7536829,3.7546196,3.7554936,3.7565062,3.757688,3.7591262,3.7605972,3.7614613,3.7617986,3.7614596,3.7605913,3.7597823,3.758868,3.7580566,3.7574892
3.1843996,3.184894,3.1854343,3.1860018,3.1864467,3.186686,3.1868453,3.1868443,3.186708,3.186481,3.186102,3.1856642,3.185229,3.1846623,3.1841335,3.1837575,3.1834452,3.1832097,3.1830168,3.1827435,3.1822746,3.1817021,3.1810622,3.1801155,3.1793308,3.1790788,3.1787136,3.1783128,3.1779947,3.1775198,3.1770716,3.1768053,3.1764657,3.176065,3.1756752,3.175209,3.1747184,3.1743214,3.173975,3.1736054,3.1732597,3.172965,3.1726272,3.1722527,3.1719155,3.1715305,3.1710725,3.1706958,3.1704612,3.1702423,3.170083,3.1699677,3.169797,3.1696405,3.169556,3.169449,3.169344,3.1692615,3.1691508,3.1690345,3.168941,3.168837,3.1687245,3.168614,3.168504,3.168353,3.168151,3.1679435,3.1676488,3.167245,3.1669426,3.167031,3.1673512,3.1677675,3.1682315,3.168776,3.1693583,3.1699538,3.170656,3.17139,3.1720047,3.172619,3.1733532,3.1740708,3.1747575,3.1756113,3.1764197,3.1770961,3.1779227,3.1787014,3.179294,3.179967,3.1806297,3.181175,3.1819234,3.182846,3.183689,3.1845326,3.1854944,3.1863647,3.187148,3.1880484,3.1888812,3.1895444,3.1902742,3.191019,3.1916537,3.1923385,3.1931276,3.1938558,3.1945763,3.1954713,3.1963344,3.1970723,3.197966,3.198848,3.1995654,3.200664,3.202026,3.2032418,3.2046142,3.206213,3.2076824,3.2091327,3.2109203,3.2126513,3.2141402,3.2159438,3.2178268,3.21946,3.2214074,3.2235975,3.225512,3.2275405,3.2299156,3.2320857,3.2340548,3.2364113,3.2386222,3.2404227,3.2426486,3.2448878,3.2466674,3.248691,3.25078,3.2524605,3.2541685,3.2560463,3.257657,3.259067,3.2606795,3.2621646,3.2633967,3.2648418,3.2662745,3.2674136,3.2686274,3.2698536,3.270825,3.2717152,3.2726307,3.2733607,3.2739182,3.274703,3.2755384,3.2762108,3.2770557,3.2779624,3.278737,3.2797153,3.2809165,3.2820406,3.2831907,3.2846503,3.2861872,3.287723,3.2897902,3.2920496,3.294029,3.2965863,3.2995546,3.3022199,3.3053262,3.3089132,3.3119342,3.314466,3.3169231,3.3185666,3.3194947,3.3203201,3.321168,3.3221478,3.323751,3.326068,3.32837,3.3310814,3.3330715,3.3329415,3.331283,3.32514,3.314519,3.302536,3.2851768,3.265359,3.2484043,3.2301517,3.214868,3.2062998,3.2006826,3.198965,3.200456,3.2024684,3.2056997,3.2099075,3.2144883,3.2206955,3.2280998,3.2349896,3.2432275,3.251263,3.2560415,3.2562306,3.2546313,3.2549088,3.257852,3.2703357,3.2944336,3.3226228,3.3671665,3.420754,3.4658175,3.5111144,3.5508575,3.5761406,3.5949922,3.6082907,3.6139898,3.6163225,3.616826,3.6161425,3.6158328,3.6160693,3.6171842,3.6187353,3.6210694,3.6244555,3.6279783,3.6317787,3.6370394,3.6427093,3.6482098,3.6551404,3.6616528,3.6665435,3.6704173,3.6712055,3.6694257,3.6660385,3.6614075,3.6577978,3.654632,3.6565976,3.665493,3.6776118,3.696259,3.7152562,3.7284338,3.7383776,3.7416043,3.7405033,3.740446,3.7494183,3.7682822,3.7942681,3.829427,3.8568501,3.8697515,3.8691845,3.8495965,3.8230042,3.7870998,3.749454,3.7240548,3.7066197,3.7022028,3.7096987,3.7206695,3.7317913,3.7393527,3.7450411,3.7495258,3.7514772,3.751844,3.7519946,3.752355,3.7532058,3.7545013,3.7560534,3.7571592,3.7577868,3.7578197,3.7572927,3.7567413,3.756114,3.755549,3.755144
3.1822875,3.182726,3.1832266,3.183835,3.1843605,3.1846507,3.1848464,3.184894,3.1848187,3.1846647,3.184373,3.1840148,3.1836567,3.1831677,3.182683,3.1823177,3.181991,3.1817193,3.1814914,3.1811872,3.1806822,3.1800764,3.1794064,3.1784236,3.1775968,3.1772904,3.1768608,3.1763988,3.1760304,3.1755042,3.1750069,3.1747,3.1743212,3.1738727,3.173437,3.1729305,3.1723886,3.1719427,3.171556,3.1711397,3.170751,3.1704261,3.1700516,3.169641,3.169277,3.1688657,3.1683788,3.1679735,3.1677089,3.1674542,3.167264,3.1671238,3.1669297,3.166755,3.1666546,3.1665306,3.1664047,3.1663022,3.16617,3.1660242,3.165903,3.1657763,3.165637,3.1655045,3.1653805,3.165214,3.1649992,3.1647847,3.1644847,3.164075,3.1637654,3.1638393,3.1641397,3.1645374,3.164983,3.165512,3.1660845,3.1666744,3.1673722,3.1681008,3.1687088,3.169314,3.170036,3.1707428,3.171418,3.1722589,3.1730592,3.1737328,3.1745598,3.1753433,3.1759424,3.1766255,3.1772962,3.1778438,3.1785898,3.1795073,3.180347,3.181188,3.1821518,3.183029,3.1838202,3.1847339,3.1855812,3.186255,3.1869934,3.1877446,3.1883836,3.1890712,3.1898649,3.1906009,3.191332,3.192247,3.1931372,3.1939034,3.194838,3.1957653,3.1965208,3.1976535,3.1990452,3.2002854,3.2016838,3.2033176,3.2048235,3.206309,3.2081394,3.2099094,3.211429,3.213264,3.21517,3.216814,3.2187715,3.220967,3.2228842,3.224921,3.2273068,3.2294881,3.23147,3.2338448,3.2360725,3.237887,3.2401257,3.2423735,3.244159,3.2461886,3.2482877,3.249981,3.2517018,3.2535963,3.255224,3.256648,3.2582784,3.2597811,3.261027,3.2624896,3.263946,3.265111,3.266358,3.2676296,3.2686477,3.269589,3.2705667,3.2713532,3.27196,3.2727985,3.2736778,3.2743802,3.2752538,3.2761712,3.2769356,3.2778845,3.279023,3.2800717,3.2811518,3.2824893,3.283862,3.285202,3.2871122,3.2892816,3.2911959,3.2937024,3.296657,3.299341,3.3024993,3.3061972,3.309372,3.3121123,3.314888,3.316864,3.3180764,3.3191915,3.3201673,3.321097,3.3225284,3.3246183,3.3267927,3.3294864,3.3319497,3.3327804,3.3323555,3.3281684,3.3197217,3.309711,3.2939472,3.2754767,3.2599354,3.2414918,3.2244902,3.2138567,3.2058604,3.201372,3.2006602,3.2010741,3.2030816,3.2066681,3.2108476,3.2164807,3.2232811,3.2297091,3.2373748,3.2451758,3.2503314,3.2521186,3.2511556,3.2502608,3.2515044,3.2607818,3.2803886,3.303776,3.342767,3.3931313,3.438301,3.4842963,3.5272074,3.5567272,3.5787015,3.5952003,3.6033592,3.607368,3.6092505,3.6092877,3.6093123,3.6097624,3.6109495,3.612516,3.6145895,3.6175895,3.620769,3.6240518,3.6288617,3.634336,3.6397386,3.6467752,3.6537156,3.6591897,3.66393,3.665742,3.6647806,3.6620731,3.6575904,3.6537251,3.6508074,3.651987,3.659491,3.6708417,3.6890254,3.7079222,3.7210703,3.7315722,3.734797,3.7326627,3.7309515,3.738051,3.7558951,3.7816901,3.8185759,3.8491516,3.8650084,3.868019,3.852324,3.8293295,3.7944238,3.7552285,3.727569,3.7077146,3.701087,3.7074683,3.7180574,3.7294497,3.7374973,3.743261,3.7476692,3.7493012,3.7492442,3.7488022,3.7485774,3.7490873,3.7501826,3.7516966,3.7529047,3.753684,3.7539163,3.7535713,3.753154,3.752687,3.7522776,3.7519917
3.1802952,3.1807137,3.181292,3.1819105,3.1824255,3.1827335,3.1829615,3.1830764,3.1830902,3.1830506,3.1828814,3.182596,3.182258,3.1817791,3.1812882,3.1809053,3.1805503,3.1802416,3.1799815,3.1796458,3.179108,3.1784759,3.177785,3.1767788,3.1759233,3.1755776,3.1751022,3.1745973,3.1741946,3.1736336,3.173102,3.1727662,3.1723576,3.1718702,3.1713958,3.170855,3.170268,3.169775,3.1693485,3.168885,3.1684527,3.1680946,3.1676826,3.167235,3.166842,3.1664019,3.1658843,3.1654515,3.1651587,3.1648738,3.1646597,3.1645026,3.1642962,3.1641135,3.164007,3.1638744,3.1637378,3.1636224,3.1634727,3.163303,3.1631565,3.163005,3.1628385,3.1626837,3.1625428,3.1623564,3.1621242,3.1618977,3.1615894,3.1611714,3.1608524,3.1609147,3.1612,3.161584,3.1620173,3.162538,3.1631083,3.1636977,3.1643958,3.1651244,3.16573,3.1663287,3.167041,3.167738,3.1684008,3.1692266,3.1700158,3.1706843,3.1715064,3.172289,3.1728902,3.1735768,3.1742506,3.1747987,3.1755419,3.1764545,3.177291,3.1781316,3.1791005,3.179987,3.1807885,3.181718,3.182582,3.1832666,3.184014,3.1847708,3.1854115,3.1860995,3.186893,3.1876292,3.188367,3.1892943,3.1902034,3.1909919,3.1919596,3.1929245,3.1937115,3.194874,3.1962943,3.1975596,3.1989837,3.2006543,3.2022002,3.203722,3.205597,3.2074063,3.2089548,3.2108202,3.2127457,3.2143989,3.2163618,3.2185564,3.220471,3.2225084,3.2248983,3.2270849,3.2290735,3.2314582,3.2336974,3.23552,3.2377672,3.2400236,3.2418165,3.2438555,3.2459698,3.2476802,3.2494211,3.2513394,3.2529893,3.2544346,3.2560887,3.2576106,3.2588701,3.2603507,3.2618275,3.2630095,3.2642832,3.2655895,3.2666404,3.2676172,3.268639,3.2694678,3.2701113,3.2709937,3.2719145,3.2726517,3.2735634,3.274509,3.2752843,3.2762299,3.2773395,3.278341,3.2793593,3.2806067,3.2818866,3.2831562,3.2848957,3.2868876,3.2887197,3.2911882,3.2941437,3.2968357,3.300026,3.3037906,3.3070612,3.3099415,3.3129444,3.3151784,3.3166287,3.3180256,3.3191943,3.3201783,3.3215847,3.3235812,3.3256822,3.3283432,3.3310728,3.3325143,3.3329234,3.3301775,3.3234673,3.3151085,3.3012161,3.283935,3.268635,3.2512312,3.2338102,3.221004,3.2110505,3.2042415,3.2015681,3.20052,3.2013216,3.2041743,3.207803,3.212718,3.2188392,3.2248054,3.2320247,3.2394192,3.2445247,3.247782,3.2480755,3.2469473,3.2468805,3.2531838,3.2685187,3.2875295,3.3211617,3.3674777,3.4112306,3.4584818,3.5049205,3.5379462,3.562947,3.5826204,3.5932107,3.5989304,3.6022367,3.6030278,3.603407,3.604082,3.605317,3.6068676,3.6089535,3.6116693,3.6143765,3.6174436,3.621853,3.6269407,3.6322546,3.6393526,3.646609,3.6525402,3.6580167,3.6607609,3.6605897,3.6585746,3.6543915,3.650518,3.6481404,3.6487312,3.6548767,3.6654446,3.6832557,3.7021027,3.715115,3.725883,3.72922,3.7266595,3.7236915,3.7292082,3.7461197,3.7716134,3.8099036,3.8430989,3.861215,3.8673646,3.8550506,3.8348088,3.8014128,3.761294,3.7312465,3.7090585,3.7002544,3.7053952,3.715232,3.7268648,3.7356145,3.7414556,3.7458584,3.747283,3.7468922,3.7459345,3.7451472,3.7452822,3.7461085,3.747477,3.748684,3.7495298,3.7498782,3.749658,3.749343,3.7490034,3.7487273,3.74855
3.1778212,3.1782718,3.1788478,3.1794589,3.1799815,3.1803236,3.1806731,3.180945,3.1810732,3.181131,3.1810584,3.1808348,3.1805167,3.180046,3.1795413,3.1791298,3.1787338,3.1783738,3.1780686,3.1776853,3.1771,3.1764312,3.1757085,3.1746705,3.1737812,3.1733904,3.1728668,3.1723213,3.171889,3.1713023,3.170746,3.1703882,3.1699572,3.1694396,3.168933,3.1683617,3.1677315,3.167193,3.166725,3.1662107,3.165729,3.1653337,3.1648793,3.1643872,3.1639585,3.1634827,3.1629262,3.1624587,3.1621315,3.1618118,3.161572,3.1613982,3.1611798,3.1609893,3.1608748,3.1607337,3.1605844,3.1604548,3.160286,3.160089,3.159914,3.1597352,3.1595366,3.1593542,3.159193,3.158982,3.1587281,3.1584868,3.158166,3.1577363,3.1574063,3.157453,3.1577196,3.1580884,3.1585102,3.1590226,3.1595898,3.1601772,3.1608725,3.1615958,3.1621954,3.1627831,3.1634793,3.1641603,3.164805,3.1656082,3.166379,3.1670356,3.167848,3.1686256,3.1692252,3.1699123,3.1705863,3.1711328,3.1718698,3.1727772,3.173613,3.1744542,3.1754308,3.1763315,3.1771479,3.1780996,3.1789842,3.1796856,3.1804478,3.1812153,3.1818619,3.1825538,3.1833496,3.1840897,3.184835,3.185779,3.1867123,3.1875277,3.1885347,3.1895452,3.190371,3.1915693,3.1930242,3.1943192,3.1957767,3.1974921,3.1990829,3.200647,3.2025714,3.2044244,3.2060053,3.2079024,3.2098482,3.2115092,3.2134728,3.215661,3.2175682,3.2195988,3.2219827,3.2241669,3.2261546,3.228541,3.230784,3.2326102,3.2348595,3.2371192,3.2389174,3.240965,3.2430935,3.2448204,3.2465794,3.24852,3.2501893,3.2516513,3.2533221,3.254857,3.256125,3.2576141,3.2591007,3.260292,3.2615824,3.2629151,3.2639945,3.2650056,3.2660728,3.2669454,3.2676277,3.268558,3.2695293,3.2703128,3.2712808,3.2722769,3.2730825,3.2740498,3.2751548,3.276128,3.277103,3.2782788,3.279481,3.2806888,3.2823176,3.284181,3.285912,3.2882402,3.2910855,3.293737,3.2968733,3.3005872,3.303857,3.3068213,3.3100567,3.3126383,3.3144636,3.316363,3.3179345,3.31909,3.3205166,3.322281,3.324041,3.326277,3.328802,3.3305078,3.331501,3.3301811,3.3255296,3.3193054,3.3080392,3.29287,3.2786243,3.261955,3.244267,3.2302766,3.2178574,3.207797,3.2025073,3.199535,3.1987536,3.2007256,3.2038414,3.2079968,3.2132716,3.2185502,3.2250433,3.231799,3.2367406,3.2411394,3.2432137,3.2429523,3.2421649,3.2459993,3.2572641,3.2718906,3.2994432,3.3401155,3.380723,3.428319,3.47756,3.5136206,3.5425673,3.5665019,3.580191,3.5882554,3.5936072,3.595539,3.596439,3.5974221,3.598699,3.6002173,3.6023006,3.6049087,3.6073937,3.6101398,3.6141744,3.6189337,3.6239038,3.6307797,3.638145,3.6444094,3.650589,3.65435,3.6550913,3.6538932,3.6501575,3.6463716,3.6444507,3.644621,3.6497188,3.659635,3.676941,3.6955504,3.7084568,3.719186,3.7226467,3.7201266,3.7158852,3.7195077,3.7351074,3.759923,3.7993796,3.8352835,3.8559625,3.8658864,3.8573663,3.8397274,3.8091393,3.7689824,3.7360158,3.7108452,3.698988,3.7021914,3.710791,3.7226787,3.7324116,3.7382996,3.7427921,3.744184,3.743597,3.7422361,3.7409472,3.740714,3.7412424,3.7423878,3.74349,3.7442958,3.7446012,3.7443247,3.7439404,3.7435253,3.7432013,3.743013
3.1754422,3.1759038,3.1764197,3.1770325,3.1776242,3.1780567,3.1785495,3.1789763,3.1792045,3.1793263,3.1793137,3.1791325,3.178837,3.1783772,3.1778603,3.177422,3.1769853,3.1765733,3.1762214,3.1757882,3.1751523,3.1744456,3.173689,3.1726184,3.1716974,3.1712651,3.1707013,3.1701272,3.1696756,3.1690755,3.1685095,3.1681418,3.1676998,3.1671686,3.166647,3.1660597,3.165403,3.1648314,3.1643324,3.1637754,3.16325,3.1628213,3.1623259,3.1617908,3.161327,3.1608133,3.1602159,3.1597126,3.1593494,3.1589947,3.1587305,3.15854,3.158309,3.1581092,3.1579866,3.1578374,3.1576762,3.1575336,3.1573503,3.1571312,3.1569324,3.1567307,3.1565025,3.1562915,3.1561105,3.1558762,3.1556015,3.155346,3.1550107,3.1545672,3.1542244,3.1542537,3.1545002,3.154853,3.1552618,3.1557624,3.15632,3.1569,3.1575847,3.1582952,3.1588824,3.1594553,3.1601326,3.1607943,3.1614184,3.1621976,3.162948,3.16359,3.1643896,3.1651595,3.1657548,3.16644,3.1671119,3.1676536,3.1683826,3.1692839,3.1701183,3.170958,3.1719408,3.172854,3.1736832,3.1746526,3.1755576,3.1762767,3.1770575,3.1778417,3.1785002,3.1792026,3.1800094,3.1807609,3.18152,3.1824875,3.1834497,3.1842957,3.1853454,3.186402,3.1872683,3.1885033,3.1899924,3.1913161,3.1928058,3.1945615,3.1961908,3.1977897,3.1997547,3.201642,3.2032487,3.2051725,3.2071342,3.2088003,3.210762,3.2129407,3.2148361,3.2168546,3.2192245,3.2213974,3.223377,3.2257543,3.2279892,3.2298117,3.2320523,3.2343044,3.236101,3.2381473,3.240279,3.2420118,3.2437758,3.2457237,3.2474003,3.2488663,3.2505417,3.252078,3.2533455,3.2548318,3.2563145,3.257504,3.2587974,3.2601423,3.2612398,3.2622752,3.2633772,3.264285,3.264998,3.2659671,3.266983,3.2678099,3.2688334,3.2698832,3.2707257,3.2717247,3.2728415,3.273804,3.2747557,3.275887,3.2770362,3.278194,3.2797775,3.2815833,3.2832382,3.2854218,3.2880974,3.290621,3.2936082,3.2971745,3.3003721,3.3033543,3.3067694,3.3096857,3.3119035,3.3143458,3.316375,3.31775,3.3192313,3.3207304,3.3220518,3.3237042,3.3257515,3.3274136,3.3286781,3.3284507,3.3256407,3.3214433,3.3128242,3.3001347,3.2875419,3.2714887,3.2536461,3.2391272,3.2245202,3.2112246,3.2031784,3.1981936,3.195746,3.1968207,3.199469,3.2030768,3.2076585,3.2121844,3.2178535,3.223956,3.2287393,3.2336595,3.2373264,3.238618,3.2383437,3.2409017,3.248942,3.2599125,3.2818727,3.3165288,3.35295,3.399437,3.4500875,3.488535,3.5215068,3.549916,3.566832,3.577441,3.5850673,3.5882795,3.5897248,3.5909762,3.5922189,3.5936565,3.595676,3.5983143,3.600853,3.603405,3.6072254,3.6117816,3.6164246,3.6230273,3.6303859,3.6368594,3.6436148,3.6483078,3.64994,3.6495957,3.646432,3.6427803,3.640809,3.6409817,3.6458912,3.6550837,3.671681,3.6899216,3.7027879,3.7133412,3.7170367,3.715004,3.7098126,3.711738,3.7259932,3.7499056,3.789897,3.8278594,3.850848,3.8644462,3.859567,3.8441744,3.817089,3.7778986,3.7424397,3.7141228,3.6986115,3.6992238,3.7060115,3.7177868,3.7283893,3.734188,3.738803,3.7403727,3.739825,3.7383392,3.7367883,3.7363014,3.7365675,3.7374263,3.7382917,3.7389026,3.7389488,3.7383888,3.7377386,3.73702,3.736445,3.7361102
