39.72007,39.934875,40.17463,40.432537,40.739334,41.114532,41.555817,42.029972,42.43386,42.696228,42.851334,43.012985,43.301777,43.792816,44.500755,45.372192,46.290405,47.316658,48.32566,49.126358,49.71546,50.213448,50.587776,50.877518,51.108284,51.30632,51.48535,51.651306,51.814133,51.98078,52.14399,52.352493,52.65027,53.047966,53.510933,53.978035,54.40041,54.77639,55.138447,55.490974,55.842735,56.19225,56.52774,56.836548,57.106575,57.365417,57.6245,57.882217,58.131092,58.366673,58.5907,58.804626,59.0332,59.317757,59.66328,60.06382,60.504448,60.96383,61.42152,61.889664,62.41234,62.975792,63.55847,64.1398,64.70509,65.24617,65.769394,66.31854,66.8148,67.24343,67.610214,67.904816,68.11922,68.2801,68.42664,68.569626,68.711754,68.84918,68.97748,69.091415,69.18106,69.25096,69.31142,69.36044,69.40592,69.45546,69.506424,69.550476,69.58764,69.616394,69.635605,69.65224,69.6761,69.715515,69.77598,69.85959,69.960556,70.07041,70.1841,70.297165,70.409256,70.52483,70.64357,70.74569,70.82786,70.87039,70.86,70.80762,70.73384,70.641815,70.53679,70.40556,70.19075,69.86006,69.44368,68.993256,68.52491,68.00436,67.471535,66.899025,66.231094,65.474335,64.70537,64.01049,63.45456,63.05385,62.856857,62.88973,63.09386,63.386658,63.714333,64.013885,64.314354,64.63721,64.9804,65.34444,65.73639,66.15279,66.56561,66.97358,67.38106,67.766495,68.057556,68.219894,68.30446,68.37785,68.43179,68.48127,68.52202,68.55009,68.56509,68.566925,68.55556,68.54057,68.513626,68.47977,68.44229,68.39735,68.33598,68.25205,68.14635,68.00465,67.8139,67.60449,67.41528,67.26752,67.169754,67.13002,67.09589,67.01597,66.84405,66.51248,66.025055,65.45999,64.88401,64.34579,63.87894,63.494186,63.22503,63.039967,62.91462,62.868866,62.70986,62.517433,62.334957,62.124386,61.871773,61.629063,61.416077,61.12012,60.728355,60.48097,60.33037,59.996826,58.416183,53.511883,43.48314,29.604046,22.597221,20.170843,19.45993,19.314335,19.27563,19.294918,19.404922,19.5295,19.645119,19.728409,19.784634,19.837364,19.894451,19.951101,20.000051,20.022404,20.029064,20.014309,19.970688,19.913256,19.844608,19.76889,19.686398,19.599518,19.515972,19.437336,19.359257,19.29002,19.26369,19.346973,19.662624,19.711338,23.386158,36.182602,54.724113,54.8045,53.891876,53.703835,54.108093,54.320663,54.138603,54.101273,53.866272,53.571884,53.267082,53.031044,52.8424,52.62326,52.371506,52.16897,51.925858,51.686302,51.526554,51.35713,51.05148,50.619102,50.14312,49.62619,49.062614,48.699604,48.560028,48.548218,48.603836,48.657154,48.724815,48.817062,48.881428,48.926476,48.95352,48.950974,48.93972,48.914734,48.903736,48.85939,48.796925,48.73697,48.690258,48.672226,48.682896,48.709534,48.751263,48.783386,48.809128,48.8341,48.842888,48.833317,48.81355,48.78073,48.730095,48.66665,48.587807,48.49733,48.426735,48.36257,48.30487,48.263424,48.22515,48.182358,48.144913,48.116455,48.06791,47.996513,47.919907,47.8302,47.71041,47.572056,47.44738,47.330933,47.215553
39.73176,39.93136,40.160713,40.41819,40.73653,41.133904,41.601967,42.100483,42.52848,42.80742,42.989754,43.17429,43.482956,44.003334,44.757187,45.70475,46.71122,47.934303,48.877876,49.57241,50.1845,50.639503,50.965218,51.20867,51.404118,51.581223,51.74997,51.917442,52.08505,52.238045,52.39449,52.598625,52.90441,53.313354,53.78562,54.261223,54.688576,55.068077,55.437798,55.802395,56.17217,56.54467,56.904087,57.2334,57.518475,57.787987,58.05528,58.32003,58.576813,58.821953,59.055992,59.27906,59.515812,59.807777,60.15998,60.566517,61.011505,61.472046,61.92695,62.38864,62.902485,63.454597,64.02984,64.6101,65.17598,65.71416,66.23059,66.76689,67.22553,67.62935,67.98421,68.2626,68.46443,68.61336,68.74513,68.87346,69.00292,69.1304,69.25197,69.362885,69.452225,69.521965,69.58351,69.633194,69.67703,69.72184,69.76596,69.80319,69.83502,69.86156,69.87766,69.89267,69.91879,69.96356,70.031,70.12283,70.22575,70.33671,70.451546,70.56622,70.68117,70.80031,70.92134,71.028625,71.120895,71.175644,71.17751,71.1357,71.06819,70.97644,70.86337,70.7242,70.49051,70.13762,69.7009,69.229416,68.7457,68.21938,67.68181,67.09867,66.39547,65.581245,64.75017,63.99632,63.39261,62.95555,62.733276,62.74716,62.938217,63.22525,63.55417,63.865456,64.19067,64.54762,64.93738,65.346146,65.76753,66.199036,66.61317,67.00817,67.40338,67.765976,68.07339,68.26888,68.34416,68.408844,68.455795,68.49766,68.531715,68.554596,68.56815,68.57378,68.569336,68.56315,68.547,68.52512,68.500694,68.47188,68.42987,68.36571,68.27992,68.15886,67.98804,67.79542,67.61618,67.47043,67.367905,67.316216,67.269455,67.181046,67.00989,66.682014,66.19289,65.61424,65.00592,64.42498,63.901474,63.454346,63.12736,62.893845,62.72106,62.63642,62.553123,62.346252,62.14569,61.89067,61.5204,61.070736,60.59652,60.087585,59.469444,58.92939,58.50401,58.2779,55.99524,48.535225,36.927322,25.929207,21.167368,19.86177,19.512604,19.406446,19.377338,19.414532,19.521492,19.637552,19.726109,19.780457,19.821545,19.868408,19.919123,19.96678,20.003971,20.014107,20.01154,19.995352,19.958797,19.911903,19.853989,19.786282,19.704823,19.616882,19.538208,19.467484,19.394913,19.339289,19.30766,19.31785,19.508808,19.916138,20.597042,27.59805,49.386684,54.798424,54.448338,53.740143,54.04249,54.250282,54.001926,53.944424,53.744663,53.503983,53.26039,53.05646,52.86341,52.627373,52.36635,52.169945,51.939674,51.70749,51.530067,51.34288,50.99378,50.42148,49.742977,48.97998,48.349464,48.007492,47.87885,47.857674,47.92162,48.02704,48.177757,48.339005,48.42228,48.47039,48.503746,48.494694,48.467102,48.424957,48.403015,48.352913,48.29014,48.234276,48.193466,48.179016,48.183426,48.19916,48.23945,48.290543,48.348534,48.40483,48.437313,48.441982,48.43543,48.416977,48.38059,48.33204,48.269417,48.19641,48.145695,48.10271,48.068634,48.052162,48.03795,48.015682,47.995056,47.981728,47.94474,47.87768,47.801323,47.69798,47.583324,47.483253,47.383446,47.27276,47.164436
39.743088,39.929836,40.150604,40.40874,40.739178,41.159077,41.654533,42.17819,42.629128,42.922737,43.131107,43.33812,43.667763,44.221508,45.028236,46.05844,47.16635,48.35112,49.29807,50.01297,50.586987,50.990475,51.26657,51.46512,51.629333,51.78885,51.95134,52.123352,52.28853,52.409714,52.57785,52.789825,53.103645,53.521652,54.003273,54.4874,54.921383,55.30701,55.68737,56.066864,56.45568,56.849957,57.230278,57.575653,57.870743,58.146355,58.41812,58.6885,58.954903,59.214127,59.46453,59.70355,59.954872,60.25997,60.623352,61.03891,61.490208,61.95317,62.40556,62.859776,63.361923,63.897614,64.45828,65.03087,65.59217,66.121506,66.62692,67.12769,67.56591,67.95513,68.291565,68.55544,68.75383,68.90444,69.028404,69.14444,69.26059,69.37831,69.49722,69.61239,69.70862,69.77777,69.838264,69.88597,69.925766,69.96422,70.000916,70.03151,70.058365,70.08496,70.08814,70.08757,70.10803,70.15854,70.24257,70.362,70.47247,70.5853,70.70111,70.81723,70.93512,71.05687,71.17396,71.285095,71.38475,71.451614,71.46643,71.43242,71.36635,71.27339,71.16008,71.01634,70.76285,70.38852,69.93489,69.44621,68.95349,68.42578,67.888306,67.29802,66.56829,65.708115,64.82303,64.017815,63.37278,62.903893,62.66268,62.657085,62.830017,63.107334,63.43241,63.752586,64.10295,64.500656,64.94378,65.40291,65.85822,66.30548,66.71796,67.09839,67.466866,67.80264,68.09584,68.30105,68.39513,68.44841,68.48795,68.52236,68.549225,68.566605,68.57756,68.5845,68.58593,68.58766,68.58028,68.567116,68.551765,68.53413,68.50607,68.457664,68.38995,68.28903,68.140045,67.96683,67.79959,67.65679,67.54767,67.477005,67.41884,67.328354,67.15892,66.831345,66.33246,65.72293,65.0596,64.40867,63.78926,63.229935,62.80957,62.49906,62.243263,62.081997,61.941406,61.8351,61.68605,61.340927,60.89554,60.358646,59.580307,58.912296,58.1519,57.16947,56.71123,56.8365,53.842316,44.07718,31.223583,23.594948,20.605713,19.79244,19.549015,19.479351,19.469364,19.526371,19.62775,19.726036,19.785282,19.818321,19.852356,19.89582,19.94188,19.98182,20.008572,20.00782,19.996876,19.979021,19.948265,19.910423,19.86216,19.80138,19.7215,19.632196,19.553295,19.489866,19.435482,19.39941,19.348457,19.325214,19.437943,19.739689,20.019312,24.309525,39.79147,53.398495,54.832966,53.62254,53.75699,54.05945,53.796257,53.753403,53.620758,53.422573,53.236565,53.06073,52.86182,52.61683,52.34784,52.16108,51.93904,51.725395,51.572155,51.35852,50.831657,49.87694,48.70728,47.89584,47.278957,46.9862,46.85562,46.775143,46.810616,46.90789,47.056667,47.260292,47.4468,47.56986,47.6191,47.60897,47.566742,47.50862,47.477486,47.425735,47.365093,47.31308,47.27719,47.25997,47.229485,47.20539,47.21285,47.24724,47.3017,47.36503,47.42063,47.46618,47.49607,47.51368,47.512333,47.498184,47.46962,47.43171,47.420662,47.42395,47.441116,47.477367,47.510464,47.52578,47.535736,47.55126,47.539284,47.491486,47.43248,47.339558,47.216343,47.09498,46.987526,46.88997,46.794197
39.757183,39.93242,40.14621,40.406834,40.751705,41.19699,41.72326,42.275673,42.75055,43.05822,43.290337,43.51777,43.867752,44.45764,45.32383,46.441475,47.683052,48.808,49.71354,50.41222,50.9322,51.287113,51.517647,51.678986,51.820435,51.967583,52.133934,52.31153,52.460026,52.552227,52.73223,52.95748,53.279343,53.704437,54.19487,54.687717,55.130013,55.523968,55.91722,56.313858,56.722588,57.137077,57.534172,57.88984,58.189217,58.46577,58.737755,59.011574,59.2883,59.5651,59.837463,60.099525,60.372902,60.698402,61.079376,61.509163,61.97059,62.43847,62.889736,63.336586,63.824093,64.33983,64.88182,65.43898,65.98883,66.51165,67.00169,67.472626,67.888214,68.25755,68.57321,68.81798,68.99986,69.137344,69.25168,69.359886,69.472,69.5887,69.70656,69.81979,69.91671,69.99846,70.0724,70.1301,70.172874,70.20543,70.22883,70.24298,70.251816,70.25796,70.25812,70.26451,70.292404,70.35025,70.44026,70.56238,70.70856,70.83202,70.94673,71.06482,71.18347,71.30345,71.42168,71.53531,71.63887,71.71076,71.73167,71.70376,71.6418,71.549484,71.43387,71.28572,71.01137,70.614944,70.14641,69.6436,69.14447,68.620224,68.08822,67.49757,66.749435,65.85195,64.92076,64.07029,63.38845,62.890385,62.630997,62.603737,62.753872,63.015755,63.331497,63.657463,64.03366,64.477516,64.98497,65.50282,65.99476,66.45903,66.86618,67.22409,67.563354,67.86734,68.134674,68.33709,68.44673,68.49689,68.5271,68.55235,68.57097,68.58206,68.59082,68.5995,68.60373,68.61194,68.61224,68.60626,68.59816,68.58952,68.57278,68.53766,68.4859,68.40288,68.273445,68.118256,67.95808,67.808044,67.6864,67.60841,67.545685,67.45442,67.28753,66.959366,66.445206,65.79253,65.05239,64.314445,63.541317,62.76402,62.15528,61.75798,61.49595,61.32814,61.074677,60.84154,60.586494,60.237076,59.779133,59.2044,58.4779,57.641285,56.43563,55.394615,55.120125,55.367012,51.82646,40.786774,27.56292,22.133667,20.261868,19.770586,19.599476,19.54393,19.550182,19.621384,19.708786,19.78277,19.82622,19.853405,19.885712,19.927832,19.969902,20.001936,20.018147,20.00642,19.986748,19.966076,19.939283,19.908844,19.869152,19.814425,19.735695,19.642548,19.558893,19.496822,19.44993,19.415085,19.385136,19.354023,19.41068,19.616045,19.882828,22.495453,32.34324,50.288074,54.403,53.73818,53.525974,53.692574,53.58025,53.537483,53.46161,53.30664,53.17411,53.03733,52.845924,52.58956,52.31562,52.16131,51.974648,51.735462,51.678238,51.30543,50.14054,48.514397,46.970085,45.57354,44.568813,44.179123,44.228752,44.499237,44.906975,45.299576,45.607224,45.805336,45.92257,45.997223,46.042816,46.05272,46.022152,45.948868,45.873856,45.759415,45.635326,45.527534,45.43683,45.363323,45.299953,45.247772,45.23338,45.26145,45.329033,45.418045,45.50461,45.590065,45.667423,45.74389,45.809826,45.868332,45.91487,45.94969,46.00288,46.063324,46.13266,46.208145,46.270714,46.320084,46.377117,46.44432,46.479378,46.472332,46.434593,46.347862,46.238647,46.151394,46.086746,46.034103,45.98757
39.771984,39.936676,40.144875,40.410294,40.773163,41.24853,41.81191,42.400627,42.9032,43.226482,43.478725,43.72252,44.091633,44.713852,45.634293,46.85692,48.230057,49.279102,50.115116,50.781433,51.246147,51.547318,51.729675,51.860054,51.9858,52.123756,52.301216,52.46987,52.575348,52.67575,52.86535,53.10987,53.439896,53.869736,54.368225,54.869957,55.322685,55.72795,56.136772,56.55282,56.981876,57.414436,57.82424,58.185524,58.48562,58.761253,59.032974,59.3118,59.602448,59.90194,60.202377,60.493896,60.79567,61.147736,61.551865,62.000473,62.475662,62.951263,63.403297,63.843857,64.31207,64.8064,65.32735,65.86434,66.39639,66.9034,67.37913,67.82575,68.21698,68.561966,68.854294,69.079544,69.24631,69.37326,69.481224,69.586655,69.69978,69.81984,69.94006,70.05278,70.14848,70.230415,70.30088,70.34919,70.37833,70.40068,70.42073,70.431335,70.438065,70.442986,70.44771,70.463,70.50026,70.56535,70.659485,70.7832,70.93592,71.088745,71.21636,71.332184,71.45116,71.565796,71.68512,71.79915,71.90372,71.97766,72.00197,71.97807,71.91931,71.8289,71.71212,71.55945,71.26702,70.85102,70.36905,69.85547,69.352844,68.83383,68.309494,67.7229,66.96137,66.03085,65.05672,64.16226,63.443794,62.914673,62.623276,62.57174,62.700516,62.937584,63.23549,63.56165,63.96174,64.45621,65.03887,65.62961,66.17024,66.65715,67.05812,67.38849,67.69269,67.95767,68.19687,68.38753,68.49526,68.55073,68.579605,68.59518,68.60307,68.60591,68.610596,68.6196,68.62608,68.63724,68.6434,68.64282,68.639786,68.63732,68.62861,68.60356,68.56424,68.49504,68.38101,68.23613,68.076096,67.91895,67.7888,67.70093,67.63306,67.54418,67.38387,67.056046,66.52106,65.81175,64.968124,64.05532,62.9853,61.922886,61.04594,60.403404,59.968834,59.710167,59.435257,59.14068,58.8098,58.372513,57.802216,57.140457,56.420914,55.60296,54.745193,53.943897,53.72184,53.838768,49.530956,37.402966,25.071842,21.281332,20.11155,19.777573,19.651695,19.623486,19.638565,19.715427,19.77811,19.835762,19.871655,19.897892,19.932636,19.976646,20.017342,20.044006,20.05241,20.032269,20.005348,19.98243,19.959686,19.935715,19.902094,19.850433,19.769707,19.67046,19.579243,19.513914,19.472546,19.447964,19.436937,19.40921,19.419415,19.552702,19.83672,21.317944,27.020115,45.349243,52.552402,53.583553,53.33374,53.29506,53.31578,53.28608,53.27134,53.22025,53.101196,52.971977,52.79567,52.531258,52.28074,52.167625,51.96685,51.752213,51.591103,50.383614,47.74523,44.697136,41.60186,40.01863,39.347282,39.41796,39.915085,40.5128,41.05243,41.519203,41.76747,41.973804,42.14021,42.27663,42.378876,42.425735,42.408028,42.332886,42.253227,42.149242,42.04916,41.976097,41.924606,41.883247,41.85192,41.83635,41.866356,41.949623,42.08999,42.271107,42.45852,42.637672,42.805,42.971672,43.1334,43.293312,43.44375,43.584415,43.744595,43.904892,44.008335,44.100945,44.184647,44.25786,44.33916,44.42823,44.490807,44.527946,44.540375,44.511154,44.465355,44.44032,44.432476,44.43055,44.43231
39.783615,39.939995,40.145306,40.418755,40.803566,41.313633,41.920555,42.554214,43.089157,43.4307,43.69702,43.950478,44.333855,44.983032,45.953033,47.27588,48.675014,49.697144,50.487904,51.10189,51.508278,51.75495,51.89409,52.001915,52.118683,52.25952,52.446053,52.59186,52.65365,52.77516,52.972275,53.243355,53.58111,54.011932,54.51661,55.026516,55.491093,55.91028,56.33725,56.774178,57.222466,57.669357,58.086967,58.44967,58.748325,59.02369,59.29767,59.585735,59.895287,60.222153,60.55471,60.879215,61.212578,61.594078,62.02371,62.493034,62.983543,63.4684,63.92278,64.35647,64.8058,65.27934,65.777985,66.29176,66.801796,67.28705,67.74185,68.16857,68.53775,68.8584,69.12819,69.336494,69.49194,69.61221,69.71788,69.82147,69.93468,70.05878,70.18568,70.303696,70.4007,70.47922,70.52945,70.55903,70.57739,70.593506,70.60939,70.617615,70.62354,70.63005,70.63922,70.66238,70.70981,70.78584,70.89137,71.02708,71.17656,71.34451,71.49137,71.61078,71.7225,71.834076,71.95099,72.06131,72.16224,72.233795,72.25801,72.23607,72.180244,72.093605,71.97919,71.82373,71.520676,71.089806,70.59531,70.07621,69.575775,69.06152,68.54518,67.963295,67.194374,66.23886,65.22588,64.290016,63.535343,62.981964,62.659035,62.57366,62.667458,62.868317,63.13935,63.45698,63.874466,64.41769,65.08205,65.757744,66.35799,66.87297,67.26742,67.56625,67.83038,68.05252,68.25929,68.43791,68.54945,68.61063,68.63818,68.64476,68.64059,68.63305,68.63159,68.63861,68.64559,68.658516,68.66687,68.66922,68.66971,68.67148,68.668045,68.64952,68.61836,68.55815,68.45407,68.31312,68.14862,67.98239,67.84237,67.74445,67.67331,67.59193,67.44431,67.12135,66.56553,65.795296,64.83596,63.65463,62.295944,60.896973,59.713173,58.84281,58.238037,57.85868,57.534622,57.192707,56.78858,56.2489,55.589565,54.904526,54.245434,53.55973,53.1985,52.62818,52.42196,52.64568,47.805656,34.519344,23.495037,20.752785,19.959026,19.749857,19.70042,19.696466,19.71893,19.790886,19.83807,19.887487,19.923489,19.955498,19.997372,20.046223,20.087986,20.112019,20.116068,20.091042,20.06134,20.03895,20.019081,19.998629,19.967705,19.915964,19.830463,19.723446,19.621923,19.547209,19.504372,19.488121,19.481468,19.469118,19.457882,19.52755,19.76757,20.649872,24.136868,40.319687,50.2054,53.216064,53.096268,52.886917,53.02482,53.022293,53.071877,53.146255,53.06592,52.925426,52.749397,52.501663,52.27065,52.159508,51.91568,51.67781,50.787735,48.277462,44.209457,39.985172,37.025436,35.748466,35.239594,35.31222,35.695396,36.13269,36.533062,36.891422,37.129807,37.381203,37.614304,37.792877,37.902847,37.947212,37.934185,37.88004,37.79998,37.72618,37.691437,37.699165,37.727276,37.75453,37.77417,37.794106,37.841675,37.949944,38.132698,38.363304,38.597313,38.81686,39.012108,39.198933,39.38331,39.574932,39.77575,39.986435,40.21352,40.43692,40.60943,40.74549,40.841057,40.917282,41.018093,41.154137,41.30368,41.467,41.624542,41.756935,41.860367,41.93524,41.982483,42.03067,42.08764
39.78945,39.940533,40.14611,40.430656,40.840572,41.388626,42.044407,42.731712,43.30385,43.66622,43.937927,44.192284,44.582294,45.257584,46.28144,47.664146,49.02482,50.043423,50.80517,51.35932,51.705887,51.901207,52.00895,52.102146,52.21248,52.382908,52.55011,52.64615,52.71378,52.85537,53.061386,53.363197,53.70765,54.136574,54.64556,55.16246,55.639732,56.074986,56.52145,56.978477,57.44205,57.896843,58.31595,58.676594,58.97396,59.25289,59.535904,59.841022,60.176285,60.535015,60.90168,61.259567,61.624023,62.033913,62.48788,62.976643,63.481186,63.974354,64.43034,64.85338,65.287384,65.74144,66.21619,66.70384,67.188034,67.64752,68.07483,68.48485,68.83307,69.13129,69.38242,69.577446,69.725,69.841095,69.943726,70.04419,70.15907,70.28916,70.42136,70.53874,70.62587,70.69716,70.74206,70.77356,70.79613,70.81091,70.8199,70.821655,70.822556,70.82822,70.84117,70.87158,70.92819,71.014175,71.12934,71.27329,71.43034,71.599205,71.76107,71.88876,71.9895,72.09807,72.20928,72.31172,72.40438,72.4695,72.49101,72.47046,72.41937,72.34027,72.233505,72.08539,71.78256,71.34274,70.83751,70.315735,69.8217,69.30802,68.79645,68.21612,67.44296,66.46918,65.42105,64.44638,63.656605,63.08282,62.731964,62.608704,62.65892,62.815155,63.048965,63.349297,63.774185,64.35744,65.09871,65.8636,66.53247,67.0796,67.46893,67.73569,67.957596,68.13756,68.31196,68.48362,68.610794,68.67682,68.69847,68.698875,68.68279,68.66263,68.65274,68.655014,68.65989,68.6729,68.681274,68.68376,68.68524,68.68865,68.68697,68.67061,68.64226,68.584,68.48131,68.338684,68.16661,67.98837,67.83716,67.732254,67.66223,67.59434,67.466385,67.15482,66.58357,65.75557,64.6801,63.234898,61.593037,59.91308,58.522385,57.532333,56.84205,56.382744,55.992264,55.599796,55.152073,54.568283,53.887966,53.240936,52.68758,52.154514,51.98713,51.613,51.42221,51.83735,46.97595,33.10228,22.737717,20.427364,19.794086,19.723572,19.76513,19.767952,19.803638,19.866718,19.912163,19.95963,20.001839,20.0451,20.09679,20.151669,20.195671,20.218624,20.220404,20.19455,20.165592,20.144562,20.125969,20.10617,20.074621,20.019562,19.927023,19.808731,19.690418,19.602446,19.559309,19.54282,19.540524,19.542622,19.530893,19.544483,19.706528,20.33672,22.884003,36.63194,48.133476,52.67543,52.79956,52.509663,52.73523,52.77408,52.903385,53.06937,53.04519,52.90695,52.72563,52.491173,52.252987,52.109833,51.824104,51.44137,49.634216,45.753624,40.77983,36.619274,34.71328,33.732174,33.221428,33.06379,33.116035,33.268547,33.475174,33.679478,33.89724,34.123756,34.340008,34.5048,34.60029,34.639313,34.635216,34.601654,34.54149,34.503735,34.516453,34.569893,34.63508,34.691544,34.73541,34.76506,34.798645,34.88183,35.036728,35.23374,35.42575,35.59955,35.744972,35.877502,36.004433,36.13942,36.292908,36.467598,36.659214,36.852524,37.04314,37.192463,37.28195,37.34404,37.43197,37.566994,37.745277,37.967102,38.201508,38.42455,38.61176,38.749092,38.84882,38.940468,39.043346
39.78875,39.937805,40.146233,40.443512,40.87956,41.466354,42.173985,42.9222,43.535885,43.923923,44.19021,44.4355,44.825214,45.520805,46.598686,48.032722,49.336906,50.323956,51.050934,51.554176,51.84751,51.999245,52.08509,52.166664,52.284645,52.458355,52.575336,52.640545,52.759262,52.926144,53.147514,53.4758,53.829544,54.25718,54.76683,55.28972,55.779778,56.231747,56.696404,57.169506,57.64122,58.09523,58.509018,58.86571,59.164955,59.45488,59.757935,60.091454,60.461216,60.85639,61.257492,61.646317,62.037865,62.47135,62.9449,63.448456,63.962616,64.459465,64.911606,65.321915,65.74196,66.176155,66.6248,67.082985,67.537,67.96656,68.36421,68.75467,69.08773,69.37015,69.60736,69.79402,69.93721,70.05145,70.15161,70.252045,70.36322,70.485725,70.6095,70.718704,70.7999,70.873764,70.94208,70.9998,71.03674,71.05328,71.057755,71.052925,71.04848,71.05371,71.071075,71.10899,71.17317,71.26376,71.37903,71.51796,71.68277,71.85167,72.01625,72.149536,72.248825,72.349045,72.450836,72.542465,72.62608,72.68381,72.70206,72.68428,72.64131,72.574844,72.48143,72.349686,72.06212,71.62334,71.10849,70.58279,70.091385,69.57254,69.05943,68.475296,67.69708,66.70804,65.62802,64.61725,63.794445,63.19802,62.818863,62.661545,62.67273,62.784264,62.975204,63.25158,63.673317,64.28356,65.087425,65.93744,66.68088,67.26384,67.65253,67.891335,68.072464,68.21377,68.36136,68.52835,68.6691,68.74038,68.76094,68.75779,68.72886,68.694916,68.67612,68.67194,68.671875,68.68198,68.68911,68.68937,68.6886,68.68954,68.68425,68.663826,68.631546,68.56743,68.457855,68.308754,68.12785,67.93829,67.778336,67.670364,67.60536,67.55444,67.449295,67.152145,66.57175,65.68852,64.48723,62.868416,60.950665,59.114296,57.66269,56.629387,55.907066,55.421246,55.010212,54.595848,54.15445,53.586407,52.924324,52.318962,51.850433,51.45137,51.274925,51.088814,50.82824,51.27205,46.965057,33.606525,22.855413,20.397049,19.75615,19.773602,19.868595,19.872734,19.923187,19.97882,20.028519,20.078709,20.129131,20.183594,20.243734,20.30276,20.347954,20.369568,20.3703,20.346348,20.31942,20.299618,20.282158,20.262146,20.228241,20.168116,20.06782,19.931496,19.788054,19.683899,19.642212,19.63138,19.638924,19.646843,19.647171,19.626991,19.72727,20.265335,22.44314,34.72585,46.720097,52.067688,52.473602,52.196133,52.48615,52.56859,52.77814,52.98815,52.99617,52.880356,52.70697,52.464287,52.20147,52.018883,51.689354,51.04091,48.638443,43.869354,38.545128,35.11943,33.52628,32.642563,32.270325,32.156475,32.19696,32.321922,32.433113,32.52548,32.61732,32.731594,32.87416,33.015915,33.124546,33.185883,33.198334,33.17012,33.14749,33.144485,33.168648,33.214508,33.266575,33.312428,33.356316,33.388973,33.42083,33.476357,33.580734,33.719868,33.850296,33.95749,34.04177,34.10768,34.16744,34.231567,34.302773,34.386375,34.49365,34.612434,34.745712,34.85787,34.931377,34.981865,35.036957,35.111176,35.216164,35.365288,35.532646,35.693718,35.834602,35.961292,36.0859,36.192757,36.30275
39.783623,39.93347,40.14608,40.455803,40.916496,41.53996,42.29914,43.111702,43.769226,44.189507,44.4414,44.668285,45.0527,45.751816,46.866417,48.399445,49.599224,50.53748,51.238052,51.703472,51.956543,52.0764,52.142227,52.211025,52.349983,52.440216,52.515144,52.634247,52.794975,52.997414,53.24241,53.585117,53.95327,54.382545,54.887386,55.415215,55.917046,56.384567,56.864193,57.347923,57.82034,58.265854,58.669548,59.022785,59.32896,59.638687,59.973392,60.346703,60.759132,61.194023,61.62804,62.043167,62.45542,62.905327,63.391426,63.90315,64.4207,64.91438,65.35483,65.75482,66.15857,66.570854,66.99186,67.41835,67.83932,68.23643,68.603714,68.96553,69.29573,69.57558,69.80487,69.98894,70.1315,70.24452,70.34541,70.44757,70.53782,70.62687,70.72894,70.84003,70.952385,71.058975,71.15703,71.23888,71.29175,71.314575,71.31795,71.30939,71.30061,71.30343,71.32335,71.36824,71.43916,71.53212,71.645096,71.77768,71.92972,72.09262,72.246735,72.38106,72.49144,72.58049,72.66817,72.747696,72.824745,72.87712,72.893196,72.88013,72.848114,72.79787,72.72178,72.603806,72.34713,71.92245,71.396805,70.86363,70.36415,69.83693,69.31621,68.722626,67.93699,66.93419,65.826096,64.783035,63.93046,63.311054,62.905174,62.717743,62.69629,62.770905,62.923607,63.1726,63.582977,64.20685,65.05691,65.98212,66.7994,67.42074,67.814964,68.032425,68.178055,68.2858,68.4119,68.57229,68.71604,68.79007,68.82386,68.81663,68.77357,68.72737,68.7016,68.69154,68.68492,68.69002,68.69321,68.689735,68.68454,68.679,68.66466,68.63376,68.591446,68.51696,68.398026,68.240585,68.05287,67.85721,67.691826,67.58396,67.52556,67.4905,67.40491,67.11908,66.53286,65.594666,64.2482,62.525173,60.457787,58.54706,57.07804,56.037132,55.310867,54.819942,54.409843,54.00814,53.582573,53.051254,52.436928,51.880325,51.484566,51.194565,51.044487,50.899963,50.447052,50.89511,47.626083,35.624184,23.771084,20.719473,19.912165,19.918287,20.017982,20.034847,20.091118,20.141201,20.196419,20.251417,20.306293,20.36616,20.430109,20.488976,20.532549,20.551575,20.55262,20.530804,20.506958,20.490639,20.476051,20.4569,20.421518,20.357454,20.250164,20.090683,19.919853,19.796583,19.746696,19.75806,19.765667,19.776505,19.801525,19.774582,19.84354,20.393963,22.568275,34.336452,46.134182,51.588142,52.143784,51.954605,52.315964,52.426636,52.67775,52.908424,52.92636,52.831333,52.676514,52.429226,52.143555,51.915794,51.515816,50.55099,47.743454,42.85313,37.67122,34.359516,33.03541,32.366474,32.01037,31.905836,31.984179,32.108997,32.1778,32.209545,32.23061,32.276913,32.373943,32.495644,32.60309,32.673203,32.69462,32.671886,32.65268,32.647278,32.660084,32.690483,32.733513,32.780823,32.826385,32.862793,32.899513,32.947357,33.029957,33.140663,33.239826,33.314976,33.36611,33.384186,33.409492,33.45035,33.49547,33.548912,33.62172,33.706665,33.818344,33.91854,33.987114,34.041885,34.10527,34.17437,34.254955,34.366325,34.48407,34.59147,34.69526,34.800587,34.89414,34.9746,35.053818
39.78018,39.931854,40.1486,40.46953,40.952644,41.609905,42.418365,43.294846,43.995125,44.44716,44.684113,44.88459,45.25466,45.951294,47.084236,48.670536,49.806892,50.710487,51.388145,51.823715,52.046013,52.141335,52.189373,52.250336,52.330803,52.380547,52.468857,52.634598,52.843063,53.085545,53.35726,53.702957,54.078217,54.508553,55.00808,55.53842,56.05115,56.534103,57.027916,57.520344,57.990524,58.424263,58.81601,59.16712,59.483833,59.81895,60.192703,60.612648,61.072,61.54736,62.011726,62.44838,62.87601,63.33658,63.82999,64.34537,64.861984,65.34895,65.776245,66.16278,66.548294,66.93773,67.33074,67.725174,68.11248,68.47676,68.81445,69.148636,69.46809,69.75655,69.99367,70.17652,70.31913,70.419876,70.4982,70.57005,70.64654,70.736465,70.84575,70.973755,71.109795,71.24524,71.372955,71.47923,71.54884,71.58014,71.58537,71.57687,71.56751,71.57106,71.594086,71.64267,71.71709,71.81178,71.92083,72.04353,72.18031,72.32616,72.47078,72.60188,72.71063,72.79801,72.8743,72.942986,73.00865,73.05682,73.07391,73.065125,73.0444,73.01068,72.9523,72.848625,72.627594,72.22275,71.68666,71.13994,70.62607,70.09125,69.56001,68.95298,68.15755,67.14198,66.00955,64.938324,64.06044,63.41965,62.990303,62.778297,62.730618,62.77496,62.895355,63.11778,63.511047,64.13722,65.01677,66.00201,66.88482,67.54243,67.946106,68.146225,68.26627,68.348595,68.45784,68.61441,68.76091,68.83292,68.87863,68.86384,68.815285,68.761444,68.72643,68.71301,68.703064,68.701096,68.69879,68.68976,68.67795,68.6635,68.63752,68.593796,68.53985,68.45438,68.32684,68.161514,67.9695,67.77251,67.60518,67.50001,67.44905,67.42792,67.35842,67.08122,66.490585,65.50503,64.02449,62.19554,60.081734,58.15896,56.69335,55.661263,54.940845,54.449875,54.04505,53.665543,53.273537,52.79406,52.238503,51.736282,51.40333,51.19909,51.23457,51.030495,50.3985,50.557,48.311874,38.63848,25.293175,21.292177,20.203026,20.157694,20.227997,20.242577,20.300732,20.35655,20.415033,20.474232,20.525951,20.582794,20.645721,20.70074,20.740582,20.757004,20.75811,20.739204,20.719849,20.708582,20.698357,20.68142,20.646835,20.580845,20.4624,20.286053,20.097874,19.96131,19.904606,19.913074,19.92162,19.925026,19.97822,19.968533,20.028807,20.61369,22.890867,34.762016,46.013535,51.20582,51.889626,51.840477,52.220238,52.35468,52.616547,52.848988,52.862114,52.78685,52.655052,52.40069,52.089035,51.81314,51.305824,50.126007,46.98546,41.952057,37.000763,34.041344,32.886543,32.225937,31.869684,31.87804,32.063545,32.19492,32.22942,32.21238,32.18329,32.18724,32.25985,32.374184,32.486755,32.56867,32.600166,32.58403,32.561768,32.541496,32.539864,32.56803,32.617527,32.66751,32.710175,32.74205,32.767616,32.802895,32.86066,32.931747,32.992336,33.03096,33.046654,33.0457,33.057938,33.09172,33.13195,33.17034,33.21767,33.269104,33.338127,33.40927,33.470036,33.523857,33.581207,33.644814,33.71514,33.800346,33.893166,33.98172,34.06776,34.152294,34.224056,34.286423,34.34962
39.78545,39.938385,40.157837,40.488094,40.99211,41.68158,42.53885,43.482597,44.231262,44.70092,44.91163,45.08069,45.4308,46.11794,47.247894,48.80632,49.96794,50.862175,51.517174,51.929344,52.12716,52.20153,52.233627,52.3117,52.299038,52.32061,52.4484,52.665825,52.93113,53.220833,53.527416,53.85222,54.218582,54.650482,55.14614,55.674683,56.19787,56.69715,57.20559,57.706238,58.17221,58.591347,58.96969,59.32038,59.652073,60.01967,60.4417,60.917294,61.43,61.94838,62.441833,62.89633,63.33481,63.801605,64.2986,64.81496,65.32647,65.80197,66.2171,66.58739,66.95183,67.31555,67.67816,68.03836,68.38982,68.719376,69.0261,69.33391,69.634094,69.91239,70.14928,70.332565,70.46577,70.55859,70.627304,70.68753,70.75911,70.85229,70.97063,71.113556,71.26979,71.43176,71.58848,71.72189,71.81227,71.85613,71.868256,71.8654,71.86136,71.87053,71.90011,71.95372,72.02923,72.12048,72.22162,72.33121,72.45145,72.579056,72.70952,72.83058,72.93622,73.02844,73.094986,73.15361,73.20825,73.25212,73.270905,73.26766,73.258736,73.24228,73.20204,73.1127,72.933624,72.55321,72.004486,71.4426,70.91675,70.35936,69.8114,69.1853,68.37513,67.34523,66.18938,65.09104,64.188896,63.526596,63.076515,62.844627,62.77388,62.791237,62.885437,63.08027,63.450993,64.068985,64.964035,65.99787,66.94105,67.63379,68.04784,68.24255,68.34563,68.40822,68.50427,68.65552,68.8013,68.87807,68.936676,68.91728,68.86015,68.79962,68.75623,68.73346,68.72009,68.714264,68.70334,68.68547,68.66373,68.636444,68.595184,68.535995,68.46916,68.37306,68.23869,68.06908,67.87601,67.68045,67.51525,67.41588,67.37425,67.36633,67.31073,67.029724,66.418755,65.384384,63.783794,61.88085,59.755333,57.843956,56.39412,55.376286,54.66137,54.165916,53.762436,53.406364,53.053673,52.64477,52.170387,51.734856,51.468983,51.3506,51.36786,51.122894,50.495922,50.397556,49.093178,42.114227,28.454607,22.554852,20.756886,20.56995,20.56451,20.548231,20.603477,20.654575,20.710245,20.766048,20.81208,20.857283,20.907974,20.956837,20.993263,21.008635,21.007936,20.99123,20.976131,20.968374,20.967499,20.97031,20.942562,20.866322,20.75293,20.575922,20.379292,20.236933,20.173653,20.171333,20.17168,20.168007,20.225353,20.23457,20.312077,21.010717,23.68784,35.88064,46.37314,50.942036,51.639183,51.79487,52.184494,52.332924,52.577766,52.79548,52.82271,52.76292,52.636513,52.37705,52.031723,51.696144,51.094536,49.658638,46.382088,41.33209,36.53051,33.950367,32.820427,32.16748,31.934744,32.06244,32.28172,32.388912,32.39592,32.357864,32.287548,32.26118,32.32353,32.448486,32.57956,32.67591,32.719543,32.70804,32.682213,32.653236,32.646427,32.67741,32.73417,32.78843,32.825214,32.84752,32.86056,32.88154,32.92064,32.96898,33.007763,33.026604,33.02344,33.00988,33.00103,33.00567,33.018784,33.037704,33.07463,33.11954,33.178116,33.239983,33.294125,33.342964,33.396866,33.458176,33.52208,33.59279,33.663033,33.72763,33.79492,33.864304,33.91828,33.961903,34.005955
39.805847,39.959076,40.17943,40.51664,41.038437,41.760452,42.668465,43.667618,44.42031,44.932022,45.11666,45.247154,45.57215,46.237717,47.352154,48.876095,50.091515,50.985023,51.6231,52.022003,52.204025,52.264015,52.282425,52.32089,52.266315,52.293427,52.46538,52.74237,53.07189,53.411438,53.736855,54.03881,54.388817,54.81303,55.298225,55.819916,56.352127,56.86797,57.39223,57.902718,58.365555,58.770462,59.13585,59.487602,59.836784,60.240814,60.716564,61.252953,61.821983,62.382896,62.90146,63.36782,63.81066,64.27722,64.772675,65.28667,65.79086,66.25343,66.656364,67.00992,67.35316,67.6915,68.024796,68.35242,68.66994,68.96721,69.2457,69.53097,69.813385,70.08065,70.314224,70.495804,70.62198,70.708694,70.771286,70.82564,70.89277,70.98626,71.11078,71.26451,71.4367,71.62131,71.80299,71.96069,72.07297,72.13382,72.158005,72.16716,72.17546,72.19627,72.235855,72.29497,72.36961,72.45427,72.54452,72.63924,72.74225,72.85182,72.9657,73.07732,73.18082,73.27167,73.33804,73.389244,73.43494,73.472,73.49281,73.49835,73.49848,73.49701,73.47254,73.39721,73.2424,72.88728,72.34332,71.763245,71.217514,70.63562,70.066216,69.41699,68.58786,67.54118,66.36333,65.24013,64.31572,63.6333,63.16709,62.921547,62.837166,62.83779,62.909668,63.07862,63.42259,64.020966,64.91391,65.974846,66.962944,67.68985,68.11853,68.31848,68.41452,68.46458,68.55037,68.69403,68.83775,68.92692,68.98279,68.952774,68.88495,68.82817,68.79109,68.76116,68.73919,68.72954,68.71509,68.68753,68.65289,68.61157,68.555016,68.48151,68.40427,68.30142,68.16516,67.99834,67.809235,67.618195,67.46049,67.37024,67.33908,67.34572,67.28444,66.985214,66.35608,65.27531,63.566746,61.624733,59.508026,57.620125,56.19113,55.184227,54.465775,53.956688,53.544872,53.205627,52.89153,52.553078,52.175034,51.830833,51.63478,51.605637,51.479088,51.243504,50.56363,50.329002,49.42813,43.814575,31.58474,24.636482,21.828613,21.150442,21.007404,20.94902,20.97321,21.007845,21.050648,21.09363,21.128326,21.159637,21.196026,21.235746,21.266857,21.2785,21.276089,21.25978,21.258911,21.29145,21.345104,21.387886,21.381588,21.326977,21.228062,21.05411,20.850601,20.703762,20.645695,20.639416,20.595068,20.544975,20.561007,20.525307,20.595848,21.556541,24.963299,37.2017,46.906708,50.785717,51.466408,51.841812,52.197723,52.35189,52.56668,52.76061,52.79985,52.745766,52.61183,52.339867,51.950256,51.543335,50.856426,49.226204,45.893684,40.92199,36.290257,33.97283,32.85987,32.252357,32.140602,32.336784,32.584755,32.70109,32.6708,32.609756,32.51889,32.48084,32.549652,32.691498,32.836826,32.93905,32.98289,32.97809,32.956375,32.9254,32.91078,32.92937,32.971367,33.01153,33.034412,33.046864,33.05279,33.065517,33.093735,33.130905,33.16238,33.181427,33.18438,33.17955,33.174232,33.175,33.18065,33.19175,33.22003,33.259605,33.308525,33.36123,33.407597,33.44928,33.49641,33.55015,33.603348,33.660774,33.71374,33.757484,33.802643,33.8524,33.891632,33.921364,33.949806
39.831593,39.9832,40.20205,40.543205,41.078926,41.830635,42.786377,43.829926,44.558205,45.125187,45.286736,45.367847,45.655373,46.28713,47.37874,48.896156,50.161697,51.05792,51.685104,52.07801,52.252205,52.303097,52.311317,52.28231,52.227028,52.28305,52.49585,52.83074,53.23091,53.626945,53.93213,54.220806,54.552296,54.956627,55.421295,55.927193,56.463753,56.99655,57.54007,58.06616,58.532043,58.927372,59.28196,59.634575,59.99942,60.4373,60.964127,61.558205,62.179752,62.778328,63.315727,63.78709,64.2278,64.687935,65.177,65.68475,66.181046,66.633896,67.02616,67.36583,67.69101,68.00749,68.31562,68.615616,68.90494,69.176216,69.43274,69.7018,69.97206,70.23297,70.46352,70.641266,70.76191,70.84161,70.89717,70.94575,71.00814,71.099464,71.22444,71.38048,71.55954,71.75624,71.95511,72.13243,72.261734,72.33928,72.38523,72.41815,72.44623,72.48456,72.53719,72.60224,72.67493,72.75148,72.82996,72.90998,72.996605,73.08981,73.18855,73.29217,73.3947,73.48487,73.55499,73.601776,73.64113,73.67169,73.692474,73.704926,73.71297,73.72209,73.708984,73.64572,73.49861,73.166145,72.64157,72.044914,71.47047,70.87381,70.2833,69.60919,68.75812,67.692154,66.493286,65.34822,64.40515,63.70617,63.228535,62.97553,62.888832,62.885323,62.939598,63.086544,63.401604,63.970436,64.84253,65.90056,66.90671,67.6617,68.10683,68.318726,68.417694,68.46391,68.54352,68.68012,68.81972,68.914474,68.96398,68.94014,68.87236,68.82143,68.79701,68.768875,68.734375,68.71681,68.69839,68.66718,68.62507,68.57231,68.50376,68.420845,68.33853,68.23471,68.1031,67.943054,67.76113,67.57919,67.43342,67.35504,67.33707,67.34317,67.26712,66.94814,66.30165,65.18097,63.37764,61.429634,59.333237,57.47323,56.06292,55.067352,54.346172,53.801647,53.3701,53.03749,52.756187,52.480064,52.200233,51.95923,51.820324,51.81977,51.56047,51.304398,50.66364,50.373528,49.511505,44.612682,34.070415,27.058544,23.193207,21.867031,21.553133,21.376522,21.338705,21.347755,21.369076,21.393383,21.414265,21.433899,21.460085,21.493034,21.520296,21.529217,21.526718,21.515942,21.554977,21.640648,21.727547,21.796276,21.822598,21.804144,21.732998,21.596117,21.419998,21.279602,21.225235,21.20871,21.126202,20.999899,20.89436,20.787136,20.856342,22.126957,26.55172,38.412403,47.410103,50.702515,51.334686,51.898422,52.242607,52.391937,52.58175,52.754547,52.78099,52.71313,52.563496,52.265495,51.819164,51.334343,50.572548,48.823204,45.56212,40.736397,36.21029,34.04464,32.94525,32.405155,32.361107,32.600643,32.877052,32.992905,32.921288,32.833427,32.73272,32.69199,32.773163,32.92811,33.073647,33.168022,33.208168,33.206818,33.188812,33.15667,33.132965,33.134262,33.154884,33.177063,33.190468,33.19851,33.203045,33.215435,33.242825,33.27935,33.31353,33.341568,33.35855,33.371387,33.383606,33.39733,33.40913,33.41893,33.437904,33.46597,33.501846,33.543255,33.58132,33.6165,33.65725,33.703964,33.74857,33.796673,33.839813,33.871033,33.90042,33.935143,33.964325,33.986023,34.00629
39.854706,40.002968,40.21845,40.56127,41.108162,41.884277,42.880836,43.96575,44.672813,45.26921,45.41976,45.450546,45.684555,46.27501,47.339806,48.872753,50.166306,51.080944,51.708607,52.097645,52.269646,52.314068,52.314735,52.23404,52.183064,52.270634,52.52143,52.909676,53.378998,53.82274,54.09845,54.379303,54.688988,55.056244,55.49398,55.988663,56.514526,57.064644,57.6309,58.178898,58.65506,59.046295,59.39167,59.74234,60.117096,60.581123,61.150303,61.793545,62.460228,63.090256,63.640945,64.1121,64.54597,64.995056,65.47377,65.97261,66.46173,66.9091,67.29441,67.625046,67.937485,68.23743,68.52604,68.804886,69.0735,69.326996,69.56963,69.830246,70.094345,70.352066,70.58055,70.75359,70.866035,70.936874,70.98441,71.02723,71.08606,71.17491,71.295975,71.44603,71.62168,71.817505,72.02147,72.21036,72.35186,72.44522,72.51715,72.58018,72.635765,72.69635,72.76395,72.83476,72.90465,72.97304,73.04115,73.10893,73.182396,73.26279,73.350235,73.44617,73.547905,73.64346,73.71561,73.76006,73.79562,73.82298,73.842255,73.85777,73.87411,73.889755,73.88376,73.82907,73.685326,73.37044,72.866196,72.2601,71.65744,71.05564,70.44805,69.74962,68.87451,67.78685,66.567,65.402504,64.44425,63.732544,63.24784,62.99215,62.90975,62.910496,62.954758,63.085358,63.37294,63.90748,64.74512,65.77562,66.77465,67.546555,68.007706,68.23544,68.34573,68.39621,68.473694,68.6044,68.73765,68.82909,68.88013,68.88563,68.83186,68.781975,68.765,68.74492,68.70025,68.67158,68.644745,68.61221,68.5691,68.512955,68.440544,68.35413,68.27133,68.17107,68.04678,67.8929,67.71998,67.55246,67.4218,67.357895,67.35054,67.34396,67.25696,66.92294,66.24432,65.075066,63.216198,61.283386,59.211685,57.378555,55.98436,54.9877,54.25152,53.6832,53.22135,52.889793,52.635323,52.414047,52.21642,52.063423,51.969807,51.914177,51.58822,51.32537,50.829918,50.494743,49.675423,45.557472,35.911755,29.246044,24.542227,22.587887,22.078045,21.761621,21.637178,21.615772,21.612553,21.617989,21.62774,21.640066,21.661657,21.693968,21.722218,21.733328,21.732895,21.747517,21.828579,21.938358,22.028597,22.118896,22.189522,22.243748,22.220467,22.120205,21.98253,21.868496,21.812029,21.772196,21.665756,21.464272,21.195227,21.02201,21.116388,22.64173,28.019363,39.382812,47.7137,50.628304,51.221874,51.87626,52.27059,52.415733,52.603477,52.75965,52.758133,52.651375,52.46515,52.12934,51.619995,51.06094,50.275352,48.44001,45.290848,40.667168,36.24213,34.133827,33.02671,32.541443,32.525383,32.797276,33.076103,33.154037,33.05065,32.94319,32.832405,32.805588,32.891098,33.044636,33.184196,33.266167,33.30636,33.303787,33.28431,33.249474,33.221016,33.214676,33.226067,33.241585,33.255054,33.26403,33.269867,33.286026,33.319016,33.361473,33.402615,33.439613,33.467014,33.49388,33.519836,33.543114,33.55875,33.566635,33.578316,33.595066,33.61978,33.649952,33.678402,33.706734,33.74274,33.78586,33.826965,33.871346,33.910004,33.9355,33.959064,33.988823,34.013367,34.03161,34.05033
39.875298,40.020027,40.231995,40.576073,41.133377,41.93041,42.962868,44.089325,44.78118,45.369965,45.530903,45.52423,45.69577,46.24433,47.28075,48.823463,50.127277,51.083424,51.726524,52.112625,52.28517,52.32395,52.31642,52.19152,52.1463,52.25972,52.546326,52.988884,53.514973,53.98022,54.260754,54.53232,54.815624,55.12673,55.525707,56.021225,56.5371,57.10144,57.691,58.263535,58.75354,59.143326,59.47899,59.82321,60.200806,60.682106,61.284058,61.968,62.67359,63.331017,63.892246,64.36092,64.78557,65.22046,65.68553,66.174416,66.65771,67.10186,67.48396,67.81027,68.11556,68.40446,68.679184,68.943214,69.198364,69.44203,69.67886,69.93863,70.20325,70.46184,70.6896,70.85779,70.9613,71.0226,71.06195,71.09917,71.15483,71.24148,71.358025,71.49955,71.66603,71.8526,72.04892,72.237305,72.38978,72.501114,72.59229,72.67871,72.763916,72.846756,72.92842,73.003975,73.07063,73.13188,73.19234,73.25203,73.31707,73.38934,73.46925,73.559006,73.65889,73.758255,73.83345,73.87642,73.91005,73.93666,73.95599,73.97455,73.99794,74.01762,74.0159,73.96631,73.8259,73.52275,73.03376,72.42621,71.80379,71.200485,70.58038,69.86027,68.96015,67.84874,66.6078,65.42551,64.455086,63.73432,63.248726,62.992687,62.912033,62.91775,62.960747,63.08167,63.347015,63.849075,64.64812,65.642105,66.62226,67.40081,67.87815,68.12542,68.25276,68.312416,68.38948,68.512955,68.63876,68.72937,68.78454,68.81731,68.78276,68.73663,68.72179,68.70657,68.657684,68.621475,68.5876,68.54854,68.504,68.45218,68.3844,68.298965,68.218,68.12225,68.00227,67.85335,67.69161,67.541306,67.427605,67.379364,67.373566,67.36294,67.26668,66.915924,66.18844,64.95212,63.090515,61.17814,59.129395,57.31829,55.939735,54.918053,54.13612,53.57939,53.09469,52.76403,52.532486,52.360077,52.221596,52.129524,52.07981,51.94561,51.583336,51.412476,50.959347,50.572933,49.856194,46.1835,37.0845,30.845966,25.692833,23.159399,22.42802,22.073833,21.85172,21.798058,21.771353,21.761444,21.764881,21.77478,21.796192,21.831738,21.864252,21.880547,21.885065,21.938286,22.025238,22.129498,22.257812,22.403439,22.532867,22.703484,22.747906,22.644802,22.507885,22.423977,22.37061,22.306671,22.15642,21.880888,21.48951,21.251244,21.37481,23.082794,28.928904,39.984123,47.731205,50.57514,51.19216,51.770576,52.23228,52.389713,52.60278,52.739483,52.71894,52.554695,52.300076,51.92017,51.352356,50.734932,49.96906,48.087074,44.95253,40.565834,36.37998,34.224083,33.11761,32.657646,32.645267,32.914288,33.17052,33.213497,33.092747,32.97612,32.86331,32.872772,32.95549,33.09144,33.225716,33.302322,33.34125,33.337914,33.31763,33.2819,33.25296,33.246304,33.256866,33.2715,33.285873,33.29664,33.30417,33.32337,33.360275,33.40666,33.45306,33.498184,33.536022,33.57477,33.61193,33.643898,33.664505,33.67242,33.67849,33.68727,33.70011,33.716675,33.73313,33.752464,33.78165,33.81936,33.856094,33.89685,33.932205,33.954353,33.97467,34.00177,34.024696,34.04273,34.063435
39.887466,40.029716,40.23911,40.585075,41.153206,41.969948,43.03631,44.20565,44.887173,45.46276,45.641106,45.602577,45.71257,46.224556,47.22814,48.725937,50.08606,51.0904,51.74881,52.135708,52.307644,52.339413,52.32068,52.161003,52.11113,52.24284,52.56749,53.061012,53.631676,54.118927,54.41121,54.673187,54.929672,55.180927,55.501175,55.970177,56.54756,57.116066,57.727417,58.32494,58.829884,59.218624,59.542812,59.876335,60.25068,60.74189,61.368927,62.087036,62.827244,63.50996,64.08089,64.54664,64.96112,65.37992,65.82861,66.30577,66.783714,67.22659,67.60745,67.932846,68.23517,68.517456,68.7827,69.03671,69.28395,69.5238,69.76109,70.02617,70.29756,70.56148,70.79113,70.95656,71.05313,71.10666,71.13962,71.173065,71.22731,71.31304,71.42667,71.56116,71.71567,71.88818,72.07124,72.250534,72.40907,72.537766,72.64522,72.748474,72.849594,72.94568,73.03621,73.11659,73.18168,73.236084,73.29136,73.34639,73.406906,73.47456,73.549866,73.63487,73.73003,73.82741,73.90908,73.94985,73.98131,74.00756,74.02823,74.05022,74.07834,74.10033,74.101166,74.054596,73.91719,73.62149,73.1444,72.54085,71.90399,71.30382,70.67598,69.93805,69.01364,67.877686,66.61631,65.41822,64.44143,63.71743,63.24139,62.984493,62.893707,62.898304,62.947166,63.06401,63.31318,63.787876,64.55072,65.50772,66.46602,67.2471,67.739426,68.01092,68.15871,68.229294,68.30572,68.420006,68.53617,68.62479,68.68531,68.72941,68.72031,68.68997,68.67329,68.65312,68.60247,68.569565,68.53344,68.49228,68.44678,68.39453,68.32803,68.24684,68.170334,68.076416,67.95763,67.814896,67.66514,67.53011,67.432465,67.39656,67.39024,67.37971,67.27452,66.903885,66.133835,64.84581,62.983486,61.091076,59.0651,57.273483,55.90576,54.87153,54.04795,53.450806,52.99659,52.663742,52.45118,52.324844,52.241127,52.199394,52.177143,51.995235,51.611023,51.440094,51.049397,50.601875,49.90129,46.66781,37.90464,31.54126,26.358376,23.581264,22.665825,22.301617,22.000807,21.913475,21.863384,21.842968,21.844616,21.855045,21.878014,21.91713,21.953331,21.974516,21.989151,22.045944,22.117725,22.220726,22.388603,22.591747,22.781214,22.955772,23.084555,23.060944,22.94214,22.851818,22.799686,22.712286,22.533913,22.149137,21.682686,21.43462,21.602873,23.38824,29.248123,40.089157,47.65547,50.73058,51.30577,51.623505,52.13904,52.318092,52.56433,52.675877,52.636726,52.411552,52.078465,51.649582,51.031387,50.379524,49.521618,47.70877,44.72454,40.567528,36.559242,34.350323,33.236572,32.764034,32.739464,32.99581,33.224648,33.24073,33.117474,33.002953,32.91528,32.937508,33.029648,33.151974,33.26565,33.341,33.375923,33.37079,33.35048,33.31623,33.28972,33.285294,33.297035,33.312305,33.328323,33.34043,33.34776,33.36624,33.401863,33.446556,33.492657,33.54033,33.582664,33.62744,33.670677,33.707737,33.731567,33.739407,33.740807,33.74243,33.744904,33.74971,33.756233,33.76853,33.792297,33.825283,33.858135,33.895508,33.927696,33.946835,33.964283,33.988922,34.010468,34.028786,34.052544
39.899273,40.039436,40.246502,40.59502,41.175495,42.013496,43.11637,44.33394,45.007404,45.576706,45.773018,45.69762,45.74192,46.217056,47.191345,48.65526,50.07907,51.117493,51.78981,52.18205,52.350304,52.372334,52.337303,52.139603,52.081203,52.230026,52.59338,53.13849,53.756607,54.273323,54.577515,54.828957,55.05549,55.240765,55.484344,55.94243,56.589493,57.126923,57.75764,58.383156,58.905437,59.29407,59.605354,59.92489,60.291843,60.789303,61.438343,62.189224,62.964375,63.673447,64.25473,64.71709,65.119545,65.519165,65.948166,66.40958,66.87895,67.32173,67.70736,68.03366,68.33588,68.61497,68.87431,69.12221,69.36612,69.607254,69.849945,70.12494,70.40828,70.681114,70.91489,71.079865,71.17197,71.22059,71.25008,71.28265,71.33798,71.42406,71.53604,71.66478,71.80347,71.956635,72.11979,72.28345,72.43808,72.57719,72.70157,72.81712,72.93056,73.0353,73.13138,73.21149,73.27212,73.3225,73.37549,73.4294,73.48889,73.55499,73.62718,73.706635,73.79381,73.88373,73.96518,74.00641,74.036026,74.0616,74.08419,74.1093,74.14025,74.16411,74.16661,74.12198,73.987976,73.69562,73.22713,72.63318,71.986984,71.39379,70.76016,70.00532,69.054214,67.89035,66.60785,65.39488,64.414825,63.705273,63.2317,62.974205,62.877613,62.870766,62.91832,63.03656,63.273426,63.723915,64.451836,65.37126,66.306274,67.089,67.59746,67.899,68.07231,68.15732,68.233894,68.33751,68.44203,68.527084,68.59238,68.64612,68.662346,68.649445,68.63216,68.606804,68.55324,68.51721,68.48593,68.45199,68.408966,68.356735,68.291626,68.21074,68.133484,68.038704,67.920044,67.78062,67.63965,67.51967,67.43692,67.40301,67.40517,67.3929,67.27304,66.87668,66.06312,64.729126,62.867287,60.98997,58.989586,57.22052,55.860786,54.815277,53.96257,53.3349,52.909687,52.569656,52.376698,52.29608,52.26704,52.24916,52.19924,52.046608,51.669662,51.49339,51.135902,50.62401,49.935005,47.064674,38.561356,32.16974,26.918133,23.918095,22.818031,22.429821,22.133842,22.019081,21.947031,21.904797,21.903397,21.918201,21.943804,21.988132,22.030672,22.051964,22.059341,22.074945,22.134392,22.267612,22.478128,22.73576,22.991379,23.186863,23.359138,23.401676,23.354782,23.31575,23.272589,23.164865,22.94154,22.426523,21.907597,21.701601,21.939056,23.703175,29.285187,39.82125,47.502228,50.650574,51.18409,51.4468,51.932793,52.1388,52.426544,52.5094,52.443283,52.167854,51.768333,51.287994,50.630234,49.975395,49.039963,47.375023,44.552227,40.61731,36.795555,34.480698,33.353737,32.856018,32.809757,33.040287,33.247936,33.254654,33.128803,33.018784,32.961094,32.99021,33.0884,33.203384,33.301743,33.37243,33.401863,33.39424,33.374023,33.342407,33.320076,33.319588,33.333916,33.35086,33.368717,33.381668,33.38723,33.402054,33.432426,33.471115,33.512707,33.558666,33.601192,33.647514,33.69277,33.732086,33.75784,33.765594,33.76345,33.759094,33.752663,33.747368,33.745525,33.752075,33.771225,33.79975,33.828968,33.862854,33.89171,33.907753,33.92208,33.943832,33.96394,33.98282,34.01039
39.906776,40.04576,40.25107,40.603188,41.198166,42.059586,43.20127,44.47268,45.149597,45.710487,45.916363,45.797386,45.773464,46.21257,47.16258,48.60321,50.09868,51.158073,51.839577,52.240555,52.40422,52.413124,52.35765,52.11928,52.051556,52.218452,52.621826,53.21985,53.885475,54.428272,54.745705,54.986893,55.181656,55.298336,55.470848,55.906223,56.571022,57.114563,57.767853,58.420185,58.96002,59.348644,59.646057,59.95055,60.311836,60.81189,61.482338,62.267685,63.08003,63.817276,64.409355,64.86679,65.25412,65.63018,66.03498,66.4769,66.934616,67.374626,67.76397,68.0977,68.40279,68.68158,68.93933,69.186584,69.43319,69.68135,69.9341,70.222015,70.51973,70.80188,71.03908,71.2039,71.29324,71.34009,71.369965,71.40546,71.46518,71.55405,71.66492,71.787796,71.91469,72.04579,72.18475,72.327515,72.470566,72.610855,72.7446,72.86771,72.98645,73.09677,73.19668,73.27494,73.33159,73.38115,73.43504,73.49167,73.55412,73.622284,73.69304,73.765915,73.841705,73.91805,73.988556,74.03036,74.05673,74.07982,74.10428,74.13173,74.16255,74.18898,74.19299,74.14947,74.0219,73.72647,73.25704,72.67737,72.02986,71.446045,70.80719,70.03635,69.05728,67.86413,66.5627,65.33911,64.363655,63.674248,63.202362,62.9433,62.841652,62.824196,62.87018,62.980938,63.209038,63.638847,64.33404,65.21797,66.13176,66.918236,67.44655,67.783066,67.98671,68.08946,68.16719,68.25857,68.34812,68.42589,68.49219,68.55229,68.589836,68.593285,68.578,68.550674,68.496445,68.45917,68.429855,68.402245,68.36989,68.3234,68.25574,68.17189,68.0895,67.98927,67.86624,67.726074,67.592255,67.48503,67.41364,67.38925,67.40205,67.38643,67.247795,66.819824,65.961075,64.58577,62.723217,60.843758,58.870667,57.128143,55.779648,54.725815,53.850567,53.207108,52.799377,52.46933,52.299416,52.257233,52.274483,52.280884,52.21912,52.09838,51.73857,51.566826,51.226204,50.658802,49.977707,47.42897,39.356644,32.979,27.660545,24.340977,22.960339,22.54272,22.282509,22.12933,22.03695,21.979828,21.973637,21.989513,22.017193,22.062607,22.100332,22.09738,22.092484,22.103615,22.184628,22.364998,22.637,22.960535,23.248638,23.54728,23.84841,23.998457,24.023573,24.03482,24.025166,23.91649,23.66249,23.005966,22.385468,22.141777,22.446898,24.233345,29.318935,39.308155,47.325436,50.494587,50.929092,51.192093,51.596306,51.848804,52.173027,52.226143,52.133972,51.82614,51.38044,50.858086,50.171272,49.502106,48.56433,47.07463,44.40634,40.68947,37.0355,34.57406,33.45831,32.927788,32.859512,33.06716,33.262268,33.271378,33.15028,33.051414,33.009224,33.042717,33.127983,33.238693,33.339638,33.401768,33.424725,33.413696,33.392395,33.36232,33.34311,33.345642,33.3621,33.38073,33.400417,33.41384,33.41671,33.42588,33.448204,33.478065,33.51258,33.554165,33.593952,33.63845,33.682453,33.72178,33.748863,33.75766,33.75453,33.747383,33.736084,33.725155,33.719223,33.723614,33.740803,33.766495,33.793148,33.82401,33.849358,33.86165,33.871624,33.88889,33.90621,33.924644,33.955246
39.91425,40.05214,40.25537,40.611053,41.220955,42.10904,43.29203,44.61486,45.30951,45.858223,46.062748,45.89582,45.805443,46.211422,47.144165,48.574646,50.146225,51.21019,51.89354,52.305428,52.463478,52.455368,52.374123,52.095974,52.020462,52.206978,52.650723,53.30235,54.015144,54.57725,54.909363,55.14179,55.304646,55.354668,55.463867,55.867714,56.512417,57.09681,57.76169,58.435593,58.994774,59.386,59.67256,59.964333,60.320595,60.825302,61.517715,62.337456,63.186653,63.951256,64.55284,65.00316,65.37244,65.721794,66.099304,66.51929,66.963425,67.398735,67.790146,68.13116,68.44335,68.726364,68.98764,69.24046,69.4958,69.75581,70.02157,70.32314,70.63462,70.92419,71.16304,71.328125,71.41763,71.467026,71.50267,71.54594,71.61377,71.70776,71.81754,71.93257,72.046875,72.15837,72.27298,72.39186,72.513466,72.641624,72.77631,72.903,73.02234,73.13498,73.2366,73.31325,73.36844,73.420364,73.47813,73.54024,73.60843,73.680786,73.75099,73.816635,73.87926,73.938156,73.987076,74.022,74.04477,74.066696,74.09244,74.11919,74.14601,74.173904,74.17894,74.13803,74.00937,73.70532,73.23302,72.66643,72.032196,71.4583,70.814545,70.02909,69.02289,67.802246,66.485985,65.25852,64.31153,63.63018,63.156315,62.89604,62.7921,62.76896,62.81057,62.912666,63.12774,63.53739,64.20233,65.05336,65.94911,66.74258,67.293106,67.66725,67.90515,68.029724,68.11168,68.19234,68.26663,68.33518,68.39911,68.46262,68.51359,68.52956,68.519226,68.49381,68.44275,68.40828,68.38127,68.35852,68.33434,68.29585,68.23066,68.14177,68.04996,67.94008,67.80858,67.664375,67.534935,67.43746,67.37601,67.36623,67.38863,67.366806,67.20498,66.73985,65.83136,64.412766,62.54679,60.644394,58.696854,56.982647,55.65103,54.593918,53.701683,53.061493,52.66877,52.360985,52.21113,52.195732,52.24606,52.286285,52.256546,52.148296,51.9166,51.704323,51.353592,50.72099,50.048626,48.015423,40.79126,34.20859,28.9093,25.03571,23.142357,22.702913,22.429272,22.252674,22.149668,22.083466,22.073936,22.087627,22.12423,22.178528,22.188227,22.179,22.193594,22.231918,22.370432,22.622889,22.940153,23.345911,24.002245,24.730991,25.30109,25.552177,25.522038,25.39711,25.27118,25.003479,24.678968,24.021408,23.284855,22.915184,23.289318,25.146038,29.750328,38.54033,46.950485,50.29342,50.557404,50.72091,51.10308,51.463394,51.730865,51.763557,51.656387,51.340397,50.870583,50.30827,49.612335,48.953327,48.1057,46.703156,44.166374,40.690018,37.19469,34.635784,33.530632,32.989204,32.88709,33.074394,33.27166,33.291584,33.181507,33.093445,33.05654,33.082275,33.158836,33.27245,33.376476,33.429893,33.44625,33.431335,33.407852,33.37776,33.359882,33.3637,33.380997,33.40075,33.421906,33.435474,33.435448,33.43851,33.452183,33.472836,33.500027,33.536476,33.572296,33.613167,33.653885,33.691628,33.719547,33.73033,33.7285,33.721596,33.709312,33.697006,33.690823,33.695953,33.713196,33.73733,33.76213,33.790154,33.811775,33.819645,33.82415,33.835636,33.84906,33.866028,33.89854
39.92954,40.064377,40.263298,40.62041,41.24318,42.158367,43.384216,44.756794,45.47306,46.007122,46.20289,45.986656,45.83407,46.211533,47.135273,48.571625,50.189846,51.257652,51.948586,52.369915,52.5195,52.489887,52.370064,52.0633,51.98416,52.192062,52.675934,53.383587,54.146492,54.717113,55.065773,55.291763,55.423676,55.414886,55.458958,55.810143,56.425484,57.082912,57.7464,58.437046,59.01966,59.419323,59.70175,59.98591,60.33762,60.85083,61.564396,62.415146,63.297108,64.08522,64.69351,65.13466,65.48436,65.80626,66.15617,66.55405,66.9845,67.41504,67.80827,68.15379,68.47452,68.76529,69.0348,69.29831,69.56674,69.84137,70.12097,70.43494,70.75717,71.05092,71.289505,71.45514,71.547585,71.60357,71.64946,71.70392,71.781525,71.88036,71.98731,72.0914,72.188065,72.2785,72.36398,72.452515,72.54723,72.657936,72.78781,72.91557,73.0336,73.146194,73.24686,73.32297,73.380646,73.43813,73.50252,73.572205,73.64811,73.726654,73.795555,73.85101,73.89751,73.936966,73.965324,73.98777,74.006485,74.02783,74.05289,74.077286,74.10046,74.127045,74.132675,74.09389,73.9494,73.63548,73.170746,72.61734,72.00604,71.44187,70.79477,69.99461,68.96445,67.722046,66.39605,65.1728,64.26588,63.5834,63.105816,62.84555,62.742584,62.717552,62.75154,62.849037,63.044582,63.432274,64.067726,64.88663,65.76518,66.566635,67.140465,67.55262,67.82795,67.97951,68.07171,68.147385,68.21058,68.27138,68.332,68.39761,68.45095,68.47323,68.46959,68.447464,68.40309,68.37463,68.35359,68.33676,68.316345,68.28265,68.22188,68.12863,68.02656,67.90511,67.76366,67.61447,67.48755,67.39897,67.34941,67.35292,67.38283,67.35086,67.16055,66.65274,65.68646,64.21528,62.343044,60.402706,58.4765,56.78969,55.479263,54.42727,53.53028,52.91294,52.53927,52.244736,52.10916,52.111053,52.179913,52.248203,52.263245,52.189064,52.131508,51.86161,51.48884,50.834747,50.186867,48.7195,42.830555,35.96586,30.819382,26.262947,23.580772,22.958237,22.597702,22.421587,22.30273,22.22586,22.213219,22.239214,22.298283,22.362125,22.3621,22.390621,22.468924,22.595684,22.786434,23.184208,23.968067,25.107738,26.274574,27.341574,28.006224,28.223211,28.074926,27.794472,27.569914,27.229736,26.78124,25.834332,24.836094,24.336872,24.7319,26.59729,30.788666,38.36533,46.68682,50.029892,50.087006,50.112183,50.503735,50.83408,51.00318,51.080166,51.02339,50.74064,50.28102,49.72174,49.066727,48.446526,47.590805,46.114193,43.726578,40.5241,37.176884,34.650467,33.555386,33.032356,32.901062,33.05793,33.259556,33.302917,33.20627,33.12469,33.083508,33.09498,33.180798,33.30436,33.403606,33.45051,33.46096,33.44233,33.416122,33.385025,33.367218,33.370937,33.38781,33.407745,33.429573,33.442757,33.440224,33.43851,33.445656,33.459675,33.48182,33.514523,33.547096,33.5843,33.62118,33.65657,33.684746,33.6976,33.697983,33.692924,33.681854,33.67051,33.66588,33.67276,33.690556,33.713554,33.736713,33.76201,33.780052,33.783657,33.782833,33.78873,33.7985,33.813972,33.847717
39.95656,40.085228,40.27658,40.63171,41.263916,42.2024,43.470253,44.896538,45.627277,46.145523,46.330086,46.065353,45.855263,46.209698,47.131996,48.58825,50.205906,51.28869,52.000755,52.427513,52.56495,52.510155,52.339737,52.018967,51.943615,52.173916,52.69597,53.46268,54.27925,54.84511,55.212173,55.434402,55.53728,55.483658,55.45565,55.72013,56.306496,57.0645,57.72801,58.43482,59.044228,59.458656,59.744137,60.026505,60.376877,60.898636,61.63016,62.506565,63.41529,64.22203,64.83441,65.26544,65.59596,65.891975,66.21644,66.594124,67.01215,67.43861,67.83383,68.184525,68.511765,68.81149,69.09235,69.3692,69.65234,69.94175,70.234146,70.55814,70.88709,71.18193,71.41878,71.58464,71.681015,71.74553,71.80316,71.869064,71.95505,72.05503,72.15332,72.24005,72.31353,72.374725,72.425316,72.47978,72.55133,72.649414,72.77168,72.89853,73.015686,73.12732,73.22554,73.30226,73.365295,73.43034,73.50278,73.58116,73.663864,73.74577,73.81035,73.85371,73.883484,73.9058,73.92392,73.93643,73.9503,73.96837,73.98928,74.010925,74.033554,74.05656,74.060135,74.015076,73.850525,73.53353,73.08712,72.551605,71.96402,71.410645,70.76372,69.95012,68.90153,67.644516,66.314316,65.10306,64.221794,63.54222,63.064667,62.805313,62.704285,62.679153,62.706863,62.798813,62.97397,63.338207,63.94371,64.73096,65.591034,66.39774,66.99719,67.446014,67.75977,67.9426,68.05185,68.13019,68.18871,68.24529,68.303345,68.37149,68.415146,68.43642,68.43977,68.41962,68.384575,68.364426,68.35134,68.3419,68.32726,68.29491,68.23161,68.13511,68.02475,67.892426,67.74198,67.58884,67.465126,67.38678,67.350784,67.365295,67.40018,67.354126,67.13039,66.57537,65.54338,64.00859,62.127426,60.142365,58.230896,56.567364,55.27761,54.238594,53.354378,52.775333,52.412743,52.122395,52.000206,52.012604,52.087914,52.166412,52.203968,52.197235,52.224022,51.97095,51.59638,50.99875,50.344246,49.120903,44.88367,38.334408,33.237877,28.1152,24.517075,23.305298,22.870308,22.69137,22.51746,22.411,22.392418,22.447212,22.537199,22.617258,22.671661,22.781796,22.956358,23.26141,23.810656,24.779453,26.481745,28.734005,29.938475,30.819149,31.285034,31.419794,31.305004,31.103458,30.990011,30.865118,30.374136,28.943308,27.564146,26.78685,26.979729,28.804548,32.753452,39.617638,46.83844,49.67904,49.592545,49.485374,49.762417,49.87571,50.0251,50.174534,50.21443,50.001656,49.5877,49.078922,48.474678,47.845177,46.832436,45.243977,43.090622,40.17492,36.956757,34.595863,33.53308,33.04203,32.90572,33.027374,33.223755,33.29593,33.21399,33.138947,33.086357,33.09292,33.19152,33.32293,33.417526,33.4599,33.465706,33.443893,33.4149,33.382324,33.363865,33.366653,33.38224,33.401394,33.42299,33.435226,33.4309,33.426716,33.430973,33.442432,33.46299,33.494453,33.52554,33.56003,33.593513,33.626373,33.654152,33.6685,33.670868,33.668007,33.65886,33.6492,33.64644,33.654907,33.673027,33.695004,33.716656,33.739708,33.75495,33.755367,33.750587,33.752357,33.759613,33.774166,33.808647
39.9924,40.11284,40.294395,40.64485,41.283264,42.24108,43.54825,45.02851,45.769,46.27178,46.44581,46.135223,45.872585,46.209114,47.13433,48.61468,50.22731,51.31807,52.04684,52.47716,52.60043,52.519764,52.304504,51.971283,51.908707,52.1602,52.715332,53.539898,54.40756,54.962006,55.347744,55.568768,55.645523,55.56317,55.469868,55.639366,56.2062,57.04259,57.71528,58.441162,59.07744,59.510128,59.803364,60.08812,60.441055,60.968765,61.71423,62.610992,63.54086,64.36215,64.97722,65.39899,65.712326,65.98564,66.287796,66.64772,67.05499,67.4783,67.875946,68.23221,68.56601,68.87602,69.16971,69.46016,69.75694,70.05893,70.36162,70.69309,71.02542,71.31941,71.554,71.71982,71.8202,71.892914,71.9613,72.03659,72.12811,72.22398,72.304276,72.36253,72.405624,72.433304,72.45773,72.49083,72.54584,72.632645,72.74773,72.87146,72.99127,73.10128,73.19804,73.27569,73.34283,73.41436,73.49333,73.578476,73.66073,73.73238,73.787796,73.82516,73.84783,73.862854,73.874344,73.880745,73.89103,73.90466,73.917755,73.93197,73.95124,73.969444,73.963394,73.89838,73.72906,73.42354,72.99309,72.47699,71.916245,71.376816,70.73475,69.9158,68.855774,67.58815,66.2585,65.06418,64.19537,63.519592,63.044323,62.786964,62.687584,62.663303,62.688744,62.772133,62.930244,63.270313,63.846535,64.60542,65.446655,66.25449,66.88341,67.36622,67.715744,67.9304,68.06069,68.147446,68.20674,68.262634,68.31887,68.38905,68.41458,68.42983,68.43966,68.41972,68.39621,68.386,68.38202,68.38023,68.37102,68.34026,68.27411,68.17136,68.05226,67.91118,67.75403,67.59837,67.479294,67.41179,67.38753,67.41078,67.447945,67.384735,67.12449,66.5208,65.419785,63.814682,61.92211,59.89077,57.98414,56.33543,55.059013,54.033394,53.174114,52.640064,52.26485,51.999207,51.893967,51.908684,51.984955,52.070847,52.12269,52.145348,52.227493,52.076584,51.723717,51.15954,50.359505,49.06543,46.500298,41.37491,35.84656,30.359533,25.938858,23.691208,23.29751,23.083313,22.803486,22.625217,22.598808,22.66434,22.781765,22.93428,23.08649,23.336058,23.67099,24.230686,26.050484,28.454435,30.431547,32.17353,32.870827,33.576912,34.099514,34.46805,34.61489,34.554626,34.45916,34.361183,34.08476,33.357365,31.947308,30.397346,30.022148,31.958265,36.17323,41.77263,46.965107,49.211258,49.147324,48.700157,48.671642,48.783077,48.962105,49.034683,49.066704,48.91143,48.54363,48.027386,47.35959,46.61271,45.639637,44.167107,42.352364,39.711964,36.624844,34.503597,33.482964,33.030243,32.88769,32.999836,33.195053,33.274075,33.209698,33.14576,33.096092,33.107216,33.207294,33.33513,33.425426,33.465645,33.468185,33.44387,33.412346,33.378143,33.358643,33.360176,33.37422,33.392227,33.41318,33.4243,33.418915,33.41413,33.418316,33.430218,33.451668,33.483643,33.514458,33.547012,33.577583,33.607838,33.63456,33.64961,33.653297,33.652245,33.64486,33.636772,33.635525,33.645054,33.663185,33.684258,33.70449,33.725914,33.739292,33.737762,33.73063,33.729828,33.735397,33.74922,33.783592
40.031597,40.14144,40.310295,40.652924,41.29457,42.26984,43.615395,45.149063,45.902596,46.39147,46.55416,46.197624,45.883976,46.20482,47.135933,48.64421,50.243725,51.337963,52.082344,52.5144,52.620102,52.511963,52.254646,51.90866,51.864693,52.138664,52.726883,53.609688,54.5275,55.073128,55.474876,55.700233,55.75271,55.653076,55.51922,55.615604,56.16079,57.020405,57.705696,58.454338,59.118088,59.571716,59.875755,60.164925,60.52014,61.051525,61.80648,62.718216,63.664818,64.49504,65.10692,65.52437,65.824554,66.076675,66.35706,66.69943,67.095795,67.51602,67.91702,68.27846,68.624176,68.94895,69.258156,69.563286,69.8728,70.18549,70.49629,70.83687,71.16954,71.45216,71.675125,71.83855,71.942474,72.02132,72.09607,72.172935,72.25777,72.33992,72.40372,72.44458,72.467224,72.47141,72.4717,72.48312,72.522,72.599464,72.71013,72.83113,72.94963,73.06096,73.15878,73.23826,73.30851,73.38431,73.46739,73.54571,73.61948,73.68344,73.73107,73.7607,73.7773,73.788734,73.799515,73.80539,73.81321,73.82091,73.82193,73.819176,73.821266,73.82367,73.80641,73.73536,73.569016,73.278824,72.867935,72.37274,71.8466,71.326584,70.696014,69.87955,68.813995,67.539116,66.21111,65.031555,64.17353,63.503918,63.029007,62.776237,62.68226,62.65715,62.678543,62.753555,62.898323,63.21091,63.75618,64.48859,65.31326,66.124,66.781746,67.29683,67.68201,67.92998,68.08414,68.18291,68.24632,68.303635,68.36311,68.39828,68.41189,68.4356,68.446335,68.423065,68.41313,68.41469,68.42117,68.42734,68.42267,68.39191,68.32118,68.21109,68.0829,67.93326,67.770645,67.61519,67.503845,67.449165,67.43683,67.46707,67.50252,67.41673,67.11537,66.461105,65.286255,63.602425,61.700127,59.622787,57.710896,56.05719,54.766563,53.75026,52.939888,52.45504,52.072746,51.830704,51.74584,51.76198,51.83794,51.94052,52.02024,52.07187,52.23907,52.214966,51.857048,51.280506,50.45018,49.311813,48.20311,44.522324,39.50321,33.837997,28.073902,24.360111,23.773033,23.397993,23.07983,22.860123,22.784355,22.857695,23.046162,23.30986,23.631151,23.98571,25.222631,27.473022,30.169924,32.06646,32.891163,33.642586,34.37568,35.513145,36.486885,37.18271,37.54977,37.663383,37.705524,37.66559,37.518234,37.487625,36.46889,35.079018,34.8912,36.792892,40.575165,44.799805,47.519424,48.472626,48.33571,47.875687,47.32171,46.68413,46.740963,46.866615,46.948303,46.80365,46.426373,45.91832,45.337456,44.78354,43.98813,42.87525,41.50713,39.145893,36.23649,34.396564,33.44455,33.015846,32.857147,32.965553,33.15652,33.234962,33.197617,33.145447,33.101814,33.117554,33.217236,33.34268,33.43189,33.47145,33.472275,33.446198,33.412743,33.37711,33.356678,33.35708,33.3695,33.385944,33.405792,33.41542,33.409443,33.40552,33.41182,33.426407,33.450226,33.483627,33.514786,33.54555,33.573227,33.60044,33.62501,33.63943,33.643124,33.642868,33.636295,33.62879,33.627975,33.63749,33.654785,33.674507,33.69316,33.713173,33.72548,33.723495,33.715996,33.71454,33.719635,33.733112,33.766838
40.078136,40.175358,40.328712,40.6602,41.30208,42.292717,43.67727,45.26821,46.033768,46.509705,46.66579,46.260605,45.89202,46.199608,47.13949,48.67965,50.256813,51.357597,52.114788,52.542435,52.62846,52.492165,52.197563,51.84027,51.818596,52.118767,52.746094,53.672,54.614586,55.180622,55.59885,55.83461,55.864708,55.76434,55.617054,55.65914,56.18376,57.011017,57.716198,58.491673,59.18139,59.655987,59.97144,60.265266,60.621857,61.1547,61.91598,62.83927,63.79997,64.63759,65.24364,65.65054,65.945305,66.18164,66.441895,66.76677,67.15215,67.56933,67.97462,68.342545,68.7033,69.04613,69.37242,69.691795,70.01189,70.33225,70.65224,70.98103,71.29201,71.56219,71.78227,71.945,72.05177,72.135284,72.21464,72.292175,72.37123,72.441,72.48744,72.507996,72.508804,72.48874,72.464325,72.45414,72.477745,72.54714,72.65436,72.772575,72.88751,72.994095,73.08676,73.16597,73.24019,73.316986,73.394516,73.466064,73.53305,73.591934,73.63167,73.653946,73.668915,73.68292,73.699684,73.71075,73.71806,73.71762,73.70262,73.67656,73.65225,73.63396,73.60338,73.52838,73.36902,73.10228,72.7156,72.23952,71.75699,71.26313,70.653015,69.849236,68.78613,67.50835,66.18305,65.01593,64.165344,63.503075,63.028915,62.781776,62.694214,62.66774,62.68448,62.75076,62.881844,63.16802,63.68525,64.39571,65.209305,66.02747,66.714874,67.26018,67.67964,67.95917,68.1358,68.24626,68.31529,68.37674,68.416,68.42106,68.43231,68.45215,68.455826,68.44413,68.44818,68.462494,68.47951,68.49214,68.48946,68.45582,68.37776,68.25787,68.11902,67.95969,67.79138,67.63748,67.53617,67.49608,67.49545,67.52968,67.556854,67.43859,67.085785,66.37321,65.11915,63.355495,61.45131,59.320442,57.40178,55.73354,54.424164,53.42613,52.67606,52.243946,51.85441,51.63189,51.5596,51.588226,51.67968,51.802734,51.919857,52.01799,52.265892,52.324745,51.958923,51.392555,50.66057,49.633606,48.77735,47.127323,43.694477,38.022182,30.900085,25.66673,24.276619,23.72577,23.337257,23.098595,23.013609,23.062996,23.295753,23.717152,24.31487,25.58046,28.1998,31.272642,33.142673,33.99128,35.012974,36.39249,37.835903,39.187923,40.341827,41.240456,41.798496,42.066765,42.19706,42.151844,41.980576,41.9256,41.770515,41.25389,41.278137,42.868027,45.206448,46.955505,47.66866,47.706726,46.786835,45.492744,44.730312,44.28414,44.228848,44.298466,44.352715,44.2352,43.945946,43.57585,43.18375,42.848717,42.33155,41.587746,40.584915,38.52814,35.89499,34.293144,33.39388,32.977356,32.810703,32.921112,33.116608,33.198948,33.177444,33.143013,33.10814,33.128513,33.22857,33.353912,33.4441,33.4841,33.484364,33.457,33.421696,33.38447,33.362812,33.36178,33.37227,33.386703,33.404892,33.41262,33.406433,33.404762,33.41532,33.434757,33.46248,33.498238,33.53035,33.55947,33.584183,33.60787,33.62931,33.64191,33.644497,33.644104,33.637455,33.62958,33.628147,33.636665,33.652424,33.670425,33.68737,33.7063,33.71838,33.717453,33.71166,33.711437,33.717003,33.730118,33.762215
40.128525,40.213535,40.350662,40.66919,41.30879,42.31398,43.73571,45.377666,46.16259,46.62893,46.760696,46.310066,45.8996,46.193436,47.14318,48.71503,50.26348,51.372154,52.13993,52.55953,52.62484,52.462585,52.144726,51.779324,51.7817,52.111847,52.781796,53.740158,54.689278,55.282425,55.716286,55.963097,55.973213,55.883614,55.751503,55.775562,56.290993,57.03174,57.751717,58.55239,59.263252,59.75438,60.078438,60.375652,60.73292,61.26673,62.033737,62.968224,63.943085,64.78729,65.386185,65.78497,66.075836,66.30101,66.54509,66.8533,67.226776,67.64003,68.04825,68.42442,68.8004,69.16199,69.50705,69.84012,70.16756,70.490746,70.79902,71.102455,71.39329,71.65563,71.87381,72.03525,72.14354,72.23006,72.31246,72.38975,72.46321,72.521164,72.55004,72.54944,72.528435,72.48488,72.43733,72.40758,72.417496,72.47991,72.58462,72.70003,72.810524,72.90957,72.99299,73.065674,73.13698,73.21005,73.279785,73.34407,73.40287,73.452774,73.48844,73.51108,73.530045,73.55455,73.58418,73.60611,73.61421,73.60198,73.563675,73.508995,73.458176,73.4173,73.37181,73.29228,73.144,72.88849,72.51829,72.081406,71.64656,71.185745,70.60325,69.822975,68.77136,67.49499,66.17294,65.01477,64.16838,63.513325,63.042618,62.801346,62.718777,62.691113,62.703545,62.76006,62.877373,63.140884,63.636154,64.332504,65.14409,65.976654,66.69357,67.2654,67.71412,68.01812,68.20942,68.32779,68.39752,68.44173,68.44864,68.44386,68.45954,68.46795,68.46364,68.47099,68.49059,68.51889,68.54639,68.56369,68.55993,68.51976,68.43076,68.29797,68.14611,67.9747,67.799515,67.64755,67.5576,67.533035,67.5433,67.577545,67.58977,67.42985,67.01707,66.24031,64.91272,63.078228,61.154125,58.986183,57.05278,55.38134,54.07858,53.113026,52.413143,52.008736,51.63584,51.437714,51.37506,51.415985,51.53543,51.693687,51.847168,51.9983,52.299595,52.398216,52.04293,51.485413,50.82341,49.881065,48.963646,48.360237,46.589516,42.656586,35.41812,28.01004,24.692623,24.046011,23.561346,23.319628,23.271545,23.297611,23.528912,24.090921,25.11089,28.112297,31.968231,34.65071,35.794235,36.645344,38.13732,39.92804,41.68297,42.823387,43.656612,44.324226,44.809128,45.13349,45.40037,45.576057,45.678204,45.78055,46.02218,46.240677,46.526184,47.132687,47.78098,47.824955,47.562298,46.51803,44.82453,43.20916,42.245926,41.871304,41.785706,41.87773,41.955482,41.8693,41.641113,41.40264,41.249912,41.206036,40.937828,40.49997,39.701817,37.931213,35.679585,34.23537,33.35443,32.93701,32.765247,32.873627,33.071777,33.163177,33.158405,33.14418,33.12015,33.14711,33.249435,33.37589,33.46751,33.50835,33.508717,33.480034,33.442337,33.402485,33.378437,33.375023,33.38296,33.39504,33.411385,33.41742,33.41192,33.413902,33.430523,33.45665,33.48973,33.529045,33.563156,33.591644,33.614456,33.635445,33.654076,33.664833,33.666122,33.665028,33.657448,33.64808,33.644592,33.650654,33.663795,33.679375,33.694126,33.71203,33.724495,33.725952,33.723743,33.726486,33.73317,33.745567,33.774723
40.180595,40.2555,40.377327,40.682354,41.317307,42.338024,43.795868,45.472923,46.265038,46.732018,46.83748,46.349728,45.90912,46.18973,47.15148,48.760746,50.26776,51.38083,52.15827,52.568787,52.61338,52.430237,52.10832,51.738052,51.764404,52.127792,52.842094,53.826096,54.769054,55.380024,55.82492,56.0789,56.075874,55.979897,55.88951,55.958294,56.426155,57.088097,57.81982,58.640045,59.364616,59.86477,60.192383,60.49089,60.848812,61.38476,62.159065,63.106407,64.094025,64.94229,65.53592,65.931015,66.21675,66.43057,66.66217,66.958145,67.32083,67.72768,68.135765,68.52101,68.90892,69.28769,69.65166,69.99849,70.33055,70.64604,70.919334,71.20152,71.48288,71.739746,71.95292,72.111786,72.22084,72.30925,72.39354,72.47021,72.53796,72.58386,72.59537,72.57496,72.53492,72.47151,72.40347,72.35503,72.35274,72.408806,72.5086,72.619385,72.723495,72.81346,72.88495,72.945404,73.00668,73.07202,73.13434,73.18968,73.23831,73.2775,73.31202,73.343315,73.37645,73.420746,73.47084,73.50745,73.517166,73.49054,73.42386,73.336105,73.25392,73.177734,73.113785,73.03259,72.896454,72.65408,72.31059,71.92469,71.534195,71.110565,70.559525,69.807274,68.77554,67.50755,66.187454,65.032394,64.18698,63.537403,63.06716,62.831657,62.755043,62.725624,62.7343,62.781113,62.885445,63.130814,63.61104,64.30214,65.1222,65.97734,66.72386,67.31785,67.78879,68.10607,68.303406,68.415,68.458145,68.470795,68.46248,68.46455,68.473,68.470634,68.47153,68.4963,68.532166,68.57387,68.60977,68.62874,68.62021,68.569916,68.46686,68.31832,68.151596,67.9655,67.781975,67.63229,67.55539,67.54802,67.56884,67.59956,67.59073,67.38051,66.90021,66.05433,64.66626,62.77868,60.804695,58.63597,56.696983,55.036396,53.775543,52.87185,52.21074,51.79554,51.455215,51.289776,51.243233,51.29693,51.447586,51.643524,51.816467,52.004036,52.319706,52.43113,52.10147,51.55548,50.91179,50.04059,49.18815,48.575935,47.99524,46.023033,39.755917,30.866043,25.031025,24.321564,23.769333,23.525269,23.506428,23.532833,23.741129,24.394463,25.92142,30.558445,35.223915,37.33493,38.42752,39.85972,41.42536,42.89263,44.144577,44.93702,45.39601,45.721992,46.005554,46.304115,46.701218,47.16153,47.62861,48.07924,48.294167,48.55311,48.75037,48.529854,48.24655,47.92157,47.44306,45.40509,43.112274,41.48383,40.281494,39.807022,39.768,39.954628,40.115337,40.08285,39.90435,39.751595,39.742424,39.889343,39.845165,39.64079,38.988934,37.4832,35.580765,34.238976,33.359417,32.91193,32.72971,32.82788,33.020134,33.125004,33.146194,33.15233,33.141975,33.177933,33.28357,33.411102,33.50393,33.54574,33.546753,33.51697,33.476593,33.43325,33.405678,33.398846,33.403503,33.412903,33.427227,33.431812,33.427708,33.434216,33.457916,33.491913,33.531364,33.575214,33.6124,33.6415,33.663857,33.683487,33.700294,33.709793,33.709976,33.7078,33.69848,33.68651,33.679604,33.681805,33.69119,33.70349,33.715412,33.73193,33.74495,33.749626,33.752426,33.75952,33.767982,33.77948,33.804718
40.23293,40.29992,40.40789,40.699314,41.327282,42.362656,43.85444,45.55127,46.32041,46.791542,46.899944,46.38955,45.91993,46.19175,47.16915,48.826454,50.275307,51.38654,52.17147,52.572735,52.598877,52.402023,52.0983,51.72326,51.770546,52.16765,52.93155,53.934418,54.849625,55.470867,55.91931,56.175167,56.167152,56.04779,56.00234,56.148834,56.548904,57.172417,57.921146,58.75549,59.48545,59.986813,60.313057,60.611176,60.97046,61.510593,62.29441,63.25589,64.2527,65.10076,65.69031,66.08075,66.359985,66.56195,66.7831,67.070946,67.42522,67.8246,68.231064,68.62257,69.019455,69.4131,69.7926,70.15186,70.48306,70.772194,71.01476,71.28513,71.55859,71.80914,72.017845,72.17476,72.28538,72.37625,72.46138,72.53441,72.59281,72.62622,72.62511,72.59104,72.532814,72.45079,72.36255,72.294235,72.27781,72.32558,72.41775,72.5193,72.61226,72.68907,72.74492,72.79028,72.8396,72.89556,72.94919,72.995926,73.0367,73.07083,73.10739,73.15315,73.2122,73.28573,73.36323,73.41612,73.42865,73.388504,73.29422,73.16647,73.03737,72.92537,72.850555,72.7785,72.657684,72.445656,72.14499,71.79731,71.440765,71.05294,70.53323,69.808014,68.80264,67.55101,66.23053,65.0706,64.22215,63.574883,63.094353,62.86422,62.79837,62.766045,62.77202,62.811516,62.904873,63.136932,63.60868,64.3024,65.1401,66.02495,66.7999,67.4135,67.89964,68.22129,68.40482,68.479576,68.47808,68.47307,68.47296,68.47657,68.467865,68.4642,68.48303,68.52222,68.57192,68.62322,68.66226,68.67792,68.66051,68.597595,68.47984,68.3152,68.1315,67.931625,67.74097,67.59531,67.53424,67.54692,67.57927,67.604416,67.57047,67.30112,66.744644,65.82328,64.38721,62.467453,60.42199,58.290466,56.378387,54.7436,53.538315,52.709515,52.088196,51.657803,51.345936,51.213196,51.18889,51.262756,51.436665,51.646572,51.815697,52.003525,52.285297,52.39179,52.113598,51.62245,51.011765,50.17456,49.320564,48.699436,48.70189,47.320732,42.23811,33.369473,25.380875,24.53231,23.964163,23.713207,23.68935,23.728958,23.915066,24.625608,26.645782,32.36404,37.451054,39.456074,40.54663,42.059433,43.48335,44.662117,45.297325,45.887466,46.235245,46.43753,46.634018,46.91725,47.333748,47.855476,48.397957,48.880898,49.155792,49.126686,48.930206,48.716938,48.372654,48.032887,47.223415,44.84266,42.00198,39.886223,38.689274,38.403698,38.443554,38.67193,38.89686,38.94426,38.85424,38.772392,38.770287,38.897537,39.036297,38.983513,38.503307,37.24128,35.55211,34.280758,33.409744,32.908344,32.70067,32.780502,32.96355,33.08558,33.139786,33.166767,33.1728,33.219006,33.32791,33.456367,33.550613,33.59397,33.596733,33.567245,33.525085,33.478653,33.44741,33.436638,33.4375,33.443924,33.45584,33.458908,33.456207,33.46711,33.497826,33.53984,33.585926,33.634613,33.675354,33.705734,33.72844,33.747574,33.763237,33.771748,33.770683,33.766827,33.754784,33.739136,33.727783,33.725166,33.72995,33.73823,33.746784,33.76128,33.77448,33.782516,33.790985,33.803318,33.814285,33.825256,33.846466
40.282097,40.342987,40.438667,40.716904,41.33638,42.381348,43.899513,45.60883,46.34253,46.802673,46.938644,46.424675,45.930023,46.19831,47.19359,48.90234,50.286095,51.389847,52.177143,52.569656,52.582016,52.378304,52.11344,51.732906,51.79595,52.223206,53.043434,54.06044,54.9224,55.547127,55.9921,56.244537,56.23384,56.11509,56.087105,56.2697,56.692253,57.27292,58.039284,58.88362,59.612244,60.109146,60.431038,60.72859,61.0906,61.63708,62.432262,63.407845,64.41124,65.255005,65.83676,66.22017,66.489456,66.68437,66.89697,67.175156,67.52133,67.91603,68.322296,68.71382,69.12028,69.52672,69.916435,70.281906,70.60019,70.84739,71.08629,71.34544,71.61054,71.856514,72.06265,72.218994,72.33133,72.42372,72.506256,72.56765,72.6081,72.628296,72.62539,72.591034,72.51532,72.41232,72.30238,72.21422,72.17792,72.211784,72.29761,72.385376,72.46265,72.52245,72.55968,72.587204,72.622,72.66759,72.71443,72.756485,72.79399,72.82913,72.87495,72.94136,73.031715,73.140816,73.247925,73.31552,73.33075,73.28122,73.16191,72.985596,72.80371,72.6929,72.63326,72.585785,72.491615,72.305595,72.02979,71.70448,71.36781,71.00882,70.51648,69.818115,68.84262,67.61128,66.28958,65.11751,64.26129,63.612568,63.113007,62.886898,62.83474,62.79945,62.805153,62.840588,62.926083,63.149788,63.6185,64.32022,65.18138,66.09956,66.89827,67.53229,68.02867,68.346466,68.47928,68.49041,68.472275,68.46985,68.47531,68.45799,68.45111,68.46286,68.4947,68.54651,68.60553,68.66118,68.697,68.70389,68.674355,68.598465,68.467926,68.28915,68.08697,67.879105,67.68759,67.550064,67.50789,67.543594,67.58916,67.60819,67.54399,67.21168,66.57328,65.57027,64.094406,62.159084,60.032135,57.96495,56.10948,54.529137,53.36682,52.577675,51.99949,51.59614,51.31395,51.204994,51.20002,51.29682,51.477615,51.67074,51.82019,51.96791,52.16343,52.25331,52.07908,51.7015,51.120377,50.27977,49.46492,49.010803,48.777184,48.15252,44.298775,35.253387,25.768436,24.67863,24.114504,23.859306,23.833065,23.880787,24.039368,24.792336,27.258167,34.14476,39.257084,41.097416,42.333557,43.816383,44.742455,45.538467,46.105858,46.55484,46.754524,46.8315,47.003197,47.31962,47.703804,48.194145,48.737587,49.207977,49.45511,49.48452,49.425316,49.32524,49.055023,48.544006,46.797035,44.31489,41.306946,38.9155,37.989548,37.624985,37.744244,38.004616,38.285995,38.38866,38.328712,38.264084,38.27269,38.39175,38.53822,38.545727,38.191635,37.111336,35.56687,34.324036,33.468697,32.930176,32.674644,32.72595,32.90396,33.044907,33.134983,33.182854,33.20562,33.262444,33.37464,33.504086,33.600227,33.64608,33.652252,33.625298,33.583267,33.53526,33.50119,33.48667,33.48369,33.48702,33.49633,33.49775,33.49602,33.51046,33.547104,33.596226,33.648438,33.70161,33.745705,33.777397,33.80065,33.819668,33.83453,33.84201,33.83932,33.83295,33.817154,33.796837,33.780304,33.77239,33.772095,33.775917,33.780617,33.79242,33.805008,33.81584,33.829735,33.84739,33.861282,33.872414,33.890167
40.329338,40.386215,40.471527,40.7375,41.348076,42.40041,43.93959,45.65509,46.359406,46.810387,46.971844,46.457832,45.94472,46.21261,47.228096,48.992996,50.30684,51.395454,52.180145,52.56344,52.56434,52.35456,52.12491,51.75814,51.838287,52.295486,53.1631,54.18477,54.994907,55.6149,56.050285,56.294594,56.283585,56.169693,56.182808,56.4237,56.840225,57.393143,58.16862,59.016502,59.739952,60.229637,60.54689,60.84536,61.212193,61.76703,62.574844,63.564095,64.56683,65.3999,65.977036,66.35126,66.61187,66.80125,67.008835,67.28107,67.62067,68.010025,68.41436,68.80531,69.21889,69.63505,70.03692,70.39044,70.67388,70.91018,71.13948,71.38938,71.64732,71.89099,72.10085,72.25914,72.35971,72.42703,72.48712,72.536255,72.573425,72.59187,72.58766,72.55967,72.499405,72.385254,72.26149,72.15622,72.09961,72.11221,72.18037,72.25854,72.3266,72.36943,72.38739,72.3889,72.39203,72.41619,72.46552,72.5204,72.55339,72.588745,72.64046,72.72705,72.85446,72.99997,73.129654,73.196884,73.203735,73.15431,73.00401,72.78494,72.60994,72.508965,72.46537,72.452194,72.39111,72.226776,71.96414,71.6476,71.31717,70.97869,70.50955,69.83671,68.89371,67.68693,66.364365,65.17522,64.305504,63.6512,63.13825,62.912823,62.866898,62.829575,62.837067,62.86976,62.948116,63.16693,63.634983,64.34651,65.23455,66.18809,67.005936,67.66225,68.1776,68.43355,68.5004,68.49271,68.464096,68.46034,68.443695,68.4279,68.42885,68.45001,68.49274,68.55391,68.618645,68.67494,68.702896,68.69693,68.65253,68.56456,68.420425,68.220985,68.01201,67.79907,67.61832,67.49844,67.48074,67.54445,67.60643,67.620705,67.485985,67.107086,66.39462,65.303276,63.793976,61.8563,59.646667,57.66046,55.87867,54.373512,53.26229,52.507736,51.968185,51.590492,51.345085,51.25712,51.27159,51.395157,51.57877,51.739197,51.849495,51.931454,52.009144,52.06018,51.973854,51.759293,51.23034,50.289078,49.57203,49.160824,48.820282,48.66555,45.512688,36.45751,26.238354,24.758625,24.227642,23.954826,23.923534,23.981203,24.112389,24.909538,27.803719,35.84641,40.706963,42.535393,43.71679,44.86724,45.5535,46.307194,46.75683,47.006813,47.24112,47.568333,47.87059,48.091316,48.37763,48.797836,49.280087,49.71854,50.009987,50.09149,50.0198,49.870342,49.56592,48.92527,46.928753,43.98233,40.718727,38.36721,37.467087,37.06939,37.252544,37.55052,37.878555,38.02334,37.990288,37.93943,37.94685,38.05809,38.20347,38.236717,37.95342,36.998768,35.56637,34.347874,33.505684,32.963528,32.65233,32.659832,32.841057,33.00916,33.121025,33.190384,33.229897,33.297443,33.41278,33.54297,33.6411,33.69017,33.701088,33.678585,33.638695,33.59107,33.55571,33.538483,33.53224,33.5327,33.53932,33.53887,33.53748,33.554535,33.596027,33.65129,33.70904,33.766262,33.813408,33.84652,33.87069,33.890125,33.90468,33.91136,33.906876,33.89749,33.87729,33.851685,33.829544,33.81604,33.810402,33.809444,33.809982,33.818542,33.829826,33.84281,33.861603,33.884277,33.901268,33.91304,33.927773
40.376373,40.431553,40.508293,40.762917,41.36456,42.42356,43.979416,45.691307,46.364056,46.80977,46.999302,46.49208,45.967438,46.23735,47.27589,49.100563,50.333008,51.40111,52.18045,52.55172,52.540787,52.31961,52.100685,51.7848,51.892822,52.389744,53.268097,54.27086,55.071827,55.675476,56.09381,56.32389,56.314224,56.217644,56.25815,56.523933,56.95311,57.52736,58.308876,59.153793,59.869812,60.351753,60.665497,60.967285,61.34142,61.906616,62.727386,63.727646,64.7242,65.540436,66.108795,66.47241,66.72577,66.913086,67.120575,67.39143,67.72727,68.11244,68.51544,68.90459,69.32495,69.75596,70.15407,70.48062,70.73884,70.96657,71.18501,71.42406,71.68306,71.92523,72.11029,72.233444,72.32018,72.38492,72.440125,72.4881,72.526436,72.54611,72.54361,72.52312,72.48218,72.37518,72.247856,72.13234,72.061195,72.05693,72.109,72.17384,72.228355,72.25511,72.24907,72.223404,72.19663,72.19261,72.228676,72.27724,72.31905,72.35217,72.40635,72.51494,72.67495,72.846794,72.99351,73.06108,73.062454,72.98448,72.79717,72.56361,72.402756,72.32446,72.30594,72.338974,72.31314,72.15887,71.90271,71.60616,71.290825,70.95518,70.51214,69.86742,68.96214,67.78786,66.46614,65.25423,64.35947,63.690063,63.19851,62.96173,62.88959,62.856003,62.86872,62.900627,62.971863,63.190216,63.659966,64.3822,65.30063,66.293304,67.12912,67.81116,68.29511,68.49219,68.51734,68.49228,68.44858,68.42478,68.40049,68.38863,68.39523,68.42259,68.47237,68.538635,68.60405,68.65561,68.66919,68.64407,68.58137,68.474625,68.31209,68.10195,67.89041,67.67881,67.520004,67.42729,67.44235,67.543304,67.622116,67.60819,67.40304,66.979126,66.18393,64.99884,63.430244,61.45691,59.22641,57.326702,55.645317,54.236942,53.18441,52.46567,51.968933,51.625595,51.41558,51.350716,51.391678,51.53866,51.724785,51.858395,51.91494,51.910675,51.856483,51.773346,51.64087,51.467255,50.958115,50.022392,49.53708,49.206173,48.78409,48.938675,46.34918,37.377728,26.612843,24.804995,24.320911,24.016228,23.978931,24.049776,24.15877,25.026691,28.357365,37.327435,41.851536,43.737747,44.797092,45.609436,46.214096,46.881153,47.23828,47.50667,47.999065,48.382812,48.622833,48.85842,49.09568,49.432526,49.825157,50.212265,50.497177,50.589085,50.50275,50.313477,49.991554,49.287155,47.18061,43.825436,40.35036,38.011345,37.027023,36.655655,36.85865,37.17107,37.50569,37.685593,37.69552,37.657814,37.661293,37.757473,37.89116,37.93055,37.69386,36.832073,35.497284,34.331676,33.512047,32.966682,32.629982,32.60927,32.779926,32.95961,33.094105,33.184837,33.241966,33.32134,33.440376,33.571358,33.671555,33.72439,33.741386,33.72596,33.691315,33.64765,33.61445,33.597084,33.588913,33.586624,33.58989,33.586536,33.583984,33.6019,33.646545,33.70643,33.768364,33.8286,33.878025,33.91192,33.936554,33.95605,33.96993,33.975227,33.96814,33.95481,33.929344,33.897747,33.86957,33.85018,33.838776,33.83242,33.82823,33.832603,33.84135,33.855198,33.87768,33.904404,33.924023,33.936615,33.94843
40.42366,40.480297,40.551773,40.797447,41.391415,42.456573,44.022587,45.719234,46.367043,46.812843,47.024895,46.530552,46.004852,46.28064,47.33322,49.149956,50.353703,51.410828,52.17843,52.535202,52.510975,52.27751,52.064415,51.823044,51.953705,52.50431,53.38401,54.344345,55.143,55.726284,56.121296,56.332333,56.325768,56.25457,56.32157,56.603264,57.052086,57.662796,58.446426,59.28338,59.99063,60.46659,60.779907,61.087692,61.47119,62.04739,62.87887,63.884262,64.86914,65.664734,66.22099,66.5746,66.8241,67.01466,67.22867,67.50415,67.84056,68.223465,68.62362,69.012955,69.44454,69.878174,70.2548,70.55648,70.80456,71.020836,71.22915,71.46863,71.69651,71.89876,72.058334,72.1702,72.25392,72.32182,72.37758,72.427826,72.47086,72.49657,72.50166,72.49184,72.465355,72.39201,72.26985,72.15032,72.07413,72.06466,72.11209,72.167564,72.20593,72.21812,72.19371,72.154495,72.11791,72.09195,72.08859,72.10605,72.13147,72.153625,72.20584,72.328514,72.513275,72.70273,72.84812,72.91402,72.90779,72.7984,72.58462,72.35356,72.21135,72.16107,72.17737,72.21609,72.19211,72.06091,71.83101,71.540825,71.233185,70.909966,70.50868,69.8966,69.0244,67.887436,66.58079,65.34543,64.41453,63.72614,63.249596,62.9992,62.9018,62.872528,62.893307,62.92498,62.9904,63.211746,63.68312,64.41435,65.363045,66.39481,67.24782,67.95746,68.384094,68.5289,68.52284,68.46985,68.40552,68.36574,68.33943,68.32712,68.3315,68.357315,68.40887,68.47777,68.54175,68.58824,68.58601,68.54018,68.45607,68.32466,68.142395,67.93193,67.72446,67.52171,67.38747,67.333145,67.392456,67.53628,67.625824,67.53296,67.27902,66.81987,65.937965,64.66244,63.002773,60.944572,58.77741,56.967175,55.397556,54.095596,53.123634,52.45707,52.001114,51.703125,51.51828,51.477436,51.556164,51.71819,51.905197,52.030888,52.03028,51.932304,51.740845,51.50453,51.25725,51.044937,50.557007,49.62142,49.039665,49.056725,48.745445,49.029877,46.80219,38.007225,26.91124,24.84504,24.38878,24.060575,24.019455,24.097412,24.183304,25.146362,28.919806,38.444214,42.70378,44.59932,45.577972,46.166817,46.695293,47.29113,47.59231,48.01719,48.63016,48.90883,49.02761,49.31583,49.628433,49.914127,50.368637,50.761803,50.95735,50.95627,50.829605,50.62198,50.298824,49.606594,47.54252,44.02275,40.322998,37.81886,36.73449,36.397156,36.550186,36.85533,37.184677,37.38391,37.42932,37.409824,37.410965,37.486496,37.59893,37.62497,37.405724,36.60106,35.35208,34.269287,33.482082,32.939262,32.59321,32.555443,32.71372,32.89924,33.05496,33.16377,33.236916,33.327187,33.4494,33.58053,33.682182,33.73886,33.76286,33.756382,33.729973,33.694252,33.667282,33.653214,33.645344,33.64083,33.640137,33.632645,33.626846,33.643147,33.688362,33.75041,33.814545,33.876297,33.92692,33.96131,33.98651,34.006386,34.01995,34.023922,34.01384,33.99592,33.964493,33.9263,33.891556,33.865757,33.848003,33.835617,33.826065,33.8252,33.82978,33.84233,33.86602,33.894592,33.915703,33.929024,33.93856
40.47057,40.52827,40.598675,40.839462,41.42811,42.498898,44.067604,45.737568,46.372936,46.816822,47.045643,46.57222,46.055954,46.339775,47.396767,49.149548,50.3643,51.415558,52.166107,52.506886,52.46805,52.224308,52.021683,51.865005,52.021202,52.632706,53.50756,54.408157,55.197052,55.758076,56.126404,56.317154,56.31623,56.274788,56.37168,56.669205,57.133896,57.780804,58.562843,59.388382,60.086388,60.55887,60.874947,61.190376,61.58277,62.16738,63.004017,64.00416,64.97238,65.74858,66.291855,66.63913,66.89027,67.09088,67.31872,67.60498,67.94666,68.32942,68.72432,69.11952,69.558205,69.977005,70.33263,70.62272,70.86277,71.06395,71.24806,71.451485,71.63586,71.80521,71.95735,72.07727,72.16287,72.23,72.28417,72.33687,72.38967,72.430084,72.45265,72.46187,72.45183,72.41419,72.309906,72.19608,72.121765,72.11214,72.15724,72.209946,72.23854,72.232285,72.18576,72.125984,72.07475,72.034096,72.003876,71.99016,71.99816,71.999855,72.03531,72.159195,72.35924,72.55608,72.68907,72.749756,72.732765,72.608475,72.38759,72.16344,72.03711,72.00688,72.04365,72.04942,72.005165,71.90173,71.70892,71.42441,71.11441,70.80296,70.42935,69.86535,69.03734,67.93962,66.66315,65.41506,64.44511,63.74089,63.25828,62.99681,62.888756,62.86058,62.889233,62.922245,62.988136,63.205486,63.670692,64.40693,65.38008,66.44484,67.31917,68.04589,68.402466,68.496414,68.468735,68.39525,68.317566,68.272,68.23987,68.21918,68.21126,68.22646,68.27603,68.34996,68.41754,68.46682,68.45596,68.38724,68.28008,68.125824,67.925476,67.71762,67.51901,67.33569,67.2312,67.22172,67.32944,67.51397,67.60373,67.40078,67.10583,66.6173,65.65017,64.29063,62.534958,60.37857,58.306747,56.58335,55.12281,53.92839,53.053444,52.463013,52.06233,51.815506,51.658527,51.652287,51.76107,51.937798,52.142986,52.28,52.233604,52.043602,51.71966,51.346573,50.97399,50.687675,50.192368,49.231056,48.47994,48.634422,48.57747,48.96118,46.965073,38.435913,27.216827,24.905659,24.450836,24.108782,24.062405,24.139069,24.200802,25.254612,29.408415,39.14645,43.29828,45.148987,46.07399,46.55073,46.999893,47.576557,47.885178,48.440628,48.98356,49.1541,49.22445,49.51438,49.89672,50.29245,50.747726,51.107494,51.290585,51.22181,51.01362,50.819817,50.516335,49.876225,48.04725,44.637203,40.66028,37.813545,36.67529,36.32349,36.383587,36.64171,36.954445,37.167107,37.24544,37.25283,37.256256,37.3134,37.39129,37.377335,37.13273,36.34664,35.17009,34.174828,33.420612,32.87818,32.53267,32.48862,32.638073,32.828022,33.001617,33.12071,33.204918,33.30223,33.425056,33.55403,33.655006,33.71422,33.744583,33.74725,33.731018,33.70691,33.69072,33.684452,33.680264,33.67485,33.66974,33.656666,33.64486,33.656136,33.69846,33.759537,33.82346,33.88533,33.9365,33.972176,33.99971,34.022324,34.03819,34.04316,34.03167,34.010284,33.97355,33.928925,33.88725,33.85434,33.829494,33.810387,33.79496,33.78804,33.786835,33.79544,33.816933,33.844162,33.864902,33.87873,33.8871
