5.237734,5.2372665,5.237812,5.2396936,5.2430215,5.2465076,5.2506847,5.2552714,5.259075,5.262948,5.2672653,5.270946,5.2739406,5.277729,5.2812996,5.283983,5.2867403,5.2888446,5.290079,5.2910776,5.2916713,5.291919,5.292077,5.2921276,5.292143,5.29222,5.29244,5.2927494,5.293029,5.293355,5.2934585,5.2932644,5.2927904,5.2917824,5.290518,5.2890663,5.286947,5.2847247,5.282793,5.280315,5.27769,5.2753706,5.2723513,5.268965,5.2660503,5.2626877,5.2588825,5.2555346,5.252185,5.2481833,5.2444572,5.2412367,5.2373686,5.233549,5.23035,5.2265925,5.2225833,5.2191553,5.2153378,5.210687,5.2063565,5.202456,5.1977816,5.193301,5.189357,5.1845064,5.1796603,5.175705,5.1712193,5.166784,5.163353,5.1598797,5.15621,5.153156,5.150444,5.1474266,5.1448936,5.1430016,5.1409492,5.1392365,5.1380706,5.13694,5.136162,5.1358137,5.1355114,5.135272,5.1350937,5.134886,5.134701,5.134622,5.1346045,5.134899,5.1356516,5.136575,5.1380324,5.139998,5.141897,5.1440854,5.147028,5.150158,5.153336,5.157486,5.161825,5.1656685,5.170554,5.1761045,5.18109,5.1866713,5.192674,5.197691,5.20263,5.2082148,5.213156,5.217441,5.22253,5.227274,5.2310195,5.23529,5.239423,5.2426434,5.246031,5.2494683,5.2522254,5.2547984,5.257658,5.260156,5.262253,5.2647147,5.267001,5.2687874,5.2710333,5.2735825,5.27586,5.278567,5.281806,5.2847834,5.2877274,5.291397,5.2950172,5.2982855,5.3020697,5.305727,5.3087797,5.312372,5.3162785,5.319645,5.323208,5.327328,5.330996,5.334259,5.337899,5.340862,5.3428974,5.345372,5.347884,5.34999,5.3526363,5.3557444,5.358594,5.361925,5.3659687,5.369693,5.37316,5.377154,5.3808413,5.384017,5.38776,5.3914137,5.394334,5.3975935,5.4009686,5.4036655,5.406163,5.408471,5.4098644,5.410467,5.410885,5.4110136,5.410948,5.410709,5.410264,5.4097805,5.4092703,5.408698,5.408161,5.4076414,5.4063683,5.4046044,5.4029994,5.400729,5.398266,5.396185,5.3931484,5.3896775,5.386757,5.383029,5.3783746,5.3736343,5.3674817,5.359996,5.3532224,5.3472605,5.339956,5.3328247,5.327014,5.320112,5.313035,5.307279,5.300932,5.2938423,5.287579,5.2814865,5.274205,5.2674437,5.261691,5.2546506,5.247677,5.241961,5.235141,5.227817,5.2215843,5.214759,5.206992,5.200144,5.1937933,5.1864247,5.1797895,5.1743393,5.167827,5.1616325,5.1568403,5.1515856,5.146311,5.1419983,5.1374397,5.132292,5.1277494,5.1236525,5.11887,5.114503,5.1109447,5.1066256,5.102148,5.098321,5.0940695,5.0895348,5.0856647,5.0816336,5.0770316,5.0729365,5.069281,5.064997,5.0610256,5.0577583,5.053826,5.0498056,5.046467,5.0427127,5.0385284,5.0347996,5.030895,5.026402,5.022428,5.0189867,5.0149517,5.011201,5.0081615,5.0044274,5.0005326,4.9973087,4.9937096,4.989805,4.986484,4.983235,4.9794445,4.9760466,4.9731855,4.970109,4.9672947,4.9648542,4.961751,4.9584026,4.95564,4.952856,4.9499874,4.9476776,4.945774,4.9436436,4.9416437,4.9398613,4.9374733,4.9352055,4.933632,4.9318843,4.93013,4.928688,4.9271555,4.9255486,4.924331,4.923521,4.9226665,4.921851,4.9210744,4.9201946,4.919203,4.918189,4.9168024
5.2533073,5.252501,5.2527685,5.254324,5.2573423,5.2605853,5.2644796,5.268667,5.27203,5.2754,5.279062,5.282213,5.284996,5.288518,5.291767,5.29414,5.2964826,5.298135,5.2989945,5.299568,5.299753,5.299721,5.2996492,5.2995358,5.2995005,5.2995863,5.2999067,5.300391,5.300845,5.301386,5.301711,5.301691,5.301405,5.300555,5.2993817,5.2980056,5.295921,5.2936783,5.291701,5.2891455,5.286421,5.2840033,5.280861,5.277332,5.2742887,5.270776,5.2667856,5.2632627,5.259738,5.2555313,5.2516303,5.2482753,5.244276,5.240345,5.237052,5.233186,5.229047,5.2254877,5.221506,5.216615,5.212018,5.2078333,5.202798,5.1979647,5.1937127,5.1884975,5.1833067,5.179085,5.1743593,5.1697006,5.1660795,5.1624207,5.1585846,5.155422,5.1526375,5.149532,5.1469135,5.144947,5.142802,5.1410036,5.139781,5.138617,5.137835,5.137498,5.137189,5.1369314,5.136735,5.1365204,5.1363497,5.1362953,5.1362944,5.1366005,5.1373887,5.13838,5.139981,5.1421366,5.1442027,5.146585,5.1497655,5.153122,5.156514,5.1609535,5.1656117,5.169748,5.17502,5.1810293,5.1864357,5.1924505,5.198889,5.2042446,5.209487,5.2154083,5.2206516,5.2251983,5.2306128,5.235693,5.239735,5.24437,5.2488995,5.2524614,5.2562356,5.2601023,5.2632294,5.266162,5.2694445,5.27233,5.274758,5.27761,5.28026,5.2823305,5.2848835,5.2877374,5.2902718,5.293274,5.296879,5.30021,5.3035088,5.307625,5.3116827,5.315339,5.3196106,5.323758,5.3272142,5.3313,5.33574,5.339555,5.3436074,5.3482904,5.3524647,5.3562036,5.3604193,5.363927,5.3664274,5.3694453,5.3724747,5.3749895,5.3780975,5.3816814,5.3849244,5.3886695,5.3931756,5.3973036,5.401129,5.4055347,5.4095964,5.41308,5.4171896,5.4211955,5.424388,5.4279475,5.431629,5.434572,5.437313,5.4398603,5.441412,5.4421062,5.442566,5.4426556,5.442512,5.4421253,5.441481,5.440817,5.4400997,5.4392996,5.438567,5.4378557,5.436328,5.4343076,5.432477,5.4299364,5.427223,5.4249535,5.421691,5.418024,5.414983,5.411128,5.4063826,5.4015803,5.3953023,5.38766,5.3807454,5.374651,5.367177,5.3598824,5.3539457,5.3469124,5.3397007,5.3338256,5.3273134,5.3200145,5.3135567,5.307266,5.2997527,5.292778,5.2868423,5.279602,5.2724247,5.2665105,5.259435,5.2518077,5.245304,5.2382145,5.230146,5.2230177,5.2163944,5.208722,5.201831,5.1961784,5.189454,5.183075,5.1781387,5.172695,5.1672196,5.162759,5.158093,5.152874,5.1482844,5.144124,5.139221,5.1347218,5.131068,5.126661,5.1221304,5.1182833,5.1140547,5.1095715,5.1057463,5.1017594,5.097212,5.093172,5.089575,5.085372,5.081482,5.0782814,5.074393,5.070363,5.066976,5.0631285,5.0588007,5.054931,5.0508795,5.0462294,5.042133,5.0385933,5.0344524,5.0306187,5.027526,5.0237246,5.0197706,5.016512,5.01287,5.008953,5.00566,5.0024567,4.9987707,4.9955363,4.992883,4.9900646,4.9874907,4.985243,4.9822187,4.978823,4.97598,4.973131,4.9702215,4.967908,4.966024,4.9639397,4.9620075,4.960308,4.9579797,4.955732,4.954163,4.9523964,4.950594,4.9490967,4.9474993,4.9458284,4.9444885,4.943349,4.9419518,4.9405475,4.9392614,4.9377127,4.936251,4.9351444,4.9335628
5.2715483,5.2703424,5.270261,5.2713795,5.2739334,5.276785,5.280315,5.284178,5.287285,5.290368,5.2936764,5.2965446,5.2992096,5.3025184,5.3054347,5.307437,5.309243,5.3103056,5.3106985,5.3107224,5.3103294,5.309861,5.3094606,5.309142,5.309087,5.309254,5.309763,5.310485,5.3111362,5.3119144,5.3124504,5.3125606,5.312369,5.311554,5.3103666,5.3089685,5.3068075,5.3044453,5.3023415,5.2996206,5.296724,5.2941613,5.2908535,5.28716,5.283977,5.2802563,5.275963,5.272146,5.2683735,5.263944,5.2598886,5.2564087,5.252225,5.2481003,5.2446613,5.240641,5.2363415,5.2326384,5.228483,5.223349,5.2184973,5.2140503,5.2086987,5.203578,5.199087,5.1936035,5.1881647,5.1837454,5.1784673,5.1731586,5.1691236,5.1651435,5.1609793,5.1575336,5.154541,5.151254,5.14853,5.1465125,5.14435,5.1426077,5.141485,5.1405106,5.140018,5.139967,5.139954,5.1400023,5.1399865,5.1397734,5.139619,5.1396,5.139611,5.139904,5.1406994,5.1417437,5.143482,5.1458282,5.1480613,5.1506386,5.1540556,5.157632,5.1612177,5.1659393,5.170925,5.1753626,5.1810217,5.187511,5.193387,5.1998806,5.206792,5.212512,5.2180758,5.224346,5.229894,5.2346983,5.2404304,5.2458353,5.250163,5.255143,5.260066,5.2639875,5.26816,5.2724724,5.2759876,5.279292,5.2830057,5.2862835,5.289055,5.292303,5.295315,5.2976646,5.30052,5.3036814,5.3064823,5.3097982,5.3137918,5.317499,5.3211746,5.3257637,5.3302956,5.3343806,5.339196,5.343904,5.347831,5.352496,5.357563,5.3619013,5.3665295,5.371874,5.3766475,5.380956,5.3858547,5.390004,5.3930497,5.396708,5.4003496,5.403349,5.4070053,5.41115,5.414849,5.4190717,5.4241123,5.428707,5.432953,5.437846,5.442356,5.446219,5.4507823,5.455229,5.458764,5.4626894,5.4667377,5.4699802,5.47301,5.4758577,5.4776235,5.4784503,5.4789867,5.4790545,5.478838,5.4782963,5.4774294,5.4765596,5.475601,5.474531,5.4735646,5.472616,5.470785,5.4684753,5.466401,5.46357,5.460597,5.4581323,5.454649,5.450796,5.4476385,5.443665,5.438834,5.4339743,5.4275694,5.4197683,5.4127064,5.4064693,5.39882,5.3913527,5.3852777,5.3780956,5.3707333,5.3647223,5.3580184,5.350477,5.3437862,5.337244,5.329422,5.322156,5.3159633,5.3084297,5.3009605,5.294791,5.2874146,5.2794714,5.272708,5.265357,5.2569847,5.2495713,5.242676,5.2347045,5.2275653,5.2217155,5.214793,5.208246,5.203171,5.197526,5.191826,5.187189,5.1823525,5.1769557,5.17222,5.167928,5.1628914,5.158279,5.154526,5.15002,5.145422,5.141542,5.1373296,5.1328945,5.1291103,5.125162,5.120664,5.1166744,5.113125,5.1089964,5.1051817,5.1020374,5.098155,5.094061,5.090578,5.086568,5.082011,5.077922,5.073645,5.068751,5.0644574,5.0607557,5.056443,5.052473,5.049287,5.04537,5.041292,5.037929,5.0341754,5.030176,5.026854,5.0236397,5.019993,5.0168467,5.014306,5.011608,5.0091257,5.006937,5.0039654,5.0006084,4.9977913,4.9949994,4.992078,4.989689,4.987767,4.9856772,4.98378,4.9821463,4.9798613,4.9776244,4.976058,4.974271,4.9724264,4.970889,4.9692383,4.9675193,4.966097,4.964738,4.9629602,4.9611254,4.959462,4.9574385,4.955475,4.9539337,4.951909
5.290452,5.288948,5.2886057,5.2893996,5.291614,5.294181,5.2974963,5.3012915,5.304453,5.3076167,5.3110313,5.3139434,5.316554,5.319689,5.3222876,5.3239093,5.3251762,5.3255177,5.325177,5.3243294,5.322988,5.321772,5.3207197,5.3198376,5.3194695,5.3194914,5.3199778,5.3207984,5.3215637,5.322505,5.323208,5.323432,5.3233075,5.322504,5.321291,5.319867,5.3176346,5.3151684,5.3129625,5.3101006,5.3070283,5.304284,5.300729,5.2967377,5.29328,5.289199,5.2844324,5.2801685,5.275977,5.271096,5.2666626,5.262873,5.2583127,5.253869,5.250232,5.246048,5.241639,5.2378607,5.2336197,5.228352,5.2233353,5.218702,5.213096,5.207711,5.2029734,5.197194,5.1914597,5.1867905,5.180938,5.174964,5.1704836,5.166129,5.161582,5.157821,5.1545963,5.1511297,5.14834,5.1463203,5.144219,5.142619,5.1416655,5.140955,5.1408377,5.1411543,5.141533,5.142013,5.1423016,5.142206,5.1421733,5.1422567,5.142327,5.1426764,5.1435423,5.144675,5.1465435,5.149025,5.151353,5.154035,5.1576176,5.1614075,5.1652355,5.170359,5.175824,5.18069,5.1868796,5.193907,5.200199,5.207113,5.214447,5.2205105,5.226384,5.232999,5.23885,5.243911,5.249959,5.255695,5.260321,5.265667,5.270993,5.275267,5.2798204,5.2845507,5.28843,5.2920885,5.2962217,5.299868,5.3029194,5.306454,5.309703,5.312235,5.3152933,5.318675,5.3216825,5.3252454,5.329543,5.333542,5.3375053,5.3424606,5.3473625,5.3517885,5.357058,5.3622494,5.36658,5.371729,5.3773136,5.3820853,5.3871813,5.393075,5.3983536,5.403148,5.408633,5.4133396,5.416866,5.421097,5.425294,5.4287386,5.4329023,5.437566,5.4416833,5.4463415,5.4518633,5.456878,5.461507,5.4668493,5.471781,5.476,5.4809875,5.4858437,5.4896975,5.4939547,5.4983363,5.501851,5.505151,5.5082903,5.5102806,5.511252,5.511885,5.511957,5.51169,5.5110226,5.5099607,5.508903,5.507719,5.5063877,5.5051913,5.5040045,5.5018845,5.4993105,5.497026,5.493954,5.490772,5.4881554,5.484503,5.480511,5.477271,5.473214,5.468331,5.463437,5.456935,5.449009,5.4418297,5.4354763,5.4276834,5.420072,5.413874,5.406555,5.3990483,5.3929024,5.386014,5.3782425,5.371336,5.364564,5.356453,5.3489027,5.342454,5.3346004,5.326812,5.3203793,5.3127193,5.3045206,5.297573,5.290022,5.281411,5.273776,5.266675,5.258488,5.251179,5.2451954,5.2381525,5.2315025,5.2263346,5.22054,5.214665,5.209882,5.2048597,5.1992292,5.194285,5.1898155,5.184633,5.179924,5.176079,5.171473,5.166802,5.1628838,5.158678,5.1542845,5.150543,5.1466427,5.1422205,5.1383095,5.134815,5.1307483,5.126976,5.1238556,5.119932,5.11572,5.1121016,5.1078796,5.1030354,5.0986776,5.0941267,5.08893,5.0843863,5.0804834,5.0759573,5.071817,5.0685167,5.064456,5.0602303,5.056751,5.0528708,5.0487666,5.0453863,5.042123,5.038459,5.0353127,5.0327563,5.029999,5.0274186,5.0251265,5.0220995,5.018744,5.0159483,5.013195,5.010246,5.0077715,5.0057955,5.0036798,5.0017967,5.000204,4.9978952,4.9955754,4.993934,4.992049,4.9901075,4.9884996,4.9867673,4.984968,4.9834876,4.982088,4.9802184,4.9782486,4.9764566,4.9742804,4.9719763,4.969905,4.9673676
5.3088074,5.3071537,5.3067036,5.307369,5.309494,5.312035,5.3153744,5.3192635,5.322546,5.325874,5.3294525,5.332439,5.335044,5.3380537,5.3403797,5.341666,5.342517,5.3419743,5.3403845,5.3380613,5.3351574,5.332739,5.33055,5.3285065,5.3272715,5.326667,5.326684,5.327342,5.3281107,5.3291245,5.330003,5.33043,5.330531,5.329936,5.3288593,5.327571,5.325457,5.3230596,5.3209047,5.318062,5.3148937,5.311962,5.30806,5.3035555,5.299591,5.2949595,5.2895985,5.2848024,5.2800045,5.274303,5.2690854,5.2646656,5.2595177,5.2547126,5.250905,5.246657,5.242299,5.238594,5.2344294,5.2291784,5.224074,5.2192717,5.2133446,5.2075295,5.2023344,5.195956,5.189598,5.1844115,5.178398,5.172373,5.167719,5.163089,5.158303,5.1544466,5.15117,5.147702,5.1449614,5.143005,5.1410007,5.1395044,5.138626,5.138002,5.138001,5.1384387,5.138939,5.139595,5.1401157,5.140354,5.140652,5.1409655,5.141197,5.141761,5.1428585,5.144185,5.1462426,5.1488457,5.151215,5.153928,5.1576424,5.161727,5.165982,5.171815,5.178108,5.1836977,5.1907883,5.1985283,5.205147,5.2123823,5.220052,5.2264266,5.2325983,5.239568,5.245756,5.251112,5.2575455,5.263715,5.268753,5.274626,5.28049,5.2851753,5.2901707,5.2953715,5.299653,5.3037205,5.3083696,5.312439,5.3157215,5.3194284,5.322772,5.3253775,5.328533,5.3320503,5.3352013,5.338931,5.3434367,5.347631,5.3517885,5.3569865,5.362135,5.3667884,5.372399,5.3779697,5.3826103,5.388099,5.3940306,5.3990965,5.4045,5.4107647,5.4164033,5.421547,5.4274693,5.4326086,5.4365187,5.4412136,5.4458714,5.449687,5.454273,5.4593754,5.463849,5.46887,5.474789,5.480151,5.485098,5.49082,5.496106,5.500622,5.5059505,5.511125,5.5152225,5.51974,5.5243874,5.528121,5.5316515,5.5350485,5.53724,5.538346,5.539075,5.539159,5.538851,5.53808,5.536849,5.5356183,5.5342326,5.532665,5.5312557,5.5298595,5.5274925,5.524706,5.5222564,5.5190067,5.515678,5.5129566,5.5091753,5.5050817,5.501793,5.497688,5.49279,5.4878955,5.4813256,5.4733067,5.466038,5.4596004,5.451698,5.4439726,5.437674,5.4302397,5.4226017,5.416334,5.4092827,5.4013143,5.3942256,5.3872547,5.378887,5.37108,5.364397,5.35625,5.3481717,5.3415074,5.3335967,5.3251805,5.3180866,5.310384,5.3016024,5.2938156,5.2865677,5.2782326,5.27081,5.264737,5.25762,5.2509108,5.2456865,5.239791,5.2337914,5.2289023,5.2237473,5.217954,5.2128587,5.2082376,5.2028875,5.198039,5.1940794,5.1893644,5.184618,5.180665,5.176464,5.172117,5.168436,5.1646175,5.16034,5.156576,5.1531796,5.1491733,5.14541,5.1422834,5.138296,5.1339483,5.1301756,5.1257195,5.120565,5.115922,5.111084,5.1055646,5.1007547,5.0966444,5.091898,5.08759,5.0841904,5.080001,5.07565,5.0720797,5.068096,5.063904,5.0604734,5.057164,5.053475,5.050323,5.047758,5.0449476,5.042277,5.0398984,5.0367217,5.033174,5.0302086,5.0272317,5.0241528,5.021693,5.019744,5.0176945,5.0159016,5.014418,5.012089,5.009641,5.0078917,5.005876,5.0038123,5.0021195,5.0003,4.998426,4.996891,4.9954233,4.9934225,4.9912877,4.9893456,4.986953,4.9844227,4.9821825,4.9794407
5.3300705,5.3283467,5.3276615,5.328227,5.3303075,5.3327417,5.336048,5.339998,5.3434014,5.346923,5.350775,5.353997,5.356765,5.3598747,5.362148,5.3632693,5.3638124,5.3630404,5.3614388,5.3590307,5.3559847,5.353265,5.350072,5.346812,5.3446584,5.3433056,5.3426447,5.342881,5.343405,5.3442163,5.344981,5.345348,5.345331,5.3445673,5.3433256,5.34187,5.339554,5.3369703,5.3346577,5.331584,5.3281083,5.324849,5.3204556,5.3153152,5.310753,5.305414,5.2991867,5.293535,5.2877707,5.2807674,5.2742796,5.2688017,5.262515,5.256789,5.25235,5.24755,5.2428713,5.2390623,5.2349005,5.229743,5.224745,5.2200484,5.2142344,5.208493,5.203332,5.1969547,5.1905446,5.185282,5.1792617,5.1731653,5.168335,5.1634455,5.158332,5.1541843,5.150628,5.146847,5.1438456,5.141695,5.1394715,5.137772,5.136736,5.135959,5.13587,5.1363,5.1368217,5.1375914,5.138297,5.1387596,5.1393137,5.139842,5.1402416,5.1410046,5.1422377,5.1435957,5.145611,5.1480494,5.1502147,5.152711,5.156267,5.1603675,5.16479,5.1709957,5.1777883,5.183838,5.191487,5.199935,5.2072783,5.2153053,5.2238064,5.2308435,5.2376175,5.245199,5.251849,5.25754,5.2643013,5.2707167,5.2759304,5.281996,5.2880354,5.2928505,5.297988,5.3033643,5.3078346,5.312123,5.317115,5.321604,5.3253355,5.329651,5.333637,5.3367825,5.340473,5.3444414,5.3479233,5.3520966,5.357135,5.3618135,5.3664484,5.372267,5.378056,5.3833036,5.389657,5.3958473,5.400827,5.4067125,5.41304,5.41842,5.42412,5.4307113,5.436657,5.442106,5.448418,5.4539614,5.458246,5.4634123,5.468563,5.4727993,5.4778643,5.4834538,5.4883156,5.493705,5.50004,5.5057874,5.511101,5.5172653,5.522974,5.527848,5.5335903,5.539159,5.543564,5.5484056,5.5533733,5.557365,5.56116,5.5648446,5.5672693,5.568563,5.569457,5.569626,5.5693474,5.5685425,5.567202,5.565845,5.5642905,5.5625,5.560871,5.559234,5.5565653,5.553505,5.5508394,5.5473514,5.543823,5.5409565,5.5370054,5.532773,5.5294094,5.5252295,5.520301,5.515405,5.508777,5.50069,5.4933667,5.486872,5.478892,5.4710693,5.464674,5.457116,5.4493275,5.442913,5.43567,5.4274673,5.42016,5.4129567,5.4042854,5.396175,5.389221,5.380747,5.37236,5.36546,5.3573017,5.348681,5.34146,5.333632,5.3247156,5.316811,5.3094625,5.3010335,5.2935486,5.287431,5.2802844,5.2735553,5.268301,5.2623262,5.256214,5.2512217,5.245919,5.2399287,5.2346354,5.22981,5.224231,5.219186,5.215067,5.210174,5.2052794,5.201227,5.1969614,5.192576,5.1888695,5.185029,5.180741,5.1769857,5.173613,5.1696587,5.165929,5.162798,5.1586666,5.1540775,5.150094,5.145359,5.1398664,5.1349235,5.1297865,5.123934,5.1188393,5.114487,5.1094685,5.104921,5.1013303,5.0968904,5.0922604,5.0884466,5.0841885,5.07971,5.076055,5.072533,5.0686297,5.065299,5.0625677,5.05952,5.0566053,5.054044,5.050617,5.0467873,5.0435843,5.0403347,5.036989,5.034346,5.032239,5.0300436,5.0281577,5.0266285,5.0242414,5.0217333,5.019931,5.01786,5.0157623,5.014062,5.0122266,5.010295,5.008663,5.0070863,5.004898,5.0025454,5.0004153,4.997777,4.9950075,4.99259,4.9896555
5.3523026,5.3504157,5.3496027,5.350119,5.352167,5.3545213,5.35785,5.362032,5.3658476,5.370089,5.374989,5.379222,5.382863,5.386939,5.389903,5.391369,5.391921,5.391128,5.3897905,5.387992,5.3856463,5.3833427,5.380325,5.377187,5.3751125,5.373756,5.3730583,5.3732204,5.373654,5.374316,5.374859,5.374988,5.374647,5.3734922,5.37191,5.370116,5.3674154,5.3644953,5.361908,5.358509,5.3547387,5.351261,5.346632,5.3412485,5.3364525,5.3307533,5.3237305,5.317029,5.3101597,5.3017025,5.2937145,5.2868233,5.278695,5.271234,5.2655716,5.259587,5.254093,5.2499285,5.2456484,5.2406645,5.236018,5.2317715,5.226608,5.221553,5.217009,5.211358,5.205622,5.200878,5.195343,5.1895943,5.1849318,5.1801424,5.1749487,5.170564,5.1667137,5.162491,5.159005,5.1564226,5.1536107,5.1512547,5.149649,5.1482115,5.147482,5.1474643,5.147594,5.148096,5.1487155,5.1491566,5.14975,5.150355,5.1508265,5.1516285,5.1527567,5.153885,5.155512,5.157341,5.1588774,5.160728,5.163601,5.1672115,5.171323,5.1772804,5.183956,5.1899633,5.197588,5.2062645,5.2140636,5.222629,5.231764,5.23935,5.246665,5.254822,5.261921,5.267951,5.2750177,5.281596,5.2868595,5.292915,5.298852,5.303529,5.308469,5.3135757,5.317794,5.3218465,5.3265963,5.3309655,5.3347216,5.339189,5.3434377,5.3468432,5.3508797,5.355301,5.3592367,5.3639774,5.3696556,5.3748465,5.3799057,5.386181,5.3923607,5.397934,5.404623,5.4110126,5.4160395,5.4219284,5.428232,5.433612,5.439357,5.446082,5.452224,5.457893,5.4645247,5.470436,5.475092,5.4807215,5.4863567,5.4910054,5.4965897,5.5027914,5.5082026,5.514187,5.5211043,5.527252,5.532855,5.539342,5.5453606,5.5505123,5.556591,5.562501,5.5671864,5.5723457,5.577677,5.5820065,5.586175,5.590315,5.593112,5.5946236,5.5957327,5.5960674,5.595904,5.595195,5.593896,5.592537,5.5909457,5.58905,5.5872774,5.5854535,5.5825195,5.579205,5.576339,5.572632,5.56892,5.56592,5.5618067,5.557434,5.5539813,5.5497174,5.5447516,5.53986,5.5331917,5.525079,5.5177517,5.5112457,5.5032425,5.495378,5.4889297,5.4812903,5.473386,5.466854,5.45947,5.451101,5.443637,5.436274,5.4273863,5.419056,5.4119096,5.403207,5.394614,5.3875647,5.379258,5.370529,5.3632526,5.355381,5.346429,5.3385,5.331147,5.3227377,5.3152876,5.3092012,5.3021035,5.2954125,5.2901692,5.284156,5.2779713,5.2729063,5.267483,5.2613263,5.255863,5.250852,5.2450557,5.2398214,5.2355537,5.2304864,5.2254367,5.221278,5.2169304,5.2124667,5.2086797,5.204749,5.2003384,5.196471,5.193019,5.189006,5.1852236,5.1820216,5.177721,5.1729054,5.1687336,5.1637735,5.15802,5.1528473,5.1474886,5.1413774,5.1360397,5.1314545,5.126174,5.1213865,5.1175947,5.1128955,5.107973,5.103902,5.0993543,5.094583,5.0906887,5.086892,5.0826683,5.079046,5.076048,5.0726604,5.069415,5.0665965,5.062874,5.0587435,5.055294,5.05177,5.0481086,5.045183,5.042823,5.040361,5.038272,5.0366054,5.0340843,5.0314574,5.0295477,5.0273595,5.0251627,5.0233994,5.0214815,5.0194488,5.017725,5.0160656,5.0137463,5.011253,5.009015,5.0062337,5.003311,5.000763,4.9977093
5.371567,5.369467,5.368822,5.369436,5.371587,5.374108,5.3777037,5.382415,5.3869686,5.3924212,5.399038,5.404933,5.4100533,5.4158506,5.420195,5.422525,5.423582,5.4227448,5.421145,5.4195356,5.417491,5.4154963,5.4135256,5.4116497,5.410526,5.4099474,5.40996,5.410561,5.4112473,5.4120483,5.412542,5.412532,5.4120135,5.4106407,5.4088674,5.406892,5.403966,5.400844,5.3981,5.394554,5.3907366,5.3873067,5.3828564,5.377743,5.3731604,5.367586,5.3601704,5.352669,5.3450117,5.335518,5.326381,5.318289,5.3083096,5.298948,5.291955,5.2846575,5.2782297,5.2736373,5.26919,5.264385,5.26015,5.2564554,5.252095,5.2478747,5.2440586,5.239293,5.234433,5.230401,5.2256584,5.220636,5.216469,5.212121,5.2071905,5.202824,5.1988983,5.1944246,5.1905465,5.1875644,5.184123,5.1809735,5.178638,5.1762924,5.174592,5.1738195,5.1732335,5.173113,5.1733627,5.173565,5.1739664,5.1744566,5.1748586,5.175519,5.1763787,5.1771755,5.178326,5.1794577,5.180271,5.181343,5.183293,5.1861095,5.189596,5.1948805,5.201004,5.2066097,5.213815,5.222162,5.229761,5.2381635,5.2472596,5.2549353,5.2624216,5.2708445,5.2782183,5.2845097,5.291847,5.2985997,5.3039336,5.3099895,5.3157935,5.3202624,5.3248773,5.329484,5.333172,5.33667,5.3407173,5.344412,5.347582,5.3513923,5.355085,5.358094,5.361919,5.3664904,5.3707876,5.3759336,5.3820286,5.387476,5.3926477,5.398878,5.40485,5.4101553,5.4164085,5.4223456,5.427067,5.4324884,5.438279,5.44329,5.448778,5.455391,5.4615602,5.467308,5.4741144,5.4802794,5.485222,5.4911947,5.4971676,5.50209,5.5080767,5.5148416,5.5208216,5.5274773,5.5350056,5.541478,5.5472336,5.5538473,5.5599813,5.5652533,5.571494,5.577593,5.582449,5.5878315,5.593479,5.5981503,5.6027184,5.6073794,5.610606,5.612322,5.6136503,5.614187,5.614189,5.6136746,5.6125417,5.6112823,5.6097755,5.6079063,5.606099,5.6041985,5.601118,5.597644,5.5946507,5.590802,5.5869713,5.583886,5.5796657,5.5751925,5.5716763,5.567351,5.5623646,5.5574837,5.55079,5.542677,5.5353804,5.5289035,5.5209265,5.513076,5.506632,5.4989805,5.491047,5.4844804,5.477053,5.468623,5.4611006,5.453681,5.44471,5.436289,5.4290648,5.4202747,5.4116096,5.4045134,5.3961716,5.3874297,5.3801565,5.3723087,5.363393,5.3555064,5.3482084,5.339883,5.3325205,5.326502,5.3194857,5.3128557,5.307638,5.301613,5.295389,5.290284,5.2847824,5.2785187,5.2729497,5.2678137,5.261861,5.256483,5.2521086,5.246914,5.241748,5.237508,5.233097,5.228563,5.2246933,5.2206726,5.216135,5.2121325,5.208546,5.204361,5.20041,5.1970654,5.1926274,5.1876802,5.1833878,5.1782913,5.1723785,5.1670613,5.1615725,5.1553,5.149791,5.1450295,5.1395574,5.1346054,5.130682,5.125821,5.1207247,5.1165037,5.111787,5.106861,5.102844,5.098852,5.0943737,5.0905094,5.0872936,5.0836315,5.0801096,5.077057,5.0730906,5.068733,5.0651026,5.061372,5.057474,5.0543413,5.0517864,5.0491123,5.0468574,5.045084,5.042383,5.0395374,5.0374365,5.03503,5.032611,5.0306683,5.0285497,5.026363,5.024578,5.0228853,5.020526,5.018,5.0157576,5.012961,5.009995,5.007384,5.0042896
5.391919,5.390291,5.3904457,5.3919725,5.3951874,5.398777,5.403227,5.4087877,5.414259,5.421093,5.4297223,5.437605,5.4443836,5.4521866,5.4584517,5.4623747,5.46546,5.466193,5.4651794,5.4631653,5.46008,5.4571753,5.4542665,5.451336,5.449606,5.449194,5.449333,5.4499645,5.450693,5.4516315,5.4523654,5.452615,5.4524474,5.4515395,5.4502087,5.4486647,5.4462147,5.443499,5.4410996,5.4379263,5.4344454,5.4312963,5.427183,5.422351,5.4179125,5.412388,5.4051394,5.3978887,5.3903427,5.3807425,5.371349,5.36314,5.3523645,5.34175,5.333695,5.3254056,5.3183436,5.3135386,5.309082,5.3045473,5.300763,5.297716,5.2941914,5.29058,5.2869573,5.282509,5.2780676,5.274437,5.270157,5.2655745,5.2617226,5.2577076,5.253085,5.248918,5.2451468,5.2407303,5.2367954,5.2337446,5.2300577,5.226509,5.223785,5.220937,5.218596,5.2172003,5.215892,5.2149205,5.2144465,5.2140594,5.2138233,5.2138147,5.213893,5.214232,5.2148533,5.2155085,5.2166214,5.217874,5.218775,5.219528,5.220536,5.2221127,5.224446,5.2284336,5.233449,5.238205,5.244527,5.2521954,5.259402,5.2674394,5.276305,5.283923,5.2914586,5.300005,5.3075123,5.3139353,5.321349,5.3280315,5.3331947,5.3389587,5.3443513,5.3484154,5.3525047,5.35645,5.3595123,5.3623657,5.365596,5.3685274,5.3710737,5.3742266,5.377408,5.380085,5.3836417,5.38812,5.392469,5.397795,5.404098,5.409646,5.414853,5.420966,5.426618,5.4314795,5.4371414,5.4424543,5.4466553,5.4514484,5.45654,5.4609494,5.4658456,5.4718275,5.477477,5.4827824,5.489171,5.495077,5.499892,5.5057116,5.5115085,5.5162587,5.522111,5.52882,5.5348043,5.5414014,5.548985,5.5556517,5.561656,5.5685234,5.574835,5.5802298,5.5865965,5.592821,5.5978003,5.6033306,5.60919,5.6140785,5.618848,5.6237226,5.6271863,5.6292496,5.631025,5.631997,5.632366,5.632254,5.631425,5.630321,5.628997,5.6273093,5.625638,5.6238446,5.620834,5.6173587,5.6143093,5.6103516,5.6064186,5.6032867,5.5990434,5.5946217,5.591209,5.586995,5.5821514,5.577396,5.5707603,5.562762,5.5556583,5.5494404,5.5416927,5.5340023,5.527687,5.520225,5.512539,5.5061903,5.498826,5.4903374,5.4827194,5.475228,5.4661617,5.457647,5.450348,5.441478,5.432748,5.425607,5.417219,5.408434,5.401128,5.3932524,5.384308,5.3763933,5.369074,5.360729,5.3533545,5.3473263,5.3402967,5.3336396,5.3283834,5.322283,5.3159494,5.3107386,5.305129,5.2987022,5.292943,5.287611,5.2814035,5.275774,5.271186,5.2657213,5.260275,5.2558026,5.251161,5.2463956,5.2423296,5.2381134,5.2333407,5.229112,5.225327,5.220875,5.2166443,5.2130547,5.208329,5.2030983,5.1985774,5.193219,5.187031,5.1814957,5.175832,5.1693864,5.163722,5.158799,5.1531267,5.1479826,5.1439066,5.1388297,5.13346,5.1289744,5.1239367,5.118637,5.1143093,5.110058,5.1053514,5.101326,5.097967,5.0940876,5.0903206,5.0870633,5.0828624,5.0782866,5.0744934,5.0705843,5.0664773,5.0631456,5.060378,5.0574636,5.0550184,5.0531197,5.0502396,5.047224,5.045018,5.042492,5.0399,5.037758,5.035432,5.0330424,5.0310936,5.029213,5.026633,5.0239196,5.021535,5.0186124,5.0155945,5.012993,5.0098953
5.4042106,5.403349,5.4043093,5.407341,5.4130006,5.419321,5.42788,5.4374466,5.4452066,5.4535418,5.464018,5.4745455,5.484997,5.497823,5.5089216,5.5165234,5.523599,5.5278006,5.5292263,5.52896,5.5268593,5.52437,5.521666,5.5187345,5.5168996,5.5163927,5.516518,5.517315,5.5183268,5.519685,5.5208755,5.521457,5.521545,5.520693,5.519227,5.5174565,5.5146523,5.5116377,5.509103,5.5058985,5.502501,5.499462,5.4954596,5.4905195,5.485759,5.4798613,5.472146,5.464338,5.455842,5.4448996,5.4344454,5.4258137,5.414753,5.40394,5.3956423,5.3869734,5.3794565,5.374277,5.369446,5.3645506,5.360541,5.357392,5.3539042,5.350504,5.347187,5.3431754,5.339263,5.336131,5.3324747,5.328694,5.325612,5.322331,5.318408,5.3147364,5.311378,5.307272,5.303416,5.300325,5.296302,5.2920766,5.2886057,5.284707,5.2811537,5.2787795,5.276537,5.274575,5.273301,5.2722883,5.2714205,5.2709584,5.2707624,5.2708235,5.271222,5.2717237,5.2727394,5.273926,5.274764,5.2754607,5.276313,5.2776246,5.2796454,5.2830753,5.2874365,5.291666,5.2972107,5.303893,5.310182,5.317336,5.3254175,5.332511,5.339642,5.347843,5.355139,5.361456,5.3687477,5.3752995,5.380345,5.3859806,5.391119,5.3948145,5.3983107,5.4014444,5.4037423,5.4058447,5.4081593,5.4102755,5.4121833,5.4147224,5.4175115,5.4199944,5.4234567,5.427968,5.4323764,5.4376287,5.4438343,5.4493513,5.454604,5.4607644,5.4663887,5.4711742,5.476365,5.4809446,5.484526,5.488553,5.4927397,5.49632,5.500311,5.5052776,5.510071,5.514632,5.520255,5.5255632,5.5299287,5.535221,5.540516,5.5448713,5.5502825,5.5565195,5.562085,5.5681725,5.575242,5.581542,5.5872498,5.593755,5.599723,5.604847,5.6109314,5.616938,5.6217856,5.62716,5.6329126,5.637761,5.6424513,5.64722,5.6506376,5.652775,5.6547375,5.6559887,5.656645,5.6569157,5.656412,5.655466,5.6542625,5.6525984,5.650854,5.64889,5.6455755,5.6417584,5.6383905,5.6340265,5.6296997,5.62626,5.6216316,5.6168194,5.613099,5.6085253,5.6033087,5.5982494,5.591275,5.5829444,5.575623,5.5692635,5.561375,5.5535636,5.547144,5.5396013,5.5318727,5.525507,5.518124,5.5095625,5.5017924,5.4940534,5.484601,5.4757004,5.4680967,5.4589605,5.450119,5.4429913,5.4346895,5.426071,5.4189396,5.4112988,5.4026155,5.3949223,5.3878326,5.3798227,5.3727913,5.367031,5.3603334,5.3539877,5.3489566,5.343082,5.336958,5.331874,5.3261766,5.3195314,5.313532,5.307951,5.301408,5.2954245,5.2905126,5.2846413,5.2787943,5.274021,5.269106,5.2640853,5.259795,5.2553034,5.250184,5.245639,5.2415857,5.236862,5.232439,5.228738,5.223877,5.218479,5.2137823,5.208132,5.2015505,5.195647,5.1895685,5.1826196,5.1765943,5.171569,5.1658564,5.1606216,5.15633,5.1510158,5.145398,5.1407003,5.1354294,5.1298885,5.12537,5.1209583,5.1160803,5.111843,5.108184,5.1039186,5.0997686,5.0961933,5.0916615,5.086807,5.0828247,5.078713,5.074389,5.070854,5.06785,5.0646076,5.061838,5.059686,5.0564604,5.053091,5.0506163,5.047779,5.0449104,5.0425873,5.040079,5.037525,5.03545,5.033429,5.0306883,5.027857,5.0253997,5.0225005,5.019573,5.0170383,5.0140786
5.4066505,5.4061327,5.40729,5.4113216,5.418976,5.4275703,5.4401197,5.454033,5.4646187,5.474996,5.487664,5.5010586,5.515712,5.534585,5.5518694,5.564484,5.5769377,5.5857773,5.59051,5.5938177,5.5948696,5.5944257,5.593527,5.5921764,5.5911736,5.5907464,5.591076,5.592328,5.593894,5.5959716,5.597909,5.59905,5.5996304,5.59906,5.597631,5.5958185,5.5928745,5.5897818,5.5873513,5.5844445,5.581463,5.578795,5.575197,5.5704327,5.5655565,5.5594654,5.5511055,5.5422435,5.532281,5.519273,5.5068917,5.4967737,5.4846315,5.4733143,5.464695,5.45553,5.447427,5.441755,5.436434,5.4310665,5.4267282,5.423312,5.4197216,5.4166393,5.414051,5.4109406,5.4079504,5.4056053,5.4029,5.4002547,5.3982134,5.3959446,5.393017,5.3900785,5.3873262,5.3837123,5.3800144,5.376862,5.372368,5.367177,5.3626227,5.357194,5.351878,5.348097,5.3445196,5.3412304,5.3389583,5.3371735,5.3355756,5.334632,5.334158,5.3339267,5.3340607,5.334342,5.3351126,5.3358994,5.3363476,5.336991,5.3381467,5.339914,5.3423004,5.345857,5.350054,5.3540826,5.359144,5.365048,5.3705363,5.376642,5.38358,5.3897924,5.3961143,5.4034586,5.4100714,5.4158807,5.422619,5.428733,5.43349,5.438985,5.444044,5.4476023,5.4508514,5.45362,5.4555607,5.457328,5.4592247,5.4609632,5.462585,5.4648666,5.4675245,5.4699793,5.473487,5.4781003,5.4825773,5.4877377,5.49382,5.4992676,5.504436,5.5104723,5.515967,5.5206833,5.525509,5.529547,5.5327,5.5361986,5.539735,5.5426817,5.5459294,5.5499334,5.553827,5.5576344,5.562457,5.567092,5.570898,5.575569,5.5803356,5.584326,5.589293,5.5949926,5.6000414,5.6055737,5.611969,5.617634,5.622732,5.6285458,5.633936,5.638631,5.644293,5.6499825,5.6546254,5.6597357,5.6651926,5.6697855,5.674195,5.6786494,5.6818085,5.6837187,5.6855564,5.686869,5.6876807,5.6882315,5.6880417,5.6873064,5.686182,5.6843796,5.6823378,5.6799307,5.6759686,5.6715183,5.667635,5.662682,5.6578016,5.6538982,5.6486373,5.64307,5.6386614,5.633269,5.627129,5.6212754,5.6134996,5.6042876,5.5962124,5.589182,5.5805917,5.57218,5.5652733,5.557195,5.548956,5.5422096,5.534595,5.5258503,5.517863,5.509765,5.4997816,5.490361,5.482346,5.4728403,5.463827,5.456691,5.448465,5.440026,5.433096,5.425742,5.417385,5.4099665,5.403164,5.3955574,5.388917,5.38344,5.3770857,5.371049,5.36623,5.360566,5.3546276,5.3496447,5.3438263,5.336911,5.330611,5.324702,5.3177304,5.3113155,5.306026,5.299691,5.2933736,5.2882156,5.282918,5.277508,5.272871,5.2679844,5.2624226,5.2575274,5.2531986,5.2482486,5.243717,5.239977,5.235057,5.229536,5.224663,5.2186785,5.2116127,5.2052393,5.198637,5.1910887,5.184679,5.1796026,5.1739993,5.168889,5.164584,5.15924,5.1535034,5.1486206,5.1431255,5.137333,5.1326084,5.1279984,5.122899,5.11843,5.114485,5.1099024,5.105468,5.101653,5.096838,5.0916896,5.0874653,5.0830846,5.0784893,5.0747466,5.071556,5.0680475,5.064985,5.0625734,5.0589786,5.0551863,5.052328,5.04906,5.04589,5.043475,5.0409145,5.038404,5.036419,5.034459,5.0317383,5.028901,5.0264616,5.023657,5.020854,5.0183973,5.015609
5.4079103,5.4068394,5.407565,5.4113965,5.4188294,5.4269686,5.438519,5.4528847,5.465893,5.480296,5.49742,5.514134,5.531658,5.5547915,5.5772543,5.5949793,5.613806,5.6276073,5.6344786,5.640509,5.6441884,5.6455936,5.6461782,5.646038,5.6457953,5.645969,5.646927,5.648799,5.650976,5.6539354,5.657029,5.6593146,5.661357,5.662626,5.6629276,5.662903,5.6619844,5.6607256,5.6600256,5.6591263,5.6579523,5.656668,5.654625,5.6513357,5.6475477,5.642268,5.6342664,5.625292,5.6150875,5.6010237,5.5866013,5.57378,5.558195,5.543767,5.533037,5.5219836,5.512781,5.506796,5.501555,5.496797,5.493332,5.490946,5.4887185,5.4870377,5.4857664,5.4842625,5.482851,5.481778,5.480481,5.4790754,5.4778647,5.476528,5.4746723,5.472649,5.470652,5.467669,5.464209,5.4610434,5.456046,5.449812,5.444127,5.4371457,5.4298534,5.424225,5.418566,5.4130383,5.4090157,5.40578,5.402713,5.400697,5.399535,5.398614,5.3982124,5.398144,5.3986263,5.399143,5.399329,5.3996673,5.400419,5.401771,5.4037657,5.406759,5.4102964,5.413679,5.4181356,5.4238443,5.4294868,5.4348564,5.440688,5.446033,5.451489,5.4577675,5.4633675,5.4683037,5.4739447,5.478977,5.482836,5.4876842,5.4925137,5.496112,5.4996443,5.5028496,5.50515,5.5072403,5.509409,5.5113072,5.5130615,5.515393,5.5179834,5.520334,5.523654,5.5280466,5.532393,5.537752,5.544114,5.5495667,5.5542965,5.5594187,5.563838,5.567565,5.571709,5.5754776,5.578472,5.5818768,5.5853176,5.588105,5.5911064,5.5943947,5.597354,5.6004314,5.604485,5.6084824,5.611764,5.6159153,5.6202946,5.6240387,5.6287193,5.6340795,5.6388063,5.6440187,5.65007,5.6554565,5.660327,5.6659327,5.671193,5.675812,5.681449,5.687194,5.691922,5.697062,5.702367,5.7066793,5.710808,5.7149415,5.7178535,5.7195826,5.721379,5.7228575,5.7239323,5.7248178,5.7250366,5.72468,5.723737,5.721835,5.7194967,5.716671,5.7121015,5.7070613,5.702696,5.697235,5.691924,5.6876802,5.681925,5.67571,5.67066,5.6644382,5.657254,5.650421,5.641628,5.6312556,5.6221685,5.614277,5.6046863,5.5953684,5.5877676,5.578918,5.569997,5.562789,5.554761,5.54565,5.537381,5.529007,5.518708,5.5090175,5.500791,5.491075,5.4818993,5.4746504,5.4662857,5.457712,5.4506884,5.4432793,5.4348717,5.4273987,5.4205465,5.4128494,5.4060674,5.4004135,5.393816,5.3874903,5.3824,5.3763843,5.370022,5.364682,5.358667,5.351487,5.3448315,5.3385167,5.331047,5.324197,5.3185945,5.311888,5.3051157,5.2994776,5.293606,5.287526,5.2823076,5.2768817,5.270827,5.265604,5.2610445,5.2558537,5.2510757,5.247079,5.2418146,5.235877,5.2306023,5.224101,5.216422,5.209542,5.202554,5.1947618,5.188283,5.1831493,5.1776648,5.172926,5.1691303,5.164196,5.158483,5.153286,5.1473017,5.1408305,5.1355066,5.130377,5.1248617,5.1202497,5.1163597,5.1119146,5.1076345,5.103937,5.0990753,5.0936704,5.0891232,5.0843496,5.0793514,5.075353,5.072054,5.068486,5.065366,5.0628614,5.0590916,5.055023,5.0518484,5.048249,5.0448694,5.0424266,5.039953,5.037741,5.036106,5.034383,5.0317526,5.0288544,5.026354,5.02341,5.0205154,5.0181007,5.0153294
5.415657,5.415056,5.4157934,5.418828,5.4244375,5.4304714,5.4391637,5.4503527,5.461046,5.4737444,5.4909086,5.5085835,5.5254374,5.54828,5.572797,5.595026,5.6195903,5.6392145,5.650485,5.6606846,5.6688056,5.6742477,5.6787653,5.681998,5.6836205,5.684976,5.6869144,5.689452,5.692141,5.696008,5.700508,5.704325,5.7084317,5.7125406,5.7157154,5.718672,5.721966,5.7244644,5.725793,5.7269998,5.7276974,5.72797,5.7277627,5.7263594,5.7241106,5.7204037,5.714143,5.706697,5.6979055,5.685239,5.6716337,5.6590405,5.6434965,5.628504,5.616705,5.6040416,5.5931225,5.5860043,5.580048,5.5749626,5.5714884,5.569256,5.5673833,5.565775,5.563921,5.5617585,5.5598907,5.5586405,5.5574026,5.5564113,5.555787,5.5554194,5.5543785,5.552741,5.551217,5.5488434,5.545913,5.5430994,5.5383434,5.5320406,5.5260687,5.518571,5.510453,5.5039444,5.4972024,5.490452,5.4854746,5.481487,5.477766,5.4754357,5.474203,5.4733915,5.4733157,5.473614,5.4746428,5.4750376,5.474385,5.474005,5.473984,5.47473,5.4762745,5.4787407,5.4816384,5.4843063,5.4876575,5.492057,5.4966,5.500825,5.505115,5.5088286,5.512701,5.5170603,5.520829,5.524036,5.528022,5.5318174,5.5347214,5.5384245,5.542449,5.5458336,5.5494814,5.5533,5.5564547,5.5595713,5.5630207,5.5658784,5.568037,5.5707774,5.5736995,5.5762796,5.579814,5.5843697,5.588832,5.5943975,5.6008244,5.6061506,5.61077,5.615639,5.619624,5.6227665,5.6263733,5.6297374,5.632411,5.6354403,5.6383934,5.640664,5.6430407,5.645625,5.6479673,5.6504025,5.6536503,5.656887,5.659546,5.662983,5.6668224,5.670303,5.674653,5.679675,5.6841445,5.689151,5.6950808,5.7004795,5.7054586,5.7112722,5.716777,5.721613,5.7274246,5.733285,5.7381,5.7433186,5.748701,5.7530737,5.7572117,5.7612715,5.7640514,5.765625,5.7673216,5.768828,5.769987,5.7712464,5.7720304,5.772154,5.771799,5.770423,5.7683744,5.7657537,5.7613287,5.7563906,5.7521534,5.7468433,5.741619,5.7373753,5.7315254,5.725072,5.7197313,5.7131505,5.7055564,5.6983576,5.6891336,5.6782775,5.668744,5.6604495,5.6499505,5.6394033,5.6307106,5.6207094,5.610791,5.6029077,5.594272,5.5845923,5.5758424,5.5669622,5.5560017,5.5456467,5.5368247,5.526411,5.51659,5.508842,5.4999275,5.490836,5.483431,5.475683,5.466932,5.4591584,5.4520264,5.4439516,5.4367437,5.4306746,5.4235163,5.416564,5.410919,5.404196,5.39699,5.3908863,5.3840837,5.375952,5.3683453,5.361035,5.3523293,5.3442574,5.337561,5.3295193,5.321326,5.3144393,5.307152,5.2996063,5.2932267,5.286682,5.2795877,5.273668,5.2685976,5.26299,5.257967,5.253804,5.248371,5.2422457,5.236769,5.2299414,5.2218,5.214474,5.207056,5.1988277,5.1920223,5.1866245,5.180916,5.176066,5.172241,5.167126,5.1609735,5.155217,5.148507,5.1411552,5.1350727,5.12925,5.1230793,5.1180267,5.1138535,5.10909,5.1045055,5.100551,5.0953593,5.089602,5.0847692,5.079713,5.074449,5.070263,5.0668197,5.063123,5.0598936,5.0572796,5.0533094,5.0489902,5.045598,5.0417852,5.0383167,5.0359297,5.033617,5.03174,5.0304823,5.0290995,5.026806,5.0241604,5.021864,5.0191355,5.0164313,5.0141687,5.0115376
5.4396,5.439193,5.439658,5.4413686,5.444642,5.448316,5.4539256,5.460785,5.4669027,5.474063,5.4852467,5.49761,5.508168,5.5240345,5.54482,5.567419,5.5928526,5.6178827,5.6383686,5.6591616,5.674917,5.6826234,5.6895013,5.694271,5.6964707,5.698214,5.7005606,5.7036514,5.7070255,5.7122617,5.7187333,5.724454,5.7309904,5.7381973,5.7443295,5.75031,5.7574124,5.763238,5.7668285,5.770373,5.772987,5.774696,5.77608,5.7761984,5.775155,5.7728214,5.768112,5.7619743,5.754272,5.7426467,5.729819,5.7178764,5.702956,5.688186,5.676214,5.6629305,5.6510105,5.6429777,5.636156,5.630128,5.6257963,5.622717,5.6197624,5.61703,5.6140633,5.6108837,5.608429,5.606947,5.605692,5.6050873,5.6050677,5.605548,5.6054087,5.604443,5.6035776,5.601944,5.599582,5.59712,5.592599,5.586233,5.579989,5.5719852,5.5631256,5.5559254,5.548542,5.5411425,5.535719,5.531482,5.527754,5.5257597,5.5250273,5.5249996,5.525875,5.5269914,5.528909,5.5298963,5.529417,5.5292673,5.529525,5.5305448,5.5323377,5.5350943,5.5382156,5.541023,5.5441704,5.547919,5.5517015,5.5554304,5.559039,5.561878,5.564823,5.5679736,5.570513,5.5725193,5.575166,5.5778313,5.5799065,5.5825567,5.585841,5.58907,5.592876,5.5974865,5.6017838,5.6061716,5.6112967,5.6157174,5.619105,5.623286,5.627467,5.630927,5.6353216,5.64052,5.6453276,5.651046,5.657269,5.6621714,5.666404,5.670627,5.673767,5.6759925,5.6784434,5.680716,5.6825905,5.6846695,5.686957,5.6890326,5.691208,5.6939845,5.6968384,5.699744,5.7036185,5.7074623,5.7106133,5.714646,5.718676,5.7218122,5.7257733,5.7303705,5.7345285,5.7392735,5.745086,5.750573,5.755802,5.7619095,5.7675447,5.7723093,5.777928,5.7834797,5.7879887,5.7928276,5.7978487,5.801985,5.8058863,5.8097315,5.8123593,5.813772,5.8154173,5.817026,5.8183155,5.820018,5.821402,5.821989,5.822277,5.821601,5.8200874,5.8179636,5.8140545,5.8095493,5.8056984,5.8008113,5.7958956,5.7918186,5.78608,5.779607,5.7741637,5.7674465,5.7597017,5.752361,5.742884,5.731759,5.721998,5.713478,5.7025514,5.6914644,5.6823025,5.6718035,5.6614923,5.6534004,5.644648,5.634926,5.6261683,5.617305,5.606305,5.59581,5.586778,5.5760717,5.5658765,5.5577383,5.5483656,5.5388002,5.5310082,5.5228033,5.513583,5.505439,5.497937,5.489345,5.481586,5.4750447,5.467238,5.459568,5.4533033,5.4457626,5.437562,5.4305224,5.4226,5.4130087,5.403949,5.395245,5.384593,5.3744354,5.3659043,5.355582,5.345049,5.336236,5.3267326,5.3170013,5.3089924,5.3008466,5.292235,5.2852697,5.2794075,5.273182,5.26788,5.2636085,5.258163,5.2521048,5.246682,5.2398424,5.231577,5.2240467,5.216319,5.2076244,5.200325,5.194461,5.1881566,5.1826906,5.1783338,5.172498,5.165513,5.1590176,5.1514344,5.143099,5.1361837,5.1295753,5.1225924,5.116895,5.1121993,5.106831,5.1016846,5.0972724,5.091612,5.085475,5.080399,5.0751123,5.0696325,5.065276,5.06168,5.05783,5.0544653,5.0517225,5.0475125,5.0429277,5.039354,5.0353622,5.0318046,5.029436,5.027199,5.025484,5.0244246,5.023265,5.0212994,5.0190187,5.017061,5.0147715,5.0124393,5.01038,5.0079303
5.4774094,5.4759736,5.4754753,5.475845,5.4776697,5.4801607,5.484003,5.488325,5.491477,5.49417,5.4968762,5.499255,5.500725,5.5065904,5.5197654,5.5376186,5.558347,5.5860286,5.6165457,5.6507974,5.674526,5.680943,5.6864877,5.6890154,5.689259,5.6896067,5.690669,5.693145,5.6964927,5.7022376,5.709769,5.716591,5.7246175,5.7337255,5.741623,5.749492,5.758133,5.7653475,5.77135,5.777589,5.7822914,5.7852974,5.7879343,5.789038,5.7886868,5.787184,5.783142,5.7772293,5.7694683,5.7572036,5.7433763,5.7305384,5.714366,5.698767,5.6867847,5.673732,5.662051,5.653962,5.646679,5.639675,5.634134,5.6296563,5.6246305,5.6202574,5.6168175,5.6135874,5.6115026,5.61043,5.6095963,5.609392,5.609673,5.6103086,5.6108737,5.610998,5.6110296,5.610238,5.6083727,5.606159,5.6016035,5.5947914,5.587942,5.5789847,5.568884,5.560626,5.552395,5.544235,5.5383406,5.533868,5.5302134,5.528693,5.5286045,5.529481,5.5313516,5.5332723,5.5358925,5.538285,5.539694,5.54131,5.543518,5.5461464,5.5492105,5.553358,5.557777,5.5617533,5.5661154,5.5708637,5.575307,5.5794983,5.5835934,5.5869246,5.590185,5.5935545,5.596173,5.5982594,5.6004095,5.6022778,5.603819,5.606165,5.6096334,5.6133776,5.618061,5.624192,5.630165,5.6361523,5.6433406,5.649974,5.655658,5.6624317,5.668779,5.673732,5.6795516,5.685769,5.691105,5.6970778,5.703175,5.707596,5.7109885,5.7137394,5.7152114,5.7159777,5.716737,5.7175913,5.7185583,5.7196236,5.721547,5.72403,5.7267504,5.73055,5.7346716,5.7389774,5.744794,5.75058,5.7553196,5.7612967,5.7663717,5.769237,5.772938,5.777196,5.781086,5.785591,5.791298,5.7968807,5.802369,5.80872,5.8143067,5.818706,5.823874,5.828905,5.8329215,5.8371053,5.841324,5.8447638,5.8480406,5.851368,5.8537264,5.8549633,5.8566904,5.858653,5.860343,5.862623,5.8646135,5.865637,5.86631,5.8659773,5.864727,5.8628297,5.859122,5.8547344,5.8509436,5.8461037,5.8411856,5.837064,5.831193,5.824445,5.8186646,5.811479,5.803115,5.7951784,5.785046,5.773245,5.7629833,5.75401,5.7430344,5.732342,5.7236395,5.713578,5.7037096,5.696031,5.687782,5.678713,5.670622,5.6625032,5.6523867,5.6426163,5.6340885,5.623904,5.61402,5.6059446,5.596567,5.586913,5.579,5.5705037,5.5609894,5.5526514,5.54492,5.5359573,5.5278063,5.5209723,5.512739,5.5045853,5.4979076,5.4897833,5.480839,5.4730816,5.4642677,5.4533997,5.443001,5.4331007,5.420585,5.4083424,5.398061,5.385536,5.372774,5.3621836,5.3506064,5.3387895,5.3291874,5.319455,5.309309,5.301256,5.2945576,5.2876616,5.2820473,5.2776546,5.2722197,5.266313,5.261057,5.25439,5.246249,5.2387323,5.230882,5.2218876,5.2141714,5.207832,5.200862,5.194701,5.189773,5.1831894,5.1753783,5.168181,5.1597843,5.150546,5.142869,5.1355305,5.127787,5.1214952,5.1163335,5.110483,5.1049385,5.100215,5.0942287,5.0877953,5.08249,5.0769444,5.071188,5.066622,5.062888,5.0589066,5.0554104,5.0525227,5.0480404,5.0431385,5.0393224,5.035064,5.0312896,5.028796,5.026438,5.02462,5.0235023,5.022311,5.020405,5.018291,5.016548,5.014579,5.012533,5.010621,5.0082636
5.5394382,5.536841,5.535183,5.5335855,5.533024,5.5334673,5.533778,5.53205,5.5284734,5.525279,5.5167665,5.505186,5.4943504,5.4867096,5.483459,5.479972,5.482798,5.4964867,5.515231,5.538328,5.558822,5.569539,5.5780525,5.581702,5.5793557,5.5743055,5.566144,5.5572777,5.550088,5.5420237,5.537119,5.5367584,5.539159,5.545947,5.554753,5.5654144,5.579054,5.5920677,5.604023,5.617099,5.627612,5.6347136,5.641863,5.647722,5.6517906,5.656267,5.660533,5.6630507,5.6638045,5.66191,5.657128,5.6510725,5.641286,5.6296616,5.6195536,5.6074276,5.5950546,5.5853825,5.5754976,5.564334,5.554041,5.5441074,5.531536,5.5192666,5.5087,5.4966187,5.485736,5.477596,5.4687605,5.460764,5.455206,5.4501696,5.446067,5.443974,5.4432983,5.443747,5.4449806,5.4462886,5.446864,5.4454155,5.44252,5.4376254,5.430732,5.424196,5.4170647,5.409808,5.4047575,5.401095,5.3990226,5.3996544,5.401652,5.4053774,5.4105673,5.415471,5.42153,5.427969,5.4331784,5.438972,5.4463944,5.4539633,5.4615154,5.4706473,5.478824,5.4849615,5.490776,5.4957414,5.499725,5.50292,5.505544,5.5075355,5.509487,5.5113544,5.5126696,5.513665,5.5146475,5.516065,5.51797,5.522066,5.529661,5.538642,5.5508037,5.5674615,5.584034,5.600919,5.6219044,5.6405954,5.65458,5.66926,5.6816998,5.691368,5.702112,5.7125754,5.720845,5.7294855,5.737792,5.7435617,5.747821,5.7512155,5.7530947,5.754184,5.755693,5.757859,5.760333,5.7630534,5.7652245,5.7664347,5.768206,5.770777,5.7736225,5.776675,5.7809734,5.785427,5.7891836,5.793891,5.798721,5.802718,5.807869,5.813943,5.819467,5.825825,5.8336716,5.841166,5.848453,5.856947,5.864869,5.8717766,5.879696,5.887308,5.8933945,5.8996553,5.905622,5.9101295,5.9142404,5.917694,5.9196644,5.9207253,5.9226522,5.925358,5.9280167,5.9319353,5.9357796,5.9381485,5.939705,5.9397726,5.938573,5.936532,5.9324417,5.9274907,5.9229994,5.917149,5.9110184,5.9057026,5.8982563,5.889513,5.8817616,5.872098,5.8607388,5.8503733,5.8387146,5.8259478,5.8152046,5.805682,5.793902,5.7823367,5.7729254,5.762,5.751357,5.743202,5.734469,5.72556,5.7181816,5.7106304,5.7011595,5.6918783,5.683631,5.673638,5.663765,5.6555963,5.646021,5.636157,5.628149,5.619689,5.610265,5.601968,5.5941963,5.5851297,5.5768204,5.569812,5.5612664,5.5527015,5.545647,5.5369983,5.5273666,5.5189424,5.5093813,5.497741,5.4866867,5.475993,5.462755,5.449938,5.439028,5.425724,5.4122276,5.401114,5.389301,5.3760614,5.3639393,5.3516693,5.339075,5.3294406,5.3216147,5.3138742,5.3079405,5.3034916,5.2982674,5.2928267,5.2880287,5.281826,5.274007,5.2665515,5.2585664,5.2492137,5.241005,5.234105,5.226389,5.219451,5.2138553,5.2063313,5.197407,5.189221,5.1796713,5.169156,5.160393,5.1519594,5.1430397,5.135828,5.1299744,5.12348,5.1174965,5.112486,5.106345,5.0997267,5.094117,5.088297,5.0822334,5.0773697,5.0732985,5.0689015,5.0649996,5.061741,5.0567055,5.0512123,5.046939,5.0421667,5.0378714,5.0349417,5.032049,5.029604,5.0279837,5.0264387,5.024288,5.0221176,5.020425,5.0185857,5.016698,5.0148945,5.012494
5.673801,5.669899,5.667567,5.6651,5.6627936,5.6607428,5.6567526,5.64697,5.633535,5.619057,5.5909595,5.557774,5.5304494,5.5021157,5.477144,5.4530687,5.4398355,5.441881,5.4502344,5.459363,5.468501,5.473845,5.4755287,5.4704695,5.4596663,5.447198,5.4299808,5.4117413,5.39594,5.377306,5.360655,5.3499784,5.3423185,5.340834,5.3451657,5.3531446,5.3677015,5.3841844,5.398945,5.415066,5.4279194,5.436465,5.445176,5.4529314,5.45912,5.466892,5.476394,5.4847145,5.4916496,5.4977407,5.500331,5.5000806,5.4960766,5.48827,5.4799795,5.4687414,5.4557467,5.4446683,5.432609,5.418065,5.404011,5.3898134,5.3717704,5.354039,5.338478,5.320283,5.3035526,5.2909408,5.276703,5.262888,5.2524424,5.242141,5.2326393,5.2266903,5.223321,5.2221375,5.2236137,5.2261806,5.229615,5.2321806,5.2329073,5.2323136,5.2296815,5.2261896,5.221719,5.217026,5.213978,5.2119102,5.2118797,5.2146044,5.2183695,5.224498,5.232543,5.2400947,5.2493095,5.259399,5.2679014,5.2772603,5.289028,5.300675,5.3119445,5.3254356,5.337244,5.345787,5.3537583,5.3600817,5.364724,5.3682446,5.3709364,5.372979,5.375108,5.377311,5.379026,5.3803916,5.3818026,5.38385,5.386553,5.3923597,5.4031515,5.4159555,5.4335217,5.457714,5.481781,5.5061994,5.5363913,5.5635643,5.5846667,5.6072693,5.6262016,5.640196,5.654928,5.668104,5.6777554,5.687271,5.695712,5.7010384,5.704542,5.706723,5.7075405,5.7080383,5.7096047,5.713018,5.7173734,5.7231326,5.7293577,5.7343454,5.7405586,5.7483864,5.7559614,5.7634788,5.7731676,5.782669,5.7906284,5.8007126,5.8094673,5.814651,5.8200035,5.825758,5.831377,5.8382406,5.8479223,5.8584433,5.8692894,5.8843446,5.898754,5.909073,5.920377,5.930412,5.937889,5.945389,5.9521036,5.9568653,5.9610724,5.964445,5.966422,5.9677687,5.9707212,5.9751873,5.9797535,5.986373,5.993067,5.9975667,6.001395,6.0035973,6.003865,6.002906,5.9995356,5.9949813,5.9910207,5.9856577,5.9796762,5.9742093,5.966445,5.9569044,5.9480495,5.9368286,5.9234037,5.911086,5.8974314,5.8825192,5.870155,5.8594255,5.8471346,5.835621,5.826111,5.8151307,5.804567,5.796611,5.788329,5.78006,5.7731504,5.7657967,5.7558804,5.7455893,5.7362576,5.724991,5.7142215,5.705739,5.6957345,5.68551,5.6773205,5.6688333,5.6594486,5.651188,5.6434727,5.634441,5.6261063,5.6190395,5.610323,5.60149,5.5941772,5.5851355,5.575001,5.5661144,5.55602,5.5437684,5.5321226,5.520697,5.5067472,5.4933395,5.481823,5.467811,5.4536233,5.441947,5.429512,5.4156346,5.402929,5.389831,5.3758154,5.3646054,5.3553667,5.346413,5.3399,5.335272,5.330142,5.325018,5.320503,5.314775,5.3074923,5.3004074,5.292691,5.2835293,5.2752914,5.2681,5.259827,5.2521143,5.2457075,5.2371073,5.22709,5.2180967,5.207653,5.1962423,5.1867647,5.1775627,5.1678047,5.159935,5.1535873,5.146665,5.1404157,5.135239,5.128916,5.122123,5.116371,5.110402,5.1041803,5.099166,5.0949183,5.0902486,5.086007,5.0824003,5.076759,5.0705504,5.0656943,5.0602493,5.055272,5.0517836,5.048237,5.0450068,5.042677,5.0404663,5.0376873,5.035139,5.0332365,5.0313783,5.0295815,5.027796,5.0252385
5.8641253,5.8596115,5.857425,5.8569746,5.8567257,5.8549075,5.849514,5.8347893,5.8141985,5.789304,5.749154,5.7096415,5.685091,5.660733,5.641036,5.6245813,5.618352,5.6224604,5.6279335,5.6312923,5.6296663,5.6230965,5.6133356,5.5934825,5.567264,5.5398707,5.501813,5.462579,5.4305897,5.3953476,5.365754,5.3471165,5.330446,5.3197107,5.3167667,5.3183475,5.3282027,5.342097,5.353942,5.366345,5.375448,5.3808637,5.3860598,5.3902826,5.393546,5.398038,5.4039783,5.4093695,5.413644,5.4172354,5.4182944,5.417281,5.41269,5.404383,5.395518,5.383275,5.36897,5.3567567,5.3436136,5.32812,5.3134933,5.2988577,5.280895,5.2639446,5.2494564,5.23309,5.218691,5.208208,5.195836,5.1825953,5.1713085,5.1590014,5.145732,5.1354628,5.127746,5.1212864,5.1182795,5.1176906,5.11852,5.120194,5.121342,5.122072,5.1216784,5.120348,5.118159,5.115698,5.114102,5.112956,5.11357,5.116468,5.1201296,5.126246,5.1345205,5.1424713,5.1522293,5.1629896,5.1720324,5.1817513,5.193617,5.2051244,5.216214,5.2296467,5.2416677,5.25058,5.259263,5.2666245,5.2722874,5.2770014,5.2812924,5.285025,5.289092,5.2938166,5.297901,5.3012695,5.304678,5.308032,5.311368,5.3175807,5.328246,5.3405805,5.357399,5.3804474,5.403248,5.4261208,5.4538226,5.479232,5.5006323,5.5247083,5.5450506,5.5592537,5.5733585,5.584782,5.5923233,5.598958,5.60388,5.6061115,5.606632,5.6052856,5.6031237,5.601488,5.601157,5.603776,5.60827,5.615384,5.6256227,5.635906,5.6477785,5.662387,5.6762323,5.6897116,5.7069006,5.723666,5.7377224,5.755656,5.7700586,5.776771,5.7825794,5.7879257,5.7933865,5.8005533,5.812152,5.826031,5.840922,5.861988,5.8814955,5.894042,5.907523,5.9190283,5.9272656,5.935303,5.942075,5.9465885,5.950453,5.953832,5.9563932,5.958559,5.9633636,5.970495,5.9777265,5.9877586,5.997879,6.004979,6.012064,6.0177965,6.020915,6.0227137,6.022402,6.0204067,6.0184355,6.015271,6.011068,6.0067654,6.000233,5.991593,5.983179,5.9722733,5.9590235,5.946557,5.9318104,5.9155755,5.902416,5.8913403,5.8796873,5.869412,5.860775,5.8508663,5.841452,5.83449,5.82768,5.8206043,5.8140974,5.8069983,5.7966805,5.7854033,5.7750044,5.762526,5.7509413,5.742195,5.7319355,5.721528,5.713232,5.7047453,5.695485,5.6874204,5.679961,5.67122,5.66312,5.6562376,5.6476803,5.638915,5.6315966,5.6224914,5.612113,5.6028605,5.5922294,5.579348,5.567181,5.555296,5.540731,5.5266676,5.51457,5.49967,5.4844184,5.4718094,5.458005,5.443845,5.432148,5.41981,5.40584,5.3938284,5.3834796,5.373396,5.3662252,5.361341,5.3562717,5.3513927,5.3470345,5.3418055,5.335273,5.3288827,5.3218803,5.3135757,5.3059783,5.2990537,5.290819,5.282775,5.275824,5.266489,5.255786,5.2463827,5.2355337,5.2238493,5.2142525,5.204897,5.1950393,5.1871624,5.180831,5.1740155,5.1679506,5.162961,5.1567316,5.150095,5.144611,5.138882,5.1329155,5.1281137,5.1240597,5.119488,5.1151857,5.111459,5.1054516,5.0987287,5.093436,5.0874443,5.081867,5.077873,5.0737934,5.0699377,5.0670214,5.064206,5.060895,5.058066,5.0560083,5.054201,5.052574,5.0508823,5.0483007
6.0726213,6.068838,6.066759,6.072014,6.080577,6.085275,6.0838485,6.068858,6.045085,6.0132475,5.975609,5.9492993,5.9425673,5.9205055,5.8671064,5.790297,5.7127886,5.6321254,5.5552683,5.4868593,5.4415684,5.4246454,5.41809,5.4024453,5.365155,5.307961,5.2137537,5.1186028,5.055182,4.996296,4.970355,4.9758573,4.984867,4.999971,5.017547,5.047765,5.086892,5.1202164,5.1448283,5.170141,5.1915684,5.2086525,5.234231,5.2629633,5.285948,5.312229,5.3413363,5.364747,5.3829045,5.398924,5.4081917,5.4128075,5.413163,5.407674,5.4000683,5.3880715,5.3729887,5.3598604,5.3456664,5.3291407,5.3138094,5.2985306,5.279837,5.2626543,5.248623,5.23372,5.2218404,5.2140226,5.2055054,5.1956377,5.185662,5.173073,5.156986,5.1424103,5.1300173,5.1176453,5.109435,5.1051173,5.102272,5.1015034,5.1015177,5.1020355,5.1028976,5.103591,5.1042004,5.105372,5.1069202,5.10828,5.1109314,5.1146207,5.118262,5.123866,5.1312046,5.1382675,5.1466565,5.1554413,5.162428,5.169709,5.178423,5.1870303,5.1957507,5.2067437,5.2165875,5.223469,5.230182,5.2361712,5.24115,5.2454615,5.250185,5.255047,5.260706,5.26777,5.274116,5.2792797,5.2844944,5.2890635,5.2930336,5.29955,5.3095617,5.320536,5.335146,5.3547425,5.373861,5.392951,5.415308,5.4351506,5.4517136,5.4699297,5.4849873,5.49543,5.505302,5.512422,5.5162706,5.5180364,5.518035,5.516859,5.51443,5.510228,5.505861,5.502379,5.499877,5.5004687,5.5034,5.5087047,5.5167303,5.5247526,5.5337353,5.544553,5.5547323,5.5645776,5.5781775,5.592592,5.6052656,5.6215124,5.637229,5.6487503,5.6612096,5.673709,5.684391,5.697268,5.715085,5.733797,5.7529864,5.7722664,5.787698,5.8012033,5.8168116,5.832155,5.844722,5.857194,5.8679624,5.8751106,5.8811617,5.8863497,5.8903456,5.8940887,5.9019246,5.9132047,5.924542,5.9399433,5.955488,5.966629,5.9778776,5.987833,5.9947176,6.001125,6.0075045,6.011203,6.01153,6.010499,6.0077295,6.004136,5.9980073,5.9894495,5.981063,5.970209,5.9571533,5.945052,5.930591,5.916391,5.9062724,5.8976126,5.887455,5.877736,5.8696985,5.860448,5.8517685,5.845544,5.839921,5.834199,5.828826,5.8229795,5.8146152,5.8053513,5.796479,5.785495,5.774621,5.765768,5.755805,5.7457266,5.737567,5.7294683,5.720901,5.713569,5.706706,5.698661,5.6911726,5.6847544,5.676712,5.668308,5.661132,5.652173,5.6413374,5.6310678,5.6190205,5.6050663,5.592702,5.5809717,5.566807,5.5531187,5.54126,5.525774,5.509411,5.4959383,5.4811783,5.4660206,5.4535537,5.4406223,5.426543,5.4146156,5.4037476,5.3929877,5.3853755,5.380366,5.3757725,5.371642,5.367753,5.3632774,5.357632,5.3519745,5.345706,5.3383665,5.331641,5.3252974,5.3175545,5.309715,5.3027554,5.2931976,5.28204,5.272167,5.260815,5.2487364,5.2389755,5.2295027,5.2197714,5.2122355,5.2062316,5.19995,5.194587,5.1903043,5.1849937,5.179331,5.1746116,5.169695,5.1645355,5.160318,5.156705,5.1524267,5.1482143,5.1445274,5.138385,5.1314087,5.1259174,5.119563,5.113399,5.108783,5.1040835,5.0995393,5.0961027,5.0929956,5.0897574,5.087327,5.085685,5.084345,5.0832386,5.08208,5.0799723
6.3437004,6.33922,6.3398876,6.3472614,6.3582764,6.366371,6.3726025,6.372525,6.3716326,6.3802404,6.4406157,6.5850635,6.802987,7.233984,7.8992043,8.681758,9.493738,10.204039,10.730772,11.211256,11.473455,11.489586,11.440289,11.294758,11.120088,10.97397,10.772549,10.504255,10.201124,9.792217,9.386386,9.105512,8.814159,8.546431,8.3404,8.087267,7.835956,7.665623,7.544347,7.4117527,7.2792487,7.1557693,6.966021,6.735606,6.535238,6.300749,6.0380335,5.824811,5.6532803,5.48149,5.359276,5.283305,5.251421,5.260318,5.268038,5.2683706,5.2606134,5.2497244,5.235305,5.2142544,5.191441,5.166066,5.136298,5.107519,5.0769167,5.059983,5.057742,5.0572944,5.054078,5.039712,5.0162487,4.982439,4.9403944,4.905155,4.8764076,4.845787,4.822934,4.808611,4.8022056,4.80668,4.81491,4.8221607,4.8260055,4.824913,4.8184795,4.806683,4.7944837,4.783983,4.772358,4.7641573,4.759886,4.7631564,4.7740974,4.785796,4.8007536,4.8174653,4.830533,4.8418264,4.8513126,4.8565264,4.8586683,4.861349,4.8694954,4.884183,4.8998814,4.9160786,4.9302516,4.9422703,4.9525843,4.960555,4.9687157,4.979551,4.990485,5.000063,5.0108876,5.0209265,5.0293083,5.0398636,5.0533104,5.067054,5.0842566,5.106317,5.127118,5.146927,5.1691885,5.18864,5.2049265,5.2256813,5.2462664,5.2627006,5.279216,5.292876,5.302095,5.3121176,5.320301,5.3243732,5.32654,5.3277135,5.329192,5.3322096,5.336965,5.343737,5.351042,5.361045,5.3736386,5.385414,5.3985643,5.414747,5.4302483,5.445097,5.4647236,5.484542,5.5014367,5.5216556,5.5413103,5.5569544,5.5751123,5.593952,5.609521,5.6266546,5.6484947,5.6701937,5.69145,5.714155,5.7339005,5.751683,5.769966,5.786109,5.798893,5.8102264,5.819024,5.8244743,5.8285294,5.8315964,5.833938,5.8362727,5.8424034,5.8521433,5.8623743,5.876114,5.890421,5.901318,5.9127464,5.9226213,5.9288974,5.9346523,5.940256,5.9437323,5.9447756,5.9451923,5.944459,5.942944,5.9397492,5.9346304,5.9292016,5.921277,5.9118195,5.903478,5.8932095,5.8843675,5.879637,5.8763113,5.8716297,5.866214,5.8613253,5.8550043,5.8481627,5.842695,5.8378797,5.833144,5.82893,5.8245,5.818531,5.812084,5.805806,5.798076,5.7901845,5.7834287,5.7744856,5.7650204,5.7577744,5.7507524,5.743615,5.7377167,5.732284,5.725936,5.7199936,5.714881,5.7082963,5.701042,5.6945353,5.6866417,5.6769967,5.6676702,5.6568003,5.6438026,5.631753,5.619934,5.6054134,5.591337,5.579256,5.5638227,5.547106,5.532611,5.5171804,5.5012383,5.4878607,5.474056,5.4590626,5.4464493,5.4351697,5.4236197,5.4151325,5.40952,5.404832,5.401516,5.3989077,5.396123,5.392341,5.3881025,5.3831134,5.3773737,5.3722477,5.3673778,5.361185,5.3541946,5.3472466,5.337722,5.326534,5.3165946,5.3052483,5.2933903,5.2840137,5.274974,5.265907,5.259059,5.253618,5.2479706,5.2431836,5.239368,5.2345386,5.229368,5.2251015,5.220705,5.2161293,5.2123823,5.2091627,5.2050667,5.200824,5.197133,5.190916,5.183861,5.178356,5.1720433,5.1658664,5.1611376,5.1562757,5.1514893,5.147847,5.144661,5.1413937,5.1389174,5.137152,5.135607,5.134291,5.132997,5.1307898
6.5979934,6.595679,6.60044,6.609359,6.620615,6.6300488,6.640416,6.655243,6.6862674,6.7603245,6.9806023,7.418441,8.058476,9.335358,11.060436,12.787327,14.447592,15.720121,16.563389,17.39633,17.937721,18.096115,18.130388,18.027348,17.874374,17.763224,17.61203,17.36876,17.046787,16.585718,16.104753,15.759953,15.400007,15.059519,14.7810335,14.425571,13.976308,13.598934,13.357722,13.097807,12.848585,12.626478,12.279903,11.880552,11.559771,11.205233,10.812252,10.474755,10.151667,9.841402,9.611506,9.4228,9.131372,8.827744,8.611378,8.410174,8.264614,8.184422,8.133998,8.129988,8.166278,8.225753,8.318001,8.428286,8.550337,8.66362,8.730642,8.757843,8.755299,8.720062,8.680051,8.64675,8.611022,8.577259,8.541403,8.496344,8.4511795,8.409708,8.362507,8.32358,8.299597,8.275218,8.239435,8.193899,8.13218,8.040313,7.9444857,7.8536816,7.7605433,7.6919737,7.645328,7.595811,7.557824,7.535919,7.5188956,7.510068,7.506689,7.5025964,7.4903946,7.4696813,7.4470034,7.400168,7.336418,7.2752266,7.2074757,7.147105,7.1053395,7.0743756,7.057948,7.0540853,7.0563965,7.0610256,7.0636663,7.0646586,7.060108,7.0484037,7.0340595,7.0169425,6.9969826,6.9781246,6.9552536,6.9266453,6.8999767,6.8746443,6.8471613,6.823761,6.804594,6.7754345,6.7381063,6.7011642,6.655961,6.608508,6.570012,6.524946,6.478522,6.442319,6.40813,6.3661766,6.3227415,6.2796392,6.2287703,6.1824536,6.148185,6.109418,6.0693574,6.0351553,5.9957166,5.9458046,5.8994,5.859969,5.8174486,5.7842855,5.7618,5.741356,5.727794,5.7196608,5.7098722,5.7037697,5.70343,5.705814,5.7120595,5.7198033,5.727051,5.7389455,5.75331,5.7669353,5.78038,5.7908297,5.7979507,5.8077,5.815377,5.818086,5.8193417,5.81796,5.815454,5.8134995,5.8157253,5.823627,5.833899,5.8462467,5.857318,5.8643913,5.871185,5.8752913,5.876199,5.8765297,5.875844,5.874795,5.8742976,5.8733044,5.8714094,5.869005,5.864877,5.858945,5.85299,5.8452663,5.837031,5.8303967,5.8221884,5.814826,5.8109236,5.8089767,5.806386,5.802538,5.7979727,5.790859,5.7824,5.775522,5.768982,5.7626724,5.7577753,5.753441,5.7486515,5.7443814,5.740678,5.736517,5.7324157,5.728787,5.722398,5.7151566,5.7098794,5.704686,5.699178,5.694454,5.6901073,5.6852765,5.6811147,5.677756,5.673813,5.6698513,5.6664567,5.662708,5.6581573,5.653244,5.645775,5.635186,5.624139,5.612645,5.597783,5.583025,5.570411,5.555194,5.5397196,5.5268207,5.513451,5.4993353,5.4869084,5.4738865,5.4595957,5.447868,5.4382343,5.4283996,5.421162,5.4163914,5.4130907,5.412177,5.412492,5.4142966,5.4162083,5.4168367,5.416808,5.4165936,5.416148,5.4152303,5.4133844,5.4094887,5.4039626,5.395768,5.385395,5.3758307,5.364959,5.353868,5.3454285,5.337407,5.329746,5.3243227,5.3201427,5.315922,5.3123446,5.3093805,5.3055816,5.3012733,5.2974863,5.2935057,5.28938,5.286104,5.2834196,5.2799835,5.2762766,5.2729316,5.266939,5.259897,5.2542973,5.2479353,5.2418394,5.2373047,5.2327547,5.228423,5.2252374,5.2225456,5.2197275,5.2173305,5.215275,5.213133,5.210901,5.208641,5.205245
6.77272,6.7767887,6.7842436,6.7977085,6.8134584,6.825437,6.8330016,6.847706,6.8936014,7.01021,7.358658,8.061428,9.125756,11.209266,13.595967,15.43297,16.907516,17.620527,17.833641,18.207634,18.647808,19.013985,19.301191,19.542728,19.693132,19.797161,19.903976,20.002827,20.093325,20.207108,20.340172,20.462673,20.589352,20.691792,20.73338,20.763191,20.52755,20.166523,19.99095,19.807547,19.648945,19.526272,19.3238,19.136679,19.046505,19.000784,18.958208,18.865902,18.639462,18.439648,18.259335,18.008112,17.276245,16.339275,15.658775,15.042557,14.614517,14.39412,14.272037,14.306524,14.468397,14.708105,15.053148,15.450289,15.895893,16.261303,16.441616,16.507668,16.4976,16.433767,16.39069,16.401587,16.42889,16.436878,16.417446,16.376968,16.313358,16.235186,16.111515,15.973924,15.867989,15.765712,15.645208,15.516883,15.363227,15.144978,14.917858,14.697924,14.477909,14.317439,14.204859,14.057578,13.916512,13.818695,13.724405,13.647493,13.597517,13.552529,13.49309,13.425987,13.366382,13.239105,13.0397415,12.816877,12.571284,12.344418,12.177621,12.04842,11.968636,11.935138,11.920496,11.904924,11.881792,11.856737,11.810484,11.745171,11.677685,11.5985565,11.506637,11.41869,11.312307,11.179916,11.057497,10.943047,10.818397,10.711021,10.621819,10.48844,10.325998,10.172955,9.99379,9.813247,9.669737,9.49844,9.326193,9.198372,9.081516,8.94187,8.797392,8.651051,8.477087,8.314859,8.190665,8.047631,7.8949485,7.761482,7.607932,7.4151144,7.2336254,7.070405,6.885145,6.7287273,6.6118336,6.491828,6.395714,6.3288307,6.2513704,6.1824284,6.138691,6.102218,6.068918,6.042782,6.0192213,5.995636,5.978673,5.967573,5.955743,5.943719,5.9328785,5.934428,5.9376917,5.934948,5.931663,5.9227104,5.9114704,5.90213,5.897538,5.9015827,5.9105363,5.9197035,5.923561,5.921133,5.9162226,5.9075427,5.8985868,5.8902235,5.88146,5.874605,5.869538,5.8627357,5.8544397,5.8460298,5.833726,5.8186803,5.805333,5.791682,5.778386,5.76766,5.755204,5.741935,5.7318482,5.724309,5.7162,5.707137,5.697294,5.6830835,5.6680164,5.6570897,5.6461096,5.6355844,5.6279507,5.6220865,5.616727,5.613163,5.6109524,5.6089296,5.607157,5.605464,5.60242,5.598671,5.5955553,5.5921297,5.587541,5.58286,5.578252,5.5735545,5.5702953,5.5681677,5.5669785,5.567562,5.569121,5.5715995,5.5743227,5.575304,5.5709777,5.5624404,5.552829,5.5426083,5.528612,5.514122,5.501546,5.4865465,5.4735265,5.4651947,5.4565005,5.446676,5.437173,5.4268456,5.41566,5.4071383,5.4010463,5.395439,5.391882,5.389781,5.3898067,5.3927183,5.3967395,5.4050474,5.4154387,5.4236097,5.431566,5.4400263,5.446577,5.451337,5.455886,5.4570255,5.4545155,5.4488344,5.4397774,5.43069,5.4203258,5.410037,5.402654,5.3958263,5.3899794,5.3865805,5.384323,5.3824663,5.3810873,5.379776,5.3781643,5.3757143,5.372864,5.3696356,5.366247,5.363758,5.3620443,5.3600225,5.357604,5.3550725,5.349636,5.342614,5.336711,5.3298874,5.3234797,5.319005,5.3148727,5.3113647,5.3090954,5.3073616,5.305684,5.3040295,5.302124,5.2997313,5.2966514,5.293298,5.288193
6.947445,6.949957,6.9552183,6.9703918,6.990059,7.0045223,7.0148773,7.0255985,7.0647373,7.17358,7.581856,8.474867,9.886475,12.532635,15.302468,17.13919,17.768215,17.953333,18.713806,19.180279,19.60948,20.011627,20.268538,20.431168,20.49762,20.532043,20.634571,20.812078,21.00477,21.256851,21.487019,21.62349,21.734816,21.800793,21.801569,21.731655,21.484394,21.195011,21.041391,20.921087,20.86867,20.8564,20.843323,20.87149,20.94123,21.084843,21.187294,21.169872,21.102112,20.861996,20.487513,20.105686,19.500748,18.873617,18.436203,18.05198,17.787535,17.63961,17.53178,17.48885,17.508072,17.561756,17.648468,17.756475,17.888943,17.972427,17.980103,17.95679,17.904282,17.861958,17.863914,17.908886,17.978687,18.035915,18.081114,18.109694,18.092968,18.039951,17.944382,17.817673,17.701256,17.56571,17.415161,17.286686,17.163013,17.029755,16.913813,16.802189,16.697807,16.626673,16.57666,16.503956,16.419685,16.347153,16.27253,16.209698,16.170687,16.132753,16.091658,16.060629,16.0472,16.021408,15.977925,15.925035,15.879721,15.840498,15.803574,15.745763,15.674348,15.611536,15.5466585,15.462539,15.379122,15.305116,15.215194,15.131906,15.067741,15.00757,14.964695,14.940493,14.919073,14.914726,14.929787,14.958174,15.00211,15.0432205,15.073442,15.090694,15.088647,15.079695,15.055689,15.017186,14.977694,14.91844,14.841255,14.76716,14.688755,14.582495,14.4839115,14.4145775,14.340626,14.277039,14.228597,14.18531,14.121214,14.03764,13.926423,13.812065,13.68859,13.457212,13.166464,12.873453,12.581734,12.211199,11.837566,11.541318,11.2542,10.966304,10.7192335,10.495339,10.278225,10.117674,10.01098,9.841648,9.603124,9.34035,8.972402,8.5763445,8.2634735,7.945756,7.6813545,7.52078,7.389324,7.2690244,7.170742,7.0836983,6.9443054,6.7683783,6.595704,6.3906784,6.1880484,6.030871,5.8981576,5.788065,5.709155,5.640605,5.5863686,5.5611696,5.5517597,5.5566044,5.57072,5.5814247,5.588109,5.5909624,5.5925994,5.591076,5.590889,5.5934386,5.594494,5.598987,5.6055937,5.6112523,5.61457,5.612012,5.605603,5.591898,5.5731893,5.5572596,5.540741,5.529563,5.5267572,5.525916,5.5268564,5.5291443,5.5320597,5.536047,5.539649,5.541874,5.5419893,5.539849,5.5369954,5.532775,5.5261745,5.519152,5.512224,5.504677,5.4990435,5.495391,5.4928455,5.4925375,5.493539,5.4954944,5.4979134,5.4993305,5.4985275,5.4957104,5.4922695,5.488968,5.4853287,5.482052,5.4791408,5.475077,5.4705524,5.4667034,5.461585,5.453475,5.4442825,5.4341626,5.4224806,5.4125886,5.404326,5.3953195,5.3885536,5.3845077,5.3824134,5.3840914,5.388027,5.397189,5.408477,5.41674,5.4242268,5.4316263,5.439069,5.4489717,5.462824,5.4728365,5.4750147,5.471869,5.4635887,5.455331,5.4462357,5.4382524,5.4338136,5.4305477,5.429956,5.4322405,5.4352694,5.440238,5.445554,5.4495363,5.453023,5.4547405,5.454939,5.455488,5.456834,5.458971,5.4627905,5.4639254,5.461691,5.4596853,5.4547796,5.4480324,5.442107,5.435527,5.429539,5.4255037,5.4222555,5.4200993,5.4191246,5.4184637,5.4177074,5.4167786,5.4157305,5.4142647,5.4119606,5.4091644,5.403568
7.1040716,7.1037025,7.107095,7.1204643,7.1404824,7.157538,7.174297,7.1908855,7.2238503,7.273357,7.644296,8.566368,10.040464,12.86441,15.82284,17.757763,18.13774,18.289204,19.52079,20.057493,20.354683,20.617676,20.709148,20.768044,20.824127,20.85578,20.923122,21.036917,21.169546,21.351799,21.48338,21.51067,21.539,21.54007,21.49309,21.343586,21.131237,20.951408,20.826374,20.734331,20.704506,20.706747,20.715855,20.75409,20.814259,20.925102,21.03203,21.080563,21.126377,21.019356,20.75727,20.446747,20.17376,19.998611,19.878654,19.767317,19.667915,19.582003,19.484005,19.360506,19.23581,19.106882,18.928585,18.737194,18.558811,18.34583,18.156673,18.026524,17.907944,17.851568,17.858349,17.885426,17.934952,17.987873,18.051432,18.102852,18.106613,18.072514,18.013529,17.923483,17.826057,17.69555,17.55938,17.464466,17.386772,17.334698,17.31481,17.30125,17.30014,17.308662,17.316303,17.31306,17.287518,17.249496,17.206608,17.161394,17.125889,17.089573,17.056591,17.043575,17.049747,17.079903,17.135113,17.19788,17.281174,17.362423,17.415108,17.429285,17.402143,17.354046,17.287462,17.192986,17.098808,17.014513,16.920124,16.847836,16.806255,16.770187,16.766949,16.794445,16.847696,16.949265,17.069334,17.200573,17.36117,17.501158,17.607922,17.72197,17.822441,17.90429,17.98259,18.040955,18.073725,18.096066,18.094147,18.06994,18.03335,17.97831,17.938732,17.93578,17.939798,17.947044,17.951275,17.969673,17.970493,17.942154,17.893543,17.858458,17.811752,17.652588,17.448387,17.225433,16.974773,16.646149,16.31351,16.056,15.797506,15.528828,15.293304,15.073046,14.855382,14.697234,14.601028,14.453517,14.24777,14.021268,13.713385,13.381349,13.110132,12.762861,12.439279,12.2355175,12.038043,11.824969,11.643614,11.505822,11.296938,11.016102,10.709563,10.347253,10.006346,9.755434,9.4266815,9.077213,8.805895,8.544062,8.234154,7.937762,7.661212,7.3377867,7.0705767,6.89948,6.724685,6.5756903,6.465823,6.3569164,6.2453094,6.150296,6.059143,5.961018,5.8845153,5.8307548,5.7760143,5.734039,5.706005,5.676768,5.646104,5.6170197,5.5797305,5.544142,5.5209675,5.498273,5.478116,5.4650726,5.454301,5.4467907,5.44262,5.43845,5.439189,5.439417,5.435953,5.4336724,5.4319687,5.4309273,5.430046,5.4275975,5.4246817,5.422885,5.4220843,5.422989,5.424735,5.4269896,5.429036,5.4301844,5.4310913,5.4333954,5.437027,5.441009,5.447226,5.4540014,5.4597487,5.465734,5.4692216,5.469717,5.4687996,5.4640965,5.4570637,5.448159,5.436866,5.426502,5.417149,5.4061627,5.397125,5.3912425,5.3866386,5.3856277,5.387375,5.393414,5.400735,5.405307,5.4087715,5.4117613,5.4160337,5.424001,5.4373417,5.4489408,5.453659,5.4538355,5.4487987,5.442705,5.435288,5.428461,5.4248095,5.422637,5.4232655,5.4265137,5.4303412,5.435917,5.4410887,5.444244,5.4472027,5.44989,5.4523764,5.4560213,5.461946,5.4690437,5.478492,5.486782,5.4914064,5.495466,5.497521,5.497038,5.495889,5.4948196,5.494216,5.494362,5.495668,5.4988313,5.5029078,5.5073347,5.5137177,5.5191975,5.521899,5.523897,5.5238457,5.5222926,5.516499
7.2196703,7.2184906,7.2221932,7.2326827,7.250396,7.268848,7.290227,7.318946,7.3551846,7.3506374,7.618863,8.411761,9.711993,12.345835,15.3419,17.59932,18.651518,19.26957,20.415304,20.818764,20.90995,21.017338,21.040869,21.157703,21.356203,21.529804,21.65636,21.722996,21.78704,21.86887,21.915798,21.914068,21.984604,22.052273,22.0574,22.002893,21.905363,21.80589,21.72158,21.627396,21.54227,21.474447,21.357796,21.247173,21.193115,21.153574,21.201092,21.305592,21.363869,21.486927,21.563053,21.460266,21.372515,21.305286,21.235117,21.14344,21.030754,20.925499,20.813824,20.675688,20.537739,20.400448,20.197292,19.977627,19.79121,19.53889,19.29338,19.120224,18.95022,18.837412,18.796078,18.773571,18.77393,18.789007,18.81704,18.830208,18.80859,18.764854,18.701073,18.61561,18.52797,18.413828,18.300966,18.224995,18.151806,18.085403,18.042439,18.012669,17.993973,17.988712,17.987896,17.969847,17.93008,17.884495,17.83297,17.765995,17.700512,17.638655,17.575985,17.530085,17.497355,17.466354,17.446404,17.436209,17.428673,17.426355,17.427189,17.433506,17.43635,17.427635,17.403503,17.357182,17.300438,17.242485,17.172056,17.116545,17.087961,17.047789,17.027729,17.040657,17.084332,17.166496,17.256172,17.348537,17.456345,17.543388,17.602547,17.656782,17.69153,17.711098,17.72495,17.725264,17.715302,17.692982,17.65541,17.615047,17.57217,17.52517,17.489433,17.465965,17.436398,17.40486,17.377125,17.348644,17.318192,17.289791,17.256855,17.21531,17.180874,17.162567,17.15132,17.13673,17.105919,17.075836,17.069118,17.086346,17.071476,17.047464,17.034103,17.01263,16.982635,16.960865,16.95618,16.977015,17.02952,17.094582,17.21077,17.335922,17.414743,17.369308,17.266674,17.1846,17.05317,16.863695,16.692434,16.586647,16.451456,16.256935,16.009706,15.720921,15.464882,15.286352,14.903382,14.4303,14.047159,13.662243,13.147606,12.599274,12.060661,11.412386,10.856594,10.484664,10.086119,9.722124,9.441456,9.170174,8.893119,8.655689,8.427953,8.172689,7.9536085,7.773833,7.580538,7.422544,7.3109283,7.196636,7.0902185,7.0015554,6.8933964,6.7636385,6.648801,6.547706,6.438408,6.34797,6.2776093,6.19673,6.1247272,6.0717525,6.021455,5.9781857,5.944702,5.909026,5.8675566,5.829423,5.7936497,5.7534037,5.719997,5.6950417,5.670546,5.652912,5.642184,5.631155,5.6200123,5.60984,5.5969586,5.584606,5.57609,5.567462,5.5585356,5.551429,5.545763,5.5397816,5.5332155,5.526478,5.518969,5.510023,5.501524,5.492498,5.482121,5.4730253,5.465149,5.4556623,5.446999,5.4402494,5.4339914,5.430203,5.428834,5.4303217,5.432801,5.4340296,5.434578,5.4356527,5.4375467,5.439678,5.4447107,5.450202,5.4533777,5.4544992,5.451318,5.4455676,5.4371786,5.427743,5.4209785,5.4155855,5.4118757,5.410678,5.410573,5.4104967,5.409053,5.4059706,5.4027615,5.401331,5.4022055,5.40442,5.4099016,5.4176226,5.4277344,5.4411545,5.4537334,5.464369,5.473897,5.4802155,5.484441,5.4891624,5.4938636,5.497923,5.5031147,5.510543,5.518759,5.5277443,5.54121,5.5532503,5.5594893,5.5647616,5.5666943,5.565998,5.560491
7.317994,7.315117,7.3172474,7.32798,7.3461523,7.363573,7.3831153,7.4103456,7.444973,7.4603267,7.6118174,8.20367,9.419188,11.69919,14.545797,17.275013,18.807066,19.737051,20.969326,21.266281,21.24319,21.393108,21.628819,21.808151,21.91876,22.134216,22.378082,22.547527,22.627522,22.604923,22.560272,22.58704,22.699017,22.760935,22.709923,22.627878,22.53386,22.468462,22.427536,22.368757,22.301619,22.24293,22.163406,22.098946,22.07508,22.084145,22.100937,22.11813,22.187805,22.237867,22.20388,22.082256,21.993065,21.954113,21.929634,21.898975,21.85571,21.804173,21.726479,21.594095,21.435585,21.261333,21.016724,20.762226,20.540482,20.264624,20.007893,19.824585,19.639832,19.50227,19.43554,19.402096,19.421362,19.468967,19.508455,19.531754,19.51963,19.48703,19.41672,19.314667,19.216984,19.094522,18.97205,18.888159,18.821438,18.766567,18.732944,18.71283,18.696377,18.683647,18.672688,18.643028,18.586147,18.519611,18.437212,18.331448,18.23323,18.144325,18.058826,17.995811,17.943321,17.88928,17.849335,17.823784,17.806223,17.801094,17.801872,17.803188,17.797874,17.781149,17.748306,17.688686,17.617558,17.546322,17.463696,17.40689,17.388351,17.35556,17.343233,17.36465,17.415966,17.49987,17.582745,17.660955,17.740253,17.795723,17.829353,17.873123,17.910625,17.93104,17.94218,17.938599,17.926392,17.901402,17.859215,17.816513,17.781593,17.744781,17.716042,17.695694,17.674778,17.654682,17.635654,17.627518,17.627377,17.628727,17.634897,17.639282,17.643082,17.658699,17.676535,17.686974,17.689163,17.68999,17.694744,17.70493,17.707664,17.712963,17.723982,17.738861,17.737206,17.720428,17.708565,17.708992,17.715952,17.713829,17.72305,17.73136,17.728016,17.717327,17.704088,17.691025,17.655165,17.614098,17.58823,17.575909,17.565678,17.548347,17.5178,17.499523,17.491304,17.482332,17.441492,17.381897,17.3274,17.269497,17.155546,17.01413,16.877743,16.796415,16.743015,16.653542,16.434113,16.107296,15.805832,15.512198,15.228054,15.004917,14.788815,14.53793,14.264255,13.941186,13.530773,13.1203,12.779951,12.381316,11.991636,11.69223,11.36634,10.9557905,10.569783,10.267312,9.9075165,9.583462,9.350138,9.032578,8.722304,8.503171,8.227823,7.9767265,7.8111753,7.605666,7.3395605,7.081787,6.840209,6.5883083,6.3968387,6.257804,6.1203823,6.0155344,5.944071,5.870617,5.802249,5.747532,5.687221,5.6188045,5.558861,5.5043592,5.443528,5.390855,5.347293,5.3132305,5.2869062,5.2608347,5.2473936,5.2465487,5.251838,5.261799,5.2705355,5.273228,5.272774,5.2738657,5.27597,5.276683,5.2800756,5.2856007,5.2910275,5.3031626,5.3195324,5.334404,5.3518023,5.376816,5.4014072,5.4205074,5.4408064,5.4538927,5.4583592,5.45784,5.451222,5.443214,5.4332957,5.4235973,5.4177294,5.4137545,5.4135866,5.4173493,5.422436,5.4280834,5.4312544,5.4315076,5.428032,5.4221826,5.4176393,5.4139585,5.4135857,5.4169884,5.4228964,5.4315414,5.439824,5.4466906,5.4519653,5.454698,5.4564734,5.458004,5.458992,5.459708,5.4612966,5.4644847,5.4688253,5.47431,5.482851,5.491193,5.4967637,5.503068,5.5074396,5.5090113,5.5079265
7.413517,7.4107695,7.413266,7.4232597,7.4396477,7.455208,7.470823,7.4929442,7.5202208,7.5353136,7.5790796,7.9655323,8.976301,10.805933,13.465027,16.619446,19.006863,20.458618,21.46765,21.967941,22.11396,22.228527,22.563671,22.864437,23.057516,23.327816,23.63832,23.8819,24.03306,24.150051,24.196968,24.198412,24.187382,24.159718,24.12769,24.082039,24.039888,24.015732,24.001158,23.964325,23.904789,23.842117,23.761843,23.697083,23.672922,23.69292,23.733503,23.772045,23.860693,23.831223,23.680666,23.530384,23.405989,23.342007,23.31175,23.301952,23.305107,23.29908,23.26043,23.15855,23.01379,22.84401,22.58318,22.2968,22.043797,21.73629,21.45147,21.243893,21.045345,20.898634,20.826221,20.81656,20.867287,20.934387,20.987057,21.015736,20.999073,20.959648,20.868113,20.738064,20.619617,20.478645,20.340647,20.245401,20.166119,20.10748,20.083412,20.080769,20.090145,20.104523,20.117805,20.106495,20.04597,19.95773,19.838161,19.677076,19.52536,19.383703,19.243736,19.139719,19.055548,18.973824,18.916094,18.87829,18.84582,18.825115,18.812244,18.79179,18.758554,18.716488,18.655003,18.57233,18.488705,18.405914,18.301556,18.217361,18.174072,18.131514,18.126102,18.16019,18.235342,18.349213,18.455812,18.554386,18.655506,18.726364,18.767826,18.809544,18.836124,18.845982,18.84373,18.82744,18.807161,18.775846,18.730036,18.6848,18.642288,18.601448,18.570759,18.543148,18.512627,18.493835,18.490551,18.487665,18.481365,18.471838,18.466051,18.461002,18.45773,18.457317,18.458866,18.465427,18.478615,18.487041,18.489153,18.489239,18.49406,18.499622,18.503296,18.513592,18.520063,18.521088,18.525902,18.536789,18.544195,18.540386,18.533749,18.521675,18.507946,18.52107,18.535805,18.533018,18.515831,18.513363,18.525951,18.526186,18.5252,18.53429,18.55651,18.595837,18.64117,18.676933,18.753937,18.855581,18.943293,19.034784,19.127735,19.204243,19.276014,19.40392,19.51337,19.548527,19.47374,19.286318,19.091255,18.89695,18.705154,18.55085,18.385948,18.192865,17.988222,17.752964,17.445827,17.13826,16.890923,16.596771,16.302954,16.072712,15.822245,15.519879,15.246183,15.033759,14.77795,14.531832,14.328103,14.063704,13.810866,13.628823,13.405216,13.193539,13.044287,12.8774395,12.681523,12.492186,12.288755,12.043314,11.815536,11.619259,11.3959055,11.20686,11.081503,10.949772,10.815531,10.695477,10.554388,10.375132,10.186907,9.967305,9.713221,9.48525,9.295926,9.003698,8.706005,8.504972,8.221588,7.904867,7.6613073,7.469698,7.3171787,7.223984,7.1572237,7.052954,6.932604,6.831466,6.70759,6.5858717,6.4922895,6.3841825,6.2748456,6.185566,6.078093,5.946045,5.8294654,5.7354765,5.6399517,5.567313,5.5167313,5.4670496,5.420784,5.3796616,5.3284106,5.275367,5.236022,5.1994247,5.1657877,5.144695,5.1304007,5.129851,5.13733,5.1385727,5.143388,5.148088,5.150262,5.1577454,5.1716275,5.188595,5.2099767,5.239297,5.26744,5.290359,5.3124723,5.3356857,5.362054,5.3884,5.4110804,5.426788,5.441864,5.45551,5.462596,5.4609146,5.4527445,5.4432483,5.437528,5.4313626,5.4245167,5.417347,5.407226
7.4846478,7.483055,7.486375,7.494792,7.5078783,7.5205975,7.5322766,7.5441313,7.55447,7.548478,7.539736,7.7803655,8.459565,9.934773,12.4640255,15.698605,18.980112,21.088135,21.789036,22.598286,23.035982,23.124287,23.447903,23.833487,24.147587,24.420322,24.71135,24.97672,25.211311,25.580578,25.854149,25.893084,25.818256,25.729523,25.713692,25.699768,25.695147,25.692783,25.683472,25.655655,25.603758,25.542536,25.454058,25.37336,25.335323,25.33735,25.417397,25.519707,25.578663,25.501804,25.323338,25.170845,25.01818,24.909811,24.844532,24.81832,24.831474,24.848454,24.838722,24.773836,24.660408,24.515984,24.266933,23.975376,23.713875,23.390125,23.09116,22.879385,22.680643,22.547962,22.497965,22.509878,22.569418,22.632263,22.687443,22.710756,22.68041,22.626564,22.516136,22.367254,22.23479,22.083515,21.937023,21.833271,21.73822,21.671755,21.656507,21.672562,21.71539,21.770271,21.822151,21.844288,21.79205,21.689438,21.54233,21.33247,21.126892,20.923717,20.71592,20.55968,20.435928,20.318737,20.237497,20.183819,20.129185,20.083961,20.050592,20.005201,19.943071,19.875126,19.783115,19.681057,19.592049,19.501747,19.37735,19.261784,19.185457,19.125439,19.12149,19.166092,19.269915,19.424261,19.565807,19.696848,19.836847,19.938288,19.997765,20.03608,20.041655,20.033352,20.011063,19.97736,19.946304,19.907059,19.858562,19.81179,19.757763,19.70465,19.664196,19.626223,19.581541,19.554192,19.552399,19.536205,19.507925,19.479504,19.45174,19.424194,19.403028,19.383114,19.365288,19.35752,19.359081,19.356926,19.351795,19.347168,19.343449,19.33464,19.322395,19.312084,19.312477,19.326347,19.347382,19.375795,19.406143,19.435425,19.471783,19.507938,19.535805,19.56134,19.569687,19.558283,19.532787,19.49804,19.461863,19.419071,19.352695,19.284206,19.233631,19.179214,19.143635,19.133156,19.128544,19.146826,19.181751,19.226,19.275501,19.31276,19.34377,19.351543,19.34289,19.34468,19.314291,19.249966,19.181284,19.104465,19.009651,18.914076,18.797138,18.664234,18.561554,18.49265,18.409481,18.340197,18.300556,18.25362,18.199467,18.147816,18.088913,18.04113,18.016182,17.990688,17.960255,17.914894,17.843533,17.768654,17.703913,17.650894,17.598034,17.53598,17.475801,17.43742,17.425293,17.41874,17.376617,17.284132,17.151554,17.00724,16.81836,16.64193,16.52306,16.393074,16.250149,16.115433,15.956982,15.756168,15.539087,15.268304,14.948878,14.66704,14.4484215,14.0780525,13.6895685,13.430446,13.008063,12.502559,12.099974,11.758739,11.477961,11.314814,11.2128525,11.082192,10.942354,10.821907,10.669138,10.51264,10.386585,10.207777,9.9930935,9.802546,9.591032,9.345789,9.147381,9.005919,8.886026,8.821606,8.794512,8.748625,8.670926,8.578688,8.458488,8.317455,8.195798,8.069927,7.9274,7.8050528,7.7063866,7.5701623,7.436653,7.341422,7.2428403,7.1477747,7.0668936,6.978913,6.8840046,6.802006,6.719981,6.6160336,6.5160775,6.4329004,6.3310604,6.2181625,6.108803,5.989235,5.8705816,5.775021,5.6744347,5.5651655,5.4842696,5.4463816,5.426429,5.4166107,5.4013896,5.382226,5.3636546,5.34951,5.332495
7.5316715,7.530314,7.532654,7.539835,7.550477,7.559783,7.5690055,7.5671577,7.5551395,7.5334773,7.519771,7.6706448,7.9996405,9.297165,11.774403,14.7703705,18.60334,21.307331,21.947014,22.847672,23.416704,23.59515,23.936361,24.304733,24.576305,24.770382,25.007713,25.282871,25.562971,26.044655,26.499147,26.71624,26.830322,26.801071,26.706024,26.638723,26.592552,26.577444,26.569368,26.554651,26.528305,26.495813,26.446259,26.399662,26.378136,26.387852,26.465925,26.545374,26.50864,26.399294,26.260284,26.127325,25.971195,25.841856,25.7605,25.72025,25.733524,25.763878,25.7714,25.72791,25.630335,25.48993,25.25941,24.993807,24.747456,24.439575,24.167477,23.994001,23.813097,23.705833,23.689732,23.685514,23.720509,23.773018,23.820475,23.835133,23.798721,23.743126,23.631508,23.483807,23.354485,23.21117,23.06763,22.959524,22.86552,22.804604,22.798676,22.827454,22.887112,22.959492,23.027891,23.067225,23.020603,22.910398,22.750006,22.513336,22.273962,22.025251,21.767359,21.57153,21.411757,21.255512,21.14292,21.067238,20.990639,20.928337,20.883804,20.826889,20.752308,20.672548,20.565287,20.453423,20.360455,20.261723,20.125786,20.000542,19.919373,19.8525,19.846203,19.89557,20.016468,20.192707,20.348736,20.488161,20.630447,20.727196,20.779064,20.804708,20.796047,20.776482,20.74089,20.69617,20.659328,20.616014,20.565758,20.518959,20.466686,20.407173,20.357357,20.317678,20.276134,20.243492,20.221985,20.192917,20.169456,20.160059,20.157043,20.157124,20.157436,20.1605,20.156315,20.139406,20.113636,20.08548,20.058773,20.036177,20.011444,19.987492,19.969746,19.954098,19.943146,19.94027,19.94289,19.947418,19.950283,19.949814,19.950457,19.957638,19.970585,19.988562,20.012676,20.03466,20.061386,20.05058,20.000454,19.948841,19.868334,19.784088,19.719467,19.659569,19.626198,19.61742,19.595463,19.587978,19.600916,19.618042,19.616562,19.59866,19.588097,19.586926,19.59576,19.60765,19.586393,19.539143,19.494127,19.434994,19.348148,19.254887,19.152988,19.039627,18.948174,18.877598,18.79353,18.70991,18.638163,18.551075,18.460472,18.387579,18.313957,18.239048,18.176483,18.113785,18.03886,17.973934,17.928547,17.861477,17.789417,17.733482,17.663267,17.586262,17.523493,17.471516,17.428131,17.398018,17.370844,17.339806,17.304861,17.264847,17.208496,17.14429,17.08786,17.017967,16.936058,16.86352,16.792702,16.727394,16.67463,16.60982,16.522259,16.464287,16.46498,16.473236,16.475632,16.461372,16.339775,16.148308,15.980051,15.794031,15.62393,15.540579,15.52123,15.583523,15.690075,15.766293,15.849524,15.916216,15.951952,15.905388,15.7652855,15.60945,15.477108,15.371815,15.342777,15.374349,15.481567,15.637262,15.786016,15.856888,15.796607,15.666196,15.489172,15.256769,15.035242,14.793321,14.497282,14.220208,13.991013,13.585595,13.146671,12.847228,12.508925,12.171667,11.891494,11.566885,11.199625,10.869462,10.525154,10.082633,9.65777,9.305731,8.894731,8.43992,7.9820156,7.490459,7.015769,6.6438074,6.259198,5.8565273,5.57366,5.461446,5.4346156,5.447996,5.4301977,5.4052353,5.3829656,5.3704715,5.357747
7.58305,7.580944,7.5814643,7.5856094,7.5926476,7.5989094,7.60176,7.588567,7.5636783,7.530388,7.5077553,7.5887456,7.6999855,8.687235,10.908786,13.734913,18.09998,21.309464,21.803215,22.812756,23.561398,23.839699,24.162395,24.49096,24.74083,24.90858,25.12466,25.391365,25.667973,26.168056,26.722103,27.09494,27.380796,27.478117,27.414394,27.32668,27.226162,27.173119,27.173397,27.185879,27.198086,27.200336,27.198444,27.200798,27.211819,27.231117,27.278797,27.326155,27.338333,27.25813,27.113014,26.983347,26.829369,26.70436,26.631287,26.599075,26.619522,26.656927,26.683792,26.676805,26.61758,26.504759,26.30611,26.06923,25.8462,25.557056,25.287054,25.102367,24.917997,24.807781,24.78645,24.779322,24.820034,24.885424,24.947227,24.975199,24.946539,24.89574,24.786224,24.636154,24.502419,24.35442,24.212294,24.11163,24.023182,23.972672,23.981394,24.027184,24.109024,24.205482,24.298044,24.362373,24.331436,24.225521,24.067291,23.823292,23.567438,23.288475,22.991325,22.76101,22.571205,22.381031,22.238014,22.137573,22.032589,21.951557,21.903011,21.851177,21.790009,21.7233,21.626476,21.526066,21.43805,21.337414,21.158424,20.985838,20.897938,20.821281,20.800205,20.832586,20.942438,21.116854,21.277328,21.418934,21.560732,21.649513,21.683428,21.694412,21.67595,21.647219,21.598934,21.54191,21.497066,21.444796,21.387146,21.33876,21.293262,21.242659,21.201056,21.168056,21.151087,21.15252,21.157362,21.15612,21.149893,21.14267,21.133862,21.118214,21.100637,21.087618,21.066856,21.042742,21.021025,21.004326,20.986956,20.964119,20.942013,20.921858,20.907162,20.893688,20.884008,20.881516,20.88469,20.88871,20.889317,20.886074,20.877934,20.869175,20.864597,20.857445,20.85254,20.850971,20.848936,20.828266,20.7892,20.743626,20.681705,20.621307,20.574797,20.51868,20.465477,20.426086,20.375063,20.326214,20.297295,20.28812,20.267178,20.231623,20.192192,20.16394,20.146536,20.126465,20.081308,20.019505,19.964376,19.888409,19.78733,19.690472,19.5955,19.490458,19.400528,19.324135,19.23156,19.13822,19.057043,18.966845,18.884417,18.82593,18.77081,18.716528,18.669367,18.618675,18.555645,18.500591,18.463463,18.409405,18.352255,18.308672,18.252373,18.18716,18.130823,18.079525,18.036106,18.011381,17.998672,17.992977,17.988129,17.977032,17.954296,17.917131,17.876043,17.82283,17.76136,17.70771,17.646233,17.569225,17.500036,17.44263,17.396973,17.385479,17.400427,17.423775,17.423977,17.390734,17.31956,17.229477,17.169186,17.160263,17.157967,17.160862,17.192707,17.266575,17.361118,17.441483,17.54004,17.648285,17.742357,17.78595,17.81477,17.85466,17.917732,17.971714,18.00675,18.046139,18.161293,18.31577,18.441967,18.528732,18.513523,18.426968,18.329994,18.215229,18.113235,18.004076,17.87424,17.758759,17.672369,17.50587,17.319267,17.191994,17.051846,16.91597,16.802917,16.654263,16.470863,16.289772,16.059809,15.829202,15.645226,15.451278,15.268333,15.122288,14.998257,14.840178,14.658295,14.482168,14.166855,13.855512,13.481678,12.584095,11.282792,10.152213,9.486513,8.777824,8.113058,7.536463,6.858466
7.637088,7.633984,7.6326914,7.6340365,7.63745,7.6402264,7.637928,7.6183414,7.5871677,7.5462875,7.5145555,7.5507565,7.5615025,8.23144,10.074928,12.636275,17.366837,20.994816,21.398441,22.42995,23.256187,23.611809,23.951893,24.284382,24.546406,24.745634,24.978693,25.246565,25.529114,25.97077,26.511238,26.969463,27.358112,27.563969,27.573675,27.540834,27.487152,27.45662,27.451084,27.473171,27.51741,27.559767,27.595592,27.622036,27.640862,27.663086,27.681665,27.695984,27.741634,27.70464,27.587355,27.477295,27.336853,27.211407,27.129053,27.074505,27.068638,27.09188,27.12259,27.158478,27.17362,27.162323,27.0802,26.913126,26.698492,26.41299,26.135998,25.936844,25.743423,25.620518,25.584267,25.57565,25.625956,25.706158,25.784273,25.829647,25.813515,25.770906,25.667889,25.518753,25.381699,25.229385,25.088089,24.994019,24.910715,24.868914,24.889622,24.949968,25.052015,25.169579,25.280571,25.365753,25.352335,25.257332,25.107967,24.863289,24.599411,24.316956,24.007317,23.754133,23.535336,23.308897,23.13502,23.013878,22.89732,22.815228,22.769188,22.728664,22.683643,22.629519,22.562191,22.394814,22.178785,22.002182,21.769787,21.590626,21.524345,21.471207,21.484402,21.553688,21.684643,21.869453,22.033092,22.174307,22.312637,22.392345,22.40921,22.40051,22.368279,22.333994,22.28447,22.234089,22.199791,22.163986,22.111963,22.055922,22.00718,21.953655,21.910393,21.876657,21.861305,21.864948,21.870201,21.874027,21.869194,21.855827,21.832733,21.812706,21.801344,21.784763,21.754501,21.724377,21.707684,21.696335,21.686607,21.673512,21.66625,21.66491,21.666695,21.669083,21.678328,21.693813,21.713316,21.736952,21.75438,21.762598,21.769539,21.762882,21.743382,21.714848,21.683193,21.658155,21.622364,21.59121,21.570904,21.544302,21.514395,21.489279,21.471943,21.430359,21.366734,21.30463,21.234167,21.165955,21.122513,21.104366,21.084301,21.052084,21.00597,20.956469,20.909166,20.863235,20.792683,20.70745,20.632753,20.536346,20.419079,20.313713,20.211403,20.096994,19.997787,19.91411,19.813076,19.712437,19.626156,19.531965,19.446922,19.386497,19.327858,19.271694,19.22411,19.17036,19.098967,19.02866,18.969873,18.89494,18.822495,18.768036,18.704082,18.63299,18.571045,18.514364,18.468748,18.444237,18.4283,18.41994,18.41431,18.403395,18.378506,18.338362,18.295773,18.243202,18.187346,18.141232,18.08475,18.001122,17.916407,17.846046,17.789986,17.747238,17.69482,17.624023,17.540314,17.463036,17.393972,17.344273,17.332016,17.400925,17.480833,17.527536,17.570452,17.607986,17.642426,17.683937,17.739382,17.820889,17.914436,18.044838,18.248468,18.462551,18.67049,18.820103,18.860817,18.851986,18.860691,18.882069,18.890125,18.916845,18.939854,18.94352,18.961014,18.985252,19.0075,19.033989,19.064945,19.097786,19.136324,19.197304,19.26061,19.305408,19.357178,19.403873,19.433628,19.443624,19.431667,19.398994,19.317207,19.282894,19.296694,19.272587,19.29506,19.387352,19.509483,19.615774,19.699907,19.745651,19.674168,19.647621,19.491257,18.677492,17.406761,16.274588,15.615969,14.884693,14.1647625,13.527456,12.828157
7.68549,7.6814876,7.6789684,7.6788225,7.6797915,7.679494,7.6757536,7.655265,7.622363,7.5779934,7.5382833,7.5496655,7.5297832,7.9938316,9.51215,11.762158,16.545336,20.434649,20.977507,21.920609,22.656792,23.058578,23.452213,23.833282,24.130447,24.385569,24.668308,24.971039,25.289743,25.682045,26.15643,26.60593,26.987799,27.215158,27.277985,27.342258,27.420475,27.478899,27.477879,27.508863,27.577581,27.654018,27.71476,27.745697,27.754482,27.772982,27.78062,27.772724,27.76746,27.736803,27.672653,27.589277,27.45806,27.318485,27.214527,27.126749,27.088362,27.095161,27.122173,27.188204,27.266777,27.354742,27.382902,27.287708,27.104082,26.855564,26.60024,26.399815,26.199745,26.067596,26.02584,26.011093,26.058437,26.14024,26.221657,26.272459,26.261978,26.223843,26.126305,25.980751,25.844246,25.693188,25.55127,25.455116,25.372046,25.332685,25.358334,25.426392,25.540672,25.671303,25.792625,25.89274,25.888874,25.793442,25.647587,25.400047,25.129326,24.857449,24.554962,24.293467,24.053654,23.795792,23.594435,23.4575,23.345762,23.276384,23.23285,23.195755,23.148483,23.083824,23.014929,22.731153,22.34605,22.078041,21.819702,21.67592,21.642593,21.6368,21.722195,21.866428,22.03518,22.238966,22.412346,22.553999,22.690357,22.767673,22.781677,22.760077,22.71687,22.684166,22.647703,22.619015,22.604254,22.597359,22.560682,22.49799,22.43814,22.367905,22.307043,22.258232,22.2116,22.173439,22.141434,22.11505,22.09461,22.078466,22.052721,22.05169,22.07035,22.069042,22.043736,22.007338,21.982264,21.953213,21.930708,21.91937,21.91645,21.925484,21.939804,21.955849,21.982983,22.0161,22.051159,22.097328,22.140083,22.171288,22.207596,22.224014,22.214376,22.19774,22.175835,22.157701,22.135386,22.117577,22.109764,22.104332,22.097399,22.086676,22.073868,22.039452,21.987133,21.93776,21.875202,21.821802,21.797064,21.78648,21.773842,21.75111,21.718685,21.67012,21.617521,21.575317,21.501501,21.409636,21.330914,21.234356,21.117,21.008163,20.896278,20.769676,20.663593,20.581081,20.484003,20.385654,20.297459,20.194254,20.09039,20.008377,19.923666,19.838608,19.766481,19.686825,19.581825,19.47924,19.394508,19.285088,19.178661,19.098938,19.008667,18.915945,18.840832,18.775349,18.72158,18.688553,18.661777,18.646023,18.641125,18.636044,18.617722,18.58302,18.543987,18.495903,18.446253,18.409664,18.3788,18.34421,18.310413,18.28017,18.236177,18.170465,18.083355,17.993162,17.927765,17.893879,17.870886,17.866585,17.876701,17.90405,17.94543,17.984087,18.014835,18.057657,18.108597,18.159342,18.220295,18.297626,18.382923,18.563597,18.817373,19.038822,19.234222,19.381897,19.427147,19.406256,19.340908,19.258377,19.190819,19.161806,19.195572,19.259052,19.3233,19.373917,19.397476,19.42066,19.433306,19.436115,19.44163,19.454727,19.472755,19.489475,19.498505,19.48469,19.45282,19.400902,19.323895,19.242722,19.148697,19.031113,18.932932,18.869736,18.806004,18.753838,18.713528,18.675425,18.667675,18.696087,18.775154,18.912983,19.066002,19.232727,19.453606,19.632082,19.721981,19.749186,19.706928,19.652187,19.698673
