3.2450366,3.2453947,3.2463503,3.2474449,3.2484188,3.2492423,3.2499328,3.2507043,3.2517366,3.252993,3.2543082,3.25569,3.2572684,3.259019,3.260662,3.2621903,3.2635345,3.2646136,3.265418,3.2660055,3.2664127,3.2666025,3.2666035,3.26634,3.265951,3.2655253,3.2651486,3.2648876,3.2647157,3.264616,3.2645857,3.2646477,3.2647781,3.264978,3.2652473,3.2655606,3.2658975,3.2662444,3.2665775,3.2668662,3.2671297,3.2673917,3.2676716,3.267993,3.2683263,3.2686918,3.2690754,3.2695217,3.2700758,3.270744,3.2714674,3.2719917,3.272375,3.2725272,3.2724228,3.2720628,3.2715166,3.270937,3.2703702,3.269845,3.2692742,3.2686434,3.2679422,3.267179,3.2663844,3.26554,3.2646246,3.263639,3.2626245,3.2615688,3.2604733,3.2593656,3.2582521,3.2571278,3.2559524,3.2547748,3.2536144,3.2524848,3.2513857,3.250277,3.24909,3.247663,3.2458858,3.2437139,3.241246,3.2386978,3.2362742,3.2340763,3.232081,3.2302246,3.2284424,3.2266655,3.2248948,3.223192,3.2216237,3.220049,3.2183952,3.2166245,3.2147577,3.2128973,3.2111845,3.2097347,3.2084553,3.207223,3.2059748,3.2045765,3.2029586,3.2011912,3.199411,3.1976562,3.195877,3.194138,3.192443,3.1907759,3.1891444,3.1875806,3.1860886,3.184555,3.1829882,3.1814346,3.1799374,3.1785111,3.1771567,3.175865,3.1744595,3.1728787,3.1711745,3.1693983,3.1676044,3.165855,3.1641836,3.1624703,3.1606355,3.1587303,3.156781,3.1548347,3.1529546,3.1511989,3.1495996,3.1480312,3.1465669,3.1452498,3.144081,3.1430008,3.1419394,3.1408968,3.1397738,3.1385827,3.1373317,3.1360364,3.134756,3.1335564,3.132504,3.1314826,3.1305072,3.1295748,3.1286933,3.127858,3.127057,3.1263463,3.1256757,3.1251414,3.1246538,3.1241426,3.1235735,3.1229186,3.1221948,3.1214123,3.1205978,3.1198401,3.1191976,3.1186717,3.1182313,3.117846,3.1174812,3.1171217,3.116832,3.116607,3.1164033,3.1161323,3.1157112,3.1151633,3.1144974,3.1137521,3.1130595,3.11251,3.1121082,3.1118195,3.1116257,3.1114564,3.111262,3.111078,3.1109648,3.1109736,3.1111197,3.111374,3.1116614,3.1119733,3.1121867,3.1122456,3.1121464,3.11189,3.1114902,3.1109939,3.1104007,3.1097891,3.1092095,3.1086116,3.1079068,3.107081,3.1062098,3.1052775,3.1043792,3.103624,3.1029902,3.1023889,3.1017761,3.1011539,3.100628,3.1002078,3.0998716,3.0995557,3.0992403,3.0990021,3.0989678,3.0992203,3.0996475,3.1001983,3.1006622,3.100934,3.1011043,3.1012971,3.1015964,3.10178,3.101722,3.1012013,3.1003675,3.0993786,3.0980558,3.0963507,3.0938973,3.0900316,3.084446,3.0768428,3.0675645,3.0574703,3.0469115,3.035847,3.0237095,3.0111356,2.9993467,2.989173,2.9809303,2.9749203,2.9699826,2.9658692,2.9621787,2.9588647,2.9559894,2.953467,2.9511776,2.9490457,2.946687,2.9441314,2.9412808,2.9381418,2.9348063,2.9313903,2.928134,2.9248257,2.9217062,2.9188938,2.916479,2.9146686,2.9135344,2.9127011,2.9121628,2.9116936,2.9111414,2.910524,2.9099789,2.9095466,2.9090986,2.9085789,2.9079576,2.9072514,2.9065166,2.9057555,2.9048738,2.9037528,2.9023037,2.9005246,2.8984523,2.8963542,2.8943808,2.8925586,2.8909485,2.8896062,2.8885002,2.8877738,2.8873909,2.8871982,2.8870652,2.8869467,2.8868673,2.8867931,2.8866181,2.8863053,2.885799,2.885317
3.2205338,3.2210941,3.2220454,3.2230258,3.223884,3.2246628,3.2253954,3.226234,3.2273083,3.228582,3.2298856,3.2312267,3.2327359,3.2343946,3.2359354,3.2373624,3.2386084,3.2396104,3.240354,3.2408824,3.2412267,3.2413476,3.2412791,3.2409458,3.2404993,3.2400508,3.239688,3.2394636,3.2393365,3.2392673,3.2392416,3.239274,3.239337,3.2394428,3.2396083,3.239822,3.2400746,3.240357,3.2406435,3.2409081,3.2411613,3.2414129,3.2416797,3.2419841,3.24231,3.242673,3.2430582,3.2434974,3.2440274,3.2446518,3.2453065,3.2457478,3.246027,3.2460585,3.2458363,3.2453828,3.2447767,3.244163,3.243575,3.2430344,3.2424548,3.2418313,3.2411654,3.2404668,3.2397537,3.2389958,3.2381592,3.237239,3.2362642,3.23522,3.2341156,3.2329926,3.2318716,3.2307591,3.2296288,3.2285337,3.227488,3.2264905,3.2255216,3.2245307,3.2234507,3.2221346,3.220469,3.218411,3.2160544,3.2136042,3.2112608,3.2091234,3.2071695,3.205338,3.2035654,3.2017908,3.2000217,3.1983237,3.1967654,3.1952024,3.1935625,3.1917982,3.1899214,3.1880383,3.1863017,3.1848388,3.1835594,3.1823504,3.1811442,3.1797986,3.1782331,3.1765144,3.1747818,3.1730719,3.1713438,3.1696625,3.1680267,3.1664174,3.1648388,3.1633222,3.1618762,3.1603975,3.1588917,3.1574044,3.1559706,3.154599,3.1532898,3.152037,3.1506677,3.1491165,3.1474338,3.1456656,3.143869,3.1421149,3.1404462,3.1387455,3.1369352,3.135062,3.1331468,3.1312318,3.1293774,3.1276412,3.1260512,3.1244874,3.123012,3.1216683,3.1204624,3.119338,3.1182294,3.117145,3.11599,3.1147828,3.1135416,3.1122801,3.1110487,3.1099024,3.1088982,3.1079218,3.1069965,3.106122,3.105308,3.1045463,3.103818,3.1031728,3.1025643,3.1020892,3.1016598,3.1012082,3.1006987,3.1001024,3.0994358,3.0987086,3.0979505,3.0972486,3.0966573,3.0961761,3.0957751,3.095424,3.0950952,3.0947843,3.0945673,3.0944374,3.094345,3.094191,3.0938792,3.0934267,3.0928478,3.092184,3.091559,3.0910513,3.0906572,3.090334,3.090063,3.0897832,3.0894408,3.089086,3.0887792,3.0885835,3.0885406,3.088634,3.088797,3.0890307,3.089207,3.089277,3.0892339,3.0890722,3.0888095,3.088479,3.088101,3.0877328,3.0873988,3.0870237,3.086501,3.0858145,3.0850534,3.0842042,3.083375,3.0826697,3.0820763,3.0815392,3.0810342,3.0805507,3.0801857,3.0799208,3.0797234,3.0795202,3.0792875,3.079101,3.0790858,3.0793047,3.0796576,3.0801115,3.0805154,3.0807886,3.080985,3.0811806,3.0814216,3.0816555,3.0819511,3.0819802,3.08183,3.081688,3.0813532,3.0807667,3.079615,3.0772817,3.0733669,3.067444,3.0597482,3.0510345,3.0415232,3.031137,3.019235,3.0064726,2.99401,2.9827514,2.9731894,2.965652,2.9591208,2.9533534,2.9481225,2.9435115,2.9396143,2.936335,2.9335656,2.931177,2.9289935,2.92694,2.9248133,2.9224458,2.9197764,2.916882,2.9140034,2.9108887,2.9078078,2.9048097,2.9020329,2.8997478,2.8980346,2.8965917,2.8953643,2.8941426,2.8928742,2.8916605,2.8907216,2.8901234,2.8896582,2.8893094,2.8889613,2.8886914,2.8885117,2.8883486,2.888038,2.8873768,2.8862672,2.884737,2.8827708,2.8806648,2.8785877,2.8765802,2.8747385,2.8731244,2.8717322,2.8706892,2.8699741,2.8694623,2.8690617,2.8687637,2.868599,2.868479,2.8683558,2.8681612,2.8678303,2.8675523
3.194796,3.1954222,3.1963043,3.1971855,3.1980035,3.1988258,3.1996667,3.200612,3.2017484,3.2030416,3.2043328,3.205638,3.2070909,3.2086728,3.2101216,3.211454,3.212601,3.2135181,3.2141905,3.2146525,3.2149315,3.2149944,3.2148724,3.2145147,3.2140727,3.2136602,3.2133617,3.2132146,3.21316,3.2131429,3.2131495,3.213178,3.2131922,3.213212,3.213276,3.213396,3.2135792,3.213811,3.214073,3.2143383,3.2146006,3.214861,3.2151332,3.2154374,3.2157693,3.2161453,3.2165425,3.2169816,3.217489,3.2180624,3.2186365,3.2189808,3.2191386,3.219032,3.2186813,3.2181318,3.2174716,3.216837,3.2162426,3.215701,3.2151296,3.2145298,3.213916,3.2133005,3.212686,3.2120292,3.2112818,3.2104263,3.209475,3.2084103,3.2072558,3.2060728,3.204895,3.2037501,3.2026205,3.2015672,3.2006037,3.1997123,3.1988547,3.1979709,3.1969912,3.195782,3.1942291,3.1922886,3.1900485,3.1877017,3.1854389,3.1833625,3.181447,3.1796365,3.1778727,3.176099,3.1743326,3.1726475,3.1711063,3.169564,3.1679456,3.1661935,3.1643138,3.1624148,3.1606576,3.1591792,3.1578965,3.1566975,3.1555176,3.1542058,3.1526737,3.1509871,3.1492884,3.1476126,3.1459217,3.1442823,3.142689,3.1411195,3.1395798,3.1381044,3.1367068,3.1352882,3.1338577,3.1324506,3.131092,3.129784,3.1285238,3.1273096,3.1259792,3.1244612,3.1228018,3.1210475,3.1192589,3.1175137,3.11586,3.1141856,3.112414,3.1105843,3.1087167,3.106852,3.1050477,3.1033587,3.10181,3.1002798,3.098824,3.0974772,3.0962467,3.0950823,3.093923,3.092791,3.0915956,3.0903645,3.0891294,3.087904,3.0867257,3.0856376,3.0846858,3.0837612,3.0828905,3.082077,3.0813336,3.0806475,3.0799923,3.0794115,3.0788603,3.0784335,3.0780506,3.0776463,3.07719,3.0766544,3.0760481,3.0753863,3.0746949,3.074058,3.0735257,3.0730944,3.072733,3.0724154,3.0721178,3.0718517,3.0716975,3.071649,3.071651,3.0715947,3.071377,3.0710092,3.070516,3.0699456,3.0694094,3.0689797,3.068637,3.0683208,3.0680132,3.0676575,3.0672007,3.0666995,3.0662148,3.0658197,3.0655773,3.065485,3.0654874,3.065586,3.0656612,3.0656705,3.0656116,3.0654862,3.065319,3.065121,3.0649362,3.0647993,3.0647063,3.0645618,3.0642471,3.0637445,3.0631528,3.0624652,3.0617957,3.061232,3.0607648,3.0603538,3.0599847,3.059641,3.0594146,3.0592647,3.0591621,3.0590334,3.058852,3.058694,3.058673,3.058836,3.0590882,3.059424,3.059741,3.0599885,3.0601995,3.0604053,3.060632,3.0607986,3.0610745,3.0613666,3.0617137,3.0621629,3.06255,3.0627832,3.0626283,3.0615509,3.059143,3.0550172,3.0492682,3.0423691,3.0344868,3.025455,3.0145876,3.0024853,2.9901109,2.9783373,2.9677873,2.9588075,2.9506173,2.9429529,2.9358225,2.9294658,2.9240704,2.9196196,2.9160342,2.913113,2.9108539,2.909072,2.9075067,2.9058464,2.9038894,2.9016871,2.8994203,2.8967276,2.8938904,2.890894,2.8879147,2.8852665,2.883031,2.8809955,2.8790526,2.8770297,2.8749871,2.8731275,2.8716648,2.8706727,2.870068,2.8697128,2.8694525,2.8694444,2.8696604,2.8699741,2.8701746,2.869966,2.8692534,2.8680673,2.8663468,2.8643868,2.8623586,2.8603108,2.8583748,2.8566175,2.8550525,2.8537688,2.8527746,2.8519635,2.8512664,2.8507142,2.8503373,2.8500545,2.8498325,2.8496277,2.8493927,2.849269
3.1686804,3.1692915,3.1700864,3.1708984,3.1717238,3.172626,3.173588,3.1746478,3.1758523,3.1771762,3.1784716,3.17976,3.1811702,3.1826835,3.184044,3.185282,3.1863313,3.1871662,3.1877763,3.1881893,3.1884298,3.188469,3.1883285,3.187987,3.187588,3.1872418,3.1870294,3.1869793,3.1870172,3.187079,3.1871462,3.1872058,3.18721,3.1871848,3.1871867,3.1872504,3.1873927,3.1875992,3.1878612,3.1881413,3.188423,3.1886988,3.188979,3.189283,3.1896157,3.1899948,3.1903906,3.190814,3.1912873,3.1918044,3.1922987,3.192552,3.1926036,3.1923862,3.1919408,3.191335,3.1906624,3.190047,3.1894815,3.1889706,3.1884353,3.1878796,3.1873279,3.186799,3.186285,3.185728,3.1850662,3.1842709,3.1833315,3.1822271,3.1809978,3.1797266,3.1784625,3.1772494,3.1760745,3.1750064,3.1740592,3.1732059,3.1723957,3.1715617,3.1706347,3.169489,3.168016,3.1661701,3.1640308,3.161779,3.1595912,3.157572,3.155693,3.1539025,3.1521494,3.1503813,3.1486235,3.1469584,3.1454422,3.143927,3.1423383,3.1406097,3.1387417,3.1368418,3.135078,3.1335938,3.132311,3.1311178,3.129951,3.128656,3.1271381,3.1254668,3.1237888,3.122139,3.1204786,3.1188736,3.1173143,3.115778,3.1142743,3.1128435,3.1115031,3.1101558,3.10881,3.1074915,3.1062133,3.1049693,3.1037576,3.1025798,3.1012864,3.0997996,3.0981631,3.096425,3.09465,3.0929217,3.0912948,3.0896564,3.0879333,3.0861626,3.0843608,3.0825686,3.0808418,3.0792305,3.0777526,3.076289,3.074885,3.0735655,3.0723352,3.0711489,3.0699525,3.0687823,3.0675507,3.0662973,3.0650666,3.0638728,3.0627415,3.0617056,3.0608034,3.0599265,3.0591028,3.0583415,3.0576556,3.0570295,3.0564332,3.0559025,3.0553966,3.0550065,3.0546575,3.0542917,3.053885,3.0534096,3.0528655,3.0522735,3.0516512,3.0510793,3.050606,3.0502226,3.0498967,3.0496063,3.049332,3.0490942,3.0489755,3.0489695,3.0490189,3.0490112,3.0488424,3.0485218,3.048083,3.0475852,3.047132,3.0467908,3.046528,3.0462632,3.0459766,3.045611,3.0451157,3.0445528,3.0439768,3.0434637,3.0430899,3.0428638,3.0427394,3.0427158,3.0426805,3.0425954,3.0424652,3.0423088,3.04216,3.0420158,3.041934,3.0419319,3.041988,3.0419984,3.041845,3.041512,3.0410998,3.0406113,3.040159,3.0398078,3.0395367,3.0393052,3.039101,3.0389032,3.0388026,3.0387487,3.038716,3.0386348,3.0384774,3.038314,3.0382519,3.0383337,3.0384755,3.038703,3.0389543,3.039194,3.039432,3.0396671,3.0399127,3.0400395,3.0401788,3.04042,3.040924,3.0416894,3.0424647,3.0431395,3.0435667,3.0433314,3.0421174,3.0396237,3.0358238,3.030931,3.0250435,3.0178857,3.0087566,2.9981236,2.986661,2.9751675,2.9643393,2.9544308,2.944964,2.9356446,2.9267209,2.9185681,2.911491,2.9055996,2.9008694,2.8970585,2.8942475,2.8922043,2.8907003,2.8893611,2.8878663,2.886195,2.8844225,2.8822126,2.8797297,2.876927,2.8740015,2.8712463,2.8687081,2.866257,2.8637457,2.8610678,2.8583822,2.8559766,2.8540277,2.8525498,2.8515463,2.8509493,2.8505194,2.8504763,2.8507733,2.8512793,2.851777,2.8519015,2.8515594,2.850751,2.8493776,2.8477056,2.8458982,2.8440182,2.8422146,2.840547,2.8390267,2.8376842,2.836557,2.8355403,2.8345861,2.833783,2.8331566,2.8326497,2.8322258,2.8318577,2.83151,2.831316
3.143062,3.1436548,3.1444016,3.1451967,3.1460629,3.1470509,3.1481228,3.1492848,3.1505587,3.1519227,3.1532393,3.154522,3.155888,3.1573203,3.158578,3.159707,3.1606493,3.1613984,3.1619544,3.1623416,3.1625783,3.1626318,3.1625137,3.1622157,3.1618733,3.1615944,3.1614628,3.1615052,3.1616378,3.1617901,3.1619334,3.1620436,3.1620712,3.1620452,3.162033,3.1620789,3.1622057,3.1624079,3.1626785,3.1629744,3.163271,3.163556,3.1638362,3.164131,3.164451,3.164814,3.1651864,3.1655755,3.1660028,3.1664634,3.1668916,3.1670759,3.167058,3.16678,3.1662984,3.1656952,3.1650634,3.164511,3.164011,3.1635618,3.1630855,3.162585,3.162094,3.1616373,3.1612048,3.1607285,3.1601362,3.1593902,3.1584587,3.1573148,3.1560133,3.1546566,3.1533086,3.1520185,3.150774,3.1496482,3.148654,3.1477628,3.146923,3.1460686,3.1451313,3.1439943,3.1425567,3.1407728,3.138712,3.136538,3.134418,3.1324484,3.130602,3.1288285,3.1270833,3.1253204,3.1235723,3.121926,3.120435,3.118949,3.1173952,3.1157024,3.113863,3.1119823,3.1102314,3.1087556,3.10748,3.1062937,3.1051335,3.10384,3.1023219,3.1006527,3.0989866,3.0973585,3.0957284,3.09416,3.0926385,3.091139,3.0896773,3.0882986,3.0870228,3.085755,3.0844996,3.0832696,3.0820675,3.0808802,3.0797105,3.0785656,3.0773044,3.0758443,3.074231,3.0725107,3.0707517,3.0690446,3.06745,3.0658545,3.0641882,3.0624886,3.06077,3.059072,3.0574465,3.0559373,3.0545526,3.0531788,3.0518508,3.050583,3.0493765,3.0481892,3.0469754,3.0457835,3.0445297,3.0432618,3.0420363,3.0408666,3.0397706,3.0387774,3.037917,3.0370803,3.0362966,3.0355768,3.0349314,3.0343451,3.0337868,3.033288,3.032812,3.0324473,3.0321233,3.031791,3.0314305,3.0310116,3.030528,3.0300002,3.029441,3.028925,3.0284996,3.0281568,3.0278604,3.0275908,3.0273304,3.0271037,3.02699,3.0269847,3.0270293,3.027015,3.0268438,3.0265248,3.0260992,3.025636,3.0252368,3.0249684,3.0247881,3.024599,3.0243757,3.0240607,3.0236082,3.0230784,3.0225163,3.0219922,3.0215876,3.0213141,3.0211353,3.0210438,3.0209289,3.020751,3.020524,3.0202856,3.020082,3.0199103,3.0198267,3.0198402,3.0199287,3.0199943,3.0199318,3.0197284,3.019477,3.0191932,3.0189762,3.0188675,3.018824,3.0187964,3.0187707,3.018723,3.0187404,3.0187836,3.0188174,3.018776,3.0186296,3.0184326,3.018293,3.0182662,3.0182865,3.0184107,3.018609,3.0188527,3.0191236,3.019382,3.0196247,3.0197434,3.0198283,3.0199046,3.0202923,3.0211105,3.021992,3.0228112,3.0234714,3.0236988,3.023312,3.0220933,3.019978,3.017046,3.0132542,3.008196,3.0011902,2.9925323,2.9826221,2.9721446,2.9617977,2.951741,2.9416966,2.9313498,2.9211383,2.9115329,2.9029393,2.895594,2.889527,2.88452,2.8806472,2.877713,2.8756065,2.873983,2.8724732,2.8709745,2.8693984,2.8674555,2.8652625,2.86277,2.860142,2.8575695,2.8550236,2.8524213,2.8496032,2.8465462,2.8434696,2.8407025,2.8383875,2.8364635,2.8349419,2.8338583,2.8329792,2.8325849,2.8326182,2.8329732,2.833478,2.8337402,2.8336606,2.8331807,2.832181,2.830873,2.829411,2.8278775,2.826412,2.8250597,2.8237987,2.8226,2.821509,2.8204074,2.8192773,2.8182847,2.8174443,2.8167148,2.8160448,2.8154163,2.8147984,2.8143501
3.1188364,3.11947,3.120246,3.1210923,3.1220403,3.1231265,3.124299,3.125547,3.1268773,3.1282706,3.1295958,3.130855,3.1321516,3.1334758,3.1346076,3.1356053,3.1364217,3.1370664,3.1375546,3.1379106,3.1381412,3.1382098,3.1381235,3.1378663,3.1375666,3.1373336,3.137257,3.1373658,3.137569,3.1377912,3.1379962,3.1381454,3.1381922,3.138175,3.138162,3.138196,3.1383095,3.1385007,3.1387634,3.1390553,3.1393476,3.1396265,3.1398976,3.1401768,3.1404777,3.1408176,3.1411624,3.1415164,3.141902,3.1423197,3.142704,3.1428494,3.1428022,3.142511,3.1420436,3.141488,3.1409302,3.1404629,3.1400433,3.1396651,3.139248,3.1387925,3.1383383,3.137918,3.1375265,3.1370945,3.1365457,3.1358328,3.13491,3.1337466,3.1324053,3.131003,3.129613,3.1282802,3.1269898,3.1258094,3.1247468,3.1237779,3.1228623,3.1219435,3.1209586,3.1197975,3.1183696,3.1166282,3.11463,3.1125226,3.1104598,3.1085296,3.1067042,3.1049376,3.1031885,3.1014194,3.0996704,3.098033,3.0965576,3.095097,3.0935802,3.0919309,3.0901356,3.0882933,3.0865731,3.0851188,3.0838575,3.0826821,3.0815263,3.0802288,3.078703,3.0770297,3.0753717,3.0737646,3.0721703,3.0706472,3.069172,3.0677173,3.0663028,3.0649786,3.063768,3.0625782,3.0614088,3.0602593,3.059121,3.057982,3.05685,3.0557373,3.054509,3.0530818,3.051498,3.0498037,3.0480683,3.0463915,3.0448363,3.0432913,3.0416903,3.040069,3.038446,3.0368571,3.035347,3.0339496,3.0326676,3.031389,3.0301428,3.0289326,3.0277576,3.0265806,3.0253637,3.0241625,3.0229015,3.0216296,3.020412,3.0192618,3.018193,3.0172331,3.0164099,3.0156116,3.0148697,3.0141885,3.0135775,3.0130186,3.0124805,3.0119991,3.011539,3.011188,3.0108821,3.0105777,3.0102563,3.0098844,3.009452,3.0089738,3.0084624,3.007985,3.0075922,3.007278,3.0070066,3.0067544,3.0065024,3.0062768,3.006151,3.0061197,3.0061283,3.0060754,3.0058703,3.0055232,3.0050795,3.0046132,3.0042276,3.0039933,3.0038662,3.003737,3.0035784,3.0033317,3.0029604,3.0025172,3.0020351,3.001575,3.0012136,3.000959,3.0007868,3.0006807,3.0005283,3.000284,2.9999685,2.9996367,2.999345,2.999103,2.9989552,2.9989142,2.9989662,2.9990292,2.9990144,2.9989173,2.998808,2.9987192,2.9987276,2.9988506,2.9990263,2.9991937,2.999334,2.9994287,2.999555,2.9996924,2.9997919,2.9997873,2.9996443,2.9994018,2.999166,2.9990182,2.998909,2.9989204,2.999043,2.9992533,2.999516,2.9997635,2.9999952,3.0001013,3.0002053,3.00024,3.0004997,3.001196,3.002038,3.002851,3.0035582,3.0040133,3.0041223,3.0037856,3.002984,3.0017102,2.9997945,2.9967213,2.9918518,2.9853072,2.977293,2.9683237,2.9589925,2.9494555,2.9395254,2.928917,2.9181385,2.9076858,2.8980267,2.8894835,2.8821402,2.8758478,2.8705904,2.8662786,2.862958,2.8604002,2.8583026,2.856546,2.8548536,2.8528628,2.8507555,2.8485305,2.8462975,2.8441072,2.8418121,2.8393178,2.8364737,2.833335,2.8301291,2.8271914,2.8246207,2.8223274,2.8203893,2.8187213,2.8172286,2.8162594,2.8157716,2.8157084,2.8159685,2.8161726,2.8162034,2.8159397,2.815254,2.81429,2.8131924,2.8120613,2.8110085,2.810063,2.809156,2.8082123,2.8072698,2.8061934,2.8049943,2.8039076,2.8029351,2.80205,2.8011708,2.8003001,2.7994182,2.7987075
3.0968223,3.0975614,3.0984316,3.099379,3.1004362,3.101622,3.1028748,3.104177,3.1055226,3.106906,3.1081977,3.1093936,3.11059,3.1117818,3.1127758,3.1136355,3.1143227,3.1148565,3.1152592,3.115555,3.1157475,3.115797,3.1157084,3.1154592,3.115167,3.1149392,3.114873,3.1149988,3.115224,3.1154704,3.115694,3.1158473,3.1158843,3.1158466,3.1158051,3.1158047,3.1158824,3.1160336,3.1162558,3.1165087,3.1167665,3.1170182,3.11727,3.11753,3.1178117,3.1181316,3.1184566,3.1187892,3.1191535,3.119551,3.119917,3.120055,3.1200135,3.1197484,3.1193285,3.1188433,3.1183717,3.1179862,3.1176395,3.1173193,3.1169415,3.1165023,3.1160421,3.1156073,3.1152053,3.1147718,3.1142347,3.1135387,3.1126301,3.111475,3.110143,3.1087584,3.1073952,3.1060874,3.1048126,3.1036181,3.102505,3.1014605,3.1004615,3.0994663,3.098427,3.0972385,3.0958164,3.0941148,3.092176,3.0901303,3.0881164,3.086217,3.0844014,3.0826292,3.0808642,3.079077,3.0773163,3.0756762,3.0742078,3.0727646,3.071281,3.0696783,3.067934,3.0661411,3.064461,3.063035,3.0617962,3.0606375,3.0594883,3.058191,3.0566597,3.054986,3.0533419,3.0517628,3.0502152,3.04875,3.0473313,3.04593,3.0445688,3.0433002,3.042151,3.04103,3.0399303,3.038844,3.037756,3.0366569,3.035562,3.0344882,3.033302,3.0319204,3.0303807,3.0287273,3.0270345,3.0254045,3.0238996,3.0224147,3.0208879,3.0193555,3.0178356,3.0163603,3.0149665,3.01368,3.0124934,3.0112987,3.0101194,3.0089562,3.0078068,3.0066397,3.005424,3.004222,3.0029597,3.0016937,3.0004902,2.9993594,2.9983144,2.997383,2.9965925,2.9958348,2.995134,2.9944925,2.9939132,2.993375,2.992848,2.9923725,2.9919205,2.991578,2.9912865,2.991005,2.990715,2.9903793,2.9899802,2.9895349,2.9890492,2.988593,2.9882174,2.9879203,2.9876668,2.9874291,2.9871864,2.98696,2.9868145,2.9867496,2.9867156,2.986618,2.9863725,2.9859886,2.985509,2.9850066,2.9845922,2.984342,2.9842143,2.9841027,2.9839797,2.98378,2.9834824,2.983132,2.98275,2.9823847,2.9820995,2.9819012,2.981772,2.9816906,2.9815445,2.981275,2.9809065,2.980505,2.980136,2.9798217,2.9796023,2.9794903,2.979489,2.9795349,2.9795547,2.9795473,2.9795632,2.97964,2.979836,2.9801462,2.9804966,2.9808192,2.9810936,2.9813013,2.9815214,2.981737,2.9818926,2.9819193,2.9817748,2.981494,2.9811897,2.980946,2.9807386,2.9806557,2.9806929,2.9808297,2.9810302,2.9812188,2.9814172,2.9815269,2.9816775,2.981811,2.982067,2.98263,2.9834008,2.9841342,2.9848216,2.9853935,2.9857755,2.9859858,2.9860702,2.985948,2.985404,2.9839368,2.9809718,2.976449,2.9704118,2.9632032,2.955217,2.946526,2.9371848,2.927023,2.9164438,2.9058633,2.8957405,2.8864307,2.8780687,2.8705997,2.8638525,2.857895,2.852945,2.8489552,2.845765,2.8432827,2.841116,2.838941,2.836711,2.8345537,2.832642,2.8308952,2.8290014,2.8268023,2.8241558,2.8211746,2.818046,2.8150897,2.812378,2.8098035,2.8075042,2.8053975,2.8033597,2.8017368,2.8006,2.7999935,2.7998645,2.7998755,2.7998798,2.7997093,2.7992268,2.7985134,2.7976997,2.796897,2.7961884,2.7955947,2.7949996,2.794311,2.7935543,2.792581,2.7914252,2.7903666,2.7894034,2.7885036,2.7875628,2.7865853,2.7855363,2.7846181
3.0752661,3.0761168,3.0770838,3.0781267,3.07927,3.0805168,3.081799,3.0831013,3.0844064,3.0857277,3.0869386,3.088037,3.0891147,3.0901706,3.0910373,3.0917797,3.09236,3.0928102,3.0931501,3.0933995,3.0935636,3.093601,3.0935159,3.093277,3.0929933,3.0927682,3.092699,3.0928206,3.0930395,3.0932784,3.0934968,3.0936365,3.0936456,3.0935683,3.0934815,3.0934331,3.0934606,3.0935552,3.093715,3.0939054,3.0941112,3.094323,3.094542,3.0947776,3.095037,3.095334,3.0956404,3.0959582,3.0963118,3.096703,3.0970697,3.0972214,3.09721,3.0969944,3.0966468,3.0962486,3.095867,3.0955637,3.0952852,3.0950172,3.094669,3.0942304,3.0937428,3.0932646,3.0928185,3.0923524,3.091796,3.091094,3.090188,3.0890422,3.0877323,3.0863898,3.085083,3.0838299,3.0826025,3.0814176,3.0802665,3.0791478,3.078061,3.0769844,3.0758877,3.0746703,3.0732553,3.0715957,3.0697188,3.067733,3.0657663,3.0638955,3.0620897,3.0603123,3.0585327,3.056729,3.0549564,3.0533118,3.051848,3.0504215,3.0489755,3.0474265,3.0457425,3.0440078,3.0423756,3.0409799,3.039765,3.0386238,3.0374818,3.0361814,3.0346456,3.0329747,3.0313497,3.0298069,3.028317,3.0269203,3.0255704,3.0242305,3.0229247,3.0217104,3.0206141,3.0195508,3.0185082,3.01747,3.0164204,3.0153556,3.0142977,3.013268,3.0121315,3.0108125,3.0093374,3.007746,3.0061185,3.0045576,3.0031228,3.0017138,3.0002751,2.9988427,2.9974346,2.99608,2.9948063,2.9936297,2.992537,2.9914217,2.9903047,2.989182,2.988055,2.9868977,2.9856863,2.9844913,2.9832406,2.981992,2.9808109,2.9797008,2.978673,2.9777613,2.9769917,2.9762626,2.9755952,2.9749866,2.974433,2.9739075,2.9733837,2.9729104,2.9724634,2.9721303,2.9718566,2.9716034,2.9713473,2.9710455,2.9706762,2.9702542,2.9697862,2.9693413,2.9689727,2.9686856,2.9684472,2.968223,2.9679902,2.9677615,2.967598,2.9674988,2.9674234,2.9672852,2.967,2.9665813,2.9660647,2.9655128,2.9650474,2.9647532,2.9645925,2.9644659,2.9643483,2.964175,2.963934,2.9636638,2.9633775,2.9631076,2.962901,2.9627671,2.9626904,2.9626465,2.962523,2.9622521,2.9618552,2.9614053,2.9609747,2.9605987,2.9603133,2.960134,2.9600782,2.9600995,2.9601398,2.9602046,2.9603224,2.9605284,2.9608636,2.9613051,2.9617743,2.9622064,2.9625788,2.9628706,2.9631686,2.963451,2.96366,2.9637198,2.9635854,2.963295,2.962973,2.962688,2.962442,2.9623125,2.9622843,2.9623394,2.9624465,2.9625406,2.962677,2.9627671,2.9629657,2.9631732,2.9634972,2.9640634,2.9647112,2.9652972,2.9659472,2.9665956,2.9671566,2.9677172,2.968377,2.9690459,2.9695168,2.9693391,2.9680147,2.9653497,2.961248,2.955893,2.9495115,2.9421132,2.9339318,2.9246452,2.9148722,2.9048462,2.8947995,2.8850973,2.8759856,2.8674989,2.8592727,2.8515592,2.8447459,2.8390057,2.8343792,2.8308237,2.827878,2.825213,2.8226876,2.820541,2.8188362,2.8173313,2.8157215,2.8138766,2.8115206,2.808816,2.8058825,2.8030028,2.8002367,2.797477,2.794901,2.7924275,2.789943,2.7877622,2.7859933,2.7847853,2.784196,2.783936,2.7838058,2.783595,2.7831926,2.7826414,2.7820363,2.7814703,2.7810102,2.7806826,2.7803314,2.7798674,2.7793002,2.7784753,2.7774491,2.7765245,2.7756891,2.7749052,2.7740557,2.7731245,2.772044,2.771027
3.052835,3.0537379,3.0547314,3.0557954,3.0569549,3.0581994,3.059456,3.0607078,3.0619292,3.0631485,3.064251,3.065241,3.0662055,3.0671418,3.0679047,3.0685534,3.0690546,3.0694432,3.069738,3.0699577,3.0701118,3.0701585,3.0701008,3.069905,3.069663,3.06947,3.0694194,3.0695462,3.0697618,3.0699887,3.07019,3.0702987,3.0702624,3.070129,3.069976,3.069857,3.0698104,3.069821,3.0698915,3.0699959,3.0701306,3.0702925,3.0704803,3.0706973,3.0709429,3.0712304,3.0715346,3.071858,3.0722222,3.072629,3.0730124,3.073193,3.073223,3.0730667,3.0727882,3.072465,3.072157,3.0719166,3.0716872,3.071456,3.0711281,3.070682,3.0701556,3.069615,3.069101,3.0685735,3.067965,3.0672197,3.0662794,3.0651088,3.0637932,3.0624735,3.061212,3.0600185,3.058848,3.0576901,3.05652,3.055344,3.0541837,3.0530405,3.0518994,3.0506644,3.0492644,3.0476494,3.0458302,3.043898,3.0419712,3.0401225,3.038322,3.0365367,3.0347416,3.0329237,3.0311413,3.0294905,3.0280323,3.0266252,3.0252225,3.0237384,3.0221307,3.0204706,3.0189004,3.0175467,3.0163622,3.0152416,3.0141091,3.0128117,3.0112782,3.0096161,3.0080137,3.0065107,3.0050778,3.0037475,3.0024621,3.0011792,2.9999247,2.998757,2.997706,2.9966917,2.9956937,2.9946945,2.99368,2.9926524,2.99164,2.9906666,2.9896028,2.9883714,2.9869924,2.9855015,2.9839761,2.9825184,2.9811826,2.9798744,2.9785428,2.9772258,2.975943,2.9747186,2.9735723,2.9725108,2.9715173,2.970487,2.9694357,2.9683585,2.9672594,2.9661217,2.9649305,2.9637618,2.9625452,2.9613338,2.960187,2.959101,2.9580843,2.9571779,2.9564114,2.9556923,2.9550414,2.9544516,2.953914,2.9533978,2.9528768,2.9524078,2.9519687,2.9516506,2.9514039,2.951188,2.950975,2.9507134,2.950376,2.9499745,2.9495199,2.949078,2.9487116,2.9484334,2.9482121,2.9480078,2.9477925,2.9475732,2.9474058,2.9472902,2.9471927,2.9470334,2.9467325,2.9462984,2.9457598,2.9451694,2.9446535,2.9442997,2.9440794,2.943909,2.94377,2.943596,2.943386,2.9431715,2.9429603,2.942769,2.9426274,2.9425406,2.942496,2.9424725,2.9423583,2.9420846,2.9416685,2.9411852,2.9407125,2.940293,2.9399562,2.939724,2.9396238,2.9396224,2.9396772,2.9397955,2.939987,2.940279,2.9406958,2.9412012,2.941722,2.942206,2.942637,2.9429927,2.9433694,2.94374,2.9440398,2.9441807,2.944106,2.9438565,2.9435618,2.943274,2.9430203,2.942861,2.9427752,2.942748,2.9427576,2.9427593,2.9428387,2.9429226,2.9431777,2.943466,2.943862,2.9444585,2.9450815,2.9456484,2.946244,2.946773,2.9473453,2.9480102,2.9488406,2.949891,2.9509485,2.9516673,2.951651,2.9505985,2.9483151,2.9448376,2.9402494,2.9345317,2.9278812,2.9200191,2.9115973,2.9027243,2.8934298,2.8839705,2.8746336,2.8655295,2.856131,2.8468642,2.8382561,2.8307014,2.8244548,2.8195484,2.8155243,2.812015,2.8088355,2.8063335,2.804513,2.8030279,2.8015401,2.7998042,2.7976196,2.7951763,2.7924914,2.7897625,2.7870402,2.7842455,2.7815592,2.7788906,2.776124,2.773511,2.771195,2.7694101,2.7683105,2.767689,2.767305,2.7669487,2.7664886,2.765905,2.765347,2.7649355,2.7646332,2.7644796,2.7643058,2.7640433,2.7636757,2.763043,2.7622123,2.7614913,2.7608733,2.7603257,2.7597399,2.7590468,2.7581358,2.7572124
3.0300865,3.0309315,3.0318365,3.0328028,3.033871,3.0350308,3.0361981,3.0373483,3.0384488,3.0395377,3.0405188,3.041405,3.0422764,3.0431275,3.0438237,3.0444188,3.0448825,3.0452495,3.045535,3.0457613,3.0459394,3.0460286,3.0460348,3.045918,3.045754,3.045627,3.045621,3.0457668,3.0459862,3.0462046,3.0463839,3.0464547,3.0463653,3.0461671,3.0459416,3.0457425,3.0456123,3.0455284,3.0454988,3.0455093,3.045569,3.0456808,3.0458403,3.0460448,3.0462832,3.0465722,3.046888,3.0472317,3.0476222,3.0480568,3.0484672,3.048685,3.0487618,3.04866,3.0484362,3.0481606,3.0478897,3.0476737,3.0474586,3.047234,3.0469,3.0464292,3.0458539,3.0452418,3.0446475,3.0440407,3.043356,3.0425382,3.0415306,3.0403013,3.0389483,3.0376263,3.0363941,3.0352528,3.0341468,3.0330377,3.0318823,3.0306866,3.0294864,3.0283065,3.0271444,3.025909,3.0245333,3.022963,3.0211973,3.0193124,3.0174198,3.015592,3.0138,3.0120168,3.0102198,3.0084002,3.0066175,3.0049691,3.0035188,3.002136,3.0007792,2.9993649,2.9978445,2.9962716,2.9947762,2.993475,2.99233,2.9912362,2.990121,2.9888341,2.9873114,2.9856677,2.9840932,2.9826274,2.9812446,2.9799685,2.978734,2.9774952,2.9762793,2.975144,2.9741235,2.9731417,2.9721746,2.9712062,2.9702253,2.9692402,2.9682822,2.9673777,2.9664016,2.965279,2.9640265,2.9626708,2.9612827,2.9599571,2.9587433,2.9575536,2.9563422,2.9551468,2.9539871,2.9528875,2.9518623,2.95091,2.950011,2.9490633,2.9480786,2.947051,2.9459863,2.944879,2.9437246,2.9426003,2.9414372,2.9402816,2.9391825,2.9381263,2.937117,2.936202,2.935423,2.934692,2.9340348,2.9334447,2.93291,2.932397,2.9318774,2.9314103,2.9309807,2.9306796,2.9304612,2.930287,2.9301214,2.9299035,2.9295988,2.9292178,2.9287734,2.9283328,2.9279644,2.927693,2.9274907,2.927311,2.9271212,2.9269247,2.9267712,2.9266648,2.9265757,2.9264271,2.9261403,2.9257228,2.9251938,2.9245925,2.924046,2.9236414,2.9233608,2.923139,2.9229636,2.9227695,2.922564,2.9223752,2.9222074,2.9220636,2.921956,2.9218853,2.92184,2.9218059,2.9216733,2.9213822,2.9209523,2.920454,2.9199624,2.9195244,2.9191628,2.918902,2.918775,2.9187584,2.91882,2.9189663,2.9191947,2.9195223,2.9199586,2.9204607,2.9209657,2.9214435,2.9218926,2.9222898,2.9227414,2.9232097,2.9236312,2.9238994,2.9239388,2.9237828,2.9235568,2.923308,2.9230733,2.9229045,2.9227836,2.922699,2.9226418,2.9225945,2.922646,2.9227424,2.923048,2.9233932,2.9238188,2.924406,2.9249983,2.9255626,2.9261339,2.9266162,2.9270728,2.9275713,2.9282641,2.929297,2.9305406,2.9317198,2.932568,2.932725,2.9319348,2.9301162,2.9272363,2.9232812,2.9183793,2.9122581,2.905458,2.8981602,2.8902836,2.8818164,2.8729496,2.8638246,2.8538632,2.8436012,2.8336453,2.8245714,2.8168201,2.8105059,2.8052528,2.800622,2.7964454,2.7931583,2.7907517,2.7888594,2.787148,2.7852833,2.7831306,2.7808056,2.7782679,2.775639,2.7729745,2.7702575,2.767664,2.7650335,2.7622192,2.7593875,2.7567077,2.7544613,2.7528648,2.7518163,2.7510638,2.7504208,2.7497787,2.7490852,2.7484608,2.7480164,2.7477045,2.7475715,2.7474787,2.7473526,2.7471461,2.7466967,2.7460704,2.7455645,2.7451947,2.744946,2.7447448,2.744443,2.7438922,2.7432702
3.0075812,3.0082748,3.0090027,3.009779,3.0106664,3.0116615,3.0126712,3.0136628,3.0146003,3.0155282,3.0163739,3.0171585,3.0179572,3.0187588,3.0194256,3.0200086,3.0204766,3.0208626,3.0211792,3.021449,3.021687,3.02185,3.0219483,3.0219378,3.0218778,3.0218415,3.0218987,3.0220778,3.022309,3.0225224,3.0226836,3.0227246,3.022595,3.0223484,3.022068,3.0218065,3.0216079,3.0214467,3.0213332,3.021264,3.0212593,3.0213268,3.0214581,3.021646,3.021874,3.0221596,3.0224805,3.0228372,3.0232458,3.0237002,3.0241325,3.0243852,3.0245051,3.0244484,3.0242617,3.0240061,3.0237362,3.0235047,3.0232673,3.023017,3.0226512,3.022147,3.021532,3.0208712,3.0202186,3.019551,3.0187988,3.0179071,3.0168223,3.0155177,3.0141058,3.0127559,3.011529,3.0104218,3.009375,3.0083256,3.0072126,3.0060334,3.0048277,3.0036364,3.0024676,3.0012362,2.999881,2.9983468,2.9966261,2.9947855,2.9929318,2.9911373,2.9893742,2.987619,2.985851,2.984058,2.982298,2.9806678,2.9792342,2.97788,2.9765701,2.9752269,2.9737942,2.9723132,2.970898,2.9696577,2.9685578,2.9674978,2.9664068,2.9651413,2.9636436,2.962031,2.9604917,2.9590635,2.9577208,2.9564834,2.9552824,2.954073,2.9528804,2.9517636,2.9507582,2.9497924,2.9488444,2.9479015,2.9469554,2.9460137,2.9451108,2.9442732,2.943383,2.942372,2.9412508,2.940039,2.9387953,2.9376073,2.936517,2.9354448,2.9343486,2.9332638,2.932211,2.9312153,2.930291,2.9294317,2.9286156,2.9277427,2.926821,2.9258428,2.924818,2.9237494,2.9226425,2.9215746,2.920477,2.9193861,2.9183412,2.9173174,2.916315,2.9153886,2.9145892,2.9138355,2.9131577,2.9125547,2.9120154,2.9115005,2.9109821,2.9105163,2.9100947,2.9098074,2.909615,2.9094796,2.90936,2.9091854,2.9089146,2.9085555,2.908124,2.9076886,2.9073234,2.907061,2.906879,2.906728,2.906571,2.906409,2.9062893,2.9062152,2.9061604,2.9060507,2.9058056,2.9054327,2.9049487,2.904375,2.9038353,2.9034142,2.9031003,2.9028435,2.9026375,2.9024224,2.9022074,2.90202,2.9018636,2.9017313,2.9016228,2.901536,2.9014592,2.9013824,2.9012084,2.9008899,2.9004502,2.8999534,2.8994665,2.8990335,2.8986716,2.898405,2.8982654,2.898237,2.898296,2.898449,2.8986874,2.899017,2.8994398,2.8999066,2.9003644,2.9008045,2.9012408,2.9016523,2.902153,2.9027014,2.9032393,2.903645,2.9038253,2.903802,2.9036858,2.9035249,2.9033563,2.903228,2.9031258,2.9030404,2.9029748,2.9029303,2.9029794,2.9030788,2.903376,2.9036875,2.904038,2.9045177,2.9050033,2.905509,2.9060664,2.9065976,2.9070094,2.9073167,2.9077258,2.9084787,2.9096055,2.9109046,2.9121873,2.9130883,2.9133396,2.9127808,2.9112983,2.9088922,2.9056628,2.90136,2.8963108,2.8906875,2.8844817,2.8775392,2.869741,2.8612428,2.8515084,2.8410835,2.8305793,2.8206508,2.8118443,2.8043542,2.7979455,2.792076,2.7866557,2.782174,2.7786553,2.7758033,2.7733717,2.7710252,2.7686243,2.7661715,2.7636285,2.761042,2.7584558,2.7559052,2.753509,2.7510633,2.7484229,2.7456155,2.742797,2.7402492,2.7382126,2.7367022,2.7354908,2.7344315,2.7334976,2.7326353,2.7318864,2.7313175,2.7309093,2.730689,2.7305465,2.730444,2.7303243,2.7300048,2.7295265,2.7291727,2.728988,2.7289863,2.7291546,2.729277,2.7291937,2.7290356
2.9859464,2.986467,2.9870048,2.9875798,2.9882627,2.9890575,2.9898717,2.99067,2.9914188,2.992166,2.992865,2.9935484,2.9942873,2.9950619,2.9957237,2.9963188,2.9968128,2.9972363,2.9975996,2.9979272,2.9982343,2.9984775,2.9986646,2.9987588,2.998805,2.9988613,2.9989862,2.9992003,2.9994419,2.9996474,2.9997938,2.999817,2.9996684,2.9994013,2.999095,2.9987993,2.998558,2.99835,2.9981809,2.9980578,2.9980063,2.9980369,2.9981384,2.9983022,2.99851,2.9987772,2.9990835,2.9994273,2.9998255,3.0002751,3.000709,3.00098,3.0011277,3.001102,3.000935,3.000677,3.0003805,3.0001018,2.9998116,2.999506,2.9990926,2.9985547,2.997922,2.997251,2.996587,2.995905,2.995123,2.9941885,2.9930491,2.9916854,2.9902215,2.9888408,2.9876077,2.986524,2.9855247,2.9845357,2.9834802,2.9823384,2.9811468,2.979957,2.9787853,2.977552,2.9762065,2.9746966,2.973012,2.9712176,2.9694142,2.9676733,2.9659662,2.9642687,2.96256,2.9608226,2.9591055,2.9575057,2.9560971,2.9547715,2.9535012,2.9522173,2.9508615,2.9494648,2.9481277,2.9469497,2.9458983,2.9448767,2.9438152,2.9425821,2.9411259,2.939558,2.9380608,2.9366713,2.9353604,2.9341476,2.9329667,2.9317744,2.9305952,2.9294882,2.9284868,2.927528,2.9265938,2.9256735,2.924759,2.9238544,2.9229927,2.9222026,2.9213758,2.920452,2.9194374,2.9183435,2.9172206,2.9161463,2.9151587,2.9141831,2.9131806,2.9121857,2.9112172,2.9103007,2.909451,2.908665,2.9079194,2.9071128,2.9062493,2.9053192,2.9043374,2.903314,2.9022605,2.9012544,2.9002252,2.8991997,2.8982067,2.8972158,2.896226,2.8952956,2.8944826,2.8937106,2.8930128,2.8923974,2.8918526,2.8913362,2.890818,2.8903532,2.889935,2.8896518,2.8894765,2.8893704,2.889288,2.889152,2.8889146,2.8885798,2.8881662,2.8877435,2.8873897,2.8871427,2.886983,2.886861,2.88674,2.886617,2.8865414,2.8865101,2.886499,2.886437,2.8862453,2.8859322,2.8855128,2.8849978,2.8845,2.8840983,2.8837855,2.8835216,2.883305,2.8830795,2.8828554,2.882658,2.8824916,2.8823447,2.8822112,2.8820877,2.8819628,2.8818283,2.8816044,2.8812594,2.8808188,2.8803377,2.8798757,2.879465,2.879118,2.8788605,2.8787186,2.8786833,2.8787389,2.878893,2.8791354,2.8794658,2.879879,2.8803232,2.8807485,2.8811555,2.8815708,2.8819776,2.8824956,2.883092,2.8837154,2.884238,2.8845558,2.884677,2.8846953,2.8846583,2.8846002,2.8845632,2.884532,2.884501,2.884478,2.8844638,2.8845189,2.8845959,2.884807,2.8849845,2.885159,2.8854437,2.885775,2.8861895,2.8867111,2.8872733,2.8877678,2.8880527,2.8882456,2.8886847,2.8895035,2.8906546,2.8920226,2.893264,2.8941145,2.8943725,2.893883,2.8926563,2.89077,2.8881114,2.8847966,2.8807666,2.8761036,2.8707426,2.864305,2.856966,2.848195,2.8384557,2.8282928,2.8183255,2.8090942,2.80086,2.7935543,2.786523,2.77979,2.7738676,2.7688646,2.7646363,2.7610562,2.7578373,2.7548418,2.751991,2.749284,2.7466714,2.7441585,2.7417984,2.7396026,2.7373645,2.734993,2.7323632,2.7295783,2.726868,2.7244606,2.7224894,2.7207828,2.7192419,2.717938,2.7168288,2.7159266,2.7152658,2.714787,2.7144775,2.714239,2.7140756,2.713942,2.7136493,2.7132215,2.712925,2.7128048,2.7129142,2.7133167,2.7137737,2.7141528,2.7145224
2.9658616,2.9662535,2.966653,2.96708,2.9675999,2.9682193,2.9688573,2.9694796,2.9700565,2.9706373,2.9711995,2.971789,2.9724731,2.9732232,2.9738834,2.9744887,2.9750032,2.9754531,2.9758484,2.9762146,2.9765668,2.9768622,2.9771037,2.9772651,2.9773822,2.9775004,2.9776664,2.9778957,2.978126,2.9783094,2.978432,2.978436,2.9782767,2.9780025,2.977687,2.9773726,2.977107,2.97687,2.9766676,2.97651,2.9764261,2.9764247,2.9764981,2.9766378,2.9768164,2.9770553,2.9773283,2.977635,2.9779932,2.9784057,2.978814,2.9790754,2.9792259,2.9792094,2.979042,2.9787621,2.9784188,2.9780722,2.977705,2.9773207,2.9768386,2.9762564,2.9756103,2.9749498,2.974306,2.9736462,2.9728756,2.9719434,2.9708025,2.9694338,2.967967,2.966597,2.9653878,2.9643443,2.9634006,2.9624794,2.9614902,2.9603949,2.9592242,2.9580436,2.956872,2.955635,2.954298,2.9528108,2.9511633,2.949421,2.947682,2.9460096,2.9443738,2.9427526,2.9411178,2.9394445,2.9377763,2.9362073,2.9348211,2.9335132,2.9322648,2.9310174,2.9297175,2.928388,2.9271164,2.9259977,2.9249942,2.9240127,2.922987,2.921795,2.9203892,2.9188752,2.9174254,2.9160738,2.9147892,2.9135935,2.912425,2.9112444,2.9100738,2.9089713,2.9079723,2.9070191,2.906096,2.9051933,2.9042997,2.903416,2.9025726,2.901801,2.9010057,2.9001303,2.899181,2.8981652,2.897124,2.8961265,2.8952107,2.894306,2.893375,2.892449,2.891544,2.890687,2.8898945,2.8891625,2.8884752,2.8877258,2.8869154,2.8860343,2.8850975,2.8841212,2.883124,2.8821797,2.8812146,2.8802495,2.879307,2.878353,2.8773866,2.8764658,2.8756547,2.8748794,2.874175,2.8735554,2.8730087,2.8724916,2.8719716,2.8714972,2.8710697,2.8707764,2.8705993,2.8705058,2.870446,2.870337,2.8701255,2.8698149,2.8694224,2.869017,2.8686795,2.8684516,2.868313,2.8682144,2.8681226,2.868032,2.8679914,2.867997,2.8680205,2.8679957,2.8678513,2.8675928,2.8672369,2.8667865,2.866341,2.8659756,2.865685,2.8654342,2.8652234,2.865002,2.8647728,2.8645644,2.86438,2.8642097,2.8640463,2.8638842,2.8637135,2.8635304,2.8632653,2.8629053,2.8624787,2.8620286,2.8616037,2.8612256,2.8609054,2.8606675,2.8605356,2.8605075,2.8605742,2.86074,2.860998,2.8613482,2.8617766,2.8622322,2.8626633,2.863069,2.86348,2.8638868,2.8644133,2.865038,2.8657203,2.8663368,2.866775,2.8670266,2.8671694,2.8672557,2.8673081,2.8673677,2.8674183,2.8674564,2.8674912,2.8675127,2.8675776,2.8676262,2.8677335,2.8677573,2.8677404,2.8678193,2.867998,2.868314,2.868792,2.869391,2.8699384,2.870284,2.8704982,2.8707938,2.8712802,2.8720841,2.8732922,2.8745847,2.8756857,2.8763764,2.876492,2.8760428,2.8751106,2.8736634,2.8717794,2.869248,2.8659716,2.861888,2.856793,2.8508599,2.8434916,2.8349915,2.8258095,2.8164515,2.8073685,2.7988582,2.791,2.7830667,2.7751946,2.7678916,2.761384,2.7557073,2.750851,2.7466168,2.7428594,2.7394133,2.736342,2.7335281,2.7309375,2.72865,2.726611,2.7245345,2.7223468,2.7198827,2.717185,2.7143867,2.711678,2.709291,2.7071328,2.7051234,2.7034464,2.702087,2.7010288,2.7002726,2.6997352,2.6993785,2.699132,2.6989064,2.6986592,2.6982663,2.69779,2.6974735,2.6973314,2.6974277,2.697908,2.698559,2.6993027,2.7001445
2.9469233,2.9472418,2.9475582,2.9478831,2.9482808,2.9487634,2.9492567,2.9497309,2.950158,2.950588,2.951016,2.951499,2.9521077,2.952811,2.9534464,2.9540415,2.9545548,2.95501,2.9554167,2.9557974,2.9561656,2.9564743,2.9567251,2.9568987,2.9570203,2.9571333,2.9572792,2.9574676,2.9576442,2.9577742,2.9578457,2.9578145,2.9576373,2.957356,2.9570339,2.9567087,2.9564285,2.9561734,2.9559493,2.9557686,2.955659,2.9556284,2.955671,2.9557748,2.9559126,2.9561014,2.9563155,2.9565527,2.9568346,2.957172,2.9575176,2.957734,2.9578598,2.95783,2.9576468,2.9573336,2.9569302,2.9565003,2.956037,2.9555464,2.9549627,2.9543068,2.953627,2.9529705,2.9523551,2.9517348,2.9510095,2.9501288,2.949049,2.9477534,2.9463716,2.9450903,2.9439697,2.943018,2.9421692,2.94134,2.9404306,2.9393888,2.9382434,2.9370742,2.9359028,2.9346662,2.933341,2.9318848,2.9302897,2.9286199,2.9269633,2.9253795,2.9238365,2.9223068,2.9207556,2.919153,2.9175384,2.9160042,2.9146366,2.9133458,2.9121113,2.9108872,2.9096265,2.9083452,2.907124,2.906055,2.9050944,2.9041514,2.9031668,2.9020247,2.9006796,2.899229,2.8978338,2.8965273,2.895276,2.8941007,2.8929472,2.8917773,2.890615,2.889517,2.8885193,2.8875647,2.8866448,2.8857484,2.8848584,2.8839717,2.8831162,2.8823347,2.8815384,2.880678,2.8797603,2.878787,2.8777957,2.8768506,2.875986,2.8751354,2.8742623,2.8733926,2.872538,2.8717256,2.8709757,2.870286,2.8696399,2.868934,2.8681655,2.8673253,2.866431,2.8655012,2.8645601,2.8636732,2.8627687,2.8618622,2.860972,2.8600633,2.859136,2.8582466,2.8574572,2.8567004,2.8560092,2.8553977,2.854856,2.8543375,2.853804,2.853309,2.8528543,2.852534,2.852333,2.8522277,2.8521676,2.852066,2.8518689,2.851574,2.8511977,2.8508132,2.850498,2.8502884,2.8501666,2.8500848,2.8500109,2.8499413,2.849924,2.8499522,2.849998,2.849998,2.849885,2.849668,2.849364,2.8489718,2.8485775,2.8482513,2.847991,2.847762,2.8475657,2.847353,2.8471222,2.846899,2.8466926,2.8464963,2.8463054,2.8461182,2.84592,2.8457131,2.8454356,2.845086,2.844696,2.8442957,2.843922,2.843588,2.8433042,2.8430967,2.8429894,2.8429842,2.8430772,2.84327,2.8435588,2.843947,2.8444178,2.8449202,2.845397,2.845842,2.846283,2.8467107,2.8472557,2.8479056,2.8486333,2.8493237,2.8498614,2.8502266,2.85048,2.8506784,2.8508348,2.8509877,2.8511174,2.8512254,2.8513217,2.8513885,2.851481,2.851525,2.8515635,2.8514714,2.8512967,2.8511972,2.851231,2.8514378,2.8518524,2.8524623,2.8530726,2.8535194,2.8538275,2.854146,2.8545785,2.8552175,2.8560805,2.8570635,2.8580365,2.858812,2.8592005,2.8591614,2.8587875,2.8581424,2.8572745,2.8559618,2.8540015,2.8512046,2.8473659,2.8426847,2.8368669,2.82989,2.8220563,2.8137584,2.8053129,2.796983,2.7889616,2.7804995,2.7718263,2.7634327,2.7556553,2.7487023,2.7426734,2.7374597,2.732882,2.7287202,2.7250938,2.721861,2.7189746,2.7165318,2.7144217,2.7123537,2.7101328,2.7077212,2.705092,2.7022352,2.6992986,2.6965747,2.6940517,2.691667,2.6896715,2.6880832,2.6868663,2.6859894,2.6853528,2.684898,2.6845517,2.6842022,2.6838531,2.6833715,2.6827688,2.6823134,2.6821547,2.6821952,2.6826513,2.683375,2.6843586,2.685568
2.927263,2.927558,2.9278376,2.9281056,2.928422,2.9288025,2.929181,2.9295337,2.9298325,2.9301205,2.9304087,2.930769,2.9312778,2.931907,2.932498,2.9330626,2.9335568,2.9339967,2.934391,2.9347606,2.9351144,2.935407,2.9356296,2.9357665,2.9358404,2.935892,2.9359643,2.9360683,2.936152,2.9361963,2.936195,2.9361134,2.935911,2.9356208,2.9352946,2.9349623,2.9346697,2.9344015,2.9341612,2.9339643,2.9338343,2.9337783,2.9337893,2.9338524,2.9339423,2.9340672,2.9342012,2.9343438,2.9345205,2.934751,2.9350052,2.9351568,2.9352403,2.9351904,2.9349942,2.934658,2.9342077,2.9337034,2.9331498,2.932555,2.931869,2.9311352,2.9304204,2.9297724,2.9291956,2.9286346,2.9279823,2.9271936,2.926228,2.9250708,2.9238398,2.9227052,2.921719,2.9208848,2.9201427,2.9194012,2.9185529,2.9175432,2.9164042,2.9152277,2.9140468,2.9128003,2.9114816,2.9100585,2.908525,2.9069397,2.9053845,2.9039047,2.9024696,2.901043,2.8995843,2.898059,2.8964982,2.8949938,2.8936408,2.8923535,2.891118,2.8898993,2.888657,2.8874068,2.8862238,2.8851953,2.8842735,2.8833697,2.882431,2.8813481,2.8800747,2.8787,2.8773718,2.8761199,2.8749118,2.873767,2.8726354,2.8714862,2.8703415,2.8692532,2.8682604,2.86731,2.866394,2.865494,2.8645897,2.8636765,2.8627863,2.8619685,2.8611455,2.8602748,2.8593626,2.858409,2.8574452,2.8565333,2.8557053,2.8548977,2.854076,2.8532581,2.8524508,2.8516793,2.8509662,2.8503118,2.8497016,2.8490334,2.8483036,2.847505,2.8466554,2.8457766,2.8448954,2.84407,2.8432298,2.8423843,2.8415534,2.8407028,2.8398304,2.8389904,2.838241,2.837521,2.8368587,2.8362675,2.8357353,2.8352127,2.8346605,2.834135,2.833642,2.8332796,2.8330424,2.8329132,2.8328414,2.8327384,2.8325486,2.8322675,2.8319128,2.8315544,2.8312645,2.8310738,2.8309643,2.8308897,2.830823,2.830759,2.8307471,2.8307784,2.8308234,2.8308244,2.8307223,2.8305292,2.8302612,2.829914,2.829564,2.8292747,2.8290434,2.8288388,2.8286617,2.8284633,2.8282332,2.8279977,2.8277693,2.8275495,2.8273408,2.8271444,2.8269396,2.8267307,2.8264637,2.8261473,2.8258119,2.8254776,2.825166,2.8248868,2.8246477,2.8244777,2.8244064,2.824439,2.8245733,2.8248084,2.8251405,2.825579,2.8261094,2.8266833,2.8272386,2.8277564,2.8282561,2.8287296,2.8293118,2.8300004,2.8307788,2.831544,2.8321798,2.8326552,2.833018,2.833325,2.8335834,2.8338225,2.8340225,2.8341901,2.8343349,2.8344388,2.8345556,2.8346038,2.8345973,2.8344111,2.8340979,2.8338332,2.833709,2.8337765,2.8340821,2.834642,2.835296,2.8358648,2.8363008,2.8366802,2.8370981,2.8376343,2.838316,2.8390481,2.8396986,2.8402169,2.8405676,2.8406448,2.8405986,2.8405008,2.8403902,2.8400774,2.839324,2.8378682,2.8354554,2.8321276,2.8275752,2.8222303,2.8161247,2.8093355,2.8020358,2.7943642,2.7865713,2.777977,2.7688847,2.759753,2.7510028,2.7429943,2.7359397,2.7298176,2.724389,2.719397,2.7150044,2.7110863,2.7076173,2.7047067,2.702227,2.6998966,2.697468,2.6948667,2.6921206,2.689169,2.6860332,2.6830115,2.6801739,2.677551,2.6753302,2.6735144,2.6720963,2.6710665,2.6703124,2.6697302,2.6692247,2.6686757,2.6681516,2.667575,2.6669412,2.6664324,2.666098,2.666051,2.666389,2.66706,2.668146,2.6695948
2.9071717,2.9074788,2.9077618,2.9080172,2.9083018,2.9086323,2.9089456,2.909219,2.909426,2.909603,2.9097714,2.9100158,2.9104226,2.9109707,2.9115057,2.9120271,2.9124854,2.912889,2.9132466,2.9135785,2.913891,2.9141374,2.9143057,2.91438,2.9143796,2.9143481,2.914329,2.9143324,2.9143138,2.9142683,2.9141872,2.9140525,2.9138246,2.913526,2.9131958,2.9128551,2.9125504,2.9122686,2.9120164,2.9118118,2.9116738,2.9116063,2.9115977,2.9116297,2.9116771,2.9117389,2.911789,2.9118304,2.9118938,2.9120092,2.9121675,2.9122508,2.9122968,2.9122427,2.9120631,2.911744,2.911293,2.9107609,2.9101613,2.909503,2.9087462,2.9079545,2.9072065,2.9065542,2.9060013,2.9054847,2.9049015,2.904212,2.90338,2.9023867,2.9013305,2.900356,2.8995023,2.8987703,2.898094,2.8973832,2.8965328,2.895493,2.8943088,2.8930864,2.891869,2.8905947,2.8892694,2.8878708,2.8863933,2.8848891,2.88343,2.8820515,2.8807216,2.8793936,2.8780231,2.876568,2.8750505,2.8735614,2.872205,2.8708978,2.8696337,2.8683887,2.8671343,2.86589,2.8647254,2.8637252,2.862838,2.8619766,2.8610911,2.860076,2.858885,2.8575974,2.856348,2.8551645,2.8540173,2.852921,2.8518329,2.8507252,2.8496182,2.8485632,2.8475957,2.8466697,2.8457682,2.8448675,2.8439426,2.84299,2.8420517,2.841186,2.8403256,2.8394349,2.8385181,2.8375735,2.8366299,2.835744,2.83495,2.8341856,2.8334153,2.832653,2.8318977,2.831172,2.8305001,2.829885,2.8293138,2.8286896,2.8280067,2.8272574,2.8264618,2.8256445,2.8248296,2.8240697,2.8232965,2.8225172,2.8217478,2.8209581,2.8201466,2.8193614,2.8186555,2.8179762,2.8173456,2.8167756,2.8162522,2.8157227,2.8151484,2.814589,2.8140566,2.813655,2.8133886,2.813243,2.8131685,2.8130727,2.812899,2.8126419,2.8123183,2.8119955,2.8117356,2.811563,2.811457,2.8113756,2.8112955,2.8112133,2.8111758,2.8111742,2.811181,2.8111467,2.811023,2.8108268,2.8105688,2.810246,2.8099248,2.809663,2.8094592,2.8092835,2.8091354,2.8089633,2.8087473,2.8085127,2.8082771,2.8080506,2.8078427,2.8076568,2.807467,2.8072762,2.8070357,2.8067632,2.8064895,2.8062253,2.8059788,2.805754,2.80556,2.8054304,2.8054,2.805478,2.8056583,2.8059363,2.8063054,2.806783,2.8073595,2.8079932,2.8086247,2.8092256,2.809803,2.8103461,2.8109903,2.811737,2.8125782,2.8134222,2.8141537,2.8147278,2.8151865,2.815589,2.8159342,2.8162446,2.8164992,2.8167038,2.8168705,2.8169847,2.8171077,2.817161,2.8171372,2.8169024,2.816504,2.816121,2.8158562,2.8157673,2.81592,2.8163497,2.8169456,2.8175387,2.818036,2.8184538,2.8188725,2.8193545,2.8199322,2.8204992,2.820926,2.8211794,2.8212829,2.821237,2.8212795,2.821479,2.821844,2.822231,2.822432,2.822157,2.8210816,2.819123,2.8160572,2.8121934,2.8075595,2.8023574,2.796622,2.7900953,2.7830365,2.7748964,2.7659907,2.7567437,2.7476244,2.7390869,2.7314186,2.7246675,2.718504,2.7126594,2.7073007,2.7023783,2.6979346,2.6941113,2.6908305,2.6878314,2.684829,2.6817918,2.6787338,2.675549,2.6722047,2.668962,2.6659503,2.6631618,2.6607547,2.6587584,2.6571562,2.6559513,2.655077,2.6543388,2.6536205,2.6528158,2.6520767,2.6514099,2.6508029,2.6503313,2.6499417,2.649746,2.6499004,2.6504264,2.6514616,2.652967
2.8871741,2.8874967,2.8877878,2.8880444,2.888319,2.888626,2.8889039,2.8891275,2.8892684,2.8893633,2.88944,2.8895895,2.889908,2.8903809,2.890861,2.8913367,2.8917544,2.8921165,2.892429,2.892713,2.8929758,2.8931694,2.893284,2.8932948,2.8932242,2.8931193,2.8930204,2.8929372,2.8928351,2.892717,2.8925734,2.8923993,2.8921561,2.8918571,2.891528,2.8911843,2.890874,2.890584,2.890329,2.8901267,2.8899944,2.8899307,2.88992,2.8899355,2.8899536,2.8899636,2.8899431,2.8899002,2.8898683,2.8898897,2.889974,2.8900094,2.8900409,2.8900144,2.8898911,2.8896353,2.889234,2.8887255,2.8881297,2.8874536,2.8866613,2.8858275,2.885036,2.8843458,2.8837738,2.8832595,2.882712,2.8820956,2.8813806,2.8805404,2.8796444,2.878807,2.8780558,2.8773868,2.876726,2.8759873,2.875074,2.8739514,2.8726826,2.871387,2.8701143,2.8687992,2.867455,2.8660674,2.8646312,2.8631916,2.861812,2.8605185,2.8592796,2.8580384,2.8567472,2.8553538,2.8538718,2.8523884,2.8510158,2.8496737,2.848362,2.8470688,2.845779,2.8445182,2.8433533,2.8423653,2.8415048,2.840682,2.839849,2.838904,2.8377976,2.8366013,2.8354378,2.8343334,2.8332636,2.8322358,2.831212,2.830168,2.8291206,2.8281188,2.8271973,2.8263097,2.8254313,2.824532,2.823583,2.8225887,2.8216052,2.8206978,2.81981,2.818911,2.8180017,2.8170767,2.8161626,2.8153124,2.8145583,2.8138413,2.8131266,2.8124225,2.8117216,2.8110423,2.8104098,2.8098302,2.8092923,2.8087087,2.8080688,2.807366,2.806624,2.8058653,2.805112,2.8044124,2.8037,2.8029819,2.8022683,2.8015337,2.8007784,2.8000422,2.7993746,2.79873,2.7981277,2.7975771,2.7970614,2.7965264,2.7959342,2.7953491,2.7947905,2.7943664,2.7940893,2.7939448,2.793882,2.7938082,2.7936606,2.793438,2.7931566,2.7928765,2.7926507,2.7924933,2.7923832,2.7922835,2.792174,2.7920566,2.7919707,2.7919095,2.7918525,2.7917583,2.791592,2.7913742,2.7911108,2.790799,2.790496,2.7902565,2.790079,2.7899327,2.7898183,2.7896752,2.7894802,2.7892537,2.7890174,2.7887914,2.7885928,2.788425,2.7882576,2.7880888,2.787876,2.7876441,2.7874265,2.7872252,2.7870393,2.7868652,2.7867153,2.7866282,2.7866435,2.7867708,2.786995,2.7873034,2.7876887,2.7881703,2.788748,2.789394,2.790057,2.7907085,2.7913463,2.7919517,2.7926583,2.7934644,2.7943666,2.7952812,2.7960954,2.7967567,2.7972987,2.7977889,2.7982135,2.7985897,2.798893,2.799124,2.7992923,2.799396,2.7995071,2.7995567,2.7995362,2.7992952,2.7988663,2.7984176,2.7980447,2.797804,2.797781,2.7980194,2.7984447,2.7989302,2.799388,2.7998004,2.80022,2.8006873,2.8012033,2.8016539,2.8019447,2.8020353,2.8019552,2.801816,2.8018186,2.8021,2.802659,2.8034387,2.804295,2.8049173,2.8049192,2.8041596,2.8025625,2.8001127,2.7968898,2.7931585,2.7888582,2.783641,2.7778134,2.7707498,2.7626882,2.7540293,2.7452335,2.73678,2.7290196,2.7220256,2.7153544,2.7087498,2.7023404,2.6961975,2.6904788,2.6853757,2.6809208,2.6768923,2.6729531,2.669217,2.6656518,2.6621017,2.6585162,2.655076,2.651937,2.6490257,2.6464624,2.6443167,2.642557,2.641161,2.640096,2.6391606,2.6381752,2.6370883,2.636128,2.6353898,2.6348526,2.6344845,2.6341743,2.6338823,2.633835,2.6341624,2.6350236,2.6364079
2.8677485,2.86805,2.8683133,2.868542,2.8687854,2.8690534,2.8692865,2.8694582,2.8695369,2.8695612,2.8695645,2.8696418,2.8698888,2.8702984,2.870732,2.8711677,2.8715515,2.871882,2.872158,2.8724003,2.8726206,2.8727717,2.8728452,2.8728075,2.8726888,2.8725343,2.8723817,2.8722453,2.872095,2.8719344,2.8717613,2.8715725,2.8713336,2.87105,2.8707337,2.8704016,2.8700986,2.869813,2.869566,2.8693762,2.8692594,2.8692088,2.8692055,2.8692155,2.869216,2.8691912,2.869124,2.8690283,2.8689399,2.8689075,2.868954,2.868976,2.8690236,2.8690515,2.8690095,2.8688436,2.8685207,2.8680658,2.867506,2.866843,2.866043,2.86518,2.8643365,2.86358,2.8629456,2.8623896,2.8618314,2.8612442,2.8606036,2.8598733,2.859091,2.8583422,2.85765,2.8569994,2.856317,2.8555195,2.8545218,2.853309,2.8519588,2.8505974,2.8492773,2.847929,2.8465667,2.845181,2.8437696,2.842373,2.8410492,2.8398194,2.8386507,2.8374817,2.8362594,2.8349252,2.833481,2.8320098,2.8306274,2.829259,2.8279076,2.8265715,2.8252473,2.8239655,2.822793,2.8218076,2.820962,2.820167,2.8193765,2.8184912,2.817461,2.816349,2.8152673,2.814244,2.8132563,2.8123071,2.8113594,2.810392,2.8094192,2.808482,2.8076186,2.8067753,2.8059254,2.8050303,2.8040643,2.803042,2.802032,2.801105,2.8002167,2.7993345,2.7984557,2.7975717,2.7967024,2.795897,2.7951846,2.794512,2.7938461,2.7931905,2.7925322,2.7918859,2.7912774,2.7907171,2.7901936,2.789629,2.7890105,2.7883363,2.7876282,2.786909,2.7861986,2.7855415,2.784873,2.7841997,2.7835305,2.782842,2.782134,2.7814398,2.780809,2.780198,2.7796276,2.7791038,2.7786067,2.7780814,2.7774916,2.7769053,2.7763462,2.7759247,2.775661,2.775537,2.7754998,2.7754583,2.7753465,2.7751656,2.7749348,2.774703,2.7745123,2.7743688,2.774249,2.774125,2.7739825,2.7738256,2.7736883,2.7735667,2.7734451,2.773292,2.7730842,2.7728477,2.7725816,2.7722816,2.771999,2.7717829,2.7716305,2.7715106,2.7714233,2.7713013,2.7711182,2.7708902,2.770643,2.7704062,2.7702045,2.7700415,2.7698812,2.7697186,2.7695155,2.7693052,2.769125,2.7689714,2.7688346,2.7687068,2.7686005,2.768559,2.7686248,2.7688022,2.7690625,2.769383,2.7697568,2.7702003,2.770726,2.7713213,2.7719493,2.772586,2.7732277,2.773848,2.7745752,2.7754054,2.7763352,2.7772894,2.7781615,2.7788982,2.7795205,2.7800992,2.7806096,2.7810571,2.7814178,2.7816813,2.7818527,2.7819476,2.7820477,2.782094,2.7820914,2.7818713,2.7814493,2.78098,2.7805417,2.7801838,2.7800076,2.7800567,2.780283,2.7806048,2.7809663,2.7813404,2.7817435,2.7822022,2.7826815,2.7830384,2.783206,2.7832065,2.7831185,2.783051,2.7830782,2.7834058,2.7840343,2.784934,2.7860537,2.7871704,2.7878814,2.7879505,2.7873683,2.7861624,2.7843566,2.7819843,2.7789216,2.775024,2.7705815,2.7649038,2.7581391,2.7506194,2.7427137,2.7348735,2.7274997,2.7206593,2.7138028,2.7066953,2.699398,2.692106,2.6851044,2.6786475,2.6729102,2.6677122,2.662672,2.6580386,2.6537848,2.6497402,2.645821,2.6421108,2.638764,2.6357045,2.6329708,2.6306407,2.6287098,2.627117,2.6257877,2.6246111,2.6233525,2.6220236,2.620897,2.6201277,2.619679,2.6194155,2.619171,2.618864,2.6186478,2.6187615,2.6193714,2.6204944
2.8492918,2.8495216,2.8497114,2.8498664,2.850036,2.8502293,2.8503885,2.8504875,2.8504972,2.8504553,2.8503985,2.85042,2.8506126,2.8509731,2.851368,2.8517716,2.8521318,2.8524418,2.852694,2.8529067,2.8530924,2.8532104,2.8532495,2.8531802,2.8530316,2.8528504,2.8526747,2.852519,2.8523564,2.852188,2.8520155,2.8518384,2.8516243,2.8513694,2.8510802,2.8507712,2.8504877,2.8502178,2.8499877,2.849815,2.8497138,2.8496761,2.8496761,2.8496819,2.849669,2.8496227,2.8495312,2.8494139,2.8493075,2.8492615,2.8493035,2.849338,2.8494208,2.84951,2.8495483,2.8494666,2.849219,2.848823,2.8483076,2.847673,2.8468857,2.8460097,2.8451219,2.8442948,2.8435798,2.8429527,2.842348,2.8417473,2.8411293,2.840449,2.8397202,2.8390036,2.8383234,2.837658,2.8369322,2.8360748,2.835012,2.8337398,2.8323464,2.8309565,2.8296204,2.8282633,2.8268971,2.8255148,2.8241162,2.8227415,2.821446,2.8202567,2.8191345,2.8180213,2.8168604,2.8155842,2.8141868,2.8127456,2.8113747,2.8100047,2.8086436,2.8072944,2.805958,2.8046699,2.8034964,2.802513,2.801675,2.8008971,2.8001344,2.799292,2.7983227,2.7972813,2.796267,2.7953138,2.7944016,2.7935286,2.7926588,2.791772,2.7908788,2.7900143,2.7892113,2.7884195,2.7876039,2.786725,2.7857609,2.7847366,2.7837296,2.782814,2.7819514,2.7811103,2.7802835,2.779455,2.7786381,2.777877,2.7772002,2.7765617,2.775929,2.775303,2.7746673,2.7740335,2.7734296,2.7728672,2.7723384,2.7717695,2.771152,2.7704825,2.7697854,2.7690825,2.768392,2.7677565,2.7671113,2.7664647,2.7658265,2.765174,2.7645063,2.7638535,2.7632608,2.762689,2.7621603,2.761678,2.7612207,2.7607315,2.7601755,2.7596185,2.7590885,2.758696,2.758467,2.75838,2.7583795,2.7583747,2.7583046,2.7581708,2.7579927,2.757813,2.757658,2.7575254,2.7573934,2.7572436,2.7570705,2.7568808,2.7567034,2.756537,2.7563696,2.756177,2.7559443,2.7557044,2.7554486,2.7551718,2.7549162,2.7547255,2.7545955,2.7544951,2.7544224,2.7543101,2.7541234,2.7538786,2.7536044,2.7533388,2.753114,2.7529325,2.7527566,2.752575,2.7523577,2.7521448,2.7519774,2.7518523,2.751752,2.7516627,2.7515984,2.7516026,2.7517211,2.751945,2.7522306,2.7525468,2.7528834,2.7532594,2.7536955,2.754194,2.7547312,2.7552905,2.7558699,2.7564433,2.7571306,2.757925,2.7588317,2.7597837,2.7606843,2.7614794,2.762178,2.7628465,2.763442,2.7639651,2.764389,2.7646942,2.7648864,2.7649927,2.7651,2.765161,2.765193,2.765015,2.76463,2.7641807,2.7637243,2.763307,2.7630396,2.76296,2.7630458,2.7632403,2.763505,2.763817,2.7641695,2.7645802,2.7649965,2.7652779,2.7653818,2.7653646,2.7653294,2.7653942,2.765602,2.7661138,2.7668777,2.767743,2.7687445,2.7698963,2.770875,2.7713475,2.7713394,2.7708874,2.7700572,2.7688904,2.767199,2.7646947,2.7614489,2.75709,2.7517276,2.745574,2.7388759,2.7320218,2.725395,2.7190483,2.712378,2.7051563,2.6973686,2.6892877,2.6812959,2.6737194,2.66688,2.6606202,2.6545353,2.6489656,2.6439066,2.6392083,2.6347942,2.6306906,2.6270294,2.6236928,2.6206837,2.618084,2.6159306,2.614143,2.6125736,2.611145,2.6096706,2.608198,2.607018,2.606276,2.6058903,2.6056657,2.6054072,2.605055,2.6047182,2.6046414,2.6049666,2.605744
2.831942,2.832076,2.83217,2.8322287,2.8322992,2.8323932,2.8324564,2.8324723,2.832411,2.8323088,2.8322048,2.8321874,2.8323421,2.832664,2.833026,2.833404,2.8337471,2.8340466,2.8342862,2.8344796,2.8346407,2.8347297,2.834742,2.8346438,2.8344731,2.8342774,2.834093,2.8339362,2.833784,2.8336315,2.8334796,2.833332,2.8331509,2.8329291,2.8326726,2.8323932,2.8321357,2.8318887,2.8316784,2.831521,2.8314285,2.8313894,2.8313808,2.8313694,2.8313348,2.8312674,2.8311596,2.831035,2.8309286,2.830885,2.8309345,2.8309865,2.8310978,2.8312306,2.8313222,2.831295,2.8310947,2.8307357,2.8302484,2.829629,2.8288462,2.8279521,2.8270147,2.8261108,2.8253078,2.8246007,2.823934,2.8232965,2.8226717,2.8220053,2.8212938,2.8205829,2.8198965,2.8192127,2.8184588,2.817572,2.8164892,2.815211,2.8138254,2.812451,2.8111324,2.8097925,2.8084388,2.807065,2.805675,2.8043108,2.803031,2.8018637,2.800775,2.799705,2.7985983,2.7973826,2.7960424,2.794649,2.7933128,2.7919712,2.7906318,2.789299,2.7879748,2.7866955,2.785531,2.7845511,2.7837172,2.7829485,2.7822034,2.7813911,2.7804656,2.7794783,2.7785215,2.777629,2.7767808,2.7759762,2.775183,2.7743764,2.773561,2.7727668,2.7720222,2.7712774,2.770494,2.769634,2.768683,2.767675,2.7666917,2.765809,2.7649894,2.7642043,2.763442,2.7626777,2.76192,2.761208,2.760568,2.7599607,2.7593539,2.75875,2.758128,2.7574968,2.7568836,2.7563057,2.7557592,2.7551742,2.7545433,2.753866,2.7531652,2.7524636,2.7517767,2.7511454,2.7505083,2.7498739,2.7492516,2.748624,2.747992,2.747377,2.7468204,2.7462883,2.745802,2.745368,2.7449617,2.744524,2.7440212,2.7435117,2.7430282,2.74268,2.7424912,2.7424412,2.7424731,2.7424998,2.7424643,2.7423713,2.742241,2.7421048,2.7419791,2.7418532,2.7417078,2.7415333,2.741335,2.7411234,2.7409236,2.7407322,2.7405422,2.740335,2.7401004,2.7398717,2.7396393,2.739395,2.739171,2.7390041,2.7388918,2.738802,2.7387314,2.738615,2.7384133,2.7381387,2.7378254,2.7375212,2.7372642,2.7370563,2.736855,2.736648,2.7364092,2.736184,2.7360187,2.7359114,2.7358403,2.7357824,2.7357578,2.735811,2.7359796,2.736247,2.7365537,2.7368555,2.737145,2.7374415,2.7377758,2.7381597,2.7385807,2.73903,2.7395077,2.739993,2.7406,2.7413187,2.7421656,2.743081,2.743981,2.7448168,2.7455812,2.746327,2.7469954,2.7475824,2.7480626,2.7484136,2.7486398,2.7487783,2.7489152,2.7490108,2.749095,2.7489781,2.748653,2.748251,2.7478147,2.7473845,2.747076,2.7469258,2.746927,2.747037,2.7472181,2.747446,2.7477133,2.7480211,2.7483222,2.7485077,2.7485566,2.7485437,2.748591,2.7488074,2.749197,2.7498817,2.7507734,2.7517233,2.7526681,2.7536068,2.754457,2.7550871,2.7553663,2.7553551,2.7551832,2.754887,2.7542586,2.7530062,2.751071,2.7480738,2.7439666,2.7390337,2.7335687,2.7278693,2.7222009,2.716574,2.7103834,2.7033982,2.6955266,2.6870673,2.6784606,2.6700997,2.6624331,2.6553156,2.6483417,2.6418934,2.635992,2.63054,2.6254976,2.6208763,2.616776,2.6130278,2.6096303,2.6066709,2.6042242,2.6022239,2.6004734,2.5988545,2.597179,2.5956206,2.5944757,2.5938144,2.5934706,2.5932174,2.5928807,2.592432,2.5919795,2.5917435,2.5918012,2.5922198
2.8137608,2.8138022,2.8137991,2.8137562,2.8137183,2.8136969,2.8136487,2.8135672,2.8134255,2.81326,2.8131118,2.8130593,2.813177,2.8134546,2.813775,2.814118,2.8144388,2.8147235,2.8149498,2.8151221,2.81525,2.8152986,2.8152668,2.8151221,2.814907,2.8146744,2.8144655,2.814301,2.8141565,2.8140216,2.8138947,2.8137732,2.8136203,2.8134263,2.8131967,2.8129444,2.8127112,2.8124847,2.8122878,2.8121324,2.812025,2.8119562,2.811906,2.8118489,2.8117685,2.8116627,2.8115287,2.8113942,2.811291,2.811253,2.8113036,2.8113608,2.8114758,2.8116107,2.8117042,2.8116765,2.8114731,2.8111064,2.8106122,2.8099785,2.809174,2.808241,2.807241,2.806254,2.8053603,2.8045726,2.8038414,2.8031616,2.8025236,2.801868,2.8011756,2.8004827,2.799811,2.799141,2.7984111,2.7975655,2.7965436,2.795343,2.7940402,2.7927413,2.7914858,2.7901971,2.7888799,2.7875288,2.7861524,2.784801,2.7835355,2.7823896,2.7813296,2.7803044,2.7792573,2.7781143,2.7768552,2.775543,2.7742798,2.7730122,2.7717414,2.7704697,2.7691967,2.7679543,2.7668118,2.7658439,2.7650118,2.7642446,2.7635028,2.7627037,2.7618065,2.7608585,2.7599454,2.7591023,2.7583113,2.7575715,2.7568507,2.756122,2.7553816,2.7546506,2.753953,2.7532415,2.752479,2.751633,2.7506983,2.7497156,2.7487707,2.7479353,2.7471743,2.746459,2.7457745,2.745089,2.7444024,2.7437491,2.743155,2.7425842,2.7420099,2.7414308,2.7408218,2.7401886,2.739561,2.7389617,2.7383902,2.7377822,2.7371335,2.7364435,2.7357342,2.7350254,2.7343326,2.7336974,2.7330585,2.7324276,2.7318187,2.731216,2.7306185,2.7300415,2.729525,2.7290335,2.7285926,2.7282119,2.7278645,2.7274904,2.7270513,2.726599,2.7261658,2.7258568,2.725694,2.7256582,2.7256956,2.7257254,2.7257,2.7256255,2.7255268,2.7254214,2.7253156,2.7251925,2.725034,2.7248402,2.7246313,2.7244196,2.724228,2.7240486,2.7238758,2.7236912,2.7234838,2.7232907,2.7231011,2.7228987,2.7227082,2.7225618,2.7224545,2.7223582,2.7222705,2.7221317,2.7218957,2.7215786,2.7212195,2.7208757,2.7205906,2.7203636,2.7201486,2.7199273,2.7196798,2.7194524,2.7192936,2.7192054,2.719163,2.7191381,2.7191606,2.7192721,2.7195053,2.719829,2.7201667,2.7204628,2.7207146,2.7209408,2.721182,2.7214592,2.7217648,2.7220943,2.7224565,2.7228358,2.7233405,2.7239661,2.7247324,2.725593,2.7264762,2.7273355,2.7281497,2.7289505,2.7296672,2.7302861,2.7307873,2.7311559,2.7314043,2.7315772,2.7317567,2.7319,2.7320528,2.7320166,2.7317772,2.7314591,2.7310927,2.73071,2.7304244,2.7302732,2.7302597,2.7303398,2.7304745,2.730639,2.7308161,2.7310047,2.73116,2.7312174,2.7311826,2.731145,2.731237,2.7315576,2.7320778,2.7328892,2.7338872,2.7349095,2.7358837,2.7367468,2.7373638,2.7378037,2.738113,2.738341,2.738614,2.7389517,2.7391577,2.7389474,2.7381659,2.7365057,2.733842,2.7302463,2.7260103,2.7214699,2.7168148,2.71206,2.7066946,2.7003784,2.692926,2.6846104,2.675879,2.6671648,2.6590114,2.651288,2.6436028,2.6363096,2.6294756,2.6230798,2.6171577,2.6117742,2.6069996,2.6026022,2.5986178,2.5951312,2.5922658,2.5899801,2.5880177,2.5862417,2.5844579,2.5828943,2.581831,2.5812514,2.5809236,2.5806177,2.5801702,2.5796018,2.578966,2.5785184,2.5782743,2.5782886
2.7950478,2.7950006,2.7949104,2.7947767,2.7946372,2.7945065,2.794352,2.7941787,2.7939656,2.7937498,2.793569,2.7934916,2.7935762,2.7938056,2.794073,2.7943676,2.7946491,2.794902,2.795098,2.7952328,2.79531,2.7952995,2.795202,2.7949908,2.794712,2.7944245,2.7941785,2.794001,2.7938628,2.7937446,2.7936406,2.7935417,2.793405,2.7932231,2.7930055,2.7927656,2.7925444,2.792327,2.7921283,2.7919548,2.7918086,2.791683,2.7915657,2.7914407,2.7912993,2.7911444,2.7909813,2.7908387,2.790741,2.7907104,2.7907605,2.7908106,2.7909036,2.7910047,2.7910552,2.7909818,2.7907357,2.7903373,2.7898216,2.7891693,2.7883465,2.787386,2.7863445,2.7853024,2.784347,2.7835016,2.7827215,2.782006,2.7813501,2.7806935,2.7800095,2.7793283,2.7786717,2.778028,2.7773468,2.7765813,2.7756715,2.774601,2.7734265,2.7722383,2.7710705,2.769849,2.7685766,2.76725,2.765886,2.764542,2.7632837,2.7621503,2.7611113,2.7601247,2.7591343,2.758067,2.7569015,2.755692,2.7545333,2.753376,2.7522135,2.751042,2.7498527,2.7486734,2.7475739,2.7466316,2.7458088,2.7450447,2.7443042,2.743513,2.7426362,2.7417188,2.7408442,2.7400403,2.739297,2.738615,2.737963,2.7373075,2.7366362,2.7359633,2.735307,2.7346241,2.73388,2.7330546,2.732149,2.7312067,2.7303143,2.729537,2.7288404,2.7281983,2.7275906,2.7269814,2.726365,2.725771,2.725225,2.7246947,2.7241554,2.7236052,2.7230124,2.722381,2.7217422,2.721126,2.7205377,2.7199159,2.7192602,2.7185678,2.7178578,2.7171464,2.7164464,2.7158031,2.7151568,2.714522,2.71392,2.7133381,2.712771,2.7122302,2.7117517,2.7112994,2.710903,2.710575,2.71029,2.7099838,2.7096124,2.709218,2.7088299,2.7085447,2.7083845,2.7083335,2.708344,2.7083464,2.7083035,2.7082257,2.7081378,2.7080479,2.7079535,2.7078304,2.7076607,2.7074578,2.7072525,2.7070603,2.706902,2.7067633,2.7066355,2.7064989,2.706338,2.7061906,2.706047,2.7058806,2.7057083,2.7055604,2.7054353,2.705309,2.7051837,2.7050045,2.7047238,2.7043645,2.7039707,2.7036047,2.7033136,2.7030945,2.7028937,2.7026901,2.7024646,2.7022567,2.7021165,2.7020512,2.7020354,2.702038,2.7021012,2.7022638,2.7025545,2.7029305,2.7032995,2.703598,2.7038236,2.7040024,2.7041798,2.7043793,2.7045965,2.7048268,2.7050824,2.705361,2.705763,2.7062922,2.7069721,2.707766,2.7086136,2.7094698,2.7103033,2.7111225,2.711847,2.712454,2.7129312,2.7132845,2.7135386,2.713738,2.7139668,2.71417,2.714405,2.7144706,2.7143452,2.7141466,2.7138934,2.7136087,2.7133996,2.7133086,2.7133422,2.7134485,2.7135794,2.7137058,2.7138019,2.7138734,2.713882,2.7138066,2.7136817,2.7136006,2.7136908,2.7140453,2.714621,2.7154865,2.716548,2.7176335,2.718639,2.7194657,2.719964,2.720218,2.7203476,2.7204833,2.720887,2.7215724,2.722313,2.7228732,2.7230043,2.7224698,2.7210956,2.7188246,2.7158628,2.7125216,2.7089949,2.7053208,2.7009907,2.6956472,2.6891346,2.6815886,2.6733286,2.6647968,2.656575,2.648583,2.6404412,2.632411,2.6246138,2.6171336,2.6101155,2.603752,2.5980825,2.592795,2.5880077,2.583811,2.5803847,2.5777245,2.5755095,2.5735817,2.5717275,2.5701926,2.569253,2.5687754,2.5684419,2.5680537,2.5674756,2.5667636,2.5659704,2.565246,2.5646367,2.5642467
2.7765179,2.7763977,2.7762399,2.7760375,2.775823,2.7756128,2.7753816,2.7751434,2.7748842,2.7746415,2.774445,2.7743516,2.774403,2.7745738,2.7747679,2.7749863,2.775194,2.7753801,2.7755141,2.775585,2.7755942,2.7755136,2.7753453,2.7750652,2.774725,2.7743864,2.774108,2.7739215,2.7737904,2.7736883,2.773601,2.773511,2.7733693,2.7731707,2.7729316,2.7726717,2.7724311,2.772193,2.7719626,2.771742,2.7715306,2.7713237,2.7711208,2.7709148,2.7706995,2.7704883,2.7702901,2.770134,2.770039,2.7700148,2.7700605,2.7700949,2.7701528,2.7701998,2.7701845,2.7700465,2.7697506,2.7693257,2.7688007,2.7681513,2.7673385,2.7663856,2.7653434,2.7642918,2.7633188,2.7624521,2.7616496,2.760911,2.7602344,2.7595608,2.758863,2.7581716,2.7575111,2.756877,2.7562306,2.755535,2.7547297,2.7537823,2.752725,2.751633,2.750535,2.749362,2.7481174,2.746803,2.7454412,2.744096,2.7428389,2.7417107,2.740686,2.7397308,2.7387927,2.7377992,2.7367291,2.735631,2.7345881,2.7335544,2.732513,2.7314525,2.7303562,2.7292478,2.7282019,2.7272966,2.7264967,2.725748,2.725019,2.724244,2.723392,2.7225091,2.721675,2.7209158,2.7202225,2.719604,2.7190251,2.7184453,2.7178457,2.7172318,2.7166185,2.7159686,2.7152534,2.7144632,2.7136054,2.7127228,2.711897,2.7111878,2.7105603,2.70999,2.7094557,2.7089214,2.7083783,2.707852,2.7073686,2.7068963,2.7064147,2.7059135,2.705359,2.704751,2.704123,2.7035127,2.7029338,2.7023308,2.7017014,2.7010388,2.7003539,2.699656,2.6989584,2.6983085,2.6976514,2.6970057,2.696402,2.6958306,2.6952813,2.6947627,2.6943073,2.693877,2.6935043,2.6932075,2.6929638,2.6927092,2.6923926,2.6920438,2.691688,2.691411,2.6912348,2.6911497,2.6911159,2.6910737,2.6909988,2.6909049,2.6908138,2.6907287,2.690639,2.6905158,2.6903415,2.6901367,2.689946,2.6897836,2.6896687,2.6895785,2.6894999,2.689412,2.6892931,2.6891823,2.6890686,2.6889162,2.6887374,2.6885612,2.688392,2.6882157,2.6880367,2.6878085,2.687488,2.6871,2.6866977,2.6863446,2.6860857,2.685913,2.6857653,2.6856225,2.6854563,2.6852956,2.685188,2.6851468,2.6851487,2.6851666,2.6852505,2.685439,2.6857586,2.6861606,2.6865451,2.6868467,2.6870615,2.687224,2.687378,2.6875486,2.6877286,2.6879072,2.688098,2.6883092,2.6886363,2.6890917,2.6896963,2.6904206,2.6912124,2.692029,2.6928344,2.6936183,2.6942987,2.6948442,2.695251,2.6955514,2.6957872,2.6959982,2.6962733,2.6965415,2.6968668,2.6970415,2.6970358,2.696961,2.6968303,2.6966562,2.6965418,2.696538,2.6966536,2.6968284,2.697001,2.6971335,2.6971886,2.6971846,2.6970887,2.696918,2.6967244,2.6965957,2.6966481,2.696969,2.6975245,2.6983743,2.6994538,2.7005966,2.701651,2.7024894,2.702991,2.7032127,2.703261,2.70331,2.7036695,2.704357,2.7052064,2.7060876,2.7066803,2.7068744,2.706415,2.7052052,2.7033796,2.701181,2.6987805,2.6962085,2.6930156,2.688888,2.6836166,2.6772566,2.6700015,2.6621747,2.654341,2.646487,2.6382463,2.629749,2.6211667,2.6126895,2.6045866,2.597207,2.5905643,2.5842733,2.578547,2.5735035,2.5693853,2.5662293,2.5636654,2.5615182,2.5595415,2.557991,2.557134,2.5567255,2.556366,2.555893,2.5552213,2.55442,2.5535407,2.5526214,2.5517094,2.5509667
2.7587624,2.758583,2.7583737,2.7581239,2.7578654,2.7576122,2.7573414,2.7570744,2.7567997,2.7565536,2.7563574,2.7562556,2.7562726,2.7563744,2.7564764,2.7565918,2.756691,2.7567725,2.7568085,2.7567887,2.7567148,2.7565584,2.7563262,2.7559893,2.7556038,2.7552323,2.754936,2.7547483,2.754628,2.75454,2.7544613,2.754364,2.7541952,2.753952,2.7536585,2.7533436,2.7530503,2.752757,2.7524655,2.7521741,2.751882,2.751588,2.7512999,2.7510161,2.7507308,2.750466,2.7502327,2.7500606,2.7499661,2.7499478,2.7499905,2.750011,2.750036,2.7500296,2.7499518,2.7497582,2.7494307,2.7490015,2.7484946,2.7478793,2.7471113,2.7462053,2.7452054,2.7441866,2.7432356,2.7423813,2.741581,2.7408311,2.7401319,2.7394257,2.7386913,2.7379637,2.7372694,2.7366123,2.7359638,2.735295,2.7345476,2.7336755,2.7326894,2.7316504,2.7305827,2.7294247,2.7281837,2.7268653,2.7254972,2.7241445,2.7228847,2.7217598,2.720747,2.71982,2.7189283,2.7180014,2.717019,2.7160244,2.7150893,2.71417,2.7132401,2.7122788,2.711264,2.71022,2.7092266,2.7083642,2.7076004,2.7068825,2.706182,2.7054381,2.7046235,2.7037854,2.7030013,2.7022958,2.701661,2.701112,2.7006094,2.700107,2.6995802,2.699027,2.6984618,2.6978526,2.6971788,2.6964397,2.6956456,2.6948364,2.6940856,2.693447,2.6928878,2.6923823,2.6919136,2.6914487,2.690979,2.6905282,2.6901217,2.6897264,2.6893246,2.6888967,2.6884036,2.6878443,2.6872551,2.6866794,2.68614,2.685591,2.6850243,2.6844263,2.6837957,2.6831312,2.682447,2.6817963,2.681127,2.6804671,2.679853,2.679278,2.678732,2.6782174,2.6777668,2.6773367,2.6769605,2.6766653,2.676434,2.6762033,2.675918,2.6755955,2.6752563,2.674973,2.6747694,2.6746423,2.6745596,2.6744711,2.6743617,2.674248,2.674148,2.6740632,2.6739757,2.6738553,2.6736846,2.6734862,2.6733165,2.6731858,2.6731105,2.6730595,2.6730165,2.6729608,2.672865,2.6727695,2.6726623,2.672499,2.6722906,2.6720653,2.671836,2.671598,2.6713598,2.6710844,2.670735,2.6703403,2.669958,2.669652,2.669458,2.669362,2.669298,2.6692457,2.669167,2.6690745,2.6690092,2.6689906,2.6690009,2.6690214,2.6691017,2.6692853,2.6695971,2.66999,2.6703687,2.6706698,2.6708884,2.6710649,2.671236,2.6714287,2.671626,2.6718073,2.671986,2.672175,2.67247,2.6728878,2.6734416,2.674106,2.6748333,2.6755824,2.6763217,2.6770303,2.67763,2.678086,2.6784005,2.678628,2.6788278,2.679037,2.6793475,2.6796746,2.6800852,2.680359,2.6804538,2.6804788,2.6804452,2.6803565,2.6803203,2.6803942,2.6805916,2.6808472,2.6810918,2.6812756,2.6813445,2.6813216,2.6811862,2.6809769,2.680748,2.6805778,2.6805704,2.680807,2.6812797,2.682053,2.6830912,2.6842523,2.6853614,2.6862495,2.6868,2.6870928,2.6872365,2.6873674,2.687705,2.6882758,2.6889896,2.6897745,2.6903982,2.6908782,2.6909146,2.6903982,2.6894212,2.6881614,2.6867347,2.6851306,2.683062,2.6802282,2.676291,2.6712422,2.6652198,2.6584485,2.6514115,2.6440914,2.6361446,2.6275735,2.618573,2.6094193,2.600494,2.5922828,2.5847735,2.5775328,2.5708477,2.5648947,2.5599837,2.5561862,2.5531158,2.5506003,2.5483503,2.5466387,2.545713,2.5452576,2.544821,2.5442648,2.5435605,2.5427692,2.5418944,2.540933,2.539875,2.5389037
2.7421467,2.7419052,2.741642,2.7413526,2.7410672,2.7407963,2.7405152,2.740244,2.739974,2.7397418,2.739558,2.739455,2.7394419,2.7394755,2.7394843,2.73949,2.739468,2.7394266,2.7393432,2.7392147,2.7390478,2.738815,2.7385237,2.738144,2.73773,2.7373428,2.7370427,2.7368612,2.7367537,2.7366753,2.7366009,2.7364898,2.7362852,2.7359872,2.7356281,2.7352438,2.7348843,2.7345219,2.734157,2.7337928,2.7334292,2.733068,2.7327187,2.7323837,2.7320533,2.7317533,2.7314994,2.7313194,2.7312286,2.7312183,2.7312622,2.731277,2.7312794,2.7312346,2.731112,2.7308836,2.730544,2.7301307,2.729662,2.7291007,2.7284002,2.7275667,2.7266362,2.7256782,2.7247744,2.7239547,2.7231717,2.722422,2.7217011,2.7209558,2.720172,2.7193904,2.7186418,2.7179365,2.7172523,2.7165704,2.7158344,2.714991,2.7140355,2.7130165,2.7119558,2.7107964,2.7095504,2.708226,2.706852,2.7054958,2.7042341,2.7031116,2.7021096,2.7012067,2.7003531,2.699479,2.6985655,2.6976519,2.696803,2.6959743,2.695134,2.6942482,2.6932945,2.6923022,2.6913557,2.690539,2.689817,2.6891415,2.688484,2.6877847,2.6870174,2.6862316,2.6855018,2.6848478,2.6842685,2.6837792,2.6833396,2.6829016,2.682436,2.6819386,2.6814218,2.680859,2.6802359,2.6795568,2.6788332,2.6780987,2.6774206,2.6768446,2.6763413,2.6758835,2.6754608,2.675046,2.674634,2.6742485,2.6739116,2.6735907,2.6732664,2.6729126,2.6724844,2.6719804,2.6714406,2.6709123,2.6704254,2.6699429,2.6694534,2.6689353,2.6683736,2.6677547,2.6670918,2.6664445,2.6657662,2.665093,2.6644652,2.6638818,2.6633325,2.662816,2.6623638,2.6619282,2.661541,2.6612358,2.6610007,2.6607752,2.6605,2.6601872,2.659848,2.6595483,2.659307,2.6591325,2.6590028,2.6588712,2.6587293,2.6585972,2.6584885,2.6584027,2.65832,2.6582077,2.658049,2.6578665,2.65772,2.6576195,2.6575732,2.6575465,2.6575222,2.6574783,2.6573884,2.65729,2.6571727,2.6569843,2.6567345,2.6564555,2.6561658,2.6558676,2.6555748,2.6552591,2.65489,2.6545022,2.6541553,2.6539063,2.653782,2.6537666,2.6537895,2.6538312,2.6538455,2.6538267,2.6538079,2.6538115,2.653827,2.6538446,2.653908,2.6540637,2.6543405,2.6546984,2.6550558,2.655357,2.655591,2.6558042,2.6560218,2.656269,2.6565185,2.6567383,2.656941,2.6571412,2.6574361,2.657846,2.6583762,2.6590004,2.6596723,2.6603522,2.6610198,2.661653,2.6621776,2.662561,2.6628065,2.6629786,2.6631484,2.6633515,2.663683,2.6640558,2.6645317,2.6648796,2.6650448,2.6651316,2.6651502,2.6651068,2.6651106,2.6652308,2.6654806,2.6657972,2.666112,2.6663637,2.6664772,2.6664793,2.6663594,2.666161,2.6659303,2.6657333,2.6656642,2.6657982,2.6661572,2.666814,2.6677485,2.6688519,2.6699536,2.6708639,2.6714592,2.6718285,2.672079,2.672312,2.67271,2.6733022,2.673944,2.674512,2.675005,2.675445,2.6756392,2.6755152,2.6750991,2.6745012,2.6738167,2.6729994,2.6718931,2.6701894,2.6675544,2.6638064,2.65899,2.653363,2.6473215,2.64079,2.6334634,2.6252284,2.6162589,2.6068816,2.5975585,2.5888567,2.5807316,2.5727258,2.5651639,2.5583105,2.5525403,2.5479531,2.5441883,2.541097,2.5383425,2.5362334,2.5350065,2.5343256,2.5337174,2.533049,2.5323503,2.5316455,2.5308776,2.5299826,2.5289288,2.527899
2.726765,2.7264464,2.7261138,2.7257738,2.7254615,2.72518,2.7248998,2.7246335,2.7243762,2.7241616,2.723996,2.7238984,2.7238638,2.7238436,2.7237735,2.7236826,2.7235503,2.7233922,2.7231932,2.7229576,2.7226999,2.7223961,2.7220569,2.7216487,2.7212238,2.7208374,2.720546,2.720378,2.720285,2.7202191,2.7201495,2.7200274,2.7197948,2.7194529,2.719039,2.7185965,2.7181797,2.7177548,2.7173307,2.7169113,2.7165005,2.716104,2.7157304,2.7153769,2.715034,2.714725,2.7144666,2.7142866,2.7141995,2.714194,2.7142365,2.7142456,2.7142353,2.7141664,2.7140155,2.7137678,2.7134285,2.7130356,2.7126045,2.712098,2.7114668,2.710709,2.7098541,2.708966,2.708119,2.7073448,2.7065911,2.7058506,2.705115,2.704336,2.703505,2.7026687,2.701864,2.7011046,2.7003703,2.6996536,2.698904,2.6980646,2.6971216,2.696114,2.6950598,2.6939049,2.6926656,2.6913505,2.6899858,2.6886363,2.6873813,2.6862652,2.6852713,2.6843848,2.6835554,2.6827154,2.681847,2.6809878,2.6801958,2.6794252,2.678639,2.6777978,2.676879,2.6759207,2.6750116,2.6742325,2.6735525,2.6729236,2.6723151,2.671666,2.6709514,2.6702163,2.6695318,2.6689186,2.668376,2.667923,2.6675227,2.6671267,2.6667054,2.666254,2.665783,2.6652694,2.6647012,2.6640859,2.663433,2.6627698,2.6621542,2.6616292,2.6611645,2.6607342,2.6603327,2.6599412,2.6595607,2.6592174,2.6589289,2.6586611,2.6583934,2.6580925,2.657712,2.657249,2.6567452,2.6562533,2.655809,2.6553812,2.6549606,2.654517,2.6540203,2.6534472,2.6528106,2.652172,2.651492,2.6508112,2.6501765,2.6495905,2.6490445,2.6485376,2.6480954,2.6476686,2.647284,2.6469765,2.6467383,2.646511,2.6462364,2.6459234,2.6455743,2.6452494,2.6449683,2.644747,2.6445727,2.644405,2.6442394,2.6440964,2.6439822,2.643899,2.6438255,2.6437275,2.6435876,2.6434274,2.6433053,2.6432257,2.643196,2.643178,2.643157,2.6431108,2.643014,2.6429052,2.6427722,2.642558,2.642273,2.641952,2.6416147,2.6412702,2.640932,2.640583,2.640198,2.6398149,2.6394942,2.6392856,2.6392102,2.6392505,2.6393352,2.639451,2.6395416,2.6395884,2.639614,2.6396422,2.6396675,2.6396856,2.6397338,2.6398573,2.6400886,2.640401,2.6407313,2.6410334,2.641292,2.641553,2.641828,2.6421366,2.6424441,2.6427112,2.6429458,2.643167,2.6434727,2.6438859,2.644407,2.645009,2.6456442,2.6462746,2.64689,2.6474757,2.647964,2.6483297,2.648567,2.6487331,2.6488996,2.649103,2.649444,2.649847,2.6503634,2.6507547,2.6509538,2.6510558,2.651078,2.6510346,2.6510367,2.6511612,2.651423,2.651763,2.6521149,2.6524117,2.6525688,2.6526165,2.6525476,2.652401,2.652205,2.6520112,2.6519098,2.6519713,2.6522403,2.6527927,2.6536095,2.6546025,2.655618,2.656474,2.6570613,2.657476,2.6578288,2.6581793,2.6586595,2.659278,2.659902,2.66042,2.660823,2.661096,2.6612544,2.661282,2.6611896,2.6610336,2.6608477,2.6605692,2.6601453,2.6593235,2.6578064,2.6553493,2.6517758,2.6471689,2.6419954,2.63628,2.6297727,2.6222162,2.6137168,2.6046057,2.5953689,2.5865808,2.5781555,2.5696363,2.561347,2.5536578,2.5469956,2.5414867,2.5368443,2.532946,2.5294313,2.5266552,2.524869,2.5237682,2.5228815,2.5220532,2.521377,2.5208092,2.5202303,2.5195174,2.5185995,2.517641
2.7108655,2.7104726,2.710076,2.7096968,2.7093697,2.7090917,2.7088256,2.7085762,2.7083416,2.7081513,2.7080073,2.7079217,2.7078757,2.7078125,2.7076812,2.7075102,2.7072842,2.707025,2.7067223,2.70639,2.706052,2.7056904,2.7053156,2.7048929,2.7044716,2.7040992,2.7038245,2.7036748,2.7035985,2.7035425,2.7034793,2.7033496,2.7030983,2.7027268,2.7022734,2.7017877,2.7013273,2.7008557,2.7003846,2.699926,2.6994886,2.6990776,2.698697,2.6983438,2.6979997,2.6976843,2.6974177,2.697227,2.6971273,2.6971066,2.6971302,2.697119,2.697083,2.6969843,2.6968055,2.6965384,2.6961925,2.695812,2.6954079,2.6949418,2.6943674,2.6936746,2.6928887,2.692069,2.6912837,2.690559,2.6898417,2.689121,2.6883824,2.687582,2.68672,2.6858447,2.6850016,2.6842043,2.6834345,2.682692,2.6819334,2.6811028,2.680179,2.6791935,2.67816,2.6770298,2.675818,2.674533,2.6731968,2.6718714,2.6706347,2.6695328,2.66855,2.6676795,2.66687,2.6660542,2.6652184,2.664399,2.6636455,2.6629136,2.6621623,2.661347,2.6604466,2.6595075,2.658621,2.6578703,2.6572232,2.656635,2.6560698,2.6554637,2.6547918,2.654097,2.6534448,2.6528554,2.6523335,2.651897,2.6515152,2.651145,2.6507568,2.6503448,2.6499147,2.6494474,2.648933,2.6483765,2.647789,2.6471922,2.6466353,2.6461542,2.6457214,2.64531,2.6449184,2.6445403,2.6441827,2.643871,2.6436214,2.643396,2.6431718,2.6429129,2.642568,2.6421366,2.641664,2.6412046,2.6407962,2.6404183,2.640058,2.639682,2.6392496,2.6387246,2.638121,2.6374993,2.636825,2.636146,2.6355128,2.6349297,2.6343918,2.6338992,2.6334696,2.6330538,2.6326725,2.632361,2.632113,2.631875,2.6315928,2.6312723,2.6309075,2.6305573,2.6302361,2.6299667,2.6297476,2.6295455,2.6293557,2.6292014,2.6290808,2.6289964,2.6289282,2.6288428,2.6287217,2.62858,2.6284752,2.628407,2.6283784,2.6283553,2.628325,2.6282673,2.6281574,2.6280372,2.6278877,2.6276555,2.6273508,2.6270065,2.6266453,2.626274,2.6259074,2.625537,2.6251416,2.624765,2.624461,2.6242743,2.6242232,2.6242914,2.6244116,2.6245754,2.624723,2.6248212,2.624886,2.6249404,2.6249843,2.6250138,2.6250577,2.6251583,2.6253514,2.6256251,2.625937,2.6262517,2.6265464,2.626864,2.6272066,2.627583,2.6279511,2.6282663,2.6285331,2.6287766,2.6290956,2.6295164,2.6300359,2.6306224,2.631229,2.6318212,2.632393,2.6329477,2.6334176,2.6337914,2.6340518,2.6342347,2.6344042,2.6346033,2.6349354,2.6353447,2.6358743,2.63628,2.6364803,2.6365628,2.6365566,2.6364841,2.6364605,2.6365678,2.6368191,2.6371589,2.6375241,2.6378465,2.6380455,2.638154,2.6381645,2.6380982,2.6379662,2.6378076,2.6377044,2.6377256,2.6379304,2.6383946,2.6390982,2.639958,2.6408443,2.6416082,2.6421542,2.642589,2.643032,2.643507,2.6440868,2.6447496,2.645369,2.6458502,2.6462011,2.6464612,2.6465821,2.6465325,2.6465511,2.6467383,2.6469038,2.647005,2.6470742,2.646937,2.6463494,2.645028,2.6426954,2.6393123,2.635229,2.630402,2.624805,2.6181362,2.610495,2.6021388,2.593441,2.584938,2.57651,2.5676904,2.5587945,2.5503151,2.5427208,2.5361543,2.5304394,2.5255046,2.5209694,2.517263,2.5146458,2.5128875,2.511551,2.5104482,2.509732,2.509294,2.5089362,2.508465,2.5077534,2.50695
2.6938868,2.6934338,2.6929846,2.6925755,2.6922412,2.691972,2.691723,2.6914887,2.6912677,2.6910877,2.6909492,2.6908612,2.6907988,2.6907005,2.690522,2.6902936,2.6899972,2.6896589,2.6892715,2.6888556,2.6884475,2.6880326,2.6876273,2.6871922,2.6867719,2.6864069,2.6861396,2.6859925,2.685914,2.6858532,2.685782,2.6856403,2.6853747,2.684988,2.684516,2.6840081,2.6835227,2.6830225,2.6825256,2.6820478,2.6816044,2.6812,2.6808324,2.6804912,2.6801553,2.6798382,2.6795583,2.6793404,2.6791992,2.6791286,2.679098,2.67903,2.6789355,2.6787806,2.6785517,2.678244,2.6778698,2.677475,2.6770701,2.6766188,2.6760757,2.6754284,2.6746984,2.6739402,2.673217,2.6725473,2.6718826,2.6712022,2.670486,2.6696954,2.668837,2.6679606,2.6671133,2.6663103,2.665535,2.6647913,2.6640446,2.6632414,2.6623597,2.6614213,2.6604383,2.6593661,2.6582148,2.6569915,2.6557121,2.6544333,2.6532311,2.6521506,2.6511831,2.6503239,2.6495214,2.6487136,2.6478899,2.647087,2.6463494,2.6456323,2.6448946,2.644088,2.6431963,2.642272,2.6414099,2.6406872,2.6400766,2.6395268,2.6390038,2.638439,2.6378045,2.6371398,2.6365056,2.635921,2.6353974,2.634953,2.6345656,2.6342,2.6338303,2.6334486,2.6330547,2.6326294,2.6321645,2.6316643,2.6311383,2.6306052,2.6301062,2.6296706,2.6292691,2.6288729,2.628489,2.628118,2.627773,2.627481,2.6272528,2.627052,2.6268544,2.626624,2.6263123,2.6259198,2.6254902,2.6250737,2.6247106,2.624388,2.6240907,2.6237855,2.623423,2.6229615,2.6224117,2.6218297,2.621189,2.6205387,2.619927,2.6193624,2.618845,2.6183739,2.6179643,2.6175637,2.617188,2.6168714,2.616609,2.6163547,2.616058,2.6157222,2.6153336,2.614947,2.6145697,2.614231,2.6139438,2.6136827,2.61345,2.613266,2.613121,2.613021,2.612946,2.6128657,2.6127615,2.6126404,2.6125536,2.6124935,2.6124637,2.612433,2.6123948,2.6123295,2.6122112,2.6120849,2.6119313,2.611699,2.6114006,2.6110678,2.61072,2.6103594,2.6099968,2.6096334,2.609251,2.608893,2.6086082,2.608436,2.6083941,2.6084647,2.6085951,2.6087768,2.608953,2.609084,2.6091776,2.6092558,2.609323,2.609374,2.6094284,2.6095243,2.6096992,2.6099567,2.610272,2.610619,2.6109679,2.6113565,2.6117725,2.6122146,2.612638,2.6129947,2.6132886,2.6135516,2.6138864,2.6143203,2.61485,2.615436,2.6160269,2.616593,2.617134,2.617674,2.6181471,2.618555,2.6188636,2.6190808,2.619256,2.6194408,2.619741,2.6201277,2.6206307,2.6210084,2.6211705,2.6211958,2.6211288,2.6210022,2.6209316,2.6209958,2.6212025,2.621502,2.621839,2.6221552,2.6223793,2.622545,2.6226482,2.6226895,2.6226592,2.6225843,2.6225376,2.622583,2.622786,2.623218,2.6238482,2.6245894,2.6253402,2.6259956,2.626482,2.6269188,2.6274285,2.6280088,2.6286845,2.629408,2.6300597,2.6305604,2.6309228,2.631222,2.6313972,2.6314216,2.6314402,2.6316247,2.6319523,2.6322277,2.632534,2.632791,2.6328297,2.632369,2.631082,2.6288478,2.625902,2.6222029,2.6176825,2.612181,2.6056705,2.5983968,2.590735,2.582946,2.5748978,2.5661368,2.556942,2.5479107,2.539525,2.5319424,2.525127,2.5190554,2.5133502,2.5085,2.504799,2.5021152,2.5000753,2.4984834,2.4975452,2.4970696,2.4968119,2.4965138,2.4960017,2.4953961
2.6762648,2.6757822,2.6753073,2.674888,2.67456,2.6743066,2.6740746,2.6738513,2.6736336,2.6734447,2.67329,2.6731803,2.6730921,2.6729665,2.6727586,2.6724975,2.6721601,2.6717722,2.6713295,2.6708593,2.6704042,2.6699576,2.6695366,2.6690989,2.6686838,2.668326,2.6680593,2.6679006,2.6678038,2.6677225,2.6676302,2.6674733,2.667202,2.6668167,2.666349,2.665842,2.6653552,2.6648502,2.6643496,2.6638746,2.6634426,2.6630569,2.6627097,2.662384,2.662056,2.6617308,2.6614254,2.6611583,2.6609454,2.6607869,2.6606617,2.6605,2.6603112,2.6600676,2.659761,2.6593878,2.6589613,2.658526,2.6580935,2.6576304,2.6570942,2.6564736,2.6557863,2.6550808,2.6544151,2.6538067,2.6532052,2.652584,2.6519184,2.6511714,2.6503527,2.6495132,2.6487012,2.6479306,2.6471848,2.646474,2.6457653,2.6450133,2.6441975,2.6433315,2.6424246,2.6414378,2.640377,2.6392436,2.6380453,2.636832,2.6356773,2.6346273,2.633676,2.632821,2.6320133,2.6311958,2.6303635,2.6295524,2.628808,2.6280828,2.6273372,2.6265244,2.625633,2.6247215,2.6238832,2.62319,2.6226115,2.6220965,2.6216078,2.6210752,2.6204672,2.6198192,2.619188,2.6185925,2.6180482,2.6175766,2.6171665,2.6167924,2.6164305,2.6160707,2.615707,2.6153162,2.614891,2.6144376,2.613965,2.61349,2.6130447,2.6126516,2.6122813,2.6119008,2.6115236,2.611156,2.6108134,2.610525,2.6102989,2.6100988,2.6099029,2.6096835,2.6093981,2.609048,2.6086688,2.608305,2.6079931,2.607726,2.6074889,2.6072493,2.6069572,2.6065688,2.6060908,2.6055746,2.6049962,2.6044023,2.6038375,2.6033115,2.6028285,2.6023874,2.6020017,2.601619,2.6012475,2.6009207,2.6006389,2.6003628,2.6000462,2.5996904,2.5992756,2.598846,2.5984004,2.5979767,2.5976014,2.597262,2.5969694,2.5967398,2.5965552,2.596425,2.5963306,2.5962455,2.5961516,2.5960472,2.5959733,2.5959175,2.595883,2.5958452,2.5958014,2.595733,2.5956135,2.595489,2.5953424,2.5951285,2.5948627,2.5945754,2.5942788,2.593966,2.5936437,2.5933173,2.59297,2.5926423,2.5923777,2.5922117,2.5921607,2.5922103,2.5923226,2.5924895,2.5926616,2.5927994,2.592905,2.593002,2.5930958,2.5931768,2.5932593,2.5933738,2.5935612,2.5938344,2.5941815,2.5945816,2.5949965,2.595458,2.595944,2.5964413,2.5969057,2.597289,2.5975947,2.5978658,2.5982084,2.5986502,2.5991898,2.5997782,2.6003566,2.6008978,2.6014109,2.6019382,2.6024222,2.6028733,2.6032376,2.6034913,2.6036701,2.6038303,2.6040854,2.6044273,2.6048784,2.605198,2.6052938,2.605245,2.6051078,2.6049252,2.6048074,2.6048245,2.6049736,2.60521,2.605495,2.6057801,2.6060123,2.606224,2.60642,2.6065826,2.6066833,2.6067352,2.6068003,2.6069336,2.607198,2.6076603,2.6082702,2.6089308,2.6095676,2.6101193,2.6105356,2.6109471,2.6114771,2.6121058,2.61283,2.6135871,2.6142712,2.6148195,2.61524,2.6156175,2.6159115,2.6160946,2.6161766,2.6162655,2.6164794,2.6167707,2.6171083,2.6175017,2.617861,2.6179333,2.6173937,2.616086,2.614153,2.6115994,2.6082873,2.6040902,2.5989423,2.5930214,2.5866175,2.579874,2.5725899,2.5642939,2.5552242,2.546039,2.5371995,2.528868,2.5211463,2.514049,2.5072303,2.5011961,2.4962904,2.4924822,2.4894867,2.48715,2.4857264,2.4849305,2.4845238,2.4841938,2.483755,2.4832973
2.6586409,2.6581655,2.6577017,2.6573,2.6569982,2.6567721,2.6565623,2.6563501,2.6561303,2.655921,2.6557317,2.6555827,2.6554585,2.6553044,2.655077,2.654797,2.654439,2.6540248,2.6535552,2.6530628,2.6525936,2.6521456,2.6517339,2.6513162,2.6509223,2.6505797,2.6503143,2.6501384,2.6500127,2.6499004,2.649778,2.6496005,2.649323,2.6489449,2.648488,2.6479914,2.647511,2.6470108,2.6465168,2.6460528,2.645637,2.6452694,2.644937,2.644619,2.644288,2.6439426,2.6435964,2.6432648,2.642963,2.6426992,2.6424608,2.6421866,2.6418865,2.6415396,2.6411438,2.6406972,2.6402118,2.6397285,2.6392608,2.6387775,2.6382384,2.6376345,2.6369796,2.6363182,2.6357021,2.6351466,2.6346006,2.6340342,2.6334188,2.6327195,2.6319485,2.6311588,2.630399,2.62968,2.6289845,2.6283247,2.6276693,2.6269786,2.6262355,2.6254485,2.624625,2.6237297,2.6227667,2.6217294,2.6206179,2.6194744,2.618371,2.6173515,2.6164117,2.6155539,2.6147313,2.6138926,2.6130385,2.6122074,2.611446,2.6107037,2.6099448,2.609125,2.6082387,2.607347,2.6065402,2.6058803,2.6053348,2.6048517,2.60439,2.603879,2.6032863,2.6026459,2.6020112,2.6014032,2.6008363,2.6003397,2.5999115,2.599535,2.599187,2.5988507,2.598516,2.598156,2.5977647,2.5973496,2.5969243,2.5965028,2.5961092,2.5957584,2.595423,2.5950656,2.5947032,2.5943446,2.5940056,2.593713,2.5934763,2.5932589,2.5930467,2.592824,2.592559,2.5922518,2.5919292,2.5916247,2.5913663,2.5911498,2.590963,2.5907753,2.5905418,2.590221,2.5898156,2.5893722,2.5888674,2.5883422,2.5878348,2.5873559,2.5869114,2.5865004,2.586135,2.5857627,2.5853877,2.5850425,2.5847368,2.5844388,2.584108,2.583743,2.5833192,2.5828662,2.5823736,2.581882,2.58143,2.5810199,2.5806727,2.5804002,2.5801785,2.5800166,2.5798974,2.5797982,2.579702,2.5796008,2.5795267,2.5794616,2.5794117,2.5793588,2.5793014,2.5792222,2.5790966,2.57897,2.5788279,2.5786345,2.5784082,2.5781794,2.577952,2.5777068,2.577446,2.5771751,2.5768747,2.5765824,2.576335,2.5761654,2.5760944,2.5761085,2.576181,2.5763068,2.5764484,2.576569,2.5766702,2.5767767,2.5768952,2.5770066,2.5771265,2.5772781,2.5775032,2.577819,2.578217,2.5786772,2.579155,2.5796752,2.5802135,2.5807455,2.5812263,2.5816107,2.5819044,2.5821629,2.582493,2.5829253,2.5834565,2.5840294,2.5845776,2.5850782,2.5855484,2.586048,2.5865273,2.5870032,2.5874052,2.5876832,2.5878594,2.587994,2.5882068,2.5885015,2.5888963,2.5891526,2.5891824,2.5890713,2.588883,2.5886683,2.5885282,2.5885217,2.588632,2.58882,2.5890603,2.5893183,2.5895576,2.5898082,2.5900886,2.5903692,2.5906081,2.590804,2.5910041,2.5912547,2.5916133,2.5921416,2.5927777,2.5934138,2.593991,2.5944777,2.5948403,2.5952182,2.5957284,2.596351,2.5970643,2.5978036,2.5984797,2.5990486,2.5995173,2.599976,2.6003907,2.6007216,2.6009498,2.60107,2.601134,2.6012826,2.6015086,2.6018782,2.602354,2.6027021,2.6026232,2.6019752,2.6008372,2.5992484,2.5970922,2.594181,2.5904698,2.5860043,2.580895,2.5752888,2.5689664,2.5614686,2.5529842,2.544147,2.535359,2.5267706,2.5185728,2.5108056,2.5031753,2.496138,2.4900842,2.4850614,2.4808955,2.477546,2.4753122,2.473834,2.4729178,2.472224,2.4716032,2.4711294
2.6417012,2.6412613,2.640837,2.640475,2.6402128,2.6400237,2.639842,2.639646,2.6394238,2.63919,2.6389573,2.63876,2.6385946,2.638411,2.6381638,2.63787,2.637498,2.6370697,2.6365907,2.6360993,2.6356432,2.6352203,2.6348405,2.634464,2.634107,2.6337886,2.6335273,2.6333332,2.6331732,2.6330247,2.6328664,2.6326625,2.6323743,2.631997,2.631546,2.6310544,2.6305761,2.6300797,2.6295915,2.629138,2.6287346,2.6283793,2.628055,2.627736,2.6273966,2.627027,2.6266406,2.6262493,2.6258702,2.625515,2.6251795,2.6248076,2.6244097,2.6239743,2.6235037,2.6229992,2.6224709,2.621954,2.6214638,2.620967,2.6204286,2.6198385,2.6192095,2.6185813,2.618001,2.6174784,2.6169627,2.616424,2.615829,2.615148,2.6144013,2.613645,2.6129246,2.6122475,2.6115968,2.6109812,2.6103716,2.609733,2.60905,2.6083286,2.6075747,2.6067576,2.605877,2.6049213,2.603884,2.6028008,2.6017404,2.6007435,2.5998092,2.598943,2.5981002,2.5972364,2.5963597,2.59551,2.594736,2.593984,2.5932217,2.5924115,2.5915484,2.590693,2.5899327,2.589316,2.5888119,2.5883622,2.5879242,2.5874307,2.5868506,2.586216,2.5855837,2.5849724,2.5843966,2.5838919,2.5834646,2.5831013,2.58278,2.5824766,2.5821729,2.5818439,2.5814838,2.5811043,2.5807223,2.5803504,2.5800064,2.5796998,2.5793998,2.5790725,2.578734,2.578392,2.5780616,2.577765,2.5775094,2.5772681,2.5770307,2.5767968,2.5765476,2.5762815,2.5760157,2.5757694,2.5755596,2.5753853,2.575234,2.5750782,2.574881,2.574607,2.5742593,2.5738754,2.5734363,2.572972,2.572516,2.5720792,2.5716681,2.5712814,2.5709314,2.5705633,2.5701783,2.5698137,2.5694861,2.5691748,2.5688448,2.5684917,2.568089,2.567646,2.5671463,2.5666256,2.5661283,2.565672,2.5652905,2.56499,2.5647445,2.5645597,2.5644174,2.5642984,2.5641868,2.564074,2.5639844,2.5638947,2.5638185,2.563738,2.5636544,2.563551,2.5634036,2.563261,2.5631104,2.562923,2.5627208,2.5625362,2.5623672,2.5621843,2.5619826,2.561766,2.5615082,2.561244,2.5610049,2.5608268,2.5607324,2.5607085,2.5607374,2.5608137,2.560914,2.5610075,2.5610962,2.5612047,2.5613403,2.5614765,2.5616317,2.561823,2.5620944,2.5624604,2.5629091,2.5634189,2.5639415,2.5644982,2.5650628,2.5656037,2.5660753,2.5664365,2.566699,2.5669253,2.5672262,2.5676324,2.5681376,2.5686753,2.5691752,2.5696168,2.5700302,2.5704846,2.5709383,2.5714126,2.5718255,2.5721111,2.5722823,2.5724,2.5725846,2.572846,2.5731964,2.5734024,2.5733848,2.5732374,2.5730295,2.5728145,2.5726824,2.5726812,2.572781,2.5729475,2.573166,2.5734115,2.5736609,2.5739455,2.5742931,2.5746708,2.575028,2.5753517,2.575673,2.5760298,2.5764804,2.5770824,2.5777736,2.5784416,2.579027,2.5795074,2.5798602,2.5802267,2.580713,2.5813088,2.581982,2.5826683,2.5832958,2.5838366,2.5843027,2.5847974,2.5852923,2.585747,2.5861042,2.5863266,2.5864148,2.5863757,2.5864348,2.5866997,2.5871706,2.5876226,2.587792,2.5875711,2.5870104,2.5861688,2.584938,2.583157,2.5807152,2.577569,2.5737286,2.5692239,2.563881,2.5573509,2.5497885,2.5417376,2.5335183,2.5252395,2.5170836,2.509128,2.5011277,2.4934196,2.4864178,2.4802196,2.4747782,2.4702287,2.4669132,2.4644363,2.4626596,2.4612563,2.4601607,2.4594514
