71.34116,71.171265,71.01394,70.88629,70.765045,70.66861,70.572586,70.45161,70.300735,70.13431,69.98926,69.87352,69.83993,69.88904,69.97524,70.030014,69.965454,69.690056,69.27137,68.698784,67.909546,67.110855,66.48623,66.04939,65.8268,65.67816,65.42067,65.02124,64.23766,62.938965,61.339752,59.80715,58.461487,57.33329,56.452698,55.84587,55.47153,55.24187,55.086395,54.96444,54.785023,54.53071,54.219627,53.929455,53.702263,53.615276,53.924248,54.356243,55.081512,55.9671,56.809875,57.434822,57.762352,57.84612,57.828526,57.780624,57.765015,57.82438,57.8721,57.770294,57.456856,56.80134,55.66262,54.121044,52.22177,49.740334,47.26925,46.03878,45.41616,45.17762,45.20674,45.376923,45.533783,45.612564,45.681572,45.81784,46.055,46.51431,47.00032,47.161583,47.001293,46.79597,46.562164,46.30738,45.96302,45.678307,45.488487,45.34532,45.206764,45.053688,44.878975,44.682083,44.48197,44.297325,44.144043,44.028656,43.932796,43.798874,43.675762,43.559803,43.44536,43.324226,43.19307,43.056076,42.919662,42.77838,42.62809,42.47653,42.330048,42.199802,42.09762,42.02187,41.960785,41.85474,41.736877,41.623466,41.51908,41.43094,41.360184,41.295647,41.228077,41.16976,41.132835,41.10241,41.042923,40.930996,40.770927,40.53351,40.215244,39.807667,39.342747,38.84381,38.29747,37.71496,36.963226,36.464943,36.291378,36.30357,36.34575,36.357517,36.346188,36.34674,36.39334,36.49388,36.61863,36.782036,36.989075,37.1502,37.21986,37.27099,37.311634,37.353127,37.400932,37.45755,37.52727,37.607716,37.700134,37.813957,37.93991,38.068253,38.19632,38.32325,38.44534,38.573868,38.705017,38.831886,38.9495,39.054806,39.147766,39.232048,39.31752,39.40789,39.500454,39.596878,39.680923,39.723415,39.709442,39.626854,39.4495,39.210148,38.954865,38.742023,38.611984,38.5668,38.60733,38.720478,39.007484,39.500767,40.18454,41.009766,41.789406,42.12418,42.235474,42.202507,42.067123,41.684433,41.14382,40.7722,40.597366,40.600292,40.720154,40.91529,41.069115,41.10412,41.04922,40.98062,40.972504,41.073982,41.318188,41.658573,42.02733,42.357677,42.57936,42.661438,42.679314,42.51762,42.08586,41.20688,39.8659,38.34056,36.862194,34.423588,32.41869,31.05771,30.22329,29.776127,29.57026,29.51038,29.490036,29.48023,29.466705,29.43943,29.390533,29.317307,29.223976,29.10744,28.9571,28.754948,28.48063,28.131226,27.720718,27.279285,26.869991,26.446438,26.04284,25.718338,25.478632,25.295822,25.152702,25.019535,24.863977,24.681473,24.461115,24.206902,23.93245,23.65169,23.3822,23.108955,22.833391,22.566511,22.312721,22.077724,21.866745,21.67757,21.50459,21.339706,21.188995,21.053131,20.931461,20.82383,20.728937,20.64215,20.557495,20.480682,20.420189,20.371262,20.324478,20.278585,20.2326,20.182755,20.124645,20.06115,19.99451,19.926098,19.85788,19.79115,19.721834,19.64731,19.572205,19.493473,19.409086,19.321348,19.231115,19.142025,19.050259,18.958805,18.87259,18.796526,18.734512,18.688005,18.651306,18.611929,18.564985,18.502182,18.424894,18.342989,18.265074
71.278854,71.12139,70.97058,70.84047,70.71222,70.604164,70.4978,70.37434,70.230545,70.07862,69.955246,69.86076,69.841805,69.89662,69.98107,70.031105,69.96748,69.70953,69.312675,68.769775,68.01161,67.25615,66.68019,66.27283,66.061615,65.939606,65.69225,65.27754,64.48225,63.141914,61.45114,59.86075,58.48752,57.35727,56.49092,55.90724,55.551407,55.32892,55.17704,55.056557,54.87786,54.62365,54.311317,54.02816,53.801994,53.699493,54.037247,54.47763,55.205994,56.093372,56.93477,57.556908,57.88638,57.97769,57.970352,57.928997,57.912277,57.962166,57.99337,57.871677,57.54016,56.867104,55.70935,54.150467,52.217033,49.72781,47.292274,46.07733,45.470024,45.244713,45.280357,45.447792,45.592934,45.653904,45.70404,45.826088,46.051247,46.498116,47.020607,47.217674,47.059402,46.85617,46.61995,46.367622,46.02489,45.743416,45.563175,45.436478,45.31608,45.176758,45.00924,44.811577,44.59674,44.39498,44.229458,44.097794,43.978542,43.84876,43.731384,43.634727,43.539413,43.433655,43.317333,43.19197,43.066303,42.93737,42.79426,42.64756,42.501915,42.36283,42.23743,42.12259,42.00941,41.88561,41.761017,41.643036,41.540337,41.45938,41.396328,41.341858,41.290833,41.242493,41.19207,41.1187,41.01002,40.870438,40.672485,40.366188,39.92613,39.47544,38.791565,37.58348,35.95575,34.272568,33.113693,32.408558,32.093605,32.024147,32.06971,32.154938,32.2342,32.304466,32.431454,32.70465,33.05217,33.35455,33.56786,33.703033,33.781086,33.820374,33.795994,33.739605,33.71916,33.762505,33.841026,33.957344,34.121017,34.330605,34.5398,34.730385,34.929558,35.16324,35.418655,35.667183,35.90468,36.111214,36.276596,36.40055,36.489395,36.556435,36.629745,36.73982,36.91835,37.17359,37.483414,37.744507,37.81461,37.81042,37.70125,37.50885,37.2657,37.001873,36.702225,36.3212,35.878105,35.44616,35.35008,36.425053,38.39679,40.028538,40.766495,41.531406,41.805714,41.843025,41.732292,41.344093,40.755787,40.284737,39.989555,39.850327,39.821815,39.866497,39.902866,39.88884,39.85411,39.848114,39.92074,40.104134,40.41708,40.802956,41.19053,41.523468,41.757668,41.896675,41.94874,41.822586,41.386963,40.509094,39.230106,37.755276,36.172028,33.786766,31.973541,30.82048,30.143368,29.80399,29.665451,29.644434,29.632063,29.627254,29.620508,29.59788,29.552923,29.485546,29.393244,29.27724,29.133583,28.945742,28.691471,28.360668,27.954317,27.495436,27.067837,26.635878,26.199646,25.837742,25.570055,25.364904,25.204048,25.05437,24.878414,24.670639,24.421906,24.141104,23.847994,23.55995,23.293056,23.031094,22.771383,22.521616,22.282328,22.056593,21.849913,21.662487,21.490067,21.326496,21.17849,21.046812,20.9304,20.828419,20.738958,20.65731,20.5779,20.506542,20.451092,20.405792,20.360708,20.314856,20.267572,20.216202,20.157043,20.093704,20.028172,19.961,19.893318,19.825577,19.752838,19.673735,19.593964,19.51249,19.427788,19.340878,19.251791,19.163418,19.06945,18.974026,18.882786,18.801708,18.737747,18.696014,18.671783,18.638653,18.596066,18.533989,18.453573,18.362326,18.26653
71.20582,71.06467,70.92299,70.79021,70.6506,70.52906,70.40065,70.25598,70.10681,69.966,69.8723,69.80401,69.79303,69.84216,69.91499,69.95407,69.8912,69.658714,69.2936,68.794395,68.0863,67.385994,66.85951,66.4828,66.290375,66.18958,65.946304,65.51391,64.69464,63.30442,61.53119,59.8845,58.49259,57.36709,56.53172,55.976166,55.63498,55.421806,55.273617,55.151722,54.968803,54.71006,54.392635,54.11982,53.895866,53.762096,54.117516,54.585785,55.317574,56.202183,57.038315,57.653313,57.98523,58.09125,58.101463,58.07303,58.05769,58.09511,58.10237,57.95183,57.59459,56.900192,55.725513,54.155235,52.18583,49.692627,47.30765,46.111427,45.521324,45.310226,45.35213,45.51481,45.645004,45.684906,45.713936,45.82136,46.040848,46.479073,47.028717,47.261875,47.117516,46.917793,46.68161,46.44123,46.10608,45.828323,45.656002,45.54458,45.442726,45.321014,45.165222,44.969326,44.741425,44.51919,44.330444,44.16967,44.021774,43.89866,43.800205,43.72805,43.666214,43.57613,43.44841,43.312286,43.175903,43.03874,42.894146,42.74907,42.603783,42.46009,42.3228,42.190186,42.055176,41.918358,41.78541,41.664314,41.56285,41.487106,41.437603,41.394993,41.34265,41.258198,41.162273,41.054016,40.911957,40.724762,40.454964,40.030617,39.59474,38.658253,36.87249,34.407402,31.899979,30.23246,29.194294,28.59166,28.338861,28.312792,28.405106,28.542862,28.660645,28.782402,28.932293,29.141659,29.385946,29.604885,29.760036,29.856688,29.916286,29.943226,29.930206,29.900005,29.888865,29.916111,29.97791,30.072762,30.204163,30.36879,30.539764,30.70351,30.86775,31.040945,31.217976,31.394766,31.562746,31.707846,31.822292,31.904465,31.9585,31.995266,32.036617,32.10596,32.232285,32.43316,32.69496,32.949753,33.107132,33.183826,33.17557,33.093678,32.966034,32.7546,32.413284,31.97816,31.491188,30.98515,30.884373,31.793972,34.232864,37.43685,39.718475,40.711113,41.272476,41.40764,41.252953,40.81404,40.19731,39.6643,39.29651,39.005737,38.68354,38.54617,38.556023,38.603325,38.677193,38.77004,38.915424,39.157116,39.525818,39.958145,40.372654,40.71714,40.962196,41.1204,41.209854,41.10462,40.68799,39.842155,38.635017,37.243004,35.540176,33.2929,31.641441,30.640839,30.092247,29.843904,29.764467,29.771261,29.76826,29.775959,29.780067,29.76219,29.718374,29.651043,29.554958,29.43417,29.291435,29.112894,28.877344,28.568321,28.174717,27.711857,27.266937,26.824276,26.367752,25.97376,25.671528,25.436695,25.249996,25.076374,24.873339,24.635296,24.35602,24.049416,23.740711,23.449732,23.189714,22.94283,22.701996,22.471563,22.248627,22.033897,21.833157,21.649136,21.478855,21.317917,21.17363,21.046818,20.935968,20.839592,20.755299,20.678246,20.60339,20.536533,20.484974,20.441956,20.39708,20.349922,20.300644,20.247852,20.18919,20.12889,20.068043,20.00545,19.940342,19.871334,19.79308,19.707314,19.623093,19.543343,19.467745,19.397545,19.333796,19.269302,19.189491,19.09626,18.996769,18.902401,18.826227,18.776554,18.749577,18.718708,18.677067,18.612583,18.524677,18.418608,18.301748
71.10794,70.98488,70.853386,70.718094,70.57226,70.41997,70.2543,70.08679,69.93329,69.802765,69.729904,69.70574,69.70354,69.73938,69.795334,69.821594,69.76131,69.55798,69.2366,68.792366,68.15019,67.51721,67.04373,66.69812,66.52217,66.43268,66.18474,65.730515,64.87442,63.424103,61.578053,59.888145,58.48721,57.373238,56.57682,56.051476,55.72352,55.520332,55.374622,55.247627,55.054886,54.785927,54.462654,54.179646,53.945877,53.81738,54.176178,54.677757,55.41233,56.293823,57.12435,57.730816,58.066826,58.192284,58.224762,58.214058,58.202995,58.228252,58.209717,58.02705,57.64052,56.922966,55.732426,54.154022,52.152863,49.66002,47.328476,46.15072,45.576714,45.378315,45.424427,45.579826,45.692352,45.709038,45.716095,45.809402,46.025917,46.46263,47.040577,47.304237,47.17097,46.979168,46.746273,46.509094,46.201797,45.93406,45.76433,45.66815,45.581635,45.456635,45.293793,45.093742,44.86209,44.627922,44.416718,44.23381,44.078205,43.96309,43.887146,43.853504,43.79631,43.69261,43.56451,43.426086,43.28396,43.139793,42.992443,42.847527,42.703365,42.55845,42.414772,42.272835,42.128525,41.98181,41.844254,41.726715,41.632812,41.559425,41.49668,41.40519,41.304474,41.18464,41.05536,40.906143,40.70763,40.434464,40.046013,39.547337,38.731087,36.91748,33.950905,30.759663,28.49905,27.230038,26.512993,26.173756,26.091171,26.15719,26.287243,26.414448,26.499056,26.616156,26.757584,26.907806,27.060902,27.202045,27.307442,27.368279,27.397194,27.404282,27.399113,27.395966,27.402061,27.42397,27.471588,27.540764,27.628204,27.723988,27.826635,27.933975,28.038673,28.13287,28.213505,28.297222,28.374336,28.43813,28.484726,28.512337,28.522724,28.5225,28.52214,28.531082,28.567305,28.648392,28.76971,28.907019,29.034508,29.113903,29.142872,29.129185,29.085497,28.966408,28.731224,28.415905,28.04184,27.627945,27.537968,28.099892,30.079847,33.83193,37.97792,39.670475,40.673798,40.887054,40.68486,40.23375,39.62082,39.045464,38.570335,37.922657,37.402954,37.192856,37.2013,37.295105,37.45029,37.662758,37.987564,38.33658,38.731773,39.16262,39.57644,39.917385,40.164192,40.330433,40.439857,40.356,39.974003,39.20323,38.111115,36.80027,35.01157,32.933098,31.419622,30.530298,30.078789,29.900774,29.865902,29.883307,29.898815,29.919418,29.930977,29.917929,29.876093,29.805708,29.702366,29.57283,29.425323,29.250834,29.03165,28.745964,28.371593,27.915897,27.460432,27.000862,26.538328,26.119814,25.77676,25.506615,25.288097,25.085789,24.85278,24.583994,24.276562,23.948565,23.62932,23.339983,23.090103,22.860266,22.639282,22.428371,22.221846,22.01844,21.824144,21.644142,21.476612,21.318623,21.17795,21.055515,20.94942,20.857628,20.777405,20.703758,20.632154,20.56826,20.51899,20.476723,20.43062,20.38099,20.32909,20.27465,20.216885,20.160301,20.10493,20.047874,19.986378,19.917133,19.834717,19.744678,19.657146,19.590492,19.544403,19.501637,19.45692,19.407143,19.330273,19.229187,19.112106,18.994957,18.89755,18.832146,18.796803,18.767258,18.731253,18.67207,18.584938,18.475433,18.353956
70.96266,70.85801,70.73811,70.601654,70.433075,70.24178,70.041916,69.8589,69.70817,69.59202,69.5361,69.54425,69.575745,69.61039,69.64487,69.65985,69.60434,69.4315,69.16052,68.77113,68.205505,67.651306,67.23368,66.91968,66.75534,66.66967,66.411316,65.93301,65.03087,63.514366,61.60639,59.88679,58.483902,57.395134,56.632313,56.131203,55.81782,55.624203,55.47903,55.34373,55.136967,54.85327,54.521797,54.2202,53.977642,53.879272,54.235245,54.761948,55.49819,56.375305,57.201557,57.804344,58.14721,58.294434,58.350864,58.360535,58.35678,58.373608,58.33352,58.12203,57.7072,56.966034,55.757683,54.168358,52.147106,49.662727,47.37434,46.208916,45.64556,45.4548,45.50074,45.645348,45.737743,45.729904,45.71473,45.794235,46.00755,46.448524,47.055107,47.34218,47.215843,47.036217,46.81019,46.570896,46.30063,46.04316,45.86884,45.776306,45.689423,45.555054,45.38861,45.18474,44.95469,44.7173,44.49357,44.301125,44.15149,44.048645,44.001083,43.97397,43.89928,43.78713,43.670372,43.53882,43.398724,43.254627,43.107666,42.96405,42.823547,42.682873,42.540306,42.39708,42.252476,42.106506,41.96315,41.839596,41.72928,41.6154,41.503742,41.362595,41.21398,41.06359,40.896732,40.68039,40.38497,39.996956,39.501205,38.82267,37.47355,34.539444,30.96933,28.288712,26.692348,25.822556,25.436836,25.352753,25.397057,25.495216,25.611721,25.7009,25.76768,25.854794,25.96439,26.092161,26.22377,26.334164,26.40354,26.433447,26.438667,26.432114,26.41809,26.407166,26.407555,26.424583,26.461716,26.513477,26.57776,26.643703,26.712242,26.7846,26.856522,26.921566,26.974918,27.026499,27.067778,27.093842,27.10273,27.094246,27.070766,27.038431,27.004875,26.979204,26.96958,26.985172,27.023945,27.071638,27.114067,27.140385,27.152828,27.153906,27.143923,27.09504,26.961014,26.725582,26.43089,26.084946,25.880161,26.166142,27.39954,30.54559,35.4722,38.574474,40.11024,40.407303,40.146156,39.68818,39.116287,38.496643,37.790802,36.896393,36.36828,36.177067,36.16223,36.237953,36.399704,36.646206,37.056335,37.54039,38.013313,38.435493,38.81129,39.133797,39.371014,39.53428,39.63954,39.577118,39.25007,38.58072,37.62696,36.417114,34.576286,32.69021,31.306503,30.498793,30.11439,29.982296,29.971422,29.99591,30.03209,30.06202,30.076181,30.066784,30.02771,29.952911,29.839466,29.698475,29.542456,29.368065,29.162827,28.90078,28.549152,28.106907,27.6468,27.17041,26.706573,26.267784,25.882961,25.573845,25.320963,25.089115,24.82771,24.532223,24.20263,23.85971,23.535168,23.250572,23.01193,22.798561,22.59588,22.402374,22.210274,22.016739,21.82785,21.651066,21.48558,21.329533,21.191105,21.071377,20.96819,20.87913,20.801273,20.729473,20.659626,20.597244,20.549011,20.506668,20.459023,20.40696,20.352596,20.296227,20.238102,20.182253,20.128159,20.072796,20.013334,19.946198,19.86634,19.783215,19.714573,19.67266,19.651466,19.631073,19.595459,19.539711,19.44114,19.30864,19.155312,19.001945,18.874247,18.788956,18.744934,18.72097,18.706741,18.678299,18.619968,18.530006,18.416677
70.73401,70.648796,70.53996,70.399704,70.19886,69.9827,69.76607,69.576584,69.437195,69.34486,69.31566,69.33565,69.41478,69.46817,69.4883,69.4944,69.445694,69.30362,69.08211,68.74402,68.258446,67.7839,67.41871,67.13786,66.98424,66.899635,66.62975,66.127945,65.17937,63.600525,61.64148,59.8993,58.49769,57.441795,56.702797,56.217285,55.91842,55.733486,55.58676,55.440968,55.217834,54.91668,54.572304,54.263824,54.02327,53.937916,54.3086,54.847893,55.58558,56.45636,57.27993,57.88618,58.236908,58.404495,58.482628,58.51181,58.517372,58.53154,58.477768,58.244446,57.805687,57.040318,55.809998,54.203915,52.175972,49.708115,47.44708,46.28628,45.726303,45.536175,45.576317,45.706444,45.77722,45.74525,45.70913,45.775913,45.986412,46.435127,47.062904,47.368156,47.25273,47.08719,46.871296,46.636242,46.394985,46.1455,45.96161,45.855846,45.75534,45.62102,45.46945,45.275776,45.04884,44.810585,44.58354,44.38761,44.241234,44.154274,44.121956,44.061466,43.978554,43.884373,43.77359,43.646255,43.50885,43.36782,43.22643,43.088394,42.951473,42.8136,42.673603,42.529346,42.385452,42.23839,42.08413,41.934174,41.774376,41.595356,41.435028,41.28499,41.10775,40.901665,40.663933,40.355034,39.92906,39.39501,38.828033,37.772583,35.830673,32.161713,28.801443,27.138666,25.888208,25.415897,25.293648,25.367395,25.463268,25.5504,25.639355,25.71077,25.794443,25.86242,25.932598,26.009968,26.089287,26.153816,26.190285,26.20223,26.200623,26.197197,26.190266,26.183731,26.183,26.193256,26.2173,26.24841,26.288237,26.33535,26.38591,26.437386,26.487103,26.531633,26.570208,26.606026,26.630314,26.639015,26.63153,26.608252,26.571266,26.526709,26.481731,26.447773,26.424824,26.417461,26.4243,26.433937,26.436424,26.426891,26.42471,26.430225,26.44824,26.442078,26.338585,26.111221,25.856037,25.55431,25.28349,25.299753,25.995975,28.364912,32.884605,37.461746,39.5687,40.02925,39.6987,39.207508,38.704994,38.04666,37.10069,36.25273,35.778385,35.598167,35.555313,35.590748,35.70833,35.8831,36.174797,36.674633,37.24021,37.72248,38.091484,38.383095,38.596428,38.737434,38.8293,38.78381,38.52294,37.957,37.14254,36.078445,34.217808,32.536552,31.284206,30.54368,30.202938,30.093105,30.089474,30.126911,30.171888,30.205769,30.220816,30.214832,30.17895,30.099302,29.974186,29.819563,29.651487,29.473267,29.276838,29.034103,28.70543,28.281029,27.818794,27.333448,26.861155,26.406435,25.9892,25.638956,25.352695,25.09377,24.808735,24.493046,24.14833,23.796585,23.470474,23.191483,22.963005,22.763409,22.5756,22.395863,22.214966,22.028877,21.843643,21.66866,21.503963,21.348316,21.210255,21.09108,20.988533,20.900063,20.822762,20.751324,20.681969,20.620083,20.572193,20.529598,20.48086,20.427113,20.370739,20.312,20.251259,20.191528,20.132866,20.07444,20.015793,19.954994,19.8882,19.82724,19.790207,19.765717,19.740147,19.707266,19.650448,19.56381,19.4317,19.269394,19.087662,18.907557,18.759993,18.66359,18.615295,18.592876,18.588427,18.58714,18.575977,18.538347,18.460075
70.40959,70.34666,70.247375,70.09915,69.89956,69.67833,69.45556,69.27211,69.15646,69.09956,69.10627,69.154816,69.25514,69.3306,69.358925,69.359825,69.32073,69.20776,69.02987,68.74603,68.334854,67.92621,67.60592,67.35994,67.2166,67.132416,66.85161,66.32654,65.34071,63.712105,61.706745,59.945114,58.54377,57.508675,56.787567,56.314163,56.026398,55.848595,55.698112,55.540535,55.300026,54.97956,54.62198,54.311554,54.067616,53.978386,54.397278,54.938442,55.67903,56.547005,57.37085,57.983524,58.339664,58.521187,58.613808,58.656498,58.670044,58.68652,58.62565,58.37505,57.91799,57.130486,55.8749,54.24849,52.222214,49.77294,47.526024,46.36642,45.804344,45.60858,45.637897,45.751152,45.801086,45.748413,45.695786,45.75348,45.963554,46.423546,47.065685,47.385567,47.285656,47.13485,46.931396,46.704765,46.48369,46.25109,46.06127,45.936737,45.82533,45.68518,45.538513,45.3658,45.148697,44.913166,44.68715,44.490746,44.348694,44.272026,44.21071,44.136482,44.056885,43.96933,43.86487,43.747364,43.622093,43.49292,43.364292,43.23375,43.09143,42.938797,42.781456,42.61162,42.44291,42.26644,42.096245,41.911797,41.70814,41.509827,41.32823,41.13793,40.897167,40.612885,40.266033,39.83348,39.263638,38.52816,37.80301,36.333984,33.467567,30.155426,27.713112,26.37936,25.569618,25.28777,25.237415,25.343224,25.470726,25.586437,25.690342,25.760052,25.81552,25.86803,25.929852,25.998573,26.06398,26.115185,26.14742,26.163193,26.170258,26.175545,26.18163,26.191301,26.205029,26.222221,26.242744,26.264381,26.288239,26.313576,26.339716,26.36685,26.392578,26.413013,26.429272,26.446995,26.457806,26.458292,26.449451,26.431435,26.403856,26.371012,26.334364,26.295643,26.260159,26.23633,26.224367,26.213783,26.196362,26.180687,26.161955,26.157482,26.177505,26.196236,26.143124,25.96011,25.686575,25.380604,25.156605,25.020218,25.38171,27.115053,30.844017,36.206787,38.92176,39.671944,39.33886,38.838776,38.405098,37.738487,36.757935,35.91974,35.440804,35.250893,35.201485,35.204082,35.249073,35.355545,35.54079,35.85994,36.361477,36.931343,37.371902,37.62619,37.810394,37.9374,38.01928,37.991783,37.78762,37.32769,36.664963,35.747192,33.931107,32.434986,31.31784,30.648056,30.337284,30.234375,30.231468,30.27511,30.31233,30.341192,30.35609,30.354929,30.322994,30.239326,30.103462,29.934944,29.751656,29.565096,29.369272,29.136612,28.827366,28.424225,27.964363,27.47636,26.986094,26.523232,26.089401,25.699915,25.384346,25.1031,24.800848,24.471874,24.118128,23.76178,23.435703,23.16121,22.940254,22.750576,22.57342,22.40343,22.230452,22.04955,21.86657,21.692352,21.5276,21.37126,21.232061,21.111591,21.007706,20.917967,20.839735,20.767628,20.697945,20.635914,20.587917,20.544933,20.495289,20.44011,20.381584,20.319664,20.25418,20.187447,20.12164,20.059853,20.00489,19.95668,19.912897,19.879478,19.843735,19.799961,19.738373,19.643513,19.515747,19.37719,19.220161,19.058796,18.881836,18.702574,18.559895,18.472065,18.434727,18.415531,18.392841,18.37744,18.391857,18.422607,18.422077
70.02901,69.9946,69.9217,69.78967,69.59637,69.374886,69.15524,68.98828,68.90571,68.89297,68.94403,69.0307,69.1512,69.239,69.27399,69.2782,69.25217,69.16838,69.02322,68.79173,68.443474,68.09241,67.81961,67.609085,67.47653,67.39374,67.10234,66.550095,65.53743,63.87046,61.81196,60.028206,58.621807,57.59853,56.88862,56.422493,56.142426,55.969765,55.8134,55.64345,55.385406,55.042835,54.684067,54.370415,54.108116,54.025482,54.496788,55.03402,55.781326,56.65647,57.485306,58.103027,58.462296,58.649532,58.745766,58.791504,58.806404,58.825523,58.754852,58.477776,58.005264,57.212036,55.931164,54.282494,52.262367,49.83235,47.59321,46.434624,45.866455,45.6595,45.673256,45.767685,45.79879,45.730785,45.668167,45.722313,45.936028,46.41104,47.066208,47.398087,47.313797,47.17901,46.990067,46.776085,46.56199,46.36588,46.195946,46.048203,45.90833,45.7623,45.606438,45.429802,45.23433,45.019928,44.79837,44.604073,44.469482,44.37793,44.282127,44.1996,44.123356,44.038715,43.942833,43.843624,43.7439,43.640488,43.527676,43.383663,43.21211,43.025337,42.824898,42.616425,42.40977,42.192375,41.974625,41.756195,41.52766,41.286263,41.039673,40.767994,40.45279,40.133663,39.54242,38.86026,38.22667,37.220436,35.860374,33.888645,31.132858,28.710018,27.060486,25.982908,25.448801,25.306103,25.33871,25.410353,25.512495,25.631475,25.735167,25.808748,25.859306,25.900902,25.950706,26.008072,26.064133,26.109215,26.13886,26.154472,26.162579,26.168922,26.17455,26.181015,26.188503,26.196903,26.206772,26.216347,26.226645,26.237339,26.249077,26.26227,26.275911,26.288254,26.298374,26.307446,26.309595,26.304163,26.292442,26.275436,26.254505,26.232586,26.209923,26.18658,26.165274,26.148739,26.135715,26.120892,26.100204,26.073868,26.0462,26.030687,26.03527,26.036587,25.988335,25.857983,25.638107,25.459373,25.168396,24.996372,25.248138,26.371021,29.23862,34.921944,38.180813,39.37832,39.150764,38.607735,38.18538,37.551422,36.655853,35.782677,35.27762,35.06626,34.989704,34.955658,34.947372,34.975166,35.058506,35.232864,35.545303,35.953148,36.357616,36.69382,36.96061,37.162605,37.239452,37.22306,37.073387,36.732285,36.19423,35.33746,33.690422,32.379154,31.417732,30.81774,30.520355,30.419363,30.406124,30.430157,30.449364,30.461872,30.476255,30.47604,30.437714,30.347921,30.204025,30.028538,29.837803,29.641872,29.444283,29.220093,28.92382,28.535461,28.089947,27.595139,27.085876,26.615543,26.171202,25.753561,25.413551,25.115898,24.80312,24.467302,24.10952,23.751396,23.425535,23.153252,22.93634,22.7524,22.581709,22.417885,22.250206,22.07294,21.89146,21.71753,21.55231,21.39476,21.253458,21.130253,21.023418,20.930933,20.850578,20.777084,20.70657,20.644112,20.59576,20.552208,20.501623,20.444912,20.38376,20.317726,20.24594,20.170462,20.097357,20.035175,19.989899,19.961819,19.95065,19.925459,19.872223,19.746662,19.566153,19.41323,19.323563,19.243067,19.12667,18.948532,18.705288,18.448692,18.251442,18.148174,18.142967,18.232292,18.314272,18.309727,18.257755,18.233824,18.24762
69.66823,69.66272,69.61902,69.50629,69.32515,69.11047,68.8851,68.72679,68.69399,68.750565,68.849106,68.97635,69.1339,69.215775,69.236626,69.251495,69.23709,69.17172,69.05203,68.86238,68.57501,68.281235,68.05322,67.880974,67.76683,67.691605,67.392006,66.811066,65.77849,64.07733,61.95555,60.14543,58.72953,57.713173,57.010643,56.548042,56.27442,56.108093,55.944565,55.761383,55.484627,55.117153,54.758408,54.42528,54.13514,54.094112,54.615486,55.142323,55.90067,56.792,57.63137,58.254707,58.614597,58.801994,58.894814,58.937828,58.9506,58.974167,58.893375,58.582447,58.089813,57.27851,55.96325,54.289684,52.284584,49.88186,47.650406,46.496155,45.919693,45.69708,45.690918,45.76428,45.77745,45.697643,45.62945,45.68373,45.903862,46.395645,47.06383,47.407013,47.338158,47.220024,47.047405,46.84908,46.64984,46.471035,46.311253,46.161148,46.01286,45.858597,45.69258,45.50666,45.306404,45.096237,44.89013,44.71038,44.570206,44.4581,44.353317,44.2658,44.187595,44.106728,44.02673,43.957253,43.887474,43.8086,43.690388,43.526375,43.309723,43.04731,42.767517,42.501205,42.249832,41.962402,41.65732,41.369904,41.09428,40.80169,40.49463,40.163017,39.687965,39.16279,38.206333,36.99305,35.84252,34.511337,33.06308,31.195312,29.286068,27.707062,26.554146,25.815275,25.497118,25.431965,25.42409,25.48293,25.60315,25.735388,25.834835,25.89791,25.93607,25.964645,26.00267,26.050602,26.100243,26.142456,26.172516,26.190357,26.201302,26.209753,26.215244,26.218325,26.219141,26.218311,26.21729,26.214863,26.21182,26.208397,26.206532,26.207714,26.211704,26.217102,26.222355,26.22729,26.226744,26.22065,26.210348,26.196857,26.181541,26.166729,26.152332,26.138588,26.126629,26.116661,26.105831,26.088875,26.062588,26.027866,25.988945,25.965446,25.97256,25.987392,25.961294,25.859268,25.661757,25.41175,25.197163,25.005424,25.096611,25.919708,28.227312,33.367508,37.37048,39.067734,39.039738,38.49724,38.0076,37.43953,36.694782,35.781624,35.212776,34.9582,34.847763,34.77072,34.708496,34.669106,34.670822,34.739857,34.900246,35.123405,35.368618,35.596306,35.77146,35.916466,36.041473,36.124,36.09889,35.898445,35.492416,34.786476,33.49088,32.371155,31.570744,31.064007,30.784672,30.66692,30.630646,30.625872,30.616497,30.609974,30.60477,30.597635,30.56559,30.477509,30.33012,30.148563,29.948616,29.743256,29.541538,29.320265,29.032633,28.657116,28.222626,27.724632,27.20044,26.708328,26.25127,25.823317,25.453827,25.139748,24.817604,24.476578,24.116257,23.757149,23.43103,23.159054,22.943703,22.762783,22.595955,22.43628,22.272682,22.098564,21.918587,21.745022,21.579344,21.420307,21.276146,21.149063,21.038002,20.941654,20.85849,20.783356,20.711966,20.649166,20.600515,20.556408,20.504885,20.446486,20.3821,20.311169,20.232342,20.148254,20.070467,20.011518,19.98028,19.983938,19.985632,19.942337,19.81692,19.621761,19.470837,19.395123,19.175758,18.538477,17.81869,17.2169,16.77322,16.454967,16.253326,16.180016,16.25241,16.532482,17.029903,17.668066,18.119202,18.203886,18.151127
69.38,69.403946,69.38812,69.29466,69.108,68.87209,68.637726,68.49782,68.51002,68.63345,68.80869,69.01204,69.16282,69.223465,69.24669,69.27219,69.26733,69.20895,69.11009,68.950874,68.709854,68.464096,68.2769,68.1386,68.03986,67.97728,67.68692,67.082855,66.03438,64.301956,62.110554,60.27252,58.845314,57.83428,57.136738,56.679157,56.413418,56.251938,56.08285,55.886658,55.590134,55.19334,54.831944,54.47493,54.156956,54.16699,54.724976,55.252594,56.031487,56.948788,57.80471,58.43242,58.787933,58.968857,59.050835,59.085808,59.096428,59.115913,59.017044,58.676598,58.158585,57.314014,55.95506,54.255547,52.27882,49.91514,47.692867,46.549774,45.964455,45.722847,45.693726,45.745193,45.742836,45.65612,45.587566,45.645775,45.87427,46.384163,47.06156,47.411377,47.356262,47.254078,47.098312,46.917934,46.73841,46.576298,46.428864,46.285557,46.13656,45.974823,45.798042,45.600456,45.38833,45.173115,44.974297,44.804615,44.66126,44.540894,44.431206,44.335083,44.2502,44.17459,44.115593,44.079132,44.04989,43.980648,43.870285,43.6741,43.37359,43.024544,42.645885,42.126747,41.461685,40.943916,40.526344,40.052616,39.505676,38.99448,38.531578,37.920967,37.062675,36.065674,34.850082,33.5423,32.349056,31.252537,30.241777,29.099874,27.98777,26.979515,26.198904,25.744617,25.556152,25.473572,25.456701,25.529335,25.657986,25.781445,25.863071,25.907282,25.93113,25.948895,25.978613,26.02079,26.067335,26.109295,26.14154,26.162779,26.17728,26.18832,26.19421,26.194874,26.190496,26.18216,26.172035,26.159506,26.145136,26.129797,26.116875,26.109137,26.10685,26.108442,26.111906,26.116589,26.117447,26.11422,26.108095,26.099953,26.090845,26.082603,26.07535,26.069931,26.066444,26.063744,26.057503,26.041214,26.011559,25.971745,25.92669,25.897678,25.909863,25.948097,25.95814,25.889458,25.714256,25.417585,25.208817,25.001602,24.96061,25.542202,27.394361,31.411327,36.31162,38.67579,38.939865,38.428673,37.870007,37.38485,36.825478,35.846565,35.19126,34.882812,34.737206,34.62272,34.519135,34.43126,34.37336,34.369843,34.41768,34.486603,34.562927,34.64647,34.734245,34.86429,34.97711,35.07396,35.11031,35.023247,34.778557,34.300488,33.356663,32.431744,31.750965,31.341825,31.117256,30.99697,30.934296,30.88472,30.827194,30.783224,30.759695,30.754345,30.733315,30.652058,30.504795,30.318838,30.108303,29.889849,29.677324,29.450548,29.164768,28.798613,28.373066,27.872505,27.335484,26.81707,26.340714,25.904232,25.512323,25.178276,24.84505,24.497942,24.13467,23.774065,23.4464,23.172432,22.955908,22.775328,22.609993,22.45303,22.293205,22.122864,21.94548,21.773344,21.607994,21.447836,21.300568,21.168934,21.052916,20.95227,20.86629,20.789822,20.717901,20.655037,20.605984,20.560955,20.508253,20.448032,20.38013,20.30441,20.219692,20.130302,20.052711,20.006855,20.000021,20.020256,20.016651,19.91486,19.74188,19.636501,19.34046,18.456648,17.194242,16.060959,15.233274,14.691671,14.369953,14.193403,14.096359,14.051611,14.08488,14.276136,14.708551,15.682392,16.937174,17.820442,18.089159
69.19265,69.24805,69.264854,69.18995,68.999115,68.741745,68.49867,68.37238,68.41513,68.589775,68.835495,69.080536,69.21704,69.27326,69.30897,69.33811,69.33477,69.278275,69.19226,69.04698,68.833244,68.62457,68.4722,68.36076,68.28116,68.236786,67.974266,67.35314,66.284744,64.516205,62.250603,60.38324,58.95175,57.94188,57.248375,56.8013,56.547684,56.391617,56.220078,56.012352,55.695534,55.276855,54.907356,54.518673,54.174595,54.22989,54.80555,55.353405,56.16223,57.10978,57.984596,58.618042,58.970642,59.14073,59.206726,59.230133,59.24319,59.240723,59.10501,58.744385,58.193848,57.297104,55.890255,54.17074,52.243073,49.937965,47.72995,46.600555,46.005074,45.741318,45.686813,45.716393,45.701294,45.612083,45.5472,45.61154,45.84816,46.373745,47.053757,47.406197,47.364433,47.27582,47.135895,46.974236,46.816574,46.676727,46.547867,46.41579,46.269344,46.102978,45.91587,45.706528,45.48249,45.264317,45.06962,44.903328,44.762115,44.64061,44.522705,44.415386,44.323677,44.255875,44.220924,44.215073,44.21454,44.15998,44.04593,43.78718,43.403374,42.804688,41.876404,40.81093,39.674854,38.552734,37.67506,36.90779,36.136925,35.447334,34.85228,34.13214,33.233036,32.22162,31.221836,30.317966,29.537395,28.883606,28.318289,27.771988,27.121773,26.481709,25.994349,25.698147,25.54073,25.446466,25.458687,25.540176,25.65106,25.745354,25.800312,25.82473,25.836636,25.847404,25.872217,25.910961,25.95562,25.997517,26.031422,26.055412,26.07291,26.086447,26.093613,26.093887,26.08728,26.07483,26.058933,26.03952,26.017052,25.993073,25.972443,25.959093,25.953766,25.95477,25.9594,25.966427,25.970848,25.97207,25.970982,25.96841,25.965317,25.96307,25.962166,25.964016,25.968025,25.97203,25.970617,25.956402,25.925922,25.883335,25.835487,25.803965,25.817822,25.871235,25.915417,25.891598,25.7545,25.48227,25.211123,24.996334,24.89046,25.237339,26.638168,29.465862,34.966995,38.083057,38.790997,38.352707,37.741493,37.347557,36.8946,35.90837,35.177948,34.809914,34.63136,34.491028,34.364746,34.25007,34.156384,34.106983,34.078423,34.043888,34.01044,34.002266,34.033066,34.13702,34.26494,34.348633,34.389954,34.367886,34.246395,33.958633,33.315044,32.587166,31.989204,31.63676,31.460278,31.352287,31.270763,31.18047,31.079464,31.000423,30.964085,30.96328,30.953278,30.883417,30.742605,30.555183,30.333149,30.098408,29.868786,29.627953,29.336296,28.974613,28.556637,28.045824,27.49871,26.957392,26.452854,26.000435,25.596817,25.235046,24.885294,24.528164,24.159744,23.796574,23.466358,23.188831,22.969183,22.78688,22.621044,22.46539,22.308851,22.14262,21.968666,21.798893,21.634727,21.474075,21.323994,21.187828,21.066875,20.962204,20.873947,20.7968,20.724945,20.662483,20.61308,20.56691,20.51289,20.450914,20.37952,20.299728,20.211758,20.12162,20.050083,20.025738,20.04845,20.06689,20.01701,19.863861,19.78196,19.446815,18.234205,16.239586,14.565335,13.575119,13.095472,12.903257,12.845626,12.855297,12.866409,12.8196945,12.758671,12.736297,12.876114,13.525292,14.87633,16.522991,17.691364
69.1266,69.20925,69.261246,69.20175,69.02432,68.76289,68.50633,68.37507,68.43397,68.64456,68.9285,69.148575,69.29204,69.36922,69.4154,69.44202,69.42952,69.37355,69.28902,69.1442,68.94411,68.760475,68.634094,68.54712,68.49366,68.47301,68.23848,67.609184,66.51501,64.695724,62.35444,60.454826,59.0262,58.02701,57.343174,56.90723,56.664566,56.514862,56.344822,56.128376,55.79238,55.364937,54.98352,54.554626,54.18345,54.273666,54.862015,55.433052,56.272358,57.25031,58.145294,58.788216,59.143456,59.30441,59.356274,59.374344,59.38037,59.34159,59.165604,58.786884,58.195984,57.22287,55.768044,54.039062,52.185905,49.962997,47.773254,46.653877,46.04526,45.75583,45.673843,45.682022,45.656906,45.568703,45.510136,45.581226,45.82399,46.358154,47.0329,47.38768,47.361614,47.282093,47.154922,47.00992,46.873016,46.75618,46.648674,46.53195,46.39251,46.225178,46.029694,45.809555,45.57701,45.360737,45.172897,45.010826,44.8739,44.750427,44.625538,44.510174,44.41809,44.361813,44.34739,44.363323,44.376053,44.336094,44.179962,43.82006,43.17033,41.972214,40.133766,38.196198,36.744747,35.188736,33.929615,33.051273,32.37805,31.785503,31.26257,30.772713,30.250374,29.694384,29.140314,28.641327,28.203419,27.787605,27.409798,27.022509,26.614761,26.213219,25.878838,25.63876,25.479395,25.425642,25.452751,25.524578,25.610199,25.676426,25.709246,25.719921,25.724937,25.732294,25.753805,25.788765,25.829815,25.869186,25.902184,25.926903,25.94606,25.96177,25.971424,25.973957,25.968739,25.95618,25.938293,25.915424,25.888166,25.858696,25.833271,25.816881,25.810707,25.812946,25.82019,25.830685,25.839333,25.845016,25.848232,25.849773,25.850574,25.851748,25.854189,25.859715,25.86751,25.874939,25.87601,25.862827,25.831707,25.78688,25.73514,25.700594,25.711878,25.768515,25.832058,25.846558,25.754728,25.523685,25.224121,25.015419,24.880756,25.045547,26.057796,28.061474,33.577957,37.31351,38.567833,38.27419,37.639194,37.307686,36.868164,35.940636,35.159058,34.731464,34.522545,34.36712,34.234924,34.113823,34.007904,33.93756,33.86696,33.77443,33.68955,33.644073,33.631783,33.67287,33.84935,33.953773,33.998634,34.002197,33.93107,33.745316,33.362846,32.79669,32.277893,31.945024,31.78323,31.696793,31.61206,31.501999,31.375008,31.272697,31.221119,31.218983,31.218113,31.156935,31.0202,30.841526,30.623236,30.375729,30.122963,29.859632,29.55401,29.191334,28.778465,28.25724,27.69798,27.133495,26.594536,26.11544,25.700142,25.308216,24.934364,24.560993,24.184437,23.818237,23.485947,23.205076,22.981884,22.796904,22.629185,22.47327,22.318577,22.155453,21.984478,21.817078,21.654387,21.493732,21.341501,21.201515,21.076395,20.968582,20.878952,20.801926,20.73082,20.669323,20.620047,20.573109,20.518097,20.454758,20.380188,20.297325,20.209372,20.12284,20.066492,20.068535,20.107738,20.107517,19.9996,19.866932,19.776855,18.589357,16.149044,13.947856,12.985245,12.527397,12.376713,12.409826,12.502584,12.575434,12.5856495,12.51873,12.425201,12.29912,12.278359,12.417501,13.097001,14.658858,16.630733
69.169846,69.26627,69.33568,69.28746,69.134995,68.870316,68.59237,68.44583,68.50901,68.74211,69.04209,69.23639,69.38316,69.48126,69.54094,69.56377,69.53714,69.47853,69.386955,69.24025,69.04791,68.87674,68.76791,68.70701,68.67976,68.686264,68.46394,67.83858,66.7187,64.83295,62.417496,60.484253,59.0614,58.094345,57.42864,56.998947,56.76052,56.61462,56.447704,56.224884,55.87553,55.444637,55.040813,54.57372,54.18615,54.29608,54.90621,55.483585,56.3442,57.351887,58.26985,58.92494,59.28553,59.443592,59.489075,59.51104,59.48539,59.41085,59.216568,58.813248,58.175804,57.10776,55.609047,53.881752,52.116596,49.992287,47.829998,46.71196,46.086697,45.76861,45.65795,45.645866,45.613342,45.528873,45.478394,45.5563,45.803032,46.33767,47.001442,47.360287,47.351673,47.275955,47.156876,47.02384,46.902832,46.805435,46.717888,46.61743,46.487625,46.322495,46.121284,45.89257,45.660416,45.44666,45.262352,45.1082,44.977562,44.854595,44.72754,44.612736,44.529198,44.487434,44.486458,44.512314,44.53701,44.477467,44.230515,43.745964,42.440536,40.232548,37.68637,35.0326,33.37705,32.183575,31.290453,30.675926,30.267973,29.928455,29.624992,29.343143,29.036137,28.65559,28.241451,27.852308,27.522415,27.254536,26.983145,26.703543,26.408733,26.081863,25.773933,25.55254,25.432405,25.406586,25.437868,25.500229,25.568937,25.61859,25.640648,25.646744,25.650696,25.65757,25.67635,25.706161,25.741123,25.775143,25.8046,25.828115,25.84773,25.865377,25.87856,25.885513,25.884575,25.875048,25.85813,25.834417,25.804844,25.772148,25.743912,25.726082,25.720177,25.724316,25.734474,25.748367,25.760738,25.769814,25.77567,25.779072,25.78104,25.782608,25.785088,25.79041,25.79794,25.805044,25.805618,25.791687,25.759388,25.712132,25.655544,25.613108,25.615553,25.66724,25.735687,25.76984,25.716549,25.529636,25.249512,25.047813,24.881136,24.913649,25.660929,27.282509,32.318054,36.467155,38.276314,38.21325,37.609146,37.267853,36.843338,35.954773,35.132954,34.65322,34.4155,34.251736,34.12455,34.011585,33.91111,33.83725,33.75223,33.63658,33.53365,33.48388,33.47121,33.50911,33.6563,33.75483,33.800396,33.807816,33.757507,33.634563,33.436913,32.98268,32.554615,32.256897,32.11425,32.057068,31.975386,31.848888,31.699406,31.574524,31.503658,31.490725,31.485004,31.417389,31.275188,31.115208,30.922985,30.678106,30.410435,30.129242,29.80883,29.439857,29.029236,28.51086,27.931034,27.337666,26.764194,26.246653,25.806114,25.39279,24.987633,24.591295,24.203733,23.834682,23.501959,23.219372,22.993439,22.805767,22.635395,22.477654,22.322735,22.160698,21.99125,21.82548,21.66406,21.503677,21.350082,21.207354,21.079235,20.969412,20.87931,20.803043,20.73315,20.672985,20.624386,20.577343,20.521921,20.457756,20.380562,20.295624,20.210308,20.130886,20.099346,20.130512,20.164467,20.124811,20.002138,19.953602,19.399588,17.165752,14.304855,12.875815,12.372963,12.227758,12.334869,12.526009,12.691065,12.749458,12.692355,12.612555,12.533604,12.3842945,12.218805,12.162872,12.3460045,13.229002,15.122962
69.236664,69.33544,69.37933,69.346634,69.24428,68.99753,68.70262,68.53559,68.598236,68.84244,69.118225,69.32999,69.493996,69.604034,69.66853,69.68571,69.64772,69.583176,69.48173,69.334435,69.1471,68.9859,68.89279,68.85416,68.858116,68.893524,68.67787,68.05902,66.916176,64.959206,62.46521,60.503326,59.10093,58.15662,57.502747,57.082962,56.852646,56.706837,56.53572,56.304768,55.956146,55.52249,55.05573,54.555496,54.19793,54.307083,54.932007,55.50849,56.381836,57.414993,58.355965,59.024574,59.392868,59.55202,59.595577,59.606754,59.544594,59.446815,59.244987,58.81366,58.125076,56.96711,55.43863,53.727764,52.03206,50.008587,47.91063,46.778145,46.132774,45.78415,45.644478,45.613297,45.575027,45.49538,45.45339,45.537865,45.787094,46.31797,46.97225,47.335854,47.340782,47.265953,47.151108,47.025486,46.914898,46.83152,46.759323,46.672108,46.55098,46.38876,46.183456,45.950848,45.722775,45.512245,45.33106,45.185165,45.06147,44.94126,44.818455,44.71846,44.64686,44.61844,44.63659,44.67102,44.681526,44.574898,44.1314,43.544983,41.468338,37.8099,34.56129,32.752617,31.527378,30.667435,30.102184,29.69902,29.362879,29.062088,28.78393,28.56776,28.35759,28.100683,27.80796,27.520416,27.264782,27.037306,26.79929,26.534037,26.245111,25.950071,25.688967,25.50544,25.415428,25.400078,25.433456,25.490274,25.549028,25.589745,25.607414,25.613129,25.618168,25.62537,25.641487,25.665812,25.694195,25.722393,25.747974,25.770071,25.790089,25.809883,25.827126,25.839369,25.84378,25.838474,25.823805,25.800457,25.76984,25.735195,25.705229,25.686722,25.681519,25.687634,25.700459,25.717213,25.732437,25.74371,25.750713,25.754265,25.755568,25.755795,25.756529,25.759848,25.765488,25.770964,25.770258,25.755434,25.722298,25.673199,25.61211,25.561108,25.550879,25.590992,25.657948,25.706491,25.681911,25.53123,25.280434,25.053455,24.8625,24.84304,25.383148,26.758835,30.839737,35.42595,37.932182,38.1692,37.622322,37.215813,36.81641,35.970665,35.116432,34.58821,34.322327,34.15165,34.032284,33.932888,33.846764,33.76718,33.679253,33.563725,33.460648,33.413208,33.404938,33.44925,33.58697,33.668064,33.703354,33.708862,33.6651,33.5702,33.430885,33.14709,32.81436,32.5877,32.500168,32.452866,32.343803,32.16072,31.99124,31.864502,31.78039,31.727573,31.672558,31.578642,31.44487,31.287998,31.102829,30.890804,30.663511,30.408792,30.093924,29.711433,29.302145,28.786999,28.182796,27.563328,26.960613,26.396656,25.914528,25.491272,25.047977,24.622608,24.221355,23.849094,23.516972,23.234076,23.006207,22.815832,22.641933,22.480728,22.32347,22.160488,21.991104,21.826157,21.665737,21.505816,21.351528,21.206913,21.076603,20.96542,20.875187,20.799643,20.730831,20.671791,20.623806,20.576773,20.521137,20.456432,20.377026,20.290623,20.20853,20.137829,20.130547,20.189508,20.217613,20.126287,19.996746,19.996166,18.667305,15.836107,13.305532,12.431374,12.219311,12.254589,12.504358,12.682671,12.7307625,12.720949,12.681028,12.597219,12.50372,12.405352,12.290632,12.153961,12.153385,12.62738,13.898099
69.289154,69.373985,69.428055,69.41214,69.33752,69.13792,68.84659,68.652794,68.713165,68.96771,69.22594,69.45431,69.63772,69.75714,69.81624,69.81818,69.766266,69.69389,69.58278,69.430786,69.24762,69.09544,69.022095,69.0198,69.05971,69.1295,68.92086,68.31352,67.139694,65.10327,62.53791,60.541183,59.156513,58.21705,57.572914,57.165207,56.94017,56.79251,56.618263,56.382767,56.029697,55.59309,55.083603,54.563606,54.22396,54.31436,54.93485,55.510826,56.391502,57.447205,58.413918,59.100853,59.481533,59.64563,59.691475,59.662506,59.57917,59.47515,59.259315,58.78563,58.006016,56.79097,55.247353,53.56421,51.92606,50.020554,48.030697,46.857113,46.186512,45.802395,45.630615,45.57923,45.536346,45.464287,45.43345,45.52616,45.778458,46.3051,46.950928,47.316933,47.330025,47.253235,47.13855,47.015305,46.90954,46.834465,46.77259,46.695152,46.58111,46.42191,46.21521,45.991547,45.767235,45.557854,45.38186,45.243958,45.126217,45.009544,44.897465,44.81956,44.776016,44.77697,44.816025,44.852882,44.853966,44.600002,44.029236,42.42119,38.974396,34.946953,32.460663,31.25124,30.422935,29.902657,29.532536,29.231411,28.954308,28.68101,28.452671,28.262386,28.077877,27.869183,27.633621,27.383434,27.135376,26.902744,26.673504,26.422401,26.150034,25.876175,25.644218,25.491161,25.421251,25.417873,25.457432,25.515156,25.571375,25.609756,25.627594,25.635254,25.642082,25.649424,25.662449,25.680851,25.702408,25.724827,25.746834,25.767956,25.7889,25.81139,25.833216,25.851116,25.861164,25.860386,25.848286,25.825493,25.793987,25.757442,25.725693,25.706379,25.701698,25.709557,25.724747,25.743877,25.761158,25.773438,25.780083,25.782145,25.781225,25.778807,25.776852,25.777542,25.78112,25.785381,25.78431,25.769821,25.737244,25.687386,25.622116,25.561207,25.53416,25.555233,25.610586,25.662992,25.659912,25.546474,25.325924,25.09186,24.89257,24.828691,25.185299,26.315811,29.375446,34.224197,37.441788,38.09799,37.64711,37.17531,36.7893,36.017403,35.130226,34.5453,34.24597,34.063915,33.950027,33.86433,33.79232,33.714973,33.630074,33.519405,33.420895,33.37882,33.377563,33.43299,33.539963,33.604877,33.63938,33.64351,33.601578,33.526695,33.422035,33.29449,33.072975,32.918945,32.890602,32.86255,32.71415,32.489983,32.271793,32.091766,31.975597,31.90648,31.840855,31.746212,31.621037,31.472275,31.294628,31.089617,30.863594,30.610481,30.323174,30.005087,29.631073,29.120388,28.514479,27.85566,27.194733,26.582378,26.046757,25.584354,25.113829,24.656841,24.236551,23.86132,23.531927,23.251066,23.022655,22.829758,22.651215,22.484222,22.321712,22.155045,21.983643,21.818237,21.658325,21.498974,21.344559,21.198761,21.066816,20.954515,20.86405,20.788853,20.720562,20.662067,20.614355,20.567135,20.511044,20.44551,20.363497,20.275497,20.197063,20.141876,20.155426,20.229567,20.259491,20.148552,20.036884,19.895325,17.83671,14.771263,12.782005,12.285568,12.280436,12.495937,12.6837225,12.789021,12.8097725,12.774066,12.710875,12.636242,12.569843,12.466242,12.368397,12.25348,12.162756,12.328796,13.161739
69.311775,69.390144,69.46512,69.471436,69.41754,69.26808,68.99483,68.783035,68.83739,69.0997,69.3454,69.58971,69.79562,69.91341,69.95836,69.95102,69.887665,69.80609,69.684586,69.5285,69.35199,69.216896,69.173325,69.21173,69.289536,69.409775,69.20046,68.59706,67.3794,65.262794,62.644577,60.603867,59.212654,58.246765,57.625755,57.242798,57.016376,56.862354,56.683475,56.44545,56.091225,55.65508,55.124367,54.60418,54.27849,54.331802,54.91858,55.49002,56.368355,57.439262,58.429787,59.13546,59.52986,59.69991,59.746033,59.686283,59.588226,59.476093,59.243065,58.72408,57.846092,56.597374,55.056816,53.410217,51.834866,50.062454,48.189697,46.950573,46.250427,45.827957,45.622997,45.554108,45.50921,45.44506,45.426544,45.52806,45.78299,46.305885,46.939934,47.304276,47.3226,47.239014,47.11864,46.990803,46.881935,46.80698,46.74798,46.674774,46.565742,46.41295,46.21714,46.001385,45.782154,45.57656,45.405136,45.27273,45.160255,45.050716,44.961052,44.923637,44.916286,44.951378,45.024048,45.056564,44.965267,44.459442,43.854996,40.548042,35.941856,32.727734,31.146603,30.339405,29.811348,29.476576,29.214777,28.974037,28.750626,28.54478,28.360199,28.185556,28.006184,27.804026,27.578014,27.334778,27.085957,26.846127,26.613682,26.363316,26.096142,25.83783,25.628395,25.496685,25.444105,25.454144,25.503456,25.567215,25.626486,25.667177,25.688015,25.698738,25.707386,25.714455,25.72404,25.736412,25.75138,25.768616,25.787893,25.809,25.831882,25.858105,25.885471,25.909866,25.926311,25.93089,25.922272,25.900993,25.869587,25.832142,25.799454,25.779936,25.77604,25.785519,25.802555,25.823109,25.840973,25.85236,25.856525,25.855003,25.850035,25.843506,25.837706,25.83501,25.836205,25.83942,25.838661,25.825619,25.794989,25.745827,25.67771,25.607372,25.562065,25.559813,25.596191,25.643105,25.653143,25.572575,25.38467,25.152096,24.968449,24.884668,25.057455,25.957546,28.128033,33.078697,36.887016,37.987785,37.66342,37.127193,36.791718,36.099075,35.181274,34.53505,34.19457,33.994675,33.881172,33.806923,33.745865,33.677296,33.599434,33.496994,33.405014,33.36617,33.370247,33.430107,33.51338,33.567436,33.59938,33.599182,33.55824,33.499928,33.424103,33.357452,33.269184,33.217247,33.24059,33.230263,33.05202,32.781807,32.516346,32.28486,32.139458,32.06066,31.993267,31.903727,31.788696,31.6506,31.482765,31.283125,31.056915,30.806515,30.53461,30.248022,29.934542,29.503841,28.918898,28.214031,27.487629,26.813047,26.204529,25.688492,25.18515,24.692223,24.249435,23.870419,23.545767,23.269836,23.042767,22.847649,22.663404,22.488306,22.317715,22.144917,21.969864,21.803127,21.64354,21.485022,21.331078,21.184761,21.05161,20.938255,20.847221,20.771698,20.702997,20.644054,20.595894,20.548157,20.491562,20.425415,20.341328,20.252396,20.177773,20.14397,20.180223,20.261457,20.285473,20.152122,20.053322,19.703045,17.163334,14.085613,12.575392,12.341958,12.438596,12.679142,12.795394,12.837442,12.822224,12.769999,12.712002,12.647778,12.585711,12.514842,12.433107,12.349735,12.243117,12.258452,12.811386
69.27838,69.368256,69.46825,69.49875,69.46551,69.35296,69.10947,68.897415,68.938934,69.20361,69.4395,69.6994,69.91363,70.02896,70.06984,70.05948,69.98993,69.90195,69.77359,69.61862,69.4539,69.34306,69.33625,69.4188,69.53221,69.612755,69.417145,68.84184,67.59302,65.41469,62.762863,60.68405,59.26007,58.299576,57.680126,57.296394,57.066975,56.904396,56.72209,56.485214,56.136665,55.705948,55.181114,54.667656,54.34246,54.37123,54.888588,55.446877,56.30998,57.380825,58.386307,59.107376,59.510693,59.681614,59.717102,59.6585,59.549904,59.416786,59.168198,58.614212,57.645905,56.39405,54.87928,53.27716,51.766346,50.126587,48.363747,47.047066,46.316895,45.85886,45.62526,45.541817,45.49655,45.440544,45.43122,45.53781,45.791126,46.308567,46.91954,47.27567,47.30042,47.203964,47.072422,46.93393,46.81549,46.733765,46.67121,46.59693,46.492622,46.355465,46.173664,45.969288,45.762276,45.566185,45.39994,45.270943,45.16353,45.066513,45.01526,45.02607,45.067596,45.147003,45.244957,45.229156,44.92221,44.260345,42.457737,37.997246,33.545372,31.372662,30.437977,29.866837,29.507889,29.226612,29.02214,28.843048,28.656105,28.470306,28.28825,28.11539,27.931444,27.72405,27.495174,27.253788,27.010223,26.773827,26.543396,26.298931,26.044518,25.806381,25.619312,25.507843,25.47335,25.497265,25.557251,25.628231,25.69154,25.734737,25.757702,25.769917,25.778877,25.784504,25.790207,25.796915,25.806225,25.819532,25.837486,25.859955,25.886095,25.91735,25.951485,25.983578,26.007767,26.019331,26.016148,25.998512,25.969574,25.933659,25.902176,25.883968,25.881592,25.89259,25.910572,25.931198,25.947544,25.95541,25.954542,25.947382,25.93681,25.925074,25.914574,25.90784,25.90618,25.9081,25.907728,25.896673,25.869202,25.822685,25.754818,25.678825,25.618523,25.593903,25.608309,25.642601,25.656445,25.599886,25.443731,25.220001,25.056858,24.968979,25.004078,25.703554,27.239466,31.950397,36.133377,37.76724,37.677284,37.13263,36.83096,36.219166,35.269962,34.558083,34.17086,33.947426,33.828842,33.76275,33.7109,33.652493,33.586266,33.493004,33.402428,33.359238,33.359974,33.409313,33.487267,33.536648,33.56395,33.56165,33.52644,33.486267,33.43923,33.395462,33.387146,33.396904,33.44467,33.44757,33.270218,32.97962,32.681725,32.425667,32.267532,32.184845,32.1186,32.03427,31.92865,31.800259,31.642265,31.449913,31.231018,30.98927,30.724241,30.445696,30.168016,29.825207,29.32677,28.624378,27.82761,27.06952,26.381681,25.7995,25.254057,24.723515,24.25625,23.871471,23.553232,23.285479,23.062355,22.866222,22.676157,22.491604,22.311058,22.13058,21.951033,21.782665,21.623556,21.466354,21.3135,21.167202,21.033066,20.918335,20.825903,20.748917,20.678526,20.617916,20.568527,20.520277,20.463972,20.398571,20.314444,20.226776,20.156242,20.143185,20.199076,20.277855,20.281013,20.115149,20.020681,19.479654,16.681,13.698118,12.537287,12.459187,12.585545,12.746906,12.824456,12.820414,12.779507,12.738806,12.698759,12.642622,12.582041,12.531412,12.471988,12.405819,12.324339,12.322287,12.700642
69.19699,69.307365,69.43562,69.491684,69.48073,69.395035,69.18703,68.987076,69.01081,69.2694,69.50177,69.77386,69.98323,70.1004,70.14894,70.138985,70.06831,69.98021,69.85134,69.70279,69.5535,69.46803,69.49672,69.62168,69.76436,69.725006,69.532745,69.00384,67.74864,65.52707,62.852783,60.758076,59.304497,58.355988,57.723137,57.3243,57.08986,56.920723,56.73937,56.508568,56.172165,55.752426,55.251175,54.743637,54.410767,54.436718,54.85805,55.39305,56.229,57.28269,58.29113,59.021893,59.42613,59.590385,59.604073,59.55994,59.453087,59.30232,59.02381,58.426872,57.421303,56.196915,54.727676,53.17547,51.722206,50.19647,48.5263,47.134567,46.377068,45.89025,45.63582,45.542168,45.49741,45.447617,45.442173,45.5483,45.795143,46.30721,46.885685,47.225697,47.256313,47.143234,46.997444,46.84551,46.714275,46.622154,46.552685,46.476807,46.380238,46.261353,46.093193,45.907417,45.71984,45.53795,45.378872,45.253944,45.154503,45.077843,45.07494,45.131332,45.22813,45.357956,45.4431,45.288544,44.68734,43.654648,39.90792,35.328358,32.10739,30.652061,30.055883,29.641283,29.342758,29.115108,28.956347,28.800327,28.597572,28.368343,28.157318,27.96894,27.776394,27.568886,27.344471,27.109882,26.8757,26.650463,26.43306,26.207127,25.977972,25.76564,25.602758,25.513746,25.49723,25.533916,25.603214,25.679878,25.745481,25.789122,25.81184,25.823204,25.830788,25.833988,25.835766,25.837631,25.842583,25.853357,25.871273,25.896122,25.926344,25.9633,26.00473,26.045015,26.077606,26.097364,26.101624,26.089762,26.065622,26.033533,26.005112,25.98965,25.98973,26.002329,26.020576,26.03879,26.051155,26.054508,26.047829,26.03375,26.016954,26.000053,25.984985,25.97432,25.969769,25.970215,25.970028,25.961008,25.93725,25.894854,25.830225,25.753063,25.683067,25.640366,25.633879,25.652477,25.663568,25.62276,25.494812,25.287903,25.130852,25.038357,25.01704,25.547892,26.685734,30.825228,35.204918,37.465126,37.687485,37.181908,36.888786,36.36495,35.393066,34.614082,34.174522,33.92335,33.7949,33.733253,33.689896,33.63922,33.58808,33.503197,33.406643,33.35149,33.34038,33.3726,33.444534,33.49669,33.52501,33.524235,33.499496,33.478607,33.457253,33.444523,33.458244,33.47832,33.527336,33.533558,33.365723,33.069878,32.75537,32.501957,32.34769,32.267147,32.204918,32.12487,32.02533,31.903515,31.753319,31.568085,31.357948,31.125944,30.871536,30.608234,30.342518,30.038567,29.65295,29.020252,28.18325,27.333652,26.570042,25.906202,25.320698,24.750908,24.256481,23.864662,23.55286,23.295197,23.077988,22.882095,22.686886,22.492954,22.302288,22.11422,21.930664,21.761293,21.603395,21.448372,21.297386,21.151741,21.016914,20.900524,20.805828,20.726166,20.652622,20.588743,20.536755,20.48727,20.431278,20.367363,20.285088,20.20087,20.136065,20.137945,20.206215,20.27545,20.245966,20.044064,19.951614,19.242172,16.310051,13.467167,12.55536,12.544928,12.667798,12.754032,12.796576,12.770302,12.735451,12.715115,12.6799555,12.632185,12.587519,12.53491,12.494574,12.443142,12.385582,12.3936405,12.670052
69.09393,69.22365,69.37924,69.46458,69.477264,69.4147,69.24295,69.06138,69.0681,69.313705,69.55083,69.824265,70.03296,70.1541,70.20958,70.20425,70.13675,70.05439,69.9301,69.790504,69.65645,69.59285,69.64995,69.805405,69.96268,69.84453,69.62197,69.102936,67.838776,65.57941,62.88279,60.79815,59.346497,58.364273,57.73416,57.340424,57.09616,56.923935,56.748314,56.5277,56.208015,55.80465,55.325493,54.822403,54.487686,54.516453,54.838825,55.342594,56.143898,57.169456,58.171104,58.905243,59.30388,59.45669,59.44539,59.39354,59.293472,59.13949,58.815952,58.16975,57.201973,56.023476,54.610317,53.109226,51.70433,50.263474,48.658333,47.2041,46.423668,45.916046,45.648693,45.55106,45.5075,45.459213,45.452744,45.554497,45.793243,46.305885,46.853058,47.170395,47.20166,47.07311,46.913345,46.746193,46.603615,46.50216,46.425602,46.351566,46.266815,46.159584,46.008842,45.843746,45.676674,45.509697,45.358612,45.24006,45.154114,45.10658,45.14657,45.249706,45.398407,45.56333,45.581963,45.20232,44.306236,42.18287,37.450584,33.336044,31.239044,30.334482,29.814487,29.498085,29.2291,29.089321,28.954613,28.743069,28.47525,28.211512,27.980568,27.77846,27.585981,27.385925,27.171108,26.948017,26.728203,26.518896,26.319157,26.113188,25.90652,25.718418,25.578907,25.509634,25.508064,25.554943,25.631205,25.711441,25.777569,25.820131,25.841267,25.850773,25.856504,25.857382,25.855946,25.854164,25.856028,25.865253,25.883644,25.910877,25.944866,25.98685,26.0346,26.081978,26.12217,26.149147,26.15892,26.152536,26.134195,26.107988,26.085175,26.073662,26.075325,26.087944,26.104881,26.118698,26.12606,26.125704,26.115047,26.096264,26.075624,26.054733,26.036385,26.022917,26.016243,26.015526,26.01551,26.00832,25.988014,25.949951,25.889706,25.813913,25.738419,25.682478,25.658741,25.662766,25.669275,25.639673,25.536152,25.351997,25.190882,25.090538,25.068872,25.458817,26.366627,29.82201,34.30111,37.180946,37.694504,37.21158,36.953114,36.50238,35.543415,34.706367,34.203884,33.92205,33.779373,33.718086,33.68158,33.63647,33.597015,33.519424,33.416393,33.346096,33.321106,33.341286,33.39206,33.45016,33.487198,33.489616,33.475018,33.470375,33.46867,33.477314,33.51085,33.53984,33.58433,33.5828,33.407272,33.085175,32.766586,32.53188,32.389515,32.312458,32.252968,32.173767,32.075623,31.956861,31.812267,31.634333,31.42957,31.205133,30.965504,30.720564,30.47859,30.190598,29.861765,29.331436,28.525585,27.597546,26.757318,26.009237,25.38971,24.777647,24.25436,23.855347,23.547745,23.29958,23.088413,22.893162,22.693718,22.491732,22.292551,22.098707,21.913013,21.744205,21.588835,21.437187,21.289082,21.144989,21.010159,20.892307,20.794998,20.711819,20.633854,20.56483,20.508097,20.455196,20.397375,20.333248,20.252605,20.172092,20.116184,20.125944,20.200298,20.259903,20.193462,19.959621,19.86591,18.988865,16.006996,13.322799,12.5762005,12.58275,12.681695,12.734115,12.744856,12.7284,12.7059145,12.678677,12.6410885,12.6034775,12.5743475,12.542227,12.512577,12.475388,12.420593,12.406125,12.643456
68.972336,69.12475,69.301865,69.41741,69.45473,69.40538,69.27249,69.121765,69.11583,69.34855,69.588715,69.84848,70.06325,70.19577,70.259674,70.26274,70.20283,70.12871,70.01218,69.88269,69.76207,69.71533,69.793434,69.964325,70.11168,69.98729,69.75865,69.180145,67.86583,65.57498,62.846825,60.7911,59.366028,58.379944,57.746185,57.348022,57.0962,56.922256,56.755688,56.547974,56.2476,55.86428,55.396027,54.88768,54.552856,54.586044,54.829597,55.29824,56.0619,57.055603,58.045208,58.777786,59.16724,59.307266,59.273575,59.183365,59.06079,58.891624,58.553246,57.915325,56.99564,55.87045,54.516357,53.064964,51.70123,50.316795,48.74819,47.248123,46.450394,45.930237,45.6577,45.56006,45.517334,45.467003,45.45479,45.549564,45.781143,46.303085,46.82633,47.11818,47.145645,47.006485,46.835915,46.64927,46.501656,46.397377,46.31659,46.245926,46.17408,46.077675,45.943096,45.79648,45.64708,45.49241,45.34807,45.236904,45.167984,45.155052,45.22052,45.37938,45.583946,45.750984,45.652317,45.025833,43.85311,40.096046,35.527122,32.256485,30.75475,30.163906,29.748041,29.389282,29.21924,29.084412,28.881811,28.598125,28.28579,28.000557,27.771305,27.579348,27.395535,27.20653,27.005686,26.79817,26.594482,26.401184,26.217094,26.028732,25.841179,25.672417,25.550705,25.496014,25.504978,25.558535,25.638767,25.72004,25.784779,25.824986,25.84383,25.851345,25.855577,25.854887,25.851383,25.847239,25.847048,25.85518,25.87384,25.902683,25.93917,25.984505,26.03653,26.088863,26.135204,26.16612,26.17329,26.168797,26.156166,26.139145,26.127487,26.121712,26.120834,26.128586,26.140316,26.151472,26.156132,26.151798,26.139439,26.12321,26.105148,26.08176,26.061926,26.047165,26.039406,26.03806,26.03824,26.032436,26.014872,25.980522,25.92448,25.851048,25.772923,25.70819,25.671814,25.66445,25.66703,25.646347,25.563948,25.4044,25.247534,25.146528,25.1303,25.409584,26.212315,29.00576,33.496277,36.932747,37.72502,37.233704,37.037216,36.59814,35.708954,34.83365,34.253036,33.939415,33.77916,33.714756,33.68385,33.643616,33.604015,33.53356,33.43279,33.34761,33.310616,33.31987,33.356052,33.409595,33.452812,33.46303,33.455162,33.461998,33.4736,33.495796,33.54045,33.571205,33.60594,33.597942,33.42235,33.070778,32.756207,32.543705,32.413578,32.337826,32.276634,32.19306,32.091125,31.971722,31.830313,31.658997,31.457186,31.238209,31.014194,30.787403,30.569134,30.308155,29.986317,29.559534,28.838734,27.852062,26.927502,26.12238,25.457397,24.80271,24.254143,23.846775,23.54013,23.299221,23.092876,22.89812,22.695404,22.487339,22.282188,22.085205,21.899738,21.73337,21.581886,21.434757,21.29048,21.1489,21.014973,20.896221,20.796364,20.70931,20.626175,20.550602,20.487099,20.428177,20.365353,20.297716,20.216492,20.138176,20.094223,20.105251,20.180885,20.23384,20.130661,19.876102,19.7711,18.751114,15.762759,13.231203,12.598831,12.588591,12.648129,12.694868,12.706928,12.698061,12.672575,12.635204,12.597817,12.569472,12.553902,12.538893,12.522156,12.487731,12.435108,12.424111,12.640932
68.8396,69.004974,69.19936,69.33897,69.40671,69.377,69.27437,69.16022,69.16497,69.37671,69.605385,69.86807,70.09038,70.233696,70.30926,70.32335,70.27472,70.21022,70.10316,69.98291,69.871826,69.83561,69.92366,70.103546,70.262024,70.14332,69.91693,69.2288,67.84378,65.53595,62.76736,60.75151,59.35708,58.38608,57.7584,57.359215,57.10076,56.92456,56.770527,56.57849,56.300583,55.941128,55.47265,54.962948,54.629295,54.63047,54.830788,55.27414,55.993095,56.949142,57.924744,58.653564,59.032814,59.16032,59.103893,58.980484,58.823746,58.62767,58.283478,57.671387,56.801254,55.732895,54.439148,53.037025,51.708755,50.364822,48.819042,47.280178,46.468456,45.94168,45.66951,45.574802,45.531982,45.47545,45.45258,45.53794,45.765778,46.30631,46.81424,47.07843,47.09739,46.953194,46.775032,46.57647,46.404766,46.305508,46.238625,46.173996,46.111588,46.025753,45.90542,45.774727,45.639496,45.494606,45.357254,45.25634,45.20926,45.240524,45.324387,45.534145,45.782272,45.911903,45.65699,44.701454,42.8787,38.041473,33.881615,31.483356,30.452225,29.971714,29.619171,29.398735,29.243452,29.051056,28.77231,28.426136,28.083878,27.801786,27.581501,27.400007,27.228897,27.054417,26.86855,26.675365,26.485004,26.304047,26.131508,25.95568,25.78182,25.627224,25.518946,25.475555,25.492697,25.551292,25.634169,25.715458,25.778254,25.816011,25.832932,25.839237,25.843037,25.842148,25.83816,25.833338,25.832554,25.84054,25.859795,25.889975,25.9282,25.975456,26.029787,26.085705,26.13298,26.163208,26.175543,26.171661,26.159822,26.144218,26.13267,26.1291,26.133606,26.144825,26.15844,26.171833,26.17584,26.168346,26.152664,26.13427,26.116203,26.097324,26.077038,26.061874,26.053782,26.052067,26.052208,26.0472,26.031479,25.999992,25.947487,25.87649,25.797031,25.725758,25.679115,25.66203,25.66092,25.647137,25.585888,25.452206,25.302929,25.203411,25.192177,25.37778,26.072338,28.396973,32.8744,36.70762,37.74831,37.282974,37.12931,36.723927,35.935024,35.00425,34.32338,33.979828,33.80197,33.734554,33.709064,33.667126,33.625854,33.56247,33.46291,33.36351,33.31568,33.3153,33.342102,33.383488,33.42213,33.439846,33.443497,33.458237,33.479485,33.51052,33.560646,33.587418,33.611115,33.585777,33.391582,33.044724,32.74639,32.550488,32.428123,32.351135,32.283268,32.19043,32.080578,31.958084,31.81901,31.653713,31.460484,31.249321,31.034557,30.82721,30.63337,30.398478,30.101284,29.70652,29.060276,28.115814,27.09734,26.258612,25.534195,24.83765,24.263554,23.842297,23.533371,23.297333,23.094597,22.900345,22.695328,22.482944,22.273857,22.075588,21.891872,21.729055,21.582294,21.44042,21.300621,21.162258,21.029894,20.910532,20.807837,20.71603,20.62626,20.541836,20.468754,20.400925,20.330353,20.256992,20.174522,20.098358,20.068045,20.086956,20.160337,20.18935,20.04815,19.815453,19.659737,18.474522,15.544504,13.197754,12.652266,12.629114,12.638329,12.681191,12.699515,12.685557,12.647898,12.602175,12.563858,12.542669,12.537976,12.537127,12.532587,12.509331,12.458311,12.443035,12.653028
68.71814,68.875175,69.082825,69.240135,69.34563,69.33836,69.25479,69.179016,69.20967,69.393555,69.622055,69.888214,70.11482,70.266685,70.3526,70.37668,70.33981,70.28627,70.189285,70.076706,69.97118,69.93848,70.026764,70.20046,70.34961,70.288414,70.02301,69.22366,67.74472,65.40814,62.66011,60.687004,59.321793,58.366352,57.74632,57.34908,57.094547,56.929474,56.78955,56.614304,56.358612,56.02877,55.553024,55.036472,54.711357,54.681526,54.831184,55.265236,55.936108,56.85108,57.81356,58.539497,58.91204,59.03185,58.957336,58.805653,58.617176,58.394463,58.04436,57.457718,56.635338,55.622086,54.386044,53.026634,51.72526,50.416676,48.891075,47.308086,46.48381,45.955143,45.688656,45.599464,45.55433,45.485176,45.44455,45.517326,45.74801,46.32393,46.8341,47.074104,47.083054,46.94287,46.761726,46.568222,46.39707,46.28132,46.21265,46.16098,46.10199,46.023262,45.911716,45.79011,45.661964,45.522232,45.39155,45.30526,45.283768,45.341537,45.45481,45.712074,45.978874,46.022835,45.579666,44.21617,41.309055,36.411804,32.80092,31.036827,30.333689,29.904211,29.573185,29.420628,29.234665,28.977459,28.640675,28.269377,27.93467,27.674747,27.474304,27.30917,27.151634,26.98816,26.810555,26.622952,26.435905,26.25654,26.084827,25.910233,25.739182,25.589561,25.488014,25.45181,25.47512,25.537994,25.623571,25.70548,25.767433,25.804321,25.821209,25.828327,25.83374,25.834858,25.832764,25.829693,25.830519,25.840012,25.860764,25.892353,25.93161,25.979229,26.03406,26.089695,26.134216,26.159237,26.16669,26.162224,26.151295,26.137156,26.126633,26.12463,26.131443,26.144054,26.158447,26.17197,26.17765,26.173962,26.161346,26.142834,26.123611,26.10733,26.092567,26.079685,26.071941,26.070004,26.069843,26.064648,26.048962,26.01796,25.967209,25.897617,25.817242,25.741331,25.686861,25.662086,25.658955,25.644245,25.604939,25.496656,25.35511,25.251194,25.227264,25.35101,25.945202,27.991447,32.39186,36.457924,37.778244,37.418507,37.263096,36.877007,36.237213,35.260025,34.449017,34.0537,33.850132,33.774307,33.75506,33.715504,33.667088,33.606762,33.510647,33.399918,33.345924,33.34005,33.36077,33.393387,33.42312,33.43528,33.43907,33.45941,33.48718,33.52384,33.576874,33.598053,33.61234,33.572746,33.363068,33.03205,32.755524,32.572647,32.45314,32.36918,32.287273,32.17903,32.057358,31.930573,31.79386,31.635426,31.453552,31.252495,31.046688,30.858719,30.68971,30.47922,30.201733,29.816628,29.264654,28.423412,27.311676,26.403477,25.625555,24.89417,24.290445,23.847202,23.53088,23.295902,23.094742,22.900776,22.694809,22.480469,22.27007,22.072702,21.892124,21.73354,21.591837,21.45531,21.320175,21.185415,21.055134,20.935558,20.829865,20.732159,20.63358,20.53696,20.450628,20.370756,20.290325,20.21062,20.12847,20.057972,20.032959,20.06599,20.139557,20.129253,19.946957,19.758041,19.546366,18.181196,15.359944,13.230789,12.736195,12.673305,12.657921,12.695979,12.714941,12.695348,12.648119,12.595867,12.556662,12.539502,12.5405035,12.547577,12.549637,12.539221,12.49935,12.483324,12.672785
68.63454,68.764435,68.97452,69.14259,69.275185,69.29361,69.23184,69.19069,69.247444,69.41061,69.6423,69.908844,70.13668,70.295235,70.3902,70.42375,70.39902,70.35544,70.267944,70.16115,70.05766,70.022964,70.10396,70.26138,70.389786,70.40649,70.05014,69.1765,67.64633,65.292305,62.59163,60.647236,59.295937,58.345222,57.728096,57.33758,57.094685,56.943527,56.81745,56.65791,56.425262,56.097916,55.622635,55.12066,54.80643,54.752224,54.839767,55.261272,55.897972,56.781837,57.733093,58.458717,58.830635,58.949528,58.86343,58.690636,58.47641,58.229057,57.86919,57.299538,56.515392,55.548664,54.36181,53.036415,51.752106,50.46607,48.95375,47.33584,46.499905,45.973988,45.718815,45.63877,45.59067,45.504234,45.44023,45.497826,45.73562,46.341354,46.878975,47.11812,47.11903,46.991364,46.810898,46.620163,46.448067,46.328583,46.261658,46.21473,46.156956,46.08127,45.972294,45.85199,45.722645,45.58194,45.45531,45.385017,45.38965,45.452415,45.59703,45.888153,46.139053,46.05474,45.41916,43.666656,39.54259,35.182747,32.18624,30.798544,30.256569,29.888294,29.599396,29.428629,29.190105,28.877838,28.508144,28.146765,27.848793,27.621635,27.44691,27.299107,27.15224,26.994007,26.817413,26.627468,26.435392,26.249077,26.069881,25.88789,25.711521,25.560097,25.460388,25.42849,25.456713,25.523594,25.612198,25.695644,25.758165,25.795944,25.814758,25.824657,25.833466,25.838383,25.840015,25.840473,25.844471,25.85661,25.87931,25.912086,25.951792,25.999977,26.052628,26.098322,26.129536,26.145641,26.14901,26.145798,26.137602,26.125975,26.11699,26.115276,26.121334,26.132582,26.144707,26.156704,26.162205,26.161133,26.15295,26.139326,26.125053,26.112743,26.100945,26.090805,26.084862,26.083416,26.083,26.077887,26.063385,26.035357,25.98433,25.914005,25.832588,25.753506,25.693626,25.662783,25.650318,25.639462,25.61513,25.528141,25.397907,25.285103,25.236858,25.320755,25.838966,27.684225,31.947737,36.170662,37.810608,37.601486,37.436386,37.07472,36.526665,35.538513,34.628628,34.153816,33.920006,33.83223,33.816833,33.7827,33.73218,33.672604,33.578987,33.465614,33.41153,33.407776,33.42874,33.443146,33.452423,33.454697,33.457417,33.481396,33.514156,33.554726,33.609177,33.627426,33.637383,33.58631,33.36212,33.051754,32.791664,32.618217,32.496216,32.397095,32.292824,32.163277,32.02704,31.89507,31.766657,31.621078,31.453775,31.264118,31.065678,30.890528,30.741066,30.551891,30.291286,29.91396,29.411877,28.65388,27.55149,26.550714,25.725323,24.963448,24.330635,23.862381,23.533314,23.295439,23.093655,22.899742,22.694096,22.47998,22.270424,22.075256,21.89797,21.742975,21.60534,21.473026,21.341663,21.210056,21.08179,20.962143,20.85353,20.749626,20.64156,20.531868,20.431564,20.33968,20.250412,20.16623,20.087393,20.017685,20.006023,20.04657,20.093945,20.039322,19.84626,19.693459,19.423866,17.884783,15.196716,13.3049555,12.852241,12.732855,12.713484,12.752518,12.7580385,12.727842,12.674025,12.616721,12.575703,12.558666,12.560106,12.570089,12.574608,12.572429,12.544678,12.530098,12.683649
68.593414,68.69203,68.888016,69.059425,69.20426,69.24722,69.21265,69.19772,69.27112,69.42969,69.66017,69.92352,70.15003,70.312546,70.41465,70.45822,70.44673,70.410126,70.33003,70.2271,70.123856,70.08527,70.15613,70.295654,70.40428,70.44907,70.02694,69.12811,67.61974,65.29828,62.62574,60.678955,59.315666,58.360413,57.738438,57.34857,57.112114,56.969597,56.856003,56.71,56.498585,56.162834,55.7025,55.232414,54.92898,54.85666,54.882828,55.263504,55.88222,56.750145,57.6912,58.418205,58.794395,58.917454,58.82451,58.636375,58.400566,58.12918,57.75524,57.193214,56.435547,55.50512,54.3585,53.061085,51.78646,50.509254,49.002785,47.363903,46.517773,45.999245,45.761185,45.695328,45.64621,45.54077,45.45005,45.489758,45.73439,46.349426,46.933594,47.201935,47.201813,47.090656,46.911835,46.715378,46.540966,46.43017,46.36838,46.320557,46.26548,46.191277,46.081215,45.95701,45.82029,45.673615,45.548615,45.489777,45.509636,45.573883,45.740746,46.0449,46.238663,46.003754,45.163544,43.074577,38.180695,34.34282,31.85438,30.699896,30.224365,29.902237,29.645933,29.41127,29.120462,28.7672,28.3915,28.061539,27.807732,27.614305,27.463074,27.327686,27.185675,27.026917,26.84657,26.650707,26.450806,26.25526,26.066612,25.875267,25.691784,25.537,25.437954,25.409683,25.442665,25.513733,25.605764,25.69158,25.755812,25.795734,25.817688,25.831402,25.844341,25.853666,25.859596,25.864105,25.871689,25.88684,25.912054,25.946535,25.985363,26.02628,26.066471,26.096685,26.114866,26.125881,26.131672,26.131443,26.1286,26.12159,26.11559,26.11522,26.121109,26.130873,26.14024,26.14893,26.149704,26.142963,26.132359,26.12157,26.11256,26.10503,26.095667,26.08916,26.085857,26.084778,26.08347,26.078382,26.066284,26.042908,25.995533,25.928013,25.846733,25.765198,25.700275,25.660587,25.640564,25.63528,25.61703,25.546057,25.428013,25.30434,25.228397,25.279285,25.750824,27.39569,31.499214,35.87253,37.847946,37.792194,37.599163,37.282288,36.749947,35.7979,34.842804,34.266594,34.002472,33.903103,33.88996,33.86451,33.82058,33.76155,33.676193,33.580444,33.53016,33.52501,33.534172,33.532494,33.52797,33.522907,33.523346,33.546215,33.58031,33.62374,33.678375,33.698853,33.711872,33.64774,33.399986,33.11119,32.862473,32.68876,32.555305,32.432762,32.29864,32.143425,31.991215,31.859074,31.741512,31.610641,31.459673,31.284725,31.097363,30.933418,30.796213,30.62078,30.373772,30.006237,29.505753,28.790989,27.784466,26.70502,25.827522,25.029755,24.373161,23.884039,23.538086,23.294432,23.09045,22.896551,22.69234,22.48,22.27234,22.079182,21.903656,21.750004,21.613869,21.48302,21.352962,21.222534,21.094944,20.974579,20.86314,20.753849,20.637852,20.517864,20.407843,20.309795,20.219057,20.136433,20.05717,20.001842,20.00417,20.030987,20.016245,19.92389,19.774174,19.598068,19.256065,17.549667,15.025452,13.384446,12.972485,12.815522,12.801777,12.828836,12.813237,12.770011,12.710259,12.648785,12.604963,12.585676,12.58605,12.593522,12.593353,12.593321,12.576644,12.562865,12.665644
68.589645,68.663574,68.83383,69.00084,69.14993,69.210464,69.19972,69.202805,69.28499,69.44763,69.673386,69.93023,70.15291,70.31592,70.42327,70.47691,70.47724,70.44692,70.37179,70.27182,70.16995,70.12993,70.19331,70.319084,70.41245,70.430756,70.011795,69.11993,67.68216,65.44675,62.78096,60.80506,59.40287,58.431984,57.795597,57.392456,57.150787,57.01217,56.90802,56.772285,56.575554,56.255486,55.820507,55.37796,55.080452,54.982697,54.974236,55.295166,55.897076,56.756477,57.689285,58.41788,58.800827,58.930046,58.832375,58.631817,58.376343,58.080597,57.688408,57.125366,56.383392,55.479946,54.36623,53.093124,51.823242,50.546894,49.042683,47.389076,46.53544,46.028595,45.813087,45.767265,45.7212,45.597816,45.47929,45.49845,45.74594,46.35876,46.989117,47.30229,47.314693,47.21917,47.04158,46.84252,46.673553,46.560257,46.496136,46.453106,46.40352,46.332253,46.220947,46.09133,45.94484,45.790306,45.66622,45.612892,45.633537,45.70453,45.88127,46.176304,46.281876,45.897842,44.826286,42.426353,37.433723,33.910927,31.724255,30.742289,30.310469,29.97015,29.68259,29.372297,29.03706,28.658112,28.299255,28.009163,27.792667,27.627476,27.492126,27.361956,27.218498,27.054699,26.868416,26.666553,26.46019,26.257612,26.061995,25.863945,25.67576,25.519482,25.42223,25.39812,25.436127,25.511538,25.607212,25.695877,25.762444,25.805048,25.83044,25.847935,25.86465,25.877808,25.887379,25.89528,25.906216,25.92374,25.948772,25.979935,26.01202,26.037949,26.060974,26.081738,26.098957,26.11266,26.123363,26.126493,26.128893,26.126919,26.12527,26.128017,26.135204,26.144745,26.15332,26.158522,26.1543,26.140064,26.122597,26.107544,26.095695,26.08795,26.081907,26.077835,26.075512,26.074018,26.07159,26.065704,26.053892,26.032486,25.99603,25.937311,25.8591,25.776701,25.70682,25.658485,25.639713,25.632864,25.615864,25.55667,25.446684,25.310871,25.207802,25.22854,25.666882,27.133043,31.078156,35.589195,37.892952,37.9821,37.730545,37.449837,36.927788,36.045326,35.06552,34.37956,34.087734,33.979546,33.97076,33.957806,33.9246,33.868275,33.79817,33.731915,33.686996,33.674484,33.66422,33.66295,33.661613,33.651352,33.64531,33.66431,33.697247,33.741455,33.79197,33.818672,33.83586,33.754257,33.484524,33.212154,32.973515,32.78502,32.627975,32.47478,32.305344,32.122765,31.95734,31.829216,31.719456,31.600012,31.464626,31.307747,31.137854,30.988373,30.859848,30.69311,30.450565,30.08688,29.580793,28.896923,27.984379,26.856556,25.92313,25.08554,24.41133,23.906944,23.542675,23.291573,23.084318,22.890131,22.687784,22.477818,22.272049,22.079712,21.9036,21.74842,21.61068,21.477966,21.346111,21.214169,21.085186,20.963081,20.84914,20.736494,20.616127,20.491518,20.379044,20.282787,20.197191,20.119814,20.04403,20.011816,19.999489,19.978294,19.902735,19.80465,19.70731,19.443,18.990276,17.100464,14.796497,13.43819,13.06487,12.906336,12.89581,12.887557,12.855881,12.805992,12.741849,12.676964,12.63039,12.608564,12.606426,12.607156,12.598342,12.595638,12.586683,12.570393,12.61673
68.621254,68.675476,68.8215,68.97793,69.1238,69.19469,69.20146,69.21904,69.307495,69.46853,69.68695,69.935165,70.152725,70.31516,70.42879,70.491554,70.497925,70.47777,70.40623,70.310135,70.21323,70.177025,70.23912,70.35791,70.44368,70.452095,70.04293,69.16727,67.813416,65.67821,63.02926,61.021366,59.56154,58.55263,57.889465,57.468277,57.217697,57.078323,56.978424,56.84822,56.65927,56.36944,55.965977,55.548595,55.24114,55.090187,55.09652,55.378662,55.953217,56.802216,57.731926,58.462204,58.853256,58.988495,58.88668,58.674667,58.400192,58.0792,57.66448,57.092037,56.355324,55.46978,54.38133,53.12867,51.85914,50.57799,49.073204,47.406666,46.548767,46.0567,45.86783,45.847267,45.809315,45.67154,45.526783,45.52437,45.769314,46.3845,47.043884,47.39766,47.437763,47.354954,47.179573,46.984962,46.806297,46.685753,46.622833,46.58691,46.54633,46.480927,46.370705,46.236923,46.08135,45.919685,45.796642,45.747543,45.76603,45.836906,46.012558,46.27896,46.293495,45.777283,44.478065,41.80648,36.99859,33.7163,31.737663,30.875658,30.44844,30.046593,29.704098,29.335915,28.960285,28.569164,28.23428,27.97965,27.79112,27.645325,27.517277,27.385918,27.23663,27.065739,26.873634,26.667606,26.457739,26.251667,26.052742,25.851727,25.662193,25.506899,25.412828,25.3933,25.43615,25.515533,25.61444,25.705704,25.77449,25.81956,25.847881,25.868406,25.887838,25.90353,25.915344,25.92523,25.938318,25.955109,25.971666,25.986782,26.003544,26.02379,26.046185,26.068863,26.089031,26.106407,26.122276,26.129532,26.13226,26.130966,26.130539,26.134184,26.141739,26.151415,26.160284,26.166487,26.1638,26.152225,26.134586,26.115149,26.09777,26.083572,26.071712,26.06311,26.058475,26.056782,26.054909,26.048172,26.033089,26.010817,25.984415,25.933317,25.861145,25.781155,25.709408,25.66295,25.640078,25.63072,25.612846,25.561668,25.456844,25.309288,25.183277,25.179955,25.580212,26.917583,30.700806,35.31555,37.93583,38.162865,37.87254,37.579063,37.093193,36.285255,35.272358,34.48348,34.167778,34.054157,34.05284,34.05255,34.031616,33.983078,33.92167,33.867615,33.830223,33.82296,33.82571,33.827103,33.82202,33.80848,33.80131,33.82186,33.858208,33.900497,33.941315,33.97522,33.98266,33.876854,33.616356,33.353027,33.1183,32.906036,32.71476,32.523685,32.316547,32.108334,31.936714,31.80561,31.703514,31.596106,31.474766,31.334316,31.180351,31.041454,30.921864,30.768597,30.521555,30.150234,29.634905,28.970755,28.127953,26.974827,25.998346,25.132444,24.445448,23.927414,23.546658,23.287292,23.075676,22.8801,22.678732,22.47053,22.265911,22.07312,21.89465,21.735933,21.594467,21.457802,21.322227,21.18708,21.05542,20.931154,20.815777,20.70288,20.582962,20.460346,20.351547,20.26057,20.17717,20.09922,20.0459,19.99273,19.926968,19.830753,19.741138,19.681084,19.556503,19.188206,18.530518,16.471966,14.469015,13.443308,13.122786,12.979095,12.953894,12.915375,12.8766575,12.827587,12.762791,12.695795,12.647408,12.623266,12.6129,12.608465,12.59991,12.59034,12.5754385,12.550951,12.555912
68.6685,68.70535,68.830215,68.972336,69.11011,69.186386,69.206566,69.23521,69.3266,69.48306,69.692474,69.93158,70.14511,70.310486,70.434525,70.50854,70.52069,70.50963,70.43911,70.34602,70.25567,70.22702,70.29253,70.4097,70.491684,70.4524,70.0939,69.26306,67.95303,65.91558,63.35779,61.30455,59.77495,58.7155,58.00578,57.564735,57.30992,57.16166,57.061287,56.932762,56.74862,56.48304,56.127747,55.741024,55.401325,55.193474,55.24252,55.508713,56.04798,56.886475,57.818123,58.54868,58.947903,59.086838,58.979885,58.7527,58.4561,58.106785,57.664536,57.075897,56.337418,55.463882,54.396347,53.16248,51.890877,50.60147,49.092457,47.40885,46.54948,46.075188,45.91761,45.928764,45.904762,45.757175,45.59018,45.56565,45.804306,46.422398,47.103203,47.48855,47.552727,47.48213,47.316093,47.110825,46.919853,46.792297,46.730946,46.704063,46.676598,46.624767,46.521946,46.387886,46.221397,46.05246,45.93356,45.885757,45.89122,45.968727,46.13766,46.360878,46.28489,45.64366,44.186516,41.3926,36.732193,33.648315,31.812653,30.975424,30.530441,30.108068,29.71137,29.304941,28.90326,28.514057,28.199371,27.96782,27.795357,27.655666,27.524382,27.385197,27.226631,27.048313,26.852417,26.645658,26.436485,26.231499,26.033785,25.834373,25.64751,25.49618,25.406956,25.392466,25.439846,25.522526,25.62381,25.716904,25.78725,25.834055,25.864407,25.886845,25.9077,25.92443,25.936874,25.949066,25.956287,25.957516,25.96034,25.970293,25.986942,26.008413,26.034626,26.060871,26.083208,26.100983,26.114124,26.120552,26.123499,26.12332,26.124355,26.12911,26.137196,26.147192,26.156635,26.164019,26.163054,26.153603,26.137981,26.120005,26.103523,26.089891,26.078262,26.069664,26.064533,26.062094,26.059265,26.05131,26.03479,26.008118,25.96762,25.92559,25.86307,25.783882,25.71436,25.664593,25.638233,25.625751,25.606544,25.55547,25.454231,25.303381,25.154263,25.12913,25.50166,26.718445,30.347178,35.05686,37.966545,38.316162,38.01001,37.715683,37.253708,36.509285,35.46957,34.5839,34.237812,34.12314,34.131817,34.14491,34.13631,34.10035,34.050156,34.005867,33.98268,33.99118,34.00359,34.008255,34.00146,33.984165,33.974285,33.994816,34.033386,34.07651,34.130196,34.176346,34.135563,33.981247,33.772606,33.54214,33.29512,33.059746,32.81607,32.568615,32.325966,32.097164,31.913849,31.782047,31.68897,31.594204,31.486683,31.362648,31.2247,31.094034,30.97955,30.828674,30.583725,30.201649,29.671696,29.005562,28.174381,27.051064,26.05029,25.166885,24.473274,23.944733,23.5489,23.280594,23.06315,22.864487,22.66263,22.45515,22.250816,22.056599,21.874622,21.711185,21.564854,21.423353,21.28328,21.144157,21.009296,20.88325,20.768494,20.659485,20.546394,20.432192,20.330574,20.245483,20.16938,20.091454,19.996086,19.861404,19.728973,19.66261,19.602215,19.48895,19.264687,18.692804,17.3307,15.465646,14.060907,13.3850565,13.1236315,13.007553,12.959545,12.912832,12.873135,12.818271,12.750574,12.686446,12.638845,12.611889,12.5970745,12.589054,12.577121,12.562731,12.54249,12.507456,12.479584
68.72874,68.74987,68.85293,68.97869,69.105865,69.18531,69.21718,69.25534,69.34818,69.498886,69.69832,69.92911,70.140015,70.30994,70.4457,70.52995,70.54234,70.53202,70.4617,70.37042,70.288376,70.272736,70.347176,70.4662,70.54953,70.48073,70.11909,69.36052,68.13867,66.21863,63.780872,61.681034,60.074684,58.951942,58.171715,57.693428,57.438843,57.292053,57.18227,57.049107,56.8656,56.60853,56.268787,55.889847,55.542896,55.324944,55.372032,55.65251,56.17911,57.01219,57.95011,58.687954,59.096573,59.241383,59.10989,58.87554,58.556374,58.17063,57.69404,57.080578,56.332306,55.46544,54.415302,53.19944,51.923096,50.622604,49.108406,47.405052,46.545723,46.091698,45.970276,46.01819,46.02098,45.87195,45.66883,45.621113,45.84942,46.46903,47.16256,47.572224,47.666252,47.61535,47.44541,47.227066,47.021744,46.88514,46.82445,46.80998,46.801292,46.76291,46.669613,46.539185,46.369797,46.195503,46.076736,46.030724,46.029495,46.113075,46.28206,46.43203,46.2663,45.52029,43.94365,41.10916,36.578003,33.657486,31.924213,31.080284,30.597416,30.152512,29.719116,29.285278,28.869745,28.487919,28.190691,27.975248,27.810371,27.667652,27.526024,27.374464,27.20422,27.0181,26.81953,26.613962,26.407759,26.20628,26.012169,25.816763,25.634773,25.489182,25.40593,25.39692,25.448784,25.534412,25.637547,25.731956,25.803417,25.851566,25.88353,25.907375,25.929026,25.946815,25.963152,25.961475,25.950825,25.944342,25.945566,25.95839,25.981989,26.007706,26.03395,26.057728,26.077198,26.092245,26.10284,26.108265,26.111366,26.112373,26.114985,26.12102,26.129839,26.14035,26.150593,26.159555,26.160862,26.154081,26.14102,26.124987,26.109646,26.096601,26.08522,26.076591,26.071064,26.067932,26.064203,26.055267,26.037851,26.009972,25.967781,25.91819,25.862057,25.794167,25.722515,25.670084,25.640224,25.624147,25.602345,25.550472,25.450878,25.29432,25.121498,25.070675,25.440685,26.545925,30.017124,34.811375,37.986404,38.4481,38.196045,37.865818,37.421005,36.706783,35.63715,34.685192,34.309685,34.19668,34.21769,34.245266,34.25184,34.23088,34.191353,34.156143,34.150433,34.17564,34.200058,34.209263,34.20139,34.180748,34.167767,34.187206,34.22773,34.271767,34.346767,34.395985,34.307472,34.103607,33.907936,33.709885,33.505104,33.253822,32.94503,32.633484,32.350117,32.093052,31.896076,31.762604,31.67741,31.593739,31.497879,31.388481,31.264965,31.138927,31.025316,30.864994,30.619371,30.22423,29.676142,29.004742,28.178728,27.09086,26.078032,25.189846,24.495197,23.960186,23.553726,23.275103,23.05001,22.845953,22.641281,22.432526,22.226692,22.029196,21.841759,21.671642,21.518578,21.370703,21.224804,21.080555,20.941761,20.814253,20.702198,20.601345,20.500267,20.398514,20.312748,20.22927,20.120909,19.9817,19.808193,19.696848,19.58214,19.46531,19.259277,18.79897,17.99673,16.94204,15.606974,14.431461,13.668995,13.271662,13.080437,12.991661,12.933885,12.883617,12.839877,12.783491,12.717312,12.6558485,12.610061,12.583244,12.566683,12.553443,12.538563,12.519557,12.499544,12.465775,12.413275
68.795395,68.801895,68.88332,68.9922,69.10753,69.18845,69.23045,69.27731,69.37146,69.51664,69.707245,69.93164,70.14141,70.31694,70.459305,70.54794,70.56201,70.541565,70.47154,70.38194,70.30452,70.29895,70.38837,70.52093,70.609695,70.565544,70.19153,69.47826,68.34413,66.56363,64.26731,62.13803,60.45714,59.2505,58.440178,57.93443,57.641212,57.471878,57.3464,57.20063,57.01053,56.750824,56.410423,56.026382,55.678413,55.469048,55.49817,55.789368,56.329437,57.170277,58.119446,58.874725,59.289932,59.415207,59.260307,59.024666,58.698532,58.281754,57.76259,57.11661,56.350395,55.483513,54.44536,53.244537,51.958584,50.64503,49.128677,47.4048,46.544792,46.111557,46.026352,46.12247,46.16104,46.006138,45.761093,45.682545,45.89679,46.516823,47.215378,47.644173,47.77044,47.74326,47.578407,47.34536,47.121872,46.970966,46.906673,46.90058,46.90573,46.878487,46.79529,46.671623,46.505642,46.33396,46.21906,46.17563,46.17546,46.276917,46.4526,46.509426,46.25273,45.423717,43.744118,40.876373,36.482277,33.687775,32.023766,31.161446,30.64177,30.1819,29.728355,29.283775,28.866772,28.499598,28.219254,28.013987,27.849003,27.695955,27.53904,27.372627,27.18991,26.996218,26.79546,26.591282,26.387806,26.18931,25.998207,25.806152,25.628433,25.48808,25.410324,25.406242,25.461939,25.54982,25.654064,25.749065,25.821102,25.870285,25.903687,25.929256,25.953018,25.967915,25.971373,25.95659,25.939632,25.935017,25.943657,25.964256,25.98983,26.0154,26.038662,26.058163,26.073507,26.085155,26.093624,26.098154,26.101336,26.103397,26.10749,26.114744,26.124287,26.135345,26.146374,26.156876,26.160467,26.15636,26.145737,26.13137,26.116787,26.103851,26.092278,26.083317,26.077377,26.073765,26.069515,26.060085,26.042362,26.01482,25.97485,25.92114,25.868301,25.808205,25.736572,25.682148,25.649166,25.629406,25.604023,25.549952,25.449873,25.284948,25.088125,25.018034,25.378828,26.41711,29.721226,34.56582,38.002224,38.568512,38.35804,38.00918,37.59298,36.864292,35.7632,34.789017,34.38504,34.27536,34.30851,34.35061,34.37568,34.36686,34.330536,34.301304,34.31353,34.360443,34.402626,34.41964,34.407776,34.3747,34.351357,34.371017,34.413246,34.470535,34.56466,34.59223,34.471382,34.256744,34.0541,33.85933,33.664326,33.4495,33.11863,32.736702,32.393394,32.1054,31.892162,31.753483,31.67139,31.593649,31.503336,31.403273,31.29042,31.163158,31.041431,30.865162,30.609453,30.198547,29.634205,28.958515,28.142786,27.098179,26.087818,25.206482,24.515316,23.98045,23.571243,23.280804,23.045837,22.833256,22.622227,22.408817,22.198364,21.994678,21.799114,21.619936,21.458157,21.302391,21.1496,20.999525,20.856739,20.729187,20.62349,20.53634,20.451141,20.374485,20.294895,20.167387,19.991537,19.817268,19.614456,19.470697,19.084293,18.44643,17.663158,16.795628,15.872118,14.993363,14.230343,13.688492,13.331499,13.118458,13.003157,12.92915,12.876055,12.826756,12.780651,12.725454,12.665819,12.6129875,12.573418,12.548182,12.5309105,12.514324,12.49819,12.478561,12.458528,12.431944,12.386571
68.85424,68.84839,68.91071,69.00433,69.10899,69.190704,69.24124,69.29598,69.392075,69.53354,69.718315,69.93953,70.14873,70.3276,70.4677,70.54757,70.554306,70.517944,70.43728,70.34358,70.267136,70.271805,70.37965,70.530235,70.63579,70.64068,70.291626,69.60008,68.5173,66.893326,64.78464,62.640167,60.90957,59.61495,58.776337,58.24727,57.90879,57.703457,57.55356,57.386993,57.182083,56.91213,56.564194,56.17065,55.81592,55.606403,55.621544,55.91681,56.483376,57.343735,58.311394,59.09218,59.51304,59.59913,59.434254,59.19206,58.87053,58.434814,57.87062,57.186195,56.395622,55.522938,54.491535,53.302677,52.00041,50.67167,49.159176,47.415176,46.55522,46.138317,46.085945,46.23574,46.315323,46.154617,45.867718,45.74642,45.944176,46.56137,47.25905,47.70974,47.876045,47.873592,47.719498,47.473217,47.230118,47.060196,46.984974,46.977337,46.985928,46.96417,46.889,46.773148,46.614483,46.454807,46.35054,46.313828,46.328636,46.45308,46.628716,46.57412,46.237667,45.361755,43.592735,40.668045,36.39905,33.696957,32.080177,31.20266,30.661554,30.199875,29.738777,29.299973,28.8987,28.547832,28.280525,28.080576,27.910145,27.74271,27.568724,27.387482,27.193184,26.992569,26.789509,26.585783,26.383457,26.186028,25.995934,25.805117,25.629665,25.492832,25.419266,25.419188,25.478031,25.567646,25.672539,25.767677,25.839985,25.890057,25.925632,25.952938,25.972683,25.97998,25.967922,25.9488,25.938482,25.942938,25.959213,25.983204,26.006294,26.028704,26.048546,26.064598,26.076677,26.085575,26.092205,26.095901,26.099005,26.10175,26.106873,26.11496,26.124962,26.136358,26.147896,26.159508,26.16489,26.162933,26.154245,26.141113,26.12693,26.113806,26.101776,26.09238,26.086065,26.082176,26.077742,26.068193,26.05054,26.02349,25.984512,25.933804,25.879152,25.820538,25.75698,25.700485,25.665031,25.641975,25.612583,25.554459,25.451057,25.274647,25.051798,24.965313,25.3055,26.28603,29.501371,34.390812,38.01162,38.69626,38.48724,38.140564,37.75705,36.99855,35.868587,34.890644,34.462376,34.3566,34.400032,34.457993,34.495193,34.488384,34.45044,34.427177,34.455032,34.52291,34.582184,34.607124,34.591606,34.546547,34.511444,34.52749,34.57462,34.647736,34.757317,34.7604,34.625813,34.429695,34.226017,34.02035,33.803726,33.605186,33.3011,32.877037,32.45539,32.137653,31.905376,31.756853,31.671097,31.59151,31.501926,31.405159,31.29343,31.159481,31.021055,30.824821,30.547337,30.120304,29.545,28.865541,28.067337,27.072195,26.081722,25.21416,24.530136,24.00408,23.599758,23.296423,23.050102,22.826336,22.605633,22.384243,22.166101,21.953526,21.747643,21.557745,21.385998,21.221493,21.061375,20.905329,20.759047,20.63349,20.53806,20.468725,20.412212,20.356081,20.24781,20.065758,19.85036,19.619278,19.260563,18.645693,17.699505,16.611069,15.573437,14.721555,14.128417,13.743706,13.473883,13.248033,13.078743,12.9764595,12.91215,12.8530445,12.808927,12.761956,12.715885,12.664627,12.613928,12.571366,12.538921,12.515849,12.498735,12.481768,12.465792,12.449656,12.42979,12.406172,12.37969
68.894844,68.8793,68.926285,69.00755,69.10411,69.186646,69.24446,69.30702,69.40721,69.54875,69.73218,69.95413,70.162254,70.33838,70.46546,70.51882,70.49602,70.43552,70.32825,70.22547,70.155975,70.17845,70.30496,70.47142,70.60297,70.63914,70.34007,69.687706,68.64643,67.17468,65.28205,63.163734,61.422882,60.069,59.155235,58.583565,58.22477,57.99198,57.816463,57.626415,57.39829,57.10456,56.73536,56.3248,55.954872,55.729355,55.731213,56.035637,56.626617,57.51392,58.509087,59.31763,59.746124,59.79441,59.62721,59.37532,59.050705,58.60292,58.004135,57.277073,56.45874,55.57711,54.54972,53.370895,52.05443,50.711243,49.20079,47.440544,46.580997,46.173134,46.148216,46.349106,46.47179,46.310535,45.983063,45.813675,45.99443,46.60019,47.294605,47.773445,47.987663,48.0134,47.864723,47.612305,47.352104,47.16104,47.06771,47.047928,47.049385,47.02437,46.95198,46.84216,46.69265,46.55037,46.46093,46.43569,46.476784,46.622517,46.770752,46.606144,46.216965,45.32961,43.492752,40.496452,36.306732,33.66993,32.088142,31.207945,30.66359,30.21031,29.751879,29.328594,28.9525,28.620163,28.361115,28.162594,27.986458,27.804794,27.6143,27.41869,27.21276,27.005455,26.799694,26.595055,26.392094,26.193834,26.002815,25.811169,25.635944,25.50085,25.430233,25.433508,25.495293,25.5867,25.692379,25.787727,25.86034,25.9118,25.949066,25.974684,25.985857,25.983648,25.969025,25.954887,25.953987,25.96661,25.98537,26.006859,26.028538,26.04897,26.066307,26.07972,26.089363,26.096294,26.101646,26.104733,26.107658,26.110619,26.116085,26.124302,26.13414,26.14529,26.156708,26.168613,26.17482,26.174011,26.166431,26.154005,26.139988,26.126625,26.114227,26.10459,26.098152,26.094296,26.089981,26.080557,26.063118,26.036533,25.998402,25.949772,25.89115,25.833796,25.780682,25.7224,25.685368,25.65997,25.626657,25.563093,25.452715,25.261427,25.01149,24.901697,25.219307,26.124014,29.339516,34.29197,38.016464,38.83666,38.613876,38.264034,37.893448,37.119534,35.970528,34.981445,34.53587,34.434128,34.486385,34.559914,34.599564,34.58696,34.54756,34.530678,34.56977,34.651115,34.720367,34.749146,34.73189,34.68281,34.64206,34.652466,34.70713,34.788597,34.90894,34.904133,34.77028,34.593975,34.39799,34.190735,33.963596,33.725616,33.456345,33.027035,32.5344,32.1881,31.935076,31.772303,31.6758,31.585825,31.492666,31.393272,31.271519,31.125973,30.967117,30.747686,30.442398,29.996952,29.413383,28.734182,27.956263,27.005653,26.04887,25.200966,24.530008,24.0191,23.62353,23.311378,23.05365,22.817694,22.58555,22.354183,22.126541,21.903675,21.686605,21.485645,21.303802,21.130585,20.96331,20.801502,20.652458,20.530758,20.448553,20.401144,20.379644,20.323318,20.177303,19.964401,19.694887,19.24405,18.390387,17.103973,15.821913,14.839186,14.187316,13.751658,13.450468,13.264357,13.137711,13.014946,12.938643,12.889396,12.839506,12.795544,12.754535,12.708502,12.663494,12.61812,12.575542,12.539709,12.5118065,12.491055,12.474752,12.458899,12.443041,12.429203,12.411423,12.387698,12.36725
68.92363,68.89964,68.93426,69.00552,69.09581,69.17884,69.24302,69.314224,69.42166,69.56744,69.754196,69.979675,70.1853,70.35166,70.45456,70.46683,70.39707,70.297424,70.1588,70.050316,69.99961,70.04637,70.19162,70.37607,70.52814,70.58143,70.31849,69.73198,68.76442,67.4167,65.70476,63.698593,61.97731,60.604332,59.61012,58.978935,58.59533,58.337204,58.145622,57.934273,57.67485,57.3401,56.932995,56.491745,56.092674,55.839096,55.82499,56.138405,56.747726,57.667717,58.69663,59.530468,59.96518,59.97452,59.801956,59.55121,59.215015,58.759155,58.14183,57.370987,56.524986,55.634026,54.61075,53.44085,52.12466,50.77172,49.24971,47.48105,46.617535,46.214214,46.210747,46.460472,46.62152,46.455677,46.096188,45.884464,46.049423,46.63201,47.32428,47.833977,48.09363,48.152267,48.009792,47.760582,47.487213,47.274864,47.15998,47.12095,47.106033,47.069565,46.99362,46.886135,46.745255,46.620087,46.546387,46.533836,46.59861,46.770546,46.859062,46.618927,46.202667,45.31453,43.430626,40.355034,36.203163,33.612236,32.059048,31.190712,30.657974,30.218027,29.768898,29.36399,29.004477,28.698486,28.449219,28.25042,28.071304,27.87862,27.673477,27.463856,27.24522,27.030426,26.821125,26.614235,26.40913,26.208563,26.015198,25.821209,25.644634,25.509922,25.441383,25.447716,25.512554,25.606148,25.713089,25.809036,25.882256,25.935497,25.971115,25.989454,25.998718,25.990105,25.976994,25.976227,25.984787,25.99697,26.01427,26.035,26.05555,26.074455,26.089996,26.101639,26.109804,26.115665,26.120392,26.123203,26.12593,26.128698,26.13379,26.141298,26.150154,26.160282,26.170788,26.182037,26.18797,26.187193,26.179817,26.167603,26.153666,26.140257,26.127861,26.118374,26.112286,26.108896,26.10505,26.096,26.07882,26.052513,26.014786,25.966583,25.9088,25.853039,25.801996,25.745258,25.707638,25.68116,25.645088,25.575531,25.454182,25.24609,24.97322,24.832867,25.122478,25.967098,29.152658,34.16337,38.028793,38.977554,38.737076,38.37741,37.992714,37.216103,36.062023,35.056747,34.599255,34.501545,34.562126,34.646805,34.68834,34.672108,34.63073,34.615765,34.660957,34.749847,34.82351,34.85173,34.83031,34.776688,34.734108,34.74684,34.806953,34.89691,35.01661,35.010704,34.88814,34.728397,34.538727,34.33451,34.10231,33.845512,33.585743,33.156334,32.631443,32.2536,31.980392,31.80009,31.686695,31.579056,31.475124,31.366655,31.22879,31.065868,30.887005,30.643658,30.312197,29.84169,29.247835,28.577866,27.817856,26.895443,25.976688,25.15683,24.507568,24.013046,23.626131,23.31443,23.04654,22.79929,22.555904,22.314453,22.07733,21.844627,21.617325,21.406536,21.21588,21.035099,20.861588,20.694775,20.543934,20.427334,20.359947,20.340164,20.337723,20.26986,20.123146,19.883629,19.422987,18.51596,16.98928,15.548691,14.508457,13.843077,13.487332,13.340482,13.248169,13.180002,13.075415,12.974274,12.905691,12.856888,12.807696,12.758381,12.713461,12.668007,12.625608,12.584746,12.548231,12.518335,12.494346,12.475179,12.458991,12.444462,12.42738,12.410246,12.393475,12.37504,12.356138
