2.8266058,2.8267446,2.8268714,2.8269553,2.8269875,2.8269458,2.8268497,2.826843,2.8269038,2.8270624,2.82728,2.8275046,2.8277302,2.8279972,2.828331,2.8286684,2.8290372,2.8294005,2.8297522,2.8300724,2.8303277,2.8305116,2.8306403,2.8307567,2.83086,2.8309884,2.831145,2.8312955,2.8314219,2.8315172,2.831655,2.8318899,2.8322878,2.8328254,2.8333976,2.8338957,2.834263,2.8345022,2.8346338,2.8347096,2.8347921,2.8349106,2.8350515,2.8351576,2.835277,2.8354053,2.8355203,2.8355834,2.8355803,2.8355346,2.835474,2.8354123,2.8353438,2.8352828,2.8352418,2.8352313,2.8352656,2.835328,2.8353992,2.835462,2.8355122,2.835508,2.8354561,2.835378,2.8352823,2.8351815,2.8350558,2.8348897,2.8346834,2.8344526,2.8342147,2.8339856,2.8337684,2.833536,2.833278,2.832963,2.832587,2.8321738,2.8317804,2.831479,2.831284,2.8312182,2.8312678,2.8314147,2.8316326,2.8318777,2.832107,2.8323092,2.8324425,2.8324528,2.8323166,2.832047,2.8316863,2.8312902,2.830895,2.830492,2.8300824,2.8296778,2.829279,2.8288848,2.8284917,2.8280978,2.8276567,2.827139,2.82653,2.8258412,2.8251052,2.824357,2.8236232,2.822926,2.822231,2.8216069,2.8211024,2.8206925,2.8203206,2.819933,2.8194666,2.8188872,2.8182185,2.8174915,2.8167531,2.8160577,2.8154292,2.814871,2.8143334,2.8137958,2.8132453,2.812695,2.8121862,2.8117619,2.8114371,2.8111827,2.810947,2.8106904,2.810377,2.8099887,2.8095398,2.8090668,2.8085585,2.8079944,2.8074012,2.8067937,2.8062077,2.8056684,2.8051648,2.8046732,2.8041534,2.8035896,2.8030152,2.8024564,2.8019228,2.80144,2.8010228,2.8006542,2.80035,2.8000956,2.7998345,2.7994866,2.7990003,2.7984028,2.7977324,2.7969973,2.7962852,2.7956514,2.7951097,2.794651,2.794271,2.793919,2.793542,2.7931192,2.792708,2.7923722,2.7921429,2.792037,2.7920227,2.7920227,2.7919471,2.791774,2.7914762,2.7910724,2.790639,2.790257,2.789949,2.789762,2.7897239,2.789834,2.7900567,2.790324,2.7905862,2.7908328,2.7910142,2.791083,2.7910466,2.7909384,2.790785,2.7906337,2.7905214,2.79044,2.79042,2.790444,2.7905,2.7905836,2.790665,2.7907267,2.7908134,2.790907,2.7909825,2.7910366,2.791059,2.7910328,2.7909765,2.7908857,2.7907324,2.7904775,2.7901402,2.7897608,2.7893572,2.7889447,2.7884955,2.7880256,2.7875557,2.7870934,2.786663,2.786289,2.7859616,2.7856336,2.7852986,2.784884,2.7844028,2.7838683,2.7832775,2.7826571,2.7820134,2.781311,2.7805696,2.7797823,2.7789872,2.778286,2.7777739,2.7774801,2.7773907,2.7773936,2.7773025,2.7769809,2.7764194,2.7757292,2.7750688,2.774581,2.774207,2.7739363,2.7736325,2.7732482,2.772849,2.772446,2.7720451,2.7715125,2.7708778,2.7701905,2.7695262,2.7689924,2.7686787,2.7685711,2.7685304,2.768569,2.7684932,2.7682834,2.768041,2.7677855,2.767568,2.767332,2.767047,2.7667193,2.7663865,2.7660885,2.7658699,2.7658074,2.765852,2.7660098,2.7661655,2.7662864,2.7663598,2.7663698,2.766356,2.7662387,2.7662263,2.7663674,2.7666655,2.767061,2.767467,2.767817,2.7680912,2.7683637,2.7685118,2.768697,2.7689924,2.7693622,2.7697685,2.769968,2.7702591,2.7703872,2.7703047,2.7694242,2.7679253,2.7668371,2.76612,2.7657511,2.7654734,2.7649102,2.7638383
2.8066087,2.8068762,2.8071752,2.8074546,2.8076925,2.8078592,2.8079596,2.8081236,2.8083417,2.808646,2.8089879,2.8093095,2.8096032,2.8099134,2.8102713,2.8106258,2.8110075,2.811378,2.811719,2.8120117,2.8122392,2.8124065,2.8125296,2.8126516,2.812765,2.8128977,2.8130555,2.813213,2.8133588,2.8134794,2.813645,2.8139014,2.8143077,2.8148394,2.8154006,2.8158908,2.8162544,2.8164873,2.8166103,2.81668,2.816761,2.8168888,2.8170505,2.817182,2.817327,2.8174791,2.8176148,2.8176942,2.8176956,2.817637,2.817545,2.8174343,2.8173022,2.81717,2.817059,2.8169885,2.816981,2.8170214,2.8170903,2.8171625,2.817236,2.817267,2.8172555,2.817216,2.817154,2.817082,2.81698,2.8168237,2.8166118,2.816359,2.8160849,2.8158112,2.8155532,2.8152893,2.815003,2.8146687,2.8142838,2.8138704,2.8134866,2.8132083,2.813049,2.8130345,2.8131433,2.8133554,2.8136423,2.813953,2.8142428,2.8144991,2.8146737,2.8147078,2.8145723,2.8142824,2.8138852,2.8134384,2.8129778,2.8124976,2.8119998,2.8115125,2.8110514,2.8106163,2.8101945,2.8097732,2.8092966,2.8087316,2.8080633,2.807301,2.8064792,2.8056397,2.8048182,2.8040462,2.8032856,2.8026114,2.802071,2.8016396,2.8012614,2.8008857,2.8004422,2.7998943,2.7992558,2.7985473,2.7978172,2.7971287,2.7965124,2.7959776,2.795476,2.794983,2.7944887,2.794002,2.793562,2.793204,2.7929325,2.792712,2.792491,2.7922325,2.7919168,2.7915385,2.791112,2.7906713,2.7902038,2.7896862,2.7891417,2.7885818,2.7880354,2.7875204,2.7870255,2.7865334,2.7860093,2.7854395,2.7848623,2.784305,2.7837741,2.7832909,2.7828698,2.782493,2.7821753,2.7818995,2.781611,2.781231,2.7807083,2.7800684,2.7793508,2.7785606,2.7777805,2.7770705,2.7764611,2.775961,2.7755728,2.7752466,2.7749295,2.7745843,2.7742515,2.7739878,2.77383,2.7737985,2.7738566,2.7739234,2.7739,2.7737541,2.773469,2.773085,2.7726898,2.7723572,2.7721086,2.7719796,2.7719796,2.7721,2.772305,2.772534,2.772746,2.7729344,2.7730594,2.7730894,2.7730403,2.7729483,2.7728343,2.772728,2.7726636,2.7726307,2.7726607,2.7727337,2.7728302,2.7729392,2.7730298,2.773086,2.773153,2.7732186,2.7732594,2.773272,2.77325,2.7731848,2.7730956,2.772974,2.7727938,2.7725167,2.7721639,2.771779,2.7713811,2.7709842,2.7705503,2.770081,2.7695918,2.769093,2.7686157,2.7681959,2.7678306,2.7674708,2.7671032,2.7666597,2.7661548,2.7656016,2.7649965,2.7643726,2.7637403,2.7630703,2.7623832,2.761675,2.7609668,2.760331,2.7598505,2.759563,2.7594504,2.7594051,2.7592337,2.7587955,2.7580876,2.7572432,2.756465,2.7559218,2.7555568,2.7553554,2.7551413,2.7548208,2.7544513,2.7540703,2.7537057,2.7532387,2.752709,2.752143,2.7515836,2.7511184,2.7508326,2.7507048,2.7506132,2.7505727,2.750405,2.7501094,2.7497957,2.749486,2.7492318,2.7489762,2.7487009,2.748417,2.7481563,2.7479424,2.7478,2.7478018,2.747897,2.7480903,2.7482681,2.7483926,2.748451,2.7484336,2.7483892,2.74825,2.7482276,2.7483687,2.748674,2.7490726,2.749466,2.7497828,2.750014,2.7502341,2.7503471,2.7505054,2.750783,2.7511497,2.7515588,2.7517686,2.7520566,2.7522001,2.7521298,2.7512693,2.7497988,2.7487237,2.7480135,2.747641,2.7473516,2.7467837,2.745726
2.787807,2.7881658,2.788597,2.7890325,2.7894325,2.789762,2.7900121,2.7902994,2.7906375,2.7910595,2.7915082,2.7919192,2.7922807,2.792633,2.7930112,2.7933798,2.793766,2.7941294,2.7944512,2.794713,2.7949126,2.795072,2.7952023,2.7953444,2.7954845,2.7956386,2.7958093,2.795981,2.7961452,2.7962856,2.7964687,2.7967377,2.7971473,2.797672,2.798225,2.7987158,2.7990847,2.799327,2.7994637,2.7995548,2.7996633,2.7998242,2.8000264,2.8001974,2.8003802,2.8005712,2.800746,2.8008604,2.8008857,2.8008356,2.8007326,2.8005939,2.800417,2.800229,2.8000596,2.7999303,2.79987,2.799869,2.799909,2.7999625,2.8000312,2.8000717,2.8000803,2.8000696,2.8000402,2.8000083,2.7999482,2.7998335,2.799654,2.799422,2.799154,2.7988744,2.798605,2.798335,2.7980366,2.7976956,2.7973094,2.7969017,2.796531,2.79627,2.7961316,2.7961426,2.796277,2.7965207,2.7968442,2.797191,2.7975156,2.7978053,2.798007,2.798063,2.7979393,2.7976506,2.7972438,2.796773,2.7962732,2.7957416,2.7951818,2.794635,2.794129,2.7936604,2.7932072,2.7927532,2.7922342,2.791616,2.790885,2.7900505,2.7891474,2.7882247,2.787326,2.78649,2.7856796,2.7849708,2.784412,2.7839746,2.7836008,2.7832375,2.7828102,2.782278,2.7816484,2.7809358,2.7801952,2.7794986,2.778884,2.7783666,2.777897,2.7774491,2.7770185,2.7766082,2.7762465,2.7759619,2.7757468,2.7755668,2.775372,2.7751307,2.7748392,2.774498,2.774116,2.7737222,2.7733016,2.772828,2.7723205,2.771788,2.7712538,2.7707324,2.7702186,2.7697022,2.7691545,2.7685692,2.7679837,2.7674217,2.7668831,2.7663846,2.7659419,2.7655427,2.7652,2.7649007,2.764597,2.764212,2.76369,2.763052,2.7623343,2.7615397,2.7607436,2.760011,2.7593832,2.7588825,2.7585194,2.7582438,2.7580085,2.7577622,2.7575235,2.757339,2.7572458,2.757265,2.7573624,2.7574575,2.7574553,2.7573154,2.75703,2.7566583,2.7562904,2.755992,2.7557828,2.7556849,2.7556965,2.755803,2.7559714,2.7561495,2.756303,2.7564282,2.7564955,2.756486,2.7564242,2.7563498,2.7562766,2.7562184,2.7562046,2.7562194,2.7562938,2.756401,2.7565162,2.7566247,2.7567008,2.756731,2.7567606,2.756784,2.7567806,2.7567453,2.7566745,2.7565684,2.7564478,2.756299,2.7560987,2.7558095,2.755453,2.7550764,2.7546978,2.7543297,2.7539225,2.7534642,2.7529628,2.7524302,2.751904,2.7514267,2.751004,2.7505875,2.7501578,2.749658,2.7491097,2.7485247,2.7478976,2.747266,2.7466402,2.7460036,2.745377,2.7447612,2.7441554,2.7435946,2.743147,2.7428544,2.7426958,2.7425733,2.7422962,2.7417283,2.7408748,2.7398887,2.7390034,2.7384038,2.7380319,2.737866,2.7376993,2.7374034,2.7370305,2.7366471,2.7363029,2.7358887,2.735454,2.735001,2.734539,2.7341356,2.733872,2.7337227,2.733582,2.7334635,2.7332082,2.7328334,2.732461,2.7321115,2.7318325,2.7315712,2.7313163,2.7310853,2.7309065,2.7307858,2.7307267,2.730797,2.730947,2.7311804,2.7313824,2.731514,2.7315605,2.7315207,2.731452,2.731295,2.7312639,2.7314055,2.7317133,2.7321105,2.7324882,2.7327695,2.7329555,2.7331223,2.7331843,2.7332764,2.733488,2.733808,2.7341805,2.7344034,2.7346718,2.734799,2.7347276,2.7338905,2.7324536,2.7313936,2.7306862,2.7302928,2.7299676,2.729372,2.7283106
2.7706032,2.7709956,2.771483,2.7719913,2.77247,2.7728715,2.7731817,2.7735162,2.7739022,2.7743807,2.7748892,2.7753599,2.7757735,2.776165,2.7765663,2.7769542,2.7773495,2.7777123,2.77802,2.7782588,2.7784424,2.778603,2.7787545,2.7789311,2.7791133,2.7793055,2.7795072,2.779705,2.7798932,2.7800555,2.7802544,2.780531,2.7809353,2.781446,2.7819858,2.7824717,2.7828467,2.7830994,2.7832594,2.783382,2.783527,2.783727,2.783966,2.7841706,2.784382,2.7846007,2.7848086,2.784958,2.785015,2.7849853,2.784886,2.7847352,2.7845325,2.784306,2.784086,2.7838974,2.7837696,2.7836995,2.7836776,2.7836723,2.7836936,2.783701,2.7836905,2.7836733,2.7836525,2.7836459,2.7836227,2.7835565,2.7834291,2.7832437,2.7830114,2.7827587,2.7825093,2.782257,2.7819648,2.7816231,2.7812357,2.7808251,2.7804494,2.7801774,2.7800212,2.780003,2.7801042,2.7803164,2.7806132,2.7809393,2.7812505,2.7815309,2.7817247,2.7817807,2.7816658,2.7813928,2.7810035,2.7805424,2.7800426,2.7794979,2.7789178,2.7783525,2.7778301,2.7773445,2.776868,2.776381,2.775822,2.7751572,2.7743769,2.7734911,2.7725344,2.7715561,2.7706041,2.7697272,2.7688885,2.7681684,2.7676163,2.7671964,2.766841,2.7664928,2.7660718,2.765536,2.764892,2.7641563,2.763391,2.7626793,2.7620623,2.7615557,2.761112,2.760705,2.760335,2.7599998,2.7597177,2.7595062,2.759346,2.759204,2.7590337,2.7588148,2.7585552,2.7582574,2.7579246,2.7575758,2.7571921,2.756748,2.756256,2.7557278,2.7551832,2.7546368,2.7540889,2.7535381,2.7529593,2.752349,2.7517407,2.7511535,2.7505822,2.7500405,2.7495518,2.7491078,2.7487264,2.748403,2.7480981,2.747736,2.7472525,2.746665,2.7460034,2.7452674,2.744527,2.743846,2.7432683,2.7428217,2.7425232,2.7423258,2.7421942,2.7420642,2.7419367,2.7418418,2.7418091,2.7418594,2.7419667,2.742056,2.7420406,2.741881,2.741579,2.7412028,2.7408395,2.7405472,2.7403438,2.740242,2.7402372,2.7403135,2.7404404,2.7405708,2.7406778,2.740756,2.7407837,2.7407517,2.7406898,2.7406363,2.7406023,2.7405877,2.7406178,2.740674,2.7407799,2.7409048,2.7410173,2.7411032,2.7411458,2.7411366,2.7411227,2.7411036,2.7410595,2.7409852,2.7408786,2.7407455,2.7406077,2.740448,2.7402442,2.7399588,2.7396135,2.7392554,2.7389064,2.7385712,2.7381926,2.7377484,2.7372372,2.736672,2.7360978,2.7355602,2.735067,2.7345748,2.7340598,2.7334824,2.7328744,2.7322488,2.7315965,2.7309494,2.7303195,2.7296996,2.7291203,2.7285848,2.7280684,2.7275698,2.7271366,2.7268167,2.726587,2.7263637,2.7259731,2.7252855,2.7243104,2.7232146,2.722249,2.7215986,2.7212052,2.721037,2.7208672,2.7205458,2.720128,2.7197123,2.7193594,2.7189689,2.7185998,2.7182302,2.7178426,2.7174926,2.7172508,2.7170925,2.7169223,2.716755,2.7164469,2.7160368,2.7156549,2.7153156,2.715057,2.714826,2.7146204,2.7144644,2.7143836,2.7143688,2.7144055,2.7145488,2.714756,2.7150311,2.715262,2.715407,2.7154505,2.7153978,2.7153175,2.7151551,2.7151241,2.7152717,2.7155862,2.7159839,2.7163515,2.7166123,2.7167656,2.7168908,2.7169094,2.716959,2.717105,2.7173324,2.717627,2.717821,2.7180629,2.7181208,2.7180066,2.7171888,2.715797,2.7147627,2.714065,2.7136588,2.7133055,2.712697,2.7116547
2.754447,2.754836,2.7553253,2.755849,2.7563467,2.7567582,2.7570705,2.7574005,2.7577844,2.758275,2.7588077,2.75931,2.75976,2.760182,2.7606063,2.7610145,2.761427,2.7617998,2.7621078,2.7623425,2.762526,2.7627053,2.7628908,2.763115,2.7633543,2.7636023,2.7638512,2.7640884,2.7643092,2.7644978,2.7647147,2.7649956,2.765389,2.7658792,2.7663965,2.7668715,2.767245,2.7675123,2.767701,2.7678623,2.7680511,2.7682953,2.768569,2.7687988,2.7690296,2.7692685,2.7695012,2.7696826,2.7697744,2.769772,2.7696877,2.7695384,2.7693248,2.7690752,2.7688174,2.7685747,2.7683783,2.76823,2.768131,2.76805,2.7680044,2.7679582,2.7679076,2.7678676,2.767845,2.7678561,2.7678723,2.7678638,2.767799,2.767673,2.7674932,2.767282,2.767066,2.7668386,2.7665572,2.7662187,2.7658277,2.765411,2.7650256,2.7647305,2.7645385,2.7644684,2.7645037,2.7646475,2.7648795,2.7651463,2.765407,2.765643,2.7658026,2.7658405,2.7657275,2.7654786,2.7651277,2.7647047,2.764236,2.7637131,2.7631507,2.762599,2.7620835,2.7615929,2.761097,2.7605789,2.7599816,2.7592785,2.7584653,2.7575479,2.7565587,2.755546,2.75456,2.7536554,2.7528033,2.7520876,2.7515578,2.7511685,2.7508411,2.7505095,2.7500868,2.7495325,2.748859,2.7480898,2.7472997,2.7465794,2.7459657,2.7454727,2.7450504,2.744676,2.7443523,2.744078,2.7438626,2.7437105,2.7435968,2.743485,2.7433357,2.743139,2.7429118,2.7426593,2.742377,2.7420716,2.7417202,2.7412934,2.7408044,2.7402666,2.7396994,2.739119,2.7385328,2.7379432,2.7373276,2.7366807,2.7360353,2.7354064,2.734785,2.7341866,2.73364,2.733147,2.7327294,2.7323909,2.7321029,2.7317884,2.7313733,2.7308695,2.7303014,2.7296672,2.7290287,2.7284422,2.727952,2.7275863,2.7273643,2.7272499,2.7272153,2.7271948,2.7271733,2.7271671,2.7271924,2.727265,2.7273712,2.7274418,2.727403,2.727219,2.7268991,2.7265134,2.7261424,2.7258406,2.7256207,2.7254877,2.725442,2.725471,2.725549,2.7256353,2.7257037,2.7257504,2.7257557,2.725718,2.7256684,2.7256422,2.7256439,2.7256675,2.725732,2.7258205,2.725946,2.726075,2.7261698,2.7262168,2.726212,2.7261558,2.7260933,2.7260318,2.7259536,2.7258503,2.725722,2.7255726,2.7254286,2.7252703,2.7250743,2.7248015,2.7244751,2.7241426,2.7238245,2.7235222,2.7231717,2.7227397,2.722219,2.7216234,2.7210002,2.7203987,2.7198267,2.7192473,2.7186356,2.7179706,2.7172985,2.7166326,2.7159555,2.7152913,2.7146497,2.714037,2.7134924,2.7130225,2.7125804,2.712129,2.7116952,2.711328,2.7110124,2.7106771,2.7101736,2.7093832,2.7083197,2.7071545,2.7061388,2.7054558,2.7050433,2.7048566,2.7046576,2.704286,2.7038047,2.7033448,2.7029705,2.7025888,2.7022629,2.7019506,2.701615,2.7013025,2.701079,2.7009153,2.7007265,2.7005332,2.700203,2.6997914,2.6994357,2.699142,2.6989303,2.6987543,2.6986156,2.6985455,2.6985648,2.6986525,2.6987789,2.6989884,2.6992424,2.6995492,2.6997986,2.6999512,2.6999936,2.6999338,2.6998467,2.6996882,2.6996622,2.6998167,2.700139,2.7005389,2.7008991,2.7011447,2.701274,2.7013607,2.7013402,2.701341,2.7014265,2.7015848,2.7017994,2.7018971,2.7020473,2.7020307,2.7018363,2.701007,2.6996818,2.6986938,2.6980186,2.6976159,2.6972442,2.6966379,2.6956367
2.7376223,2.738008,2.738492,2.7390144,2.7395058,2.7398937,2.740169,2.7404559,2.7408032,2.741269,2.7417884,2.7422872,2.7427368,2.7431564,2.7435784,2.743987,2.7444105,2.7447972,2.7451224,2.7453752,2.7455788,2.745791,2.7460217,2.7463045,2.7466116,2.7469268,2.7472339,2.747519,2.747778,2.7479963,2.7482343,2.7485213,2.7489023,2.7493634,2.7498493,2.7503033,2.750672,2.7509532,2.751178,2.7513905,2.7516356,2.7519276,2.752234,2.752482,2.7527218,2.7529683,2.753215,2.7534232,2.7535505,2.7535825,2.7535224,2.7533894,2.7531853,2.7529354,2.752666,2.7523942,2.7521486,2.751934,2.751762,2.751606,2.7514873,2.7513704,2.751255,2.7511616,2.7511039,2.7511058,2.7511337,2.7511573,2.751133,2.7510471,2.7509036,2.7507234,2.750532,2.7503214,2.750052,2.7497249,2.749351,2.7489586,2.7485962,2.7483099,2.7481046,2.747992,2.7479591,2.7480202,2.7481618,2.7483363,2.7485104,2.7486658,2.7487562,2.7487473,2.7486253,2.7484043,2.7481046,2.747746,2.7473407,2.7468748,2.746369,2.7458687,2.7453892,2.744914,2.7444148,2.7438781,2.7432568,2.7425303,2.741703,2.740778,2.739778,2.7387483,2.7377424,2.7368195,2.7359576,2.7352514,2.7347493,2.734395,2.7340908,2.7337615,2.7333174,2.73272,2.731999,2.7311947,2.7303967,2.7296956,2.729116,2.7286572,2.7282639,2.7279115,2.727611,2.7273676,2.7271857,2.727062,2.726966,2.7268605,2.7267094,2.72652,2.7263188,2.726109,2.7258782,2.7256188,2.7252984,2.724887,2.7243986,2.7238533,2.7232742,2.7226791,2.7220783,2.7214718,2.7208374,2.7201676,2.7194903,2.7188168,2.7181408,2.7174819,2.7168803,2.7163422,2.715896,2.715556,2.715298,2.7150416,2.7147055,2.714294,2.7138267,2.7132962,2.712756,2.7122564,2.7118394,2.711533,2.71136,2.7112937,2.7113223,2.7113795,2.7114453,2.7115207,2.7116046,2.7117057,2.7118213,2.711893,2.7118573,2.7116828,2.7113776,2.7110052,2.7106347,2.7103171,2.7100601,2.7098703,2.7097554,2.709712,2.709724,2.7097602,2.7097986,2.7098339,2.709844,2.7098336,2.7098255,2.7098436,2.709887,2.7099466,2.7100396,2.7101517,2.7102876,2.7104092,2.7104754,2.710475,2.7104163,2.7103114,2.7102027,2.710107,2.7100046,2.709884,2.7097423,2.7095854,2.7094421,2.709293,2.7091107,2.7088554,2.70855,2.7082443,2.707956,2.7076814,2.7073555,2.7069337,2.7064042,2.7057836,2.7051222,2.7044668,2.7038248,2.703164,2.702464,2.7017262,2.7010124,2.7003336,2.699657,2.6989918,2.698348,2.6977382,2.6972198,2.6968017,2.6964152,2.695988,2.6955242,2.6950812,2.6946483,2.6941814,2.6935656,2.6926966,2.691586,2.6904044,2.6893868,2.6887112,2.6883082,2.6881194,2.6878986,2.6874833,2.6869466,2.6864502,2.6860573,2.685681,2.6853843,2.6851058,2.684795,2.6844957,2.6842718,2.6840968,2.6838896,2.6836758,2.6833348,2.6829376,2.6826267,2.6823967,2.6822476,2.6821365,2.6820688,2.6820793,2.6821828,2.6823483,2.6825356,2.682778,2.6830459,2.6833549,2.6836016,2.6837516,2.6837897,2.6837249,2.6836386,2.683487,2.6834612,2.683615,2.6839356,2.684332,2.6846867,2.6849256,2.6850367,2.685089,2.6850276,2.6849692,2.6849818,2.6850617,2.685192,2.6852093,2.6852818,2.6852167,2.6849675,2.684112,2.6828277,2.6819043,2.681265,2.6808815,2.6805196,2.679951,2.6790175
2.720565,2.7209656,2.721464,2.7219958,2.7224774,2.7228289,2.7230473,2.7232656,2.7235544,2.723968,2.724448,2.7249203,2.7253466,2.7257423,2.7261457,2.726546,2.726981,2.727397,2.727763,2.728061,2.72831,2.728568,2.7288513,2.7291954,2.729567,2.7299423,2.7303004,2.7306256,2.7309153,2.731161,2.7314198,2.7317133,2.73208,2.7325094,2.7329597,2.7333884,2.73375,2.7340484,2.734313,2.734579,2.7348793,2.7352118,2.7355351,2.7357807,2.7360058,2.7362323,2.7364676,2.7366815,2.7368298,2.7368903,2.736858,2.7367492,2.7365713,2.7363477,2.7360988,2.7358336,2.7355747,2.7353306,2.7351155,2.7349133,2.734743,2.7345679,2.7343874,2.734228,2.7341142,2.7340794,2.734088,2.7341113,2.734095,2.7340174,2.7338834,2.7337127,2.73353,2.7333276,2.7330723,2.7327676,2.7324333,2.7321005,2.7318025,2.7315586,2.7313704,2.731234,2.7311397,2.7311096,2.7311416,2.7311978,2.7312536,2.7312965,2.7312841,2.7312021,2.7310512,2.730847,2.7305996,2.7303138,2.7299857,2.7295961,2.729169,2.7287374,2.7283063,2.7278552,2.7273576,2.7268066,2.7261686,2.7254322,2.724607,2.7236934,2.7227035,2.7216735,2.7206593,2.719725,2.7188592,2.7181656,2.7176938,2.717372,2.717084,2.716743,2.7162588,2.7155993,2.71482,2.7139874,2.7132049,2.7125564,2.712046,2.7116442,2.7112908,2.71096,2.710669,2.710433,2.7102597,2.7101395,2.7100415,2.7099168,2.7097392,2.7095308,2.7093258,2.7091305,2.7089274,2.708693,2.708385,2.7079763,2.7074857,2.7069435,2.70638,2.7058115,2.7052422,2.7046654,2.7040532,2.703393,2.7027056,2.702004,2.7012858,2.700581,2.6999395,2.6993732,2.6989143,2.6985831,2.698359,2.6981585,2.6978927,2.697558,2.6971736,2.6967254,2.6962595,2.6958227,2.6954527,2.695177,2.6950235,2.694975,2.6950307,2.6951327,2.6952596,2.6953983,2.6955328,2.6956663,2.695797,2.6958842,2.6958704,2.6957297,2.695467,2.6951299,2.6947699,2.6944435,2.6941452,2.6938882,2.69369,2.6935613,2.6935003,2.6934881,2.6935053,2.6935465,2.6935863,2.6936297,2.693685,2.6937604,2.6938486,2.6939435,2.6940615,2.6941924,2.6943376,2.694454,2.6944966,2.694457,2.6943543,2.6942124,2.6940765,2.6939654,2.6938572,2.6937344,2.6935892,2.6934297,2.6932874,2.6931467,2.6929743,2.6927302,2.6924381,2.6921487,2.6918778,2.6916213,2.691311,2.6908984,2.6903658,2.689736,2.6890588,2.6883736,2.6876838,2.6869638,2.686201,2.685417,2.684691,2.684032,2.683383,2.6827335,2.6820931,2.6814804,2.680973,2.680582,2.680222,2.6797903,2.679267,2.678719,2.6781495,2.6775396,2.6768222,2.6759048,2.6747928,2.673647,2.6726735,2.6720421,2.6716747,2.6714988,2.6712646,2.6708121,2.6702313,2.66971,2.6693034,2.6689353,2.6686585,2.6683924,2.6680806,2.6677725,2.6675322,2.667336,2.6671062,2.6668735,2.6665258,2.6661458,2.6658807,2.6657124,2.6656246,2.6655684,2.6655555,2.6656222,2.6657753,2.665978,2.66619,2.6664286,2.6666756,2.6669576,2.6671796,2.6673126,2.6673431,2.6672735,2.6671886,2.6670365,2.6670003,2.6671367,2.667438,2.667821,2.6681733,2.6684134,2.6685143,2.6685367,2.6684365,2.668322,2.668262,2.6682658,2.6683211,2.6682713,2.6682835,2.6681776,2.667913,2.6670637,2.665807,2.6649275,2.6643343,2.663976,2.6636531,2.6631503,2.662329
2.7039976,2.704424,2.7049508,2.7055027,2.7059834,2.7063084,2.7064803,2.7066436,2.7068844,2.707252,2.7076988,2.7081485,2.708552,2.7089198,2.7092986,2.709682,2.710122,2.710567,2.7109807,2.7113352,2.7116394,2.711947,2.7122788,2.712677,2.7131004,2.7135196,2.713912,2.714263,2.7145734,2.7148404,2.715116,2.7154152,2.7157676,2.716165,2.7165773,2.7169755,2.7173228,2.7176313,2.7179234,2.7182264,2.7185612,2.7189121,2.7192285,2.7194476,2.7196338,2.7198129,2.7200089,2.720201,2.720349,2.7204244,2.720411,2.7203274,2.7201834,2.7199996,2.7197928,2.7195644,2.7193294,2.719098,2.7188854,2.718688,2.7185152,2.7183268,2.71812,2.7179236,2.71777,2.7177007,2.7176855,2.7176933,2.7176614,2.717566,2.7174134,2.717226,2.717029,2.7168171,2.7165666,2.7162857,2.7160015,2.715749,2.7155416,2.7153652,2.715218,2.7150817,2.7149444,2.7148361,2.7147636,2.7147002,2.7146335,2.7145548,2.7144303,2.71426,2.7140617,2.713853,2.7136354,2.7134008,2.713132,2.7128017,2.7124338,2.712049,2.7116401,2.7111888,2.7106757,2.7101007,2.7094455,2.7087057,2.7078934,2.7070017,2.7060304,2.7050083,2.7039895,2.703044,2.7021708,2.7014842,2.7010381,2.7007475,2.7004757,2.7001243,2.6995995,2.6988764,2.6980414,2.6971917,2.6964436,2.6958737,2.6954598,2.6951363,2.6948366,2.6945336,2.6942463,2.6940036,2.693818,2.6936796,2.6935577,2.6933918,2.693163,2.6929066,2.6926627,2.6924453,2.6922364,2.6919987,2.6916842,2.69127,2.690784,2.6902666,2.6897547,2.6892586,2.6887658,2.6882567,2.6876988,2.6870723,2.6863952,2.6856856,2.6849537,2.6842356,2.6835895,2.6830282,2.6825857,2.682282,2.6820962,2.681943,2.6817293,2.681449,2.6811197,2.6807232,2.680303,2.6799011,2.679553,2.6792865,2.6791306,2.6790762,2.6791282,2.6792362,2.6793833,2.6795483,2.679705,2.6798515,2.6799889,2.6800892,2.6800983,2.6799955,2.679782,2.6794872,2.6791499,2.6788268,2.6785035,2.6781948,2.6779284,2.6777263,2.6776032,2.677555,2.6775634,2.6776276,2.6777148,2.6778297,2.6779652,2.6781106,2.6782525,2.6783893,2.678535,2.6786919,2.6788547,2.6789782,2.6790147,2.678955,2.6788263,2.6786668,2.6785212,2.6784098,2.678307,2.6781883,2.6780417,2.6778762,2.6777282,2.6775866,2.6774135,2.6771698,2.6768804,2.6765945,2.6763296,2.6760817,2.675782,2.6753826,2.6748648,2.674254,2.6735954,2.6729136,2.6722088,2.6714573,2.6706586,2.6698527,2.669136,2.6685138,2.6679063,2.6672795,2.6666446,2.6660209,2.6655054,2.665114,2.6647544,2.6642983,2.6637025,2.6630425,2.6623368,2.6615922,2.6607904,2.6598501,2.6587687,2.65769,2.6567836,2.6562095,2.6558852,2.6557245,2.6554782,2.6549969,2.6543875,2.6538568,2.6534495,2.6530995,2.6528401,2.6525755,2.6522486,2.6519175,2.651651,2.6514287,2.6511755,2.650924,2.6505666,2.6501918,2.649952,2.6498218,2.6497693,2.6497407,2.6497493,2.6498299,2.6499834,2.6501734,2.6503654,2.6505628,2.6507537,2.6509786,2.6511471,2.651242,2.6512494,2.6511662,2.6510715,2.6509063,2.65084,2.650935,2.651193,2.6515417,2.6518776,2.652113,2.652203,2.6521988,2.6520667,2.6519098,2.6517963,2.6517448,2.6517496,2.6516552,2.651635,2.651513,2.6512706,2.65048,2.6492891,2.6484618,2.6479168,2.6475768,2.6472864,2.6468663,2.6461644
2.6884465,2.6888938,2.689445,2.6900134,2.6904964,2.6908085,2.6909583,2.6910987,2.6913195,2.6916714,2.6921115,2.6925597,2.6929574,2.6933107,2.6936693,2.694032,2.694467,2.6949286,2.695382,2.6957889,2.6961448,2.696498,2.6968703,2.6973114,2.69777,2.698216,2.6986265,2.6989884,2.6993077,2.6995864,2.6998732,2.7001762,2.700516,2.7008839,2.7012603,2.701627,2.7019553,2.702262,2.702564,2.7028794,2.7032218,2.7035658,2.7038553,2.7040305,2.7041621,2.7042766,2.704413,2.7045617,2.7046883,2.704761,2.704754,2.704689,2.7045748,2.7044306,2.7042704,2.704092,2.7039046,2.7037158,2.7035437,2.703394,2.7032666,2.7031157,2.7029333,2.702745,2.7025876,2.7025068,2.7024817,2.7024765,2.7024217,2.7022958,2.702108,2.701883,2.7016537,2.701413,2.701153,2.7008867,2.7006502,2.700478,2.700364,2.7002645,2.7001688,2.7000504,2.6998937,2.6997318,2.6995788,2.6994162,2.6992428,2.6990566,2.6988282,2.6985707,2.6983132,2.6980762,2.697856,2.6976364,2.6973915,2.697084,2.6967356,2.696355,2.6959276,2.6954398,2.6948876,2.6942775,2.6936035,2.692864,2.6920693,2.691203,2.6902528,2.689237,2.688211,2.6872482,2.686357,2.6856642,2.6852336,2.6849713,2.684723,2.6843727,2.683823,2.6830513,2.6821737,2.6813169,2.6806118,2.6801295,2.67982,2.679582,2.679346,2.6790776,2.6787968,2.678543,2.6783357,2.6781642,2.6780014,2.6777797,2.6774843,2.6771598,2.6768532,2.6765852,2.6763399,2.6760755,2.6757398,2.6753168,2.6748443,2.6743722,2.6739402,2.6735463,2.6731553,2.6727324,2.6722412,2.671656,2.671,2.6703036,2.6695888,2.6688998,2.668292,2.6677737,2.667378,2.6671195,2.6669726,2.6668527,2.6666703,2.666421,2.666121,2.6657498,2.6653523,2.6649685,2.6646304,2.664366,2.6642032,2.6641343,2.6641645,2.6642509,2.6643791,2.6645298,2.6646736,2.664807,2.6649337,2.6650321,2.6650505,2.6649709,2.664792,2.6645339,2.6642246,2.6639166,2.6635938,2.6632667,2.6629672,2.6627252,2.662568,2.662505,2.6625233,2.6626232,2.6627674,2.66296,2.6631815,2.6634035,2.6636057,2.663791,2.6639724,2.664164,2.6643548,2.6644983,2.6645436,2.6644807,2.664343,2.6641796,2.6640348,2.6639304,2.663834,2.6637168,2.663564,2.6633859,2.663223,2.6630688,2.6628833,2.6626296,2.6623316,2.6620393,2.6617723,2.6615229,2.661232,2.660853,2.6603684,2.6598058,2.6592002,2.6585553,2.657866,2.6571097,2.6562963,2.6554828,2.6547818,2.6541972,2.6536298,2.6530242,2.652392,2.6517463,2.651204,2.650792,2.6504154,2.649928,2.6492662,2.6485085,2.647684,2.6468275,2.6459599,2.6450138,2.6439764,2.6429706,2.64213,2.6416004,2.6413064,2.6411471,2.6408792,2.6403718,2.6397448,2.6392136,2.6388147,2.6384869,2.6382442,2.6379776,2.6376324,2.6372764,2.6369858,2.6367443,2.636476,2.6362128,2.635844,2.635463,2.6352246,2.6351018,2.635055,2.6350248,2.6350183,2.6350687,2.6351738,2.635306,2.6354387,2.6355689,2.635684,2.6358316,2.635929,2.6359684,2.6359391,2.6358314,2.6357136,2.63552,2.6354046,2.6354375,2.6356282,2.6359167,2.6362088,2.6364193,2.636489,2.6364594,2.6363034,2.636122,2.6359835,2.63591,2.6358972,2.6357915,2.6357718,2.6356707,2.6354783,2.6347866,2.633716,2.6329699,2.632461,2.6321187,2.6318293,2.6314654,2.630846
2.6740232,2.6744783,2.6750383,2.6756096,2.6760828,2.6763783,2.6765156,2.6766486,2.6768658,2.6772227,2.6776783,2.6781483,2.6785655,2.6789289,2.6792855,2.6796393,2.6800737,2.6805496,2.6810372,2.681492,2.6818962,2.6822917,2.6827025,2.683177,2.683659,2.6841173,2.6845307,2.6848888,2.6852021,2.68548,2.6857703,2.6860733,2.6864042,2.6867518,2.6871023,2.687447,2.6877627,2.6880643,2.6883683,2.6886833,2.6890163,2.6893396,2.6895926,2.6897187,2.6897902,2.6898365,2.6899061,2.6899996,2.690089,2.6901438,2.6901329,2.6900764,2.6899827,2.6898675,2.689745,2.6896105,2.6894705,2.6893306,2.6892085,2.6891193,2.6890535,2.688961,2.688827,2.688673,2.688536,2.6884642,2.6884408,2.6884298,2.688356,2.688199,2.687973,2.6877065,2.687437,2.6871605,2.6868827,2.6866193,2.686417,2.686308,2.6862679,2.6862316,2.6861835,2.6860886,2.6859298,2.685738,2.6855307,2.6852958,2.6850386,2.6847644,2.6844468,2.6841106,2.6837904,2.6835093,2.6832643,2.6830354,2.6827903,2.6824832,2.6821308,2.6817322,2.6812673,2.6807303,2.680133,2.6794934,2.6788068,2.6780748,2.6773033,2.6764653,2.6755362,2.6745253,2.6734877,2.672503,2.6715808,2.6708674,2.6704369,2.6701937,2.6699686,2.6696315,2.6690745,2.6682765,2.6673746,2.6665192,2.6658564,2.665453,2.6652355,2.6650758,2.6649008,2.66467,2.6644044,2.6641464,2.6639204,2.6637166,2.663512,2.6632335,2.662871,2.662475,2.662095,2.6617575,2.661455,2.6611447,2.6607742,2.660334,2.6598754,2.6594539,2.6591084,2.6588225,2.658534,2.658196,2.6577668,2.6572168,2.6565838,2.6559134,2.6552384,2.6546073,2.6540658,2.6536164,2.653281,2.6530683,2.6529493,2.652844,2.6526728,2.6524343,2.6521459,2.65179,2.65141,2.651048,2.650732,2.650484,2.6503296,2.6502585,2.6502745,2.6503367,2.650436,2.6505568,2.6506734,2.650785,2.650891,2.6509743,2.6509852,2.6509073,2.6507406,2.6505027,2.6502159,2.6499312,2.6496298,2.6493168,2.6490226,2.648779,2.648622,2.6485705,2.6486158,2.648755,2.6489549,2.6492157,2.6495085,2.6497948,2.6500506,2.6502805,2.6504989,2.650724,2.650944,2.6511092,2.651166,2.6511066,2.6509676,2.6508036,2.6506653,2.65057,2.6504812,2.650366,2.650207,2.650014,2.649832,2.6496592,2.6494532,2.6491811,2.6488657,2.648556,2.6482742,2.6480153,2.6477227,2.6473646,2.6469202,2.6464195,2.6458845,2.6452951,2.6446376,2.6438928,2.643073,2.6422539,2.6415613,2.6410027,2.6404643,2.6398716,2.6392326,2.638557,2.6379752,2.637529,2.637127,2.6366105,2.635901,2.635069,2.6341531,2.6332092,2.6322937,2.6313493,2.6303544,2.6294103,2.6286163,2.628107,2.6278155,2.6276321,2.6273246,2.626781,2.6261334,2.6255984,2.625202,2.624888,2.624656,2.624385,2.6240244,2.6236544,2.623354,2.6231098,2.622847,2.6225893,2.622224,2.6218421,2.6215992,2.6214724,2.6214204,2.6213765,2.621337,2.6213326,2.6213648,2.62142,2.621486,2.6215558,2.6216087,2.621694,2.6217341,2.621728,2.6216674,2.621535,2.6213908,2.6211598,2.620987,2.6209483,2.6210594,2.6212692,2.6214962,2.6216614,2.6216998,2.6216426,2.6214685,2.6212785,2.621141,2.621075,2.6210747,2.6209857,2.6209867,2.6209226,2.6207845,2.6201978,2.619256,2.6185799,2.6180818,2.61771,2.6174016,2.617032,2.6164525
2.6603832,2.6608267,2.6613681,2.6619117,2.6623514,2.6626103,2.6627185,2.6628377,2.663052,2.6634178,2.6639,2.664413,2.6648798,2.6652873,2.6656742,2.6660464,2.6664963,2.6669936,2.6675148,2.668017,2.6684713,2.6689117,2.669362,2.669868,2.6703691,2.6708312,2.6712358,2.671579,2.6718774,2.672143,2.6724281,2.672727,2.6730509,2.6733885,2.673727,2.6740627,2.674375,2.6746786,2.674983,2.6752927,2.6756127,2.6759117,2.6761274,2.6762094,2.6762319,2.6762204,2.6762304,2.676269,2.6763158,2.676344,2.676318,2.676261,2.6761742,2.6760702,2.6759624,2.675847,2.6757298,2.6756172,2.6755285,2.6754813,2.6754599,2.675415,2.675329,2.6752183,2.6751173,2.6750717,2.6750684,2.675065,2.6749845,2.6748068,2.674549,2.6742444,2.673935,2.6736193,2.673312,2.6730347,2.6728382,2.6727543,2.6727471,2.6727414,2.6727195,2.6726441,2.6724968,2.6723022,2.6720722,2.6717942,2.6714787,2.6711373,2.6707501,2.6703472,2.6699708,2.669644,2.6693664,2.6691203,2.6688704,2.6685631,2.6682112,2.6678019,2.6673102,2.6667385,2.6661139,2.6654642,2.6647856,2.6640797,2.6633425,2.662539,2.661634,2.660629,2.6595778,2.6585631,2.6575947,2.6568372,2.6563814,2.6561387,2.6559315,2.655616,2.6550674,2.654267,2.6533637,2.6525245,2.651904,2.6515667,2.651424,2.6513295,2.6512048,2.6510096,2.6507616,2.650505,2.6502666,2.6500373,2.6497984,2.649474,2.6490538,2.64859,2.6481357,2.647722,2.647348,2.646978,2.6465645,2.646101,2.6456497,2.6452723,2.6450024,2.644805,2.6445963,2.6443138,2.6439164,2.6433744,2.6427407,2.6420825,2.6414452,2.640874,2.640406,2.6400285,2.6397533,2.6395783,2.6394734,2.639368,2.6391969,2.6389656,2.6386938,2.638368,2.6380334,2.6377282,2.637475,2.6372848,2.6371737,2.6371312,2.6371572,2.637218,2.6373067,2.637413,2.637516,2.6376138,2.6377048,2.6377716,2.6377623,2.6376653,2.6374846,2.6372457,2.6369736,2.6367133,2.6364467,2.6361723,2.6359148,2.6357038,2.6355767,2.6355572,2.6356385,2.6358156,2.636056,2.6363573,2.6366875,2.63701,2.6373014,2.6375628,2.6378086,2.6380568,2.6382942,2.63847,2.6385298,2.638467,2.6383219,2.6381571,2.638021,2.6379333,2.6378555,2.6377492,2.6375933,2.637395,2.6371994,2.637011,2.6367855,2.6364908,2.6361523,2.6358178,2.6355083,2.6352262,2.634922,2.634572,2.6341617,2.6337175,2.6332464,2.6327074,2.6320748,2.6313345,2.630496,2.6296506,2.6289396,2.628377,2.627842,2.6272452,2.6265903,2.6258788,2.6252482,2.6247602,2.6243312,2.6237984,2.6230676,2.622191,2.6212168,2.6202111,2.6192572,2.6183128,2.6173487,2.6164417,2.6156635,2.6151388,2.6148083,2.6145673,2.614198,2.613607,2.6129336,2.6123848,2.61198,2.6116686,2.611436,2.611156,2.6107876,2.6104183,2.6101282,2.6099083,2.6096811,2.6094604,2.609128,2.60877,2.608542,2.6084278,2.6083844,2.6083422,2.608284,2.608237,2.6082125,2.608215,2.6082487,2.608303,2.608346,2.6084237,2.6084566,2.608441,2.608373,2.608234,2.608069,2.607805,2.6075773,2.6074672,2.6074967,2.6076243,2.6077762,2.6078837,2.6078813,2.6077914,2.6076002,2.6074123,2.6072907,2.6072495,2.607277,2.6072135,2.607236,2.607198,2.6070938,2.6065726,2.605704,2.6050472,2.604535,2.6041112,2.6037772,2.6033907,2.6028247
2.6459818,2.646392,2.6468904,2.6473818,2.6477666,2.647974,2.6480424,2.6481428,2.6483493,2.6487288,2.6492434,2.649807,2.6503382,2.650806,2.6512356,2.6516385,2.6521077,2.6526217,2.6531703,2.6537132,2.6542187,2.654708,2.6552,2.6557393,2.6562614,2.6567278,2.6571236,2.6574523,2.6577344,2.6579866,2.658264,2.6585567,2.6588745,2.6592045,2.6595356,2.659867,2.6601768,2.66048,2.6607866,2.6610923,2.6614003,2.6616793,2.6618686,2.6619222,2.6619124,2.6618633,2.6618326,2.6618314,2.6618443,2.6618485,2.661809,2.6617496,2.661663,2.6615582,2.6614466,2.6613278,2.6612117,2.6611056,2.6610286,2.6609998,2.6610012,2.6609843,2.6609364,2.6608717,2.6608162,2.6608095,2.6608415,2.6608634,2.6607947,2.6606128,2.660339,2.660009,2.659663,2.6593099,2.658967,2.6586618,2.658451,2.6583624,2.6583567,2.658359,2.6583421,2.6582792,2.6581495,2.6579666,2.657733,2.657431,2.6570706,2.6566744,2.6562252,2.6557617,2.6553292,2.6549535,2.6546383,2.654371,2.6541166,2.6538162,2.6534748,2.65307,2.652571,2.6519876,2.6513624,2.6507294,2.6500845,2.6494277,2.6487458,2.647993,2.6471255,2.6461365,2.6450775,2.6440344,2.6430168,2.642208,2.6417155,2.6414618,2.6412687,2.6409762,2.6404445,2.639656,2.6387627,2.637941,2.6373549,2.6370673,2.63698,2.6369312,2.6368437,2.6366723,2.6364331,2.6361697,2.6359096,2.6356473,2.6353679,2.6349974,2.6345234,2.6340005,2.6334853,2.63301,2.632576,2.6321564,2.6317058,2.631226,2.6307874,2.6304512,2.6302423,2.6301103,2.6299462,2.6296835,2.6292784,2.628706,2.6280425,2.627379,2.6267729,2.6262655,2.6258774,2.6255822,2.6253753,2.625242,2.6251526,2.6250505,2.6248846,2.624673,2.624434,2.6241627,2.6239,2.6236825,2.6235223,2.6234143,2.6233683,2.6233726,2.6234224,2.6234927,2.623582,2.623685,2.6237857,2.6238813,2.6239657,2.624019,2.623991,2.6238656,2.6236572,2.623405,2.6231384,2.6228995,2.622673,2.6224513,2.6222496,2.6220927,2.622016,2.6220427,2.6221652,2.622375,2.6226447,2.6229649,2.6233072,2.6236415,2.623948,2.6242218,2.6244817,2.6247401,2.6249804,2.625149,2.625195,2.6251168,2.6249568,2.6247816,2.62464,2.6245534,2.6244822,2.6243863,2.6242404,2.6240435,2.623843,2.6236446,2.6234024,2.6230896,2.6227295,2.6223674,2.6220274,2.621716,2.6213949,2.62105,2.6206691,2.6202788,2.6198702,2.6193795,2.6187673,2.6180243,2.6171556,2.6162705,2.6155221,2.614935,2.61439,2.613786,2.613113,2.6123643,2.6116827,2.6111493,2.6106958,2.6101568,2.6094275,2.6085372,2.6075299,2.606488,2.605514,2.604579,2.6036448,2.6027656,2.6019893,2.6014256,2.6010365,2.6007247,2.600291,2.599659,2.5989695,2.5984132,2.5980003,2.5976868,2.5974503,2.5971584,2.5967832,2.5964227,2.5961523,2.595973,2.5958047,2.5956483,2.595375,2.595065,2.594873,2.5947857,2.594765,2.5947347,2.5946646,2.594575,2.5944932,2.5944467,2.5944533,2.59451,2.594568,2.594664,2.5947206,2.5947227,2.5946667,2.5945365,2.5943608,2.5940728,2.5937963,2.5936208,2.5935738,2.5936167,2.5936887,2.5937312,2.5936804,2.5935533,2.5933428,2.5931604,2.5930629,2.593051,2.5931072,2.593069,2.5931005,2.59307,2.5929718,2.5924685,2.5916085,2.5909162,2.5903673,2.589914,2.589527,2.5891018,2.588537
2.6309505,2.6313233,2.6317701,2.6322007,2.6325216,2.6326706,2.6326902,2.632761,2.6329427,2.633312,2.63383,2.634419,2.634997,2.635519,2.6359959,2.636435,2.6369305,2.637467,2.6380448,2.6386309,2.6391883,2.6397293,2.640265,2.6408343,2.64137,2.6418312,2.6422083,2.642513,2.6427722,2.6430058,2.643271,2.6435542,2.6438663,2.6441922,2.644521,2.6448562,2.6451743,2.6454883,2.6458082,2.6461225,2.6464324,2.6467068,2.6468873,2.646934,2.6469164,2.646858,2.6468139,2.6467938,2.6467876,2.6467774,2.646732,2.646676,2.646594,2.6464891,2.6463733,2.6462498,2.6461322,2.64603,2.6459613,2.6459403,2.6459482,2.6459398,2.645911,2.6458778,2.6458576,2.645887,2.6459546,2.6460066,2.6459622,2.645795,2.6455252,2.6451888,2.6448233,2.6444445,2.6440644,2.6437168,2.6434588,2.6433198,2.6432652,2.64323,2.6431818,2.643104,2.6429777,2.6428018,2.6425657,2.6422465,2.641852,2.6414137,2.640922,2.6404195,2.6399546,2.639553,2.6392205,2.6389475,2.6387014,2.6384215,2.6381056,2.6377263,2.6372485,2.6366856,2.6360903,2.6355,2.6349075,2.634313,2.6336932,2.632999,2.6321797,2.631225,2.6301842,2.6291394,2.6281004,2.6272607,2.6267395,2.6264706,2.6262813,2.6260018,2.6254814,2.6247034,2.623817,2.623003,2.6224306,2.622159,2.6220863,2.6220467,2.621961,2.621782,2.6215248,2.6212327,2.6209364,2.620637,2.6203208,2.619916,2.619413,2.6188655,2.618327,2.6178267,2.6173658,2.6169217,2.61645,2.6159563,2.6155174,2.6151953,2.6150084,2.6148937,2.6147323,2.6144514,2.6140096,2.6133873,2.612685,2.6120164,2.611446,2.6110082,2.6107078,2.6105068,2.6103802,2.6103053,2.6102533,2.610176,2.6100373,2.6098647,2.6096761,2.6094718,2.609292,2.6091688,2.6091037,2.609079,2.6090977,2.6091485,2.6092274,2.6093144,2.609414,2.6095252,2.609634,2.6097364,2.6098232,2.6098657,2.6098175,2.6096609,2.60942,2.6091504,2.6088905,2.6086779,2.6085007,2.6083426,2.6082115,2.6081223,2.6081033,2.6081755,2.6083264,2.6085463,2.6088104,2.6091063,2.6094112,2.6097102,2.609987,2.6102371,2.6104827,2.6107268,2.6109495,2.6110978,2.6111257,2.6110346,2.6108687,2.610694,2.61056,2.6104872,2.610435,2.6103618,2.6102352,2.6100464,2.6098418,2.6096296,2.6093628,2.6090229,2.608633,2.6082363,2.6078596,2.6075182,2.6071787,2.6068392,2.606491,2.6061568,2.6058116,2.6053724,2.6047869,2.6040475,2.603154,2.6022305,2.6014423,2.6008263,2.6002693,2.599658,2.5989673,2.5981808,2.59744,2.5968516,2.596367,2.595829,2.595124,2.5942502,2.593245,2.5922015,2.5912423,2.59035,2.58948,2.588657,2.5879025,2.5873117,2.5868733,2.5865054,2.586029,2.5853822,2.5846994,2.5841494,2.583736,2.5834227,2.5831823,2.5828848,2.5825129,2.5821733,2.581936,2.581812,2.5817165,2.5816407,2.5814452,2.5811982,2.5810504,2.5809956,2.5810013,2.5809832,2.580891,2.5807457,2.58059,2.5804772,2.5804467,2.5805025,2.5805807,2.5807061,2.5807967,2.5808291,2.5807981,2.5806885,2.5805166,2.5802207,2.5799189,2.5797029,2.5796044,2.5795872,2.5795956,2.5795789,2.5794797,2.5793102,2.5790746,2.578892,2.578815,2.5788307,2.5789113,2.5788903,2.578916,2.5788689,2.5787454,2.5782142,2.5773234,2.5765848,2.5759797,2.575468,2.575015,2.5745537,2.5739965
2.6157043,2.6160347,2.616425,2.6167884,2.6170416,2.6171288,2.6170945,2.6171231,2.6172626,2.6175914,2.618075,2.6186504,2.6192427,2.6197977,2.6203146,2.6207886,2.6213155,2.6218796,2.6224904,2.6231203,2.6237283,2.6243157,2.6248882,2.6254776,2.6260128,2.6264558,2.6268039,2.6270776,2.6273131,2.6275296,2.6277843,2.6280603,2.628368,2.6286922,2.6290216,2.6293645,2.6296957,2.6300287,2.6303725,2.6307068,2.6310298,2.6313133,2.631502,2.6315608,2.6315575,2.6315155,2.631483,2.6314673,2.6314588,2.6314447,2.6314015,2.631353,2.6312776,2.631176,2.6310582,2.6309323,2.6308186,2.6307254,2.6306653,2.6306467,2.6306472,2.6306267,2.6305914,2.6305623,2.6305552,2.6306033,2.6306953,2.630776,2.6307642,2.6306314,2.630392,2.6300778,2.6297212,2.6293392,2.6289399,2.628552,2.628232,2.628012,2.6278687,2.627756,2.6276412,2.6275191,2.6273718,2.6271868,2.6269417,2.6266077,2.6261902,2.625729,2.625221,2.6247127,2.62425,2.6238573,2.623537,2.62328,2.6230564,2.6228058,2.6225238,2.6221824,2.6217444,2.6212254,2.6206818,2.6201515,2.6196218,2.619092,2.6185317,2.6178932,2.6171288,2.6162257,2.6152303,2.6142192,2.6131978,2.6123576,2.611825,2.611543,2.6113448,2.6110635,2.6105437,2.609768,2.6088831,2.6080666,2.6074855,2.6071987,2.6071024,2.6070366,2.6069186,2.6067023,2.6064,2.606058,2.6057143,2.6053758,2.6050336,2.604615,2.6041117,2.6035771,2.6030588,2.6025796,2.6021347,2.601697,2.6012244,2.60072,2.6002636,2.5999186,2.5997038,2.599554,2.5993528,2.5990245,2.598528,2.597853,2.5971155,2.5964441,2.5959086,2.5955343,2.595313,2.5951972,2.5951505,2.5951438,2.595148,2.595121,2.5950341,2.5949209,2.5947976,2.5946708,2.5945783,2.594546,2.594567,2.594617,2.5946946,2.5947928,2.5949068,2.5950232,2.595149,2.5952826,2.5954106,2.5955288,2.5956235,2.5956616,2.5955968,2.595414,2.5951471,2.5948665,2.5946178,2.5944366,2.5943122,2.594221,2.594163,2.594142,2.5941768,2.5942802,2.5944371,2.594637,2.5948603,2.595087,2.5953074,2.595522,2.595724,2.5959115,2.5961099,2.5963116,2.596498,2.596617,2.5966294,2.5965395,2.5963879,2.5962367,2.596131,2.596092,2.5960765,2.5960402,2.5959435,2.595769,2.5955615,2.5953329,2.5950363,2.5946603,2.594233,2.593798,2.5933864,2.5930176,2.5926623,2.592331,2.5920157,2.5917332,2.5914476,2.5910592,2.5905054,2.5897787,2.5888724,2.5879211,2.5870996,2.5864577,2.5858922,2.585277,2.5845728,2.583747,2.582942,2.5822895,2.5817695,2.5812404,2.580581,2.5797532,2.5787888,2.5777836,2.5768783,2.5760698,2.5753016,2.5745668,2.5738616,2.5732677,2.572804,2.5724087,2.5719244,2.5712988,2.5706515,2.5701237,2.5697174,2.5694113,2.5691738,2.5688777,2.568517,2.5682054,2.5680065,2.5679393,2.5679202,2.5679293,2.5678148,2.5676327,2.5675294,2.5675046,2.5675282,2.5675128,2.5673862,2.5671692,2.5669222,2.5667229,2.566637,2.566677,2.566763,2.5669074,2.567024,2.5670834,2.56708,2.567,2.5668468,2.5665653,2.566269,2.5660462,2.5659304,2.5658886,2.5658627,2.565804,2.5656662,2.5654566,2.5651917,2.564999,2.5649302,2.564958,2.565045,2.5650306,2.565037,2.5649557,2.5647826,2.5641983,2.5632575,2.5624657,2.561795,2.5612094,2.5606914,2.5602012,2.5596616
2.6007195,2.6009965,2.6013234,2.6016197,2.601812,2.6018474,2.6017683,2.6017568,2.6018476,2.6021194,2.6025424,2.603074,2.6036506,2.604213,2.604753,2.6052537,2.605805,2.6063933,2.6070318,2.6076946,2.6083379,2.6089525,2.6095417,2.6101303,2.6106462,2.61106,2.6113782,2.6116285,2.6118534,2.6120687,2.6123247,2.6126018,2.6129074,2.6132245,2.6135468,2.6138887,2.6142244,2.614571,2.6149335,2.615284,2.6156182,2.6159108,2.6161108,2.616187,2.616208,2.6161938,2.6161854,2.616187,2.6161885,2.6161804,2.6161451,2.616106,2.616036,2.6159353,2.6158142,2.6156874,2.6155808,2.6154978,2.6154442,2.6154208,2.6153994,2.6153429,2.6152687,2.6152096,2.6151843,2.6152263,2.6153252,2.615429,2.6154575,2.6153798,2.6152034,2.6149516,2.6146462,2.6143064,2.6139297,2.613536,2.6131744,2.612878,2.61264,2.6124358,2.612235,2.6120439,2.611846,2.6116257,2.6113558,2.6110046,2.6105752,2.6101105,2.6096115,2.609126,2.6086955,2.608338,2.6080513,2.60782,2.607618,2.6073883,2.6071262,2.6068106,2.6064086,2.6059365,2.6054497,2.604982,2.6045146,2.604041,2.6035311,2.6029387,2.6022248,2.6013823,2.6004505,2.5995007,2.598534,2.597731,2.5972142,2.5969305,2.5967207,2.5964265,2.5958977,2.5951166,2.5942264,2.593394,2.5927837,2.5924563,2.5923123,2.5922008,2.5920389,2.5917783,2.5914302,2.5910416,2.5906577,2.5902936,2.5899425,2.5895324,2.589054,2.5885615,2.5880973,2.5876765,2.587284,2.5868819,2.5864253,2.5859137,2.585421,2.585018,2.58473,2.5845022,2.5842307,2.583842,2.583293,2.5825849,2.5818357,2.5811782,2.5806787,2.580352,2.580184,2.5801222,2.5801284,2.5801733,2.5802302,2.5802588,2.5802329,2.5801885,2.5801382,2.580093,2.5800862,2.5801384,2.580237,2.5803556,2.580494,2.5806475,2.5808125,2.5809767,2.5811443,2.5813117,2.5814624,2.581593,2.581691,2.5817194,2.5816338,2.5814228,2.5811312,2.5808415,2.5806036,2.5804503,2.5803728,2.5803423,2.5803518,2.5803928,2.580473,2.5805964,2.5807476,2.5809178,2.5810912,2.5812411,2.581367,2.581483,2.5815918,2.5817,2.5818348,2.5819836,2.58213,2.5822241,2.5822334,2.5821645,2.582049,2.581942,2.5818825,2.5818896,2.5819182,2.5819206,2.581852,2.5816898,2.5814772,2.5812304,2.5809016,2.5804873,2.58002,2.5795462,2.5791044,2.5787137,2.578349,2.5780263,2.5777383,2.5774965,2.577259,2.5769153,2.5763953,2.5756898,2.5747867,2.573824,2.5729828,2.5723267,2.5717592,2.571147,2.5704327,2.56957,2.5686994,2.567978,2.5674188,2.5669007,2.5662966,2.565534,2.5646348,2.5636935,2.5628629,2.562152,2.5614932,2.5608501,2.5602,2.5596151,2.559143,2.5587454,2.5582829,2.5577054,2.5571136,2.5566216,2.556234,2.555945,2.555719,2.5554297,2.55508,2.5547862,2.5546122,2.5545855,2.5546236,2.5547018,2.554656,2.5545273,2.5544596,2.5544546,2.5544815,2.5544558,2.554283,2.553984,2.5536323,2.5533323,2.5531716,2.5531716,2.5532346,2.5533667,2.5534778,2.5535383,2.553546,2.5534873,2.5533574,2.553101,2.5528297,2.5526247,2.5525184,2.5524774,2.552441,2.552357,2.5521903,2.551947,2.551653,2.5514445,2.5513725,2.5514061,2.5515008,2.5514798,2.5514607,2.5513482,2.5511363,2.5505166,2.5495467,2.5487175,2.5479999,2.5473595,2.5467873,2.5462747,2.545759
2.5864892,2.586707,2.5869699,2.5872114,2.5873656,2.5873778,2.5872793,2.587245,2.5872982,2.5875134,2.5878701,2.588344,2.5888867,2.5894375,2.5899835,2.5904946,2.5910559,2.5916562,2.5923061,2.59298,2.5936308,2.5942426,2.5948195,2.5953825,2.5958598,2.5962358,2.5965295,2.5967727,2.5970054,2.5972397,2.5975146,2.5978043,2.5981083,2.5984097,2.598711,2.5990362,2.5993617,2.599708,2.600072,2.6004226,2.6007535,2.6010408,2.6012387,2.6013234,2.6013584,2.601365,2.6013756,2.6013923,2.6014051,2.6014056,2.6013806,2.6013486,2.6012807,2.6011772,2.6010518,2.6009254,2.6008267,2.6007552,2.600706,2.6006732,2.600619,2.6005063,2.6003664,2.6002448,2.6001682,2.6001773,2.6002622,2.6003757,2.600443,2.6004305,2.600339,2.6001809,2.599967,2.5997148,2.5994086,2.599054,2.5986896,2.5983477,2.5980358,2.5977468,2.5974631,2.5971916,2.5969226,2.5966442,2.5963335,2.5959628,2.595533,2.5950813,2.5946102,2.5941663,2.5937858,2.59348,2.593235,2.593029,2.5928364,2.5926065,2.5923376,2.592022,2.5916367,2.5912013,2.5907652,2.5903544,2.589942,2.5895162,2.5890455,2.5884864,2.5878115,2.5870237,2.5861597,2.5852826,2.584396,2.583657,2.583179,2.5829082,2.5826907,2.5823798,2.581839,2.5810497,2.5801477,2.5792904,2.5786366,2.5782537,2.578053,2.5778959,2.5776987,2.5774107,2.5770397,2.5766299,2.576231,2.5758662,2.5755253,2.57514,2.5747004,2.5742598,2.5738592,2.5735092,2.5731835,2.5728302,2.5723982,2.5718756,2.5713317,2.570845,2.570456,2.570129,2.5697808,2.5693414,2.5687673,2.5680687,2.5673542,2.5667448,2.5662942,2.566002,2.5658555,2.5658088,2.5658236,2.5658805,2.5659606,2.5660248,2.5660458,2.5660605,2.5660763,2.5661025,2.5661714,2.5662954,2.566461,2.5666451,2.5668461,2.5670643,2.567296,2.567523,2.5677426,2.5679436,2.5681086,2.5682387,2.568326,2.5683281,2.5682092,2.5679631,2.5676432,2.5673428,2.5671144,2.5669837,2.566947,2.5669708,2.5670419,2.5671403,2.5672617,2.5674074,2.5675585,2.5677145,2.5678592,2.5679612,2.5680232,2.5680642,2.5680957,2.5681353,2.5682144,2.5683193,2.568439,2.5685267,2.568553,2.568523,2.5684557,2.5684023,2.5683966,2.568451,2.5685163,2.5685434,2.5684881,2.568325,2.568098,2.5678267,2.567461,2.5670042,2.5664933,2.5659804,2.565508,2.5650992,2.5647268,2.5644093,2.5641384,2.5639226,2.5637178,2.5634108,2.5629268,2.5622497,2.561366,2.560411,2.5595698,2.558915,2.5583558,2.557753,2.5570326,2.5561357,2.555203,2.5544112,2.5538082,2.553297,2.552743,2.5520475,2.5512156,2.5503402,2.5495782,2.5489478,2.5483737,2.5477998,2.5471864,2.546605,2.5461273,2.5457363,2.5453053,2.5447822,2.5442495,2.543796,2.5434344,2.543169,2.54296,2.5426822,2.5423384,2.5420456,2.5418732,2.5418587,2.541926,2.5420482,2.5420508,2.5419617,2.5419161,2.5419192,2.541942,2.5418956,2.5416722,2.5412931,2.5408416,2.540442,2.5402002,2.5401416,2.540155,2.5402398,2.540309,2.5403361,2.5403256,2.540267,2.5401497,2.5399117,2.5396671,2.5394874,2.5393991,2.539368,2.5393271,2.5392222,2.539028,2.5387516,2.5384288,2.5382018,2.5381246,2.5381715,2.5382893,2.5382617,2.5382218,2.538103,2.5378914,2.5372882,2.5363464,2.5355268,2.5348024,2.5341363,2.5335255,2.532997,2.5325065
2.5733414,2.5735116,2.5737262,2.5739317,2.5740733,2.5740905,2.573998,2.5739617,2.5739942,2.5741644,2.5744655,2.5748873,2.5753908,2.5759242,2.5764651,2.5769725,2.5775306,2.578128,2.578773,2.5794368,2.5800705,2.580655,2.5811956,2.5817137,2.5821395,2.5824723,2.5827422,2.582984,2.5832348,2.5834994,2.5838017,2.5841107,2.5844154,2.5846992,2.5849767,2.5852778,2.5855849,2.5859246,2.5862803,2.586616,2.586926,2.5871885,2.5873656,2.5874367,2.5874665,2.5874712,2.5874794,2.5874958,2.5875103,2.587512,2.5874891,2.5874546,2.5873806,2.5872703,2.5871391,2.5870166,2.5869336,2.5868783,2.586838,2.5867996,2.5867167,2.5865483,2.5863338,2.5861332,2.5859842,2.5859365,2.5859828,2.5860825,2.5861673,2.586203,2.586184,2.5861137,2.5859947,2.585836,2.585618,2.5853243,2.5849776,2.5846133,2.5842497,2.5838976,2.583547,2.58321,2.5828784,2.5825477,2.5822039,2.5818248,2.5814102,2.580988,2.5805612,2.580174,2.5798554,2.5796094,2.579413,2.579234,2.5790472,2.5788078,2.5785203,2.5781898,2.5778112,2.577406,2.5770178,2.5766633,2.5763044,2.575924,2.5754893,2.5749564,2.5743089,2.5735617,2.5727491,2.5719352,2.5711195,2.5704386,2.569995,2.5697317,2.5695019,2.5691752,2.5686278,2.5678356,2.5669332,2.56606,2.5653696,2.5649374,2.564688,2.5644958,2.5642786,2.5639818,2.5636086,2.5632,2.5628066,2.562454,2.562134,2.5617723,2.5613632,2.5609584,2.5605986,2.5602956,2.5600188,2.5597024,2.5592856,2.5587473,2.5581443,2.5575695,2.5570822,2.556666,2.5562625,2.5558014,2.5552418,2.5546002,2.553967,2.5534399,2.553052,2.5527892,2.5526423,2.5525763,2.552559,2.5525892,2.5526557,2.552721,2.5527606,2.55281,2.5528693,2.552947,2.5530744,2.5532546,2.553471,2.55371,2.553971,2.5542536,2.554555,2.5548468,2.5551186,2.5553498,2.555522,2.5556436,2.555712,2.5556865,2.5555363,2.555263,2.5549302,2.554633,2.5544238,2.5543268,2.5543358,2.5544174,2.5545502,2.5547051,2.5548706,2.5550437,2.5552049,2.5553648,2.5555031,2.5555882,2.5556207,2.5556192,2.5556002,2.5555944,2.5556316,2.5557084,2.5558152,2.5559106,2.5559661,2.5559797,2.555963,2.5559616,2.5560045,2.5560963,2.5561864,2.5562253,2.5561666,2.5559895,2.5557375,2.5554323,2.5550232,2.5545154,2.5539517,2.553392,2.5528839,2.5524518,2.5520668,2.5517452,2.551477,2.5512705,2.5510843,2.5508058,2.5503552,2.5497108,2.5488586,2.5479248,2.547095,2.5464525,2.5459101,2.5453193,2.5445971,2.5436716,2.5426831,2.5418258,2.5411816,2.5406747,2.5401616,2.5395222,2.5387487,2.5379295,2.537223,2.5366514,2.5361366,2.535606,2.535006,2.5344164,2.5339265,2.5335345,2.5331264,2.5326471,2.5321574,2.5317292,2.531386,2.531139,2.5309458,2.5306804,2.5303402,2.530042,2.5298638,2.52985,2.5299342,2.5300894,2.53013,2.5300732,2.5300496,2.5300612,2.53008,2.5300179,2.529757,2.5293207,2.5287995,2.528331,2.5280352,2.5279293,2.5278962,2.5279312,2.5279484,2.5279284,2.527884,2.5278096,2.5276937,2.5274663,2.5272415,2.5270832,2.527011,2.5269837,2.5269315,2.5267968,2.5265672,2.5262532,2.5258965,2.5256438,2.5255632,2.5256214,2.5257416,2.5257378,2.5256948,2.525591,2.525411,2.524866,2.5239952,2.52322,2.5225182,2.5218456,2.5212069,2.5206602,2.52019
2.5600016,2.5601282,2.5603032,2.5604863,2.5606341,2.5606813,2.5606215,2.5606055,2.5606372,2.5607758,2.5610251,2.5614097,2.5618963,2.5624096,2.5629265,2.5634036,2.5639262,2.5644836,2.5650854,2.5657043,2.5662887,2.566815,2.5672922,2.5677438,2.5681,2.5683808,2.5686278,2.5688727,2.569149,2.5694528,2.5697885,2.5701194,2.5704231,2.5706825,2.5709229,2.5711873,2.571465,2.5717854,2.5721204,2.5724332,2.5727115,2.5729365,2.5730793,2.573124,2.573134,2.5731208,2.5731096,2.5731091,2.5731077,2.573091,2.5730476,2.5729861,2.572876,2.572729,2.572567,2.572426,2.5723395,2.5722885,2.5722494,2.5721986,2.5720825,2.5718555,2.5715604,2.571269,2.5710335,2.5709121,2.5708985,2.5709558,2.571024,2.5710707,2.5710874,2.571072,2.5710206,2.570939,2.5708027,2.570579,2.5702772,2.5699291,2.5695612,2.5691924,2.5688264,2.5684705,2.5681212,2.5677757,2.5674305,2.5670683,2.5666869,2.5663087,2.5659344,2.565605,2.5653448,2.5651543,2.5650053,2.5648572,2.5646815,2.5644414,2.5641441,2.563812,2.5634515,2.563087,2.562755,2.5624657,2.5621734,2.5618515,2.561461,2.560956,2.5603285,2.5595994,2.5588102,2.558056,2.5572712,2.5566244,2.5561948,2.5559134,2.5556526,2.5553007,2.5547476,2.5539682,2.5530853,2.5522199,2.551517,2.5510564,2.5507748,2.5505636,2.5503404,2.5500493,2.5496898,2.5492954,2.5489163,2.5485802,2.5482736,2.547924,2.5475206,2.5471144,2.5467541,2.5464602,2.5462036,2.54591,2.5455046,2.5449538,2.5443063,2.5436597,2.5430896,2.5426054,2.542171,2.5417151,2.5412035,2.5406547,2.540132,2.5397053,2.5393848,2.5391433,2.538976,2.5388627,2.5387802,2.5387456,2.53876,2.5387907,2.538819,2.5388813,2.5389674,2.5390844,2.539258,2.5394838,2.5397446,2.54003,2.5403442,2.5406861,2.5410519,2.5414069,2.5417309,2.5419958,2.542181,2.5423021,2.5423627,2.5423245,2.5421648,2.541893,2.5415769,2.5413108,2.5411448,2.5410953,2.5411577,2.5412993,2.5414917,2.5417,2.5419083,2.5421126,2.5422943,2.5424767,2.5426362,2.5427394,2.542782,2.5427763,2.5427403,2.5427165,2.542733,2.542794,2.5428932,2.5429926,2.5430644,2.543102,2.5431104,2.5431285,2.5431857,2.543282,2.5433664,2.5433912,2.5433114,2.5431085,2.542829,2.542492,2.542047,2.5414987,2.5408907,2.5402875,2.539741,2.539279,2.5388694,2.538526,2.5382357,2.5380106,2.5378132,2.537538,2.5371077,2.5364914,2.5356755,2.5347733,2.5339737,2.5333638,2.5328574,2.532302,2.5316038,2.5306787,2.529667,2.5287716,2.528103,2.5276072,2.5271325,2.526543,2.52582,2.5250463,2.5243773,2.523838,2.523351,2.5228353,2.5222301,2.5216198,2.5211072,2.5207038,2.520301,2.519839,2.5193648,2.518939,2.5185955,2.5183532,2.5181675,2.517909,2.5175676,2.517256,2.5170636,2.5170472,2.5171487,2.5173423,2.5174317,2.517421,2.5174336,2.517471,2.517508,2.517456,2.5171967,2.5167499,2.5162106,2.515724,2.5154157,2.5153031,2.5152717,2.5152736,2.5152245,2.5151458,2.515069,2.5149755,2.5148578,2.5146384,2.5144312,2.514287,2.5142174,2.514178,2.5140986,2.5139222,2.513648,2.5132897,2.5128944,2.512607,2.512515,2.5125852,2.5127082,2.5127249,2.5127091,2.5126061,2.5124512,2.5119913,2.5112195,2.5104976,2.5098295,2.5091658,2.508512,2.5079584,2.5075178
2.5461404,2.5462332,2.5463805,2.5465603,2.5467455,2.5468645,2.5468884,2.5469465,2.5470357,2.5472085,2.5474753,2.547844,2.5482829,2.5487378,2.5491881,2.549584,2.5500054,2.5504723,2.550991,2.5515232,2.552014,2.5524454,2.552827,2.5531878,2.5534601,2.5536814,2.5539038,2.5541553,2.5544584,2.5547996,2.555168,2.5555186,2.5558157,2.5560431,2.5562358,2.5564487,2.5566826,2.556969,2.557269,2.5575438,2.5577753,2.5579462,2.5580382,2.5580416,2.5580153,2.5579643,2.5579154,2.5578785,2.5578413,2.5577857,2.5577004,2.5575893,2.5574186,2.5572112,2.556999,2.5568254,2.5567238,2.5566673,2.5566244,2.556561,2.5564134,2.5561318,2.5557613,2.5553803,2.5550518,2.5548453,2.5547512,2.5547376,2.5547514,2.554768,2.5547795,2.5547771,2.55476,2.5547273,2.5546536,2.554495,2.5542495,2.5539465,2.553617,2.5532842,2.552957,2.5526419,2.552331,2.552022,2.5517159,2.5514026,2.5510793,2.5507624,2.5504522,2.5501833,2.5499806,2.54984,2.5497289,2.5496144,2.5494776,2.5492587,2.5489726,2.5486462,2.5482945,2.5479684,2.5477161,2.5475044,2.547294,2.5470498,2.5467205,2.5462546,2.5456376,2.54492,2.5441878,2.5434628,2.5426896,2.5419989,2.5415292,2.541215,2.5409033,2.5405192,2.5399656,2.53922,2.5383873,2.5375652,2.5368843,2.5364246,2.5361347,2.5359218,2.5357103,2.5354424,2.53511,2.5347402,2.5343788,2.5340536,2.5337486,2.5333889,2.5329595,2.5325105,2.5321035,2.531776,2.5315068,2.5312147,2.5308197,2.5302687,2.5295985,2.5289083,2.5282853,2.5277605,2.5273197,2.5268989,2.5264664,2.5260417,2.5256605,2.5253563,2.5251126,2.52489,2.5246916,2.5245147,2.5243454,2.524219,2.5241508,2.5241187,2.5241113,2.5241644,2.5242596,2.5244002,2.5246062,2.524863,2.5251532,2.5254714,2.5258226,2.526207,2.5266209,2.5270238,2.5273886,2.5276814,2.5278811,2.5280087,2.528071,2.5280375,2.5278933,2.5276546,2.5273893,2.5271864,2.5270858,2.5270991,2.5272245,2.5274272,2.5276754,2.5279305,2.5281765,2.5284116,2.5286212,2.528839,2.5290408,2.5291946,2.529285,2.5293152,2.5293038,2.5292945,2.5293162,2.5293796,2.529481,2.5295854,2.5296643,2.529705,2.5297093,2.5297132,2.5297446,2.5298042,2.529847,2.529827,2.529704,2.529461,2.529147,2.5287757,2.5283,2.527719,2.527075,2.5264323,2.5258453,2.525343,2.524897,2.5245101,2.5241728,2.5238986,2.5236602,2.523366,2.5229404,2.522345,2.5215688,2.5207093,2.5199547,2.5193949,2.5189424,2.5184433,2.5177932,2.5168998,2.515899,2.5149956,2.5143185,2.5138319,2.5133853,2.5128307,2.5121417,2.511396,2.5107408,2.5102053,2.509716,2.509189,2.5085628,2.5079222,2.5073752,2.5069437,2.5065303,2.5060678,2.5055838,2.5051377,2.5047793,2.50453,2.5043464,2.5040936,2.5037508,2.5034275,2.5032225,2.5032072,2.503334,2.503576,2.5037246,2.5037737,2.503841,2.503925,2.5040016,2.5039911,2.5037746,2.5033693,2.5028691,2.5024204,2.5021486,2.5020728,2.5020573,2.5020437,2.501959,2.5018272,2.501699,2.50158,2.5014498,2.5012345,2.5010371,2.500898,2.5008173,2.5007498,2.500627,2.5003967,2.5000663,2.499656,2.4992137,2.4988813,2.498768,2.4988403,2.4989607,2.4989934,2.499004,2.4989219,2.4988012,2.498409,2.4977293,2.4970894,2.4964752,2.4958096,2.4951468,2.4945989,2.4942012
2.5322738,2.5323462,2.532477,2.5326638,2.532898,2.5331066,2.5332355,2.5333934,2.5335722,2.5338185,2.5341449,2.534543,2.5349808,2.5354133,2.5357969,2.5360935,2.5363877,2.5366979,2.537065,2.537468,2.5378437,2.5381706,2.5384536,2.538723,2.538913,2.53907,2.5392494,2.539481,2.5397897,2.5401604,2.5405521,2.540914,2.5411968,2.5413837,2.5415192,2.5416703,2.5418491,2.5420866,2.542338,2.5425596,2.5427303,2.5428367,2.542873,2.5428355,2.542776,2.5426931,2.5426135,2.5425467,2.5424767,2.5423837,2.5422559,2.5420942,2.5418634,2.5415998,2.5413487,2.541157,2.541057,2.5410147,2.5409908,2.540945,2.5408072,2.5405211,2.5401263,2.5397022,2.5393176,2.5390468,2.538878,2.5387838,2.5387204,2.538672,2.538632,2.5385928,2.5385547,2.5385158,2.538448,2.5383034,2.5380778,2.5378013,2.5375085,2.5372276,2.5369666,2.5367286,2.5364954,2.5362558,2.5360117,2.5357594,2.5354955,2.535237,2.5349846,2.53477,2.534607,2.5345173,2.534474,2.534407,2.5342963,2.5340943,2.5338182,2.533501,2.5331602,2.5328457,2.5326226,2.5324957,2.5323672,2.5322058,2.531946,2.5315192,2.53092,2.5302277,2.529536,2.5288153,2.5280452,2.5273175,2.5267785,2.526398,2.52604,2.5256329,2.5250978,2.5244133,2.5236754,2.5229523,2.5223339,2.5218902,2.5216002,2.5213938,2.5211978,2.5209517,2.5206437,2.5202932,2.5199409,2.5196118,2.5192885,2.5188937,2.5184069,2.517875,2.5173783,2.5169768,2.5166602,2.5163507,2.5159616,2.5154238,2.514761,2.5140672,2.5134366,2.5129163,2.512507,2.5121517,2.5118213,2.5115302,2.511286,2.5110903,2.5109067,2.5106921,2.510461,2.5102262,2.5099835,2.5097802,2.5096416,2.5095577,2.5095243,2.5095696,2.5096726,2.5098357,2.510067,2.5103421,2.510641,2.5109649,2.511321,2.511712,2.5121355,2.5125499,2.5129237,2.5132217,2.5134244,2.513558,2.5136292,2.5136166,2.5135105,2.5133338,2.5131507,2.5130377,2.513021,2.513104,2.513287,2.513534,2.5138106,2.5140815,2.5143344,2.514571,2.5147855,2.5150173,2.5152454,2.5154452,2.515592,2.5156808,2.5157242,2.5157566,2.5158052,2.5158858,2.515995,2.5161033,2.5161777,2.5162,2.5161743,2.5161316,2.5161018,2.5160885,2.5160568,2.5159683,2.5157862,2.515496,2.5151486,2.5147502,2.5142574,2.5136657,2.513011,2.5123532,2.5117455,2.5112185,2.510744,2.510316,2.509924,2.5095873,2.5092907,2.5089583,2.5085216,2.5079393,2.5071943,2.5063741,2.5056627,2.5051508,2.5047545,2.5043206,2.5037324,2.502894,2.5019317,2.5010395,2.500358,2.4998698,2.4994283,2.4988842,2.4982057,2.497468,2.4968112,2.4962678,2.49577,2.4952319,2.4945924,2.4939322,2.493387,2.492958,2.4925227,2.4920287,2.4915266,2.4910483,2.4906626,2.490396,2.490209,2.4899623,2.489625,2.489302,2.4891005,2.4891024,2.4892702,2.489572,2.4897976,2.489912,2.4900155,2.4901323,2.4902596,2.490304,2.4901552,2.489824,2.4894009,2.489029,2.4888213,2.4887853,2.4887958,2.4887779,2.4886694,2.4885035,2.488337,2.488185,2.488039,2.487824,2.487636,2.4875026,2.487415,2.4873257,2.487167,2.486891,2.4865139,2.4860542,2.4855604,2.4851875,2.485042,2.4850864,2.4851894,2.4852238,2.4852462,2.4851816,2.4850843,2.4847393,2.484137,2.4835806,2.4830182,2.482366,2.4817085,2.481182,2.4808407
2.5187416,2.518802,2.5189214,2.51911,2.519379,2.519659,2.5198762,2.5201213,2.520386,2.520711,2.5211058,2.521553,2.522018,2.5224466,2.5227747,2.5229778,2.5231512,2.5233083,2.5235286,2.5238101,2.5240815,2.5243206,2.5245268,2.5247276,2.5248613,2.5249739,2.5251198,2.5253282,2.5256243,2.525991,2.5263736,2.5267248,2.5269828,2.527121,2.5271897,2.52727,2.5273833,2.5275598,2.527753,2.5279183,2.5280282,2.5280771,2.5280728,2.5280151,2.5279498,2.527868,2.5277898,2.5277214,2.5276425,2.5275292,2.5273738,2.5271764,2.5269032,2.5266066,2.5263412,2.5261579,2.5260856,2.5260854,2.5261114,2.5261197,2.52604,2.5258117,2.5254622,2.5250635,2.524685,2.524398,2.5241902,2.524036,2.5239038,2.5237842,2.5236726,2.5235677,2.5234694,2.523377,2.5232596,2.523071,2.5228155,2.5225265,2.5222447,2.5220056,2.5218096,2.5216525,2.5215054,2.521339,2.5211513,2.5209432,2.5207167,2.5204906,2.5202696,2.5200815,2.51996,2.5199294,2.5199409,2.519907,2.519806,2.5196204,2.5193617,2.519065,2.5187478,2.5184417,2.5182076,2.5180938,2.518011,2.5179152,2.5177178,2.5173213,2.5167532,2.516108,2.5154161,2.514695,2.5139284,2.5131993,2.5125985,2.5121408,2.5117574,2.5113509,2.510857,2.5102634,2.5096483,2.5090477,2.5085115,2.508092,2.507792,2.507593,2.5074043,2.5071704,2.5068758,2.5065317,2.506176,2.5058315,2.5054772,2.5050364,2.5044818,2.5038571,2.5032597,2.5027704,2.5023942,2.5020618,2.5016809,2.5011702,2.5005429,2.4998813,2.4992814,2.4988015,2.4984467,2.498169,2.497936,2.4977508,2.4975996,2.4974618,2.4972959,2.4970694,2.496807,2.4965334,2.496255,2.4960299,2.4958715,2.49577,2.4957395,2.4958034,2.4959345,2.4961345,2.496397,2.4966884,2.4969852,2.4972925,2.4976223,2.4979854,2.4983778,2.498765,2.4991207,2.4994082,2.4996042,2.499735,2.4998093,2.4998121,2.4997458,2.4996388,2.4995441,2.4995213,2.4995828,2.4997206,2.499934,2.5001943,2.5004604,2.5007014,2.5009165,2.5011144,2.5012937,2.5014997,2.501717,2.5019326,2.5021179,2.5022597,2.5023618,2.5024393,2.5025196,2.5026186,2.5027304,2.5028327,2.50289,2.5028787,2.5028055,2.5026965,2.5025847,2.5024786,2.5023572,2.502193,2.5019526,2.501624,2.5012574,2.5008507,2.500368,2.4997997,2.499174,2.498544,2.4979568,2.4974403,2.4969635,2.4965127,2.4960785,2.4956822,2.4953213,2.494938,2.4944725,2.493888,2.4931571,2.4923582,2.4916706,2.4911866,2.4908307,2.4904542,2.4899313,2.4891596,2.4882488,2.487378,2.4866896,2.486184,2.485725,2.4851692,2.4844832,2.4837384,2.4830728,2.482522,2.4820223,2.4814892,2.4808588,2.4802053,2.4796934,2.4792957,2.478858,2.4783454,2.4778314,2.4773252,2.4769135,2.476625,2.476429,2.4761853,2.4758568,2.475542,2.4753528,2.4753838,2.4755983,2.4759727,2.4762735,2.4764338,2.4765525,2.4766784,2.4768279,2.4769192,2.4768434,2.4765983,2.4762669,2.4759827,2.4758425,2.4758344,2.4758615,2.4758391,2.475716,2.4755306,2.4753351,2.475151,2.4749918,2.4747796,2.4746077,2.4744916,2.4744146,2.4743276,2.4741607,2.4738657,2.4734669,2.4729753,2.4724362,2.4720368,2.4718604,2.471852,2.471922,2.471934,2.4719439,2.471867,2.4717627,2.4714422,2.4708934,2.4703813,2.4698482,2.4692292,2.4685936,2.4680939,2.4678063
2.5057774,2.505821,2.505923,2.5060997,2.5063772,2.5066917,2.5069587,2.5072546,2.507574,2.5079544,2.508398,2.5088706,2.5093248,2.5097117,2.5099764,2.5100985,2.5101802,2.510263,2.5104191,2.5106342,2.5108392,2.511024,2.5111842,2.5113487,2.5114627,2.5115676,2.5117154,2.5119262,2.512213,2.5125484,2.5128953,2.5132108,2.5134225,2.5134993,2.5134935,2.5134945,2.513536,2.5136452,2.5137782,2.5138917,2.5139523,2.5139594,2.5139325,2.5138721,2.5138206,2.5137634,2.5137117,2.5136623,2.513589,2.5134692,2.5132983,2.513081,2.512786,2.5124786,2.5122218,2.512066,2.5120366,2.5120916,2.5121794,2.5122576,2.5122585,2.5121226,2.511866,2.5115483,2.511232,2.510981,2.5107827,2.5106125,2.51045,2.5102897,2.5101316,2.5099761,2.5098262,2.5096765,2.5094962,2.5092456,2.5089374,2.508614,2.5083232,2.508109,2.507959,2.5078619,2.5077791,2.5076642,2.5075057,2.5073106,2.5070899,2.5068645,2.5066538,2.5064764,2.506404,2.5064154,2.5064287,2.506399,2.506314,2.506156,2.5059261,2.5056562,2.505362,2.505074,2.504839,2.5046663,2.5045733,2.5044942,2.5043259,2.5039594,2.5034318,2.5028276,2.5021324,2.501421,2.5006647,2.499937,2.499301,2.4987912,2.4983845,2.497994,2.4975486,2.4970512,2.4965513,2.4960508,2.4955883,2.4952004,2.4948869,2.4946904,2.4944997,2.4942703,2.49398,2.4936337,2.4932678,2.4929051,2.4925215,2.492043,2.491438,2.4907439,2.4900694,2.4895124,2.4890895,2.4887424,2.4883776,2.487905,2.48733,2.486721,2.4861727,2.4857478,2.4854527,2.4852467,2.485093,2.4849763,2.4848704,2.4847426,2.484557,2.484303,2.4840155,2.483726,2.48345,2.4832492,2.4831188,2.483039,2.4830384,2.4831433,2.4833195,2.4835677,2.483869,2.4841778,2.4844716,2.4847593,2.4850576,2.485382,2.4857316,2.48608,2.4864094,2.4866805,2.4868665,2.4869883,2.4870534,2.4870567,2.4870105,2.486946,2.4869094,2.4869442,2.4870515,2.4872131,2.4874268,2.4876716,2.4878967,2.4880748,2.4882202,2.4883528,2.488475,2.4886317,2.4888144,2.4890203,2.48922,2.4893937,2.4895356,2.4896407,2.489739,2.4898415,2.489943,2.490027,2.490058,2.49001,2.4898896,2.4897165,2.4895267,2.4893346,2.4891334,2.4889057,2.4886212,2.4882724,2.4879045,2.4875078,2.4870584,2.486541,2.4859772,2.4854126,2.4848833,2.4844098,2.4839587,2.483511,2.4830542,2.4826112,2.4821906,2.4817548,2.4812517,2.4806504,2.4799166,2.4791176,2.4784274,2.4779434,2.4776006,2.4772592,2.4767864,2.4760747,2.4752135,2.4743648,2.473668,2.473137,2.4726532,2.4720817,2.4713893,2.4706385,2.4699667,2.4694128,2.4689183,2.468401,2.4677954,2.4671712,2.4666824,2.4663043,2.4659054,2.4654298,2.464916,2.4643984,2.4639745,2.4636693,2.4634626,2.4632163,2.4628873,2.462573,2.4623876,2.4624383,2.4626858,2.4631197,2.46346,2.4636307,2.4637518,2.463873,2.4640083,2.4641213,2.4641032,2.463935,2.463687,2.463482,2.4634004,2.4634228,2.463458,2.463436,2.4633179,2.4631205,2.4628968,2.4626956,2.4625301,2.4623299,2.4621816,2.4620929,2.4620442,2.4619825,2.4618359,2.4615498,2.4611554,2.460654,2.4600935,2.45968,2.4594774,2.4594193,2.45945,2.4594254,2.4594011,2.45929,2.4591553,2.4588377,2.4583173,2.4578195,2.4572995,2.4567032,2.4560852,2.4555972,2.4553397
2.493671,2.4936907,2.493764,2.4939156,2.4941783,2.494492,2.4947648,2.4950647,2.495387,2.4957676,2.4962072,2.4966717,2.4971008,2.497436,2.4976377,2.4977055,2.4977531,2.4978194,2.4979577,2.4981513,2.4983416,2.4985147,2.4986649,2.4988246,2.4989457,2.4990616,2.4992168,2.4994326,2.49972,2.500052,2.5003822,2.500648,2.5007818,2.5007777,2.5006974,2.5006187,2.500589,2.5006337,2.5007105,2.5007753,2.500792,2.5007615,2.500711,2.5006413,2.5005925,2.5005457,2.500512,2.5004733,2.5004003,2.5002754,2.5000937,2.4998686,2.4995697,2.4992719,2.499043,2.4989302,2.498951,2.4990616,2.4992085,2.4993534,2.4994364,2.4993997,2.4992533,2.4990435,2.4988232,2.4986465,2.4985003,2.4983625,2.4982185,2.4980683,2.497914,2.4977565,2.4975955,2.4974236,2.4972067,2.49691,2.4965553,2.496194,2.4958823,2.4956703,2.4955368,2.4954638,2.4954062,2.495305,2.4951434,2.4949324,2.4946902,2.4944453,2.494245,2.4941058,2.4940395,2.4940388,2.4940557,2.4940343,2.4939651,2.4938197,2.4935985,2.4933362,2.4930413,2.492742,2.492498,2.4923296,2.4921973,2.4920716,2.4918778,2.4915547,2.4910765,2.490467,2.4897966,2.4891067,2.488367,2.4876442,2.487002,2.4864569,2.4860039,2.4856176,2.4852042,2.484773,2.4843554,2.4839344,2.4835281,2.4831681,2.4828632,2.4826577,2.482459,2.4822245,2.4819298,2.481577,2.4811997,2.480821,2.4804163,2.479919,2.4792871,2.478556,2.4778388,2.4772425,2.476792,2.4764385,2.4760933,2.4756615,2.4751413,2.4745922,2.4741051,2.473744,2.473517,2.473385,2.4733057,2.473247,2.47317,2.4730377,2.4728255,2.4725466,2.472249,2.471968,2.4717236,2.4715495,2.471458,2.4714396,2.4714909,2.4716318,2.4718456,2.472133,2.472466,2.4727876,2.4730792,2.473359,2.473641,2.4739397,2.4742622,2.4745889,2.4748912,2.4751344,2.4753017,2.4754152,2.4754765,2.4754834,2.475435,2.4753704,2.4753408,2.4753876,2.475503,2.4756634,2.4758654,2.4760747,2.4762459,2.4763603,2.4764338,2.4764938,2.4765701,2.4766817,2.476829,2.4770167,2.4772143,2.4773998,2.4775581,2.4776688,2.4777608,2.4778461,2.477922,2.477978,2.4779835,2.47791,2.4777598,2.4775486,2.4773107,2.4770634,2.4768114,2.4765434,2.4762335,2.4758759,2.4755125,2.4751296,2.4747155,2.4742522,2.473758,2.4732704,2.4728136,2.472402,2.4719977,2.4715743,2.4711165,2.4706473,2.4701862,2.4697106,2.4691787,2.4685597,2.467813,2.467,2.466289,2.465779,2.4654174,2.4650767,2.4646235,2.4639442,2.4631147,2.4622793,2.4615755,2.461026,2.4605308,2.4599583,2.4592762,2.45854,2.4578798,2.4573367,2.456856,2.456358,2.4557786,2.4551902,2.4547086,2.4543371,2.4539902,2.4535782,2.4530816,2.452571,2.4521523,2.4518442,2.4516306,2.4513733,2.4510288,2.4506977,2.4505,2.4505484,2.4508061,2.45124,2.451573,2.4517274,2.4518223,2.4519227,2.4520507,2.4521549,2.4521582,2.4520328,2.45184,2.451692,2.4516568,2.451719,2.4517856,2.4517896,2.4516854,2.451491,2.4512691,2.451073,2.450915,2.4507322,2.450612,2.4505572,2.450544,2.450519,2.4504054,2.4501467,2.4497724,2.4492784,2.4487314,2.448308,2.448074,2.4479861,2.4479866,2.4479327,2.447877,2.447733,2.447569,2.4472504,2.4467597,2.4462948,2.4457917,2.445189,2.4445572,2.4440527,2.4437923
2.4816837,2.4816976,2.481741,2.4818478,2.482071,2.482356,2.482602,2.4828696,2.483151,2.4834864,2.4838786,2.4842958,2.4846792,2.4849682,2.485131,2.485166,2.4851985,2.4852695,2.4854293,2.4856503,2.4858663,2.4860597,2.4862282,2.4864087,2.4865537,2.4866924,2.486876,2.4871192,2.4874055,2.487718,2.4880092,2.4882207,2.4882815,2.4881854,2.488008,2.4878445,2.4877384,2.4877172,2.487739,2.4877596,2.4877381,2.4876752,2.4876008,2.487516,2.4874618,2.487421,2.4874039,2.4873812,2.4873168,2.4871974,2.4870195,2.4868033,2.4865212,2.4862533,2.4860692,2.48601,2.4860878,2.4862585,2.4864671,2.4866815,2.4868462,2.4869127,2.4868855,2.4868026,2.4867072,2.486638,2.4865794,2.4865115,2.486425,2.486321,2.4862018,2.4860718,2.485929,2.4857697,2.4855473,2.4852335,2.4848588,2.4844785,2.4841537,2.4839334,2.4837918,2.4837022,2.4836354,2.4835248,2.4833424,2.4831033,2.4828334,2.4825644,2.4823244,2.4821424,2.482039,2.482006,2.4819956,2.481954,2.4818783,2.4817362,2.481525,2.481269,2.480968,2.4806528,2.4803905,2.4802105,2.4800735,2.4799466,2.4797642,2.479444,2.4789622,2.4783616,2.477703,2.477028,2.4762979,2.4755719,2.4749088,2.4743237,2.4738364,2.4734583,2.4730713,2.472692,2.4723387,2.4719782,2.4716148,2.4712815,2.4709916,2.4707813,2.4705753,2.4703345,2.4700341,2.4696712,2.4692802,2.4688883,2.4684715,2.4679651,2.467327,2.4665852,2.465853,2.465239,2.4647756,2.464425,2.4641018,2.4637144,2.463255,2.4627728,2.4623537,2.462061,2.461899,2.461836,2.461823,2.4618087,2.461749,2.4616055,2.461368,2.4610748,2.4607825,2.460525,2.460332,2.4602199,2.460188,2.4602237,2.4603233,2.4605026,2.460754,2.461077,2.4614382,2.4617953,2.4621105,2.4623713,2.4626117,2.4628687,2.4631495,2.463438,2.4637089,2.4639285,2.4640808,2.4641848,2.464235,2.464233,2.4641771,2.4641027,2.4640634,2.4640975,2.4641912,2.4643219,2.4644794,2.4646354,2.4647477,2.4648015,2.464824,2.4648476,2.4648838,2.4649584,2.4650726,2.4652367,2.4654179,2.465592,2.465738,2.4658263,2.4658866,2.4659305,2.4659564,2.4659672,2.4659388,2.4658415,2.4656715,2.4654386,2.4651735,2.4648964,2.4646177,2.464332,2.4640145,2.46366,2.4633083,2.4629455,2.4625692,2.462162,2.4617434,2.4613435,2.4609714,2.4606357,2.4602938,2.45991,2.4594681,2.4589872,2.458496,2.4579866,2.457425,2.4567885,2.4560237,2.4551904,2.4544463,2.4538922,2.4534907,2.453129,2.4526737,2.452013,2.4512057,2.4503837,2.44968,2.4491253,2.4486313,2.448074,2.447421,2.4467196,2.4460893,2.445569,2.4451098,2.4446363,2.4440885,2.4435368,2.4430916,2.4427562,2.442449,2.4420786,2.4416187,2.4411378,2.440741,2.440447,2.4402308,2.4399555,2.4395783,2.439205,2.4389722,2.4389944,2.4392264,2.4396276,2.4399242,2.4400358,2.4400835,2.440146,2.4402475,2.4403367,2.4403396,2.4402313,2.4400702,2.4399583,2.4399529,2.4400463,2.4401467,2.4401877,2.4401221,2.4399614,2.4397647,2.4395907,2.439454,2.439297,2.4392123,2.4391966,2.4392235,2.439239,2.4391646,2.4389377,2.438591,2.438116,2.4375854,2.4371617,2.436914,2.4368112,2.4367933,2.4367158,2.4366336,2.4364595,2.4362705,2.4359546,2.4354956,2.4350607,2.4345713,2.4339602,2.4333,2.4327538,2.4324589
2.4689522,2.468957,2.4689808,2.469065,2.469261,2.469502,2.4696832,2.4698763,2.4700727,2.470316,2.4706128,2.470942,2.471249,2.4714744,2.4715939,2.4716048,2.4716387,2.4717398,2.4719503,2.4722285,2.4724965,2.4727323,2.4729362,2.4731483,2.473328,2.4735007,2.4737139,2.473975,2.474259,2.4745588,2.474826,2.4750133,2.4750323,2.4748464,2.4745638,2.4743385,2.4741707,2.4741044,2.4740982,2.4741063,2.47408,2.474011,2.4739234,2.473821,2.4737475,2.4736924,2.4736657,2.473631,2.4735503,2.473415,2.4732227,2.4729996,2.4727159,2.4724545,2.4722872,2.472251,2.472354,2.472552,2.4727883,2.4730327,2.473265,2.4734344,2.473531,2.4735758,2.4735994,2.4736314,2.4736557,2.4736533,2.4736218,2.4735663,2.4734924,2.473401,2.4732828,2.473131,2.4729052,2.4725866,2.4722114,2.4718363,2.4715185,2.471302,2.4711628,2.4710774,2.4710002,2.4708633,2.4706469,2.4703703,2.4700618,2.469752,2.4694607,2.4692223,2.4690616,2.4689753,2.4689195,2.4688501,2.4687715,2.4686484,2.4684732,2.468257,2.4679842,2.4676814,2.4674222,2.4672463,2.4671173,2.4670024,2.466833,2.4665213,2.4660473,2.465465,2.4648304,2.46418,2.4634695,2.4627454,2.4620614,2.4614367,2.4609115,2.4605217,2.4601412,2.4597902,2.4594822,2.4591732,2.458857,2.458565,2.4583077,2.4581082,2.4579067,2.4576669,2.457357,2.4569738,2.456556,2.4561374,2.4557016,2.4551885,2.454556,2.453827,2.4531069,2.4525008,2.452045,2.4517107,2.4514208,2.4510899,2.4507055,2.4503052,2.4499643,2.4497385,2.4496303,2.449615,2.4496422,2.449654,2.4496036,2.449452,2.449201,2.4489088,2.448636,2.448414,2.4482784,2.4482284,2.4482486,2.4483228,2.4484491,2.4486437,2.4489076,2.4492412,2.449617,2.4499784,2.450276,2.450501,2.450695,2.4509063,2.451142,2.451394,2.451641,2.4518495,2.4520028,2.4521139,2.4521713,2.452176,2.4521227,2.4520469,2.4520001,2.452023,2.4521017,2.4522157,2.452352,2.4524846,2.4525762,2.452629,2.4526675,2.4526978,2.4527292,2.452797,2.452901,2.4530509,2.45321,2.453351,2.4534526,2.4534845,2.4534779,2.4534433,2.4533882,2.453322,2.45323,2.4530854,2.4528813,2.4526238,2.4523354,2.45204,2.4517484,2.451455,2.4511378,2.4507904,2.4504464,2.4500954,2.4497397,2.4493678,2.4490035,2.4486732,2.4483733,2.4481034,2.4478154,2.4474664,2.4470365,2.4465425,2.4460216,2.445481,2.444891,2.4442377,2.4434612,2.442614,2.4418435,2.4412475,2.4408019,2.44041,2.4399457,2.4393,2.4385211,2.4377263,2.437038,2.4364922,2.4360151,2.4354897,2.4348898,2.4342532,2.4336839,2.4332175,2.4328089,2.4323864,2.4318933,2.4313965,2.4310007,2.430705,2.4304361,2.4301083,2.4296937,2.4292521,2.4288888,2.4286122,2.428384,2.4280696,2.427629,2.4271812,2.4268851,2.426858,2.4270508,2.4273915,2.427639,2.4277163,2.4277282,2.4277627,2.4278421,2.4279256,2.4279375,2.4278452,2.4277067,2.427621,2.4276385,2.427756,2.4278889,2.4279761,2.4279656,2.4278603,2.427711,2.4275746,2.4274702,2.4273481,2.4272993,2.4273214,2.4273844,2.4274297,2.4273782,2.4271684,2.4268365,2.426377,2.425854,2.425425,2.4251738,2.4250727,2.4250455,2.4249563,2.4248476,2.4246407,2.424419,2.4240959,2.4236574,2.4232392,2.42275,2.4221153,2.4214425,2.420879,2.4205503
2.4559639,2.455972,2.4559984,2.4560823,2.456257,2.4564443,2.456544,2.4566388,2.4567237,2.4568481,2.4570227,2.4572406,2.457456,2.4576097,2.4576838,2.4576745,2.4577165,2.4578543,2.4581206,2.4584622,2.4587898,2.4590733,2.4593112,2.4595516,2.4597597,2.4599612,2.4601893,2.4604485,2.4607334,2.4610405,2.4613194,2.4615076,2.4615152,2.4612975,2.460956,2.4606671,2.4604836,2.4604135,2.4604225,2.4604607,2.4604695,2.4604232,2.4603338,2.460209,2.4600964,2.459989,2.4599051,2.4598122,2.459675,2.459487,2.4592485,2.4589844,2.458684,2.458409,2.45822,2.4581532,2.4582179,2.4583788,2.4585984,2.4588323,2.4590673,2.4592714,2.4594371,2.4595718,2.4596882,2.4598007,2.459899,2.4599693,2.4599977,2.4599872,2.459947,2.459882,2.4597802,2.4596345,2.4594126,2.4591014,2.458739,2.4583802,2.4580772,2.457871,2.4577384,2.457643,2.4575434,2.4573936,2.4571767,2.4568987,2.456585,2.4562593,2.4559374,2.455651,2.45543,2.4552777,2.455164,2.4550638,2.4549842,2.4548922,2.4547744,2.4546232,2.4544067,2.4541433,2.4539084,2.4537518,2.4536428,2.4535456,2.4533908,2.453095,2.4526458,2.4521003,2.4515104,2.4509048,2.450234,2.449532,2.4488435,2.4482048,2.4476652,2.4472485,2.4468613,2.4465153,2.4462283,2.4459581,2.4456909,2.4454494,2.4452386,2.4450626,2.444874,2.444632,2.444303,2.4438848,2.4434223,2.4429593,2.442492,2.4419634,2.4413362,2.4406304,2.4399376,2.4393544,2.43892,2.438611,2.4383612,2.4380975,2.437803,2.437501,2.4372506,2.4370944,2.4370356,2.437056,2.4371111,2.4371448,2.4371104,2.4369736,2.4367423,2.4364815,2.4362507,2.43608,2.4360008,2.4359975,2.4360418,2.4361153,2.4362202,2.436381,2.43661,2.4369087,2.4372458,2.437551,2.4377837,2.4379544,2.4380999,2.4382687,2.4384694,2.4386973,2.4389353,2.439154,2.4393327,2.439478,2.439569,2.439611,2.4395914,2.4395423,2.4395149,2.4395518,2.4396453,2.4397745,2.439928,2.4400883,2.4402232,2.4403324,2.4404283,2.4405103,2.4405851,2.4406862,2.4408128,2.4409685,2.4411135,2.4412177,2.4412608,2.4412217,2.441132,2.4410045,2.4408498,2.4406857,2.440506,2.44029,2.4400342,2.4397418,2.4394267,2.4391155,2.4388149,2.438516,2.4381943,2.4378417,2.437488,2.4371252,2.4367568,2.436377,2.4360194,2.4357123,2.4354436,2.435206,2.434943,2.4346046,2.4341674,2.4336498,2.4330988,2.4325314,2.431922,2.4312603,2.4304872,2.429645,2.4288683,2.4282494,2.4277694,2.4273484,2.4268703,2.4262376,2.425487,2.424724,2.4240584,2.4235272,2.4230707,2.4225817,2.4220438,2.4214869,2.4209986,2.4206097,2.4202776,2.4199333,2.419519,2.4190967,2.4187603,2.4185028,2.4182596,2.4179597,2.417582,2.417178,2.4168458,2.4165833,2.4163327,2.4159613,2.4154394,2.4149015,2.4145324,2.4144516,2.4146075,2.4149132,2.415122,2.4151711,2.4151773,2.4152174,2.4153016,2.415395,2.41542,2.4153404,2.4152155,2.4151454,2.41518,2.4153123,2.4154701,2.4156022,2.4156532,2.4156134,2.415523,2.4154334,2.4153647,2.415275,2.4152575,2.415309,2.4153914,2.4154425,2.4153855,2.415164,2.4148185,2.4143515,2.4138277,2.4133868,2.4131136,2.4129996,2.4129775,2.4128995,2.4128022,2.4126003,2.41236,2.4120173,2.4115777,2.411161,2.4106793,2.41006,2.4093843,2.4088,2.4084291
2.4431505,2.4431767,2.4432278,2.4433308,2.4435015,2.4436526,2.443694,2.4437153,2.443717,2.4437542,2.443842,2.4439845,2.4441411,2.444249,2.4442956,2.4442735,2.4443195,2.4444773,2.444775,2.4451556,2.4455214,2.4458356,2.4460945,2.4463525,2.4465783,2.4467993,2.447037,2.4472935,2.4475799,2.4478989,2.4481997,2.448401,2.4484208,2.44822,2.447874,2.4475427,2.4473357,2.4472854,2.4473314,2.447416,2.4474735,2.4474592,2.4473712,2.4472234,2.4470673,2.4469244,2.4467967,2.446651,2.4464593,2.446218,2.4459338,2.4456272,2.445289,2.4449658,2.4447145,2.4445724,2.444562,2.4446678,2.4448414,2.4450374,2.445231,2.4454048,2.445568,2.4457319,2.445898,2.4460635,2.4462166,2.4463348,2.4463973,2.4464083,2.446378,2.4463134,2.4462123,2.4460635,2.4458432,2.4455404,2.4451942,2.4448562,2.4445703,2.4443705,2.4442332,2.4441109,2.4439778,2.4438028,2.4435706,2.4432826,2.4429598,2.4426317,2.442307,2.4419935,2.4417267,2.441518,2.441354,2.441233,2.4411633,2.4411144,2.4410665,2.440988,2.4408307,2.440606,2.4403906,2.440245,2.440147,2.440059,2.4399128,2.4396305,2.4392076,2.438703,2.4381638,2.437613,2.4369998,2.43635,2.4356995,2.435103,2.4346006,2.4341733,2.4337826,2.4334292,2.433144,2.4328945,2.4326627,2.4324622,2.4322903,2.432139,2.431963,2.4317174,2.4313674,2.4309137,2.4304075,2.4299002,2.4294014,2.4288554,2.428235,2.427558,2.4269001,2.4263456,2.4259324,2.4256444,2.4254274,2.4252262,2.4250236,2.424829,2.4246793,2.4245982,2.4245827,2.4246233,2.4246879,2.4247327,2.4247193,2.4246204,2.4244425,2.424244,2.4240782,2.4239721,2.4239511,2.423989,2.424047,2.424104,2.4241676,2.424272,2.4244394,2.4246726,2.4249341,2.4251542,2.4253044,2.4254048,2.4254904,2.4256096,2.4257705,2.4259734,2.4262078,2.4264488,2.4266748,2.4268847,2.4270444,2.4271615,2.427214,2.427223,2.427239,2.42731,2.4274344,2.4275975,2.4277897,2.428,2.4282026,2.4283826,2.428545,2.4286954,2.428833,2.4289854,2.4291472,2.4293168,2.429454,2.4295263,2.4295187,2.4294248,2.4292731,2.429078,2.4288487,2.4286036,2.42834,2.428045,2.4277234,2.4273825,2.4270303,2.4266932,2.4263732,2.4260564,2.4257169,2.4253447,2.4249663,2.4245744,2.4241664,2.4237432,2.4233494,2.4230175,2.4227343,2.4224894,2.422214,2.4218545,2.4213862,2.4208326,2.420249,2.4196572,2.4190345,2.4183702,2.4176068,2.4167805,2.4160082,2.4153745,2.414864,2.4144082,2.4139056,2.4132752,2.4125457,2.4118083,2.4111605,2.4106374,2.410189,2.4097223,2.4092326,2.4087415,2.4083228,2.4080026,2.4077423,2.407474,2.4071393,2.4067912,2.4065082,2.4062781,2.4060457,2.4057605,2.4054134,2.4050474,2.404747,2.404499,2.4042268,2.4038022,2.4032097,2.4025989,2.4021757,2.4020634,2.4022045,2.402522,2.4027429,2.4028087,2.4028513,2.4029331,2.403049,2.4031734,2.403225,2.4031706,2.4030647,2.4030056,2.4030437,2.4031668,2.4033184,2.4034579,2.4035325,2.4035234,2.4034612,2.403393,2.4033382,2.4032621,2.4032621,2.4033334,2.4034266,2.4034724,2.4033957,2.4031456,2.40277,2.4022808,2.4017522,2.4013073,2.4010224,2.400904,2.4008949,2.400844,2.4007697,2.4005814,2.4003267,2.3999662,2.3995268,2.3991203,2.398662,2.3980865,2.3974283,2.3968434,2.3964567
2.4308386,2.4308894,2.4309733,2.4311104,2.4313025,2.4314551,2.431484,2.431489,2.431472,2.4314933,2.4315703,2.4317107,2.4318707,2.4319813,2.4320297,2.4320056,2.4320443,2.4321933,2.4324846,2.4328618,2.4332287,2.4335465,2.433812,2.4340796,2.43432,2.4345584,2.434811,2.4350748,2.4353604,2.435681,2.4359937,2.4362168,2.436268,2.436104,2.4357913,2.4354737,2.4352434,2.435213,2.4352942,2.4354243,2.4355273,2.4355536,2.4354959,2.4353528,2.4351797,2.4350264,2.4348772,2.4346967,2.4344697,2.4342008,2.4338903,2.4335537,2.4331555,2.4327512,2.4324083,2.432177,2.4320965,2.4321537,2.4322686,2.4324095,2.4325514,2.4326692,2.4327843,2.4329221,2.4330835,2.4332573,2.433422,2.4335363,2.4335873,2.433586,2.4335408,2.4334588,2.4333405,2.4331732,2.432941,2.432634,2.432294,2.4319687,2.431691,2.4314837,2.431324,2.4311733,2.4310021,2.430778,2.4304972,2.4301713,2.4298205,2.4294806,2.4291465,2.428824,2.428538,2.4282994,2.4281096,2.4279852,2.4279366,2.4279304,2.4279537,2.4279442,2.4278326,2.4276257,2.4274049,2.4272451,2.427134,2.4270363,2.4268851,2.4266055,2.426196,2.4257169,2.4252152,2.424713,2.4241638,2.4235876,2.4230392,2.4225554,2.422131,2.4217346,2.4213576,2.4209976,2.4207025,2.4204502,2.4202268,2.4200401,2.41988,2.4197333,2.419553,2.4192996,2.4189365,2.4184656,2.417938,2.4174097,2.4168956,2.4163454,2.4157414,2.4151013,2.4144857,2.4139628,2.4135666,2.4132876,2.413086,2.412929,2.4128075,2.4127183,2.4126728,2.412668,2.4126873,2.4127274,2.412776,2.4128094,2.4128096,2.4127562,2.4126492,2.4125295,2.4124403,2.4124048,2.4124472,2.412534,2.412619,2.412677,2.4127176,2.4127793,2.4128895,2.413053,2.4132352,2.4133735,2.4134412,2.4134622,2.4134767,2.4135327,2.4136395,2.413807,2.4140325,2.4142976,2.4145854,2.4148846,2.415144,2.41537,2.4155245,2.4156146,2.415687,2.4157968,2.4159517,2.4161456,2.4163737,2.4166245,2.416875,2.4171083,2.417327,2.4175346,2.4177241,2.417921,2.41812,2.4183073,2.4184399,2.4184887,2.418445,2.4183192,2.418141,2.4179287,2.4176798,2.417398,2.4170766,2.4167109,2.416319,2.4159174,2.4155126,2.4151316,2.4147706,2.414414,2.414039,2.413634,2.4132228,2.4127939,2.4123356,2.411852,2.4113944,2.4110036,2.410669,2.410381,2.4100604,2.4096508,2.40913,2.4085317,2.4079149,2.4073014,2.4066677,2.406001,2.4052467,2.4044337,2.4036658,2.4030166,2.4024725,2.4019723,2.4014344,2.4007888,2.400066,2.3993397,2.3986957,2.3981662,2.3977065,2.3972397,2.3967705,2.3963134,2.3959289,2.3956435,2.395424,2.3952055,2.3949292,2.3946357,2.394388,2.3941689,2.3939345,2.3936582,2.3933406,2.3930142,2.392749,2.3925185,2.392235,2.391779,2.3911476,2.3905046,2.3900666,2.3899603,2.3901215,2.3904886,2.3907785,2.390921,2.3910413,2.3911934,2.3913643,2.391542,2.391647,2.3916435,2.3915715,2.391522,2.3915484,2.3916304,2.3917327,2.3918219,2.3918576,2.3918192,2.3917294,2.3916345,2.3915586,2.3914688,2.3914688,2.3915515,2.3916569,2.3917024,2.3916092,2.391332,2.3909292,2.3904204,2.3898857,2.3894491,2.3891833,2.389084,2.3890915,2.3890686,2.3890014,2.3888063,2.3885324,2.3881626,2.3877382,2.38736,2.3869362,2.3864064,2.3857937,2.3852553,2.3849084
2.4192617,2.4193354,2.419449,2.4196196,2.4198418,2.4200172,2.42007,2.420106,2.4201221,2.4201856,2.4203098,2.4204988,2.4207041,2.4208527,2.4209206,2.4208994,2.4209175,2.42103,2.42128,2.4216204,2.4219575,2.422255,2.4225144,2.4227877,2.4230409,2.4232945,2.4235575,2.4238203,2.4241,2.4244165,2.4247403,2.424988,2.4250808,2.424971,2.4247165,2.424457,2.4242868,2.4242778,2.424391,2.4245706,2.4247284,2.4248166,2.4248278,2.424727,2.424567,2.4243689,2.4241586,2.4239192,2.4236476,2.4233556,2.4230216,2.4226413,2.4221835,2.4217038,2.4212723,2.420968,2.4208336,2.4208193,2.420873,2.4209516,2.4210281,2.4210782,2.4211273,2.421205,2.4213123,2.421441,2.421567,2.4216478,2.4216685,2.42164,2.4215708,2.4214654,2.4213254,2.4211357,2.4208822,2.4205594,2.4202063,2.419868,2.4195733,2.4193392,2.4191487,2.4189596,2.4187498,2.418494,2.4181933,2.417863,2.417518,2.4171748,2.4168105,2.4164858,2.4162068,2.415967,2.4157774,2.4156632,2.415634,2.4156518,2.4157238,2.415763,2.415679,2.4154727,2.4152317,2.4150429,2.4149046,2.4147842,2.4146204,2.4143362,2.413927,2.4134579,2.4129791,2.4125142,2.4120228,2.4115272,2.4111323,2.410803,2.4104595,2.4101264,2.409781,2.409422,2.4091063,2.40883,2.4085865,2.4083838,2.4082055,2.4080298,2.407814,2.4075365,2.4071634,2.406693,2.4061713,2.4056497,2.4051425,2.4046068,2.4040296,2.4034338,2.4028656,2.402377,2.4019961,2.4017196,2.4015212,2.401394,2.401342,2.4013515,2.4014072,2.4014778,2.4015293,2.4015605,2.401582,2.4015913,2.401596,2.401587,2.4015527,2.4015145,2.4015021,2.4015374,2.4016461,2.4017906,2.4019186,2.4019983,2.4020374,2.4020743,2.4021423,2.4022436,2.4023485,2.402402,2.4023855,2.402328,2.4022737,2.402269,2.4023223,2.4024506,2.4026644,2.4029555,2.403308,2.4037051,2.4040751,2.4044232,2.4046907,2.4048705,2.4050038,2.4051495,2.4053273,2.405542,2.4057899,2.4060616,2.4063363,2.4066,2.4068532,2.407097,2.4073215,2.4075537,2.407793,2.408006,2.4081414,2.408174,2.4081073,2.4079657,2.4077835,2.4075975,2.4073749,2.4070988,2.40675,2.4063296,2.4058733,2.4054072,2.4049416,2.4045033,2.4040847,2.4036725,2.4032469,2.4027982,2.402349,2.4018822,2.4013734,2.400824,2.4002912,2.3998222,2.3994145,2.3990579,2.3986683,2.3981905,2.3976061,2.3969605,2.3963158,2.3956869,2.3950505,2.3943872,2.3936453,2.3928494,2.3920918,2.3914356,2.3908653,2.3903227,2.3897462,2.389075,2.388341,2.3876085,2.3869529,2.3864028,2.3859162,2.3854308,2.3849554,2.3844995,2.384117,2.3838325,2.3836234,2.383431,2.3831897,2.3829315,2.3827019,2.3824787,2.382233,2.3819575,2.381662,2.3813705,2.3811355,2.3809204,2.3806367,2.3801742,2.37954,2.3789058,2.378491,2.3784204,2.3786325,2.3790712,2.3794467,2.3796809,2.3798928,2.3801272,2.3803682,2.3806138,2.3807855,2.3808417,2.3808084,2.380765,2.3807678,2.3807921,2.3808188,2.380826,2.380787,2.3806849,2.3805366,2.3803887,2.380271,2.3801503,2.380139,2.380227,2.3803434,2.380394,2.3802927,2.3799942,2.3795698,2.379046,2.3785088,2.3780832,2.3778338,2.3777537,2.3777838,2.3777852,2.3777318,2.3775387,2.3772516,2.3768728,2.376461,2.376114,2.375729,2.375259,2.3747087,2.3742366,2.3739593
2.4080348,2.4081254,2.4082532,2.4084373,2.4086752,2.4088745,2.408964,2.4090588,2.4091434,2.409287,2.4094949,2.409762,2.4100323,2.4102259,2.410315,2.4102883,2.4102683,2.4103203,2.4105012,2.4107769,2.4110622,2.4113219,2.4115584,2.4118204,2.4120703,2.4123206,2.4125733,2.4128149,2.413065,2.4133525,2.4136593,2.4139056,2.4140215,2.413957,2.4137566,2.41355,2.4134254,2.4134512,2.4135914,2.413808,2.414015,2.4141269,2.4141116,2.4139786,2.4137878,2.4135633,2.4133384,2.4131062,2.412837,2.412521,2.4121687,2.4117732,2.411283,2.4107523,2.4102845,2.4099553,2.4097836,2.4097269,2.409741,2.4097762,2.4097986,2.4097834,2.409759,2.4097614,2.4097981,2.4098663,2.4099402,2.4099808,2.409974,2.4099288,2.4098504,2.4097373,2.4095907,2.4093919,2.4091268,2.4087882,2.408415,2.408052,2.4077241,2.4074516,2.4072247,2.4069982,2.4067526,2.4064684,2.4061506,2.4058156,2.4054847,2.4051719,2.4048562,2.4045444,2.4042823,2.4040766,2.4039178,2.403828,2.4038231,2.4038692,2.4039323,2.4039598,2.4038668,2.4036412,2.4033718,2.4031568,2.4029984,2.402865,2.4026947,2.40241,2.4020042,2.4015417,2.401078,2.4006376,2.400185,2.3998003,2.3995395,2.3993258,2.3990788,2.398815,2.3985019,2.3981426,2.397799,2.3974829,2.3971963,2.3969479,2.3967252,2.3965049,2.3962357,2.395903,2.3955064,2.3950458,2.3945518,2.394062,2.3935838,2.3930774,2.3925376,2.391989,2.3914688,2.3910139,2.3906484,2.3903737,2.3901772,2.3900766,2.39009,2.3901992,2.3903627,2.390519,2.3906107,2.3906438,2.390644,2.3906333,2.3906455,2.3906841,2.3907294,2.3907819,2.390853,2.3909655,2.3911495,2.3913667,2.3915596,2.3916895,2.3917556,2.391794,2.3918426,2.391901,2.3919482,2.3919349,2.3918505,2.3917296,2.3916168,2.3915563,2.3915567,2.3916433,2.3918386,2.392146,2.3925529,2.3930347,2.3935032,2.393958,2.3943186,2.3945627,2.394726,2.394874,2.3950393,2.3952377,2.3954668,2.3957152,2.3959694,2.396216,2.396459,2.3967025,2.396933,2.397173,2.39742,2.3976285,2.397749,2.397767,2.397701,2.3975878,2.3974452,2.3973138,2.3971565,2.3969274,2.3965893,2.3961449,2.395646,2.3951306,2.394617,2.394129,2.3936586,2.3931956,2.3927279,2.3922472,2.391776,2.3912888,2.3907528,2.390164,2.389576,2.3890414,2.3885663,2.3881412,2.3876815,2.387136,2.3864932,2.3858094,2.385148,2.3845158,2.3838897,2.3832402,2.3825235,2.3817606,2.3810282,2.380381,2.379798,2.3792217,2.378607,2.377902,2.3771443,2.3763924,2.3757136,2.3751323,2.3746102,2.3740916,2.373588,2.373104,2.3726897,2.3723752,2.372148,2.371957,2.3717322,2.3714914,2.3712668,2.3710299,2.3707652,2.3704839,2.3702037,2.3699403,2.3697352,2.3695436,2.3692813,2.368843,2.3682442,2.3676548,2.3672872,2.367269,2.3675382,2.3680408,2.3684847,2.368785,2.3690543,2.3693385,2.3696222,2.3699126,2.3701286,2.3702264,2.3702123,2.3701587,2.3701272,2.370089,2.3700376,2.3699617,2.3698468,2.369679,2.3694742,2.369277,2.3691218,2.3689747,2.3689547,2.3690495,2.369181,2.3692427,2.36914,2.3688307,2.3683925,2.3678625,2.367335,2.3669338,2.3667173,2.3666723,2.3667355,2.366767,2.3667283,2.366538,2.3662415,2.3658595,2.36547,2.3651633,2.364829,2.3644218,2.3639398,2.3635368,2.3633335
2.395801,2.395891,2.3960123,2.396187,2.3964238,2.3966403,2.396771,2.3969402,2.3971171,2.3973627,2.3976755,2.3980355,2.3983793,2.398622,2.3987274,2.3986838,2.3986092,2.3985772,2.3986657,2.3988576,2.3990774,2.3992915,2.3994985,2.3997397,2.3999765,2.4002159,2.4004474,2.400653,2.400854,2.4010878,2.401349,2.4015641,2.4016762,2.4016347,2.4014711,2.4013014,2.4012094,2.40125,2.4013896,2.401572,2.4017253,2.4017797,2.4017055,2.4015222,2.401298,2.4010549,2.4008398,2.4006412,2.4004455,2.4002395,2.3999748,2.3996272,2.399168,2.3986595,2.3982024,2.3978746,2.3977003,2.3976383,2.3976402,2.3976536,2.3976386,2.3975673,2.3974721,2.397395,2.3973532,2.3973556,2.397375,2.3973792,2.3973522,2.3973022,2.3972292,2.397125,2.3969822,2.3967845,2.396514,2.396161,2.3957639,2.3953643,2.39499,2.39467,2.3943958,2.3941255,2.3938384,2.3935184,2.3931732,2.3928254,2.3925025,2.3922203,2.3919544,2.3917043,2.3914838,2.39131,2.391189,2.3911252,2.3911343,2.3911817,2.3912365,2.3912196,2.3910718,2.3908114,2.3905232,2.3902965,2.3901362,2.3900096,2.389854,2.3895826,2.3891811,2.3887157,2.3882484,2.3878074,2.387373,2.3870788,2.386919,2.3867917,2.3866334,2.386437,2.3861568,2.3857996,2.3854303,2.3850715,2.3847334,2.3844266,2.3841405,2.383858,2.3835251,2.3831463,2.3827379,2.3823066,2.3818703,2.3814483,2.3810298,2.380577,2.3800914,2.3796008,2.3791356,2.3787222,2.3783803,2.378115,2.3779278,2.3778644,2.3779573,2.3781805,2.378467,2.378725,2.3788743,2.3789055,2.3788698,2.3788261,2.3788319,2.3789039,2.379021,2.3791616,2.3793204,2.3795242,2.379805,2.3801255,2.3804245,2.3806534,2.3807955,2.3808784,2.3809457,2.3809948,2.381012,2.3809562,2.3808217,2.3806472,2.3804808,2.380363,2.3803043,2.3803406,2.3805041,2.3808112,2.381255,2.381803,2.3823478,2.3828795,2.3832994,2.3835661,2.3837132,2.383814,2.3839154,2.3840468,2.3842034,2.3843772,2.3845558,2.3847337,2.3849223,2.385127,2.3853326,2.3855488,2.3857481,2.3859,2.38597,2.3859568,2.3858929,2.3858247,2.3857718,2.3857355,2.3856733,2.3855157,2.3852088,2.3847582,2.3842301,2.383673,2.3831136,2.3825786,2.3820574,2.381548,2.3810475,2.3805494,2.380077,2.3795972,2.3790674,2.378478,2.377873,2.3773036,2.3767848,2.3763058,2.3757904,2.3751907,2.3745031,2.373796,2.3731308,2.3725076,2.371902,2.3712766,2.3705928,2.3698668,2.3691666,2.368536,2.3679447,2.3673348,2.3666854,2.3659453,2.3651628,2.3643928,2.3636956,2.3630917,2.3625405,2.3619914,2.3614569,2.3609295,2.3604636,2.3600976,2.3598328,2.3596282,2.3594038,2.3591661,2.3589373,2.3586817,2.3583987,2.3581178,2.3578577,2.357627,2.3574603,2.357308,2.3570924,2.3567097,2.356174,2.35565,2.3553367,2.3553643,2.3556762,2.356214,2.356688,2.3570085,2.357285,2.3575726,2.3578591,2.3581567,2.358385,2.3584955,2.3584783,2.3583975,2.358316,2.3582075,2.358073,2.357912,2.3577228,2.3574948,2.3572412,2.3570044,2.3568199,2.3566566,2.3566346,2.3567443,2.3568988,2.3569822,2.3568938,2.3565888,2.3561525,2.3556337,2.3551333,2.3547747,2.3546083,2.3546107,2.3547125,2.354775,2.354746,2.35455,2.3542366,2.3538451,2.3534687,2.3531985,2.3529134,2.3525724,2.3521538,2.351802,2.3516574
