32.22555,32.239914,32.24739,32.24359,32.23761,32.224514,32.21084,32.19469,32.187393,32.190144,32.21409,32.24452,32.3007,32.35454,32.43008,32.512405,32.582825,32.671574,32.735203,32.812035,32.8769,32.938084,33.00855,33.058086,33.116833,33.158276,33.198105,33.234352,33.257423,33.279434,33.288948,33.295876,33.30136,33.307285,33.31996,33.3329,33.347946,33.361294,33.37011,33.381844,33.391563,33.408527,33.43707,33.47496,33.54116,33.601097,33.680603,33.75331,33.83396,33.936268,34.018185,34.12755,34.21486,34.316093,34.421883,34.500626,34.60311,34.67871,34.76367,34.84984,34.92934,35.034664,35.113537,35.21962,35.330116,35.441635,35.58792,35.69805,35.842957,35.96804,36.09332,36.24256,36.35575,36.52262,36.673347,36.854034,37.07077,37.249866,37.48751,37.66408,37.86298,38.037445,38.16585,38.309822,38.401833,38.513054,38.610954,38.699184,38.81208,38.897774,39.01113,39.106762,39.19822,39.2871,39.34093,39.39279,39.41214,39.41828,39.398735,39.36908,39.338207,39.325775,39.32508,39.35498,39.398052,39.476307,39.546825,39.62606,39.690117,39.739265,39.785175,39.80894,39.838585,39.86699,39.901993,39.95539,40.001423,40.072365,40.1373,40.20792,40.27567,40.318176,40.362167,40.381687,40.38675,40.36046,40.323853,40.257545,40.194546,40.09092,39.974373,39.87784,39.756695,39.668636,39.55,39.441177,39.336113,39.211037,39.11976,39.000248,38.90517,38.80832,38.705574,38.629547,38.529495,38.45418,38.370407,38.293644,38.23807,38.177975,38.14359,38.111065,38.095985,38.090538,38.093735,38.101406,38.11326,38.124382,38.132187,38.13713,38.138,38.135796,38.130424,38.123684,38.113842,38.105682,38.093407,38.08262,38.06993,38.05602,38.04416,38.031696,38.02569,38.0229,38.030853,38.042828,38.0745,38.109344,38.166412,38.23452,38.30326,38.39823,38.47351,38.57987,38.676155,38.775112,38.894104,38.986828,39.119324,39.23233,39.3641,39.515137,39.638725,39.81344,39.95343,40.126064,40.299164,40.444542,40.620674,40.741447,40.89624,41.02835,41.13817,41.25523,41.33065,41.428177,41.50392,41.577465,41.637413,41.66719,41.667282,41.625404,41.560715,41.411797,41.245426,40.956196,40.690025,40.379845,40.068718,39.81485,39.494106,39.262867,38.964775,38.687553,38.439453,38.143818,37.936287,37.667908,37.450226,37.24823,37.039043,36.89715,36.724594,36.603065,36.478188,36.355755,36.265503,36.14956,36.061653,35.949253,35.817024,35.6974,35.518677,35.370003,35.169395,34.96788,34.789703,34.569046,34.40997,34.20334,34.02134,33.843254,33.61749,33.44468,33.12657,32.79094,32.373184,31.972008,31.745699,31.552082,31.521898,31.64227,31.986355,32.39846,32.805515,32.98466,33.23146,33.446133,33.61617,33.81823,33.962406,34.14552,34.305374,34.465576,34.65129,34.784454,34.93317,35.02159,35.09265,35.128685,35.137756,35.11615,35.07467,35.027786,34.982063,34.950035,34.928047,34.92793,34.94102,34.967445,34.99128,35.02404,35.048737,35.07334,35.078873,35.070732,35.033913,34.994083,34.882103,34.747765,34.60059,34.505226,34.525288,34.408478,34.21241,33.999847,33.779766,33.564816,33.670452
32.342003,32.356438,32.365837,32.3638,32.356503,32.33941,32.321976,32.29951,32.286545,32.283707,32.302483,32.32885,32.381046,32.432808,32.504715,32.58361,32.651806,32.738617,32.80137,32.876408,32.938763,32.995667,33.064564,33.116665,33.178925,33.22161,33.257156,33.28727,33.30713,33.32708,33.33629,33.341103,33.344215,33.348896,33.36019,33.37217,33.385307,33.39695,33.405113,33.416267,33.425613,33.44207,33.470375,33.507736,33.575836,33.63917,33.727737,33.808937,33.8917,33.993706,34.075233,34.1886,34.28234,34.391556,34.501625,34.576767,34.682392,34.768154,34.875313,34.984352,35.07505,35.186844,35.26593,35.38069,35.50181,35.619514,35.77108,35.884,36.030777,36.15503,36.27807,36.42215,36.530228,36.689552,36.83381,37.007675,37.217907,37.3928,37.624176,37.79586,37.991364,38.164482,38.29225,38.43588,38.52783,38.63887,38.73549,38.82128,38.929306,39.010395,39.116955,39.205917,39.290436,39.372196,39.4216,39.470222,39.489105,39.49409,39.476463,39.451607,39.42571,39.415337,39.414963,39.44138,39.479706,39.5488,39.610752,39.68077,39.737095,39.779465,39.81859,39.83863,39.865692,39.89429,39.930687,39.985844,40.032505,40.104164,40.17025,40.243202,40.317112,40.366833,40.422325,40.451824,40.4682,40.450775,40.41873,40.354156,40.290565,40.19683,40.09371,40.00511,39.891216,39.806858,39.6921,39.58554,39.482292,39.359306,39.269775,39.15261,39.0595,38.964783,38.864464,38.79026,38.69281,38.61976,38.53894,38.465942,38.413742,38.35871,38.32856,38.301403,38.29194,38.291702,38.301163,38.31302,38.329758,38.344048,38.35405,38.359234,38.358696,38.354088,38.346138,38.336647,38.323868,38.313766,38.299118,38.286552,38.27158,38.25463,38.239998,38.222954,38.212746,38.20413,38.205788,38.212406,38.237465,38.2677,38.31972,38.38466,38.45133,38.545517,38.62117,38.729214,38.82818,38.930176,39.053436,39.149704,39.28727,39.404533,39.541092,39.69718,39.824707,40.004402,40.148094,40.327553,40.50319,40.64354,40.81163,40.92688,41.07848,41.21047,41.320335,41.43728,41.512188,41.609642,41.68555,41.759384,41.817715,41.844894,41.83775,41.786263,41.70964,41.540146,41.350784,41.035385,40.752518,40.416294,40.08288,39.817146,39.492214,39.265312,38.972603,38.701317,38.4578,38.167084,37.962673,37.69593,37.478806,37.279686,37.07437,36.935062,36.765305,36.6455,36.522522,36.401833,36.312756,36.197983,36.110657,35.998856,35.86676,35.747047,35.567062,35.416565,35.213196,35.007866,34.825367,34.59871,34.435078,34.223034,34.037354,33.856163,33.63067,33.46205,33.134148,32.787693,32.383434,32.0075,31.798424,31.622137,31.60152,31.740875,32.091038,32.486164,32.88011,33.059433,33.304733,33.518734,33.68835,33.891,34.036354,34.222046,34.385117,34.548447,34.73803,34.874096,35.025673,35.11593,35.19004,35.228607,35.23838,35.21736,35.176033,35.129257,35.082752,35.049408,35.024826,35.02214,35.03151,35.053867,35.07421,35.102592,35.12417,35.146782,35.152454,35.145203,35.109234,35.069084,34.961407,34.83416,34.69555,34.60666,34.628174,34.507423,34.305664,34.094887,33.879375,33.671165,33.75022
32.496872,32.51053,32.51958,32.517075,32.507507,32.485897,32.464256,32.434555,32.415123,32.406593,32.419987,32.441463,32.48858,32.537514,32.604702,32.679306,32.74494,32.8293,32.890656,32.964157,33.024853,33.078857,33.14547,33.197327,33.25989,33.30268,33.33693,33.36318,33.37864,33.392216,33.396408,33.39673,33.39666,33.399628,33.409363,33.420456,33.431175,33.440308,33.44712,33.4573,33.466385,33.48258,33.511074,33.548557,33.618584,33.684525,33.782127,33.874607,33.968304,34.078323,34.161156,34.279724,34.379738,34.49446,34.61117,34.691696,34.811543,34.913486,35.041603,35.16976,35.272404,35.3955,35.480553,35.605118,35.734444,35.857258,36.01186,36.1252,36.270073,36.389458,36.50586,36.639153,36.737705,36.8836,37.016785,37.178894,37.37819,37.545685,37.76996,37.93856,38.131943,38.305252,38.434044,38.579437,38.67264,38.78337,38.87716,38.959114,39.060165,39.134926,39.231945,39.311775,39.387234,39.46062,39.505543,39.55138,39.571445,39.57946,39.569695,39.55413,39.538406,39.53315,39.535557,39.55876,39.591366,39.64824,39.698196,39.75386,39.797295,39.82881,39.857506,39.87222,39.8954,39.924355,39.962532,40.022575,40.074295,40.15151,40.221436,40.298256,40.37797,40.433624,40.498653,40.536903,40.564404,40.55906,40.536617,40.483418,40.42782,40.349792,40.262794,40.18492,40.081154,40.002174,39.893448,39.791084,39.69159,39.57348,39.48809,39.37677,39.288773,39.199524,39.10534,39.03573,38.944466,38.87635,38.801544,38.73541,38.68911,38.642097,38.61816,38.599407,38.59864,38.606117,38.624607,38.642387,38.665646,38.68376,38.696125,38.70118,38.698776,38.690517,38.678467,38.664673,38.647385,38.634335,38.61627,38.601326,38.583435,38.562717,38.54466,38.521873,38.506325,38.49018,38.483414,38.48271,38.498306,38.521667,38.565758,38.625244,38.68818,38.780014,38.855076,38.963898,39.065105,39.169796,39.297306,39.39732,39.540535,39.66288,39.80548,39.968464,40.101437,40.289722,40.43991,40.621033,40.792152,40.925865,41.086777,41.198616,41.34659,41.475525,41.58127,41.6948,41.768867,41.86598,41.942215,42.016777,42.073437,42.09749,42.08104,42.016914,41.9237,41.728638,41.514877,41.161373,40.84684,40.477707,40.122032,39.845367,39.517822,39.296284,39.010963,38.748108,38.51178,38.228416,38.028126,37.766068,37.552612,37.358047,37.15783,37.021927,36.85563,36.73761,36.616287,36.49671,36.40818,36.293976,36.207027,36.09607,35.964645,35.84534,35.664238,35.51159,35.30447,35.09358,34.9048,34.669342,34.498993,34.278824,34.08718,33.90078,33.67327,33.50747,33.16561,32.803486,32.407337,32.053806,31.863321,31.704636,31.692513,31.848085,32.205696,32.591873,32.979294,33.15985,33.406693,33.623463,33.795715,34.002598,34.15165,34.342716,34.51069,34.67832,34.87175,35.00985,35.16204,35.251175,35.324043,35.361423,35.370804,35.34922,35.307533,35.2611,35.214714,35.180824,35.154648,35.150093,35.15646,35.175056,35.191826,35.2155,35.233643,35.252964,35.257507,35.250305,35.216846,35.17968,35.081112,34.96605,34.84351,34.76856,34.79718,34.659714,34.432392,34.224846,34.02208,33.822556,33.861317
32.609673,32.621834,32.62825,32.623245,32.61159,32.58734,32.563297,32.52948,32.506462,32.495186,32.50579,32.524197,32.56782,32.614594,32.67856,32.75029,32.814095,32.89659,32.956818,33.02973,33.09041,33.1445,33.209488,33.258606,33.318108,33.359543,33.395615,33.421917,33.43416,33.44079,33.438362,33.43444,33.432137,33.433838,33.442528,33.453087,33.462097,33.469257,33.474693,33.48398,33.493046,33.509377,33.538406,33.57659,33.647633,33.71418,33.815727,33.915627,34.02224,34.143974,34.229897,34.352547,34.455433,34.570908,34.6937,34.78586,34.923428,35.038933,35.176216,35.31032,35.41963,35.552876,35.646217,35.776527,35.907387,36.031532,36.185295,36.29644,36.436626,36.549683,36.658573,36.781208,36.870907,37.004673,37.12813,37.279884,37.469692,37.630573,37.85077,38.01981,38.21347,38.388332,38.51924,38.66747,38.76246,38.87269,38.963295,39.041687,39.13681,39.206474,39.295822,39.368652,39.437614,39.50582,39.54863,39.593872,39.616425,39.630295,39.63034,39.623672,39.617996,39.618263,39.624516,39.646477,39.67537,39.72336,39.76416,39.80789,39.840126,39.86248,39.882698,39.893425,39.91371,39.94317,39.9828,40.048416,40.10692,40.192,40.26702,40.34761,40.43004,40.487373,40.555134,40.59639,40.629036,40.63264,40.619793,40.58154,40.538235,40.47339,40.396744,40.326904,40.23104,40.156464,40.05297,39.954742,39.85916,39.746407,39.665573,39.5608,39.478615,39.395546,39.30823,39.24378,39.15928,39.09636,39.027634,38.96804,38.92717,38.887177,38.86843,38.85685,38.863373,38.87706,38.902695,38.925076,38.953156,38.97378,38.987366,38.991913,38.98813,38.97693,38.961506,38.944218,38.92333,38.907963,38.887375,38.870842,38.85105,38.827984,38.807816,38.781296,38.76214,38.74063,38.72765,38.72148,38.729843,38.747826,38.78557,38.84036,38.899803,38.98876,39.06244,39.170444,39.27204,39.377365,39.506493,39.608177,39.754234,39.879463,40.025818,40.19355,40.33052,40.52551,40.68038,40.856903,41.019333,41.14884,41.307274,41.41913,41.564552,41.68882,41.788147,41.896523,41.969803,42.06641,42.14295,42.218296,42.274155,42.29618,42.273254,42.200077,42.09426,41.88186,41.65478,41.271072,40.926582,40.534836,40.16842,39.88735,39.55985,39.34166,39.061646,38.805252,38.575005,38.297752,38.100563,37.843857,37.635273,37.44459,37.248024,37.11453,36.950447,36.833252,36.712345,36.59251,36.5035,36.388863,36.30188,36.19165,36.06124,35.94274,35.76141,35.60749,35.39771,35.18246,34.98871,34.746185,34.570396,34.34352,34.146683,33.955612,33.72478,33.558872,33.20611,32.831585,32.434006,32.08809,31.907148,31.756878,31.747929,31.907852,32.270195,32.661156,33.052746,33.23485,33.485645,33.707413,33.884186,34.09698,34.250435,34.446938,34.61888,34.789658,34.984688,35.12265,35.27263,35.358036,35.42581,35.458694,35.4666,35.44352,35.401268,35.3553,35.309986,35.27674,35.25093,35.24623,35.25197,35.269135,35.284153,35.305298,35.321487,35.338055,35.340897,35.33284,35.302082,35.269463,35.179863,35.075596,34.968052,34.907173,34.944984,34.786854,34.527397,34.322453,34.133705,33.9403,33.946926
32.74144,32.750183,32.752777,32.74525,32.731064,32.70392,32.67744,32.64059,32.615322,32.60135,32.608727,32.62408,32.66401,32.708317,32.769535,32.838066,32.897526,32.976913,33.037086,33.109715,33.170086,33.223568,33.28737,33.335365,33.39251,33.431374,33.465363,33.488335,33.497063,33.498413,33.491726,33.4841,33.479015,33.47914,33.48504,33.49294,33.49891,33.50374,33.50772,33.51628,33.52558,33.542313,33.572037,33.610855,33.683235,33.751114,33.855896,33.960724,34.07436,34.20662,34.301926,34.4324,34.53881,34.659958,34.79431,34.90094,35.05654,35.184235,35.335625,35.482433,35.602062,35.7461,35.845436,35.98133,36.11434,36.239315,36.39106,36.498924,36.632805,36.737934,36.83764,36.947598,37.02695,37.1467,37.25906,37.39895,37.57792,37.73114,37.947372,38.117867,38.31171,38.48784,38.621216,38.77262,38.869423,38.97857,39.06419,39.136345,39.221466,39.2828,39.3609,39.42471,39.48615,39.549515,39.591156,39.638615,39.66694,39.689552,39.70218,39.706467,39.713085,39.72013,39.731323,39.752052,39.776535,39.81379,39.84353,39.87345,39.893044,39.904907,39.91578,39.922455,39.940483,39.97163,40.014065,40.086105,40.150978,40.24678,40.33111,40.418182,40.505836,40.566963,40.640163,40.68634,40.726215,40.740288,40.737793,40.714943,40.684124,40.634487,40.571102,40.511482,40.426094,40.35765,40.261692,40.169685,40.08007,39.97541,39.901367,39.80629,39.732666,39.65861,39.5813,39.52433,39.449574,39.39404,39.333855,39.28321,39.24953,39.219696,39.209023,39.20692,39.22231,39.24375,39.27835,39.306572,39.341034,39.36487,39.379265,39.382286,39.376328,39.36171,39.342903,39.321983,39.29749,39.279907,39.257187,39.239555,39.218376,39.193542,39.17192,39.141796,39.11835,39.089256,39.06756,39.054688,39.055344,39.06833,39.101105,39.152122,39.207035,39.291267,39.362297,39.46769,39.56802,39.672287,39.801003,39.90275,40.049618,40.176285,40.324738,40.496414,40.638718,40.83541,40.987,41.15685,41.31275,41.440605,41.59628,41.70492,41.846,41.9637,42.05211,42.151657,42.223793,42.319435,42.39628,42.472794,42.52816,42.548157,42.518116,42.43466,42.314163,42.08142,41.83851,41.421005,41.04358,40.6247,40.2433,39.955082,39.626057,39.411434,39.137154,38.888206,38.665222,38.395775,38.20298,37.953026,37.75022,37.564285,37.371925,37.24095,37.078896,36.96198,36.84061,36.719376,36.629,36.513184,36.426075,36.31701,36.18875,36.07229,35.89202,35.73744,35.525097,35.30477,35.105034,34.853683,34.670933,34.435505,34.231968,34.03488,33.799217,33.63219,33.26567,32.87583,32.47565,32.135193,31.959911,31.816866,31.812523,31.973125,32.33941,32.74191,33.14349,33.3283,33.58561,33.81513,33.998978,34.220642,34.380383,34.58407,34.760624,34.934814,35.13046,35.26672,35.41191,35.491135,35.5514,35.57734,35.58188,35.556236,35.51371,35.46869,35.42538,35.3937,35.369328,35.36512,35.370975,35.38723,35.400795,35.419655,35.43406,35.44822,35.44974,35.44121,35.413483,35.38546,35.30589,35.214245,35.12408,35.080734,35.131943,34.94719,34.644814,34.44143,34.269653,34.083267,34.05551
32.852905,32.856853,32.85469,32.844727,32.828278,32.799385,32.77172,32.734905,32.71042,32.6955,32.700764,32.714333,32.751595,32.793716,32.852684,32.918266,32.973396,33.04904,33.108276,33.17955,33.239094,33.29223,33.35546,33.40283,33.458168,33.494553,33.52536,33.544636,33.550858,33.54957,33.541225,33.531357,33.52359,33.521538,33.523582,33.528046,33.530968,33.534115,33.53731,33.545994,33.556084,33.57374,33.604282,33.643585,33.716827,33.78563,33.89148,33.99774,34.11297,34.252007,34.35716,34.496166,34.60694,34.735344,34.882004,35.002068,35.1752,35.315556,35.482594,35.642273,35.769577,35.920902,36.024124,36.16378,36.297756,36.422195,36.570606,36.674538,36.801712,36.899223,36.990425,37.089294,37.159916,37.26805,37.37136,37.50154,37.67166,37.818596,38.031868,38.204018,38.398598,38.576054,38.711353,38.864807,38.96238,39.0692,39.14862,39.213326,39.28701,39.339035,39.405308,39.460434,39.51525,39.575363,39.61714,39.66863,39.703957,39.735897,39.760822,39.77533,39.79352,39.807114,39.82348,39.843887,39.864937,39.893204,39.913494,39.931965,39.941395,39.944862,39.94897,39.95344,39.97148,40.00602,40.052727,40.13208,40.20331,40.310555,40.405403,40.500725,40.59527,40.66095,40.74003,40.790947,40.837402,40.86049,40.866783,40.857178,40.837288,40.8014,40.75061,40.701042,40.626648,40.56516,40.47807,40.393776,40.3116,40.216835,40.150883,40.067318,40.003754,39.940212,39.874466,39.82617,39.76256,39.71531,39.66453,39.623425,39.597187,39.577824,39.575424,39.58267,39.606415,39.635033,39.677765,39.711197,39.751366,39.77816,39.79357,39.79574,39.78823,39.771484,39.750763,39.727737,39.70143,39.682976,39.65999,39.642803,39.621986,39.59742,39.576103,39.545,39.519478,39.485542,39.457504,39.439445,39.433952,39.442886,39.471733,39.519318,39.56952,39.647903,39.715004,39.815414,39.911766,40.01198,40.13625,40.2347,40.37769,40.501976,40.648643,40.819355,40.962227,41.152588,41.294655,41.457775,41.610527,41.737988,41.890488,41.99404,42.126026,42.23319,42.31107,42.402405,42.472763,42.566948,42.643986,42.721756,42.777134,42.795647,42.75978,42.66761,42.534435,42.283627,42.026176,41.579063,41.173286,40.730247,40.33483,40.03962,39.70851,39.496643,39.22696,38.984444,38.768036,38.505882,38.31733,38.073982,37.87674,37.69508,37.505924,37.376457,37.21482,37.096664,36.973007,36.84852,36.755516,36.637352,36.54969,36.44185,36.31636,36.202427,36.02443,35.87047,35.657524,35.433907,35.22936,34.97009,34.780693,34.537083,34.32702,34.124115,33.883076,33.713776,33.333687,32.92884,32.52392,32.1827,32.005287,31.863396,31.861649,32.013992,32.382065,32.80782,33.22869,33.416767,33.682594,33.921646,34.11429,34.34639,34.51308,34.72396,34.90416,35.08055,35.27457,35.407005,35.54484,35.616104,35.667427,35.685234,35.68547,35.657295,35.615494,35.572395,35.532394,35.50354,35.482063,35.479248,35.48629,35.502556,35.515373,35.532776,35.545937,35.55822,35.55854,35.54946,35.52385,35.49926,35.427498,35.345985,35.270126,35.241142,35.30311,35.096245,34.758118,34.553215,34.39389,34.214943,34.162193
32.944817,32.944153,32.937332,32.924995,32.906616,32.876534,32.848076,32.8126,32.79036,32.77542,32.779236,32.79167,32.82688,32.867046,32.923275,32.98607,33.03934,33.111443,33.167084,33.23487,33.292927,33.346664,33.409927,33.45589,33.509686,33.544838,33.574356,33.591682,33.59592,33.59257,33.58302,33.57184,33.561783,33.556793,33.555145,33.557213,33.557938,33.560097,33.56304,33.572315,33.583374,33.60206,33.633293,33.672882,33.746437,33.81555,33.92211,34.02961,34.14663,34.289536,34.398727,34.544483,34.66149,34.79529,34.950653,35.080395,35.27307,35.431877,35.61426,35.782433,35.91315,36.06898,36.1764,36.3195,36.45424,36.578106,36.723576,36.824165,36.945732,37.036972,37.121216,37.211227,37.274986,37.374084,37.470436,37.593163,37.75658,37.89895,38.109406,38.28198,38.477947,38.657463,38.79407,38.94838,39.04573,39.149475,39.222763,39.280685,39.344208,39.387985,39.443817,39.49125,39.540085,39.597107,39.63888,39.693283,39.733932,39.773224,39.808136,39.831123,39.85894,39.878017,39.898754,39.91896,39.937183,39.95798,39.970436,39.97959,39.981007,39.978004,39.977432,39.980988,40.000397,40.039165,40.090828,40.178383,40.256943,40.37425,40.477386,40.58136,40.683784,40.75404,40.838806,40.89406,40.946266,40.976982,40.99064,40.99226,40.98174,40.957726,40.91806,40.877556,40.813347,40.758488,40.679977,40.603245,40.52829,40.442993,40.384674,40.31193,40.257767,40.204,40.148964,40.108704,40.055355,40.015648,39.97336,39.94071,39.921104,39.91044,39.914528,39.929993,39.96134,39.996117,40.045563,40.08312,40.127514,40.156784,40.174248,40.177303,40.16938,40.151825,40.130157,40.106148,40.079266,40.060814,40.038643,40.02268,40.00313,39.979805,39.95937,39.9292,39.904007,39.869385,39.838554,39.81659,39.80522,39.809593,39.83333,39.87655,39.922432,39.995407,40.058487,40.153458,40.245056,40.340233,40.458527,40.55232,40.689198,40.809288,40.954025,41.12162,41.25962,41.439255,41.5713,41.7305,41.882736,42.00798,42.15632,42.255623,42.37368,42.4666,42.539124,42.62684,42.69484,42.78739,42.864517,42.943317,42.998695,43.0159,42.97505,42.87545,42.731853,42.464867,42.192734,41.719086,41.28952,40.8256,40.41802,40.117027,39.78443,39.57511,39.30954,39.072716,38.862335,38.606556,38.421364,38.183594,37.991108,37.81299,37.626137,37.497456,37.335243,37.215065,37.08836,36.960045,36.86414,36.74331,36.654896,36.54809,36.42495,36.312744,36.13662,35.983673,35.77189,35.547226,35.339207,35.073456,34.878387,34.62784,34.412216,34.204422,33.95881,33.78756,33.3947,32.97567,32.567165,32.22473,32.042923,31.90002,31.899536,32.038944,32.40702,32.860886,33.304314,33.494926,33.768795,34.01662,34.217392,34.45888,34.631607,34.848434,35.03116,35.20867,35.400154,35.528336,35.658813,35.722702,35.766068,35.776985,35.77368,35.74405,35.703804,35.663334,35.62713,35.60148,35.58316,35.581738,35.58992,35.60607,35.618065,35.633865,35.645622,35.655815,35.65455,35.64437,35.61966,35.59722,35.530853,35.456654,35.391693,35.37242,35.439346,35.220703,34.863647,34.654213,34.49958,34.32984,34.256138
33.04487,33.03843,33.026115,33.011433,32.991386,32.96162,32.93451,32.902306,32.883118,32.86929,32.87255,32.884384,32.917587,32.955307,33.007725,33.066364,33.11673,33.184002,33.235157,33.298546,33.35408,33.40659,33.468056,33.511875,33.56418,33.59897,33.6279,33.644592,33.648354,33.64448,33.63427,33.62137,33.608036,33.599472,33.593567,33.593086,33.591846,33.593765,33.59734,33.608513,33.621544,33.64228,33.67473,33.714752,33.78844,33.85757,33.96431,34.07248,34.19079,34.336815,34.449245,34.601616,34.725563,34.866154,35.03074,35.168846,35.37963,35.55716,35.763725,35.947556,36.077637,36.23455,36.346718,36.493187,36.628365,36.75111,36.89306,36.990036,37.105896,37.191147,37.26892,37.351234,37.4094,37.501144,37.591778,37.70826,37.86567,38.003708,38.210377,38.381813,38.578316,38.758858,38.89517,39.047985,39.143337,39.241768,39.306923,39.356384,39.407707,39.441746,39.485394,39.523994,39.56604,39.619568,39.661346,39.718704,39.764824,39.81182,39.85743,39.88958,39.928146,39.953735,39.980274,40.001865,40.018467,40.033417,40.039276,40.04085,40.03614,40.02842,40.025536,40.029984,40.0531,40.09808,40.15648,40.254333,40.34187,40.471066,40.583595,40.697025,40.808174,40.883938,40.97525,41.035202,41.09355,41.132385,41.153908,41.167904,41.168015,41.15792,41.131966,41.103012,41.052536,41.007133,40.941025,40.875362,40.810936,40.73903,40.69123,40.633236,40.591713,40.55105,40.510284,40.48073,40.440994,40.411232,40.38007,40.35823,40.34697,40.34664,40.358,40.382355,40.421616,40.46273,40.519142,40.561073,40.61022,40.642746,40.663216,40.66855,40.661312,40.64453,40.623425,40.6001,40.57467,40.557823,40.538727,40.52587,40.50979,40.49016,40.47268,40.446144,40.423386,40.391556,40.361652,40.338905,40.323883,40.32387,40.340805,40.377075,40.41749,40.483177,40.540222,40.626457,40.709835,40.796246,40.90371,40.98886,41.114822,41.226154,41.3591,41.511917,41.636425,41.802452,41.928192,42.083927,42.23423,42.35588,42.49641,42.58747,42.686462,42.761684,42.828255,42.912003,42.976875,43.06727,43.144432,43.224457,43.279854,43.295486,43.248726,43.140327,42.984512,42.69815,42.407776,41.9033,41.447067,40.958553,40.53572,40.227135,39.89142,39.68387,39.421833,39.190403,38.985336,38.73574,38.554447,38.322906,38.135612,37.961212,37.776268,37.64772,37.483345,37.359238,37.227222,37.09261,36.99202,36.866753,36.77684,36.67106,36.551147,36.44156,36.269028,36.11866,35.908936,35.683582,35.473022,35.200768,34.998962,34.74018,34.51793,34.304474,34.053425,33.879604,33.47239,33.037224,32.622974,32.275967,32.086456,31.9371,31.9336,32.056213,32.428177,32.922928,33.39804,33.59096,33.87539,34.135113,34.346947,34.601013,34.781616,35.00567,35.19076,35.368786,35.555763,35.67753,35.797867,35.852272,35.885704,35.888416,35.881096,35.85048,35.81298,35.776543,35.74573,35.724594,35.710686,35.711227,35.720936,35.73698,35.74809,35.762165,35.77246,35.78045,35.777443,35.766083,35.74176,35.720795,35.658367,35.589546,35.53308,35.51879,35.584457,35.355175,34.985626,34.771683,34.620743,34.459694,34.38073
33.111137,33.100605,33.084618,33.068695,33.047874,33.01948,32.995007,32.965755,32.948235,32.93566,32.939217,32.95096,32.982906,33.018784,33.06824,33.12332,33.170547,33.234146,33.28294,33.34391,33.39737,33.447083,33.50551,33.54756,33.599094,33.634357,33.663345,33.680664,33.68553,33.682583,33.672264,33.657642,33.64144,33.63063,33.622,33.619858,33.6176,33.6199,33.624466,33.637688,33.65261,33.675293,33.708824,33.74923,33.822914,33.89189,33.99842,34.106697,34.22552,34.373383,34.48798,34.643982,34.771698,34.91764,35.08836,35.230324,35.44848,35.634544,35.863113,36.06374,36.190254,36.344963,36.46033,36.60877,36.744034,36.8658,37.005367,37.1001,37.21263,37.294655,37.369076,37.447815,37.503716,37.59241,37.680603,37.794315,37.948677,38.084236,38.287987,38.457718,38.65368,38.8338,38.968765,39.119125,39.212135,39.306053,39.365173,39.40856,39.451374,39.478714,39.514015,39.5466,39.584053,39.635162,39.676826,39.735794,39.78514,39.836838,39.889183,39.92717,39.972836,40.003006,40.034023,40.05764,40.07424,40.087074,40.09011,40.088623,40.081787,40.072742,40.070335,40.076626,40.1035,40.153305,40.216644,40.32163,40.415245,40.552788,40.671833,40.790787,40.906982,40.98653,41.082153,41.14502,41.207184,41.251106,41.277584,41.299652,41.306923,41.306473,41.29044,41.270042,41.23018,41.192352,41.136246,41.07959,41.02369,40.96244,40.922863,40.876305,40.844505,40.81388,40.784027,40.76261,40.73324,40.71102,40.68828,40.67446,40.669304,40.676273,40.6925,40.72233,40.76615,40.810966,40.871628,40.91639,40.96895,41.00408,41.02676,41.03413,41.028,41.01275,40.99302,40.97125,40.94812,40.933334,40.91765,40.907944,40.895454,40.879784,40.865566,40.84294,40.822826,40.79486,40.768288,40.747982,40.733166,40.731056,40.742783,40.77289,40.80923,40.869347,40.92148,41.000397,41.07673,41.15568,41.25383,41.331497,41.44855,41.551895,41.668877,41.802513,41.912476,42.07016,42.197388,42.35118,42.49806,42.61676,42.750015,42.833023,42.91851,42.98215,43.04375,43.123974,43.186638,43.27546,43.352608,43.43345,43.488785,43.503242,43.452217,43.337532,43.173035,42.87294,42.569496,42.043808,41.56964,41.06389,40.62977,40.315315,39.97644,39.769264,39.508896,39.28038,39.077644,38.831413,38.652916,38.425537,38.241608,38.06957,37.88556,37.75672,37.590065,37.462418,37.32579,37.18582,37.081272,36.95215,36.860813,36.755554,36.63821,36.53094,36.361893,36.214176,36.005703,35.77961,35.568363,35.29241,35.085777,34.821175,34.594246,34.3769,34.12208,33.946373,33.529716,33.08374,32.66435,32.31256,32.1173,31.96034,31.95132,32.062443,32.441006,32.969673,33.468925,33.660995,33.952705,34.221848,34.442223,34.705917,34.892487,35.121742,35.308174,35.48616,35.66923,35.785797,35.89832,35.945724,35.971954,35.968933,35.95893,35.928,35.892853,35.8597,35.83312,35.815453,35.804955,35.807026,35.817886,35.833885,35.84445,35.857483,35.866932,35.87369,35.869698,35.85765,35.833252,35.812702,35.751644,35.684654,35.631546,35.616577,35.67669,35.440216,35.066246,34.850883,34.702854,34.545166,34.47713
33.182842,33.167847,33.148323,33.131893,33.11142,33.08618,33.06593,33.041714,33.027412,33.017765,33.02298,33.03552,33.0667,33.100563,33.14646,33.19678,33.23965,33.297462,33.341972,33.39823,33.44822,33.49476,33.550373,33.59108,33.64106,33.675568,33.704266,33.722404,33.72869,33.72701,33.716827,33.70099,33.68226,33.669113,33.65767,33.6539,33.65107,33.65468,33.661186,33.677967,33.69607,33.722645,33.75896,33.800797,33.875328,33.9446,34.051414,34.160126,34.27988,34.4301,34.547333,34.707355,34.838753,34.988777,35.165134,35.31266,35.537834,35.730137,35.97772,36.19427,36.320282,36.474403,36.59168,36.74128,36.876152,36.99646,37.133484,37.226154,37.336082,37.416058,37.488533,37.565838,37.621326,37.70925,37.796463,37.908607,38.060005,38.192497,38.39092,38.555862,38.74743,38.92251,39.051765,39.194374,39.281578,39.36725,39.41783,39.453445,39.486298,39.506207,39.532616,39.55917,39.59207,39.641064,39.68297,39.74411,39.797333,39.854652,39.915115,39.960205,40.014847,40.05133,40.089447,40.1183,40.13767,40.15201,40.15488,40.15401,40.147797,40.138535,40.137333,40.14585,40.177505,40.233505,40.30356,40.417065,40.51706,40.662483,40.786964,40.91027,41.03058,41.113632,41.21336,41.279186,41.345566,41.39573,41.42846,41.46102,41.477783,41.49038,41.488167,41.47992,41.455452,41.42884,41.38742,41.343822,41.30018,41.25387,41.225594,41.194557,41.17579,41.158646,41.143524,41.13324,41.11818,41.10652,41.095566,41.092987,41.09635,41.113277,41.13595,41.17287,41.222275,41.27143,41.33689,41.384804,41.44125,41.479603,41.505295,41.515953,41.51197,41.49987,41.483063,41.464447,41.445374,41.433945,41.42331,41.41814,41.411224,41.40204,41.393566,41.376686,41.35936,41.334454,41.31026,41.292343,41.278778,41.276093,41.285053,41.310562,41.342773,41.395355,41.44023,41.506813,41.569794,41.633987,41.712807,41.77468,41.86994,41.956146,42.055103,42.17366,42.27426,42.4257,42.552338,42.703312,42.846436,42.96315,43.08482,43.15243,43.223736,43.278625,43.33432,43.409767,43.469894,43.55719,43.63484,43.71727,43.77311,43.78649,43.730255,43.607418,43.43101,43.11351,42.795166,42.24411,41.74752,41.219234,40.768906,40.445053,40.099514,39.890823,39.62924,39.401024,39.19829,38.954113,38.778694,38.555275,38.37422,38.20411,38.020123,37.89007,37.7193,37.58611,37.442516,37.294632,37.18422,37.04947,36.956123,36.85159,36.73812,36.63469,36.471313,36.32789,36.12243,35.896088,35.683075,35.402245,35.19055,34.918785,34.685608,34.463295,34.203796,34.02549,33.601784,33.147717,32.721344,32.35898,32.15165,31.982006,31.967594,32.079304,32.467003,33.004593,33.528374,33.746677,34.05562,34.33419,34.566444,34.84372,35.038788,35.27557,35.464226,35.642494,35.821026,35.93136,36.034805,36.074142,36.091633,36.081917,36.069447,36.03859,36.00611,35.976418,35.954124,35.94005,35.9329,35.93626,35.947746,35.963104,35.97252,35.984642,35.99405,35.999535,35.994717,35.984093,35.96128,35.941086,35.879654,35.81125,35.756027,35.736965,35.79306,35.54883,35.16899,34.95434,34.813446,34.660645,34.617638
33.223984,33.206635,33.18579,33.17012,33.151253,33.12961,33.11306,33.093586,33.082626,33.076317,33.0839,33.097824,33.129173,33.161842,33.2053,33.251884,33.29117,33.343754,33.3841,33.435577,33.4822,33.52636,33.580395,33.620697,33.669456,33.703022,33.73175,33.75101,33.758698,33.75844,33.74883,33.73295,33.713287,33.698975,33.686092,33.68156,33.678963,33.684258,33.692833,33.713028,33.734028,33.764256,33.803318,33.846767,33.92253,33.992447,34.099907,34.209167,34.32978,34.481678,34.60067,34.762955,34.89606,35.047676,35.22653,35.377373,35.604485,35.796875,36.048576,36.27098,36.401756,36.558662,36.67533,36.824493,36.958443,37.077423,37.21299,37.30491,37.41451,37.49499,37.56833,37.647614,37.705235,37.79561,37.884117,37.99692,38.146873,38.277046,38.469788,38.62852,38.813004,38.980087,39.101902,39.23504,39.315598,39.393353,39.4374,39.467705,39.494526,39.51024,39.531876,39.555527,39.586422,39.63492,39.67747,39.740437,39.796288,39.85737,39.92336,39.97332,40.034595,40.076267,40.12097,40.156296,40.180443,40.20011,40.206314,40.209946,40.207245,40.19981,40.200867,40.211353,40.246567,40.30663,40.38106,40.49942,40.60253,40.75099,40.87683,41.000763,41.12178,41.206024,41.307297,41.37454,41.44335,41.497787,41.534966,41.57528,41.599236,41.62194,41.630806,41.632523,41.621017,41.604042,41.575157,41.542557,41.509113,41.474846,41.455456,41.436348,41.42739,41.42037,41.41634,41.414497,41.410393,41.40689,41.405067,41.411118,41.42098,41.445232,41.472397,41.51403,41.566765,41.618286,41.68621,41.73568,41.794228,41.834656,41.86257,41.876213,41.87455,41.865974,41.8525,41.837425,41.822525,41.814285,41.80818,41.806755,41.804,41.799374,41.795013,41.782066,41.76643,41.742935,41.71974,41.703217,41.69114,41.68918,41.698204,41.72196,41.751358,41.79777,41.83657,41.892353,41.9433,41.994095,42.055298,42.1028,42.17729,42.247993,42.336365,42.450645,42.55075,42.701126,42.82626,42.97549,43.11602,43.231052,43.34232,43.396294,43.459892,43.51261,43.564373,43.63624,43.69483,43.78149,43.859955,43.943977,44.00061,44.01349,43.95355,43.824547,43.638557,43.308403,42.98078,42.412674,41.900017,41.354584,40.89051,40.557877,40.204536,39.992313,39.726257,39.494957,39.28972,39.044987,38.87104,38.649124,38.468975,38.29939,38.114628,37.98315,37.808598,37.670723,37.521343,37.36702,37.251804,37.11254,37.017677,36.913868,36.8039,36.70407,36.546013,36.40661,36.204544,35.97857,35.76374,35.479042,35.264008,34.986885,34.74879,34.522797,34.25987,34.079292,33.65502,33.200317,32.767895,32.39377,32.174664,31.993084,31.974827,32.097683,32.491783,33.008644,33.546455,33.807,34.135475,34.41899,34.661064,34.949707,35.152,35.395233,35.586044,35.7649,35.940575,36.046753,36.144264,36.17842,36.19033,36.17664,36.163105,36.132603,36.101707,36.07376,36.05349,36.04117,36.035446,36.039116,36.0503,36.064697,36.073112,36.08455,36.09397,36.098473,36.093445,36.085262,36.065216,36.046154,35.984108,35.91229,35.849655,35.822853,35.8759,35.62723,35.245132,35.033367,34.899876,34.750137,34.73729
33.266563,33.247513,33.22625,33.212097,33.19583,33.178284,33.165085,33.150726,33.14395,33.14156,33.151863,33.16739,33.199013,33.230415,33.271164,33.313545,33.34877,33.395363,33.430885,33.476776,33.51928,33.560177,33.61176,33.65115,33.69979,33.734436,33.764774,33.78656,33.796444,33.79869,33.790394,33.774807,33.754314,33.73902,33.724846,33.71959,33.717365,33.724632,33.73569,33.759567,33.78337,33.816032,33.85642,33.90094,33.97806,34.04917,34.15757,34.26739,34.38894,34.542618,34.663506,34.827522,34.961994,35.117924,35.300262,35.451057,35.67809,35.870033,36.114098,36.335964,36.483776,36.651062,36.763428,36.910866,37.04368,37.16105,37.29515,37.386528,37.496353,37.57811,37.653156,37.735558,37.796272,37.89014,37.980476,38.0942,38.242264,38.36943,38.55475,38.70531,38.87978,39.036636,39.15071,39.273674,39.346634,39.416306,39.454536,39.48056,39.502434,39.514427,39.531433,39.552116,39.581406,39.630196,39.674088,39.739616,39.798576,39.863865,39.935966,39.991417,40.060436,40.108387,40.160812,40.20401,40.23445,40.26165,40.2728,40.28122,40.282135,40.278297,40.283745,40.297348,40.33625,40.398968,40.475327,40.59624,40.701885,40.852684,40.97936,41.103188,41.223946,41.30853,41.410583,41.478973,41.550117,41.609047,41.650963,41.69962,41.73136,41.765015,41.785973,41.798656,41.801556,41.795372,41.780426,41.75994,41.737694,41.716366,41.706337,41.69957,41.70052,41.703712,41.71077,41.717316,41.724094,41.728676,41.73594,41.750465,41.76661,41.79773,41.828903,41.874557,41.929775,41.98283,42.052246,42.10265,42.162598,42.20475,42.23475,42.25167,42.252823,42.24853,42.239132,42.228416,42.218483,42.21389,42.21322,42.21559,42.213875,42.20797,42.201965,42.188828,42.17475,42.154064,42.133472,42.11808,42.10563,42.102127,42.107674,42.126293,42.15018,42.188442,42.220554,42.26661,42.308586,42.350204,42.40072,42.440052,42.50379,42.56678,42.648354,42.75816,42.8561,43.004734,43.129185,43.277832,43.415054,43.52385,43.624653,43.669952,43.726185,43.77469,43.822334,43.89081,43.948067,44.034332,44.11379,44.19953,44.256912,44.26915,44.204967,44.069016,43.8722,43.528397,43.191536,42.60535,42.075016,41.510593,41.03087,40.68799,40.324387,40.106354,39.83284,39.596516,39.388786,39.14312,38.969517,38.748283,38.56883,38.3997,38.214325,38.081657,37.903553,37.7611,37.606068,37.44539,37.325443,37.181778,37.085567,36.983,36.877205,36.781433,36.62937,36.49456,36.296375,36.070976,35.85457,35.565086,35.34505,35.061428,34.818146,34.588425,34.32174,34.138065,33.714943,33.261826,32.821335,32.433758,32.20465,32.010777,31.986214,32.117092,32.5139,33.005516,33.56066,33.872482,34.224003,34.512573,34.76583,35.067554,35.278214,35.52896,35.722466,35.90233,36.075592,36.178036,36.269127,36.297478,36.304924,36.2884,36.27377,36.243454,36.2139,36.187305,36.168518,36.157448,36.152634,36.156322,36.16677,36.180214,36.18885,36.198513,36.204834,36.206585,36.20086,36.19331,36.17746,36.163956,36.106815,36.03392,35.96075,35.919006,35.962193,35.70871,35.329514,35.121605,34.994743,34.84632,34.87081
33.302574,33.283344,33.26324,33.25143,33.238525,33.225086,33.214546,33.204876,33.20237,33.20407,33.217434,33.234848,33.267216,33.29776,33.336285,33.37482,33.406204,33.446926,33.477627,33.51791,33.556244,33.59378,33.642883,33.681396,33.73065,33.767418,33.80021,33.825302,33.837883,33.843277,33.836784,33.82205,33.801308,33.78553,33.770496,33.764687,33.762913,33.77205,33.785446,33.812805,33.839283,33.874443,33.916164,33.96145,34.039303,34.11101,34.22033,34.33114,34.453827,34.609383,34.73208,34.898407,35.035057,35.196022,35.38105,35.52977,35.752686,35.940292,36.17274,36.389374,36.54727,36.725014,36.84026,36.987175,37.116585,37.23188,37.3646,37.455853,37.566967,37.651447,37.72983,37.817406,37.88278,37.98191,38.07501,38.1902,38.33594,38.45925,38.635056,38.77507,38.935852,39.079388,39.18456,39.29691,39.36259,39.424942,39.458652,39.481686,39.500774,39.510986,39.526108,39.546066,39.57541,39.625633,39.671303,39.739594,39.801445,39.87059,39.948303,40.00875,40.085403,40.140106,40.201607,40.255135,40.294342,40.332623,40.351532,40.368286,40.375996,40.3785,40.39055,40.40792,40.45015,40.513714,40.589577,40.70918,40.81401,40.96316,41.088013,41.209606,41.32823,41.411552,41.512905,41.581856,41.65494,41.718197,41.764664,41.821304,41.86048,41.904633,41.937332,41.960747,41.978012,41.982742,41.98178,41.97323,41.961823,41.952423,41.95062,41.954147,41.96286,41.9739,41.98919,42.001858,42.016533,42.026928,42.040672,42.061005,42.081253,42.116364,42.149384,42.196392,42.251503,42.303818,42.372,42.4215,42.480717,42.523186,42.554276,42.57409,42.57824,42.578724,42.574028,42.568405,42.564087,42.563454,42.56816,42.574036,42.57347,42.56654,42.55893,42.546036,42.53415,42.51717,42.49984,42.485756,42.47287,42.46766,42.46953,42.48301,42.50152,42.532722,42.559586,42.598934,42.635807,42.672905,42.7193,42.75597,42.817024,42.87861,42.95854,43.067295,43.16487,43.313805,43.438927,43.589485,43.723137,43.820053,43.909378,43.950954,44.001778,44.046043,44.090168,44.156002,44.212463,44.29888,44.37956,44.467056,44.525124,44.536705,44.468166,44.325104,44.11701,43.759975,43.415455,42.812576,42.26477,41.680492,41.183075,40.828224,40.450806,40.22352,39.93979,39.696945,39.485477,39.237343,39.062828,38.841305,38.66243,38.493996,38.309017,38.176285,37.996334,37.85087,37.69196,37.526775,37.40339,37.25678,37.160095,37.059517,36.95836,36.867012,36.721252,36.591145,36.396896,36.17183,35.9535,35.658012,35.43151,35.139717,34.889954,34.655296,34.383896,34.196533,33.77718,33.328873,32.878826,32.476448,32.239555,32.03238,31.99804,32.13511,32.53243,32.994396,33.56791,33.936844,34.31362,34.607414,34.872887,35.189064,35.40908,35.668503,35.865562,36.04727,36.21875,36.31758,36.403595,36.427956,36.43259,36.41417,36.39837,36.367477,36.338127,36.311398,36.292374,36.28118,36.27584,36.27884,36.288216,36.30021,36.30764,36.314163,36.316994,36.317223,36.312695,36.30658,36.295395,36.28759,36.236843,36.164387,36.081047,36.02208,36.05098,35.793224,35.421207,35.21801,35.09629,34.94585,35.013947
33.32901,33.310303,33.291756,33.28206,33.27192,33.26158,33.252872,33.246502,33.247066,33.251827,33.267612,33.286545,33.319656,33.349728,33.386784,33.42259,33.45118,33.487587,33.514717,33.550888,33.5862,33.621346,33.668743,33.70672,33.75638,33.794544,33.829014,33.856537,33.871193,33.878906,33.873657,33.859604,33.838745,33.822594,33.80686,33.800537,33.798973,33.809353,33.824295,33.854294,33.883095,33.921486,33.96544,34.011276,34.08867,34.159546,34.269417,34.381805,34.50589,34.66333,34.7875,34.95699,35.09688,35.261585,35.44819,35.595936,35.813828,35.995605,36.22645,36.44014,36.586388,36.767166,36.899185,37.047626,37.16977,37.28303,37.4148,37.506012,37.61847,37.705627,37.787262,37.879684,37.94929,38.053165,38.148724,38.265167,38.40876,38.528603,38.69606,38.826904,38.97544,39.10723,39.204853,39.30931,39.37034,39.427376,39.457336,39.47752,39.494358,39.5037,39.51886,39.539818,39.56992,39.621433,39.66833,39.73853,39.80242,39.874428,39.956375,40.020557,40.103172,40.16352,40.233437,40.296967,40.34455,40.393238,40.419403,40.445625,40.461517,40.470345,40.48826,40.508575,40.553215,40.61693,40.692047,40.808865,40.910576,41.055885,41.17788,41.29664,41.41272,41.494324,41.594425,41.663498,41.737885,41.80439,41.85427,41.91684,41.961487,42.013397,42.05481,42.086205,42.114235,42.12724,42.13688,42.137306,42.13398,42.13318,42.1371,42.147537,42.161148,42.177006,42.19712,42.213318,42.23248,42.246105,42.26341,42.286697,42.308907,42.34552,42.378803,42.42543,42.479084,42.529617,42.59532,42.64306,42.700424,42.742172,42.77337,42.79487,42.80116,42.80523,42.80426,42.80269,42.802864,42.805397,42.81385,42.822372,42.825172,42.821754,42.816742,42.807396,42.798237,42.78456,42.769768,42.75721,42.745033,42.739464,42.739822,42.75067,42.76632,42.793644,42.817604,42.853127,42.88707,42.921722,42.965973,43.001244,43.060875,43.121826,43.201447,43.310722,43.40918,43.559586,43.68609,43.841347,43.97338,44.056927,44.13512,44.175438,44.222504,44.263405,44.30503,44.369095,44.425102,44.511856,44.59362,44.68255,44.741165,44.75225,44.680233,44.53147,44.314255,43.946762,43.596573,42.98073,42.41894,41.81806,41.30548,40.94064,40.550697,40.314278,40.022446,39.775196,39.56019,39.309456,39.13408,38.91233,38.734222,38.566765,38.382915,38.25091,38.07067,37.92386,37.76304,37.59546,37.470177,37.322163,37.22563,37.127033,37.029697,36.941917,36.801098,36.67456,36.48316,36.25793,36.03764,35.7367,35.504482,35.205055,34.948944,34.709167,34.43329,34.24302,33.827545,33.38405,32.925842,32.51168,32.27032,32.051853,32.007484,32.15015,32.54984,32.98979,33.576813,33.98816,34.38443,34.68331,34.95896,35.28724,35.515125,35.782066,35.98257,36.166466,36.336777,36.432243,36.515038,36.53746,36.53987,36.519413,36.5024,36.470413,36.44055,36.412907,36.392876,36.38096,36.37455,36.376656,36.385513,36.396114,36.400337,36.4034,36.40467,36.405922,36.40455,36.401367,36.39291,36.38618,36.33841,36.26692,36.1786,36.10888,36.12661,35.86567,35.499424,35.29989,35.181473,35.027466,35.13295
33.36276,33.34555,33.329315,33.321793,33.314186,33.30661,33.29968,33.296425,33.299934,33.30812,33.327034,33.34808,33.38272,33.41288,33.448997,33.48233,33.50814,33.540077,33.56344,33.595253,33.62735,33.65999,33.70568,33.743195,33.79355,33.833538,33.87017,33.90084,33.918232,33.929237,33.92607,33.913612,33.893467,33.877544,33.86158,33.854816,33.85338,33.864666,33.88075,33.912903,33.94371,33.985153,34.031544,34.07855,34.156357,34.227047,34.33695,34.449623,34.57398,34.73285,34.858887,35.0332,35.177864,35.34556,35.53207,35.67843,35.888683,36.06125,36.286827,36.49719,36.637657,36.818016,36.955463,37.110054,37.23501,37.344967,37.47343,37.56465,37.678932,37.769745,37.855858,37.954796,38.029957,38.139915,38.238396,38.355934,38.495804,38.610188,38.765587,38.883705,39.015903,39.13182,39.218163,39.31141,39.36668,39.41868,39.44704,39.46686,39.485035,39.49624,39.514378,39.53831,39.570984,39.625336,39.67429,39.747208,39.81353,39.888756,39.975056,40.042847,40.131527,40.1979,40.276955,40.352135,40.41001,40.47256,40.509106,40.548412,40.5755,40.593067,40.618923,40.64305,40.690605,40.75399,40.82751,40.93953,41.03607,41.173935,41.290184,41.405235,41.518585,41.597748,41.696526,41.766464,41.843494,41.915253,41.97028,42.04118,42.093185,42.1554,42.208176,42.249916,42.29194,42.315704,42.33883,42.350243,42.356567,42.36523,42.3749,42.391495,42.408623,42.427605,42.450203,42.467976,42.488937,42.503647,42.52198,42.545536,42.567516,42.6027,42.634018,42.677498,42.727036,42.773476,42.83406,42.87831,42.93197,42.97203,43.002888,43.026516,43.035824,43.044983,43.0493,43.0535,43.059868,43.066597,43.079353,43.09086,43.09931,43.10361,43.10563,43.103447,43.097813,43.087753,43.075333,43.064598,43.053894,43.04883,43.04888,43.05845,43.07249,43.09794,43.120777,43.15523,43.189003,43.224197,43.270084,43.307037,43.36927,43.432663,43.51526,43.628143,43.72972,43.884537,44.013798,44.168713,44.293274,44.36345,44.430626,44.4691,44.511833,44.549034,44.588005,44.65043,44.706264,44.793697,44.876755,44.967186,45.026096,45.036324,44.959682,44.80365,44.574867,44.194626,43.83808,43.206833,42.62783,42.00558,41.471916,41.091503,40.683388,40.43502,40.131466,39.876904,39.6559,39.400505,39.223427,39.001274,38.824757,38.659393,38.478676,38.349247,38.171055,38.024673,37.86377,37.69552,37.569508,37.421623,37.326355,37.230682,37.13822,37.055363,36.92094,36.798714,36.610573,36.384533,36.161026,35.85191,35.61133,35.300644,35.03482,34.7864,34.502846,34.30819,33.89564,33.45649,32.988472,32.558865,32.308945,32.07469,32.0168,32.15392,32.550385,32.97489,33.58918,34.054863,34.476707,34.782265,35.071625,35.41623,35.65473,35.932182,36.13739,36.323135,36.490803,36.581413,36.662334,36.685707,36.687332,36.665085,36.646336,36.612125,36.580544,36.55047,36.527832,36.513977,36.50524,36.505753,36.512978,36.520546,36.51883,36.518066,36.52027,36.52468,36.528145,36.529762,36.526093,36.521816,36.477127,36.405968,36.314518,36.233303,36.234993,35.96988,35.612152,35.41683,35.30093,35.141838,35.285706
33.387424,33.37177,33.357246,33.350746,33.344048,33.337463,33.33139,33.32952,33.3344,33.344616,33.365738,33.388393,33.424522,33.455223,33.491367,33.52368,33.54811,33.577663,33.59896,33.628345,33.65866,33.68994,33.734787,33.772137,33.823105,33.864414,33.902596,33.93554,33.95491,33.96853,33.96724,33.95647,33.9375,33.92228,33.906662,33.899773,33.89833,33.909737,33.926014,33.958725,33.990166,34.032684,34.08029,34.128464,34.20748,34.278908,34.38835,34.499794,34.623108,34.78219,34.909492,35.087517,35.235695,35.404083,35.58902,35.734283,35.93864,36.10386,36.322227,36.530594,36.677242,36.854916,36.981556,37.14312,37.279907,37.38733,37.51207,37.603264,37.718807,37.81224,37.901627,38.005215,38.08425,38.198357,38.298622,38.416496,38.552994,38.662792,38.808765,38.917297,39.03778,39.142113,39.219368,39.30381,39.355034,39.404778,39.434494,39.456665,39.478996,39.493694,39.515934,39.543,39.578575,39.63581,39.686592,39.761696,39.82961,39.9068,39.995396,40.064857,40.156593,40.22621,40.31021,40.39231,40.456802,40.529137,40.573563,40.622284,40.657295,40.68123,40.71285,40.7397,40.789238,40.852165,40.924255,41.03238,41.124863,41.256073,41.36699,41.47957,41.591583,41.669075,41.767372,41.838608,41.918385,41.9948,42.05416,42.13169,42.18931,42.259254,42.320404,42.36972,42.42195,42.453575,42.486305,42.505215,42.51796,42.532307,42.544994,42.564125,42.58187,42.600998,42.62282,42.639694,42.659225,42.6726,42.689247,42.710587,42.730545,42.76246,42.79085,42.830345,42.875515,42.917927,42.9737,43.014755,43.065033,43.10353,43.13395,43.15918,43.1709,43.184082,43.19255,43.201283,43.21237,43.222183,43.237717,43.251076,43.26416,43.275665,43.284836,43.289185,43.285946,43.277977,43.266685,43.257126,43.247833,43.24373,43.244667,43.254738,43.26908,43.295334,43.319168,43.35553,43.391663,43.42976,43.479782,43.520283,43.587357,43.654655,43.741623,43.858994,43.964058,44.12368,44.255455,44.404373,44.519062,44.58351,44.64576,44.682266,44.722115,44.757164,44.79461,44.85625,44.91221,45.000244,45.084103,45.175323,45.234093,45.243538,45.163475,45.002304,44.76548,44.376675,44.0162,43.37486,42.784195,42.14686,41.597168,41.203682,40.781334,40.52465,40.211784,39.950638,39.724335,39.46472,39.286034,39.063538,38.88862,38.725353,38.54804,38.42159,38.24656,38.10199,37.94267,37.775597,37.650238,37.50377,37.410133,37.316765,37.2277,37.148567,37.01875,36.899387,36.713295,36.48626,36.259987,35.94429,35.697075,35.377472,35.10372,34.847748,34.557377,34.359093,33.946663,33.508774,33.034466,32.593735,32.335136,32.088776,32.021194,32.14453,32.533676,32.957054,33.5985,34.10288,34.54339,34.853745,35.153244,35.50995,35.756317,36.04173,36.25035,36.43659,36.60149,36.68832,36.769417,36.795795,36.7984,36.775566,36.755478,36.719162,36.685677,36.653076,36.627754,36.611885,36.60094,36.600067,36.60531,36.6098,36.60295,36.600235,36.605186,36.612915,36.620052,36.625618,36.626488,36.625275,36.58248,36.510757,36.41915,36.331223,36.320324,36.052094,35.701073,35.50831,35.392994,35.230286,35.393288
33.422855,33.409397,33.396606,33.390305,33.38327,33.37584,33.36898,33.36756,33.373947,33.385914,33.40908,33.43344,33.471367,33.502937,33.539467,33.571064,33.594315,33.621727,33.641144,33.66842,33.697323,33.727615,33.772175,33.809853,33.862114,33.905365,33.945774,33.98192,34.00407,34.021557,34.023293,34.01555,33.999054,33.98548,33.970985,33.964153,33.96254,33.973297,33.98883,34.020622,34.0515,34.093796,34.141575,34.18991,34.269234,34.34095,34.450344,34.561577,34.68499,34.84423,34.971565,35.15004,35.298542,35.466164,35.649323,35.793716,35.991848,36.14862,36.353985,36.55957,36.72377,36.905712,37.018333,37.17563,37.317764,37.435814,37.566536,37.65383,37.76917,37.865562,37.958702,38.067703,38.151184,38.2697,38.371403,38.488655,38.61979,38.72299,38.856308,38.952545,39.05844,39.14922,39.2164,39.29194,39.33983,39.388947,39.422325,39.449013,39.478516,39.49904,39.528267,39.560608,39.600838,39.66232,39.715584,39.793343,39.86286,39.941795,40.032074,40.10258,40.19668,40.26915,40.35763,40.44642,40.517464,40.59987,40.65265,40.711517,40.755356,40.78656,40.82495,40.855095,40.907387,40.97042,41.041466,41.145706,41.23384,41.357975,41.46294,41.571205,41.68148,41.7592,41.859886,41.934853,42.020424,42.104607,42.170616,42.25776,42.323215,42.403976,42.47676,42.536617,42.602974,42.6454,42.691216,42.72011,42.741234,42.762615,42.778744,42.800205,42.817635,42.83577,42.855118,42.869614,42.885628,42.895958,42.909008,42.926147,42.942497,42.969086,42.99305,43.02671,43.065857,43.10288,43.152428,43.18949,43.235744,43.27271,43.303055,43.33113,43.34665,43.365906,43.3804,43.395626,43.41344,43.427696,43.447624,43.463413,43.479904,43.495224,43.507233,43.516697,43.51846,43.517727,43.513386,43.508823,43.50303,43.499435,43.501804,43.513474,43.529312,43.558212,43.58459,43.62507,43.66564,43.7089,43.765755,43.811813,43.886185,43.959038,44.052063,44.17505,44.283688,44.451523,44.588905,44.719,44.809837,44.869392,44.927856,44.96129,44.997253,45.029472,45.064934,45.125397,45.18127,45.269623,45.353962,45.445503,45.503418,45.511475,45.426903,45.259453,45.01307,44.614235,44.24924,43.596226,42.991833,42.335724,41.765335,41.355,40.913025,40.64373,40.31675,40.045364,39.8108,39.544617,39.363495,39.140392,38.967976,38.80835,38.6371,38.515938,38.34717,38.206833,38.05155,37.887882,37.764603,37.62123,37.53028,37.440002,37.355057,37.28061,37.156456,37.040527,36.85665,36.62783,36.397545,36.07267,35.816345,35.484535,35.199997,34.933956,34.63388,34.4299,34.013367,33.57305,33.091652,32.63768,32.365803,32.101967,32.0213,32.126144,32.505684,32.92813,33.603912,34.15679,34.623077,34.94208,35.254814,35.627384,35.88452,36.178066,36.389095,36.578156,36.742165,36.82486,36.904346,36.931988,36.936333,36.913666,36.891483,36.851974,36.815693,36.779564,36.75074,36.732403,36.71926,36.71724,36.7183,36.718628,36.709743,36.707794,36.715614,36.727806,36.740192,36.751198,36.758904,36.762825,36.724678,36.654037,36.563164,36.46579,36.43669,36.163094,35.820404,35.62973,35.51346,35.34481,35.528675
33.45836,33.446938,33.435,33.427498,33.418327,33.408066,33.399246,33.396637,33.403233,33.415543,33.43964,33.465034,33.504356,33.53692,33.574303,33.60614,33.629208,33.656055,33.674915,33.701664,33.73039,33.76069,33.80578,33.84418,33.89788,33.94288,33.985275,34.024307,34.049,34.070316,34.075317,34.071144,34.05795,34.04669,34.034073,34.02765,34.02584,34.035275,34.049156,34.078518,34.10755,34.148006,34.194633,34.242058,34.320763,34.392323,34.50181,34.61337,34.73734,34.8965,35.023136,35.19935,35.345272,35.511063,35.69233,35.835297,36.028915,36.179897,36.37231,36.572803,36.750134,36.940468,37.0494,37.198418,37.33689,37.466267,37.60688,37.693687,37.81048,37.909092,38.00489,38.117496,38.20405,38.325294,38.427376,38.54322,38.669155,38.76641,38.889153,38.975613,39.07041,39.151627,39.21205,39.282566,39.329605,39.380646,39.41933,39.45166,39.489372,39.516342,39.553215,39.591137,39.63612,39.70151,39.75676,39.836243,39.906235,39.985382,40.07514,40.14477,40.238304,40.31098,40.400276,40.49135,40.56512,40.652588,40.71012,40.774986,40.824524,40.86071,40.904167,40.937096,40.992302,41.056564,41.12805,41.230797,41.316612,41.436653,41.53788,41.64261,41.752,41.83146,41.936424,42.016426,42.109154,42.20233,42.275887,42.373764,42.44782,42.539757,42.62386,42.693703,42.773197,42.825592,42.88327,42.92091,42.949173,42.97605,42.994488,43.016773,43.032692,43.04867,43.064323,43.075516,43.08681,43.09323,43.10173,43.113914,43.12617,43.14714,43.166737,43.19485,43.228622,43.261017,43.30548,43.339485,43.382874,43.419186,43.450108,43.481453,43.500854,43.526024,43.546158,43.567352,43.591244,43.60948,43.633484,43.6512,43.6689,43.68403,43.694687,43.705627,43.71135,43.71727,43.72032,43.72121,43.720352,43.71891,43.724327,43.738827,43.757256,43.79019,43.820217,43.866234,43.912323,43.9617,44.026184,44.078278,44.160255,44.23857,44.337296,44.46509,44.577244,44.74717,44.882027,44.99096,45.060238,45.11755,45.174194,45.204514,45.237064,45.266853,45.300568,45.35974,45.415154,45.50302,45.586853,45.677567,45.733635,45.739845,45.651093,45.47859,45.224854,44.818794,44.451035,43.7895,43.174408,42.503372,41.915657,41.49061,41.030506,40.748856,40.407806,40.125862,39.88275,39.60971,39.426018,39.20272,39.03342,38.877472,38.712715,38.597656,38.436653,38.302074,38.152473,37.993828,37.873753,37.734425,37.646355,37.558857,37.477074,37.406357,37.286617,37.173283,36.9909,36.7602,36.526203,36.193092,35.92865,35.585922,35.291676,35.016487,34.707664,34.499012,34.07409,33.62626,33.14045,32.678402,32.395287,32.116966,32.02544,32.113205,32.483086,32.905174,33.607876,34.198338,34.68663,35.0148,35.338768,35.724396,35.99031,36.28981,36.502533,36.69544,36.860416,36.940292,37.017563,37.044895,37.051376,37.029648,37.00541,36.962654,36.923504,36.883873,36.851746,36.83118,36.816425,36.813873,36.81064,36.807594,36.799885,36.800865,36.811066,36.827404,36.844658,36.86084,36.874573,36.882553,36.84826,36.77887,36.68949,36.58551,36.542282,36.26467,35.928436,35.7383,35.6194,35.445084,35.63963
33.497944,33.48835,33.476692,33.467278,33.454983,33.44139,33.431084,33.42657,33.432014,33.443977,33.468708,33.49489,33.535473,33.56905,33.60749,33.639954,33.663193,33.69005,33.70886,33.73566,33.764603,33.795227,33.841057,33.88021,33.935326,33.981995,34.026295,34.06815,34.09537,34.120636,34.129112,34.128845,34.119354,34.11075,34.10038,34.094566,34.09263,34.100582,34.112595,34.139187,34.166092,34.204353,34.249542,34.295883,34.37379,34.445057,34.554214,34.665604,34.78934,34.94853,35.075615,35.250664,35.39455,35.559334,35.737953,35.87664,36.065315,36.2126,36.395416,36.585667,36.753723,36.954567,37.087296,37.236305,37.361244,37.48386,37.629677,37.73116,37.856453,37.955753,38.05216,38.16625,38.255646,38.379265,38.48152,38.59591,38.716953,38.80871,38.921852,38.999615,39.08467,39.157722,39.212524,39.27928,39.32624,39.379913,39.424255,39.462482,39.50856,39.54203,39.586533,39.629875,39.67942,39.748287,39.8051,39.885574,39.95529,40.03373,40.121727,40.1894,40.28073,40.35221,40.4405,40.531845,40.606606,40.69699,40.757797,40.82711,40.881348,40.92184,40.970158,41.00615,41.064995,41.13157,41.20472,41.30751,41.392128,41.509575,41.60821,41.710876,41.819748,41.89988,42.00805,42.092705,42.192635,42.295933,42.37863,42.490196,42.575462,42.680435,42.77661,42.856895,42.949898,43.012466,43.082214,43.128654,43.16403,43.196274,43.21687,43.23978,43.254047,43.267784,43.27969,43.287533,43.294113,43.29667,43.30063,43.307907,43.31617,43.331764,43.347267,43.370213,43.399075,43.427273,43.46731,43.4988,43.539936,43.576073,43.608006,43.642937,43.666317,43.69742,43.723076,43.750088,43.779823,43.801865,43.82968,43.849236,43.868504,43.884304,43.895027,43.90631,43.91263,43.919563,43.925034,43.928867,43.93519,43.941315,43.95282,43.97068,43.99208,44.02933,44.063316,44.115295,44.167236,44.22294,44.295204,44.35345,44.44305,44.526672,44.630474,44.763527,44.883636,45.04296,45.155575,45.2516,45.315422,45.3692,45.421776,45.448967,45.477974,45.505203,45.536934,45.59439,45.64895,45.73567,45.81831,45.907463,45.96093,45.964844,45.87162,45.69416,45.433357,45.020756,44.6511,43.98162,43.35591,42.670784,42.066513,41.626827,41.14843,40.854164,40.498764,40.20601,39.954163,39.674004,39.48751,39.264133,39.09809,38.945045,38.787018,38.679665,38.52763,38.3992,38.25587,38.10279,37.986298,37.85128,37.766113,37.6814,37.602608,37.53531,37.419674,37.3088,37.12784,36.895344,36.65777,36.316708,36.04441,35.691032,35.387215,35.102737,34.78609,34.574806,34.139534,33.680656,33.190857,32.723648,32.43219,32.142002,32.040527,32.112343,32.471474,32.889797,33.615585,34.241768,34.750793,35.08773,35.422535,35.81998,36.093132,36.39955,36.615868,36.812286,36.97802,37.05574,37.131485,37.158764,37.166985,37.145645,37.119217,37.073017,37.03083,36.98755,36.951996,36.929096,36.912567,36.90946,36.903244,36.89788,36.890514,36.893677,36.906326,36.92677,36.948826,36.97053,36.98915,36.998955,36.965004,36.894524,36.806175,36.69911,36.64769,36.368996,36.038044,35.84861,35.727364,35.5481,35.74948
33.54831,33.540764,33.529007,33.51674,33.5,33.481987,33.470093,33.462822,33.466015,33.47689,33.501823,33.528515,33.57023,33.60494,33.644836,33.678596,33.702637,33.730453,33.749985,33.777676,33.807365,33.838623,33.885307,33.925156,33.98152,34.029716,34.075863,34.12078,34.15088,34.180946,34.193928,34.198906,34.19462,34.189827,34.182953,34.17841,34.176735,34.182957,34.192566,34.215492,34.23958,34.274834,34.318043,34.36298,34.439896,34.510826,34.61953,34.73053,34.85369,35.01265,35.140198,35.314236,35.45621,35.619736,35.79579,35.93106,36.11464,36.256985,36.42871,36.604652,36.757088,36.958954,37.108833,37.26681,37.390568,37.504482,37.64857,37.759037,37.893196,37.998695,38.101116,38.21959,38.310303,38.435265,38.537514,38.65033,38.76674,38.853382,38.957836,39.02791,39.1047,39.171318,39.22189,39.286644,39.33478,39.392685,39.444115,39.489433,39.54531,39.586327,39.63958,39.688942,39.743378,39.81555,39.87348,39.953987,40.022194,40.09837,40.182262,40.245827,40.331642,40.399002,40.482513,40.56996,40.64218,40.73114,40.792297,40.86281,40.9196,40.96305,41.015762,41.055244,41.118973,41.18975,41.266586,41.372223,41.457855,41.575783,41.6743,41.77704,41.887703,41.970406,42.085,42.17736,42.28813,42.405434,42.500343,42.629623,42.72917,42.85215,42.965054,43.058655,43.168346,43.243347,43.327644,43.384483,43.428177,43.466682,43.489822,43.51362,43.52623,43.537796,43.54606,43.550674,43.552727,43.551567,43.551094,43.553528,43.55783,43.568214,43.579834,43.59793,43.622387,43.646927,43.68347,43.713276,43.753353,43.790474,43.824535,43.86432,43.892548,43.930458,43.962105,43.99528,44.030956,44.0567,44.088097,44.109196,44.12963,44.145515,44.155876,44.166115,44.17133,44.176933,44.182487,44.18753,44.19915,44.211754,44.230522,44.253887,44.278763,44.320885,44.359505,44.418495,44.47725,44.54023,44.621315,44.6865,44.784477,44.873688,44.98365,45.119358,45.24108,45.380066,45.46381,45.54947,45.613377,45.662926,45.71024,45.73394,45.758995,45.78325,45.812584,45.86758,45.9206,46.00495,46.085033,46.171036,46.220047,46.22033,46.121147,45.93788,45.669304,45.250282,44.879845,44.201233,43.562256,42.862362,42.240902,41.784603,41.284935,40.97578,40.603203,40.29722,40.03453,39.74543,39.55532,39.33503,39.176548,39.027466,38.874966,38.77309,38.63038,38.51053,38.375313,38.229446,38.117622,37.987846,37.905876,37.824287,37.748608,37.684597,37.573036,37.464737,37.285484,37.051456,36.810455,36.46126,36.180695,35.815918,35.501656,35.20669,34.88198,34.66948,34.218925,33.74317,33.252754,32.787582,32.492065,32.19406,32.084347,32.142338,32.490093,32.901863,33.642708,34.296326,34.823517,35.17111,35.51774,35.927135,36.206585,36.521538,36.743977,36.945,37.111458,37.18619,37.259575,37.286736,37.298286,37.2789,37.250397,37.200455,37.154663,37.106964,37.067177,37.04137,37.022785,37.019234,37.009987,37.002357,36.995613,37.001373,37.016785,37.04171,37.06884,37.096725,37.119118,37.128025,37.093575,37.022873,36.9352,36.82582,36.76838,36.49077,36.16561,35.974678,35.84813,35.66378,35.865707
33.58759,33.581635,33.569794,33.555298,33.53508,33.513702,33.50076,33.4915,33.49299,33.50298,33.527946,33.554935,33.59742,33.632954,33.67404,33.70898,33.73382,33.762646,33.782944,33.811478,33.841732,33.873383,33.920464,33.96059,34.01757,34.066647,34.11399,34.16114,34.19343,34.22731,34.243973,34.253304,34.253418,34.251877,34.2481,34.244804,34.243587,34.24858,34.25631,34.27637,34.298256,34.331146,34.37281,34.416718,34.492973,34.563736,34.672127,34.78282,34.905537,35.064102,35.191586,35.364975,35.505993,35.66828,35.84319,35.978615,36.1587,36.295113,36.456398,36.62153,36.768364,36.959595,37.09967,37.272224,37.416294,37.529793,37.665283,37.767143,37.904373,38.021782,38.135628,38.26071,38.34928,38.473568,38.576122,38.68795,38.80155,38.88509,38.984283,39.049744,39.121803,39.18496,39.2333,39.297478,39.34693,39.40837,39.465225,39.515854,39.579002,39.625587,39.685272,39.73899,39.796883,39.871185,39.92965,40.00969,40.07627,40.15016,40.23013,40.289818,40.370163,40.43312,40.511345,40.59382,40.662315,40.74776,40.80737,40.87663,40.933655,40.97811,41.03322,41.075066,41.142467,41.216858,41.297035,41.405937,41.493446,41.61348,41.71346,41.81749,41.931183,42.017586,42.139603,42.239746,42.360527,42.48934,42.593613,42.73583,42.845657,42.98381,43.11153,43.215996,43.339027,43.42393,43.51974,43.584763,43.63497,43.678467,43.70376,43.728573,43.74032,43.750694,43.756866,43.759644,43.759117,43.75583,43.75274,43.752266,43.754158,43.761368,43.770638,43.78585,43.807762,43.830254,43.865074,43.894295,43.934425,43.972977,44.009186,44.053043,44.085075,44.12815,44.164116,44.201668,44.24139,44.26954,44.30316,44.325104,44.346077,44.36166,44.37137,44.380573,44.38498,44.38987,44.395126,44.400154,44.411865,44.424675,44.447857,44.476776,44.503975,44.549232,44.59108,44.654995,44.718597,44.786755,44.874084,44.944176,45.04798,45.14101,45.25625,45.39159,45.50756,45.63015,45.697178,45.775703,45.838577,45.884933,45.92839,45.949547,45.97166,45.993633,46.02111,46.074043,46.12563,46.207733,46.285347,46.368343,46.41326,46.410316,46.30615,46.118355,45.84393,45.420692,45.05092,44.36501,43.714466,43.004112,42.3711,41.902626,41.38716,41.066856,40.681255,40.365067,40.093987,39.79747,39.603703,39.38896,39.240417,39.095345,38.94462,38.842705,38.705143,38.59266,38.46376,38.323544,38.215366,38.08952,38.009827,37.93055,37.85707,37.795273,37.686497,37.580036,37.402138,37.167274,36.92411,36.569344,36.28295,35.910145,35.58838,35.284973,34.955734,34.746193,34.282135,33.789177,33.300873,32.841663,32.54451,32.243088,32.129513,32.18023,32.52139,32.929302,33.675495,34.340477,34.87767,35.233864,35.589348,36.006943,36.289814,36.61126,36.839237,37.044037,37.210777,37.282623,37.35353,37.38066,37.396667,37.38031,37.349743,37.2968,37.248474,37.197403,37.154327,37.12622,37.106407,37.103035,37.09127,37.081505,37.075363,37.083206,37.10066,37.128773,37.159378,37.191628,37.215694,37.222248,37.18824,37.119377,37.031906,36.920242,36.85862,36.582733,36.262527,36.069016,35.93681,35.749138,35.947998
33.643707,33.63974,33.627647,33.61025,33.586025,33.56053,33.545807,33.533607,33.532673,33.54107,33.56546,33.59228,33.63513,33.671402,33.713818,33.75044,33.77665,33.807465,33.829384,33.859737,33.89127,33.923836,33.97162,34.01203,34.069527,34.119354,34.167847,34.217453,34.25228,34.29087,34.312305,34.3274,34.33354,34.336533,34.337265,34.336014,34.335907,34.339798,34.345436,34.36221,34.381577,34.411873,34.45197,34.494926,34.570747,34.641567,34.74984,34.860237,34.98241,35.140373,35.267548,35.44072,35.581417,35.7421,35.915386,36.050957,36.228233,36.35975,36.513058,36.666954,36.80288,36.97782,37.105354,37.276752,37.429092,37.54931,37.687714,37.786667,37.922554,38.042324,38.163166,38.29988,38.398758,38.52736,38.62681,38.737427,38.84857,38.929214,39.023376,39.08438,39.152115,39.21257,39.259537,39.324314,39.376015,39.442337,39.506,39.563225,39.635292,39.68869,39.75624,39.815186,39.877045,39.95346,40.012115,40.090767,40.154488,40.224518,40.298164,40.351814,40.423363,40.479065,40.548416,40.622158,40.68386,40.76226,40.81813,40.884014,40.940376,40.98556,41.044067,41.089836,41.16362,41.244667,41.331223,41.447124,41.539303,41.664986,41.769035,41.876774,41.99591,42.0878,42.21997,42.33058,42.46559,42.61204,42.73172,42.895023,43.020973,43.17923,43.325302,43.44448,43.58535,43.683064,43.793705,43.869133,43.92755,43.9775,44.005806,44.032555,44.04402,44.05393,44.05886,44.06048,44.058243,44.053406,44.048203,44.04512,44.04476,44.048958,44.055977,44.06842,44.08805,44.10885,44.14266,44.171963,44.2132,44.25427,44.29368,44.34288,44.37964,44.428795,44.46955,44.511772,44.55554,44.585968,44.62143,44.643707,44.664604,44.67912,44.687523,44.694744,44.697586,44.70089,44.705124,44.709553,44.72101,44.73404,44.76033,44.79364,44.82362,44.87317,44.919106,44.98929,45.05903,45.13368,45.22876,45.304905,45.415653,45.512955,45.636276,45.765327,45.857407,45.95781,46.017334,46.08993,46.149864,46.192497,46.231606,46.24999,46.26889,46.28833,46.313637,46.363884,46.41344,46.49213,46.56591,46.644386,46.683167,46.675285,46.563866,46.36976,46.087967,45.657734,45.28469,44.58838,43.925323,43.201588,42.55218,42.06615,41.528343,41.19271,40.78894,40.458378,40.17471,39.870697,39.677574,39.466812,39.324043,39.18299,39.03557,38.93474,38.8045,38.701546,38.581036,38.44821,38.344734,38.22357,38.14633,38.070045,37.999348,37.939766,37.83416,37.730183,37.55466,37.319817,37.074944,36.71438,36.421425,36.038773,35.70787,35.399384,35.05604,34.826645,34.348717,33.855858,33.373848,32.928925,32.64654,32.350136,32.22947,32.275486,32.60623,32.996326,33.734364,34.406216,34.951843,35.318657,35.68399,36.112473,36.401794,36.733246,36.969322,37.18042,37.347343,37.413467,37.480606,37.507545,37.52427,37.51146,37.486183,37.433197,37.379673,37.32376,37.275993,37.244762,37.221138,37.215176,37.200924,37.190506,37.185135,37.19536,37.215282,37.24717,37.281834,37.319244,37.34524,37.348904,37.3151,37.247936,37.16009,37.044174,36.975533,36.700584,36.385902,36.185486,36.042152,35.8485,36.042355
33.68747,33.6848,33.672398,33.652992,33.626442,33.598328,33.58201,33.567417,33.564587,33.571426,33.594795,33.620934,33.663414,33.69985,33.742973,33.780888,33.808357,33.841194,33.86485,33.897194,33.93016,33.9638,34.012306,34.05289,34.11053,34.16054,34.20945,34.26033,34.296593,34.338158,34.36284,34.38199,34.392593,34.39901,34.40335,34.40396,34.4052,34.408882,34.413464,34.42849,34.44651,34.475533,34.514984,34.55766,34.633568,34.704678,34.813087,34.92336,35.04518,35.202656,35.32946,35.50293,35.644108,35.80387,35.976105,36.111725,36.288376,36.418655,36.57061,36.71885,36.844666,37.006966,37.12648,37.28208,37.425507,37.55347,37.702454,37.805336,37.937607,38.050873,38.170612,38.316555,38.431053,38.567204,38.663742,38.773964,38.884186,38.96373,39.05603,39.11548,39.181973,39.242096,39.289207,39.35533,39.40892,39.478878,39.54721,39.60885,39.686775,39.744614,39.8173,39.879543,39.943752,40.021057,40.0794,40.156372,40.217392,40.283875,40.351967,40.400417,40.46427,40.51352,40.574898,40.6406,40.69593,40.767406,40.81932,40.881554,40.936874,40.98233,41.04377,41.09326,41.173176,41.260807,41.353767,41.47708,41.574486,41.706604,41.8153,41.927288,42.05148,42.14781,42.287624,42.405964,42.552002,42.712982,42.846016,43.02755,43.16711,43.340157,43.49875,43.628815,43.782578,43.88917,44.01003,44.092495,44.15638,44.210754,44.241295,44.269882,44.281857,44.292343,44.297653,44.299507,44.297436,44.29252,44.286865,44.282875,44.281616,44.28453,44.290558,44.3018,44.320595,44.34095,44.374977,44.40501,44.447784,44.491104,44.53305,44.585957,44.62578,44.67861,44.721954,44.76651,44.812004,44.843243,44.878983,44.900795,44.92091,44.93406,44.94113,44.946426,44.947754,44.94943,44.95247,44.956078,44.967194,44.98046,45.00703,45.041443,45.073524,45.12657,45.17537,45.250015,45.324097,45.403267,45.503647,45.583908,45.699394,45.799118,45.92653,46.045734,46.11155,46.19722,46.261375,46.332214,46.388943,46.42934,46.46601,46.48292,46.50013,46.518135,46.542152,46.590523,46.638485,46.714363,46.78492,46.859703,46.89344,46.88143,46.764187,46.565178,46.27821,45.84171,45.463142,44.758636,44.088425,43.354744,42.69207,42.192177,41.636963,41.28955,40.87166,40.52987,40.23587,39.928017,39.73929,39.528793,39.38469,39.245453,39.101128,39.002052,38.877556,38.78131,38.666885,38.53932,38.439102,38.320816,38.244816,38.1706,38.101788,38.043182,37.93943,37.837326,37.6641,37.430344,37.185356,36.822067,36.52543,36.136414,35.79957,35.491997,35.132492,34.871117,34.38641,33.91102,33.43679,33.00733,32.747772,32.464077,32.33964,32.38547,32.705795,33.07361,33.79277,34.46105,35.00813,35.382088,35.752975,36.18945,36.48517,36.825134,37.067673,37.28398,37.45073,37.511566,37.575706,37.602364,37.61595,37.605156,37.58886,37.538937,37.48118,37.421635,37.37001,37.33635,37.308197,37.298187,37.28264,37.273254,37.268337,37.27996,37.301483,37.33577,37.373047,37.41384,37.4412,37.443153,37.40936,37.342854,37.25435,37.134377,37.059357,36.783707,36.471878,36.263573,36.109245,35.909927,36.099136
33.73736,33.735954,33.723198,33.70182,33.673424,33.6429,33.624695,33.60724,33.60205,33.60662,33.62802,33.65262,33.69378,33.729874,33.77341,33.812828,33.841938,33.877663,33.903908,33.93931,33.97457,34.00994,34.05963,34.10053,34.158226,34.208076,34.25698,34.308533,34.34574,34.389828,34.417633,34.440975,34.456562,34.466957,34.475933,34.479366,34.48314,34.487747,34.492172,34.506554,34.52402,34.55264,34.592064,34.634926,34.7113,34.782887,34.89149,35.001537,35.122913,35.27983,35.406258,35.579895,35.721626,35.881775,36.054195,36.18994,36.366028,36.495087,36.644913,36.787506,36.904953,37.056435,37.168514,37.309994,37.439972,37.558792,37.703274,37.807335,37.948444,38.070847,38.18817,38.333458,38.45344,38.60312,38.711815,38.823303,38.930145,39.00869,39.101982,39.163857,39.23317,39.29457,39.340137,39.40554,39.460205,39.534225,39.608433,39.675053,39.759415,39.822075,39.900192,39.965733,40.032154,40.10981,40.16722,40.241432,40.29857,40.359993,40.42044,40.461823,40.515274,40.555805,40.60658,40.661766,40.708836,40.771523,40.81859,40.876606,40.931313,40.977875,41.04429,41.09961,41.188843,41.28622,41.388557,41.522537,41.627403,41.768356,41.88311,42.0006,42.131134,42.23301,42.382263,42.50994,42.668854,42.846245,42.993973,43.196205,43.351875,43.544296,43.71939,43.861748,44.029423,44.145546,44.277138,44.36676,44.436054,44.494774,44.527573,44.558174,44.571007,44.58259,44.589024,44.59175,44.590607,44.58609,44.58039,44.575645,44.573463,44.574966,44.579884,44.58988,44.607903,44.62786,44.662315,44.693306,44.737915,44.783714,44.828407,44.885086,44.92787,44.984013,45.02935,45.07551,45.121635,45.15275,45.187515,45.207893,45.226273,45.237198,45.24229,45.24498,45.24445,45.24414,45.245834,45.248604,45.259506,45.27323,45.300724,45.33762,45.374207,45.432926,45.48516,45.565544,45.645298,45.730267,45.83732,45.922516,46.046898,46.15058,46.263214,46.36252,46.420177,46.50006,46.56307,46.631027,46.68493,46.72312,46.757576,46.773308,46.789017,46.805656,46.828415,46.874767,46.9209,46.993546,47.060326,47.130753,47.158417,47.141365,47.016834,46.811565,46.517715,46.073326,45.688606,44.973602,44.293144,43.544327,42.863487,42.347786,41.772,41.409702,40.974182,40.618477,40.312073,39.99867,39.813602,39.60369,39.459137,39.32159,39.180305,39.083305,38.9656,38.87726,38.769882,38.64824,38.55156,38.435936,38.360657,38.28862,38.221764,38.163597,38.061527,37.961685,37.791733,37.56042,37.316612,36.951797,36.65197,36.256363,35.91304,35.606747,35.230835,34.936222,34.44541,33.99024,33.528282,33.119595,32.884323,32.63082,32.522682,32.565548,32.86121,33.20101,33.887184,34.53715,35.079536,35.461784,35.837605,36.28309,36.58721,36.93773,37.18737,37.40747,37.57303,37.629272,37.690536,37.716858,37.729027,37.719563,37.707466,37.6621,37.60589,37.542908,37.485146,37.4479,37.41392,37.399055,37.38112,37.371986,37.367203,37.380173,37.403473,37.440636,37.481274,37.526405,37.556274,37.557262,37.524246,37.45874,37.369858,37.24498,37.161972,36.88356,36.572876,36.353912,36.185898,35.97991,36.161076
33.78354,33.782494,33.76899,33.746094,33.71659,33.684475,33.664703,33.644665,33.6371,33.63896,33.65751,33.679726,33.718517,33.753586,33.796906,33.837643,33.8685,33.907585,33.93695,33.976204,34.014545,34.05239,34.10392,34.14542,34.203243,34.252598,34.3009,34.351936,34.3889,34.43371,34.463108,34.48903,34.50824,34.521736,34.534836,34.541256,34.548164,34.554916,34.560425,34.575935,34.59422,34.623928,34.664368,34.70817,34.785614,34.857933,34.966995,35.07696,35.198082,35.354645,35.48085,35.654697,35.797115,35.958645,36.132484,36.268925,36.44545,36.57434,36.72342,36.862732,36.974953,37.11959,37.226818,37.357662,37.473373,37.575493,37.705517,37.805023,37.951237,38.083538,38.202965,38.34763,38.46575,38.62585,38.749287,38.866226,38.974045,39.053368,39.148163,39.21167,39.28321,39.347347,39.395576,39.463654,39.519722,39.5971,39.675503,39.74592,39.83513,39.901382,39.983536,40.05143,40.119278,40.196667,40.25287,40.324135,40.377438,40.4339,40.487038,40.521793,40.565453,40.59781,40.638702,40.684223,40.723763,40.778618,40.82158,40.876472,40.931732,40.98047,41.053352,41.115707,41.215843,41.324272,41.437126,41.582954,41.6961,41.846638,41.967712,42.090828,42.22755,42.334766,42.492897,42.62919,42.79982,42.99205,43.15315,43.37385,43.543636,43.752945,43.942497,44.096153,44.2754,44.398247,44.53742,44.631824,44.704548,44.76611,44.800602,44.833176,44.847515,44.860992,44.869778,44.87444,44.87555,44.872334,44.867516,44.862793,44.86023,44.860916,44.86509,44.874382,44.892117,44.912056,44.94718,44.979134,45.025364,45.073044,45.11963,45.17855,45.222923,45.280388,45.32596,45.37188,45.416786,45.44651,45.478928,45.49713,45.513153,45.521595,45.52466,45.52488,45.522697,45.520626,45.52117,45.523262,45.53411,45.548363,45.57675,45.616325,45.65822,45.723457,45.77944,45.865494,45.95047,46.04078,46.153946,46.24408,46.373817,46.47659,46.568672,46.65023,46.712105,46.793804,46.854206,46.920193,46.972614,47.0098,47.043568,47.059204,47.0746,47.09065,47.112675,47.157295,47.20163,47.270935,47.33376,47.3997,47.421196,47.39908,47.2674,47.056118,46.755722,46.303734,45.912743,45.188625,44.499626,43.734215,43.033268,42.502296,41.90641,41.529106,41.075935,40.706497,40.388397,40.06917,39.88645,39.67614,39.530537,39.39356,39.254585,39.15989,39.048237,38.96653,38.86513,38.74831,38.65439,38.540215,38.464657,38.393974,38.328465,38.27014,38.16938,38.071938,37.90628,37.679375,37.438908,37.075516,36.77468,36.37555,36.027683,35.72246,35.330498,35.004375,34.508427,34.074055,33.628895,33.240723,33.020767,32.798706,32.71609,32.7548,33.02596,33.350067,33.998634,34.6109,35.140015,35.530106,35.90988,36.36496,36.67897,37.04185,37.299255,37.521133,37.684902,37.738823,37.79808,37.82355,37.834877,37.82534,37.81337,37.77253,37.72145,37.6569,37.593643,37.552708,37.51275,37.492973,37.472244,37.462776,37.457634,37.471367,37.49607,37.535767,37.579758,37.629257,37.662556,37.66398,37.632652,37.5683,37.479515,37.349754,37.25844,36.975067,36.662857,36.431763,36.248802,36.03444,36.206543
33.823215,33.82211,33.807793,33.783707,33.75325,33.719955,33.69922,33.67723,33.66761,33.666996,33.6828,33.702694,33.73912,33.773117,33.816063,33.857903,33.89038,33.93261,33.964912,34.00783,34.049187,34.089546,34.142994,34.18515,34.24315,34.29199,34.339577,34.38972,34.426033,34.47078,34.500957,34.52845,34.55018,34.56594,34.582268,34.5912,34.60094,34.609863,34.616653,34.63366,34.653057,34.684193,34.725876,34.770805,34.84944,34.92252,35.032173,35.142242,35.263275,35.4197,35.545837,35.720016,35.863094,36.02554,36.20076,36.338615,36.516247,36.64521,36.794224,36.931023,37.03828,37.177185,37.28118,37.405975,37.513557,37.60666,37.72345,37.81211,37.945633,38.074944,38.209084,38.366505,38.481567,38.641037,38.767853,38.895657,39.014023,39.096436,39.189323,39.247704,39.31497,39.38184,39.441788,39.518623,39.574623,39.653194,39.733315,39.806503,39.899513,39.968487,40.053837,40.123672,40.192673,40.269875,40.32512,40.394093,40.44438,40.49697,40.5443,40.573692,40.609528,40.635445,40.668613,40.706627,40.74032,40.789085,40.82885,40.88144,40.937572,40.988518,41.067825,41.1372,41.247856,41.366535,41.488754,41.645,41.765465,41.924454,42.05106,42.17903,42.321106,42.433002,42.59882,42.742523,42.923317,43.128532,43.301567,43.538235,43.71967,43.94075,44.14051,44.305153,44.494873,44.62235,44.766975,44.864777,44.93981,45.003387,45.03921,45.073612,45.08956,45.105026,45.116352,45.12313,45.126717,45.12496,45.12118,45.116676,45.113945,45.11407,45.117645,45.126392,45.143913,45.16389,45.19953,45.232185,45.27963,45.328636,45.376392,45.43657,45.481773,45.539597,45.584686,45.62973,45.672928,45.70105,45.731033,45.74714,45.760937,45.76718,45.76856,45.76677,45.76328,45.759773,45.759403,45.76097,45.771828,45.786537,45.815735,45.857716,45.9043,45.975517,46.03519,46.12626,46.21552,46.310287,46.428722,46.52384,46.652073,46.74772,46.83188,46.907764,46.969353,47.05018,47.10929,47.174164,47.225975,47.262833,47.296684,47.312683,47.32836,47.344273,47.365883,47.409096,47.451828,47.51805,47.577168,47.63896,47.654846,47.62816,47.4902,47.273758,46.967815,46.509293,46.112633,45.381294,44.68594,43.905716,43.186043,42.64078,42.02648,41.635773,41.166824,40.785275,40.45723,40.132797,39.95156,39.7405,39.593792,39.45697,39.31986,39.22737,39.12078,39.044395,38.947845,38.83487,38.743088,38.629707,38.553535,38.48393,38.419533,38.36071,38.261024,38.16597,38.004814,37.782837,37.54631,37.185448,36.88463,36.484154,36.133186,35.827286,35.41993,35.066845,34.56533,34.147957,33.72152,33.349182,33.131454,32.924076,32.857437,32.891163,33.15091,33.48082,34.102943,34.671516,35.18525,35.582703,35.966793,36.431602,36.755127,37.130486,37.39579,37.618584,37.780685,37.833794,37.891586,37.91574,37.92605,37.91607,37.90393,37.866127,37.818817,37.754097,37.687557,37.643517,37.598328,37.574234,37.550903,37.54091,37.535294,37.549507,37.575287,37.61712,37.664093,37.717567,37.754234,37.756447,37.7269,37.663635,37.57509,37.44099,37.342186,37.053368,36.738464,36.496254,36.29867,36.073296,36.238186
33.880074,33.87704,33.860085,33.833797,33.8011,33.765564,33.74348,33.718594,33.705822,33.701344,33.7128,33.72901,33.76162,33.79374,33.835663,33.87864,33.91313,33.95964,33.99609,34.04446,34.090668,34.13533,34.192566,34.236465,34.295647,34.344204,34.390953,34.439316,34.473892,34.516945,34.54651,34.57409,34.59707,34.614273,34.63331,34.644836,34.65779,34.6698,34.67883,34.698784,34.72047,34.75444,34.798477,34.845398,34.926064,35.00039,35.111153,35.221634,35.34291,35.499466,35.6257,35.800186,35.94391,36.108147,36.2856,36.42489,36.603996,36.733673,36.883408,37.019012,37.123466,37.257137,37.356407,37.47506,37.57514,37.659576,37.76292,37.84015,37.956703,38.07646,38.215607,38.383804,38.50518,38.665413,38.789467,38.923462,39.048714,39.1326,39.22312,39.277107,39.34073,39.409256,39.475533,39.566322,39.635452,39.720505,39.8013,39.876873,39.97322,40.044914,40.133606,40.20565,40.276054,40.35328,40.407635,40.47438,40.52175,40.570473,40.612617,40.637794,40.667175,40.68754,40.713924,40.74559,40.774544,40.81952,40.858433,40.912224,40.972855,41.029213,41.117584,41.194782,41.317436,41.448162,41.582283,41.751816,41.881336,42.05043,42.183304,42.31659,42.464424,42.581467,42.755936,42.90818,43.10094,43.3217,43.509533,43.76325,43.95518,44.189194,44.400932,44.57724,44.777172,44.90834,45.057465,45.15793,45.23464,45.300003,45.337406,45.37442,45.39308,45.411762,45.427177,45.437355,45.444878,45.445503,45.443623,45.439903,45.437313,45.437088,45.44011,45.448425,45.465836,45.485893,45.521942,45.555058,45.603313,45.65302,45.701187,45.761497,45.806625,45.86356,45.90715,45.95034,45.99099,46.017033,46.044136,46.058018,46.06963,46.073975,46.073997,46.070625,46.06613,46.0616,46.060677,46.06199,46.07321,46.088696,46.119335,46.16408,46.2145,46.2927,46.358986,46.456703,46.55033,46.649853,46.774345,46.876286,46.997383,47.0783,47.157604,47.233284,47.29457,47.374603,47.43287,47.49739,47.549614,47.58715,47.6224,47.639706,47.656628,47.672775,47.69391,47.734932,47.775093,47.83635,47.889664,47.945156,47.953148,47.92038,47.774628,47.552307,47.240448,46.7748,46.37086,45.634792,44.937157,44.138565,43.392513,42.827995,42.188705,41.779663,41.289238,40.891396,40.550674,40.218185,40.03637,39.822807,39.67428,39.53678,39.40172,39.312584,39.21176,39.140762,39.049355,38.94052,38.851124,38.738636,38.661575,38.591225,38.52714,38.469723,38.37311,38.281303,38.12696,37.91285,37.682976,37.32731,37.027798,36.62849,36.27534,35.967323,35.537346,35.147682,34.634308,34.23425,33.82999,33.47603,33.25832,33.06471,33.015285,33.047398,33.299088,33.63829,34.222767,34.72867,35.21946,35.627037,36.018486,36.49917,36.83766,37.2332,37.51194,37.73748,37.898567,37.951477,38.00756,38.02939,38.037697,38.026268,38.013435,37.976837,37.931587,37.867577,37.799107,37.75158,37.700653,37.671944,37.645412,37.634315,37.627872,37.64244,37.669456,37.714073,37.765312,37.824535,37.86676,37.871162,37.84511,37.78395,37.69653,37.556923,37.447617,37.152187,36.834923,36.577457,36.36097,36.12424,36.280304
33.92731,33.921654,33.901604,33.873077,33.83786,33.79995,33.77662,33.749153,33.733635,33.725807,33.73353,33.74661,33.775932,33.806416,33.847294,33.89096,33.926895,33.976727,34.016495,34.069374,34.119812,34.168354,34.229263,34.275093,34.33584,34.384537,34.430817,34.47757,34.510418,34.55134,34.579536,34.60607,34.62882,34.646214,34.66635,34.679344,34.694344,34.708675,34.719635,34.742264,34.76606,34.80263,34.848804,34.897476,34.97988,35.05528,35.16706,35.278004,35.399662,35.5565,35.682922,35.857483,36.00152,36.16763,36.34709,36.48693,36.66699,36.797565,36.94821,37.084236,37.189194,37.32016,37.414886,37.529015,37.62463,37.70388,37.80076,37.87361,37.981598,38.092556,38.22065,38.389275,38.525085,38.690105,38.808502,38.939102,39.06144,39.143715,39.233383,39.28762,39.351696,39.419804,39.480976,39.583046,39.673798,39.76764,39.847244,39.923782,40.021725,40.095116,40.18594,40.259506,40.330986,40.40837,40.46215,40.527515,40.57315,40.619545,40.659283,40.68322,40.710228,40.728195,40.75148,40.780457,40.807648,40.85251,40.89312,40.95083,41.017292,41.079605,41.17506,41.256783,41.386963,41.52578,41.66866,41.848045,41.984062,42.160133,42.29705,42.433624,42.584938,42.70517,42.88522,43.04319,43.2442,43.47592,43.674644,43.938763,44.135418,44.3785,44.599277,44.782333,44.987614,45.120422,45.27156,45.37313,45.4504,45.5167,45.555237,45.594345,45.61532,45.636703,45.65552,45.668533,45.679306,45.681885,45.68168,45.678783,45.676453,45.67611,45.678787,45.686916,45.704277,45.724365,45.760498,45.793694,45.842033,45.891644,45.939507,45.999123,46.043594,46.099228,46.141342,46.18289,46.221634,46.246277,46.27157,46.284164,46.294662,46.298225,46.29776,46.293846,46.289,46.28419,46.283253,46.284622,46.296333,46.312527,46.344543,46.39108,46.442543,46.525414,46.59816,46.701122,46.79722,46.899586,47.028587,47.13674,47.250366,47.317184,47.394722,47.473076,47.5342,47.613888,47.671936,47.736732,47.789852,47.82846,47.8654,47.884098,47.902374,47.91886,47.939625,47.978752,48.01668,48.073654,48.122055,48.172333,48.17413,48.13678,47.985474,47.759293,47.443836,46.973686,46.564285,45.827744,45.13245,44.320786,43.553688,42.97425,42.315422,41.891884,41.384556,40.973953,40.623642,40.28416,40.100395,39.884056,39.73402,39.595585,39.461918,39.375595,39.278706,39.210953,39.1228,39.016693,38.928936,38.817223,38.73956,38.66704,38.602325,38.547657,38.454647,38.365204,38.21634,38.008736,37.784523,37.433678,37.135834,36.739094,36.385517,36.07557,35.627,35.20833,34.683094,34.29325,33.903244,33.562218,33.345512,33.16191,33.124725,33.160564,33.40937,33.751717,34.302956,34.759148,35.231224,35.646866,36.04483,36.539196,36.89036,37.30313,37.59375,37.822746,37.98397,38.036896,38.09173,38.111603,38.118065,38.10522,38.091995,38.054497,38.008495,37.945267,37.876648,37.826847,37.77233,37.740852,37.712093,37.699932,37.692764,37.707497,37.73538,37.782166,37.83689,37.900856,37.947975,37.95466,37.93196,37.872856,37.78679,37.643074,37.525284,37.225502,36.90767,36.63842,36.408028,36.165226,36.314972
33.99687,33.98652,33.96146,33.929817,33.891113,33.850044,33.82509,33.79415,33.774845,33.762268,33.76454,33.773056,33.797455,33.825333,33.864197,33.908257,33.9458,33.9998,34.043884,34.10282,34.159187,34.213364,34.27978,34.3286,34.391884,34.440952,34.486618,34.530853,34.560867,34.598076,34.62361,34.64766,34.668983,34.68586,34.706764,34.721455,34.739105,34.756874,34.77091,34.797874,34.82509,34.865807,34.915337,34.966736,35.05184,35.12886,35.242226,35.35396,35.47627,35.63344,35.759842,35.93462,36.079185,36.246857,36.427635,36.567432,36.747887,36.87919,37.030773,37.16738,37.272995,37.40119,37.49112,37.60003,37.690407,37.76413,37.853783,37.921288,38.02126,38.12441,38.24169,38.406746,38.54972,38.7183,38.835052,38.9625,39.080837,39.16078,39.248516,39.302185,39.365936,39.433464,39.491898,39.59651,39.6948,39.810738,39.910507,39.989174,40.08598,40.1596,40.252655,40.328873,40.401382,40.48044,40.536392,40.6047,40.652153,40.698944,40.73719,40.75909,40.783165,40.798874,40.81975,40.84735,40.874023,40.920403,40.963867,41.02702,41.100716,41.169746,41.274773,41.36419,41.5027,41.64911,41.8025,41.994072,42.137863,42.322376,42.464268,42.604935,42.760784,42.88524,43.072754,43.238354,43.450413,43.695724,43.906563,44.183243,44.386703,44.640747,44.871628,45.061993,45.27283,45.407192,45.560387,45.663277,45.741425,45.809464,45.85,45.8928,45.917786,45.94364,45.96794,45.985397,46.001366,46.007153,46.009766,46.00852,46.006996,46.007103,46.00977,46.018127,46.035805,46.05619,46.092564,46.1258,46.17403,46.22313,46.27011,46.3282,46.371353,46.424957,46.465157,46.504665,46.54139,46.56479,46.588768,46.600754,46.611008,46.614895,46.6149,46.61161,46.60723,46.60305,46.602867,46.604885,46.61779,46.635136,46.669155,46.71819,46.77186,46.859413,46.937256,47.04591,47.146168,47.255028,47.383514,47.4829,47.587257,47.64953,47.726173,47.805714,47.866844,47.9466,48.004883,48.07069,48.125732,48.16642,48.206238,48.22706,48.247444,48.264244,48.28395,48.319206,48.35282,48.401993,48.44166,48.48237,48.473347,48.428574,48.268852,48.037495,47.71772,47.242878,46.82747,46.092567,45.402172,44.573067,43.77694,43.177418,42.491943,42.048386,41.517807,41.08986,40.727306,40.377472,40.1887,39.966984,39.814327,39.67375,39.541584,39.459473,39.367138,39.302437,39.217865,39.11507,39.02949,38.919064,38.841095,38.766693,38.702152,38.65146,38.564255,38.47928,38.3397,38.14269,37.927902,37.58328,37.285423,36.889305,36.532265,36.216297,35.73949,35.280663,34.734108,34.351444,33.973442,33.649345,33.44317,33.270752,33.23755,33.26641,33.49945,33.832325,34.349815,34.76765,35.224518,35.64988,36.06018,36.57833,36.95088,37.393524,37.705273,37.94117,38.10315,38.155853,38.208176,38.224133,38.22621,38.20938,38.194298,38.155075,38.108543,38.04641,37.977722,37.925232,37.866356,37.831497,37.80007,37.78674,37.7788,37.79397,37.823166,37.873123,37.932896,38.00367,38.05809,38.06849,38.051163,37.995544,37.911903,37.76355,37.63517,37.33157,37.01494,36.728653,36.483635,36.24716,36.388763
34.058292,34.043087,34.01324,33.979095,33.93772,33.894337,33.86814,33.83451,33.812187,33.795685,33.793373,33.798027,33.818123,33.84356,33.880234,33.92398,33.962368,34.019188,34.066395,34.129967,34.19116,34.25012,34.32142,34.37301,34.438774,34.48839,34.533646,34.5756,34.60294,34.636417,34.65901,34.68004,34.69911,34.714752,34.735447,34.751106,34.770638,34.79133,34.80818,34.839256,34.869728,34.9144,34.96714,35.02118,35.108902,35.187504,35.302486,35.41507,35.538128,35.695534,35.821632,35.99671,36.14183,36.309547,36.489628,36.628315,36.80786,36.938976,37.09064,37.22748,37.333603,37.460056,37.546814,37.65242,37.739803,37.810722,37.89657,37.96102,38.057747,38.157654,38.269016,38.427773,38.567207,38.736923,38.857227,38.98217,39.096096,39.17392,39.259796,39.312798,39.376083,39.443237,39.501717,39.600525,39.691597,39.82663,39.952354,40.03733,40.136307,40.21072,40.305965,40.384373,40.458138,40.53985,40.59926,40.67119,40.720623,40.76896,40.80758,40.828842,40.852863,40.86922,40.89106,40.920227,40.948387,40.99755,41.04373,41.110874,41.18952,41.263622,41.37628,41.47207,41.615623,41.76567,41.92579,42.12535,42.274097,42.46411,42.609447,42.753143,42.912754,43.040802,43.234535,43.4063,43.62722,43.882225,44.100166,44.38527,44.594387,44.855965,45.092987,45.287354,45.50106,45.63617,45.79061,45.89466,45.97384,46.043976,46.08674,46.133514,46.162655,46.192978,46.22254,46.244164,46.265038,46.27391,46.279343,46.279987,46.279606,46.28074,46.283875,46.29299,46.31134,46.332275,46.36897,46.402157,46.450035,46.498287,46.544075,46.600334,46.64199,46.693703,46.732483,46.77063,46.80648,46.82966,46.853954,46.866753,46.87831,46.884064,46.88573,46.884518,46.88156,46.87903,46.880295,46.883476,46.89789,46.916393,46.95219,47.003174,47.05891,47.148735,47.227867,47.339565,47.442497,47.5549,47.676548,47.758934,47.85676,47.9244,48.0014,48.08056,48.141945,48.22236,48.281487,48.348915,48.406357,48.449482,48.492332,48.51513,48.537476,48.55432,48.57261,48.603333,48.63201,48.672592,48.702824,48.733032,48.712532,48.660236,48.492477,48.25679,47.933926,47.456627,47.03795,46.30568,45.619625,44.777004,43.957817,43.342205,42.635403,42.175858,41.62686,41.185455,40.81411,40.45536,40.260418,40.032894,39.877518,39.7342,39.602646,39.52421,39.434486,39.370598,39.287796,39.187065,39.103065,38.993923,38.91626,38.841286,38.777946,38.731,38.649734,38.569725,38.439774,38.25309,38.046837,37.7072,37.40857,37.010963,36.64862,36.32592,35.82313,35.328934,34.756638,34.370235,33.99288,33.678658,33.4859,33.313232,33.265873,33.27916,33.491997,33.80291,34.30905,34.732323,35.190765,35.623215,36.047447,36.59071,36.985466,37.459938,37.794632,38.038322,38.201515,38.254112,38.303734,38.315193,38.31188,38.28978,38.27189,38.230553,38.183746,38.122276,38.053772,37.999878,37.938705,37.902046,37.86915,37.855186,37.84686,37.86252,37.8928,37.94535,38.009247,38.085587,38.146217,38.16004,38.147602,38.095253,38.013973,37.86234,37.725433,37.422737,37.11177,36.809547,36.5529,36.33142,36.465263
34.129753,34.108696,34.073288,34.036575,33.99275,33.94727,33.919754,33.883316,33.8579,33.837334,33.83022,33.830833,33.846344,33.86908,33.903126,33.946114,33.98499,34.044273,34.094414,34.16256,34.22877,34.292812,34.36947,34.4242,34.49283,34.543137,34.58801,34.62739,34.651672,34.680775,34.69983,34.717117,34.7332,34.747093,34.76704,34.783405,34.804634,34.828365,34.848312,34.884056,34.91832,34.967735,35.024548,35.082047,35.17336,35.25422,35.37166,35.485664,35.60999,35.767704,35.89303,36.068977,36.21541,36.38174,36.558815,36.69506,36.87198,37.001648,37.15194,37.28781,37.393795,37.516815,37.59855,37.701057,37.78689,37.85547,37.93823,38.000423,38.093994,38.190727,38.298603,38.45105,38.582848,38.756035,38.88498,39.00357,39.108437,39.184982,39.269897,39.322544,39.3858,39.452923,39.511147,39.608078,39.696915,39.830757,39.965496,40.074677,40.19736,40.27913,40.37831,40.456684,40.534966,40.622356,40.685772,40.753975,40.79533,40.839565,40.878326,40.902294,40.93239,40.954746,40.98168,41.01439,41.044632,41.096573,41.14496,41.213097,41.294197,41.374603,41.495346,41.596092,41.745506,41.900604,42.066658,42.272934,42.42607,42.621128,42.769974,42.91725,43.081856,43.214737,43.416374,43.595604,43.827023,44.092346,44.316288,44.61017,44.826668,45.096428,45.3394,45.53749,45.75408,45.89035,46.046833,46.152996,46.234116,46.307568,46.35352,46.405647,46.4401,46.475998,46.511925,46.53852,46.565174,46.57769,46.586567,46.5897,46.59092,46.593636,46.597656,46.608006,46.627426,46.649208,46.686356,46.719406,46.766666,46.813663,46.857845,46.9117,46.95141,47.000847,47.03817,47.075096,47.110634,47.13423,47.16012,47.175076,47.189568,47.19878,47.20314,47.205154,47.204346,47.204376,47.20788,47.212715,47.22912,47.24903,47.28678,47.339764,47.397667,47.489765,47.570114,47.686214,47.790913,47.895996,48.00435,48.07571,48.16753,48.23652,48.31291,48.391983,48.45378,48.535393,48.59598,48.66588,48.726673,48.77311,48.81985,48.845024,48.86963,48.886272,48.90257,48.927155,48.949184,48.97825,48.995945,49.012344,48.97684,48.914734,48.73664,48.495617,48.169178,47.689667,47.268517,46.537254,45.85253,44.99508,44.151752,43.517853,42.787685,42.311493,41.74359,41.28872,40.90884,40.54084,40.338814,40.104706,39.945953,39.79854,39.666924,39.592842,39.505226,39.44093,39.35907,39.26001,39.17758,39.070065,38.99327,38.91853,38.85753,38.81537,38.74179,38.668427,38.551727,38.377846,38.178684,37.8442,37.54747,37.148544,36.779747,36.452953,35.920258,35.380493,34.76825,34.367035,33.98085,33.67434,33.50375,33.3121,33.218536,33.20874,33.401962,33.67423,34.198517,34.68457,35.150578,35.57138,36.013718,36.59115,37.0147,37.530876,37.8954,38.14786,38.31182,38.36492,38.411358,38.416946,38.406723,38.3778,38.356148,38.31218,38.26515,38.203453,38.134842,38.080536,38.01881,37.98175,37.948235,37.93383,37.925247,37.94138,37.97261,38.027645,38.09565,38.17759,38.24458,38.261986,38.254776,38.20594,38.127144,37.971077,37.822258,37.530067,37.23754,36.909065,36.626724,36.421654,36.54501
34.207188,34.179787,34.138798,34.100174,34.05506,34.00853,33.97986,33.940952,33.91273,33.888287,33.876396,33.872944,33.8836,33.90322,33.93387,33.97512,34.013645,34.07432,34.126625,34.198605,34.269543,34.338642,34.42095,34.4792,34.551292,34.60283,34.647774,34.684875,34.70616,34.730774,34.746025,34.7591,34.77161,34.783306,34.801994,34.818756,34.84144,34.868214,34.891426,34.932148,34.97046,35.02498,35.086197,35.147438,35.2426,35.32583,35.4458,35.561172,35.68657,35.84433,35.968826,36.144943,36.29151,36.454697,36.62668,36.759045,36.931572,37.058598,37.20618,37.340134,37.445248,37.565353,37.64347,37.742706,37.82672,37.894463,37.97651,38.038136,38.1304,38.225292,38.33162,38.478348,38.601463,38.773308,38.907185,39.026234,39.128593,39.201492,39.284103,39.33716,39.401646,39.470406,39.529602,39.62679,39.71485,39.840446,39.974865,40.104115,40.252,40.346695,40.45604,40.537506,40.61962,40.70772,40.769188,40.830368,40.86437,40.90522,40.945976,40.974525,41.013252,41.043728,41.07924,41.119038,41.15379,41.21006,41.26073,41.331207,41.417152,41.507584,41.637276,41.740143,41.89382,42.052803,42.221947,42.431545,42.587082,42.785557,42.937714,43.08914,43.260284,43.39945,43.610764,43.7985,44.041042,44.3162,44.54483,44.846535,45.07034,45.347397,45.595196,45.796005,46.015217,46.15322,46.31277,46.422348,46.506767,46.585194,46.63552,46.694527,46.735428,46.77794,46.821144,46.85326,46.886345,46.902912,46.91575,46.921974,46.925358,46.93049,46.936047,46.948456,46.969673,46.99286,47.03095,47.064056,47.11083,47.156563,47.1991,47.250576,47.28839,47.336014,47.372658,47.40934,47.446175,47.471706,47.501003,47.5194,47.538155,47.55271,47.561913,47.570038,47.57341,47.577705,47.584473,47.591827,47.611042,47.63279,47.67299,47.727863,47.78736,47.880005,47.959877,48.072155,48.169052,48.260033,48.354404,48.420197,48.508175,48.576866,48.652092,48.731045,48.793564,48.877243,48.940254,49.013725,49.078987,49.129753,49.18127,49.209106,49.2361,49.252045,49.265602,49.28199,49.295097,49.309074,49.310413,49.308598,49.253113,49.177807,48.985847,48.73774,48.406464,47.92512,47.503525,46.77153,46.084213,45.212997,44.34825,43.696228,42.943153,42.451084,41.865242,41.39779,41.010635,40.632675,40.421104,40.178307,40.015076,39.86279,39.730156,39.65954,39.57192,39.505074,39.4225,39.32409,39.24282,39.137024,39.061676,38.988167,38.93084,38.89435,38.83057,38.766064,38.664185,38.504547,38.31505,37.988358,37.694733,37.292725,36.9133,36.57972,36.008934,35.41339,34.74347,34.311012,33.906857,33.58414,33.396233,33.158386,33.017555,32.98326,33.15647,33.384903,33.925262,34.48018,35.007935,35.473618,35.941265,36.55741,37.01876,37.590828,37.99662,38.263313,38.430553,38.484848,38.527443,38.52513,38.505306,38.46663,38.439438,38.391655,38.344387,38.282177,38.214092,38.160805,38.10076,38.06502,38.032265,38.0181,38.009735,38.026535,38.05863,38.11591,38.187614,38.27467,38.347527,38.368317,38.36595,38.32022,38.24344,38.08235,37.92108,37.638626,37.364994,37.018005,36.71232,36.51364,36.614227
