9.630836,9.631978,9.631668,9.629455,9.625972,9.622784,9.621137,9.621097,9.622227,9.624017,9.623583,9.621372,9.618591,9.615598,9.61342,9.61179,9.611191,9.611383,9.6130905,9.616575,9.620869,9.624675,9.62786,9.629567,9.629557,9.628752,9.628284,9.628865,9.630308,9.631349,9.631663,9.630807,9.629518,9.629413,9.630372,9.630767,9.6306305,9.631323,9.633268,9.635707,9.638046,9.639611,9.6397,9.638516,9.637617,9.636779,9.633695,9.63054,9.628862,9.6284075,9.629524,9.630934,9.63209,9.633973,9.637033,9.642081,9.649832,9.6592865,9.667234,9.67449,9.681305,9.687462,9.693195,9.698616,9.703348,9.70732,9.711887,9.717575,9.725469,9.73501,9.744751,9.753482,9.76034,9.765589,9.769516,9.771727,9.771219,9.76729,9.76033,9.751684,9.742881,9.73523,9.729769,9.727046,9.727843,9.731178,9.734236,9.736582,9.737545,9.738511,9.739541,9.740982,9.743,9.745231,9.747553,9.748636,9.748248,9.746492,9.74375,9.741461,9.74119,9.742933,9.747081,9.75485,9.765787,9.7791815,9.793875,9.808367,9.8212595,9.831397,9.839073,9.842332,9.840382,9.835022,9.829201,9.824774,9.822067,9.821316,9.822074,9.8230715,9.823674,9.824506,9.826734,9.831001,9.837618,9.847171,9.858617,9.870703,9.882621,9.893877,9.904,9.913187,9.921446,9.928125,9.933149,9.937006,9.940329,9.943475,9.94672,9.950313,9.953824,9.957131,9.960311,9.9634075,9.966398,9.969287,9.972196,9.975192,9.978074,9.980413,9.981702,9.981969,9.982192,9.983152,9.985008,9.98758,9.990558,9.993371,9.995274,9.995959,9.996576,9.997496,9.999079,10.000986,10.002703,10.003912,10.004447,10.004632,10.004736,10.0047,10.004545,10.004235,10.003676,10.002869,10.00233,10.002127,10.002618,10.003537,10.0046215,10.005624,10.006258,10.0066,10.006936,10.00785,10.009818,10.013219,10.017874,10.022827,10.026809,10.029541,10.030584,10.029755,10.027565,10.024715,10.021784,10.019247,10.016993,10.015198,10.014122,10.01378,10.014103,10.014965,10.016177,10.017732,10.019722,10.021978,10.024126,10.025728,10.026646,10.027158,10.027659,10.028046,10.028115,10.027517,10.025873,10.023444,10.021042,10.019202,10.017813,10.0167465,10.016048,10.015724,10.016106,10.017595,10.020036,10.022671,10.025139,10.026527,10.026368,10.024626,10.021571,10.017673,10.013357,10.008331,10.003265,9.998793,9.995359,9.993003,9.991285,9.989811,9.988194,9.986065,9.983353,9.980173,9.976862,9.973899,9.97171,9.970421,9.969626,9.968885,9.967574,9.965253,9.962149,9.959055,9.956466,9.954502,9.953343,9.952716,9.952199,9.951481,9.950483,9.949314,9.948041,9.946728,9.945534,9.94477,9.944368,9.943819,9.942843,9.941017,9.937964,9.934184,9.930596,9.928021,9.926781,9.926664,9.92706,9.92734,9.927069,9.926103,9.924634,9.923152,9.922188,9.921589,9.921452,9.921426,9.920899,9.919569,9.917705,9.915815,9.913931,9.911964,9.909624,9.906571,9.902973,9.899476,9.896572,9.894446,9.892969,9.89168,9.890106,9.887659,9.884314,9.880608,9.876931,9.873589,9.870702,9.869334
9.559208,9.558395,9.556716,9.553715,9.549836,9.546383,9.544453,9.544159,9.54508,9.546881,9.546788,9.545238,9.543353,9.541386,9.540237,9.539669,9.540029,9.541037,9.543196,9.546692,9.550763,9.55439,9.557514,9.559468,9.559919,9.559668,9.559683,9.560577,9.562234,9.563602,9.564358,9.564115,9.563682,9.564491,9.566271,9.567463,9.568136,9.569547,9.572125,9.574917,9.577297,9.578567,9.578108,9.576551,9.575921,9.576001,9.5750475,9.575062,9.576922,9.579771,9.583661,9.587241,9.590454,9.5939455,9.598142,9.60375,9.6114645,9.620564,9.628086,9.63491,9.641144,9.646568,9.651424,9.655866,9.659629,9.662708,9.666275,9.67073,9.676973,9.684389,9.691547,9.697226,9.700584,9.701816,9.701112,9.698384,9.693172,9.685282,9.675346,9.664658,9.654516,9.645977,9.639929,9.636694,9.636789,9.639169,9.641188,9.6424885,9.642285,9.641914,9.641359,9.640936,9.641022,9.641586,9.642657,9.64289,9.641956,9.639834,9.636641,9.633678,9.632583,9.633469,9.636621,9.643095,9.652068,9.6627445,9.6740055,9.68458,9.6937065,9.701,9.706737,9.709503,9.708592,9.705552,9.702809,9.701653,9.7023,9.705228,9.709613,9.714776,9.720473,9.726934,9.734595,9.7437,9.75487,9.7681875,9.782517,9.796538,9.809322,9.8203745,9.829404,9.837062,9.843447,9.848062,9.851069,9.853113,9.854846,9.856617,9.858725,9.861286,9.863825,9.86626,9.868587,9.870603,9.872013,9.872538,9.873178,9.873885,9.874485,9.874687,9.874212,9.873164,9.872269,9.872183,9.873195,9.875329,9.878114,9.880849,9.882847,9.883713,9.884575,9.885804,9.887678,9.889805,9.891586,9.8926115,9.892707,9.892254,9.8915825,9.890836,9.89022,9.889811,9.889522,9.889232,9.889303,9.889788,9.891016,9.8927145,9.894611,9.896462,9.897987,9.899221,9.90053,9.902325,9.904864,9.908354,9.91255,9.916645,9.919651,9.921379,9.921513,9.91996,9.917324,9.914363,9.9116535,9.909599,9.908036,9.907072,9.90688,9.907366,9.908397,9.90979,9.911325,9.9129925,9.914834,9.916609,9.91803,9.9187765,9.918869,9.918768,9.918915,9.919148,9.919291,9.91896,9.917712,9.915766,9.913919,9.912691,9.912022,9.911901,9.912264,9.91297,9.914126,9.915886,9.917991,9.919828,9.921017,9.920865,9.919164,9.916132,9.912218,9.907921,9.903533,9.898741,9.89409,9.890068,9.887029,9.884969,9.883448,9.8821335,9.880683,9.878681,9.875986,9.872675,9.86911,9.865854,9.863464,9.862138,9.86147,9.860993,9.859978,9.857926,9.855065,9.852202,9.849878,9.848253,9.847525,9.847384,9.847336,9.846989,9.846186,9.8449745,9.843484,9.841819,9.840257,9.839247,9.838767,9.838219,9.837242,9.835346,9.83212,9.828119,9.824376,9.821791,9.820688,9.820815,9.821494,9.822014,9.821879,9.820888,9.819263,9.817618,9.816614,9.816132,9.816335,9.816798,9.816742,9.815734,9.814013,9.812131,9.810209,9.808239,9.805956,9.802993,9.7995,9.796115,9.793331,9.791349,9.790082,9.789068,9.787827,9.785711,9.782623,9.779038,9.775374,9.77196,9.768978,9.767532
9.481633,9.479937,9.477771,9.4747,9.470959,9.467551,9.465473,9.464928,9.465545,9.467206,9.4672985,9.466278,9.465198,9.464196,9.46404,9.464494,9.465756,9.467538,9.470153,9.473703,9.477577,9.480966,9.483883,9.485883,9.48654,9.486631,9.487015,9.488211,9.490189,9.4920435,9.493404,9.493942,9.494311,9.495648,9.497622,9.498885,9.499577,9.500825,9.502984,9.505068,9.506539,9.506883,9.505766,9.504076,9.503723,9.504455,9.504729,9.506294,9.509764,9.514154,9.519379,9.524079,9.528481,9.532842,9.537459,9.542992,9.550182,9.558601,9.565658,9.572176,9.5780735,9.583155,9.587596,9.591539,9.594821,9.5974245,9.600322,9.603712,9.608239,9.613289,9.617614,9.620222,9.620514,9.618634,9.614798,9.60935,9.602113,9.593119,9.58298,9.572589,9.56297,9.555022,9.54948,9.546509,9.546423,9.548178,9.549383,9.549751,9.548523,9.546932,9.545,9.5430565,9.541637,9.540996,9.541257,9.541007,9.539812,9.53751,9.534037,9.530592,9.528887,9.529202,9.53167,9.5371685,9.544574,9.553015,9.561388,9.568642,9.574585,9.579379,9.58342,9.58605,9.586729,9.586253,9.586284,9.588124,9.5924,9.599314,9.607559,9.616949,9.627762,9.639875,9.652817,9.666418,9.681394,9.69756,9.713734,9.728235,9.740211,9.749707,9.756653,9.762059,9.766067,9.768364,9.769278,9.769565,9.769817,9.770266,9.7714405,9.773227,9.77517,9.77639,9.776676,9.7763,9.775252,9.773295,9.771509,9.769865,9.768284,9.766753,9.765345,9.764139,9.76328,9.763318,9.764378,9.766402,9.769018,9.771668,9.773726,9.774796,9.775914,9.777439,9.779563,9.781852,9.783634,9.784413,9.784016,9.782908,9.781429,9.779968,9.778928,9.778489,9.778538,9.77883,9.779554,9.780763,9.782776,9.785326,9.788143,9.790954,9.793437,9.79556,9.79771,9.800114,9.802813,9.80588,9.809061,9.81175,9.813358,9.813795,9.812883,9.810659,9.807757,9.804927,9.802687,9.801311,9.800609,9.8006,9.801334,9.802609,9.804203,9.80588,9.807419,9.808836,9.810109,9.810958,9.811236,9.810829,9.809952,9.809222,9.809098,9.809327,9.809721,9.809849,9.80921,9.80797,9.806881,9.806412,9.806574,9.807441,9.808841,9.810508,9.812302,9.814117,9.815652,9.816462,9.816177,9.814392,9.811219,9.807116,9.802648,9.798298,9.794157,9.789871,9.785832,9.782345,9.779682,9.77784,9.776407,9.7751465,9.773775,9.771828,9.769107,9.765678,9.761915,9.75844,9.7559395,9.754625,9.75411,9.753912,9.753222,9.751499,9.748972,9.746455,9.744488,9.743279,9.743039,9.743431,9.743904,9.743973,9.743392,9.742167,9.740456,9.738438,9.736524,9.735314,9.7348175,9.734354,9.733489,9.731664,9.728432,9.724386,9.72063,9.718099,9.71711,9.717402,9.7182455,9.718871,9.718719,9.717576,9.715711,9.713836,9.712719,9.712313,9.712794,9.713691,9.714079,9.713386,9.711788,9.709882,9.707891,9.705887,9.703648,9.700822,9.697527,9.694356,9.691772,9.690003,9.689004,9.688343,9.687523,9.685857,9.683144,9.679784,9.6762,9.672748,9.669652,9.6680155
9.404115,9.402349,9.400299,9.397579,9.394245,9.391045,9.388903,9.388106,9.388361,9.389754,9.389859,9.389179,9.388698,9.388449,9.389082,9.390329,9.392257,9.394582,9.397496,9.401035,9.404675,9.407753,9.410369,9.412262,9.41293,9.413158,9.413717,9.415058,9.417235,9.419439,9.421305,9.422537,9.423547,9.4251,9.426858,9.42777,9.42805,9.428698,9.42995,9.430846,9.430937,9.430004,9.428104,9.426278,9.425997,9.426959,9.427593,9.42942,9.433021,9.4375515,9.442928,9.447836,9.452556,9.457085,9.461532,9.466512,9.472895,9.480491,9.486997,9.493201,9.498881,9.503862,9.508219,9.512043,9.515239,9.517748,9.520374,9.523108,9.526321,9.529453,9.531538,9.53191,9.530222,9.526623,9.52134,9.515169,9.507993,9.4998665,9.491249,9.482503,9.474379,9.467696,9.46305,9.460513,9.460283,9.461394,9.461771,9.461188,9.458999,9.456319,9.453304,9.450314,9.447976,9.446763,9.446785,9.446542,9.445537,9.443404,9.439896,9.436129,9.433917,9.433762,9.4356165,9.440281,9.446438,9.453131,9.4593,9.464153,9.4679575,9.4712305,9.47423,9.47675,9.478877,9.481123,9.484358,9.489637,9.497929,9.509216,9.5219145,9.53556,9.550479,9.5665245,9.582904,9.599155,9.615955,9.632956,9.648838,9.661868,9.671614,9.678737,9.683291,9.686214,9.687773,9.687882,9.687078,9.686056,9.685234,9.684813,9.685135,9.685803,9.686621,9.686135,9.683968,9.680895,9.677487,9.673971,9.670572,9.667429,9.664721,9.662502,9.660751,9.659476,9.658755,9.658979,9.660201,9.66232,9.665008,9.667772,9.670039,9.671415,9.672819,9.67462,9.676913,9.679244,9.680917,9.681387,9.680472,9.678743,9.676522,9.674412,9.673004,9.672564,9.672948,9.673801,9.675171,9.677103,9.679923,9.68337,9.687155,9.690938,9.694307,9.69715,9.699835,9.70242,9.704809,9.707019,9.708845,9.709907,9.709998,9.709131,9.7072115,9.704422,9.701399,9.698849,9.69721,9.696622,9.696853,9.697848,9.699524,9.701551,9.703604,9.705403,9.706755,9.707699,9.708189,9.70793,9.706945,9.70535,9.703554,9.702287,9.701991,9.702317,9.703063,9.7037525,9.70384,9.703434,9.703202,9.703534,9.704511,9.706232,9.708455,9.710812,9.71297,9.714623,9.715466,9.715229,9.713577,9.710384,9.706071,9.701264,9.696575,9.692411,9.688666,9.684926,9.681453,9.678388,9.67598,9.674284,9.672943,9.671782,9.670568,9.668764,9.666115,9.662675,9.658814,9.655207,9.652653,9.651335,9.650909,9.650896,9.6504545,9.64903,9.646868,9.644743,9.643162,9.642392,9.64264,9.643555,9.644553,9.645082,9.644796,9.643671,9.641888,9.639672,9.637559,9.636262,9.635815,9.635487,9.634797,9.633148,9.630056,9.626124,9.622456,9.619983,9.619031,9.619341,9.620159,9.620721,9.62044,9.619127,9.617101,9.615121,9.613988,9.613722,9.6144705,9.615709,9.616414,9.615895,9.614268,9.612169,9.609959,9.607767,9.605459,9.602736,9.599693,9.596842,9.5945835,9.593141,9.592505,9.592288,9.591992,9.590874,9.588629,9.5855665,9.582105,9.57862,9.575358,9.573394
9.332191,9.330636,9.328829,9.326468,9.323506,9.320526,9.318419,9.317506,9.317502,9.318676,9.318771,9.318341,9.318301,9.318573,9.319735,9.321468,9.323735,9.326265,9.329186,9.332525,9.335838,9.338554,9.340859,9.342587,9.343229,9.343508,9.34408,9.34536,9.347479,9.349682,9.351711,9.353372,9.354801,9.3564205,9.357904,9.358483,9.358419,9.358582,9.35914,9.359105,9.357956,9.355685,9.352748,9.350294,9.349401,9.34986,9.350042,9.351354,9.35445,9.358621,9.363759,9.3686,9.373443,9.378037,9.382274,9.386694,9.392235,9.398906,9.404757,9.410521,9.41591,9.420734,9.4249935,9.428736,9.431893,9.43443,9.437006,9.439469,9.441992,9.444102,9.445114,9.444595,9.442318,9.438396,9.433018,9.427217,9.420855,9.414,9.407012,9.399815,9.392965,9.387204,9.383013,9.380436,9.379639,9.379813,9.379207,9.37763,9.374574,9.371063,9.3674135,9.364002,9.361482,9.3603945,9.360725,9.360952,9.360552,9.358945,9.355661,9.351733,9.349068,9.34837,9.349465,9.353326,9.35854,9.364088,9.368925,9.372289,9.374652,9.377506,9.38058,9.383606,9.387217,9.392702,9.400671,9.410809,9.423329,9.439211,9.4562645,9.473059,9.4900875,9.507649,9.524744,9.54077,9.556524,9.571507,9.58429,9.594133,9.601095,9.605502,9.60766,9.608415,9.608125,9.606805,9.605139,9.603387,9.601701,9.600718,9.599882,9.5987215,9.597336,9.595345,9.592389,9.588476,9.583929,9.579057,9.574344,9.570015,9.566444,9.563724,9.561763,9.560498,9.559916,9.560323,9.561775,9.56415,9.567143,9.570286,9.572978,9.574778,9.576514,9.578544,9.580895,9.583108,9.584518,9.584589,9.583157,9.580839,9.577989,9.575353,9.57365,9.573213,9.573893,9.575247,9.577219,9.579843,9.583453,9.587798,9.592513,9.59715,9.601204,9.604459,9.60726,9.6095495,9.611191,9.61225,9.612654,9.612228,9.611023,9.609121,9.606443,9.603275,9.600253,9.598035,9.597001,9.5972185,9.598358,9.600333,9.602918,9.605655,9.608118,9.609991,9.611107,9.611554,9.6112795,9.610018,9.607969,9.60543,9.602951,9.601327,9.600975,9.601436,9.602528,9.603758,9.60455,9.604965,9.605573,9.606633,9.608252,9.610549,9.613211,9.615826,9.617975,9.61926,9.619406,9.618284,9.615614,9.611497,9.606551,9.601486,9.596864,9.592989,9.589599,9.5862255,9.5830555,9.580166,9.577855,9.576287,9.575164,9.574297,9.573487,9.572059,9.569677,9.566354,9.56247,9.558754,9.556094,9.554668,9.55417,9.5541725,9.553847,9.552656,9.550854,9.549126,9.54792,9.5475645,9.548237,9.549588,9.551039,9.551998,9.552038,9.551123,9.549462,9.547284,9.545183,9.54393,9.543579,9.543406,9.542908,9.541511,9.538679,9.53499,9.531496,9.5290785,9.528069,9.5282345,9.528851,9.529209,9.528755,9.527362,9.525381,9.523537,9.52259,9.522573,9.523597,9.525064,9.525879,9.525288,9.52339,9.520869,9.518217,9.515651,9.513122,9.510433,9.50767,9.505233,9.503423,9.502406,9.502232,9.502521,9.502785,9.502241,9.500473,9.4977,9.494344,9.490774,9.487262,9.484848
9.267019,9.265717,9.264055,9.261864,9.259081,9.256201,9.2541,9.253084,9.252845,9.253815,9.253875,9.253622,9.253913,9.254566,9.256063,9.258074,9.260457,9.262945,9.265665,9.268682,9.27162,9.273974,9.276003,9.277589,9.278236,9.278566,9.279114,9.280256,9.282177,9.284168,9.286157,9.288038,9.289714,9.291286,9.29243,9.292611,9.292144,9.291796,9.291734,9.290857,9.288529,9.284922,9.280839,9.277497,9.27577,9.275515,9.275048,9.275747,9.278278,9.28196,9.286734,9.291391,9.296234,9.300815,9.304859,9.30879,9.313528,9.319268,9.324411,9.329674,9.334737,9.339373,9.343519,9.347184,9.350328,9.352966,9.355638,9.35811,9.360405,9.362141,9.362885,9.362399,9.360445,9.357066,9.352405,9.34755,9.342335,9.336826,9.331311,9.3254175,9.319521,9.314295,9.310138,9.307104,9.305414,9.304471,9.302825,9.300291,9.296509,9.292383,9.288451,9.285111,9.282959,9.282468,9.28335,9.2840395,9.284158,9.282832,9.279768,9.275922,9.272933,9.271793,9.272155,9.275031,9.279271,9.284018,9.288381,9.290979,9.291356,9.293096,9.2969885,9.303946,9.313395,9.325058,9.338716,9.353655,9.370092,9.388848,9.406931,9.424634,9.442303,9.459285,9.474824,9.4884405,9.500746,9.5115595,9.520202,9.526198,9.529681,9.531233,9.531315,9.530405,9.528969,9.527132,9.525218,9.522358,9.518511,9.515863,9.514113,9.512713,9.511127,9.508774,9.505284,9.500666,9.495286,9.489522,9.483927,9.478833,9.474735,9.471744,9.469699,9.468468,9.4679985,9.468557,9.470224,9.472889,9.476257,9.47985,9.483006,9.485215,9.487212,9.48936,9.491638,9.493593,9.4946,9.494168,9.4922,9.489335,9.485921,9.482822,9.480855,9.480409,9.481323,9.483101,9.485603,9.488866,9.493228,9.498415,9.50398,9.5093565,9.513931,9.517381,9.520034,9.52176,9.522438,9.522256,9.5213175,9.519628,9.517401,9.514715,9.511512,9.5081005,9.505127,9.503233,9.50276,9.503696,9.505665,9.508528,9.511938,9.51531,9.518118,9.520017,9.520866,9.520817,9.519804,9.517664,9.51473,9.511456,9.508501,9.50666,9.5063,9.5069,9.508304,9.510014,9.511461,9.512651,9.514017,9.515709,9.517835,9.520477,9.523275,9.52583,9.527708,9.52849,9.527976,9.526144,9.52276,9.518099,9.512897,9.507872,9.503497,9.4999485,9.496856,9.49373,9.490725,9.487899,9.48564,9.48425,9.483477,9.483057,9.4828,9.481884,9.479867,9.476709,9.472809,9.468951,9.466105,9.464452,9.463715,9.463553,9.46321,9.462177,9.46068,9.459322,9.458467,9.458476,9.459512,9.461212,9.463027,9.464357,9.46472,9.464072,9.462641,9.460626,9.458656,9.457519,9.457281,9.457255,9.456977,9.455882,9.453428,9.450127,9.446929,9.444634,9.443567,9.443539,9.443903,9.444023,9.443403,9.442011,9.440221,9.438675,9.438035,9.438337,9.43959,9.441175,9.441952,9.441142,9.438838,9.435777,9.432599,9.429564,9.4267435,9.424064,9.421586,9.41958,9.418245,9.41769,9.417983,9.418769,9.419563,9.419556,9.418245,9.415771,9.412529,9.408879,9.405095,9.402203
9.200953,9.199887,9.198336,9.196229,9.193526,9.190669,9.188501,9.187324,9.186783,9.187481,9.187431,9.187259,9.18776,9.188659,9.190335,9.192447,9.19474,9.197001,9.199372,9.20197,9.2045145,9.206554,9.208373,9.209908,9.210654,9.211085,9.211617,9.212608,9.214273,9.215971,9.217801,9.219755,9.221504,9.222861,9.223516,9.223172,9.222191,9.221326,9.220737,9.219257,9.216114,9.211538,9.206539,9.202383,9.199806,9.198689,9.197387,9.197315,9.199142,9.202194,9.206498,9.21091,9.215748,9.220373,9.224367,9.227957,9.231964,9.2367735,9.24115,9.245796,9.250443,9.254836,9.258877,9.262529,9.265745,9.2686205,9.2716055,9.274386,9.276846,9.278656,9.279588,9.279527,9.278181,9.275612,9.271802,9.267832,9.263496,9.258885,9.254267,9.249123,9.2436695,9.238485,9.233889,9.229983,9.227124,9.224931,9.222198,9.218832,9.214606,9.210201,9.206354,9.2035265,9.202191,9.202662,9.204397,9.205852,9.206708,9.20578,9.202772,9.198713,9.195211,9.193274,9.192156,9.192687,9.194856,9.197924,9.200986,9.203415,9.205528,9.210168,9.218276,9.230987,9.2472925,9.266018,9.286149,9.305967,9.323498,9.342516,9.361285,9.379223,9.395746,9.410182,9.422215,9.43174,9.439708,9.44581,9.449752,9.451647,9.451937,9.451083,9.449372,9.447268,9.444044,9.439537,9.434926,9.43083,9.427249,9.424635,9.422781,9.421209,9.419375,9.4167385,9.412958,9.408008,9.402219,9.395992,9.389943,9.384482,9.380186,9.377182,9.375243,9.374154,9.373835,9.3745365,9.376387,9.37929,9.382956,9.386883,9.3903675,9.392843,9.394979,9.39709,9.399149,9.40071,9.4012,9.4002075,9.397682,9.394269,9.39031,9.386743,9.384449,9.383874,9.38489,9.38698,9.389931,9.3937645,9.398827,9.404806,9.411169,9.41722,9.422215,9.425741,9.428109,9.429139,9.428797,9.427414,9.425273,9.422552,9.419532,9.416247,9.412641,9.409009,9.406022,9.404317,9.404202,9.405665,9.40826,9.411795,9.41583,9.419657,9.422659,9.424471,9.425007,9.424466,9.422786,9.41991,9.416305,9.412533,9.409303,9.407376,9.407036,9.407754,9.409387,9.411465,9.4134445,9.415268,9.41724,9.419407,9.421849,9.424599,9.427285,9.429542,9.430974,9.431204,9.430108,9.42774,9.423929,9.419065,9.413949,9.409227,9.405252,9.40211,9.399325,9.396385,9.393466,9.39065,9.388438,9.387278,9.386936,9.387038,9.387405,9.38706,9.385452,9.382519,9.378663,9.374704,9.371677,9.369749,9.368696,9.368285,9.367843,9.366898,9.36564,9.3645935,9.364006,9.364265,9.365532,9.367449,9.369514,9.371142,9.371788,9.371437,9.370286,9.3685055,9.366727,9.365716,9.365571,9.365703,9.36569,9.365,9.363091,9.360382,9.357641,9.355559,9.354462,9.354223,9.354283,9.354155,9.353399,9.352095,9.350614,9.349461,9.349192,9.349812,9.351263,9.352921,9.353624,9.352593,9.34992,9.346381,9.342727,9.339273,9.336195,9.333531,9.331323,9.329714,9.328785,9.328596,9.3292265,9.330367,9.331579,9.332034,9.331154,9.328983,9.325895,9.322209,9.318209,9.314881
9.134066,9.133127,9.131597,9.129482,9.126787,9.123937,9.121746,9.12051,9.119811,9.12026,9.120054,9.119866,9.120422,9.1213665,9.123012,9.124985,9.126966,9.128796,9.130667,9.132776,9.134931,9.136736,9.1384535,9.14006,9.141061,9.141747,9.14241,9.1433735,9.14485,9.14627,9.147936,9.149844,9.151545,9.15261,9.152733,9.151847,9.150339,9.148993,9.148082,9.146349,9.142919,9.137945,9.132392,9.127522,9.124062,9.121922,9.119626,9.118727,9.119893,9.122408,9.126337,9.130598,9.135566,9.14041,9.144611,9.148134,9.151594,9.155544,9.159147,9.163067,9.167155,9.171193,9.175074,9.178689,9.181961,9.185092,9.188468,9.191722,9.19463,9.196873,9.198346,9.198988,9.198459,9.196857,9.193951,9.190646,9.186702,9.182269,9.177676,9.17243,9.166697,9.160891,9.155272,9.150011,9.14563,9.142015,9.138209,9.134169,9.129742,9.125614,9.122529,9.120865,9.120852,9.122522,9.125257,9.127425,9.128835,9.128207,9.125334,9.120366,9.114131,9.108899,9.105275,9.103772,9.104782,9.10761,9.11159,9.116526,9.122665,9.13224,9.146346,9.16588,9.190103,9.21555,9.239138,9.26041,9.27902,9.298076,9.316263,9.332569,9.34617,9.356564,9.3638735,9.368638,9.371507,9.372682,9.372344,9.3698225,9.365627,9.361377,9.357411,9.353322,9.348726,9.343594,9.338785,9.334996,9.332169,9.329934,9.32812,9.326371,9.324244,9.321354,9.317449,9.31246,9.306633,9.30034,9.294209,9.288711,9.284475,9.28166,9.279991,9.279162,9.279055,9.279917,9.281931,9.285004,9.288856,9.292974,9.296622,9.299186,9.301294,9.303215,9.304914,9.305956,9.305823,9.304205,9.301118,9.297196,9.292758,9.288795,9.286189,9.285438,9.28648,9.288783,9.292087,9.2964,9.302067,9.30874,9.315778,9.322371,9.327669,9.331169,9.333144,9.333414,9.33206,9.329592,9.3264885,9.323063,9.319577,9.315991,9.312212,9.30849,9.305493,9.303868,9.303924,9.305641,9.308568,9.312447,9.316771,9.320732,9.32366,9.325196,9.325302,9.324232,9.321966,9.318547,9.314538,9.310561,9.307303,9.3054495,9.305164,9.305955,9.307694,9.309969,9.312282,9.314541,9.316924,9.319358,9.321904,9.324522,9.326837,9.328559,9.329379,9.329013,9.327458,9.324811,9.320932,9.316287,9.311652,9.307564,9.304234,9.301639,9.299257,9.296544,9.2937155,9.290914,9.28875,9.287794,9.287863,9.288451,9.289366,9.289534,9.288296,9.285583,9.281807,9.277778,9.27458,9.272361,9.270954,9.270252,9.269676,9.268804,9.267784,9.267023,9.266651,9.267074,9.268431,9.27039,9.27252,9.274276,9.275086,9.274956,9.274077,9.272549,9.270983,9.270112,9.270051,9.2703285,9.270618,9.270409,9.269199,9.267287,9.265201,9.263483,9.262469,9.262054,9.261827,9.261467,9.260623,9.259462,9.258332,9.25758,9.257637,9.258509,9.260078,9.261718,9.262304,9.261082,9.258135,9.254241,9.250239,9.246482,9.243237,9.240628,9.238662,9.237364,9.236711,9.236723,9.237504,9.238786,9.240206,9.240952,9.240394,9.238503,9.23559,9.231923,9.227795,9.22415
9.068439,9.067507,9.065917,9.063723,9.060998,9.058166,9.055979,9.054655,9.053746,9.053913,9.053477,9.053135,9.053578,9.0543995,9.055851,9.05747,9.058981,9.060279,9.061605,9.063204,9.064958,9.066538,9.068175,9.069843,9.071054,9.071943,9.072705,9.073643,9.074966,9.076158,9.077697,9.079534,9.081167,9.082,9.081716,9.080408,9.078483,9.076796,9.075719,9.073995,9.070717,9.065887,9.060283,9.055119,9.051116,9.048194,9.045094,9.043538,9.044169,9.046195,9.049715,9.053723,9.05866,9.063571,9.067924,9.071442,9.074505,9.07777,9.080649,9.083864,9.087365,9.090983,9.094623,9.098145,9.101449,9.104829,9.108585,9.112299,9.115679,9.118414,9.120449,9.121768,9.122028,9.121349,9.119301,9.116573,9.112896,9.108437,9.103582,9.097958,9.091728,9.08511,9.078308,9.071505,9.065507,9.06062,9.056079,9.051731,9.047451,9.043881,9.041742,9.041279,9.042411,9.044928,9.0483055,9.050829,9.0525,9.051063,9.046122,9.038597,9.03,9.022653,9.017773,9.015674,9.0171795,9.021783,9.029092,9.038865,9.050583,9.066002,9.086481,9.113038,9.142593,9.170621,9.1949215,9.216106,9.234801,9.252877,9.268891,9.282048,9.291803,9.297858,9.300584,9.3009405,9.299667,9.295422,9.289356,9.282098,9.274589,9.268136,9.262795,9.257755,9.2531185,9.248904,9.24534,9.242552,9.240328,9.2383375,9.236465,9.234417,9.231857,9.228615,9.224569,9.219642,9.213986,9.207898,9.201974,9.196712,9.192775,9.190376,9.189213,9.188859,9.189148,9.190319,9.192577,9.1957855,9.199665,9.203693,9.207114,9.209341,9.211004,9.21234,9.213341,9.213613,9.212714,9.210428,9.20683,9.2025175,9.197792,9.193649,9.19093,9.190156,9.191304,9.193813,9.197395,9.202049,9.208092,9.21515,9.222518,9.229321,9.234663,9.237994,9.239512,9.2390785,9.236883,9.233579,9.229813,9.225997,9.222335,9.218722,9.215021,9.211411,9.208524,9.20699,9.2071,9.208828,9.211749,9.215543,9.219666,9.223259,9.2256565,9.226554,9.225979,9.224265,9.221417,9.217594,9.213403,9.209456,9.206364,9.204671,9.20443,9.205195,9.206891,9.209167,9.211606,9.214092,9.216683,9.219202,9.221678,9.223999,9.225805,9.226905,9.227096,9.226222,9.224402,9.221744,9.218107,9.213979,9.210068,9.206789,9.204231,9.2023,9.200465,9.198195,9.195728,9.193227,9.191321,9.19062,9.190955,9.191747,9.192824,9.193106,9.191921,9.189241,9.185477,9.181391,9.178064,9.175613,9.173907,9.17297,9.172314,9.171557,9.1708,9.170312,9.170119,9.170637,9.17198,9.173847,9.175892,9.177626,9.17848,9.178478,9.1778,9.17648,9.175103,9.174351,9.174346,9.174733,9.175301,9.175558,9.175082,9.174044,9.172749,9.171596,9.170901,9.170583,9.170375,9.170089,9.169408,9.168501,9.167653,9.167104,9.167208,9.168035,9.169439,9.170836,9.171196,9.169792,9.166678,9.162603,9.158434,9.154538,9.151244,9.14871,9.146913,9.145779,9.14521,9.145222,9.145926,9.147107,9.148482,9.149287,9.148882,9.147191,9.144452,9.140886,9.136777,9.13303
9.005208,9.004239,9.002588,9.000343,8.997642,8.994914,8.992789,8.991343,8.990138,8.989918,8.989073,8.988324,8.988366,8.988791,8.989832,8.990975,8.991989,8.992808,8.993683,8.994852,8.996245,8.99761,8.9991455,9.000769,9.002014,9.002917,9.00363,9.00446,9.00561,9.006613,9.008033,9.009791,9.011354,9.012045,9.011531,9.009975,9.007812,9.005945,9.004796,9.003208,9.000344,8.996063,8.990887,8.985957,8.981916,8.978645,8.975081,8.973095,8.973297,8.974823,8.977808,8.98135,8.985901,8.990523,8.994742,8.998088,9.000758,9.003529,9.005925,9.008665,9.011757,9.015059,9.018485,9.021889,9.025185,9.028723,9.03276,9.036804,9.040543,9.04365,9.046078,9.047859,9.048726,9.048803,9.0475445,9.045452,9.0422,9.037895,9.032931,9.027074,9.020523,9.013309,9.005536,8.997458,8.990213,8.984473,8.979601,8.975308,8.971496,8.968548,8.966497,8.965906,8.967097,8.969612,8.972894,8.974929,8.975736,8.972469,8.964815,8.955314,8.946705,8.940146,8.936333,8.935465,8.939154,8.947218,8.959323,8.975036,8.993118,9.014405,9.040895,9.071632,9.101867,9.128841,9.152522,9.17281,9.18944,9.204607,9.2171135,9.226439,9.232284,9.234497,9.233623,9.230861,9.225465,9.216477,9.205481,9.194951,9.186336,9.179616,9.174356,9.169923,9.1661415,9.162815,9.160064,9.1579485,9.156147,9.154226,9.152146,9.149616,9.146423,9.142627,9.138272,9.13331,9.127838,9.12204,9.116455,9.111577,9.108101,9.106287,9.105811,9.1061325,9.10701,9.108661,9.11126,9.114583,9.118319,9.121933,9.124681,9.126085,9.126819,9.127111,9.127051,9.126321,9.124574,9.121672,9.117708,9.11322,9.108491,9.104479,9.101974,9.1014595,9.10289,9.105677,9.109493,9.114326,9.120454,9.127476,9.134691,9.141255,9.146306,9.149286,9.15032,9.149315,9.146531,9.142705,9.13859,9.134652,9.131051,9.127634,9.124258,9.121005,9.11842,9.117073,9.117211,9.118796,9.121408,9.124711,9.128127,9.130826,9.132204,9.132057,9.13054,9.128056,9.124613,9.120495,9.11631,9.112586,9.109795,9.10832,9.108101,9.108766,9.110293,9.112422,9.114819,9.117353,9.119978,9.12245,9.12474,9.126678,9.127952,9.128462,9.128128,9.126925,9.125058,9.122601,9.119415,9.115951,9.112833,9.110375,9.108592,9.107361,9.106191,9.104607,9.102837,9.100994,9.099603,9.09918,9.09953,9.10011,9.100832,9.100694,9.099162,9.096295,9.092484,9.088398,9.085051,9.082508,9.080666,9.079654,9.07907,9.078544,9.078108,9.077915,9.077905,9.078478,9.079746,9.0814495,9.083312,9.084917,9.085722,9.085762,9.085214,9.084061,9.082845,9.08219,9.082214,9.082661,9.083415,9.084034,9.084173,9.083919,9.083408,9.082923,9.082755,9.082845,9.083024,9.083191,9.082959,9.082391,9.081683,9.081029,9.080806,9.081185,9.082066,9.082966,9.082968,9.081377,9.078201,9.074127,9.069986,9.066144,9.062932,9.060515,9.058823,9.057718,9.057069,9.056912,9.057357,9.058252,9.0593815,9.060042,9.059626,9.058027,9.055439,9.052034,9.048093,9.0444565
8.944624,8.943663,8.942043,8.93986,8.937315,8.934848,8.932948,8.931522,8.930154,8.929537,8.928182,8.926856,8.926258,8.92602,8.92643,8.927037,8.927575,8.927987,8.928507,8.929328,8.930394,8.931544,8.932945,8.9344425,8.935594,8.936388,8.936967,8.937644,8.938609,8.939465,8.940768,8.942413,8.943894,8.944502,8.943888,8.942256,8.940035,8.938116,8.936959,8.935534,8.933144,8.92954,8.924979,8.920486,8.916599,8.913141,8.90924,8.906883,8.906672,8.907677,8.910043,8.912978,8.916897,8.920962,8.9248085,8.9278345,8.930126,8.9325905,8.9348755,8.937461,8.94043,8.943641,8.946996,8.950331,8.95357,8.957123,8.961302,8.965554,8.969559,8.972959,8.975659,8.977748,8.979058,8.979758,8.979257,8.977885,8.9751835,8.971163,8.966225,8.960283,8.953612,8.946105,8.937699,8.928894,8.921018,8.914852,8.909907,8.905846,8.902114,8.899192,8.896103,8.8939905,8.894077,8.895681,8.898073,8.898764,8.897515,8.8927765,8.885044,8.876623,8.86966,8.865074,8.863813,8.865897,8.873292,8.88601,8.903639,8.925425,8.949508,8.975748,9.006283,9.036321,9.064418,9.089976,9.11174,9.128927,9.142027,9.153106,9.161416,9.166808,9.1691265,9.168263,9.164758,9.159621,9.149575,9.138235,9.126423,9.11539,9.106405,9.099772,9.095036,9.09126,9.088174,9.085543,9.083396,9.081715,9.080124,9.078119,9.075704,9.072593,9.068641,9.064134,9.059286,9.054113,9.048703,9.0431185,9.037827,9.033304,9.03027,9.0290165,9.029198,9.030191,9.031673,9.033809,9.036743,9.040139,9.043624,9.046655,9.048523,9.048872,9.048465,9.047521,9.046286,9.044546,9.042035,9.038686,9.034573,9.030163,9.025715,9.022128,9.020124,9.020103,9.021957,9.025074,9.0290785,9.033959,9.039938,9.046595,9.053268,9.059225,9.063703,9.066154,9.066665,9.065167,9.061961,9.057836,9.053591,9.049715,9.046346,9.04329,9.040437,9.037764,9.035684,9.034664,9.0349,9.036309,9.038485,9.041079,9.043514,9.045027,9.045124,9.043743,9.041183,9.037907,9.033923,9.029636,9.025623,9.022268,9.019873,9.018666,9.018485,9.019044,9.020369,9.022301,9.024583,9.027073,9.029644,9.031995,9.034044,9.035574,9.036321,9.036289,9.035528,9.034123,9.032331,9.0301695,9.027502,9.024711,9.02233,9.020606,9.019526,9.018955,9.018472,9.01766,9.016726,9.015675,9.01485,9.014588,9.014679,9.014711,9.014702,9.013817,9.011731,9.008607,9.004796,9.000827,8.997595,8.99511,8.9933195,8.9924135,8.992066,8.991904,8.991888,8.992057,8.992292,8.992952,8.994153,8.995662,8.997278,8.998667,8.999339,8.999352,8.998889,8.997892,8.996853,8.996313,8.996376,8.996846,8.997686,8.998515,8.999068,8.999393,8.999521,8.999648,9.000038,9.000632,9.001326,9.002057,9.002326,9.002039,9.001295,9.00029,8.999481,8.999158,8.999308,8.999584,8.999161,8.997387,8.994236,8.990301,8.986347,8.98272,8.979723,8.977499,8.9759245,8.974818,8.9740505,8.973695,8.973857,8.97444,8.975283,8.975747,8.975253,8.973693,8.971245,8.968023,8.964319,8.960901
8.887261,8.886371,8.884893,8.882866,8.880568,8.878493,8.876985,8.875752,8.874392,8.873591,8.871979,8.870332,8.869305,8.868545,8.86841,8.868405,8.868375,8.8682995,8.868376,8.868724,8.869299,8.870055,8.871176,8.872473,8.873448,8.874061,8.874429,8.8748865,8.8756695,8.876413,8.877625,8.879196,8.8806715,8.881308,8.880732,8.879187,8.87709,8.875242,8.874091,8.872733,8.870583,8.867348,8.863132,8.858843,8.854913,8.851117,8.846752,8.843927,8.8431835,8.843517,8.845151,8.847337,8.850433,8.853736,8.856998,8.859704,8.8619,8.864359,8.866679,8.86931,8.872331,8.8756075,8.879004,8.882347,8.885597,8.889171,8.893454,8.897854,8.902076,8.9057045,8.908632,8.911011,8.912722,8.913995,8.914279,8.9137535,8.91176,8.908227,8.903609,8.897914,8.891507,8.884093,8.875564,8.866526,8.858433,8.8522005,8.847454,8.843744,8.8385515,8.833615,8.82948,8.8266945,8.825488,8.825496,8.826344,8.825764,8.8235235,8.818589,8.811609,8.805002,8.800899,8.799673,8.802273,8.808649,8.820694,8.838493,8.861457,8.888472,8.917282,8.947017,8.976728,9.004199,9.030074,9.053236,9.071466,9.084676,9.093647,9.100402,9.104625,9.106484,9.105993,9.103141,9.097648,9.088484,9.077707,9.066,9.054026,9.043068,9.034262,9.027837,9.023403,9.020054,9.017408,9.015237,9.013481,9.012068,9.010593,9.008506,9.00581,9.002201,8.997564,8.992347,8.986927,8.981412,8.975914,8.970394,8.965253,8.960926,8.958154,8.957263,8.957892,8.959355,8.961255,8.963729,8.966893,8.970317,8.973568,8.9760685,8.977121,8.97648,8.975026,8.972955,8.9706745,8.968093,8.965017,8.961412,8.957344,8.953199,8.949236,8.946271,8.9449215,8.945492,8.947815,8.951242,8.955365,8.960206,8.965913,8.972038,8.977991,8.9831505,8.986858,8.988636,8.988526,8.986486,8.982847,8.978424,8.974053,8.970246,8.967115,8.964458,8.96218,8.960213,8.958823,8.958339,8.958855,8.960219,8.962066,8.964035,8.96557,8.965968,8.964857,8.962335,8.958823,8.954839,8.950406,8.946041,8.942248,8.939274,8.937268,8.93631,8.936169,8.936647,8.937824,8.939629,8.941862,8.944363,8.94693,8.94919,8.9510145,8.952153,8.952403,8.951857,8.950687,8.949089,8.947336,8.945399,8.943111,8.940811,8.938962,8.937774,8.937234,8.937221,8.937351,8.937288,8.937152,8.936835,8.936472,8.936219,8.935859,8.935181,8.934297,8.932571,8.929918,8.926584,8.922835,8.919055,8.916007,8.913653,8.9119835,8.911252,8.911202,8.911474,8.91195,8.912562,8.913153,8.914023,8.915245,8.916597,8.917952,8.919073,8.919556,8.919501,8.919085,8.918242,8.917408,8.917032,8.917172,8.9176655,8.918522,8.91944,8.920217,8.920902,8.921488,8.9221,8.922959,8.924006,8.9251375,8.926304,8.926917,8.926724,8.925756,8.924263,8.922788,8.9217205,8.921135,8.9207735,8.919925,8.917982,8.91488,8.911131,8.907427,8.904097,8.901398,8.899424,8.898023,8.896998,8.896229,8.895814,8.895872,8.896325,8.897062,8.897469,8.896986,8.895524,8.893242,8.890242,8.886787,8.883582
8.826511,8.825797,8.824518,8.822801,8.820969,8.819468,8.818502,8.817607,8.816436,8.815651,8.813948,8.812105,8.810807,8.80975,8.809248,8.808745,8.808149,8.807587,8.807203,8.807034,8.807049,8.80727,8.807939,8.808774,8.809317,8.809513,8.809463,8.809492,8.80988,8.810341,8.811274,8.812591,8.813885,8.814527,8.814146,8.8128605,8.811068,8.809433,8.808326,8.806971,8.804881,8.801769,8.797657,8.793351,8.789218,8.784937,8.779946,8.776449,8.775052,8.774723,8.775577,8.77693,8.779034,8.7814,8.783926,8.786178,8.788223,8.79077,8.793279,8.796138,8.799373,8.802847,8.806388,8.809819,8.81314,8.816743,8.821118,8.825649,8.830075,8.833946,8.837076,8.839634,8.841683,8.843426,8.844452,8.844845,8.843868,8.841285,8.837413,8.832299,8.826481,8.8195715,8.811466,8.802758,8.795166,8.789138,8.783396,8.778449,8.773495,8.768417,8.763398,8.759102,8.755951,8.753874,8.752844,8.750925,8.74782,8.743181,8.737795,8.73405,8.733963,8.737276,8.744812,8.756572,8.773977,8.797097,8.825107,8.8566265,8.88899,8.918289,8.945224,8.97025,8.993046,9.011978,9.025527,9.0338745,9.038258,9.040405,9.040672,9.039632,9.037583,9.032753,9.023873,9.014566,9.00431,8.99327,8.981863,8.97123,8.9624815,8.95598,8.951505,8.9481735,8.945583,8.94352,8.941887,8.940571,8.939127,8.936943,8.934027,8.930001,8.924767,8.918889,8.912888,8.90699,8.901346,8.8958645,8.890839,8.886679,8.884131,8.883524,8.884468,8.88625,8.888424,8.8911,8.89438,8.897757,8.900739,8.902708,8.902982,8.901388,8.898909,8.895743,8.892462,8.889092,8.885528,8.881779,8.877877,8.874124,8.87079,8.868587,8.868002,8.869214,8.871985,8.875652,8.879799,8.884481,8.889789,8.895225,8.900264,8.904417,8.90714,8.908064,8.907223,8.904588,8.900505,8.895808,8.891351,8.887657,8.884827,8.882624,8.881021,8.879907,8.879413,8.879688,8.880676,8.882154,8.883774,8.885181,8.885853,8.885167,8.882879,8.879245,8.874828,8.870204,8.865402,8.861025,8.857502,8.854939,8.853348,8.852671,8.852602,8.853056,8.854172,8.855934,8.858198,8.860758,8.863313,8.865453,8.867004,8.867695,8.867403,8.866312,8.864714,8.862894,8.861141,8.85935,8.857328,8.855384,8.853923,8.853148,8.853064,8.853557,8.854286,8.854972,8.855658,8.8561,8.8561945,8.855895,8.855002,8.853525,8.851673,8.849036,8.845799,8.842264,8.838587,8.835013,8.832168,8.829971,8.82847,8.827952,8.828252,8.829017,8.830039,8.831169,8.832194,8.833353,8.834661,8.835893,8.836978,8.837791,8.83805,8.837881,8.837475,8.83678,8.836152,8.835957,8.836189,8.836696,8.837519,8.838436,8.839299,8.840195,8.8411045,8.842108,8.84338,8.84484,8.84639,8.847939,8.848829,8.848658,8.847377,8.845304,8.843088,8.841207,8.839823,8.838779,8.837465,8.835346,8.832328,8.82883,8.82546,8.822528,8.820224,8.818612,8.817499,8.816668,8.816017,8.815684,8.8158,8.816302,8.817101,8.817589,8.817223,8.815928,8.8138485,8.811085,8.807893,8.8049
8.762238,8.761688,8.760659,8.759297,8.757962,8.757072,8.756709,8.756303,8.755546,8.755063,8.753626,8.751917,8.750543,8.749209,8.748218,8.746992,8.745699,8.744509,8.743562,8.742852,8.742348,8.742132,8.74245,8.742992,8.743322,8.743268,8.742893,8.74256,8.742585,8.742762,8.74337,8.74437,8.745334,8.745722,8.745253,8.744023,8.742369,8.740782,8.739501,8.737881,8.735552,8.732306,8.728176,8.723822,8.719473,8.714762,8.709292,8.705359,8.70355,8.702761,8.703054,8.703798,8.705173,8.706908,8.70893,8.710884,8.712933,8.715702,8.718473,8.72165,8.725163,8.728888,8.732625,8.736183,8.739582,8.74316,8.747499,8.751997,8.756457,8.760408,8.763673,8.766476,8.768864,8.771051,8.772716,8.773905,8.773811,8.772062,8.7689,8.764483,8.759401,8.753236,8.745813,8.738115,8.730545,8.723405,8.717533,8.712892,8.708456,8.703377,8.697584,8.691868,8.686947,8.683063,8.6805,8.677781,8.674576,8.671166,8.668347,8.668311,8.672895,8.681309,8.694183,8.711744,8.734496,8.762238,8.793976,8.827493,8.859074,8.884653,8.908678,8.930243,8.9484625,8.962135,8.970274,8.973305,8.973168,8.971473,8.969103,8.965381,8.960191,8.953209,8.944351,8.935955,8.926801,8.916899,8.906479,8.896515,8.888063,8.88161,8.877136,8.873807,8.871224,8.869179,8.867553,8.866207,8.864692,8.862404,8.859343,8.855071,8.849511,8.843271,8.836954,8.830862,8.825173,8.81976,8.81483,8.810766,8.808294,8.80773,8.808694,8.81046,8.812538,8.815038,8.818007,8.820962,8.823405,8.824731,8.824285,8.821929,8.818692,8.8147545,8.810778,8.806895,8.803051,8.799268,8.795578,8.7921915,8.789383,8.787775,8.7877245,8.789309,8.792242,8.795872,8.7998,8.8041115,8.808815,8.813399,8.8174,8.820446,8.822132,8.822191,8.820656,8.817517,8.813133,8.808332,8.803959,8.800522,8.798082,8.796397,8.79548,8.795192,8.795536,8.796501,8.797894,8.799432,8.800777,8.801627,8.801483,8.799825,8.796555,8.7920685,8.787021,8.781992,8.777022,8.772764,8.769558,8.76739,8.766137,8.765638,8.765571,8.765929,8.766897,8.768542,8.770744,8.773245,8.775659,8.7775545,8.7787075,8.778863,8.777983,8.776358,8.77438,8.772402,8.77068,8.769036,8.767262,8.76561,8.764443,8.763963,8.764189,8.76503,8.766172,8.767387,8.768636,8.769561,8.76988,8.769388,8.767911,8.765692,8.763001,8.759636,8.756015,8.752457,8.748978,8.745686,8.743071,8.741011,8.739609,8.739213,8.739729,8.740844,8.742313,8.743906,8.745355,8.746824,8.748252,8.7493925,8.750213,8.750709,8.750722,8.750429,8.750029,8.749464,8.749031,8.748995,8.7493,8.749786,8.750518,8.751364,8.752211,8.753197,8.754303,8.755555,8.757056,8.7587,8.760376,8.761978,8.762833,8.762465,8.760807,8.758238,8.755453,8.752952,8.750971,8.749401,8.747736,8.745508,8.742618,8.7394085,8.73642,8.733941,8.732113,8.730978,8.730314,8.729887,8.72961,8.729599,8.730015,8.730783,8.731817,8.732514,8.732349,8.731282,8.729452,8.72695,8.724031,8.721237
8.696583,8.696127,8.695308,8.694231,8.693302,8.6929455,8.693146,8.693307,8.693145,8.693261,8.692459,8.691242,8.690022,8.688459,8.686868,8.684725,8.682555,8.680599,8.679033,8.677837,8.676946,8.676407,8.676521,8.676902,8.677185,8.677111,8.676631,8.676074,8.675799,8.675701,8.675947,8.67656,8.677087,8.6770525,8.67631,8.675001,8.673364,8.671701,8.670044,8.667909,8.665059,8.661429,8.657131,8.652661,8.648129,8.643138,8.6374035,8.633319,8.631443,8.630584,8.630778,8.6314125,8.632615,8.634196,8.636112,8.638079,8.640309,8.643389,8.646492,8.650012,8.653818,8.657794,8.661717,8.665389,8.668826,8.672293,8.676438,8.680739,8.685097,8.68903,8.6923485,8.695288,8.69783,8.700214,8.7022705,8.703989,8.704482,8.703281,8.700635,8.696814,8.692416,8.687025,8.680731,8.673235,8.6650915,8.657873,8.652714,8.649045,8.645128,8.640094,8.633872,8.627312,8.62135,8.61653,8.613293,8.610722,8.608497,8.607343,8.60791,8.612012,8.621244,8.634531,8.652284,8.675085,8.702234,8.733024,8.765837,8.797306,8.823775,8.84526,8.865193,8.88163,8.894035,8.901933,8.904877,8.903742,8.90065,8.89595,8.890084,8.883759,8.877217,8.870273,8.862919,8.855635,8.847692,8.838966,8.829615,8.820459,8.812448,8.806147,8.801722,8.798423,8.795843,8.793756,8.792031,8.790529,8.788839,8.786438,8.783297,8.778971,8.773417,8.767226,8.760984,8.755017,8.749498,8.744291,8.7395315,8.735572,8.733096,8.732407,8.733145,8.734586,8.736228,8.738169,8.740392,8.742519,8.74414,8.744706,8.743629,8.740787,8.737143,8.732832,8.728542,8.72447,8.720579,8.716884,8.713406,8.710286,8.707802,8.706466,8.706568,8.708129,8.710842,8.714102,8.71755,8.721272,8.725216,8.728855,8.731789,8.7337675,8.734507,8.733837,8.731776,8.728348,8.723911,8.719254,8.715183,8.71216,8.710189,8.709031,8.708727,8.709106,8.710075,8.7114935,8.713074,8.714515,8.715494,8.715757,8.714869,8.712427,8.70847,8.703491,8.698171,8.693055,8.688172,8.684172,8.681307,8.679465,8.678435,8.677983,8.677795,8.677939,8.6786375,8.680019,8.681998,8.684262,8.6863575,8.6878605,8.688512,8.688082,8.686636,8.684561,8.682316,8.680283,8.678673,8.67722,8.675718,8.6743555,8.6734495,8.673196,8.673628,8.674658,8.676005,8.677484,8.6789665,8.680049,8.680356,8.679588,8.677594,8.674803,8.671527,8.66771,8.663932,8.660485,8.657259,8.65424,8.651809,8.649801,8.648361,8.647887,8.648365,8.649554,8.651209,8.6530485,8.654782,8.656483,8.658001,8.659057,8.659647,8.659859,8.65965,8.659257,8.658871,8.658429,8.658157,8.658239,8.658585,8.659031,8.659657,8.660398,8.661189,8.662192,8.663401,8.664782,8.666344,8.66795,8.669479,8.670826,8.671372,8.670671,8.668691,8.665835,8.662772,8.659966,8.657681,8.655839,8.6539955,8.651753,8.649028,8.646107,8.643477,8.641427,8.640072,8.639456,8.639348,8.639499,8.6398,8.640316,8.6412325,8.642441,8.643834,8.644826,8.644931,8.644142,8.642608,8.640404,8.637775,8.635176
8.632127,8.631701,8.630987,8.630047,8.629367,8.629403,8.630073,8.630797,8.631281,8.632092,8.632045,8.631407,8.630368,8.628541,8.626258,8.623131,8.619965,8.617223,8.6150875,8.613496,8.612359,8.611677,8.611765,8.612155,8.612541,8.612577,8.612076,8.611305,8.610674,8.610185,8.609928,8.609986,8.609911,8.6092825,8.608083,8.606521,8.604736,8.602873,8.600756,8.598066,8.594676,8.590679,8.586299,8.5819025,8.577475,8.572616,8.567039,8.563224,8.561715,8.5612335,8.5617895,8.562783,8.564323,8.566195,8.568352,8.570575,8.573135,8.576582,8.580044,8.5839,8.587966,8.592123,8.596136,8.599808,8.603138,8.606317,8.610063,8.61397,8.618037,8.621817,8.625086,8.628015,8.6305275,8.63286,8.635015,8.636943,8.637709,8.636799,8.634481,8.631122,8.627327,8.62284,8.61714,8.6094055,8.601468,8.595487,8.59122,8.588272,8.584809,8.579918,8.573653,8.566919,8.560834,8.556201,8.55342,8.552137,8.552103,8.554131,8.558574,8.566721,8.579856,8.596901,8.618088,8.644413,8.673931,8.705453,8.735819,8.761466,8.78207,8.799319,8.813696,8.824133,8.830756,8.833619,8.8326845,8.828683,8.822693,8.8154,8.80706,8.799886,8.79436,8.788985,8.782747,8.7764435,8.769504,8.76174,8.753304,8.744897,8.737352,8.731266,8.726935,8.723692,8.721131,8.718993,8.717144,8.715436,8.71352,8.710978,8.707771,8.703488,8.698124,8.69223,8.6863365,8.680729,8.675585,8.67075,8.666315,8.662572,8.66016,8.659355,8.6598015,8.660808,8.661888,8.663095,8.664375,8.665482,8.66614,8.665909,8.66429,8.661163,8.657347,8.652919,8.648542,8.644439,8.640596,8.637007,8.633662,8.630682,8.628311,8.626975,8.626923,8.628156,8.630378,8.633041,8.635848,8.638857,8.641982,8.644684,8.6466255,8.647668,8.647626,8.646422,8.644066,8.640604,8.636383,8.63213,8.628574,8.626101,8.624651,8.623999,8.624188,8.625009,8.626307,8.627863,8.629339,8.630448,8.630906,8.630484,8.628852,8.625745,8.6213255,8.61614,8.610835,8.605887,8.601298,8.597674,8.595179,8.593627,8.592747,8.592266,8.591878,8.591719,8.592045,8.593022,8.594604,8.596452,8.598074,8.599068,8.599178,8.5981865,8.596283,8.593918,8.5915785,8.5896435,8.58826,8.587099,8.58595,8.584958,8.584376,8.584376,8.584992,8.586139,8.587561,8.589109,8.590602,8.591636,8.591809,8.590785,8.588435,8.58529,8.5816765,8.577629,8.573814,8.570488,8.567459,8.564631,8.562307,8.560272,8.558711,8.558029,8.558285,8.559305,8.560872,8.562688,8.564459,8.5662,8.567684,8.568611,8.569001,8.568996,8.568644,8.568208,8.5678625,8.567535,8.567381,8.567521,8.56785,8.56823,8.56875,8.569393,8.570132,8.571141,8.572422,8.573891,8.575465,8.576982,8.578323,8.579372,8.579608,8.578658,8.576535,8.573623,8.570525,8.567661,8.5652685,8.563318,8.5614195,8.559234,8.556698,8.554049,8.551727,8.550023,8.549046,8.548874,8.549289,8.550019,8.550917,8.551984,8.553395,8.555012,8.556701,8.557915,8.558228,8.55768,8.556423,8.554518,8.552183,8.549789
8.570984,8.570555,8.5698595,8.568929,8.568352,8.568638,8.56965,8.570849,8.57189,8.573268,8.573802,8.57352,8.57244,8.57018,8.567088,8.5629835,8.558865,8.555458,8.552906,8.55108,8.549895,8.549319,8.549556,8.550175,8.550819,8.550985,8.550388,8.549295,8.548172,8.547099,8.546173,8.545503,8.544653,8.543254,8.541398,8.539377,8.537254,8.535061,8.532489,8.529352,8.525609,8.521495,8.517355,8.513455,8.50961,8.505452,8.5006,8.497583,8.496908,8.497191,8.498459,8.500125,8.502342,8.504852,8.507495,8.510125,8.51311,8.516942,8.520705,8.524826,8.529042,8.533214,8.537124,8.54059,8.54358,8.5462475,8.549377,8.552681,8.556255,8.559703,8.562805,8.565656,8.5680485,8.570222,8.57223,8.574069,8.574835,8.574002,8.571864,8.568887,8.565696,8.561858,8.555952,8.5489235,8.5425,8.5375595,8.534041,8.531689,8.528564,8.523846,8.517839,8.511526,8.506159,8.502744,8.501486,8.50247,8.5055895,8.511356,8.5197115,8.53134,8.547147,8.566299,8.588954,8.616444,8.645834,8.6752205,8.7003355,8.719036,8.73491,8.746721,8.755271,8.760275,8.76192,8.7607565,8.7571125,8.750953,8.742189,8.733532,8.725988,8.7201605,8.715673,8.711195,8.705749,8.700091,8.693795,8.686694,8.678957,8.671211,8.664185,8.658444,8.654357,8.651281,8.648848,8.64678,8.644911,8.643072,8.640954,8.638248,8.634946,8.630695,8.625522,8.619957,8.614472,8.609312,8.604636,8.600278,8.5963,8.592908,8.590672,8.589833,8.590046,8.590658,8.59123,8.591752,8.592137,8.59226,8.591985,8.591013,8.588938,8.585622,8.581734,8.577296,8.572903,8.568799,8.564995,8.561456,8.558165,8.555231,8.552838,8.551373,8.551035,8.5518265,8.553482,8.555493,8.557645,8.559946,8.562299,8.564159,8.565255,8.565533,8.564894,8.563341,8.560891,8.557609,8.553812,8.550152,8.547256,8.545414,8.544495,8.5443,8.544847,8.545878,8.547214,8.548602,8.549693,8.550239,8.550004,8.548796,8.546389,8.542671,8.537929,8.532726,8.527638,8.523024,8.51887,8.515714,8.513631,8.512378,8.511639,8.511109,8.510514,8.510028,8.509925,8.510412,8.5114765,8.512796,8.513876,8.51434,8.513954,8.512527,8.510352,8.507905,8.505676,8.504017,8.502978,8.502216,8.501526,8.500993,8.500805,8.50109,8.501875,8.503082,8.504481,8.505961,8.507327,8.508198,8.508186,8.506959,8.504421,8.501134,8.497384,8.493264,8.489469,8.486231,8.483326,8.480627,8.4783745,8.476321,8.474674,8.473819,8.473832,8.474588,8.475902,8.477487,8.47906,8.480619,8.481908,8.482639,8.482851,8.482711,8.482311,8.481912,8.4816475,8.481424,8.481355,8.4815035,8.48176,8.482041,8.482453,8.483014,8.483709,8.484726,8.486069,8.487616,8.489223,8.490707,8.4919615,8.492856,8.4929495,8.491946,8.489878,8.48708,8.484088,8.481287,8.478873,8.476878,8.474985,8.472905,8.470572,8.4681835,8.466127,8.464672,8.463939,8.464065,8.464858,8.466021,8.467364,8.468836,8.470561,8.472388,8.47417,8.475406,8.475761,8.475327,8.474255,8.472595,8.470528,8.468342
8.513921,8.513476,8.512796,8.511883,8.511368,8.511782,8.512983,8.5144825,8.5159445,8.5177,8.518558,8.518352,8.517008,8.514193,8.510262,8.505259,8.500354,8.496447,8.493708,8.49197,8.491053,8.490746,8.491186,8.492028,8.492857,8.493083,8.49232,8.49082,8.489127,8.487362,8.485746,8.484343,8.482728,8.480597,8.478147,8.475715,8.473284,8.470809,8.467824,8.464326,8.460378,8.456318,8.452609,8.449439,8.44643,8.443273,8.439453,8.437537,8.437977,8.439285,8.441536,8.44412,8.447282,8.450639,8.453965,8.457136,8.460549,8.464682,8.468635,8.47284,8.477019,8.48098,8.484552,8.487595,8.490065,8.492105,8.494515,8.497164,8.500226,8.503315,8.506192,8.508875,8.51105,8.512959,8.514662,8.516235,8.516824,8.515911,8.51382,8.511092,8.508444,8.504187,8.49898,8.49336,8.488197,8.484192,8.481343,8.479476,8.476652,8.472202,8.466765,8.461382,8.457381,8.455893,8.456821,8.460524,8.467088,8.476532,8.488353,8.502629,8.519879,8.539681,8.562186,8.588838,8.61621,8.640844,8.660069,8.67367,8.683712,8.690082,8.693311,8.693855,8.6909275,8.685506,8.679117,8.671934,8.664586,8.657317,8.650895,8.6459255,8.642079,8.638066,8.632994,8.62763,8.621651,8.61496,8.607755,8.60062,8.594187,8.588955,8.585297,8.582562,8.580413,8.57858,8.576842,8.574985,8.572732,8.569873,8.566462,8.562213,8.557185,8.551907,8.546811,8.542097,8.537897,8.534031,8.530551,8.527553,8.525516,8.524672,8.524689,8.524947,8.525091,8.525053,8.524686,8.523958,8.522867,8.521264,8.518831,8.515405,8.511525,8.507156,8.50283,8.498801,8.495088,8.491642,8.488435,8.485558,8.483138,8.481531,8.480913,8.481301,8.482452,8.483883,8.485463,8.487152,8.488838,8.489998,8.49041,8.490095,8.48903,8.487277,8.484857,8.48186,8.478578,8.475558,8.47333,8.472093,8.471647,8.471824,8.472584,8.473664,8.47485,8.475879,8.476431,8.476314,8.47535,8.473373,8.470271,8.466083,8.461183,8.45613,8.4514065,8.447257,8.44363,8.440989,8.439337,8.438382,8.437785,8.437227,8.436449,8.435673,8.435166,8.435171,8.4357195,8.436523,8.437109,8.43714,8.436398,8.4347315,8.432497,8.43017,8.428209,8.426917,8.426289,8.425938,8.425705,8.425607,8.425759,8.426249,8.427095,8.428239,8.4294815,8.430742,8.431846,8.432437,8.432177,8.4307785,8.428172,8.424902,8.421191,8.417151,8.413455,8.410324,8.407533,8.404956,8.402806,8.400823,8.399203,8.398288,8.398147,8.398667,8.399682,8.400942,8.402216,8.40346,8.404464,8.404968,8.405026,8.404818,8.40443,8.404122,8.403978,8.403873,8.403876,8.404017,8.404197,8.404384,8.404695,8.405168,8.405818,8.406806,8.408147,8.409715,8.411326,8.412782,8.413966,8.414767,8.414811,8.413848,8.411918,8.409324,8.4065075,8.403828,8.40147,8.399493,8.397661,8.395729,8.393617,8.391481,8.389664,8.388398,8.387826,8.388137,8.389154,8.390574,8.392188,8.393885,8.395761,8.397646,8.399374,8.400506,8.400802,8.400403,8.399439,8.397977,8.396135,8.394142
8.456569,8.456316,8.455953,8.455368,8.454985,8.455373,8.456608,8.4581995,8.459829,8.461746,8.462704,8.462394,8.460775,8.457669,8.45343,8.448027,8.441924,8.437299,8.434748,8.433754,8.433648,8.433869,8.434204,8.43493,8.435534,8.43537,8.434054,8.431897,8.4295025,8.426992,8.424657,8.422534,8.420222,8.4174385,8.414456,8.411682,8.409023,8.406404,8.403249,8.399679,8.395816,8.392072,8.388974,8.386652,8.384564,8.382461,8.379732,8.378987,8.380617,8.383026,8.386309,8.389852,8.394001,8.398223,8.402222,8.405874,8.409585,8.413838,8.417785,8.421844,8.425741,8.429241,8.432241,8.434687,8.436538,8.437969,8.43975,8.44185,8.444502,8.447314,8.4500265,8.452628,8.454741,8.456516,8.458057,8.459461,8.459942,8.459059,8.45704,8.454162,8.451047,8.447519,8.443485,8.439133,8.435126,8.432055,8.429948,8.428665,8.42631,8.42234,8.417681,8.413537,8.4114,8.412418,8.4160595,8.422778,8.432838,8.445661,8.460447,8.476766,8.494655,8.514062,8.535086,8.5591,8.582338,8.601662,8.615281,8.623216,8.626938,8.626891,8.623789,8.618832,8.612758,8.606277,8.599846,8.593448,8.587181,8.581047,8.575582,8.571265,8.567835,8.564138,8.559355,8.554248,8.54854,8.542196,8.535438,8.528816,8.522876,8.518046,8.514697,8.512166,8.51019,8.50849,8.5068245,8.504941,8.502567,8.499575,8.496065,8.491805,8.486868,8.481809,8.47703,8.472696,8.468939,8.465554,8.462553,8.45997,8.458178,8.457352,8.457188,8.457133,8.456913,8.456392,8.455406,8.453999,8.452275,8.450197,8.447518,8.444075,8.440289,8.436061,8.431896,8.42804,8.424515,8.421265,8.418236,8.415487,8.413128,8.411456,8.410639,8.410695,8.411399,8.412318,8.413373,8.414488,8.415548,8.416065,8.415869,8.41504,8.413616,8.411716,8.409363,8.406653,8.403849,8.401413,8.399761,8.399009,8.398917,8.399348,8.400229,8.401277,8.402255,8.4029045,8.402941,8.402234,8.400657,8.398089,8.394506,8.39006,8.385185,8.380401,8.376089,8.372416,8.369295,8.367135,8.365886,8.365228,8.364807,8.364305,8.363494,8.362598,8.361888,8.361594,8.36178,8.362195,8.3624,8.362117,8.361142,8.359365,8.357165,8.354999,8.353281,8.352253,8.351862,8.35173,8.351716,8.351806,8.35209,8.352627,8.353417,8.354416,8.355428,8.356397,8.357152,8.357407,8.356878,8.355334,8.352736,8.349583,8.346026,8.342157,8.33861,8.335587,8.332897,8.330461,8.328464,8.3266535,8.325214,8.324442,8.324343,8.324781,8.325605,8.32659,8.327549,8.328449,8.329109,8.329317,8.329166,8.328846,8.3284445,8.328211,8.328164,8.3281555,8.328214,8.328329,8.328409,8.328469,8.328654,8.328995,8.329527,8.3303995,8.331645,8.333135,8.334654,8.336025,8.337123,8.337843,8.33786,8.336961,8.3351755,8.332754,8.330075,8.327482,8.325133,8.323139,8.321353,8.319588,8.317756,8.315968,8.314494,8.313528,8.313202,8.313704,8.314874,8.3164215,8.318144,8.319898,8.321789,8.323662,8.325338,8.32643,8.326765,8.326504,8.325751,8.324563,8.323017,8.3212805
8.392278,8.392419,8.392457,8.392199,8.392255,8.393281,8.395191,8.397435,8.399502,8.40142,8.402212,8.401706,8.399724,8.395809,8.390248,8.383987,8.378159,8.374204,8.372381,8.372029,8.372378,8.372984,8.373866,8.374412,8.374414,8.373505,8.371446,8.368492,8.365109,8.361482,8.358308,8.355542,8.352825,8.349817,8.346678,8.343726,8.3408165,8.338066,8.334867,8.331396,8.327793,8.324467,8.3219795,8.320471,8.319308,8.3182335,8.316579,8.316979,8.319801,8.323357,8.327679,8.332155,8.337292,8.342369,8.347028,8.351109,8.3550005,8.359216,8.36295,8.366663,8.3700485,8.372845,8.375078,8.376797,8.377981,8.378871,8.38018,8.381936,8.384346,8.387085,8.38989,8.392602,8.39472,8.396457,8.397957,8.39933,8.399948,8.399066,8.39675,8.393885,8.391299,8.388763,8.386023,8.383066,8.380353,8.378349,8.37709,8.37648,8.374712,8.371427,8.367867,8.365351,8.365441,8.369336,8.3761635,8.386097,8.3995285,8.415267,8.432357,8.449956,8.467581,8.485465,8.5036125,8.52314,8.540383,8.55261,8.558821,8.559639,8.556792,8.551704,8.544546,8.536743,8.529208,8.522384,8.516345,8.510881,8.505597,8.5004015,8.495605,8.49161,8.488288,8.484695,8.480113,8.475272,8.469868,8.463892,8.457589,8.451462,8.445989,8.441551,8.438482,8.436127,8.434262,8.432653,8.431038,8.429143,8.426708,8.423646,8.420095,8.415874,8.41104,8.406174,8.401652,8.39762,8.394235,8.391282,8.388714,8.386532,8.384991,8.384179,8.383807,8.383416,8.382807,8.381811,8.380266,8.37828,8.376034,8.373591,8.370781,8.367412,8.363817,8.359855,8.355993,8.352463,8.349274,8.346353,8.343632,8.341137,8.338948,8.337303,8.336361,8.336149,8.336459,8.336897,8.337445,8.338,8.338465,8.338387,8.337656,8.336401,8.334694,8.332701,8.330454,8.328042,8.325694,8.323782,8.322608,8.322221,8.322369,8.322924,8.323802,8.324715,8.325417,8.325655,8.325195,8.32398,8.321929,8.318986,8.31518,8.310751,8.306149,8.301818,8.298044,8.294927,8.292355,8.290693,8.28985,8.289498,8.289283,8.288902,8.288161,8.2872925,8.286533,8.286112,8.286086,8.2862425,8.286211,8.285761,8.284704,8.282979,8.28095,8.279018,8.277543,8.276712,8.27642,8.27632,8.276287,8.276302,8.276448,8.276788,8.277318,8.277982,8.278611,8.279132,8.279405,8.279215,8.27836,8.27669,8.274187,8.2712755,8.268015,8.26448,8.261212,8.258392,8.2558975,8.253706,8.251991,8.250535,8.2495,8.24911,8.249285,8.249829,8.250586,8.251369,8.252048,8.252604,8.252887,8.252766,8.252376,8.251924,8.251514,8.251364,8.2514305,8.251534,8.251662,8.251745,8.251696,8.2515955,8.251582,8.251702,8.252008,8.252642,8.253641,8.254893,8.256193,8.257376,8.258308,8.258892,8.258847,8.257976,8.2563,8.254023,8.251453,8.248932,8.246582,8.244564,8.242838,8.241282,8.239804,8.238474,8.237455,8.236912,8.236929,8.237645,8.238897,8.240435,8.2420845,8.243743,8.245523,8.247311,8.248938,8.250046,8.250501,8.250458,8.249975,8.249133,8.247937,8.246502
8.324483,8.3250675,8.325548,8.32565,8.326063,8.327476,8.329702,8.33215,8.334425,8.336397,8.337031,8.33601,8.333323,8.328903,8.323183,8.317233,8.312431,8.309509,8.308345,8.308194,8.30838,8.308686,8.30932,8.309442,8.3086605,8.3066,8.303206,8.298994,8.294603,8.290178,8.286474,8.283382,8.280578,8.277651,8.274684,8.272008,8.2695,8.267223,8.264624,8.261862,8.259053,8.25667,8.25528,8.254799,8.254298,8.254015,8.253254,8.254654,8.258518,8.263066,8.268316,8.27362,8.279635,8.285486,8.290773,8.295266,8.299296,8.303417,8.30686,8.310156,8.312924,8.314926,8.31633,8.317308,8.317897,8.318416,8.319482,8.32113,8.32354,8.326378,8.329367,8.332281,8.334541,8.33639,8.338028,8.339583,8.340392,8.33964,8.337523,8.335208,8.333484,8.33194,8.330397,8.32873,8.3272,8.32619,8.325799,8.325941,8.324988,8.322754,8.32074,8.320362,8.323151,8.330174,8.340261,8.353047,8.36893,8.386241,8.404061,8.4214,8.437433,8.452609,8.466781,8.480624,8.491,8.495684,8.494471,8.488801,8.480748,8.4721155,8.462717,8.453574,8.445339,8.438315,8.432501,8.427566,8.422875,8.4182005,8.4137125,8.409764,8.406392,8.402876,8.398573,8.394136,8.389199,8.383766,8.378053,8.372507,8.367557,8.363539,8.360746,8.358526,8.356721,8.355133,8.353504,8.3515625,8.349077,8.345986,8.342451,8.338344,8.333686,8.329065,8.324845,8.321137,8.318101,8.315531,8.313308,8.311406,8.309974,8.309041,8.308352,8.307559,8.306526,8.305062,8.303023,8.300549,8.297882,8.295178,8.292338,8.289141,8.285864,8.282318,8.278925,8.2758875,8.27318,8.270703,8.268376,8.266191,8.264211,8.262626,8.261583,8.2611065,8.261004,8.260939,8.260948,8.260913,8.260775,8.260136,8.258933,8.257331,8.255416,8.253376,8.251247,8.2491,8.247129,8.245623,8.244797,8.24465,8.244942,8.245552,8.2463875,8.2471485,8.24759,8.247483,8.246647,8.245087,8.242784,8.239724,8.236,8.231892,8.227821,8.224148,8.221053,8.2185755,8.216598,8.215444,8.214987,8.214908,8.214882,8.21463,8.214008,8.213244,8.212534,8.212093,8.211977,8.212006,8.211883,8.211422,8.210444,8.208922,8.207159,8.205498,8.204236,8.203495,8.203149,8.202899,8.202616,8.202286,8.202002,8.201841,8.201819,8.201895,8.20195,8.201847,8.201503,8.200789,8.199592,8.197828,8.195501,8.192923,8.190077,8.187009,8.184147,8.181654,8.1794815,8.177654,8.176344,8.175386,8.174899,8.175027,8.175602,8.176363,8.177143,8.177806,8.178263,8.17853,8.178466,8.178014,8.177369,8.176761,8.176319,8.176229,8.176403,8.1766205,8.1768055,8.176839,8.1766405,8.17633,8.176056,8.175872,8.175842,8.176097,8.176693,8.177543,8.178464,8.179315,8.179953,8.180294,8.180098,8.179192,8.177593,8.175463,8.173041,8.170647,8.168372,8.166404,8.16481,8.163532,8.16248,8.161691,8.161219,8.16119,8.161618,8.162549,8.163821,8.165243,8.166695,8.168145,8.169743,8.171419,8.173008,8.174183,8.174824,8.175048,8.174867,8.174392,8.17356,8.17244
8.254887,8.255848,8.25675,8.257242,8.257897,8.2593775,8.261531,8.263734,8.265826,8.267637,8.267976,8.266437,8.26333,8.259118,8.254362,8.249621,8.245861,8.2436285,8.242649,8.242114,8.241484,8.240791,8.240248,8.239357,8.237476,8.234182,8.229557,8.224384,8.219514,8.21499,8.211393,8.208548,8.206125,8.203667,8.201223,8.199184,8.197489,8.196096,8.194541,8.1929,8.19121,8.189941,8.189675,8.190267,8.190663,8.190929,8.1907425,8.192837,8.197428,8.202682,8.208603,8.2145,8.221162,8.227612,8.233431,8.238309,8.242501,8.246582,8.24979,8.252755,8.254991,8.256315,8.2570305,8.257437,8.257657,8.258063,8.259199,8.261031,8.263704,8.266803,8.270066,8.273333,8.275945,8.278131,8.280161,8.282137,8.283404,8.283315,8.282091,8.280624,8.279632,8.278918,8.278317,8.277617,8.276939,8.276659,8.277007,8.277907,8.277944,8.277084,8.27696,8.279075,8.284894,8.295178,8.308237,8.323177,8.3402405,8.357477,8.37419,8.389584,8.4027815,8.414349,8.423967,8.431794,8.435452,8.43343,8.426268,8.415997,8.404739,8.394091,8.383456,8.373481,8.364707,8.35736,8.351355,8.346361,8.341727,8.337088,8.332575,8.32851,8.325084,8.321771,8.317947,8.314144,8.309921,8.305271,8.300334,8.295491,8.291125,8.287537,8.284983,8.282832,8.280985,8.279284,8.277513,8.275434,8.272865,8.2697735,8.266315,8.262408,8.25805,8.253803,8.25001,8.246749,8.244133,8.2419405,8.24001,8.238271,8.236813,8.235639,8.234564,8.233354,8.231923,8.23007,8.227663,8.224872,8.221967,8.21917,8.216454,8.213573,8.210761,8.207803,8.205051,8.202647,8.200515,8.198525,8.196596,8.194702,8.192903,8.191342,8.190165,8.189381,8.188818,8.18822,8.187674,8.187039,8.18632,8.185187,8.18362,8.181791,8.17979,8.177791,8.175812,8.173908,8.172244,8.171042,8.170455,8.170462,8.170836,8.171475,8.172264,8.172909,8.173166,8.172831,8.17178,8.170076,8.167756,8.164844,8.161479,8.157954,8.154629,8.151759,8.149435,8.147638,8.146272,8.145605,8.145485,8.14562,8.145733,8.145581,8.145083,8.144456,8.143847,8.14347,8.143364,8.14338,8.143295,8.14295,8.142176,8.140948,8.139493,8.138089,8.1369705,8.136213,8.1357,8.135172,8.134497,8.133656,8.132766,8.131936,8.13121,8.130581,8.129982,8.129219,8.1282625,8.127069,8.125593,8.123804,8.1217165,8.119522,8.117154,8.1146145,8.112233,8.110154,8.108382,8.106989,8.106138,8.105707,8.105775,8.106403,8.107352,8.10832,8.109145,8.10973,8.11003,8.110081,8.109733,8.108996,8.10811,8.107339,8.106848,8.106799,8.107056,8.107367,8.107586,8.107549,8.107184,8.106634,8.106066,8.105539,8.105122,8.104945,8.105085,8.105476,8.105956,8.106408,8.106692,8.106734,8.106344,8.105385,8.103866,8.101907,8.099693,8.097494,8.095373,8.093532,8.092116,8.091128,8.090497,8.090249,8.090325,8.0908165,8.091649,8.092766,8.0940075,8.0952425,8.096419,8.097597,8.09897,8.100518,8.102076,8.10334,8.104185,8.104671,8.104786,8.104641,8.104135,8.103294
8.18584,8.187099,8.188362,8.189229,8.190176,8.191823,8.194025,8.196086,8.19787,8.199209,8.199021,8.197176,8.1941595,8.1903925,8.186314,8.182348,8.179189,8.177117,8.175795,8.174434,8.172667,8.170836,8.169152,8.167047,8.1640835,8.160076,8.155181,8.150113,8.145621,8.141678,8.138836,8.136843,8.135324,8.133774,8.132181,8.130904,8.129946,8.129372,8.1288,8.128203,8.127498,8.127022,8.127378,8.128665,8.130082,8.130749,8.130839,8.133268,8.138225,8.143838,8.150058,8.156187,8.163137,8.1699,8.17605,8.181229,8.185631,8.189811,8.192976,8.195843,8.197812,8.198768,8.199114,8.199247,8.199379,8.199913,8.201381,8.203617,8.20671,8.210185,8.213828,8.2175455,8.220612,8.223247,8.225804,8.228304,8.230265,8.231149,8.230984,8.230377,8.230085,8.230078,8.230141,8.230066,8.229929,8.230141,8.231086,8.232701,8.233792,8.234444,8.236265,8.2408285,8.249494,8.26255,8.277769,8.293806,8.31061,8.32614,8.340039,8.351966,8.361302,8.368658,8.373612,8.375843,8.373786,8.366692,8.355618,8.342771,8.330101,8.318798,8.307706,8.297426,8.288406,8.280794,8.274503,8.269265,8.264502,8.259777,8.255236,8.251159,8.24784,8.244896,8.241704,8.23865,8.235251,8.231445,8.227299,8.223122,8.219264,8.216011,8.213591,8.211403,8.209376,8.207405,8.205339,8.203017,8.2003145,8.197226,8.193878,8.19021,8.186208,8.182388,8.1790695,8.176303,8.174133,8.172294,8.17061,8.168975,8.167449,8.166038,8.164629,8.163093,8.161393,8.159324,8.156772,8.15393,8.151049,8.148383,8.145964,8.143516,8.141246,8.138942,8.136877,8.135107,8.133504,8.131929,8.130313,8.128633,8.126939,8.125338,8.123981,8.122882,8.121889,8.1208315,8.11983,8.118725,8.117565,8.116098,8.114328,8.112427,8.11047,8.1086,8.106806,8.105124,8.103694,8.1026945,8.102239,8.102297,8.102675,8.103281,8.103975,8.104494,8.104595,8.104096,8.102928,8.10121,8.09899,8.096349,8.0934515,8.090582,8.088034,8.085958,8.084361,8.083193,8.08238,8.082132,8.082283,8.082579,8.082783,8.082705,8.082314,8.081815,8.08132,8.081033,8.080985,8.081052,8.081066,8.080894,8.080359,8.079437,8.078273,8.077074,8.076031,8.0752125,8.074513,8.07371,8.072672,8.071357,8.069911,8.068488,8.067149,8.065915,8.064774,8.063487,8.06207,8.060543,8.058901,8.057152,8.055317,8.0534935,8.051569,8.049517,8.047582,8.045883,8.044474,8.043467,8.043005,8.042984,8.043464,8.04443,8.045598,8.04665,8.047441,8.047915,8.048068,8.047924,8.047345,8.046385,8.045313,8.044419,8.043894,8.043888,8.044205,8.044583,8.04482,8.044718,8.044211,8.043463,8.042651,8.041849,8.041123,8.040618,8.040416,8.040465,8.040618,8.040773,8.040806,8.040649,8.0401535,8.039221,8.037849,8.036113,8.034161,8.0322,8.030275,8.028584,8.027327,8.026559,8.026244,8.0264015,8.026876,8.027735,8.028827,8.030008,8.031122,8.032092,8.032932,8.0337925,8.034893,8.036241,8.037698,8.038973,8.03992,8.040558,8.040859,8.04093,8.04063,8.039972
8.121864,8.123366,8.124932,8.126137,8.127354,8.129174,8.13147,8.133457,8.135001,8.135966,8.135299,8.133063,8.129908,8.1262245,8.122318,8.11844,8.115099,8.112502,8.110401,8.10812,8.105435,8.102873,8.100535,8.097925,8.094714,8.090865,8.086539,8.082326,8.078869,8.07606,8.074381,8.073587,8.073233,8.072764,8.072127,8.071663,8.071451,8.071619,8.071888,8.072124,8.072166,8.072284,8.073033,8.07456,8.076172,8.07709,8.077328,8.079854,8.0849085,8.090561,8.09672,8.102728,8.10957,8.116314,8.122543,8.127886,8.132519,8.136956,8.140344,8.1434145,8.145475,8.146463,8.146815,8.146974,8.147228,8.148018,8.149892,8.152553,8.156043,8.159892,8.16388,8.167926,8.171336,8.174304,8.177264,8.180177,8.182539,8.183951,8.184552,8.184807,8.185174,8.185827,8.186403,8.186765,8.187016,8.187627,8.1891365,8.191438,8.193595,8.195735,8.199305,8.205921,8.216661,8.231204,8.247256,8.262987,8.277998,8.290334,8.299974,8.307173,8.311826,8.314645,8.3151865,8.312784,8.3066025,8.296468,8.283609,8.270072,8.257422,8.246157,8.235267,8.225211,8.216381,8.208941,8.202804,8.197716,8.193207,8.188801,8.184648,8.180971,8.178072,8.175647,8.173089,8.170692,8.167974,8.16482,8.161229,8.157477,8.15391,8.150805,8.148371,8.146026,8.143716,8.141363,8.138905,8.136264,8.133381,8.130266,8.12701,8.1235485,8.119833,8.116345,8.113393,8.110998,8.109152,8.107562,8.106048,8.104473,8.102888,8.101306,8.099688,8.097989,8.096195,8.094123,8.091679,8.089036,8.086424,8.084082,8.0820465,8.080037,8.078247,8.07648,8.074949,8.073635,8.072375,8.071043,8.069588,8.067997,8.066304,8.06461,8.063064,8.061697,8.06041,8.05908,8.057839,8.056499,8.055149,8.053562,8.05175,8.049886,8.048033,8.046301,8.044675,8.043152,8.041838,8.040892,8.040413,8.040381,8.040642,8.041095,8.041608,8.0419235,8.041816,8.041136,8.039857,8.038123,8.03597,8.033525,8.030983,8.028603,8.02664,8.025177,8.02414,8.023455,8.023052,8.0231085,8.0234585,8.0238695,8.024145,8.024126,8.023815,8.023396,8.022966,8.022721,8.0226965,8.02279,8.02288,8.022848,8.022504,8.021812,8.020865,8.019804,8.0188,8.017936,8.017124,8.0161705,8.014942,8.013374,8.011612,8.009825,8.0081,8.006487,8.005019,8.003418,8.001734,8.000021,7.998305,7.9966297,7.995,7.9934654,7.991865,7.9901667,7.9885287,7.9870663,7.9858723,7.985081,7.984823,7.9850073,7.9856553,7.986714,7.987876,7.988825,7.989439,7.989702,7.9896436,7.9892745,7.9884834,7.987351,7.9861646,7.9852176,7.984698,7.984728,7.9850802,7.9855084,7.9857535,7.9856124,7.985044,7.9842153,7.983302,7.982398,7.981557,7.980934,7.9806123,7.9805436,7.9805956,7.980681,7.980669,7.9805255,7.980113,7.979353,7.9782424,7.9768114,7.975167,7.9734764,7.971768,7.970233,7.9690895,7.968445,7.9682884,7.968611,7.9692345,7.9701834,7.9712687,7.972299,7.973131,7.9737535,7.9742217,7.9747353,7.975508,7.9765577,7.977766,7.9788666,7.9797125,7.9802995,7.9805865,7.9806824,7.9804263,7.9798374
8.061012,8.06267,8.064424,8.065849,8.067248,8.069175,8.071514,8.073399,8.074701,8.075277,8.074099,8.071434,8.068048,8.064255,8.060226,8.055988,8.052015,8.048549,8.045514,8.042417,8.039138,8.036217,8.033632,8.030979,8.02805,8.024899,8.0216255,8.018674,8.016558,8.015096,8.014714,8.015213,8.016082,8.0167,8.016974,8.017269,8.017725,8.018546,8.019516,8.020472,8.021174,8.021797,8.022845,8.024506,8.0261755,8.027132,8.027386,8.029885,8.034855,8.040357,8.0463085,8.052033,8.058499,8.06493,8.070988,8.076327,8.0811205,8.0858345,8.089567,8.093028,8.095481,8.096878,8.09761,8.098093,8.09867,8.099838,8.1021805,8.105313,8.109218,8.113411,8.117733,8.1221485,8.125934,8.129288,8.132561,8.135736,8.138353,8.140046,8.140953,8.141484,8.1420965,8.143008,8.144195,8.145083,8.145592,8.146466,8.148441,8.151339,8.15445,8.157979,8.163189,8.171404,8.18328,8.1982,8.214024,8.228415,8.240646,8.248925,8.253587,8.255532,8.255288,8.253691,8.250337,8.244343,8.235438,8.223892,8.210863,8.197852,8.185856,8.175169,8.164827,8.155223,8.146822,8.139835,8.13414,8.129474,8.125488,8.121701,8.118248,8.115261,8.113027,8.111262,8.109357,8.107539,8.105406,8.102773,8.099586,8.096106,8.092674,8.089573,8.087,8.084395,8.081707,8.078883,8.0759535,8.072954,8.06989,8.066771,8.063629,8.06038,8.056946,8.053768,8.051136,8.049056,8.047482,8.046109,8.044741,8.04323,8.041616,8.039948,8.038247,8.036532,8.034807,8.032922,8.030792,8.02858,8.026453,8.024604,8.023049,8.021511,8.020157,8.018847,8.017727,8.016728,8.015666,8.014425,8.012982,8.011351,8.009551,8.007693,8.005939,8.004339,8.002849,8.0014,8.000094,7.998719,7.9973717,7.995818,7.99408,7.9923277,7.990617,7.989035,7.987554,7.9861436,7.9848623,7.9838567,7.983239,7.9830093,7.983046,7.9832582,7.9835033,7.9835577,7.9832273,7.9823875,7.9810305,7.9792976,7.977226,7.974933,7.9726567,7.970646,7.969118,7.968114,7.9674883,7.967131,7.966992,7.967214,7.967656,7.9681225,7.968438,7.9684696,7.9682302,7.967885,7.9675217,7.96733,7.967331,7.9674397,7.9675756,7.9676304,7.9674025,7.9668593,7.966035,7.9650264,7.9640007,7.963065,7.962176,7.961152,7.959862,7.958222,7.95636,7.954443,7.9525824,7.95085,7.949285,7.9476013,7.945862,7.9441404,7.942465,7.9408956,7.9394627,7.9381533,7.936796,7.9353304,7.9338703,7.9325137,7.9313836,7.93064,7.930399,7.930576,7.9311714,7.9321046,7.93307,7.9337673,7.934098,7.9340854,7.933775,7.93317,7.9321947,7.9309525,7.9297147,7.928749,7.9282417,7.9282894,7.928646,7.9290514,7.9292674,7.9290986,7.928515,7.927705,7.926827,7.925974,7.925207,7.9246655,7.9244256,7.924441,7.9245815,7.9247694,7.9249005,7.924934,7.9247475,7.9242754,7.923494,7.9224043,7.921089,7.919681,7.918191,7.916791,7.91571,7.915085,7.914935,7.91524,7.9158096,7.9166374,7.9175177,7.9182463,7.9187174,7.9189644,7.9190636,7.919237,7.9196653,7.920365,7.921234,7.9220514,7.9226785,7.9230866,7.9232526,7.9232736,7.922973,7.9223995
7.996731,7.998419,8.000188,8.001627,8.002941,8.00465,8.006703,8.008186,8.00895,8.008847,8.006901,8.003597,7.99983,7.99582,7.991577,7.9869456,7.982422,7.978291,7.9746857,7.9713125,7.968083,7.9654016,7.9631095,7.960949,7.9587955,7.9567604,7.9548855,7.9534507,7.95282,7.9527354,7.9536057,7.955285,7.957206,7.9587545,7.959844,7.9608183,7.9618535,7.9632263,7.9647846,7.966298,7.9674873,7.9684973,7.9698153,7.971644,7.9734,7.974403,7.974619,7.977005,7.9817705,7.986968,7.9925447,7.9978256,8.00379,8.009814,8.015614,8.020899,8.025861,8.030892,8.035027,8.038982,8.041954,8.043903,8.045165,8.04613,8.047198,8.048845,8.051705,8.055292,8.059544,8.064051,8.06873,8.073546,8.07778,8.081629,8.085339,8.08886,8.091715,8.093626,8.094781,8.095489,8.096165,8.097107,8.098411,8.099484,8.1001425,8.101172,8.103471,8.106801,8.110651,8.115101,8.121096,8.129755,8.14148,8.155428,8.169651,8.181576,8.190155,8.19395,8.193638,8.190672,8.186123,8.180865,8.174477,8.165926,8.155535,8.143742,8.131371,8.119448,8.108636,8.098988,8.089625,8.080911,8.073356,8.06718,8.062225,8.058236,8.054969,8.051977,8.049389,8.047253,8.045793,8.0447235,8.043447,8.042177,8.040552,8.038359,8.035492,8.032188,8.028801,8.025618,8.0228195,8.019869,8.016728,8.013374,8.009956,8.006629,8.003444,8.000408,7.9974637,7.994504,7.9913945,7.9885316,7.9862022,7.984414,7.9830966,7.981936,7.9807277,7.9793224,7.977744,7.9760547,7.974342,7.9726896,7.971097,7.9694996,7.967821,7.9661922,7.964719,7.9635096,7.9625273,7.9614944,7.9605823,7.9596887,7.9588957,7.9581084,7.9571404,7.9558897,7.9543695,7.952624,7.950649,7.9485803,7.9465885,7.9447746,7.943169,7.941728,7.9405103,7.939264,7.9380727,7.9366865,7.9351172,7.9335494,7.932044,7.93065,7.929342,7.9280396,7.9267654,7.9256454,7.924794,7.9242516,7.9239435,7.923769,7.9236155,7.923288,7.922647,7.92161,7.920177,7.9184775,7.9165087,7.914401,7.912392,7.910714,7.909563,7.9089293,7.9086037,7.908456,7.908448,7.908698,7.909102,7.90952,7.909814,7.9098687,7.9097056,7.90946,7.909206,7.9091144,7.909177,7.9093065,7.9094505,7.9095263,7.9093246,7.9088116,7.908003,7.906969,7.905875,7.9048595,7.903906,7.902871,7.901601,7.900013,7.8982205,7.896381,7.8946056,7.8929763,7.891528,7.8899665,7.888344,7.8867235,7.885152,7.8837237,7.8824883,7.8813944,7.880269,7.879015,7.8776875,7.876375,7.875218,7.8743916,7.874023,7.87403,7.874382,7.875002,7.8756046,7.8759165,7.875867,7.8755198,7.8749304,7.87409,7.8729706,7.871684,7.870466,7.8695507,7.8690934,7.869152,7.8694797,7.869841,7.870019,7.8698397,7.869292,7.868568,7.867811,7.867113,7.866521,7.86616,7.8661027,7.8662977,7.866622,7.867013,7.8673596,7.8676443,7.8677454,7.8675957,7.8671684,7.8664417,7.865464,7.864344,7.863071,7.8617816,7.860713,7.860029,7.85976,7.8598995,7.860274,7.860838,7.8613887,7.8617544,7.8618755,7.86181,7.861638,7.861565,7.8617277,7.8621235,7.8626685,7.863184,7.863557,7.863754,7.8637505,7.8636365,7.8632445,7.8626404
7.9303503,7.9319324,7.9335227,7.934709,7.9356103,7.936732,7.9381146,7.9388595,7.9387937,7.9377666,7.934861,7.9307985,7.926571,7.9222803,7.917818,7.912881,7.908009,7.903573,7.899895,7.8968997,7.894472,7.892707,7.891307,7.8901634,7.8891816,7.888571,7.8883476,7.88859,7.889445,7.890599,7.89248,7.8950186,7.897666,7.8998275,7.901433,7.9028254,7.9041886,7.905864,7.9077797,7.909669,7.911213,7.9125385,7.9141226,7.9161625,7.918049,7.9192505,7.919466,7.9216976,7.926213,7.9310365,7.9361634,7.940911,7.946329,7.9518547,7.9572735,7.962401,7.967471,7.9728146,7.977412,7.981965,7.985614,7.988302,7.9902725,7.9918623,7.993493,7.99562,7.998925,8.00287,8.007354,8.012006,8.016811,8.021794,8.026253,8.030443,8.034421,8.038131,8.041114,8.043175,8.044529,8.045383,8.0461235,8.047151,8.048261,8.049149,8.04984,8.051033,8.053507,8.05702,8.061188,8.065862,8.071662,8.079491,8.089584,8.101053,8.112266,8.120695,8.125109,8.124542,8.120002,8.113252,8.105642,8.098023,8.089931,8.080404,8.069795,8.058598,8.047463,8.037054,8.027774,8.019512,8.011492,8.004081,7.9977794,7.9927683,7.9888477,7.985764,7.9833717,7.9813104,7.9796834,7.9784827,7.977848,7.977461,7.976746,7.975935,7.974716,7.972866,7.970229,7.967024,7.96362,7.9603095,7.957269,7.954011,7.950485,7.946707,7.9429564,7.9394717,7.9363146,7.9334836,7.930848,7.9282494,7.925484,7.922919,7.9208403,7.9192705,7.918154,7.9171576,7.916083,7.914779,7.9132447,7.9115677,7.9098945,7.9083467,7.906926,7.905659,7.904477,7.9034796,7.90271,7.902178,7.9017673,7.9011874,7.9006214,7.900019,7.8994136,7.8987045,7.8977184,7.8963757,7.894726,7.892824,7.890668,7.888406,7.886219,7.884275,7.882672,7.881362,7.8803625,7.8793926,7.878484,7.8773565,7.876028,7.8746986,7.8734264,7.87224,7.8711157,7.869914,7.8686323,7.867361,7.866224,7.8653126,7.864594,7.8639593,7.8633356,7.862564,7.8615756,7.860333,7.8588343,7.857192,7.8553505,7.853428,7.851652,7.850233,7.849346,7.8489485,7.8487835,7.848706,7.8486814,7.8488135,7.8490534,7.849325,7.8495417,7.849608,7.8495207,7.849389,7.8492794,7.849312,7.8494515,7.849602,7.84971,7.8497267,7.8494687,7.8488955,7.848024,7.846909,7.845722,7.844632,7.8436584,7.842679,7.8415337,7.840146,7.8385916,7.8370047,7.8354983,7.8341565,7.8329763,7.831688,7.8302975,7.828849,7.8274083,7.8261175,7.825053,7.824151,7.8232293,7.8221564,7.820938,7.8196473,7.818427,7.817457,7.816893,7.816634,7.8166404,7.8168435,7.816993,7.8168592,7.8163958,7.8156915,7.8148203,7.8137546,7.8125253,7.8112497,7.8101177,7.809306,7.8089285,7.8090057,7.809301,7.809615,7.8097563,7.809599,7.80916,7.8086047,7.8080564,7.807604,7.807262,7.8071394,7.8073006,7.8076925,7.8082047,7.808796,7.8093567,7.8098717,7.81022,7.810344,7.8102245,7.809828,7.809173,7.808351,7.807308,7.806157,7.8051147,7.804351,7.803914,7.8038125,7.803901,7.804103,7.8042474,7.8042326,7.80404,7.8037486,7.8034315,7.8032203,7.8032165,7.8033667,7.803611,7.8038244,7.8039217,7.8038783,7.803695,7.8034315,7.802937,7.802297
7.863706,7.8649993,7.866203,7.86689,7.8671274,7.8674164,7.8678966,7.8677473,7.8667803,7.8648386,7.861106,7.856511,7.852095,7.847844,7.843584,7.8388753,7.8342824,7.8302054,7.8270783,7.825003,7.823801,7.823219,7.822907,7.822943,7.8231745,7.823845,7.8249655,7.8264947,7.8284283,7.830415,7.832914,7.8359356,7.838984,7.841492,7.843401,7.845048,7.846594,7.848429,7.8505516,7.852693,7.8545065,7.8560824,7.857873,7.8600674,7.8620186,7.863396,7.863536,7.865509,7.8696833,7.8740597,7.8786936,7.8829026,7.887771,7.892808,7.8978386,7.9027405,7.907805,7.9133496,7.9183297,7.9234104,7.9277186,7.931178,7.9339185,7.9361677,7.938329,7.940854,7.944463,7.9486113,7.953178,7.957822,7.9625816,7.9675303,7.972024,7.9763145,7.980269,7.9840074,7.987055,7.9891663,7.990512,7.991237,7.9918857,7.992723,7.9935713,7.9942117,7.994761,7.9958496,7.9980836,8.001247,8.005017,8.009008,8.013612,8.01955,8.026983,8.035142,8.042758,8.047572,8.048329,8.044526,8.037405,8.028755,8.01993,8.011736,8.0034275,7.9941363,7.98416,7.974045,7.964408,7.955703,7.9481096,7.941453,7.935043,7.9292245,7.9244423,7.920788,7.9179945,7.915829,7.9142337,7.912961,7.912099,7.911616,7.9115896,7.9116616,7.9112864,7.910749,7.9097786,7.9081764,7.905732,7.9026513,7.8993173,7.8960104,7.8928976,7.8895426,7.8858795,7.8819532,7.8781447,7.874749,7.8718157,7.869321,7.867081,7.864883,7.862471,7.860174,7.8582873,7.8568687,7.8558946,7.855006,7.854031,7.8528094,7.8513126,7.8496614,7.8480473,7.846587,7.845302,7.844288,7.843471,7.84294,7.8426843,7.8426323,7.8425965,7.842276,7.8418703,7.84138,7.840811,7.840072,7.839014,7.8375726,7.8358283,7.8338275,7.831567,7.8292046,7.8269234,7.824947,7.8234267,7.822305,7.8215513,7.820876,7.8202505,7.8193583,7.8182287,7.8170905,7.816011,7.815009,7.814045,7.8129425,7.811661,7.810264,7.8088903,7.807674,7.8066053,7.8055773,7.8045444,7.803385,7.802094,7.8006825,7.7991533,7.797582,7.795875,7.794122,7.792543,7.7913084,7.790583,7.7903085,7.7901845,7.79006,7.789885,7.7897577,7.7896943,7.789694,7.7897224,7.789715,7.7896404,7.7895713,7.789568,7.789696,7.7898855,7.7900286,7.7900743,7.7900047,7.7896705,7.789038,7.7881255,7.7869725,7.785744,7.7846365,7.7837024,7.782823,7.7818546,7.780717,7.779447,7.778145,7.776932,7.775896,7.7749987,7.7739935,7.7728505,7.771587,7.7702837,7.769128,7.7682133,7.7674704,7.7667274,7.765828,7.7647257,7.76348,7.762233,7.761158,7.760422,7.7599163,7.7595944,7.7594013,7.7591324,7.7585897,7.7577567,7.7567506,7.755645,7.754413,7.7531333,7.7519193,7.750916,7.750238,7.7499495,7.7500477,7.7503123,7.7505784,7.7506895,7.7505646,7.750238,7.7498503,7.7495055,7.7492757,7.749148,7.749208,7.7495117,7.7500143,7.7506256,7.751324,7.7520113,7.7526517,7.753133,7.75342,7.753504,7.753351,7.7529683,7.75243,7.7516413,7.7506924,7.7497683,7.7490244,7.7485123,7.7482505,7.7481265,7.748046,7.7478743,7.7475863,7.7472076,7.7468185,7.7464733,7.7462234,7.7461233,7.746073,7.7460365,7.745946,7.7457566,7.745457,7.745077,7.744645,7.7440195,7.7433085
7.798491,7.7993574,7.800057,7.8001423,7.799653,7.7991,7.7987013,7.7977614,7.7960715,7.7934923,7.78934,7.7846828,7.780565,7.776889,7.7734404,7.769671,7.7661166,7.7630787,7.7610054,7.760141,7.7602444,7.760769,7.76141,7.7623615,7.7634387,7.764879,7.7667136,7.7688828,7.7713337,7.7736835,7.7764344,7.7796574,7.7829094,7.7856607,7.7878356,7.789727,7.791464,7.7934546,7.7957397,7.798057,7.800057,7.8017855,7.803645,7.805819,7.8076477,7.8089576,7.808832,7.810397,7.8141117,7.8179865,7.8221264,7.8258686,7.8302646,7.8349204,7.8396378,7.844323,7.8493123,7.854908,7.8600774,7.8654804,7.8702507,7.8743243,7.8777094,7.880493,7.883026,7.885754,7.889441,7.89355,7.897959,7.902404,7.906947,7.911687,7.916095,7.920305,7.9241323,7.9276853,7.930491,7.932344,7.9334445,7.9339285,7.9344106,7.934888,7.9355545,7.9360027,7.9362164,7.9368124,7.9383163,7.9405694,7.9432344,7.9457593,7.9484377,7.951907,7.9563537,7.961217,7.9655266,7.967421,7.9657173,7.9603405,7.9526076,7.944054,7.93577,7.9284115,7.920937,7.912494,7.903555,7.8947,7.8865447,7.8794994,7.8735948,7.8686233,7.8639727,7.859891,7.8567305,7.8544445,7.852685,7.851277,7.850228,7.849413,7.8489246,7.8487487,7.848948,7.8491306,7.8487844,7.8482924,7.847379,7.845922,7.8436627,7.8407917,7.837705,7.8346605,7.83177,7.8286314,7.8251786,7.821455,7.8178964,7.8148336,7.8122983,7.810232,7.8084216,7.8066106,7.804515,7.802434,7.800667,7.799326,7.798424,7.7975855,7.7966633,7.7955008,7.7940426,7.7924285,7.790868,7.789457,7.788224,7.7873087,7.7866297,7.78627,7.786196,7.7862835,7.7863116,7.785991,7.785539,7.7849765,7.784312,7.7834783,7.782349,7.7808743,7.7791357,7.7771683,7.7749505,7.772635,7.770397,7.768483,7.7670846,7.766144,7.7655854,7.7651205,7.764676,7.763908,7.762861,7.761804,7.76083,7.7599525,7.7591057,7.7580957,7.7568502,7.755411,7.7539287,7.752561,7.7513037,7.7500496,7.74877,7.747368,7.74588,7.7443633,7.742835,7.741334,7.7397437,7.7381372,7.736706,7.735596,7.73496,7.7347217,7.7345586,7.7343087,7.7338943,7.7334113,7.732939,7.7325506,7.7322783,7.7320843,7.731928,7.7318373,7.731858,7.7320147,7.7321978,7.7322907,7.7322683,7.7321286,7.7317567,7.731139,7.730287,7.729218,7.7280674,7.7270374,7.726203,7.7254553,7.7246604,7.7237334,7.722677,7.72157,7.720537,7.7196755,7.7189426,7.7181015,7.717118,7.7159796,7.7147775,7.7137322,7.71294,7.7123218,7.711737,7.711003,7.7100444,7.708906,7.7077165,7.7066345,7.705824,7.7051773,7.704638,7.704174,7.703617,7.7027946,7.7017198,7.700534,7.6992965,7.697999,7.6967497,7.6956477,7.6947937,7.694252,7.6940465,7.6941576,7.6944,7.694627,7.694718,7.694611,7.694345,7.694053,7.693822,7.6937037,7.6936665,7.6937714,7.694073,7.6945457,7.695125,7.6958036,7.696483,7.697115,7.697595,7.6979084,7.69807,7.698059,7.697876,7.6975784,7.6970587,7.696374,7.6956825,7.6951075,7.694689,7.6944475,7.6942873,7.6941247,7.693843,7.6934795,7.6930876,7.692739,7.6924524,7.6922264,7.692059,7.6918364,7.691535,7.69114,7.690654,7.6900864,7.6894813,7.6888437,7.6880355,7.687181
7.7363005,7.7367654,7.737026,7.7366133,7.7355576,7.734384,7.733369,7.7319355,7.7298603,7.7270565,7.722946,7.7186623,7.715218,7.7124586,7.7101393,7.707686,7.7055283,7.7038107,7.702935,7.7032533,7.7045207,7.7059703,7.7073703,7.7088203,7.7102566,7.7119904,7.7141104,7.7165546,7.7191916,7.7216415,7.7244635,7.727765,7.7311807,7.7341847,7.736643,7.7387986,7.7407484,7.7428784,7.745282,7.747687,7.749759,7.751503,7.7532487,7.7551966,7.7566905,7.7576694,7.7571154,7.7581644,7.7613487,7.764727,7.768422,7.7717986,7.7758718,7.7802415,7.7846904,7.7891836,7.79408,7.7996264,7.8048286,7.8103642,7.815387,7.819862,7.8236775,7.826774,7.8294463,7.832111,7.8356075,7.8393927,7.843374,7.847344,7.851384,7.855624,7.85964,7.8635583,7.86721,7.8702884,7.872432,7.873726,7.8745346,7.8750343,7.875531,7.8759584,7.8764825,7.87661,7.8763595,7.8763266,7.8769,7.8780355,7.8793187,7.880105,7.8807144,7.881756,7.8834925,7.885604,7.8873467,7.8872356,7.884201,7.8785515,7.871539,7.864272,7.857377,7.8512225,7.8448553,7.8375273,7.8297434,7.822095,7.815271,7.809731,7.805413,7.802061,7.7991524,7.7967877,7.7952085,7.794215,7.793382,7.7926025,7.7919226,7.791338,7.790959,7.790809,7.7909613,7.7910123,7.790481,7.7898636,7.78886,7.787445,7.7853317,7.7827044,7.779973,7.7773623,7.774913,7.7722335,7.769261,7.7660165,7.762942,7.7603726,7.758321,7.7566977,7.7552853,7.7537866,7.751915,7.7499523,7.748213,7.7468534,7.745925,7.745063,7.7441263,7.7429786,7.7415495,7.739979,7.7384644,7.737076,7.7358418,7.7349076,7.734196,7.733779,7.7336235,7.7335873,7.733438,7.732932,7.73229,7.7315125,7.730672,7.7297144,7.7285333,7.727102,7.7254686,7.723658,7.721633,7.7195144,7.717451,7.715693,7.7144527,7.713675,7.71326,7.7129292,7.7125607,7.711812,7.7107606,7.7097044,7.708755,7.7079473,7.707182,7.7062545,7.705088,7.703699,7.7022347,7.7008705,7.6995873,7.6982775,7.696923,7.6954203,7.693836,7.6922603,7.690723,7.6892676,7.687747,7.686226,7.68487,7.6838098,7.6831846,7.6829085,7.682646,7.682235,7.6815505,7.680699,7.679804,7.679006,7.678405,7.6779947,7.6777067,7.6775413,7.6775284,7.67765,7.6777744,7.6777964,7.6777062,7.6775217,7.67717,7.676647,7.675951,7.675074,7.6741114,7.6732373,7.672549,7.6719537,7.671318,7.670561,7.669636,7.668614,7.6676354,7.666797,7.666073,7.6652536,7.664297,7.6631794,7.662002,7.6609993,7.6602736,7.6597433,7.6592774,7.6586742,7.657873,7.656896,7.6558356,7.6548414,7.654071,7.6534033,7.652795,7.6522236,7.651549,7.650627,7.649478,7.648246,7.6469936,7.6457276,7.6445737,7.643609,7.6429,7.6424766,7.642333,7.642457,7.642684,7.6428866,7.6429625,7.6428614,7.642622,7.6423697,7.6421742,7.642083,7.642039,7.6420937,7.6422963,7.6426444,7.6431036,7.64367,7.644249,7.644772,7.645151,7.645389,7.6455283,7.64558,7.645535,7.645424,7.64516,7.6447544,7.6443496,7.6440353,7.643823,7.6437354,7.643673,7.64357,7.643338,7.64304,7.6427364,7.6424885,7.642286,7.64208,7.6418424,7.6414585,7.6409016,7.640213,7.6394377,7.6385994,7.6377664,7.6369104,7.6359034,7.6348696
7.6776447,7.6778674,7.677877,7.6771975,7.6758857,7.67448,7.673281,7.671796,7.6697903,7.66722,7.6635947,7.6600466,7.6575174,7.655809,7.654686,7.653562,7.652784,7.6523366,7.652534,7.653693,7.655584,7.657506,7.659276,7.6609836,7.662586,7.6644106,7.666593,7.669091,7.671751,7.674222,7.677108,7.680531,7.684181,7.6875134,7.690319,7.692779,7.6949606,7.6972117,7.6996574,7.7020283,7.704025,7.705614,7.707059,7.7085977,7.7095623,7.710028,7.708889,7.7093077,7.7118874,7.714718,7.717943,7.7209797,7.724766,7.7288804,7.7330923,7.7373524,7.7420406,7.7474556,7.752596,7.7581353,7.763256,7.767958,7.7720337,7.77529,7.777962,7.7804255,7.7836046,7.7869544,7.790398,7.7937784,7.7972155,7.800742,7.8037996,7.806914,7.809768,7.8124084,7.8143883,7.815571,7.8162155,7.8164716,7.816789,7.81699,7.8171806,7.816856,7.8160653,7.8153653,7.815053,7.815168,7.8152027,7.81448,7.81339,7.812556,7.812338,7.812638,7.8128853,7.811762,7.8084183,7.803129,7.79704,7.791003,7.7853107,7.7801948,7.774749,7.768338,7.761565,7.7550354,7.749485,7.745392,7.742563,7.7407074,7.7393694,7.7385306,7.7383776,7.7385902,7.738664,7.7385383,7.7382326,7.7378883,7.7376,7.737442,7.7374945,7.7373457,7.736565,7.7357554,7.734596,7.7331605,7.7311335,7.7287097,7.7262983,7.7240868,7.7220893,7.719904,7.717471,7.7147803,7.712251,7.7101994,7.7086096,7.7073603,7.706248,7.7049627,7.7032022,7.7012653,7.6994796,7.69803,7.697012,7.6960516,7.695032,7.6938334,7.692396,7.690856,7.6893816,7.6880093,7.686764,7.6857843,7.684978,7.6844215,7.6840844,7.6838255,7.683422,7.682668,7.6817856,7.680773,7.679744,7.6786747,7.677477,7.6761317,7.674672,7.673082,7.671329,7.66949,7.6676817,7.6661463,7.665101,7.664492,7.664201,7.66396,7.6636214,7.6628475,7.661742,7.6606402,7.659681,7.6589065,7.6582084,7.6573696,7.656313,7.655036,7.653677,7.652417,7.6512146,7.649967,7.6486416,7.6471295,7.645499,7.6438622,7.642276,7.6407905,7.63925,7.6377234,7.6363344,7.63522,7.634522,7.634143,7.633745,7.6331625,7.6322355,7.631057,7.6297994,7.628652,7.6277566,7.6271467,7.6267347,7.6264806,7.6264014,7.626451,7.6264877,7.626425,7.626286,7.6261005,7.625827,7.6254625,7.62498,7.624344,7.6236095,7.6229157,7.6223793,7.6219172,7.6214185,7.6207867,7.61995,7.6189613,7.6179657,7.617081,7.616296,7.6154146,7.6144037,7.613242,7.6120443,7.611041,7.610327,7.609832,7.609426,7.608912,7.6082315,7.607402,7.606497,7.605638,7.604967,7.6043696,7.6038156,7.603289,7.602659,7.6017904,7.600699,7.5995216,7.5983353,7.5971594,7.5961123,7.5952682,7.5946712,7.594322,7.594208,7.5943227,7.5945177,7.5946846,7.594735,7.5946264,7.5943956,7.594166,7.5940046,7.5939336,7.593895,7.5939207,7.5940547,7.5943108,7.5946717,7.595149,7.5956306,7.5960474,7.5963144,7.5964613,7.5965543,7.5966196,7.5966606,7.5966907,7.5966206,7.5964603,7.5963206,7.5962634,7.596268,7.5963473,7.5964155,7.596404,7.5962443,7.596011,7.5957685,7.595559,7.5953503,7.595093,7.594724,7.5941353,7.593323,7.5923595,7.5913224,7.5902557,7.589241,7.5882277,7.587082,7.585906
7.616125,7.616222,7.6161366,7.615388,7.6140656,7.612733,7.6116924,7.6105003,7.608917,7.606931,7.604174,7.601723,7.600404,7.5999823,7.6002383,7.600548,7.6011195,7.6017947,7.602832,7.604542,7.6067433,7.6088448,7.6107283,7.6124554,7.614025,7.6157475,7.6177893,7.6201563,7.6227155,7.625162,7.6281347,7.631749,7.6357293,7.639504,7.6427746,7.6456356,7.6481056,7.650487,7.652936,7.6551766,7.65697,7.658255,7.6592274,7.66018,7.6604424,7.6601124,7.658309,7.658043,7.659894,7.662107,7.664828,7.6674967,7.6710043,7.674874,7.6788464,7.682884,7.6873775,7.6926146,7.6975813,7.7029915,7.708068,7.7128515,7.717046,7.7203436,7.7229333,7.725143,7.7279387,7.7308006,7.73367,7.7363377,7.738631,7.740699,7.7428246,7.7451096,7.747295,7.7494774,7.751202,7.752189,7.7525854,7.752575,7.752555,7.7522993,7.7519207,7.750934,7.7494392,7.7479706,7.74675,7.745886,7.744779,7.7427874,7.740403,7.7382865,7.736817,7.7359705,7.7352314,7.7335916,7.730369,7.7258244,7.720911,7.7161455,7.711526,7.70721,7.702456,7.696747,7.690857,7.6854043,7.6811285,7.6784773,7.677105,7.67666,7.6767855,7.6773577,7.678536,7.6799145,7.680914,7.681503,7.6816635,7.681656,7.6815615,7.681457,7.681437,7.6811056,7.6800737,7.6790433,7.6777277,7.67626,7.6743183,7.672098,7.669998,7.668172,7.666612,7.664915,7.6630244,7.660907,7.6589384,7.657401,7.656254,7.6553335,7.6544604,7.6533227,7.6516266,7.64967,7.6477985,7.646228,7.6450706,7.6439633,7.6428356,7.6415634,7.640111,7.6386046,7.6371713,7.635816,7.634561,7.633517,7.632599,7.631875,7.6313224,7.630812,7.630142,7.6291504,7.6280556,7.6268454,7.625683,7.6245546,7.623396,7.6222043,7.620971,7.619661,7.618223,7.6167073,7.615209,7.613939,7.6131,7.612646,7.6124573,7.6122727,7.611923,7.611085,7.609911,7.6087623,7.6077833,7.607052,7.606413,7.605677,7.6047487,7.6036053,7.602382,7.6012554,7.600157,7.5990043,7.597733,7.5962315,7.5945587,7.592838,7.5911574,7.589588,7.5879946,7.5864215,7.5849752,7.5837917,7.5830016,7.5824947,7.581951,7.581201,7.5800495,7.5785847,7.5770035,7.5755424,7.5743914,7.573615,7.5731044,7.5727844,7.572645,7.572619,7.5725636,7.5724206,7.5722485,7.572092,7.5719304,7.571764,7.5715404,7.5711727,7.5706725,7.570162,7.5697594,7.5693874,7.568969,7.5683937,7.5675793,7.5665727,7.56552,7.5645437,7.563648,7.5626545,7.5615525,7.560323,7.559091,7.5580783,7.5573635,7.5568833,7.556514,7.5560603,7.555475,7.554773,7.5540104,7.5532866,7.552747,7.55227,7.551842,7.5514665,7.551002,7.550311,7.549409,7.5484138,7.547405,7.5464153,7.5455484,7.544854,7.544364,7.544071,7.5439534,7.5440235,7.544161,7.544259,7.5442443,7.544092,7.543839,7.5435867,7.5434265,7.5433493,7.5433035,7.5433116,7.5434103,7.543623,7.543945,7.5443797,7.544812,7.545158,7.5453453,7.545417,7.545462,7.5455227,7.5456123,7.54573,7.545807,7.5458493,7.545945,7.54613,7.546357,7.546614,7.5468197,7.5469246,7.5468645,7.546715,7.546522,7.546311,7.546053,7.545689,7.5451527,7.544359,7.543315,7.542121,7.540882,7.539652,7.5384984,7.5373826,7.536126,7.5348277
