38.22576,38.106888,38.00231,37.922493,37.86763,37.824894,37.773605,37.72123,37.674362,37.653145,37.69387,37.811405,38.01855,38.300533,38.504894,38.601448,38.658623,38.753853,38.95395,39.27996,39.453407,39.46324,39.032818,38.05959,36.83083,35.730774,35.011246,34.60177,34.47644,34.539757,34.65255,34.726124,34.754528,34.724365,34.650124,34.53206,34.375397,34.21907,34.135036,34.21364,34.537918,35.092773,35.934387,37.010956,38.166206,39.086464,39.56073,39.761147,39.820038,39.80488,39.74238,39.635662,39.486626,39.31626,39.155518,39.024338,38.851234,38.710266,38.62101,38.57827,38.5748,38.59642,38.629448,38.682457,38.76098,38.871967,39.020844,39.202003,39.385624,39.523254,39.698517,39.903053,40.082687,40.24994,40.41715,40.553265,40.64476,40.662964,40.6373,40.590225,40.54773,40.53941,40.560898,40.54846,40.424088,40.15223,39.39633,38.162254,36.704147,35.427895,34.660553,34.18728,34.02621,34.03078,34.08783,34.093384,34.063248,34.130096,34.356422,34.931496,36.056923,38.285385,40.842106,42.70591,43.78087,44.354847,44.486332,44.404594,44.249332,44.131138,44.05604,43.962704,43.823208,43.65171,43.487183,43.36096,43.29496,43.283997,43.303917,43.3348,43.37156,43.41201,43.456024,43.492092,43.51321,43.521133,43.52294,43.52941,43.559998,43.619797,43.706646,43.81443,43.932827,44.050972,44.164402,44.280205,44.400215,44.511047,44.60398,44.676918,44.733414,44.781067,44.826973,44.877663,44.9319,44.985603,45.03646,45.085022,45.131325,45.17253,45.2142,45.25052,45.28073,45.306126,45.326477,45.342537,45.361763,45.39364,45.43757,45.497772,45.56359,45.619026,45.658638,45.686386,45.702515,45.709785,45.721188,45.732788,45.7379,45.735405,45.72225,45.701164,45.68044,45.665203,45.665554,45.68264,45.70117,45.700157,45.670082,45.596046,45.47425,45.338318,45.224697,45.151047,45.117077,45.10964,45.079597,45.009254,44.893814,44.745483,44.604977,44.513626,44.467552,44.45149,44.477844,44.520832,44.55587,44.57901,44.585915,44.557922,44.516865,44.472412,44.40071,44.27108,44.06648,43.800026,43.521996,43.310844,43.246063,43.37198,43.695183,44.094612,44.39792,44.528625,44.53618,44.453568,44.365063,44.312004,44.312096,44.376858,44.510803,44.69893,44.932526,45.187103,45.350285,45.36539,45.226593,44.983276,44.750305,44.585564,44.403194,44.12532,43.68143,43.04043,42.28936,41.643566,41.307976,41.24542,41.493042,41.975967,42.48654,42.802376,42.77352,42.27321,41.42095,40.2022,38.568733,37.12211,36.590584,37.200737,38.810158,40.30426,41.603905,42.408516,42.615025,42.464336,42.50309,42.93643,41.32267,35.46804,30.05006,27.37049,26.616865,26.505543,26.82479,27.191439,27.350761,27.22628,26.88385,26.577805,26.506786,26.616493,26.73967,26.930368,27.087421,27.165035,27.193022,27.208187,27.217367,27.240356,27.299337,27.406796,27.611313,27.920395,28.318228,28.715652,28.907803,28.703123,28.201483,27.54129,26.873575,26.310898,25.93019,25.766655,25.763905,25.852224,26.00156,26.190102,26.463444,26.868412,27.361221,27.843277,28.248158,28.408634,28.337997,28.083078
36.515182,36.43322,36.3694,36.331825,36.314255,36.310097,36.30693,36.3026,36.2967,36.300426,36.335815,36.41301,36.524483,36.679703,36.825504,36.904175,36.91816,36.92906,36.99227,37.12784,37.282608,37.351707,37.166817,36.648994,35.925392,35.246033,34.749634,34.428986,34.320023,34.35426,34.425415,34.477486,34.508064,34.501987,34.466484,34.394478,34.279366,34.153664,34.081936,34.129192,34.33876,34.733715,35.32641,36.03409,36.751587,37.340454,37.689064,37.81874,37.837677,37.81101,37.7558,37.665794,37.53764,37.38379,37.22388,37.081657,36.965225,36.876595,36.817215,36.78798,36.784393,36.79567,36.81224,36.839066,36.882164,36.945618,37.033577,37.145203,37.27359,37.412956,37.568375,37.751434,37.966797,38.218094,38.47802,38.701843,38.86897,38.911552,38.91014,38.90031,38.929222,39.03483,39.186768,39.282196,39.25766,39.05966,38.532154,37.642136,36.5138,35.451786,34.756516,34.33626,34.12709,34.068176,34.075783,34.088432,34.11165,34.212685,34.47062,35.037018,36.112103,38.191658,40.41433,41.90499,42.78202,43.21622,43.29908,43.222263,43.085705,42.972137,42.883858,42.77565,42.640724,42.500237,42.36983,42.273697,42.226105,42.219044,42.229664,42.240124,42.24889,42.25457,42.258522,42.256386,42.246304,42.23121,42.21711,42.211678,42.226143,42.263367,42.32074,42.393826,42.47619,42.560135,42.64067,42.722385,42.806267,42.881752,42.943085,42.990135,43.026352,43.057465,43.089027,43.126823,43.170223,43.21568,43.26047,43.303802,43.34481,43.38177,43.420128,43.455383,43.487923,43.518326,43.545067,43.56785,43.59184,43.62493,43.66776,43.725845,43.792084,43.854782,43.90857,43.9513,43.981644,44.000526,44.01699,44.031097,44.042027,44.050934,44.054874,44.05625,44.05966,44.06639,44.082527,44.10923,44.136795,44.15178,44.14942,44.12018,44.059093,43.983265,43.91293,43.85811,43.819,43.79017,43.74041,43.65629,43.534916,43.385983,43.239784,43.12804,43.051804,43.00099,42.986885,42.99305,43.000683,43.006813,43.00781,42.98654,42.960625,42.95066,42.932053,42.891247,42.81021,42.676216,42.512962,42.37738,42.322826,42.38104,42.552544,42.754463,42.887146,42.92004,42.875847,42.783447,42.70104,42.658165,42.65654,42.694733,42.778725,42.904823,43.061203,43.23954,43.37941,43.44659,43.42634,43.33252,43.227028,43.16423,43.08273,42.928627,42.64302,42.178238,41.594345,41.079018,40.767624,40.664032,40.823418,41.153633,41.49309,41.69693,41.655693,41.282326,40.62634,39.62722,38.40651,37.348858,36.93093,37.410133,38.64557,39.90934,40.99961,41.63565,41.826767,41.72217,41.729004,42.171272,40.112312,34.89553,29.928835,27.337255,26.610023,26.509996,26.825464,27.182896,27.333931,27.204124,26.859333,26.571434,26.525417,26.624804,26.735897,26.926485,27.093628,27.173222,27.197985,27.213787,27.223913,27.248306,27.308903,27.402584,27.607431,27.922674,28.318214,28.7099,28.892698,28.68702,28.187553,27.538414,26.899725,26.379961,26.032751,25.873425,25.869541,25.930248,26.048286,26.228378,26.518925,26.943417,27.426111,27.837383,28.237,28.313683,28.17356,27.951801
35.37581,35.309296,35.2592,35.231834,35.22315,35.226204,35.229828,35.230755,35.227932,35.230927,35.25862,35.319767,35.410057,35.515045,35.60702,35.63781,35.598022,35.537262,35.51081,35.54888,35.64531,35.724854,35.68115,35.44851,35.068092,34.66925,34.353374,34.121765,34.035652,34.053207,34.099846,34.14181,34.178474,34.193947,34.19082,34.158268,34.086662,33.997093,33.93918,33.966545,34.113846,34.388382,34.791542,35.259132,35.688633,36.001305,36.180576,36.25716,36.281796,36.275047,36.245163,36.185875,36.096367,35.989674,35.88025,35.77495,35.68401,35.614624,35.570282,35.551926,35.554863,35.568436,35.58396,35.604935,35.636208,35.683487,35.752712,35.84476,35.9537,36.071804,36.204437,36.355453,36.52384,36.70131,36.874435,37.031273,37.163673,37.259033,37.334553,37.414585,37.492783,37.587658,37.737434,37.922184,38.03425,37.986656,37.71593,37.095375,36.224777,35.392822,34.785072,34.38156,34.157104,34.07235,34.06691,34.08557,34.132812,34.268394,34.538685,35.04461,36.1071,38.024895,39.941353,41.15476,41.867798,42.203156,42.25512,42.188663,42.060104,41.93859,41.84914,41.762985,41.6578,41.547695,41.449444,41.381134,41.350506,41.34773,41.352043,41.348167,41.33751,41.319603,41.296986,41.270252,41.24079,41.21194,41.18863,41.176105,41.180008,41.20143,41.237408,41.284264,41.33801,41.39362,41.446796,41.500828,41.556274,41.605457,41.644928,41.67528,41.699013,41.72009,41.742943,41.77187,41.80635,41.843277,41.88007,41.915558,41.9487,41.97879,42.010807,42.04135,42.07157,42.10161,42.129284,42.153725,42.17828,42.209564,42.24832,42.299767,42.35926,42.418602,42.47309,42.517693,42.55082,42.571873,42.5877,42.600483,42.612103,42.624626,42.635708,42.64742,42.662178,42.679474,42.702457,42.736687,42.77691,42.806065,42.82077,42.81656,42.787834,42.748497,42.70878,42.67028,42.633995,42.599037,42.545204,42.46126,42.344543,42.202396,42.05797,41.936417,41.8419,41.767906,41.723686,41.698444,41.68148,41.67547,41.677643,41.667763,41.65754,41.662346,41.665825,41.654537,41.62552,41.571064,41.48392,41.402462,41.36107,41.381462,41.463875,41.55359,41.590652,41.566494,41.50365,41.421486,41.354584,41.318863,41.310905,41.32716,41.37378,41.454327,41.56671,41.705086,41.826466,41.90577,41.929245,41.902103,41.8665,41.867554,41.86399,41.808655,41.64004,41.3162,40.8852,40.48597,40.22158,40.105907,40.195328,40.411476,40.64082,40.777374,40.721878,40.42491,39.910934,39.10585,38.14644,37.353546,37.057484,37.432503,38.435028,39.471382,40.465866,40.91822,41.009872,40.98974,41.065216,41.459538,38.968628,34.34361,29.813393,27.319324,26.62011,26.528616,26.838135,27.176413,27.31999,27.198141,26.857052,26.583054,26.557714,26.644802,26.74888,26.93503,27.109287,27.190565,27.211685,27.226446,27.234406,27.252226,27.30341,27.397205,27.6088,27.92989,28.325294,28.709873,28.880558,28.66848,28.166624,27.529045,26.904663,26.413515,26.11089,25.965668,25.939034,25.973698,26.0883,26.278984,26.57777,27.001534,27.471668,27.854107,28.1678,28.204575,28.039413,27.844725
34.37272,34.32006,34.282585,34.264935,34.262623,34.269306,34.27549,34.277397,34.27397,34.27359,34.292084,34.33663,34.403954,34.478806,34.529907,34.52599,34.464497,34.380157,34.31935,34.307602,34.346428,34.40091,34.413097,34.337036,34.173923,33.974052,33.7972,33.66429,33.613144,33.624664,33.65876,33.697582,33.74125,33.77471,33.79758,33.798187,33.76643,33.715157,33.680023,33.700554,33.79989,33.977245,34.226913,34.501953,34.737385,34.895325,34.980453,35.015434,35.026154,35.019245,34.996094,34.949947,34.881744,34.803593,34.72644,34.65409,34.594704,34.5531,34.53126,34.529297,34.542206,34.559875,34.57525,34.590725,34.610023,34.6398,34.687225,34.755203,34.840485,34.936512,35.046654,35.173164,35.31415,35.46108,35.60487,35.740593,35.86358,35.96795,36.06614,36.157757,36.232376,36.30964,36.420822,36.555984,36.68565,36.79171,36.73047,36.395943,35.84175,35.242805,34.747074,34.387897,34.163048,34.049377,34.02645,34.05246,34.122124,34.276833,34.526726,35.0648,36.08259,37.82971,39.451477,40.37967,40.948082,41.19963,41.23319,41.147957,41.017197,40.912155,40.845848,40.784172,40.70782,40.62673,40.557373,40.513016,40.496452,40.49672,40.495445,40.480545,40.457176,40.424183,40.384186,40.34226,40.303444,40.270638,40.245277,40.22912,40.22477,40.232212,40.250156,40.276077,40.306892,40.339203,40.37004,40.401573,40.43445,40.46357,40.488922,40.511646,40.532726,40.5527,40.554142,40.56125,40.573273,40.586582,40.599113,40.61145,40.62503,40.641136,40.664318,40.692764,40.726578,40.762108,40.793285,40.817764,40.83979,40.86801,40.910076,40.975433,41.0504,41.115925,41.16954,41.21795,41.26012,41.293022,41.31423,41.32886,41.34262,41.35584,41.366318,41.376076,41.38753,41.4018,41.423782,41.45777,41.498283,41.53208,41.55659,41.567863,41.56037,41.539238,41.511612,41.48061,41.446693,41.41026,41.358517,41.283554,41.182503,41.060703,40.93259,40.81463,40.715508,40.629387,40.56717,40.52446,40.48983,40.45179,40.408802,40.37311,40.355106,40.380623,40.43701,40.469635,40.465927,40.44167,40.390137,40.338882,40.305946,40.304398,40.33154,40.35131,40.337334,40.298653,40.237267,40.162224,40.10175,40.06968,40.058357,40.060375,40.08333,40.13583,40.214752,40.318604,40.420647,40.50522,40.559464,40.580055,40.591576,40.627396,40.660896,40.662544,40.58386,40.386166,40.094376,39.801727,39.58999,39.478012,39.509052,39.638664,39.78647,39.870064,39.815666,39.583557,39.16529,38.53532,37.870506,37.3029,37.07915,37.431892,38.13011,38.943756,39.76966,40.10321,40.128315,40.1642,40.35074,40.616604,37.91589,33.829765,29.700047,27.327116,26.66119,26.565872,26.869848,27.177227,27.321613,27.21204,26.876823,26.61735,26.608139,26.678185,26.776833,26.957668,27.133327,27.216854,27.237827,27.245056,27.236586,27.246763,27.292305,27.392982,27.614258,27.941368,28.337143,28.713905,28.868397,28.645031,28.136684,27.511814,26.90662,26.435703,26.154358,26.016079,25.987213,26.022484,26.13684,26.340286,26.645607,27.053116,27.508635,27.889141,28.106436,28.104063,27.918821,27.760345
33.531517,33.492203,33.465893,33.455494,33.455956,33.46171,33.464478,33.460308,33.448753,33.43786,33.44127,33.465042,33.506386,33.551834,33.57361,33.5514,33.48584,33.40142,33.33436,33.304497,33.31319,33.34964,33.380367,33.369576,33.308777,33.223232,33.14309,33.07962,33.056698,33.068172,33.095963,33.13328,33.180546,33.22515,33.26512,33.289986,33.2904,33.273354,33.26234,33.283134,33.348465,33.45369,33.59075,33.730713,33.841873,33.911156,33.94654,33.961372,33.966904,33.96319,33.94745,33.913807,33.865067,33.81244,33.764397,33.72342,33.695084,33.681595,33.682793,33.697685,33.72126,33.7443,33.761444,33.774384,33.7858,33.802773,33.833138,33.881287,33.94635,34.023216,34.114006,34.220375,34.34017,34.466278,34.59191,34.714306,34.830585,34.93538,35.041023,35.136887,35.2106,35.27668,35.35843,35.4534,35.564674,35.698044,35.743073,35.623238,35.34086,34.968163,34.601547,34.311874,34.111237,33.99639,33.959553,33.985756,34.06876,34.228104,34.50738,35.072945,36.0204,37.57785,38.902927,39.564926,40.0207,40.19815,40.18962,40.09864,39.988884,39.910866,39.866478,39.827126,39.781525,39.736004,39.699955,39.68081,39.673775,39.66897,39.655914,39.625362,39.573586,39.513443,39.454144,39.393517,39.328968,39.273018,39.242386,39.230095,39.230774,39.240883,39.25422,39.267433,39.27956,39.29017,39.30001,39.3118,39.324905,39.335594,39.34369,39.34938,39.352932,39.356026,39.350708,39.349174,39.35099,39.353302,39.354477,39.355362,39.357952,39.364365,39.378487,39.399044,39.42701,39.458954,39.488613,39.512947,39.534348,39.560318,39.595406,39.648094,39.71147,39.77276,39.826736,39.87211,39.906647,39.926826,39.934853,39.937805,39.94304,39.95343,39.967857,39.991085,40.02289,40.058174,40.096897,40.141594,40.190872,40.23752,40.27318,40.31208,40.344524,40.36153,40.362164,40.344353,40.306793,40.267822,40.221077,40.158363,40.073967,39.960575,39.831783,39.713715,39.607986,39.495995,39.40628,39.33451,39.26204,39.186382,39.12222,39.07849,39.058247,39.081688,39.141197,39.211403,39.272465,39.309723,39.308125,39.271965,39.239986,39.21891,39.209953,39.201157,39.172585,39.11931,39.069572,39.024895,38.974,38.93228,38.910454,38.907967,38.924133,38.96248,39.01927,39.09494,39.17324,39.24769,39.30967,39.35132,39.383987,39.431404,39.477116,39.50565,39.48281,39.376575,39.194798,38.993355,38.83465,38.737213,38.732063,38.79466,38.87416,38.914417,38.86167,38.68154,38.367516,37.907257,37.43696,37.07572,36.9581,37.192017,37.685074,38.29563,38.934303,39.277084,39.261467,39.23312,39.429256,39.334335,36.927567,33.37977,29.610245,27.370663,26.731468,26.628471,26.928375,27.196625,27.342869,27.249786,26.927086,26.679628,26.677055,26.73242,26.822704,26.990047,27.156204,27.235361,27.24437,27.237017,27.226818,27.22873,27.28049,27.39255,27.625387,27.965195,28.364971,28.72699,28.86173,28.622635,28.10064,27.491085,26.910679,26.458212,26.193233,26.065441,26.043907,26.084,26.212624,26.425983,26.722996,27.104351,27.534752,27.939245,28.051077,28.021542,27.81564,27.70299
32.84716,32.821617,32.80435,32.79406,32.78933,32.78375,32.772423,32.753235,32.726936,32.700546,32.684883,32.685043,32.698418,32.713257,32.71266,32.68404,32.62799,32.56163,32.510284,32.48813,32.495323,32.52329,32.549683,32.550495,32.52176,32.48326,32.44969,32.421375,32.415558,32.4292,32.45398,32.489155,32.535057,32.582474,32.629196,32.667046,32.687996,32.695343,32.703346,32.726723,32.770763,32.83053,32.8997,32.960262,32.999756,33.020775,33.033913,33.044537,33.054,33.0583,33.052757,33.03322,33.00438,32.9768,32.95661,32.944633,32.944675,32.956604,32.978325,33.008034,33.04136,33.070736,33.0924,33.108116,33.11966,33.133553,33.15718,33.195427,33.24878,33.31275,33.389137,33.480164,33.583946,33.694515,33.806267,33.917,34.024857,34.12869,34.23887,34.340088,34.414825,34.470062,34.527122,34.59318,34.67626,34.78332,34.86663,34.867737,34.76116,34.565968,34.332302,34.130745,33.980896,33.894775,33.868515,33.90222,34.000553,34.18285,34.504135,35.059116,35.919647,37.22151,38.269783,38.757114,39.09305,39.208153,39.172173,39.091255,39.011177,38.96083,38.939392,38.92566,38.905464,38.887802,38.86324,38.841125,38.828896,38.82071,38.79997,38.7536,38.67946,38.58841,38.498264,38.41553,38.33906,38.27745,38.24443,38.232567,38.23401,38.243095,38.25119,38.2547,38.253933,38.250107,38.246098,38.24476,38.24521,38.245476,38.245308,38.243767,38.239754,38.23516,38.232315,38.2312,38.2318,38.23246,38.231827,38.230164,38.229156,38.23082,38.23842,38.251156,38.271484,38.297573,38.32437,38.34876,38.37079,38.395706,38.423973,38.46149,38.50812,38.558952,38.607597,38.64547,38.669838,38.677032,38.673897,38.66758,38.66484,38.670074,38.682724,38.706966,38.741425,38.77963,38.81916,38.86149,38.90764,38.954964,38.99755,39.048958,39.098774,39.140076,39.16853,39.179092,39.168663,39.142002,39.1047,39.052467,38.98021,38.872128,38.737247,38.607986,38.4922,38.373672,38.267895,38.170662,38.072815,37.982887,37.91754,37.877556,37.86137,37.882687,37.936424,38.005417,38.07203,38.121155,38.141212,38.133453,38.121254,38.1081,38.1019,38.09129,38.05795,38.007744,37.974144,37.958405,37.94774,37.944008,37.936157,37.92595,37.932182,37.953094,37.990337,38.042713,38.097473,38.152313,38.202682,38.240814,38.271378,38.307,38.345795,38.37919,38.38134,38.328262,38.220394,38.087402,37.974503,37.89657,37.875034,37.8946,37.925583,37.93411,37.883667,37.749725,37.531204,37.21366,36.877804,36.65168,36.6022,36.738884,37.09664,37.528736,37.962994,38.315228,38.37386,38.30073,38.29542,37.84627,36.082893,33.025482,29.56128,27.448265,26.82833,26.724604,27.002594,27.230946,27.383049,27.312,27.013718,26.776358,26.764399,26.80711,26.885712,27.03136,27.174526,27.235832,27.231838,27.21774,27.20846,27.208696,27.272364,27.398466,27.644636,27.998566,28.401718,28.745544,28.856258,28.597862,28.07198,27.475248,26.917042,26.487026,26.24015,26.126074,26.114307,26.164692,26.314209,26.530739,26.808413,27.166595,27.572754,27.942974,28.000355,27.963524,27.795593,27.745918
32.252094,32.23056,32.213905,32.198635,32.185265,32.167336,32.142265,32.109703,32.071213,32.032433,32.00143,31.98233,31.97239,31.962242,31.943466,31.91029,31.864449,31.817194,31.783794,31.772388,31.780678,31.799984,31.816116,31.81636,31.80064,31.781712,31.765436,31.751839,31.754091,31.76899,31.79194,31.824373,31.866001,31.910778,31.95707,31.998848,32.02926,32.049526,32.067852,32.0916,32.1219,32.155212,32.1873,32.2082,32.21614,32.219177,32.226585,32.240574,32.256798,32.26989,32.27459,32.268406,32.25705,32.24987,32.25083,32.25969,32.279224,32.30786,32.342667,32.38134,32.4199,32.452522,32.477524,32.496918,32.511833,32.527664,32.55078,32.58571,32.63327,32.68973,32.757023,32.837646,32.92986,33.028767,33.12972,33.230732,33.330597,33.43141,33.541557,33.64436,33.721344,33.77168,33.81074,33.8528,33.908394,33.99848,34.09652,34.159462,34.153503,34.07646,33.959633,33.848686,33.765312,33.72718,33.738506,33.801834,33.930794,34.150986,34.489098,35.009674,35.773438,36.796814,37.606857,37.991646,38.208015,38.271038,38.231968,38.168808,38.103024,38.06595,38.06476,38.071045,38.058018,38.032204,37.99149,37.95098,37.928886,37.918953,37.895237,37.8421,37.76644,37.66735,37.56228,37.471096,37.40148,37.35185,37.3204,37.30464,37.29932,37.299213,37.298237,37.294044,37.28688,37.27773,37.269135,37.262943,37.25915,37.257607,37.259197,37.26257,37.26503,37.26651,37.266148,37.266277,37.267082,37.267662,37.266792,37.264412,37.262188,37.261745,37.265785,37.274216,37.290108,37.312305,37.336426,37.359535,37.380726,37.404022,37.42976,37.46275,37.502075,37.543427,37.582462,37.61314,37.63354,37.639496,37.636425,37.63037,37.626602,37.628098,37.63418,37.64663,37.665085,37.68721,37.7126,37.742172,37.775944,37.812645,37.85315,37.8971,37.936707,37.972054,38.002106,38.026276,38.04294,38.037758,38.018715,37.98195,37.922768,37.83149,37.713943,37.59324,37.483692,37.382256,37.278423,37.170128,37.063564,36.96898,36.89534,36.848503,36.826035,36.84002,36.88308,36.925194,36.95455,36.97516,36.984,36.99331,36.997154,36.998703,37.00415,36.99631,36.967052,36.93875,36.920605,36.920033,36.943737,36.980995,36.999435,36.999954,37.01544,37.043243,37.0721,37.11181,37.158478,37.201675,37.235363,37.260914,37.280952,37.298996,37.31985,37.338226,37.34116,37.31282,37.247055,37.158096,37.078247,37.01791,36.99077,36.987762,36.991184,36.981083,36.93606,36.841934,36.69249,36.479053,36.25541,36.100067,36.065414,36.16891,36.411545,36.690697,36.95653,37.22496,37.368748,37.35047,37.16329,36.568817,35.370712,32.74264,29.572306,27.564548,26.942982,26.846272,27.084885,27.295076,27.4463,27.398548,27.130108,26.897003,26.864534,26.894299,26.960682,27.077291,27.188984,27.226952,27.218002,27.206339,27.191238,27.19956,27.27644,27.417194,27.674986,28.034203,28.430954,28.753225,28.83432,28.556805,28.042171,27.460066,26.923595,26.521275,26.294434,26.193768,26.189154,26.26102,26.425276,26.636934,26.895802,27.239502,27.630226,27.914783,27.962261,27.930662,27.870203,27.900387
31.689205,31.661572,31.639105,31.620844,31.603592,31.583286,31.55603,31.520954,31.479525,31.4366,31.398743,31.369305,31.345274,31.319479,31.287718,31.248173,31.203949,31.16304,31.133871,31.119926,31.117231,31.124868,31.134453,31.135984,31.129295,31.123604,31.1185,31.112335,31.117851,31.132435,31.153267,31.182365,31.218851,31.25911,31.302315,31.343822,31.377455,31.403076,31.425137,31.446686,31.466988,31.484234,31.494743,31.498348,31.500534,31.50653,31.519144,31.540249,31.563774,31.584774,31.59807,31.602428,31.603401,31.608437,31.620087,31.63804,31.664625,31.698174,31.736023,31.77582,31.813753,31.845276,31.870537,31.891575,31.909185,31.927681,31.95153,31.984314,32.027847,32.079697,32.14191,32.215874,32.299545,32.38892,32.480644,32.573708,32.667664,32.763992,32.868523,32.969193,33.051003,33.106247,33.14318,33.180023,33.22226,33.30022,33.40164,33.500008,33.5582,33.560547,33.530254,33.497032,33.480522,33.49846,33.558586,33.66855,33.83996,34.08717,34.425377,34.90825,35.568977,36.36936,36.985058,37.275578,37.409885,37.431465,37.392395,37.335114,37.259056,37.21184,37.21198,37.21926,37.198463,37.14634,37.092834,37.052437,37.03031,37.01467,36.986275,36.935837,36.868767,36.786713,36.698826,36.61915,36.555435,36.508907,36.47883,36.462227,36.45356,36.4484,36.442654,36.43521,36.4265,36.417187,36.409405,36.4039,36.40088,36.400543,36.40401,36.40986,36.415047,36.419014,36.420593,36.42202,36.423607,36.42493,36.424797,36.422935,36.42099,36.420082,36.42217,36.427475,36.439133,36.456543,36.476288,36.495872,36.51398,36.53385,36.555355,36.582466,36.614437,36.648037,36.680107,36.705467,36.722824,36.72797,36.726055,36.722122,36.719936,36.721375,36.72586,36.73584,36.75127,36.77027,36.79248,36.818607,36.8483,36.87975,36.912876,36.949036,36.98099,37.002808,37.015533,37.02335,37.0288,37.03432,37.035408,37.02042,36.980747,36.916763,36.839195,36.759148,36.678017,36.59365,36.497066,36.38654,36.26826,36.155373,36.061813,35.995552,35.95161,35.937183,35.942223,35.962482,35.990326,36.011017,36.01522,36.010986,36.004562,35.999218,35.99233,35.981384,35.96795,35.95601,35.948616,35.957085,35.973663,35.99395,36.017105,36.048782,36.096695,36.15937,36.201454,36.250824,36.30623,36.349304,36.375477,36.395645,36.41112,36.42447,36.434578,36.432007,36.42163,36.398468,36.35093,36.286026,36.226303,36.177784,36.148926,36.13346,36.121643,36.103096,36.06516,35.998978,35.897804,35.756966,35.610535,35.509148,35.486237,35.551544,35.704086,35.865005,36.035385,36.18835,36.305027,36.354736,36.20797,35.659595,34.73687,32.50197,29.645899,27.720974,27.06702,26.970547,27.172031,27.384296,27.517727,27.493734,27.257511,27.02274,26.967028,26.98434,27.036366,27.125977,27.205225,27.226582,27.217793,27.206625,27.18895,27.210968,27.302748,27.456223,27.718906,28.068958,28.443914,28.736786,28.78267,28.490236,27.99348,27.435972,26.92884,26.556734,26.349709,26.260223,26.258614,26.35788,26.528448,26.730528,26.97208,27.301472,27.686558,27.9042,27.946331,27.924858,27.992786,28.096836
31.164858,31.142548,31.123737,31.107004,31.090223,31.069666,31.04257,31.008347,30.968224,30.925922,30.886278,30.85188,30.819855,30.784752,30.74545,30.702534,30.659874,30.623514,30.597454,30.58218,30.573092,30.56807,30.561651,30.54932,30.53366,30.522537,30.51676,30.51685,30.52628,30.540703,30.558784,30.583082,30.613289,30.647911,30.687061,30.727507,30.763454,30.79341,30.818909,30.840164,30.855816,30.866243,30.869907,30.868763,30.87006,30.881027,30.90318,30.931873,30.96204,30.989286,31.00851,31.01942,31.027344,31.038437,31.054808,31.07634,31.104664,31.138126,31.174103,31.211033,31.247036,31.27924,31.307053,31.333248,31.358465,31.385735,31.414944,31.44836,31.491096,31.540369,31.598782,31.667686,31.745285,31.828556,31.91452,32.00171,32.089756,32.181084,32.28093,32.374462,32.447365,32.49736,32.533813,32.569542,32.621323,32.706673,32.809353,32.917274,33.009148,33.066246,33.095184,33.122932,33.16556,33.237984,33.34736,33.50145,33.70899,33.97666,34.309708,34.74932,35.30639,35.929863,36.39509,36.608143,36.687103,36.683777,36.647697,36.555805,36.45015,36.380524,36.35923,36.35601,36.33685,36.307762,36.273037,36.24324,36.223076,36.20425,36.173393,36.125336,36.064087,35.990704,35.913643,35.845,35.790756,35.750977,35.724426,35.70854,35.698353,35.690178,35.681717,35.67295,35.664585,35.65721,35.652294,35.649635,35.649338,35.651382,35.65674,35.66416,35.670853,35.676163,35.67911,35.681618,35.683983,35.686043,35.68663,35.68544,35.684113,35.683372,35.68441,35.687485,35.69562,35.708572,35.72374,35.739197,35.75353,35.769463,35.786617,35.80832,35.83396,35.861176,35.88769,35.90901,35.924397,35.929703,35.929863,35.928947,35.929398,35.932262,35.936913,35.945766,35.959152,35.9756,35.994698,36.01693,36.041832,36.0677,36.094597,36.123558,36.148422,36.16465,36.173225,36.178173,36.18261,36.188488,36.193733,36.190414,36.17093,36.13314,36.08327,36.028866,35.969997,35.90426,35.81906,35.712036,35.58931,35.465508,35.35723,35.274075,35.210945,35.172802,35.152313,35.148693,35.15927,35.17385,35.182766,35.187035,35.187347,35.184067,35.175095,35.161476,35.148502,35.141106,35.13961,35.1483,35.162685,35.17943,35.19776,35.221672,35.258064,35.310272,35.3713,35.452187,35.509514,35.54602,35.578453,35.604103,35.621796,35.63786,35.661232,35.66158,35.641605,35.610123,35.565903,35.513065,35.46517,35.423832,35.394173,35.37114,35.350216,35.327446,35.29532,35.248177,35.179893,35.088013,34.993416,34.927864,34.911232,34.947807,35.037327,35.123993,35.20957,35.318214,35.41337,35.452896,35.356033,34.953568,34.19779,32.315453,29.752491,27.89983,27.198132,27.07954,27.254852,27.447323,27.558952,27.565903,27.375496,27.14468,27.062603,27.070824,27.102371,27.18451,27.23469,27.245434,27.237488,27.222925,27.215,27.250488,27.355572,27.517479,27.776737,28.105385,28.445892,28.700668,28.707867,28.404995,27.929161,27.404034,26.931732,26.589708,26.400997,26.32019,26.31894,26.43775,26.614077,26.807594,27.023521,27.329262,27.718056,27.890045,27.948547,27.949522,28.129038,28.270618
30.628521,30.60936,30.592552,30.576836,30.560806,30.541218,30.516167,30.485378,30.449728,30.4117,30.374485,30.339832,30.305061,30.26606,30.223778,30.180416,30.140335,30.108215,30.085045,30.069378,30.056557,30.04406,30.028494,30.008636,29.988422,29.974342,29.967033,29.966803,29.975176,29.98782,30.003366,30.02354,30.047935,30.07676,30.11084,30.148273,30.183815,30.215355,30.242847,30.265076,30.280703,30.29184,30.297894,30.30151,30.309387,30.327278,30.355133,30.387531,30.420332,30.450043,30.471966,30.486504,30.498507,30.512867,30.531267,30.553982,30.582058,30.614021,30.647491,30.681023,30.713287,30.74247,30.7686,30.794624,30.821186,30.850414,30.8839,30.922764,30.967636,31.01675,31.07321,31.138443,31.21107,31.289116,31.369644,31.450384,31.531216,31.614414,31.704235,31.791887,31.866278,31.92277,31.966413,32.00756,32.06087,32.140686,32.244686,32.366264,32.485233,32.58011,32.651676,32.729378,32.824783,32.94798,33.102997,33.2951,33.528866,33.804413,34.1199,34.505394,34.952255,35.42524,35.782608,35.946735,35.984352,35.961357,35.827045,35.681503,35.57064,35.516335,35.50686,35.50965,35.49997,35.4779,35.44884,35.42153,35.400593,35.380287,35.350746,35.308495,35.25634,35.194992,35.131554,35.075794,35.032314,35.000576,34.978973,34.965424,34.95555,34.94624,34.936554,34.92738,34.9198,34.914627,34.912888,34.913406,34.91619,34.920815,34.927948,34.936523,34.944195,34.950523,34.954758,34.958458,34.96158,34.964085,34.965034,34.964302,34.96376,34.963783,34.964977,34.967644,34.974476,34.984398,34.995255,35.006725,35.017265,35.029125,35.041782,35.058033,35.077454,35.098454,35.11961,35.137047,35.150562,35.15609,35.15834,35.160355,35.163425,35.167927,35.173115,35.18142,35.193447,35.208008,35.22457,35.24334,35.263863,35.2846,35.30571,35.328053,35.346394,35.357193,35.361702,35.36393,35.36745,35.37475,35.38431,35.390427,35.386055,35.368275,35.340927,35.30871,35.27042,35.22359,35.15317,35.055737,34.93604,34.80887,34.692276,34.596634,34.517803,34.459618,34.417458,34.39515,34.393368,34.403046,34.41355,34.420753,34.42209,34.41719,34.404408,34.387657,34.374863,34.370476,34.37263,34.38367,34.39869,34.41532,34.433887,34.4587,34.49401,34.53743,34.587646,34.643288,34.69404,34.74208,34.791664,34.83544,34.86096,34.87106,34.881874,34.89031,34.895718,34.886696,34.852142,34.80184,34.756752,34.715378,34.684265,34.657,34.629,34.59958,34.566902,34.53215,34.48654,34.428314,34.369583,34.328865,34.31627,34.332462,34.377792,34.413067,34.44162,34.512127,34.59976,34.647354,34.580124,34.281387,33.689278,32.101276,29.885952,28.133947,27.342857,27.196434,27.351301,27.512842,27.614037,27.623371,27.474613,27.264196,27.148855,27.148638,27.200392,27.275383,27.315763,27.317898,27.30471,27.29288,27.295496,27.341133,27.453997,27.616405,27.859964,28.151321,28.440931,28.644138,28.60534,28.29409,27.840738,27.356619,26.925642,26.613724,26.442118,26.368368,26.370445,26.491161,26.673416,26.843502,27.044113,27.35353,27.705574,27.882458,27.974735,28.009235,28.224554,28.400774
30.037247,30.020416,30.005054,29.990406,29.975803,29.958553,29.93761,29.912958,29.885054,29.855095,29.824638,29.794468,29.762154,29.724598,29.683804,29.642752,29.606064,29.577707,29.55693,29.541569,29.527718,29.512783,29.494553,29.473515,29.453747,29.44021,29.433697,29.434536,29.443344,29.456251,29.471655,29.490185,29.511143,29.535774,29.565437,29.599163,29.632408,29.662977,29.690228,29.712585,29.728962,29.742615,29.753464,29.763523,29.778028,29.800804,29.830654,29.862759,29.894367,29.923033,29.944847,29.960747,29.974773,29.990438,30.009102,30.03149,30.058228,30.088154,30.119125,30.149591,30.178421,30.204636,30.228882,30.254263,30.28138,30.311707,30.346722,30.38676,30.431019,30.478252,30.531796,30.592966,30.660473,30.73288,30.807669,30.882442,30.956974,31.034477,31.118872,31.204971,31.284843,31.35315,31.411089,31.46516,31.526424,31.60663,31.70795,31.827988,31.95913,32.086205,32.197998,32.313927,32.453575,32.62034,32.813087,33.032455,33.27813,33.545265,33.827774,34.14646,34.482967,34.801567,35.03779,35.139484,35.11773,35.035797,34.89148,34.75655,34.66564,34.62804,34.626183,34.63137,34.625328,34.60708,34.5816,34.55629,34.535767,34.516403,34.491016,34.456985,34.415855,34.368073,34.31926,34.276836,34.244232,34.220848,34.20508,34.194862,34.18673,34.17794,34.168518,34.160057,34.153954,34.15054,34.149693,34.151497,34.155594,34.159416,34.164185,34.170708,34.17753,34.183956,34.189064,34.194077,34.198486,34.202137,34.203827,34.20321,34.20232,34.20154,34.201107,34.201405,34.205242,34.21237,34.22125,34.231323,34.240913,34.252037,34.2639,34.278587,34.295578,34.31392,34.333042,34.349724,34.363045,34.369545,34.373528,34.37784,34.38317,34.38923,34.39538,34.4039,34.41561,34.42939,34.44436,34.46045,34.47721,34.493412,34.509407,34.526,34.538895,34.54431,34.54389,34.542084,34.542137,34.547142,34.556385,34.566612,34.572533,34.571854,34.56706,34.558815,34.54077,34.512123,34.458878,34.377426,34.2698,34.148773,34.03221,33.930214,33.84037,33.766144,33.706093,33.66823,33.655716,33.66004,33.669662,33.67624,33.675323,33.66626,33.64839,33.627674,33.613342,33.609264,33.611973,33.622578,33.636147,33.651478,33.66951,33.694244,33.728416,33.766983,33.809177,33.851734,33.894024,33.93677,33.980083,34.02004,34.04947,34.070175,34.088192,34.106697,34.12242,34.12675,34.113434,34.085564,34.055504,34.020325,33.98603,33.951492,33.92238,33.896515,33.86097,33.824677,33.791115,33.75493,33.720497,33.696598,33.68637,33.690224,33.714634,33.71811,33.703136,33.73298,33.80797,33.8708,33.841667,33.632072,33.17482,31.876186,29.95976,28.35569,27.545578,27.323776,27.43621,27.576056,27.678476,27.69553,27.56829,27.371935,27.25415,27.26291,27.316513,27.385887,27.446815,27.464119,27.452969,27.444725,27.453897,27.504406,27.616762,27.768276,27.977802,28.222775,28.450504,28.574827,28.485176,28.167606,27.740007,27.301323,26.914604,26.632835,26.476543,26.406977,26.40842,26.527222,26.691994,26.847744,27.076645,27.409554,27.703148,27.88937,28.012966,28.158058,28.373257,28.533909
29.421265,29.407005,29.393616,29.38084,29.368479,29.354393,29.338089,29.319828,29.299768,29.278152,29.25536,29.231468,29.204418,29.171818,29.136044,29.100182,29.068611,29.044682,29.026894,29.013124,29.000465,28.986519,28.969912,28.951836,28.935787,28.925266,28.921234,28.924095,28.934074,28.948057,28.964325,28.982521,29.001644,29.023335,29.04932,29.079273,29.109505,29.138088,29.164284,29.186642,29.204369,29.221062,29.2369,29.25283,29.2723,29.297525,29.326881,29.356562,29.38528,29.41167,29.432747,29.44971,29.465658,29.482782,29.50209,29.5247,29.551086,29.580257,29.61016,29.639011,29.66566,29.6898,29.712597,29.73732,29.764544,29.7953,29.83032,29.869532,29.912317,29.957748,30.009108,30.06754,30.1316,30.200073,30.270805,30.341478,30.41166,30.485474,30.567139,30.653591,30.739544,30.820095,30.89373,30.962906,31.035355,31.12127,31.222656,31.340437,31.475498,31.623116,31.772404,31.920456,32.09002,32.28273,32.49313,32.7173,32.951546,33.188942,33.422787,33.666996,33.900673,34.09233,34.2155,34.246735,34.18627,34.07877,33.959892,33.85401,33.784203,33.755703,33.75375,33.755116,33.744175,33.721054,33.693104,33.667503,33.64763,33.630188,33.609695,33.584137,33.553978,33.519524,33.485188,33.456253,33.43512,33.42003,33.408474,33.40107,33.39408,33.38501,33.374176,33.363277,33.35428,33.34844,33.345848,33.34588,33.34803,33.350082,33.35325,33.358513,33.364754,33.371315,33.377213,33.383312,33.388725,33.393272,33.39568,33.395603,33.39524,33.394943,33.394623,33.394615,33.39758,33.40377,33.41207,33.42176,33.43109,33.44187,33.4532,33.466564,33.48136,33.497192,33.514153,33.529556,33.54313,33.551342,33.558,33.565163,33.57272,33.58012,33.587173,33.59588,33.60748,33.621117,33.635826,33.651436,33.66741,33.68228,33.696373,33.71049,33.721317,33.725918,33.725773,33.72442,33.724495,33.72905,33.738148,33.750267,33.761017,33.769287,33.777287,33.784416,33.78457,33.77768,33.75022,33.691353,33.602303,33.49677,33.39002,33.289574,33.194992,33.10923,33.034138,32.981274,32.956024,32.951225,32.955574,32.957573,32.950928,32.937553,32.9161,32.89278,32.877365,32.87255,32.874214,32.882698,32.89339,32.906563,32.923462,32.94725,32.97969,33.01499,33.05213,33.08933,33.124756,33.159798,33.195694,33.23101,33.263256,33.293255,33.319912,33.342438,33.357903,33.364685,33.361107,33.345398,33.324535,33.29697,33.265144,33.23153,33.206825,33.19448,33.183624,33.17193,33.13749,33.107185,33.08143,33.062965,33.053978,33.05306,33.065765,33.059715,33.01381,33.012512,33.070267,33.13813,33.14565,33.0063,32.64557,31.62416,30.009375,28.5462,27.735096,27.478596,27.523212,27.631876,27.735214,27.767914,27.661842,27.491558,27.396221,27.413712,27.483887,27.581581,27.668524,27.701061,27.693857,27.683094,27.68752,27.731155,27.829494,27.955292,28.117989,28.311142,28.474173,28.515331,28.380844,28.063374,27.664192,27.26642,26.918585,26.663181,26.51749,26.447704,26.442806,26.556072,26.699024,26.848389,27.121315,27.482151,27.707636,27.901161,28.061045,28.274548,28.488842,28.678343
28.806355,28.794994,28.784204,28.774021,28.764359,28.753574,28.741364,28.728264,28.714329,28.699322,28.683054,28.6652,28.644192,28.618149,28.589424,28.560802,28.53592,28.517311,28.503283,28.492214,28.482061,28.470995,28.457813,28.443245,28.430038,28.421356,28.419037,28.423391,28.434584,28.449554,28.466305,28.484243,28.502575,28.52301,28.547611,28.576077,28.60503,28.632555,28.65804,28.68053,28.699413,28.718441,28.738125,28.758442,28.781368,28.807972,28.836477,28.863966,28.89013,28.915066,28.936596,28.955845,28.974861,28.99469,29.015915,29.039982,29.067589,29.097713,29.128265,29.157124,29.183067,29.206306,29.22843,29.252676,29.279692,29.310432,29.34557,29.38489,29.427608,29.472813,29.523964,29.582027,29.645363,29.712841,29.78249,29.851807,29.92006,29.99178,30.071793,30.15895,30.250103,30.340918,30.428072,30.51092,30.594559,30.68887,30.796078,30.91896,31.059345,31.217884,31.390049,31.561367,31.749184,31.950161,32.15487,32.358658,32.558693,32.7491,32.925385,33.096786,33.243896,33.348488,33.391724,33.36783,33.29366,33.19767,33.097485,33.01116,32.953987,32.92727,32.917934,32.90827,32.888023,32.85824,32.826363,32.799515,32.7797,32.763603,32.746456,32.72592,32.70229,32.676453,32.651775,32.631706,32.617752,32.60788,32.599503,32.59407,32.588043,32.57892,32.566925,32.55372,32.54169,32.533104,32.5289,32.527023,32.527,32.528065,32.531086,32.536263,32.542515,32.549324,32.555843,32.56259,32.568474,32.57335,32.57618,32.57689,32.577904,32.579296,32.580956,32.582962,32.587505,32.594627,32.603394,32.613403,32.62288,32.633484,32.644306,32.656338,32.669025,32.682396,32.69696,32.71044,32.72363,32.732628,32.74086,32.749474,32.75781,32.76554,32.772858,32.781624,32.793327,32.80746,32.823044,32.83976,32.856895,32.872658,32.8872,32.901512,32.913162,32.920525,32.924576,32.927338,32.930565,32.936768,32.94645,32.958984,32.970978,32.982475,32.995876,33.011383,33.025978,33.037415,33.03326,33.001377,32.942234,32.863853,32.774605,32.682556,32.589203,32.496605,32.409317,32.34159,32.301468,32.283142,32.27488,32.265724,32.250782,32.232967,32.210823,32.18941,32.176804,32.17392,32.175415,32.18113,32.188374,32.199005,32.2145,32.237137,32.267593,32.299522,32.332268,32.364426,32.395214,32.42713,32.462017,32.49829,32.532825,32.565704,32.596478,32.622726,32.642372,32.65359,32.65335,32.640068,32.62162,32.597775,32.56814,32.53454,32.506943,32.495827,32.500866,32.512257,32.498985,32.48503,32.473495,32.459282,32.444485,32.438774,32.444145,32.426743,32.380096,32.36182,32.39431,32.455166,32.485817,32.398766,32.11215,31.337425,30.008278,28.697178,27.897095,27.607128,27.604877,27.679186,27.78764,27.83662,27.758625,27.631222,27.577076,27.620249,27.728184,27.882769,28.004322,28.042488,28.019636,27.986305,27.97216,27.994865,28.063168,28.150404,28.267063,28.40718,28.504902,28.4786,28.3121,28.003035,27.629894,27.26437,26.94781,26.713203,26.572338,26.498026,26.482956,26.58734,26.715477,26.865875,27.15448,27.512943,27.709246,27.906757,28.10773,28.32019,28.521278,28.777779
28.208218,28.199453,28.191269,28.183807,28.176853,28.169178,28.160442,28.151443,28.142265,28.132439,28.121555,28.109097,28.094055,28.074724,28.052801,28.03041,28.01067,27.995853,27.9845,27.975555,27.967577,27.959236,27.949137,27.937244,27.925694,27.91776,27.916199,27.921268,27.933128,27.9485,27.965176,27.9827,28.000635,28.02061,28.044975,28.073166,28.101845,28.128992,28.15411,28.17673,28.19638,28.216856,28.238964,28.26197,28.286945,28.314335,28.342398,28.368973,28.394411,28.420094,28.444454,28.468227,28.492386,28.516983,28.54214,28.569376,28.599213,28.63116,28.663227,28.69299,28.719152,28.742355,28.764507,28.78886,28.816196,28.847565,28.883793,28.924732,28.969486,29.016966,29.070864,29.13196,29.198433,29.268658,29.340416,29.411325,29.480549,29.55278,29.633402,29.722609,29.818954,29.918716,30.01745,30.112356,30.206676,30.310627,30.426567,30.557764,30.706398,30.871702,31.04785,31.225475,31.416965,31.60986,31.791626,31.959469,32.11389,32.252167,32.37297,32.482635,32.5656,32.611317,32.60836,32.557625,32.478302,32.39274,32.309807,32.239433,32.19078,32.16255,32.143196,32.12101,32.093327,32.062088,32.029556,32.001945,31.980906,31.963959,31.947092,31.927711,31.906372,31.884377,31.864182,31.847832,31.836016,31.828045,31.822643,31.818607,31.813908,31.805958,31.794962,31.782726,31.771545,31.76331,31.758984,31.75687,31.756548,31.757093,31.75946,31.764145,31.770206,31.777044,31.783817,31.790794,31.796818,31.801783,31.804781,31.806007,31.808004,31.810595,31.813892,31.817762,31.824007,31.832542,31.842567,31.853722,31.864275,31.875818,31.887447,31.899698,31.912014,31.92467,31.938389,31.951187,31.963692,31.972084,31.979572,31.987143,31.994337,32.001244,32.0082,32.01706,32.029156,32.044178,32.060966,32.07885,32.096947,32.11355,32.128723,32.14381,32.157078,32.16723,32.17495,32.18138,32.187195,32.194283,32.203354,32.214302,32.225597,32.238327,32.25509,32.27628,32.298965,32.319275,32.328415,32.322723,32.29872,32.25321,32.188065,32.11188,32.026573,31.932173,31.83662,31.756622,31.701897,31.667555,31.642511,31.619076,31.595772,31.573124,31.551245,31.533787,31.525322,31.525303,31.527546,31.531807,31.537369,31.54724,31.562038,31.583168,31.611485,31.64032,31.669495,31.697834,31.72512,31.753876,31.785938,31.82026,31.85448,31.889362,31.92487,31.958675,31.987988,32.009647,32.019424,32.014797,32.001713,31.9794,31.947044,31.905622,31.866573,31.84097,31.829659,31.833336,31.854584,31.869404,31.88356,31.884243,31.869284,31.858833,31.849083,31.810272,31.78291,31.764942,31.777473,31.825634,31.861809,31.811932,31.59539,31.01774,29.922855,28.798098,28.047195,27.694721,27.676693,27.735,27.848274,27.90543,27.855545,27.776482,27.775013,27.87157,28.034245,28.236635,28.383417,28.42698,28.381998,28.307014,28.2575,28.248188,28.28001,28.32811,28.405228,28.486794,28.51342,28.439777,28.265102,27.980356,27.632938,27.291862,26.999222,26.780617,26.641249,26.560059,26.534267,26.626968,26.743294,26.902868,27.174484,27.48943,27.698215,27.896797,28.123451,28.32645,28.500595,28.778492
27.644924,27.638275,27.632504,27.627724,27.623386,27.618591,27.612917,27.607147,27.60138,27.595192,27.588215,27.579872,27.569622,27.555565,27.538017,27.518265,27.499666,27.485281,27.474205,27.465569,27.458237,27.45058,27.441818,27.432705,27.424992,27.420399,27.420635,27.426062,27.436844,27.451088,27.467173,27.484037,27.500668,27.51847,27.539816,27.564632,27.5906,27.616283,27.641026,27.664055,27.68517,27.707325,27.73111,27.755472,27.7809,27.807789,27.835201,27.861908,27.88919,27.91838,27.948288,27.97914,28.010857,28.042658,28.0742,28.1067,28.139557,28.173798,28.207733,28.238638,28.2653,28.288801,28.311312,28.336685,28.365765,28.39943,28.438217,28.482147,28.53092,28.583817,28.644012,28.712124,28.786285,28.863527,28.940866,29.016514,29.08983,29.16573,29.249977,29.343502,29.446012,29.554296,29.663239,29.768606,29.872389,29.98528,30.109444,30.24795,30.40208,30.569221,30.741594,30.908815,31.08075,31.246902,31.396088,31.52493,31.634972,31.727367,31.803162,31.866272,31.905735,31.911636,31.882381,31.825138,31.7531,31.680803,31.611492,31.551304,31.506496,31.47607,31.451769,31.425207,31.394653,31.361797,31.328043,31.298573,31.27464,31.254093,31.234741,31.216202,31.198193,31.180698,31.165741,31.154411,31.146656,31.141407,31.137367,31.133871,31.129429,31.121674,31.110914,31.098866,31.087631,31.079052,31.07415,31.07136,31.070381,31.070496,31.07266,31.077328,31.0835,31.090437,31.097324,31.104252,31.110126,31.11496,31.11799,31.11955,31.122257,31.125729,31.130291,31.135597,31.143156,31.152763,31.163607,31.175407,31.186607,31.198734,31.211048,31.223774,31.236275,31.248962,31.262615,31.27529,31.28761,31.295784,31.302757,31.309416,31.315529,31.321514,31.32795,31.336557,31.34858,31.363903,31.381342,31.400005,31.418869,31.436214,31.452015,31.46783,31.482536,31.495275,31.506443,31.516243,31.52443,31.532267,31.540712,31.549828,31.558666,31.569092,31.584034,31.604052,31.627085,31.652596,31.674871,31.688622,31.685678,31.664864,31.629368,31.577065,31.507374,31.41671,31.318356,31.231089,31.16344,31.113054,31.075722,31.043903,31.014465,30.988304,30.96521,30.947487,30.93789,30.935553,30.937138,30.942993,30.950817,30.963778,30.979725,30.999216,31.025543,31.051704,31.077919,31.103193,31.12747,31.152838,31.18098,31.211483,31.242838,31.276182,31.31205,31.348648,31.38307,31.411516,31.428988,31.431984,31.424658,31.406212,31.374794,31.33163,31.289173,31.259731,31.24488,31.244507,31.25262,31.26899,31.292116,31.311832,31.32166,31.314793,31.270285,31.22825,31.199587,31.201859,31.224052,31.255867,31.283722,31.257305,31.106274,30.667803,29.792965,28.844624,28.163609,27.812744,27.76027,27.81757,27.913355,27.967735,27.944042,27.910824,27.958164,28.105015,28.340778,28.553902,28.673534,28.7236,28.689524,28.581427,28.482304,28.436913,28.439125,28.457462,28.49287,28.50552,28.460434,28.358913,28.206017,27.97034,27.662016,27.342558,27.065813,26.859407,26.721138,26.63349,26.59885,26.675697,26.780502,26.953644,27.207207,27.46408,27.663937,27.862076,28.08265,28.285454,28.457907,28.692396
27.106964,27.10231,27.099182,27.09753,27.096195,27.09455,27.092403,27.087788,27.080563,27.072742,27.065548,27.057634,27.048077,27.03541,27.020927,27.006136,26.993084,26.983135,26.975117,26.968946,26.964134,26.959518,26.954266,26.948708,26.944038,26.941494,26.942478,26.947426,26.956446,26.96823,26.981747,26.99625,27.01086,27.026752,27.046047,27.06887,27.093264,27.11805,27.142628,27.166147,27.18818,27.211113,27.235498,27.260098,27.285213,27.311478,27.338633,27.366043,27.395206,27.428082,27.463627,27.501125,27.539248,27.576263,27.61137,27.646442,27.68362,27.723127,27.76097,27.79374,27.821587,27.846819,27.871565,27.899563,27.932022,27.969803,28.013256,28.062218,28.116219,28.174309,28.23999,28.314148,28.394962,28.480686,28.569407,28.656666,28.736073,28.818003,28.90814,29.007507,29.11647,29.232246,29.349365,29.462769,29.573744,29.693401,29.823666,29.966864,30.122616,30.285866,30.447132,30.596844,30.741585,30.871567,30.97861,31.062927,31.129547,31.182613,31.22461,31.250153,31.256432,31.242167,31.20874,31.15963,31.101488,31.043589,30.986038,30.932625,30.88813,30.852789,30.821632,30.789398,30.755596,30.721483,30.68736,30.65762,30.632927,30.611263,30.591103,30.572659,30.555923,30.540838,30.529127,30.521149,30.516148,30.512707,30.509514,30.506145,30.501457,30.493412,30.48243,30.4702,30.458683,30.449627,30.444126,30.440765,30.4394,30.439476,30.441967,30.447197,30.453938,30.461178,30.468172,30.474949,30.480522,30.485062,30.487957,30.489677,30.49282,30.496784,30.502142,30.50835,30.516659,30.526703,30.53773,30.5496,30.560913,30.57321,30.585947,30.599182,30.6122,30.625368,30.639364,30.652203,30.664505,30.672451,30.678722,30.684254,30.689066,30.69384,30.699326,30.707245,30.718609,30.73351,30.75082,30.769585,30.788662,30.806295,30.822285,30.838541,30.854336,30.869217,30.883348,30.89611,30.906435,30.915165,30.923367,30.931122,30.93798,30.946209,30.958881,30.976828,30.998634,31.024155,31.050186,31.072268,31.085556,31.087765,31.07576,31.043243,30.989935,30.91299,30.824455,30.736225,30.65771,30.5953,30.54943,30.509857,30.475164,30.446201,30.422544,30.405,30.394543,30.389977,30.388992,30.391855,30.3973,30.408218,30.424217,30.445107,30.47099,30.495914,30.520432,30.543625,30.565056,30.58624,30.608793,30.633131,30.659096,30.688484,30.722595,30.760872,30.800306,30.834538,30.857353,30.866962,30.865211,30.851458,30.82291,30.78052,30.736935,30.704975,30.686806,30.682396,30.685959,30.696922,30.709574,30.718319,30.718601,30.708115,30.690422,30.6743,30.653885,30.663778,30.697975,30.728664,30.742733,30.730423,30.631256,30.284939,29.609581,28.848045,28.25843,27.933655,27.864153,27.895607,27.971424,28.021236,28.01939,28.025797,28.122395,28.319725,28.549355,28.708456,28.843924,28.881954,28.841822,28.757786,28.631845,28.557991,28.515392,28.478857,28.447943,28.408302,28.344778,28.245731,28.098076,27.926447,27.693733,27.410542,27.146206,26.945395,26.803288,26.71307,26.673576,26.725475,26.8183,27.015202,27.245697,27.422998,27.60696,27.793571,28.0059,28.179459,28.339054,28.529398
26.545128,26.542124,26.538733,26.534924,26.530613,26.525679,26.51949,26.51255,26.505608,26.499489,26.494473,26.489395,26.483372,26.475182,26.466007,26.457014,26.449432,26.443924,26.439442,26.436502,26.435139,26.43462,26.43425,26.43391,26.4341,26.435556,26.439495,26.44645,26.456469,26.468407,26.481445,26.4951,26.508644,26.523098,26.540249,26.560322,26.581772,26.60401,26.626781,26.649195,26.670578,26.69267,26.71565,26.738443,26.761627,26.786251,26.812628,26.840551,26.871515,26.907837,26.94847,26.991756,27.03527,27.076492,27.114145,27.150356,27.188461,27.228748,27.269363,27.307888,27.343472,27.376438,27.40551,27.438791,27.478199,27.524208,27.57662,27.634853,27.697996,27.764679,27.839073,27.922386,28.01295,28.110168,28.210175,28.306103,28.394531,28.485,28.583622,28.691002,28.80748,28.93021,29.05333,29.171318,29.285109,29.405691,29.534466,29.6729,29.819202,29.966614,30.105305,30.228247,30.338612,30.428661,30.493896,30.53713,30.565075,30.583315,30.594685,30.597109,30.587402,30.566254,30.535091,30.495125,30.449232,30.40256,30.3532,30.303577,30.257498,30.216593,30.178925,30.141834,30.105698,30.071373,30.038042,30.00931,29.98524,29.963787,29.943886,29.926338,29.911304,29.898857,29.890469,29.885857,29.883644,29.882061,29.879742,29.876446,29.871456,29.86288,29.85136,29.83868,29.826801,29.81744,29.811787,29.808529,29.80778,29.80904,29.813213,29.820316,29.828716,29.83715,29.844864,29.851887,29.857483,29.861935,29.864819,29.866768,29.870274,29.874508,29.88025,29.88671,29.894808,29.904167,29.914165,29.924835,29.935163,29.946714,29.959114,29.972446,29.98589,29.99962,30.01413,30.027256,30.039513,30.047096,30.052485,30.056679,30.059917,30.063099,30.06707,30.073467,30.083046,30.096151,30.111935,30.129398,30.147348,30.164108,30.179354,30.195082,30.21098,30.22697,30.242962,30.25763,30.269348,30.27874,30.286844,30.293747,30.299248,30.305614,30.31574,30.330679,30.349827,30.37339,30.40044,30.42793,30.452408,30.470503,30.475948,30.460415,30.42361,30.36213,30.28385,30.200594,30.123497,30.059486,30.00912,29.964579,29.926455,29.895636,29.871624,29.853893,29.842047,29.835136,29.832127,29.83329,29.836025,29.843922,29.857208,29.875076,29.896954,29.917847,29.93879,29.958519,29.976482,29.993362,30.010342,30.028347,30.047867,30.070843,30.098875,30.132317,30.16918,30.205063,30.234146,30.251932,30.259525,30.252039,30.227097,30.186535,30.143574,30.110928,30.090443,30.082214,30.08096,30.085192,30.089014,30.08861,30.081333,30.067577,30.055685,30.045263,30.02472,30.022663,30.045988,30.08947,30.137787,30.152073,30.113895,29.829096,29.340237,28.77634,28.295628,28.012661,27.935097,27.945389,28.002266,28.046394,28.06231,28.099411,28.23038,28.454493,28.635548,28.752928,28.809536,28.79756,28.74922,28.669914,28.550182,28.467667,28.411137,28.35836,28.306616,28.250717,28.177092,28.072111,27.936703,27.78749,27.612469,27.422562,27.223589,27.037495,26.889912,26.786737,26.739677,26.764236,26.885666,27.037397,27.193722,27.357601,27.50648,27.672398,27.869152,27.978188,28.147673,28.24813
25.972065,25.965992,25.96091,25.956459,25.951714,25.94611,25.938799,25.931673,25.925922,25.921705,25.918896,25.9166,25.91423,25.91066,25.90663,25.902855,25.900112,25.89877,25.897942,25.89869,25.90142,25.905792,25.911226,25.917225,25.923668,25.930843,25.939737,25.951061,25.964611,25.979118,25.993687,26.007927,26.021343,26.034752,26.049843,26.06678,26.084457,26.102894,26.12236,26.142122,26.161366,26.181171,26.20139,26.221016,26.241026,26.263035,26.287884,26.315662,26.34766,26.38626,26.430283,26.477345,26.524296,26.56814,26.6072,26.643656,26.68153,26.721867,26.764778,26.808815,26.852345,26.89465,26.934769,26.980509,27.030602,27.088,27.153503,27.225273,27.30152,27.380104,27.466175,27.562477,27.66681,27.773659,27.879498,27.983406,28.08245,28.182919,28.291481,28.40779,28.531458,28.659023,28.784184,28.901455,29.011719,29.1251,29.24239,29.364296,29.488338,29.607555,29.713188,29.800564,29.87138,29.921028,29.948692,29.959263,29.959988,29.956242,29.950212,29.9417,29.92722,29.907097,29.881464,29.849916,29.813244,29.773933,29.72926,29.681007,29.632454,29.58648,29.543652,29.503372,29.466415,29.43321,29.4021,29.37585,29.353897,29.33406,29.315617,29.299784,29.286888,29.277191,29.271967,29.270432,29.270697,29.270672,29.26897,29.265575,29.260086,29.250631,29.238197,29.224731,29.212326,29.202875,29.197565,29.195175,29.196102,29.199768,29.206913,29.217117,29.22819,29.238617,29.247692,29.25541,29.261345,29.265938,29.268948,29.271164,29.27494,29.279255,29.284931,29.290989,29.29797,29.305515,29.31327,29.321548,29.32979,29.339653,29.350933,29.363903,29.37759,29.391895,29.407024,29.420502,29.43266,29.43982,29.444204,29.446983,29.44862,29.45002,29.45208,29.456299,29.463188,29.473318,29.486221,29.50105,29.516603,29.5313,29.544735,29.558907,29.573854,29.589756,29.606369,29.621931,29.63444,29.644463,29.652988,29.660126,29.665565,29.671062,29.679085,29.690868,29.706474,29.726717,29.75238,29.781923,29.812826,29.841133,29.859295,29.858238,29.83714,29.79197,29.728155,29.65612,29.586126,29.52441,29.47217,29.424854,29.384647,29.352505,29.327934,29.309116,29.294481,29.283669,29.276934,29.274334,29.274584,29.280384,29.291208,29.306026,29.324255,29.341297,29.357033,29.371992,29.385601,29.39759,29.408669,29.420042,29.432434,29.447525,29.466793,29.49156,29.520931,29.552402,29.581055,29.600994,29.612368,29.611408,29.59538,29.564915,29.527702,29.494728,29.472717,29.46103,29.455399,29.453556,29.450464,29.443016,29.429966,29.41315,29.399971,29.388813,29.36753,29.353745,29.357134,29.385145,29.435303,29.476543,29.473862,29.301899,28.996378,28.609444,28.245407,28.016563,27.941795,27.939114,27.980513,28.018322,28.044678,28.096931,28.239872,28.462364,28.556488,28.607727,28.604424,28.564571,28.507118,28.420547,28.30561,28.233055,28.18201,28.132603,28.083282,28.027767,27.951485,27.847208,27.727207,27.593784,27.451368,27.310757,27.167332,27.024708,26.89888,26.804955,26.769226,26.777111,26.864498,26.962582,27.077448,27.224083,27.343811,27.483814,27.635643,27.701624,27.885532,27.83277
25.4164,25.408754,25.403984,25.401392,25.398914,25.39549,25.390366,25.38504,25.380718,25.37801,25.377144,25.377201,25.377771,25.377779,25.377605,25.377705,25.378601,25.3805,25.382626,25.386496,25.39277,25.401493,25.412182,25.424059,25.43652,25.449402,25.463434,25.479546,25.497107,25.51466,25.53114,25.546135,25.55939,25.571703,25.584713,25.598572,25.61251,25.627106,25.643112,25.660057,25.67701,25.694565,25.712292,25.729126,25.74635,25.766033,25.789383,25.816662,25.8489,25.88836,25.933685,25.982063,26.030048,26.074486,26.113539,26.14948,26.187132,26.228436,26.274345,26.32391,26.375254,26.427235,26.480072,26.539831,26.605919,26.679192,26.760345,26.848295,26.940609,27.034628,27.136173,27.243744,27.357777,27.473051,27.586632,27.699718,27.808372,27.917587,28.034294,28.156963,28.284073,28.411316,28.532202,28.641775,28.741238,28.839178,28.936016,29.032114,29.125126,29.209251,29.277847,29.32814,29.361532,29.376503,29.375103,29.363487,29.348492,29.334198,29.32166,29.309294,29.294722,29.27792,29.25778,29.23262,29.201992,29.166986,29.124825,29.07699,29.02654,28.977276,28.93155,28.890163,28.854027,28.823128,28.79523,28.772373,28.753448,28.736101,28.719828,28.706163,28.695469,28.688267,28.685688,28.686523,28.688591,28.689644,28.688194,28.684492,28.678316,28.667778,28.654232,28.639862,28.62698,28.617771,28.6134,28.612621,28.616108,28.62307,28.633987,28.647938,28.66217,28.67492,28.685589,28.694122,28.700476,28.705246,28.7084,28.710865,28.714844,28.719112,28.724445,28.729631,28.734877,28.73988,28.744629,28.749794,28.75535,28.76315,28.773092,28.785606,28.799484,28.81438,28.830284,28.844181,28.856289,28.863022,28.866388,28.867802,28.867928,28.8676,28.867697,28.86956,28.873463,28.880173,28.889591,28.901142,28.913681,28.92569,28.93679,28.948887,28.962246,28.97724,28.993572,29.009266,29.022171,29.032986,29.042568,29.051012,29.057621,29.063334,29.070057,29.079185,29.09135,29.10801,29.131104,29.16027,29.194012,29.228344,29.255283,29.2659,29.258694,29.229755,29.183376,29.126148,29.065584,29.007898,28.955757,28.907383,28.866074,28.832909,28.807585,28.78717,28.769154,28.753836,28.742407,28.734772,28.731445,28.733753,28.740498,28.750736,28.763958,28.776403,28.78799,28.799225,28.809364,28.817638,28.823944,28.82903,28.834126,28.841156,28.851114,28.866528,28.88715,28.911102,28.934341,28.951408,28.96156,28.963589,28.954433,28.932638,28.902939,28.874802,28.855307,28.843925,28.835907,28.829533,28.821201,28.808475,28.790848,28.771381,28.757565,28.746147,28.726036,28.707367,28.695736,28.698257,28.72671,28.778416,28.799194,28.741497,28.582695,28.336899,28.082653,27.91188,27.8485,27.840248,27.869467,27.899298,27.9263,27.977516,28.10411,28.288818,28.316845,28.31394,28.292355,28.24609,28.163288,28.054165,27.95605,27.903423,27.866634,27.830223,27.790127,27.740238,27.670376,27.577087,27.471825,27.359177,27.238403,27.113628,26.998734,26.895979,26.80011,26.722342,26.694077,26.689095,26.727993,26.799038,26.897034,27.00919,27.106606,27.202808,27.282904,27.343208,27.555788,27.327454
24.909119,24.904528,24.902266,24.90164,24.900888,24.899136,24.89573,24.89208,24.889496,24.888813,24.890308,24.892923,24.896221,24.89915,24.901745,24.904331,24.90741,24.911137,24.914894,24.920536,24.928864,24.9403,24.954485,24.970463,24.987282,25.00433,25.022083,25.04163,25.061953,25.081425,25.098848,25.113777,25.126171,25.13703,25.14787,25.15897,25.169857,25.181509,25.195065,25.210215,25.22594,25.242556,25.259354,25.275211,25.291527,25.310484,25.333359,25.360466,25.392666,25.432,25.477009,25.524754,25.571835,25.615234,25.653263,25.688461,25.726393,25.769737,25.820307,25.877388,25.93853,26.00145,26.06503,26.13661,26.220367,26.312988,26.411747,26.51665,26.626152,26.734241,26.848488,26.96494,27.085838,27.210884,27.335983,27.457159,27.571762,27.685476,27.80517,27.928238,28.052029,28.171642,28.280857,28.375694,28.457918,28.534306,28.605232,28.671225,28.730774,28.779955,28.81467,28.833824,28.838411,28.829144,28.80967,28.786175,28.764118,28.745806,28.731197,28.71828,28.704885,28.690647,28.673767,28.651976,28.624352,28.591518,28.550823,28.50359,28.452833,28.402851,28.356956,28.316696,28.28297,28.255371,28.231321,28.212269,28.196732,28.182243,28.168447,28.157095,28.148472,28.143373,28.142803,28.145195,28.148327,28.149956,28.148483,28.144371,28.137539,28.126072,28.11163,28.09667,28.08377,28.075356,28.072578,28.074127,28.080774,28.091436,28.10623,28.123772,28.140884,28.155699,28.167656,28.17677,28.18334,28.188137,28.191341,28.194,28.19813,28.20229,28.207207,28.211357,28.214657,28.216923,28.218502,28.220467,28.223345,28.22859,28.236805,28.248837,28.263462,28.279512,28.29606,28.310244,28.322258,28.328533,28.330925,28.331114,28.329943,28.32814,28.326576,28.32639,28.327583,28.331127,28.337212,28.34549,28.354954,28.364155,28.372837,28.38269,28.394133,28.407663,28.422993,28.43813,28.45105,28.462624,28.473564,28.483843,28.492243,28.498882,28.505123,28.512455,28.522053,28.535856,28.556454,28.584171,28.618317,28.655182,28.687077,28.705921,28.709843,28.69558,28.66589,28.62397,28.574703,28.523441,28.473417,28.425701,28.384148,28.350178,28.323803,28.301422,28.280024,28.260555,28.244747,28.23253,28.224152,28.22057,28.220703,28.223804,28.22976,28.236143,28.244408,28.252655,28.259863,28.265059,28.267557,28.26772,28.267153,28.268013,28.270853,28.27829,28.290737,28.307295,28.3247,28.337814,28.345867,28.346945,28.338633,28.318565,28.29372,28.27295,28.257885,28.249043,28.241602,28.234352,28.224907,28.210815,28.191378,28.170265,28.155193,28.142576,28.123474,28.10281,28.084282,28.077324,28.096474,28.143192,28.18688,28.185913,28.115036,27.972075,27.806984,27.68827,27.639793,27.630789,27.650267,27.670162,27.689007,27.726955,27.815351,27.938452,27.959154,27.943745,27.901049,27.830029,27.720818,27.607918,27.54501,27.511955,27.489086,27.47007,27.441477,27.398933,27.34086,27.265312,27.17785,27.083261,26.983246,26.882362,26.787115,26.700108,26.618118,26.543816,26.508003,26.487774,26.515259,26.572533,26.64531,26.724884,26.788204,26.828558,26.836723,26.914436,27.17355,26.762524
24.466566,24.464188,24.463802,24.464828,24.46565,24.465544,24.463959,24.462292,24.461838,24.46344,24.46733,24.47235,24.478006,24.483198,24.48763,24.491585,24.495617,24.499954,24.504145,24.510284,24.519241,24.531727,24.54746,24.565409,24.58444,24.603626,24.62321,24.644321,24.665672,24.685543,24.702654,24.71658,24.727486,24.736572,24.745274,24.754147,24.762985,24.772966,24.785385,24.800049,24.815865,24.833073,24.850826,24.867918,24.885609,24.905844,24.929665,24.95736,24.989754,25.028614,25.072498,25.118656,25.164017,25.205967,25.243237,25.278706,25.31861,25.366161,25.423708,25.49036,25.562834,25.637913,25.713726,25.798645,25.896149,26.006939,26.124454,26.24477,26.367569,26.482332,26.599854,26.726944,26.859917,26.994003,27.12475,27.248577,27.36358,27.475672,27.591526,27.70781,27.821106,27.9264,28.018215,28.093794,28.15547,28.208223,28.252686,28.289833,28.319273,28.339085,28.34739,28.344093,28.329762,28.306469,28.278389,28.250937,28.22786,28.20969,28.195576,28.183289,28.170712,28.157387,28.141396,28.120499,28.093908,28.062258,28.02311,27.977589,27.9287,27.880806,27.837517,27.800625,27.770882,27.747526,27.727962,27.713068,27.701069,27.689545,27.678288,27.669104,27.662292,27.658857,27.659618,27.662868,27.666428,27.66814,27.666462,27.661982,27.654726,27.642769,27.628014,27.613136,27.600912,27.593937,27.593262,27.59735,27.60724,27.621439,27.639648,27.660076,27.679245,27.695322,27.707916,27.717146,27.723564,27.728065,27.731094,27.733837,27.738052,27.742172,27.74673,27.74997,27.75146,27.751068,27.749508,27.748283,27.748432,27.750362,27.756123,27.767412,27.783333,27.801237,27.81844,27.832958,27.844692,27.850391,27.851841,27.851006,27.848873,27.846025,27.843292,27.841604,27.8407,27.841671,27.84488,27.850136,27.856594,27.862944,27.869001,27.876299,27.885353,27.896732,27.910229,27.924057,27.936462,27.948408,27.96049,27.972504,27.982697,27.990498,27.99686,28.00333,28.011425,28.023397,28.042011,28.067886,28.100895,28.137722,28.171398,28.195066,28.206799,28.204159,28.188618,28.16069,28.122845,28.079132,28.032846,27.987366,27.946321,27.911652,27.883633,27.858486,27.833252,27.809486,27.78929,27.77243,27.758942,27.749641,27.7436,27.740383,27.740227,27.741268,27.744576,27.748232,27.750938,27.751198,27.748846,27.745152,27.741302,27.738514,27.737225,27.738743,27.744255,27.754131,27.765741,27.774357,27.779581,27.779453,27.772167,27.75502,27.73307,27.71381,27.699305,27.69018,27.685116,27.68128,27.675587,27.664543,27.646542,27.625183,27.608711,27.59423,27.57539,27.554016,27.533072,27.522121,27.535286,27.576508,27.625944,27.653893,27.634953,27.558435,27.455587,27.376528,27.341751,27.334072,27.346128,27.355991,27.36285,27.382015,27.42928,27.496157,27.532246,27.514965,27.443958,27.33435,27.232521,27.167166,27.128534,27.109716,27.093508,27.084913,27.0653,27.027891,26.979004,26.923079,26.857841,26.778553,26.69537,26.612738,26.534918,26.460075,26.383572,26.311766,26.275402,26.245792,26.255356,26.291904,26.343445,26.390915,26.403921,26.402042,26.35728,26.476648,26.75167,26.12603
24.080198,24.079674,24.080845,24.083231,24.085377,24.086723,24.086884,24.087233,24.089022,24.09299,24.099216,24.10638,24.113926,24.120762,24.126324,24.130827,24.134947,24.139027,24.142805,24.14849,24.156925,24.168922,24.184275,24.201954,24.220753,24.239632,24.258715,24.279062,24.299263,24.317608,24.332838,24.344551,24.353115,24.360033,24.366634,24.373861,24.381813,24.391708,24.404724,24.42052,24.43798,24.457447,24.478111,24.498669,24.520016,24.543575,24.569935,24.599169,24.632233,24.670717,24.71327,24.757664,24.80141,24.842525,24.880394,24.918188,24.962845,25.017868,25.085665,25.164742,25.250772,25.339653,25.4291,25.528507,25.641396,25.767574,25.901175,26.031397,26.152328,26.271358,26.396297,26.530071,26.667772,26.80392,26.933495,27.053009,27.161385,27.264784,27.369383,27.471794,27.568424,27.65467,27.726217,27.781586,27.82351,27.855297,27.877968,27.893097,27.901096,27.901325,27.893301,27.877203,27.852852,27.822773,27.790993,27.762175,27.738888,27.720606,27.70623,27.693466,27.680267,27.666508,27.650637,27.630772,27.606323,27.57782,27.542896,27.502316,27.458763,27.416292,27.378458,27.34718,27.322996,27.304905,27.290388,27.279778,27.271091,27.262035,27.252613,27.244774,27.238876,27.236067,27.237106,27.2403,27.243557,27.244867,27.242805,27.238003,27.230541,27.218597,27.204166,27.190104,27.179272,27.17421,27.175823,27.181198,27.193428,27.210514,27.231693,27.25459,27.275013,27.291084,27.303402,27.312094,27.317825,27.321335,27.323505,27.325996,27.330257,27.334549,27.339119,27.341803,27.341614,27.33825,27.33272,27.327065,27.322985,27.322546,27.326908,27.33754,27.35302,27.37167,27.391743,27.408699,27.42015,27.425085,27.42561,27.423914,27.421085,27.417624,27.414207,27.41159,27.409319,27.408445,27.40934,27.411879,27.415327,27.418575,27.421535,27.42566,27.431536,27.439865,27.450668,27.462479,27.473814,27.485695,27.498503,27.511772,27.523287,27.532043,27.53873,27.544912,27.552374,27.563337,27.580505,27.604551,27.635641,27.670864,27.7041,27.729729,27.745987,27.751257,27.746075,27.729286,27.701519,27.665386,27.623856,27.581745,27.541996,27.506868,27.47688,27.448555,27.4194,27.39148,27.367146,27.345917,27.327557,27.312824,27.301132,27.292465,27.287315,27.28405,27.283524,27.283459,27.282104,27.277817,27.27044,27.261272,27.251862,27.243404,27.235615,27.23213,27.233294,27.238464,27.245565,27.250624,27.253717,27.253246,27.247967,27.234901,27.217249,27.200798,27.187721,27.179596,27.175121,27.17182,27.16708,27.156834,27.139673,27.11974,27.10345,27.088078,27.069536,27.048336,27.027431,27.015423,27.024837,27.061544,27.112244,27.157066,27.174416,27.141813,27.077942,27.025482,27.000385,26.99372,27.000145,27.002026,26.998936,27.003174,27.020966,27.042404,27.050983,27.029224,26.971405,26.889042,26.809412,26.755005,26.72961,26.72431,26.715378,26.704765,26.686934,26.655067,26.610382,26.559156,26.502983,26.442013,26.37599,26.308054,26.241104,26.172867,26.101702,26.036657,25.998049,25.969559,25.966167,25.982246,26.01183,26.027767,25.996555,25.962585,25.869047,26.091953,26.253578,25.41034
23.697239,23.698101,23.700336,23.703669,23.70671,23.709232,23.710968,23.713333,23.717485,23.723955,23.732567,23.741796,23.75103,23.759178,23.765476,23.770094,23.773785,23.77707,23.779934,23.784605,23.791819,23.802425,23.816227,23.832212,23.849247,23.866325,23.8835,23.90173,23.91956,23.935398,23.948051,23.957117,23.963104,23.967854,23.972641,23.978882,23.986986,23.998066,24.012974,24.03114,24.05132,24.074188,24.099123,24.124779,24.151594,24.18023,24.210598,24.24244,24.276978,24.315691,24.35736,24.40054,24.44352,24.485088,24.525446,24.567978,24.62053,24.686634,24.768412,24.86339,24.965996,25.071259,25.176645,25.293373,25.427616,25.564049,25.696701,25.827515,25.954647,26.077911,26.206192,26.341557,26.478127,26.60969,26.7309,26.838623,26.93293,27.020042,27.105564,27.186636,27.260042,27.322155,27.370228,27.404053,27.426464,27.439243,27.443764,27.442064,27.435078,27.422981,27.406097,27.384304,27.356586,27.325287,27.293825,27.265965,27.243402,27.225111,27.210068,27.195906,27.180946,27.165611,27.149181,27.130466,27.10909,27.085346,27.056877,27.02393,26.9887,26.954548,26.924686,26.90102,26.883862,26.871944,26.862991,26.85679,26.85127,26.844376,26.836388,26.829391,26.823936,26.821268,26.822098,26.824818,26.827522,26.82838,26.826103,26.821316,26.814173,26.802948,26.789673,26.777061,26.76765,26.763721,26.76641,26.774834,26.790092,26.809917,26.83273,26.85596,26.876152,26.89172,26.902721,26.909592,26.913473,26.915745,26.917274,26.919468,26.923904,26.928593,26.933521,26.936016,26.934757,26.929403,26.921099,26.912254,26.905361,26.902805,26.905704,26.915577,26.930555,26.948635,26.968096,26.984272,26.996391,27.001364,27.001114,26.998528,26.995153,26.991343,26.987614,26.984528,26.981438,26.979246,26.978256,26.978283,26.97869,26.97865,26.978191,26.97866,26.980728,26.98526,26.992573,27.001625,27.011265,27.022491,27.035397,27.049238,27.061436,27.070679,27.077568,27.083736,27.090973,27.10138,27.117336,27.139309,27.167606,27.199764,27.230646,27.256062,27.274498,27.28517,27.287954,27.28062,27.26235,27.23427,27.19862,27.161007,27.12325,27.087667,27.05493,27.02235,26.988413,26.955711,26.926876,26.900978,26.877422,26.857199,26.840096,26.82647,26.817055,26.810175,26.806383,26.803005,26.797802,26.78902,26.7766,26.762085,26.747477,26.733904,26.720753,26.712204,26.70818,26.707932,26.709955,26.710817,26.711136,26.709593,26.705288,26.694698,26.680578,26.668354,26.659605,26.65562,26.654995,26.655758,26.653831,26.645134,26.629147,26.609673,26.591654,26.573164,26.552532,26.530127,26.510105,26.500557,26.510792,26.544937,26.593628,26.642073,26.670933,26.664463,26.63379,26.605486,26.591412,26.586773,26.58812,26.582706,26.571053,26.563133,26.560352,26.552197,26.535334,26.499239,26.44303,26.378082,26.318054,26.27731,26.263641,26.266373,26.270672,26.267876,26.245941,26.206509,26.157597,26.104996,26.054062,26.004425,25.950832,25.904026,25.873558,25.83317,25.765976,25.706997,25.660805,25.64898,25.636536,25.633244,25.627262,25.602234,25.565392,25.487091,25.37711,25.493599,25.553358,24.46999
23.320152,23.32155,23.324123,23.327755,23.331078,23.334127,23.336874,23.340818,23.346989,23.355644,23.36628,23.377174,23.387634,23.396673,23.403393,23.407925,23.411118,23.413706,23.415869,23.419819,23.426176,23.435682,23.447994,23.462093,23.476984,23.491863,23.506811,23.522732,23.538246,23.551899,23.562572,23.569845,23.574245,23.577894,23.582054,23.588593,23.598186,23.611681,23.629452,23.650654,23.673962,23.700422,23.729805,23.760891,23.793655,23.827982,23.863075,23.89824,23.93499,23.974857,24.016876,24.060585,24.105122,24.149933,24.196018,24.246864,24.311218,24.392576,24.492416,24.606997,24.729624,24.855099,24.981815,25.114895,25.251581,25.388128,25.523365,25.657042,25.787285,25.910412,26.035786,26.165089,26.291939,26.409895,26.513905,26.601707,26.674644,26.738762,26.798828,26.853045,26.899101,26.93476,26.958954,26.972473,26.977814,26.975403,26.966742,26.953974,26.938156,26.919819,26.899633,26.876991,26.850193,26.82112,26.792404,26.766977,26.746052,26.72855,26.713589,26.698856,26.682995,26.666912,26.650764,26.634113,26.616865,26.599152,26.578568,26.554913,26.52974,26.505527,26.484966,26.46979,26.460075,26.454481,26.45092,26.448765,26.44597,26.440876,26.434044,26.427639,26.42247,26.41975,26.42014,26.422287,26.424524,26.425238,26.423317,26.419329,26.413506,26.404247,26.393429,26.383625,26.37742,26.376865,26.382286,26.393318,26.410608,26.431166,26.45327,26.474842,26.492954,26.506252,26.515247,26.520401,26.522604,26.523624,26.524616,26.526821,26.531551,26.536724,26.542074,26.544746,26.542995,26.536388,26.526413,26.51584,26.507149,26.502888,26.50414,26.512484,26.525768,26.541801,26.559029,26.573032,26.583813,26.587872,26.58663,26.583174,26.579338,26.575375,26.571598,26.568428,26.564999,26.56205,26.559727,26.557693,26.555378,26.552273,26.54851,26.545303,26.543423,26.543835,26.5472,26.552937,26.560194,26.570011,26.58201,26.595226,26.606924,26.615726,26.622316,26.628376,26.635563,26.645576,26.660294,26.679832,26.704552,26.73248,26.759571,26.782999,26.80158,26.815254,26.823486,26.823677,26.81392,26.79385,26.764832,26.73235,26.696926,26.660725,26.624401,26.586464,26.546812,26.508585,26.474716,26.443722,26.414799,26.389233,26.3672,26.349394,26.336649,26.326933,26.320473,26.314259,26.305515,26.292427,26.275158,26.255611,26.23631,26.218315,26.200909,26.188309,26.18002,26.175262,26.173056,26.170479,26.168613,26.1665,26.163435,26.155476,26.144693,26.135902,26.130363,26.129585,26.131844,26.135674,26.137545,26.132729,26.12024,26.103754,26.086716,26.068039,26.04533,26.021454,26.003445,25.99849,26.011833,26.045181,26.090359,26.135147,26.163574,26.165403,26.148872,26.13186,26.123125,26.120636,26.121363,26.11369,26.096975,26.078686,26.061386,26.03945,26.01044,25.967957,25.914148,25.860367,25.817558,25.792717,25.786716,25.79166,25.797363,25.793598,25.768192,25.72483,25.67332,25.619709,25.569403,25.522736,25.474266,25.43657,25.416075,25.398949,25.36893,25.328022,25.274893,25.2325,25.225883,25.231567,25.206415,25.15688,25.114267,25.012936,24.909292,24.903091,24.903744,23.51399
22.956274,22.957468,22.959831,22.963326,22.966461,22.969547,22.972782,22.977795,22.985512,22.99588,23.008083,23.020172,23.031431,23.041054,23.048107,23.0527,23.05577,23.058243,23.06046,23.064568,23.071068,23.080471,23.092136,23.104937,23.118073,23.131115,23.144276,23.158514,23.172647,23.185347,23.195545,23.202747,23.207365,23.21159,23.21675,23.224976,23.23716,23.253826,23.27486,23.299168,23.325361,23.35487,23.388012,23.423811,23.461967,23.501793,23.541874,23.581066,23.62111,23.663872,23.708652,23.755941,23.805595,23.857498,23.913126,23.97592,24.05558,24.155376,24.275732,24.412628,24.55766,24.70073,24.835377,24.97216,25.108086,25.246521,25.386265,25.521389,25.647875,25.763863,25.878464,25.99279,26.100513,26.195797,26.27472,26.336334,26.383175,26.42073,26.452782,26.478832,26.497768,26.5088,26.512297,26.509634,26.502548,26.490427,26.474648,26.457035,26.438318,26.418966,26.399708,26.379448,26.355984,26.330679,26.305397,26.282524,26.263252,26.246826,26.232574,26.21832,26.20287,26.187468,26.172928,26.15947,26.147278,26.136303,26.124134,26.110233,26.095472,26.081472,26.070263,26.063269,26.06037,26.060314,26.061209,26.062132,26.061216,26.057259,26.051105,26.04499,26.039913,26.03701,26.036875,26.038528,26.040598,26.041697,26.040916,26.03867,26.035246,26.029196,26.022026,26.016125,26.013985,26.017399,26.026308,26.039356,26.057018,26.076155,26.095287,26.113018,26.127274,26.137285,26.143814,26.147285,26.14843,26.1489,26.149857,26.15241,26.157494,26.163017,26.168568,26.171526,26.170116,26.16409,26.154448,26.1432,26.133839,26.128582,26.128288,26.134384,26.14489,26.15788,26.17201,26.183233,26.191471,26.193253,26.190643,26.1865,26.18236,26.178463,26.174927,26.172049,26.168823,26.165812,26.162926,26.15963,26.155422,26.150063,26.1437,26.137516,26.132227,26.128849,26.128353,26.130604,26.135023,26.142725,26.15284,26.164211,26.1742,26.181587,26.187275,26.193016,26.200119,26.209764,26.223223,26.240152,26.260921,26.284054,26.306528,26.326689,26.3437,26.358055,26.369108,26.374435,26.371452,26.358488,26.335958,26.30846,26.275394,26.238451,26.198217,26.154533,26.108843,26.064854,26.025871,25.98976,25.955788,25.925537,25.899464,25.878506,25.863441,25.8517,25.84323,25.834717,25.822968,25.806164,25.78474,25.761002,25.738022,25.71681,25.696644,25.681732,25.671032,25.66357,25.658777,25.654224,25.651272,25.649437,25.648073,25.642986,25.635399,25.62933,25.625973,25.627449,25.631649,25.63772,25.642864,25.641838,25.633049,25.619843,25.604355,25.586731,25.565739,25.545242,25.531704,25.531546,25.548674,25.581966,25.622572,25.660034,25.68201,25.681023,25.665462,25.650743,25.642967,25.641132,25.642103,25.634504,25.61654,25.593678,25.569721,25.543175,25.511806,25.47068,25.422043,25.37595,25.3425,25.325117,25.320517,25.3233,25.323164,25.313768,25.287361,25.244644,25.193214,25.140509,25.090565,25.044762,24.99855,24.963484,24.942255,24.93172,24.921078,24.892147,24.834473,24.75775,24.750053,24.757149,24.750885,24.733692,24.671139,24.57224,24.484768,24.39306,24.303616,22.720058
22.610298,22.610878,22.612831,22.616112,22.619003,22.6221,22.625751,22.631744,22.640888,22.652834,22.66647,22.679653,22.691744,22.702103,22.709843,22.715052,22.718708,22.721872,22.724976,22.730091,22.737656,22.747856,22.759727,22.771976,22.784008,22.795826,22.807907,22.821365,22.835365,22.848724,22.860374,22.869661,22.876684,22.883348,22.891169,22.902237,22.91756,22.937466,22.961472,22.988348,23.016682,23.048225,23.083931,23.123127,23.165604,23.21046,23.255915,23.300453,23.34597,23.39492,23.446697,23.502285,23.561844,23.625286,23.694063,23.77142,23.867924,23.986313,24.127512,24.282986,24.438452,24.583221,24.71273,24.845383,24.985413,25.126974,25.264107,25.392323,25.50779,25.609547,25.706436,25.799015,25.881664,25.949818,26.001114,26.035961,26.05768,26.070805,26.07812,26.080238,26.077168,26.06928,26.05785,26.04441,26.029835,26.012741,25.994259,25.975647,25.957127,25.93903,25.922064,25.904854,25.884947,25.8633,25.841175,25.820639,25.8031,25.78824,25.775547,25.763012,25.74953,25.736406,25.72478,25.715294,25.708324,25.703638,25.698902,25.693405,25.687428,25.681938,25.678373,25.677761,25.67984,25.683521,25.687157,25.689663,25.68954,25.686043,25.680225,25.674313,25.669353,25.666443,25.6661,25.667704,25.670208,25.672443,25.673632,25.673975,25.67382,25.671818,25.668976,25.66732,25.668816,25.674858,25.685772,25.699694,25.716179,25.732624,25.747738,25.7607,25.77061,25.777416,25.781464,25.783182,25.783522,25.783894,25.785137,25.788147,25.793695,25.799658,25.805622,25.80923,25.808952,25.80472,25.797024,25.786966,25.778025,25.772648,25.771366,25.775284,25.782825,25.792465,25.80308,25.81132,25.817167,25.816559,25.81269,25.808147,25.803951,25.800407,25.79746,25.795322,25.792957,25.790768,25.788427,25.78521,25.78062,25.774586,25.767172,25.759579,25.752293,25.74627,25.742685,25.74175,25.743193,25.748262,25.755709,25.764288,25.77164,25.776848,25.78109,25.786175,25.792913,25.80197,25.814037,25.828325,25.845182,25.863613,25.881428,25.897882,25.912434,25.925917,25.937784,25.945974,25.947586,25.940037,25.922867,25.899471,25.868404,25.83075,25.786924,25.73795,25.686615,25.637115,25.593208,25.552208,25.51371,25.479622,25.450542,25.427483,25.411037,25.398087,25.388437,25.37859,25.36517,25.346348,25.322723,25.296894,25.272306,25.249907,25.22914,25.214075,25.203094,25.194954,25.189316,25.184105,25.180853,25.179575,25.179642,25.176834,25.171875,25.168182,25.166912,25.170555,25.176716,25.1852,25.192827,25.194412,25.188461,25.177559,25.162868,25.145836,25.127834,25.112167,25.103989,25.1088,25.129015,25.160963,25.195263,25.223606,25.236574,25.22979,25.212402,25.197834,25.18974,25.186707,25.185753,25.177109,25.159153,25.136219,25.111012,25.082493,25.050787,25.01183,24.96768,24.926453,24.894516,24.87451,24.865646,24.862938,24.856903,24.843136,24.815838,24.77476,24.726036,24.676739,24.630306,24.588133,24.546051,24.515932,24.502075,24.492718,24.474644,24.444532,24.384186,24.30041,24.264854,24.260134,24.300694,24.3406,24.26537,24.179115,24.105583,23.98563,23.693375,22.06347
22.288242,22.288082,22.289639,22.292835,22.29572,22.29908,22.30342,22.310629,22.321396,22.335075,22.350292,22.36481,22.378105,22.389683,22.39872,22.40524,22.410208,22.414755,22.4193,22.425882,22.434963,22.446407,22.458956,22.471207,22.482714,22.49382,22.505423,22.518843,22.53373,22.549105,22.563864,22.577078,22.588318,22.598925,22.610636,22.625237,22.64374,22.66643,22.692726,22.721395,22.75106,22.783699,22.82087,22.86229,22.908161,22.957794,23.00935,23.061096,23.114971,23.174215,23.237965,23.307007,23.381227,23.46006,23.544403,23.63725,23.749897,23.884743,24.03925,24.19772,24.343496,24.475008,24.602583,24.734348,24.870146,25.003738,25.129135,25.241905,25.339355,25.421661,25.49689,25.565184,25.622135,25.664688,25.691902,25.705097,25.707783,25.703295,25.693441,25.679495,25.662266,25.642822,25.622765,25.603498,25.585167,25.565784,25.546253,25.527218,25.508602,25.490784,25.474556,25.458652,25.4407,25.42149,25.40192,25.383797,25.368635,25.356403,25.346508,25.337183,25.32738,25.318092,25.310394,25.305092,25.302633,25.302668,25.303108,25.303232,25.302902,25.30275,25.303823,25.306797,25.311323,25.316467,25.320786,25.323284,25.322964,25.319511,25.31403,25.308575,25.304098,25.301647,25.301693,25.30391,25.307545,25.311607,25.315338,25.31877,25.322296,25.324583,25.326149,25.32846,25.332954,25.340582,25.351612,25.364489,25.378685,25.391867,25.40305,25.411987,25.418392,25.422426,25.424511,25.42492,25.424503,25.424622,25.426014,25.429424,25.435577,25.442297,25.449245,25.454124,25.455359,25.452663,25.447123,25.440145,25.432484,25.427795,25.4263,25.428768,25.4338,25.440296,25.44766,25.45323,25.456913,25.455233,25.450848,25.446125,25.442165,25.439247,25.437178,25.436188,25.435265,25.43473,25.434097,25.43246,25.429256,25.424435,25.417908,25.410866,25.403454,25.396416,25.390963,25.387543,25.38621,25.388474,25.392826,25.398117,25.402386,25.405064,25.407574,25.41167,25.417694,25.42582,25.436302,25.448053,25.461391,25.475742,25.489586,25.502712,25.514862,25.526955,25.538532,25.547903,25.552078,25.547972,25.534557,25.514065,25.484491,25.446373,25.399847,25.346714,25.290718,25.236385,25.187918,25.142399,25.099932,25.062763,25.031574,25.00726,24.99015,24.976715,24.966738,24.956785,24.943562,24.925135,24.902042,24.876976,24.853365,24.832119,24.813036,24.799883,24.790558,24.783524,24.77847,24.773464,24.770245,24.769215,24.769867,24.768303,24.765,24.762924,24.76321,24.768478,24.77621,24.786701,24.796598,24.800869,24.798016,24.789944,24.777054,24.761368,24.743471,24.727764,24.722301,24.731009,24.751484,24.779388,24.805885,24.825207,24.830452,24.81932,24.800697,24.785782,24.776363,24.770985,24.766747,24.755608,24.736319,24.712349,24.685703,24.65574,24.623516,24.585604,24.543818,24.504805,24.47277,24.448952,24.433155,24.422802,24.41019,24.391474,24.362356,24.324017,24.28121,24.238102,24.197464,24.16082,24.124792,24.10054,24.092487,24.090708,24.079441,24.04869,23.98774,23.900175,23.827412,23.82312,23.90038,23.965624,23.912197,23.83712,23.770746,23.692394,23.124765,21.462633
21.99855,21.997723,21.998997,22.00228,22.00535,22.009151,22.014324,22.02279,22.035141,22.050507,22.067291,22.083193,22.097822,22.110855,22.121475,22.129627,22.136242,22.142448,22.148642,22.15684,22.167547,22.180351,22.193745,22.206253,22.21752,22.228174,22.239552,22.253218,22.26936,22.287209,22.30559,22.323273,22.339277,22.35427,22.370148,22.388302,22.409676,22.434668,22.4628,22.4929,22.523674,22.557285,22.595804,22.63926,22.688438,22.743162,22.801714,22.862204,22.926565,22.998821,23.077625,23.16306,23.254345,23.350178,23.450489,23.558128,23.685238,23.835224,23.980883,24.11752,24.254673,24.384205,24.506672,24.630543,24.7546,24.872545,24.978937,25.070404,25.145657,25.205986,25.258362,25.302692,25.335888,25.356403,25.364445,25.361761,25.351538,25.335829,25.315605,25.2924,25.267529,25.242386,25.218563,25.19719,25.177738,25.157972,25.138464,25.119373,25.10046,25.082233,25.065645,25.049757,25.032404,25.014435,24.99657,24.980404,24.967487,24.957973,24.951141,24.9455,24.939941,24.93502,24.93148,24.930069,24.931232,24.934551,24.938265,24.941721,24.9446,24.947323,24.950695,24.955162,24.960297,24.965317,24.968866,24.970303,24.969143,24.965422,24.960209,24.95528,24.9514,24.949493,24.95008,24.953098,24.958027,24.963993,24.970242,24.976662,24.983624,24.989857,24.99535,25.001024,25.007832,25.0164,25.026989,25.0383,25.049725,25.05941,25.066788,25.072094,25.075542,25.077461,25.078184,25.077848,25.077229,25.07756,25.079311,25.083107,25.089834,25.09715,25.10483,25.110838,25.113743,25.113247,25.109879,25.104542,25.098995,25.095654,25.094551,25.096087,25.099123,25.103043,25.107712,25.111135,25.113274,25.111942,25.107744,25.103012,25.099495,25.097336,25.096273,25.096565,25.09731,25.098822,25.100475,25.101223,25.100431,25.097956,25.093521,25.08834,25.082146,25.075386,25.069155,25.064081,25.06054,25.06029,25.06172,25.063898,25.065327,25.065754,25.066729,25.069912,25.075222,25.082458,25.09159,25.101295,25.111845,25.123014,25.133762,25.144093,25.15406,25.164486,25.174988,25.184277,25.189457,25.187214,25.176239,25.157745,25.129532,25.091557,25.043678,24.988066,24.928955,24.871101,24.819057,24.769878,24.724308,24.684902,24.652336,24.627304,24.609867,24.59631,24.58643,24.577038,24.565048,24.548403,24.527473,24.504856,24.483753,24.465076,24.448988,24.438925,24.432384,24.427542,24.423943,24.419693,24.416706,24.415684,24.416332,24.415201,24.412685,24.41145,24.412659,24.41881,24.427555,24.439434,24.451042,24.457624,24.457653,24.452394,24.441761,24.42804,24.411388,24.396328,24.390217,24.39618,24.411901,24.433743,24.45296,24.464838,24.464544,24.451393,24.433167,24.418196,24.4067,24.397831,24.388788,24.373732,24.352108,24.326702,24.298738,24.26752,24.234589,24.197266,24.15731,24.120567,24.089626,24.063114,24.040352,24.02348,24.005789,23.983967,23.955027,23.919506,23.881208,23.843864,23.809193,23.77852,23.74855,23.729488,23.725513,23.72726,23.71931,23.691307,23.63249,23.543715,23.465954,23.449482,23.518604,23.607414,23.609455,23.54299,23.481644,23.440235,22.669312,20.997513
21.715134,21.713507,21.714369,21.71761,21.720798,21.724945,21.730795,21.740297,21.753967,21.770802,21.789082,21.806448,21.82261,21.837343,21.849781,21.859821,21.868301,21.876286,21.884125,21.89382,21.905943,21.919891,21.934011,21.946787,21.957958,21.968393,21.979807,21.99401,22.011635,22.032091,22.054148,22.076294,22.096973,22.116165,22.135967,22.157295,22.181015,22.207874,22.237705,22.26944,22.301895,22.337292,22.378263,22.425035,22.479065,22.540863,22.60889,22.681051,22.759335,22.848528,22.946468,23.05186,23.16279,23.277935,23.397284,23.521595,23.644258,23.77431,23.907976,24.041264,24.171322,24.29189,24.402409,24.510506,24.614393,24.708603,24.788914,24.853506,24.902767,24.938978,24.967564,24.988363,24.999683,25.0012,24.99385,24.979382,24.960304,24.937504,24.911152,24.882885,24.854301,24.826904,24.802055,24.780544,24.761375,24.742094,24.723038,24.704067,24.684937,24.66636,24.649483,24.633633,24.616993,24.600348,24.584309,24.570274,24.55973,24.55289,24.549015,24.546825,24.545254,24.544445,24.5448,24.546871,24.551039,24.5569,24.56293,24.56866,24.573616,24.578117,24.58278,24.587791,24.592695,24.596899,24.599178,24.599228,24.597057,24.592987,24.588017,24.58362,24.580345,24.57905,24.580288,24.584156,24.590357,24.598133,24.606653,24.615644,24.625515,24.635067,24.64384,24.652227,24.660748,24.669743,24.679482,24.689148,24.698109,24.704065,24.707039,24.708382,24.708977,24.70913,24.708858,24.708206,24.707695,24.70774,24.70904,24.712887,24.719944,24.727947,24.736912,24.744535,24.749294,24.750654,24.749275,24.746506,24.74376,24.742264,24.74187,24.743011,24.744812,24.746803,24.74915,24.750782,24.751759,24.749966,24.747147,24.7444,24.741993,24.740337,24.740164,24.741776,24.744215,24.747812,24.751862,24.755253,24.757294,24.757704,24.756063,24.753544,24.749395,24.743696,24.737514,24.731548,24.726273,24.723774,24.722511,24.721851,24.72074,24.719242,24.71896,24.721317,24.725895,24.732258,24.740135,24.748081,24.7563,24.764772,24.772764,24.780415,24.788078,24.796524,24.805447,24.81397,24.8194,24.818382,24.809422,24.792904,24.766485,24.729694,24.682014,24.625618,24.564856,24.504559,24.449673,24.39736,24.349007,24.307556,24.273605,24.247562,24.229324,24.215164,24.205063,24.19622,24.186018,24.172268,24.15497,24.136349,24.11913,24.104208,24.092022,24.085648,24.082363,24.080051,24.078003,24.074411,24.071434,24.069962,24.070122,24.069016,24.067059,24.066612,24.068644,24.075422,24.08485,24.097672,24.11064,24.11941,24.122429,24.12031,24.112526,24.101429,24.086727,24.072678,24.065708,24.068333,24.078247,24.091995,24.101978,24.104942,24.097916,24.08167,24.062859,24.047443,24.034697,24.02341,24.011013,23.993227,23.970018,23.943783,23.915333,23.883987,23.851345,23.814735,23.77557,23.73824,23.704325,23.674366,23.649693,23.629616,23.607529,23.583145,23.555054,23.523235,23.49057,23.460163,23.432606,23.408985,23.386284,23.374557,23.37344,23.372112,23.360384,23.333443,23.278294,23.194685,23.116943,23.071968,23.141575,23.284843,23.316359,23.25597,23.197273,23.18045,22.318089,20.670662
21.4351,21.432499,21.432682,21.435524,21.438572,21.442753,21.448849,21.458817,21.473225,21.491089,21.51061,21.529356,21.547112,21.5637,21.578144,21.59026,21.60076,21.610565,21.619997,21.631075,21.644413,21.659369,21.674215,21.687433,21.698872,21.709553,21.721478,21.73666,21.756073,21.77924,21.804817,21.831083,21.85613,21.879261,21.902782,21.927235,21.953373,21.982384,22.014553,22.048937,22.084494,22.123476,22.168997,22.221363,22.282671,22.354137,22.434483,22.521315,22.616753,22.726166,22.845833,22.974604,23.110329,23.241611,23.35463,23.469477,23.586372,23.708118,23.834286,23.95937,24.076008,24.17959,24.27013,24.354004,24.429379,24.4925,24.541107,24.57525,24.596912,24.60905,24.615158,24.615196,24.608639,24.595987,24.578415,24.557257,24.534111,24.508839,24.48096,24.451992,24.423641,24.397306,24.373947,24.35397,24.336056,24.31771,24.29911,24.280033,24.2604,24.241203,24.223782,24.20779,24.19168,24.176273,24.16211,24.15034,24.14227,24.138092,24.136969,24.137917,24.139921,24.142784,24.146524,24.151459,24.157871,24.165348,24.172699,24.17957,24.185429,24.190525,24.195286,24.199738,24.203476,24.206085,24.206554,24.204952,24.201738,24.197414,24.192825,24.18912,24.186584,24.186012,24.187971,24.19281,24.20037,24.209822,24.220207,24.231216,24.243217,24.255074,24.266201,24.276604,24.286362,24.295586,24.304443,24.310778,24.315414,24.317574,24.316702,24.314178,24.311884,24.309975,24.30835,24.30689,24.305996,24.306252,24.308107,24.312387,24.319708,24.327925,24.337318,24.345755,24.351934,24.355377,24.356655,24.356867,24.356852,24.357891,24.359383,24.361248,24.362701,24.363781,24.36523,24.366392,24.366621,24.36457,24.362278,24.360779,24.36042,24.361427,24.363483,24.36605,24.36966,24.374828,24.380983,24.386993,24.392017,24.395605,24.397205,24.398,24.396626,24.39293,24.387722,24.381628,24.375378,24.371069,24.367561,24.36449,24.361248,24.358215,24.356976,24.358673,24.362581,24.36812,24.374943,24.38158,24.3881,24.39457,24.400463,24.405945,24.411638,24.418236,24.4255,24.432934,24.438118,24.437845,24.430597,24.41617,24.392212,24.357937,24.312319,24.257145,24.196522,24.135174,24.078333,24.02354,23.972742,23.9292,23.893532,23.866009,23.846352,23.830902,23.81997,23.811363,23.803179,23.793133,23.780666,23.767323,23.755127,23.744797,23.737072,23.734558,23.734474,23.734514,23.733664,23.730179,23.726654,23.723991,23.722958,23.721313,23.719528,23.719639,23.722324,23.729437,23.739239,23.752579,23.766556,23.777336,23.783354,23.784618,23.78017,23.772308,23.760258,23.747612,23.73964,23.73841,23.742018,23.747433,23.748745,23.744066,23.732025,23.714293,23.696007,23.680798,23.66727,23.65392,23.638489,23.618015,23.59305,23.565887,23.537115,23.506008,23.474136,23.438494,23.400059,23.3619,23.324966,23.290718,23.261896,23.238125,23.215126,23.190994,23.164658,23.136719,23.110146,23.087347,23.06782,23.05246,23.037334,23.02806,23.026554,23.025518,23.015583,22.991756,22.939968,22.859695,22.780378,22.720755,22.782652,22.950773,23.025608,22.974346,22.921583,22.87939,21.985792,20.424377
21.164621,21.16089,21.160011,21.16189,21.16416,21.167562,21.172905,21.182182,21.196133,21.213943,21.23384,21.253315,21.272205,21.290298,21.3065,21.320538,21.333015,21.344673,21.355816,21.368443,21.383257,21.39969,21.415968,21.430534,21.44327,21.455227,21.468525,21.485382,21.506884,21.532564,21.56097,21.59037,21.61888,21.645481,21.672676,21.700888,21.730633,21.7635,21.800285,21.840126,21.882015,21.928364,21.98251,22.044598,22.116959,22.201233,22.296173,22.398882,22.511656,22.640987,22.784332,22.925133,23.057858,23.182676,23.289055,23.393879,23.505724,23.621899,23.737085,23.845394,23.941528,24.022018,24.087658,24.143373,24.187859,24.219437,24.237885,24.244751,24.242996,24.235737,24.224468,24.209297,24.190489,24.168861,24.145462,24.121124,24.096682,24.071201,24.043808,24.0159,23.989168,23.964859,23.943623,23.925531,23.909111,23.891964,23.874191,23.855652,23.836464,23.81771,23.800758,23.785532,23.770638,23.756927,23.74488,23.735382,23.729511,23.727425,23.728306,23.731419,23.735893,23.741318,23.747414,23.754269,23.762054,23.770319,23.77819,23.785398,23.791386,23.796314,23.800468,23.803806,23.80602,23.80688,23.805637,23.802668,23.798725,23.794395,23.790398,23.787651,23.786133,23.78661,23.78969,23.795065,23.802465,23.811691,23.822308,23.83384,23.84651,23.859375,23.871275,23.881744,23.890753,23.898441,23.904995,23.908638,23.909964,23.909008,23.905735,23.901415,23.89772,23.89492,23.892822,23.891258,23.890594,23.89164,23.894463,23.899273,23.9067,23.91473,23.923878,23.932419,23.939445,23.94464,23.948303,23.951015,23.953196,23.95626,23.959309,23.961826,23.963106,23.963621,23.96453,23.9655,23.966114,23.965069,23.9641,23.964241,23.966099,23.969591,23.973488,23.978096,23.984066,23.99154,23.999332,24.00679,24.013884,24.019974,24.024418,24.028101,24.029537,24.028296,24.024727,24.019321,24.013054,24.00787,24.002995,23.99837,23.993694,23.989674,23.987864,23.989067,23.992445,23.997303,24.003353,24.009205,24.014778,24.020128,24.024815,24.028881,24.03321,24.038433,24.044308,24.050705,24.05561,24.05605,24.050585,24.038685,24.018108,23.987923,23.946548,23.895094,23.83708,23.776913,23.719889,23.66409,23.61168,23.566309,23.528704,23.498928,23.476728,23.45899,23.446249,23.436975,23.42989,23.422728,23.414425,23.40579,23.398064,23.391727,23.387691,23.388023,23.390064,23.391459,23.390953,23.387003,23.38259,23.378418,23.375893,23.373264,23.371048,23.371037,23.373585,23.380156,23.389406,23.402145,23.415993,23.42773,23.435875,23.440002,23.438805,23.434376,23.425648,23.415339,23.407597,23.40417,23.403534,23.403135,23.398754,23.389517,23.375101,23.357632,23.340815,23.326408,23.31278,23.29834,23.281157,23.259327,23.233822,23.206825,23.178795,23.149008,23.11885,23.08501,23.048061,23.00985,22.970842,22.93264,22.898602,22.870014,22.844387,22.818964,22.79364,22.76918,22.747932,22.731525,22.718582,22.709385,22.700438,22.695213,22.696388,22.698586,22.692795,22.672943,22.624714,22.547709,22.467295,22.404118,22.44242,22.605389,22.750221,22.704979,22.657906,22.56646,21.68295,20.24328
20.907242,20.902351,20.900133,20.90052,20.901333,20.903063,20.906574,20.913956,20.926151,20.942642,20.961834,20.98111,21.000374,21.019295,21.036705,21.052307,21.066574,21.080088,21.093094,21.107578,21.124355,21.143005,21.1617,21.178802,21.194141,21.208643,21.224384,21.24385,21.268002,21.296225,21.327026,21.35888,21.390259,21.420265,21.45166,21.484993,21.520435,21.559814,21.604336,21.653143,21.705105,21.762957,21.829988,21.905872,21.992622,22.091743,22.201834,22.319576,22.448606,22.589222,22.734749,22.866655,22.98167,23.090813,23.195267,23.295202,23.396982,23.498087,23.593828,23.679245,23.750376,23.805304,23.845448,23.874374,23.891651,23.89746,23.893085,23.880806,23.863655,23.84437,23.822823,23.799164,23.774044,23.748192,23.722328,23.696917,23.6723,23.647156,23.620426,23.593487,23.56797,23.545055,23.52525,23.508469,23.493202,23.477224,23.460663,23.443558,23.426134,23.409353,23.394379,23.381157,23.368462,23.357075,23.347385,23.340055,23.335928,23.335152,23.337055,23.341133,23.346722,23.35335,23.360569,23.368301,23.376606,23.384985,23.392818,23.399889,23.405615,23.410065,23.413437,23.415672,23.416628,23.416243,23.414032,23.410515,23.406569,23.402832,23.399591,23.39714,23.395733,23.395884,23.39849,23.40306,23.409323,23.417397,23.427073,23.437801,23.449661,23.46191,23.47311,23.482553,23.490158,23.496021,23.50034,23.502892,23.5031,23.500748,23.496859,23.49275,23.489252,23.486792,23.485096,23.484116,23.484257,23.48616,23.489685,23.494858,23.502213,23.509905,23.518583,23.526861,23.534164,23.54026,23.54528,23.5495,23.553082,23.557236,23.560982,23.563744,23.564936,23.565138,23.565609,23.566364,23.567745,23.567986,23.568634,23.570368,23.573456,23.577812,23.582582,23.589115,23.59716,23.606672,23.616377,23.626057,23.635727,23.644035,23.650692,23.656464,23.660076,23.660978,23.659168,23.654957,23.649376,23.644283,23.63898,23.633648,23.628242,23.623737,23.621626,23.622452,23.625406,23.629692,23.635218,23.640707,23.64598,23.651054,23.655445,23.658985,23.662666,23.667198,23.672249,23.678028,23.682959,23.684345,23.680893,23.671944,23.655445,23.630497,23.594997,23.549297,23.496124,23.439312,23.38402,23.328842,23.27575,23.22892,23.189213,23.15653,23.130901,23.109959,23.094227,23.082829,23.075237,23.0693,23.06343,23.057709,23.05281,23.048939,23.046967,23.048431,23.05095,23.052269,23.051035,23.046074,23.040615,23.034985,23.031048,23.027233,23.024096,23.023296,23.024881,23.03008,23.037788,23.048775,23.061232,23.072584,23.081581,23.087605,23.089085,23.087822,23.082712,23.075647,23.069813,23.066692,23.065018,23.062407,23.05605,23.045643,23.031311,23.015364,23.00047,22.9873,22.974426,22.96032,22.943436,22.922546,22.898788,22.873997,22.848442,22.821533,22.794409,22.763489,22.729065,22.691795,22.651714,22.610558,22.571957,22.538088,22.506878,22.476849,22.449722,22.426102,22.407438,22.394932,22.386677,22.382135,22.378975,22.381039,22.3879,22.393276,22.390331,22.374023,22.3302,22.258675,22.180164,22.11615,22.126982,22.275692,22.487219,22.446907,22.409218,22.258831,21.413322,20.114136
