22.189796,22.2127,22.234177,22.252308,22.267017,22.280306,22.294441,22.309792,22.326504,22.343672,22.360592,22.376835,22.391167,22.405674,22.42057,22.433825,22.44349,22.449417,22.45318,22.456707,22.462997,22.469028,22.473225,22.474915,22.473412,22.468452,22.461075,22.453434,22.44505,22.437782,22.432081,22.428036,22.425585,22.42412,22.422478,22.419014,22.413967,22.407185,22.398668,22.388397,22.37653,22.363785,22.350342,22.336823,22.324497,22.314617,22.307472,22.302456,22.298958,22.296368,22.29461,22.29378,22.294466,22.296864,22.301159,22.307877,22.316465,22.327183,22.339294,22.350471,22.359087,22.365135,22.369518,22.373096,22.377266,22.382626,22.38881,22.395094,22.4011,22.406826,22.412151,22.417332,22.42211,22.426476,22.430584,22.43496,22.440428,22.447247,22.454166,22.460316,22.463642,22.463032,22.4594,22.45507,22.452085,22.451565,22.45351,22.45693,22.460327,22.462376,22.462715,22.46188,22.460663,22.459309,22.458117,22.45765,22.458103,22.459486,22.461662,22.464123,22.466473,22.469234,22.472853,22.477982,22.484644,22.49213,22.499695,22.507042,22.5146,22.522938,22.532505,22.543121,22.554165,22.565018,22.575047,22.584904,22.59455,22.603859,22.612152,22.619053,22.625153,22.630821,22.637333,22.644491,22.651924,22.658825,22.66386,22.66608,22.66587,22.663406,22.658672,22.652138,22.64468,22.636591,22.627731,22.618538,22.608707,22.59835,22.587383,22.576138,22.563984,22.550716,22.537754,22.524994,22.512127,22.499348,22.4878,22.477665,22.468878,22.461575,22.455057,22.450811,22.447601,22.44542,22.44318,22.440445,22.437647,22.434086,22.42955,22.421165,22.412312,22.40395,22.395615,22.38706,22.377987,22.36885,22.359692,22.35269,22.34849,22.347904,22.350727,22.354837,22.360725,22.366997,22.376522,22.389217,22.40404,22.418715,22.430965,22.442425,22.456701,22.472023,22.486778,22.50431,22.524925,22.545033,22.565737,22.577387,22.564571,22.54237,22.513243,22.47538,22.436424,22.405453,22.378008,22.350239,22.32041,22.305122,22.312012,22.32697,22.33008,22.31145,22.2398,22.078842,21.833057,21.66659,21.610859,21.4924,21.379562,21.473564,20.594755,16.757193,12.873044,11.5684,11.416967,11.450045,11.462141,11.510748,11.563321,11.565491,11.502075,11.4131565,11.34699,11.308416,11.297735,11.306566,11.31593,11.314592,11.303402,11.284728,11.255505,11.220238,11.1779995,11.140254,11.106781,11.072946,11.044043,11.0223875,11.0126705,11.037573,11.09564,11.17515,11.266941,11.3618355,11.444432,11.523214,11.637373,11.803819,11.997167,12.166143,12.273449,12.3164835,12.315331,12.276479,12.22983,12.191492,12.164051,12.143118,12.120697,12.093524,12.0595,12.024478,11.980465,11.930312,11.889343,11.86981,11.877949,11.93923,12.059078,12.198929,12.332588,12.4433,12.522118,12.595751,12.678455,12.777559,12.895584,13.018337,13.129112,13.224686,13.31068,13.386875,13.458754,13.51464,13.538351,13.582469,13.707203,13.936001,14.460423,15.556213,19.164331,22.357084,23.311607,23.259398,23.424908,23.408495,23.37017,23.515015,23.526047,23.423584,23.377441,23.336964,23.30653,23.299992,23.300663,23.304
21.922348,21.93733,21.950165,21.960516,21.968977,21.976831,21.985315,21.994757,22.005825,22.018417,22.032383,22.047115,22.060555,22.074179,22.088417,22.101208,22.110638,22.116205,22.11888,22.12027,22.122787,22.125269,22.127281,22.127483,22.124746,22.119076,22.111406,22.103306,22.094563,22.086908,22.080915,22.077007,22.075329,22.075241,22.075573,22.074749,22.072758,22.06916,22.063684,22.056278,22.047226,22.037148,22.026253,22.01516,22.00496,21.996876,21.991383,21.988111,21.986546,21.986124,21.98692,21.988934,21.99255,21.997532,22.003658,22.011272,22.019865,22.029737,22.040426,22.049906,22.056828,22.061348,22.06445,22.066992,22.070576,22.075933,22.083076,22.091475,22.100487,22.10957,22.118183,22.12637,22.13366,22.139854,22.144886,22.14924,22.153936,22.159473,22.16475,22.169022,22.170387,22.16787,22.16251,22.15666,22.152273,22.150398,22.150843,22.152493,22.153828,22.153456,22.15107,22.147434,22.143599,22.139698,22.136312,22.134296,22.13395,22.135231,22.137856,22.141104,22.144356,22.14795,22.152103,22.157236,22.163311,22.169765,22.175993,22.18182,22.187584,22.193806,22.201084,22.2094,22.218365,22.227583,22.236362,22.245182,22.253918,22.26232,22.26968,22.275723,22.281092,22.286133,22.291973,22.298437,22.30511,22.311256,22.315624,22.317284,22.316612,22.313713,22.308514,22.30157,22.29395,22.286076,22.27787,22.269753,22.261322,22.252632,22.243576,22.234406,22.224445,22.213486,22.2029,22.192532,22.182148,22.1717,22.162096,22.153385,22.145485,22.138603,22.13227,22.128014,22.12465,22.122192,22.119576,22.116375,22.11308,22.10902,22.103998,22.095211,22.085949,22.07719,22.06852,22.059734,22.050552,22.041271,22.031797,22.024174,22.018978,22.01716,22.018711,22.021622,22.026386,22.031628,22.040226,22.05223,22.066559,22.080776,22.092506,22.103333,22.11504,22.128778,22.142078,22.15577,22.171772,22.188942,22.204563,22.221699,22.225449,22.205791,22.183,22.160957,22.12532,22.086157,22.054947,22.027554,21.998247,21.981625,21.98487,21.995308,21.995743,21.975098,21.903154,21.74484,21.509441,21.357162,21.322563,21.239773,21.152391,21.251484,20.117548,16.20118,12.581734,11.545654,11.400545,11.431623,11.45277,11.504955,11.549394,11.540939,11.474373,11.389181,11.328762,11.295803,11.287776,11.296376,11.304266,11.301106,11.288118,11.268628,11.239525,11.204723,11.163086,11.125889,11.092974,11.059803,11.031831,11.01205,11.003136,11.025996,11.078343,11.151014,11.237356,11.327715,11.405575,11.484903,11.601503,11.770224,11.973482,12.15394,12.262486,12.306587,12.305986,12.267361,12.221273,12.183945,12.157697,12.137902,12.116384,12.089529,12.0553055,12.019632,11.975151,11.925245,11.885057,11.8660145,11.873329,11.936632,12.0571995,12.197344,12.329632,12.438571,12.518615,12.59283,12.676155,12.77702,12.898582,13.026208,13.142021,13.240893,13.3263645,13.399724,13.463728,13.511352,13.530961,13.570737,13.692292,13.930216,14.45179,15.5603695,18.973312,21.99947,22.939228,22.903542,23.05374,23.04235,23.041447,23.168701,23.10845,22.951244,22.896376,22.858494,22.838852,22.846155,22.85739,22.867939
21.66443,21.67472,21.683199,21.688925,21.692768,21.696102,21.700071,21.705105,21.712486,21.722477,21.73491,21.748959,21.762264,21.775555,21.78933,21.80149,21.81036,21.815624,21.818157,21.819313,21.821327,21.822687,21.823244,21.822205,21.818771,21.812954,21.80552,21.797697,21.789284,21.781898,21.776163,21.772707,21.771866,21.773048,21.775192,21.776815,21.777754,21.777357,21.775093,21.770828,21.7649,21.757801,21.749712,21.741276,21.733273,21.726871,21.722683,21.720505,21.7199,21.720383,21.722101,21.724998,21.729362,21.734735,21.740648,21.74741,21.754555,21.76233,21.770452,21.777185,21.78148,21.783676,21.784794,21.785751,21.788109,21.792643,21.799625,21.808578,21.818573,21.82866,21.838114,21.846771,21.854046,21.85971,21.863674,21.86644,21.869135,21.87244,21.875366,21.877218,21.87638,21.872028,21.865269,21.858402,21.853165,21.8505,21.850082,21.850704,21.850908,21.849274,21.845497,21.840519,21.835468,21.830433,21.826134,21.823582,21.823112,21.82462,21.827717,21.831581,21.835447,21.83957,21.844017,21.849066,21.85468,21.860424,21.865816,21.870773,21.87564,21.88092,21.887226,21.894623,21.90279,21.911411,21.919838,21.928421,21.936962,21.945103,21.952087,21.95771,21.962692,21.967384,21.972881,21.978962,21.98518,21.99087,21.994892,21.996357,21.995676,21.99294,21.987988,21.9814,21.974329,21.96725,21.9601,21.953312,21.94643,21.939453,21.932278,21.925037,21.917091,21.90826,21.899837,21.89166,21.883564,21.87528,21.867563,21.860386,21.853588,21.847387,21.841438,21.837208,21.833553,21.830488,21.827034,21.822855,21.818487,21.813423,21.807365,21.797594,21.787388,21.77769,21.76817,21.758741,21.749094,21.73943,21.729536,21.721249,21.71503,21.711882,21.712002,21.713547,21.717026,21.721096,21.728615,21.739697,21.753244,21.766737,21.777758,21.787886,21.796738,21.807905,21.820192,21.831259,21.843273,21.858925,21.873062,21.884779,21.904703,21.897,21.871323,21.853258,21.837269,21.800913,21.757526,21.723892,21.690569,21.670706,21.67015,21.675919,21.673214,21.649385,21.576542,21.421692,21.197615,21.061531,21.045979,20.990292,20.940887,21.055328,19.686497,15.703772,12.324987,11.523153,11.384839,11.412127,11.442175,11.496878,11.532094,11.512972,11.44374,11.362198,11.307058,11.2791195,11.273302,11.281548,11.288205,11.283825,11.269807,11.25007,11.221291,11.186808,11.14533,11.108192,11.075695,11.043649,11.017553,11.000847,10.994442,11.015708,11.0614605,11.125462,11.203892,11.287201,11.358633,11.437659,11.556808,11.728774,11.942359,12.134214,12.244501,12.289992,12.290327,12.252518,12.207686,12.17205,12.147601,12.129475,12.109385,12.083471,12.049785,12.014191,11.969667,11.919954,11.880093,11.861013,11.867649,11.931829,12.054703,12.193483,12.325285,12.437354,12.51898,12.594475,12.678707,12.781039,12.904804,13.035297,13.153364,13.251955,13.334341,13.406027,13.463175,13.501449,13.518919,13.556226,13.673681,13.926002,14.447909,15.572668,18.806942,21.668203,22.585636,22.570194,22.709013,22.701908,22.791573,22.819942,22.672241,22.520763,22.485437,22.457073,22.444605,22.46088,22.479908,22.49437
21.426422,21.432735,21.437286,21.439476,21.44009,21.440428,21.441582,21.44406,21.449612,21.458727,21.471205,21.485964,21.500164,21.514091,21.528267,21.540531,21.549416,21.554764,21.557365,21.55838,21.559826,21.560236,21.559757,21.557997,21.554432,21.54903,21.542252,21.535072,21.527306,21.520433,21.515022,21.511902,21.51159,21.51357,21.516945,21.520395,21.523605,21.525814,21.52628,21.524788,21.521677,21.517265,21.51178,21.505783,21.499783,21.494793,21.491486,21.489813,21.489439,21.489954,21.491488,21.493984,21.497677,21.50203,21.506474,21.511292,21.516151,21.52115,21.526129,21.529621,21.53088,21.530388,21.529213,21.528313,21.529118,21.532368,21.538452,21.54686,21.556404,21.565886,21.57453,21.582016,21.587708,21.591438,21.593216,21.593605,21.593754,21.594467,21.594835,21.594233,21.591381,21.585608,21.578037,21.570805,21.565407,21.562572,21.56197,21.562302,21.562197,21.560265,21.55619,21.550945,21.545712,21.540518,21.536217,21.53382,21.533632,21.535543,21.539118,21.543419,21.547703,21.55215,21.55673,21.561672,21.566948,21.572208,21.577116,21.581692,21.586288,21.591381,21.597557,21.604877,21.612995,21.62159,21.630135,21.638872,21.647573,21.655773,21.662666,21.668089,21.672844,21.677313,21.68259,21.688396,21.69426,21.699604,21.703419,21.704899,21.704468,21.702211,21.697935,21.692142,21.685982,21.67997,21.674063,21.668674,21.66333,21.65807,21.652687,21.647263,21.64117,21.634274,21.627815,21.621572,21.615505,21.609192,21.60326,21.597622,21.592045,21.586704,21.5813,21.577179,21.573204,21.569424,21.564976,21.559662,21.554121,21.547897,21.540712,21.529858,21.518585,21.507853,21.497414,21.487267,21.477076,21.467106,21.456892,21.448082,21.440996,21.4366,21.435259,21.435394,21.437504,21.440342,21.446678,21.456675,21.469229,21.481771,21.49189,21.501093,21.509438,21.517357,21.525959,21.535576,21.546019,21.557774,21.57153,21.582644,21.596535,21.605286,21.592197,21.566765,21.55272,21.543385,21.499084,21.452093,21.409681,21.385044,21.379784,21.381104,21.374496,21.346863,21.272043,21.122849,20.910162,20.795376,20.803955,20.762547,20.745361,20.843803,19.285511,15.270224,12.105131,11.501528,11.372613,11.402537,11.439202,11.489446,11.51379,11.485754,11.414375,11.336324,11.285879,11.262143,11.258068,11.265946,11.271291,11.26567,11.2509775,11.231224,11.202792,11.168483,11.1268425,11.089365,11.057077,11.026298,11.002377,10.988651,10.985985,11.0047455,11.044586,11.100712,11.16997,11.245163,11.31004,11.388105,11.509679,11.685497,11.909129,12.11165,12.224079,12.271135,12.272565,12.235887,12.192703,12.159176,12.136908,12.12077,12.102396,12.077763,12.044952,12.009783,11.965313,11.915498,11.875366,11.8555565,11.860897,11.922995,12.049358,12.189428,12.321861,12.437306,12.521437,12.59893,12.684568,12.788434,12.913578,13.046307,13.163652,13.2568,13.337888,13.406044,13.4594555,13.490725,13.506592,13.543698,13.659367,13.922655,14.448738,15.592522,18.674385,21.375053,22.261608,22.27504,22.406162,22.404438,22.556305,22.494747,22.295197,22.165134,22.140495,22.120974,22.115349,22.13731,22.16047,22.171516
21.179626,21.181969,21.183071,21.182606,21.181091,21.179745,21.1796,21.181166,21.186466,21.196068,21.209702,21.226063,21.241837,21.256983,21.272026,21.28476,21.293888,21.29945,21.302246,21.303272,21.304321,21.304028,21.302853,21.300758,21.297447,21.292843,21.287098,21.280855,21.273964,21.267725,21.262611,21.259598,21.259352,21.261482,21.265362,21.269772,21.274353,21.278275,21.280663,21.281242,21.28033,21.278137,21.274828,21.27089,21.266521,21.262562,21.25969,21.25798,21.257246,21.25711,21.257698,21.258915,21.26091,21.263145,21.265066,21.266956,21.268654,21.270094,21.271265,21.27105,21.26894,21.265545,21.261963,21.259089,21.258148,21.259747,21.264374,21.271446,21.279594,21.28748,21.294323,21.299683,21.302883,21.303913,21.302902,21.30048,21.297842,21.295877,21.293789,21.291023,21.286678,21.280209,21.272646,21.265858,21.261003,21.258648,21.258472,21.259167,21.259445,21.257944,21.254353,21.249664,21.245022,21.24047,21.236925,21.235321,21.235939,21.238653,21.242973,21.247923,21.252792,21.257732,21.262596,21.267572,21.272694,21.27771,21.282406,21.286911,21.291595,21.296913,21.303368,21.310951,21.319294,21.328056,21.336815,21.345768,21.354614,21.362862,21.369669,21.374863,21.379326,21.38353,21.388496,21.39391,21.399307,21.404228,21.407797,21.409302,21.40919,21.407513,21.404049,21.399137,21.393925,21.38895,21.384163,21.380016,21.376019,21.372238,21.368431,21.364578,21.36007,21.354794,21.34994,21.34529,21.340858,21.336124,21.33165,21.327314,21.322817,21.318256,21.313364,21.309303,21.305008,21.30058,21.295282,21.289026,21.282528,21.275398,21.267345,21.255693,21.243645,21.232155,21.221048,21.210407,21.199986,21.189995,21.17984,21.170918,21.163353,21.158045,21.155508,21.154469,21.155386,21.157185,21.16251,21.171595,21.1833,21.195028,21.204391,21.212795,21.220314,21.227448,21.23449,21.241488,21.247898,21.255249,21.268276,21.279148,21.290516,21.304054,21.303001,21.283684,21.264606,21.255732,21.237394,21.19012,21.137318,21.09955,21.084686,21.082579,21.071304,21.038567,20.968563,20.828066,20.621681,20.527128,20.56512,20.535992,20.550056,20.576302,18.803768,14.811186,11.900047,11.479414,11.362448,11.39572,11.437456,11.482475,11.495911,11.459211,11.385897,11.311328,11.265365,11.245369,11.242664,11.250124,11.253799,11.246523,11.231241,11.211554,11.183454,11.149143,11.106917,11.068449,11.035917,11.006364,10.984525,10.973231,10.972872,10.991005,11.0263405,11.074146,11.133488,11.200235,11.258646,11.3344,11.457195,11.637068,11.871792,12.085879,12.201187,12.250772,12.253752,12.218569,12.17741,12.146404,12.126688,12.11279,12.09631,12.073201,12.041504,12.006996,11.962634,11.912369,11.871216,11.849612,11.852066,11.910589,12.040473,12.182722,12.316715,12.436473,12.524229,12.604706,12.692595,12.798124,12.927276,13.05858,13.170598,13.26301,13.341467,13.404953,13.456642,13.480366,13.494867,13.5346775,13.649513,13.920977,14.455573,15.622548,18.571339,21.10141,21.936619,21.982893,22.108568,22.11803,22.25079,22.137829,21.936554,21.830513,21.810513,21.800638,21.801584,21.825294,21.84726,21.859056
20.918194,20.916765,20.915089,20.913109,20.910892,20.909489,20.909847,20.912369,20.919127,20.930614,20.946457,20.965122,20.982864,20.999521,21.015602,21.028894,21.038288,21.044064,21.047083,21.048174,21.048923,21.048237,21.046757,21.044758,21.042156,21.0388,21.034487,21.029518,21.023754,21.0183,21.013416,21.010155,21.009369,21.01083,21.014202,21.018429,21.023144,21.027565,21.03078,21.03247,21.032928,21.032269,21.030546,21.028141,21.024944,21.021553,21.018623,21.01633,21.01458,21.013103,21.011932,21.010925,21.010159,21.009184,21.007584,21.0057,21.003616,21.001083,20.998245,20.994335,20.989109,20.983238,20.977726,20.973276,20.97088,20.970936,20.973898,20.97911,20.985096,20.990505,20.99467,20.99707,20.99709,20.994888,20.990784,20.985481,20.980196,20.975876,20.971836,20.967571,20.96251,20.95625,20.949596,20.944035,20.940407,20.939049,20.939774,20.941277,20.942394,20.94188,20.939419,20.935955,20.932608,20.929403,20.927334,20.927134,20.92902,20.932858,20.938126,20.943863,20.949482,20.955074,20.960413,20.965637,20.970821,20.975838,20.980614,20.985357,20.990496,20.996418,21.003502,21.011644,21.020397,21.029392,21.038338,21.047405,21.056248,21.0644,21.071026,21.075968,21.08014,21.084,21.0886,21.09354,21.098362,21.102734,21.10596,21.107445,21.107643,21.106579,21.10391,21.099869,21.095499,21.091343,21.087406,21.084152,21.08116,21.078487,21.07584,21.07314,21.069748,21.065563,21.061771,21.058117,21.054672,21.05085,21.04727,21.043798,21.04007,21.036123,21.031616,21.027576,21.023048,21.018139,21.012249,21.00542,20.998379,20.99074,20.982227,20.970215,20.957764,20.945826,20.934313,20.923437,20.913038,20.90332,20.893593,20.884972,20.877394,20.871643,20.868338,20.866497,20.866577,20.86771,20.872437,20.88095,20.892136,20.90342,20.912376,20.920269,20.927189,20.933903,20.940302,20.946384,20.9516,20.956394,20.964043,20.973013,20.982391,20.992886,21.002104,20.996914,20.975716,20.963017,20.954372,20.920086,20.867573,20.822441,20.7987,20.787237,20.770756,20.73692,20.667282,20.529541,20.326378,20.251488,20.3205,20.308662,20.359453,20.332523,18.171806,14.296391,11.763336,11.452162,11.354774,11.3925705,11.437025,11.476191,11.478941,11.433873,11.358807,11.287615,11.245741,11.228712,11.227594,11.2340145,11.235261,11.226138,11.21026,11.190653,11.16282,11.128296,11.085003,11.045386,11.011053,10.980019,10.960234,10.953964,10.956041,10.974224,11.005877,11.04588,11.092658,11.14398,11.192588,11.268468,11.397777,11.584017,11.826935,12.052309,12.176667,12.2294035,12.234631,12.201441,12.16279,12.134715,12.117744,12.106066,12.091396,12.069839,12.039333,12.005699,11.961567,11.910585,11.867659,11.8429985,11.840477,11.89292,12.024265,12.169991,12.307546,12.432236,12.524942,12.609645,12.700808,12.8106,12.939811,13.068174,13.178155,13.269299,13.344601,13.403183,13.452513,13.471128,13.488028,13.532258,13.645179,13.922983,14.467377,15.676004,18.504166,20.854712,21.621567,21.69366,21.81984,21.87381,21.946093,21.788155,21.594305,21.51,21.497177,21.494114,21.499346,21.524101,21.544964,21.558317
20.653973,20.6501,20.646938,20.644718,20.6431,20.642925,20.6451,20.649899,20.659185,20.673262,20.691578,20.712387,20.731686,20.749346,20.765907,20.779243,20.788422,20.793974,20.796864,20.797785,20.798159,20.797112,20.79542,20.793545,20.791584,20.789322,20.786245,20.782322,20.777357,20.772188,20.766888,20.762556,20.760223,20.759863,20.761456,20.764038,20.767262,20.770502,20.772932,20.774271,20.774817,20.774612,20.773584,20.772018,20.769533,20.76646,20.763325,20.760307,20.757376,20.754345,20.751133,20.747555,20.743643,20.739098,20.733734,20.728027,20.722282,20.716112,20.709843,20.703047,20.695667,20.688358,20.681936,20.676884,20.6739,20.673176,20.675,20.678608,20.682493,20.6854,20.686909,20.686493,20.683657,20.678738,20.672213,20.664852,20.657852,20.652119,20.64708,20.642265,20.63736,20.632042,20.62687,20.62293,20.62078,20.620573,20.622246,20.624588,20.626556,20.62704,20.62575,20.623549,20.621521,20.619736,20.619219,20.620552,20.62384,20.628925,20.635307,20.642029,20.64867,20.655273,20.661499,20.667381,20.67297,20.678257,20.683315,20.68843,20.694124,20.700687,20.708374,20.716991,20.726044,20.735144,20.744072,20.753044,20.76165,20.769424,20.775593,20.780035,20.78366,20.786892,20.790775,20.79482,20.798626,20.802006,20.804493,20.805622,20.805832,20.805069,20.802914,20.799484,20.795694,20.792095,20.788757,20.786102,20.7838,20.781898,20.78003,20.778078,20.775368,20.771793,20.768536,20.765316,20.762272,20.75879,20.755564,20.752483,20.749138,20.74551,20.741207,20.737122,20.732428,20.727247,20.72108,20.714077,20.706947,20.699265,20.690788,20.67891,20.666534,20.654575,20.643064,20.632349,20.622349,20.613304,20.604446,20.59665,20.589695,20.584198,20.580809,20.578827,20.578716,20.579803,20.584538,20.593035,20.604181,20.61543,20.624321,20.63202,20.63865,20.645054,20.651115,20.65705,20.662409,20.666332,20.669579,20.676346,20.68348,20.688404,20.69629,20.702505,20.695984,20.680244,20.668104,20.653309,20.605682,20.555702,20.527504,20.509724,20.487974,20.450314,20.375803,20.235832,20.034681,19.977335,20.080084,20.100197,20.176624,20.053722,17.478569,13.808462,11.688866,11.423282,11.353233,11.398371,11.43896,11.471162,11.464115,11.411184,11.334417,11.266095,11.227561,11.2129345,11.213434,11.218174,11.216395,11.2052555,11.188498,11.168567,11.140511,11.105253,11.060576,11.0179825,10.979377,10.945751,10.927942,10.926403,10.932985,10.952426,10.981817,11.015858,11.051987,11.089444,11.127137,11.198257,11.335226,11.528673,11.777064,12.012184,12.148613,12.207026,12.215591,12.185171,12.1495285,12.124598,12.110358,12.100716,12.087503,12.067129,12.037489,12.00458,11.960587,11.908543,11.863006,11.83376,11.823397,11.866594,11.995472,12.145994,12.2895565,12.41905,12.517898,12.6080675,12.703977,12.817951,12.946326,13.0734005,13.183783,13.273245,13.345623,13.399967,13.445036,13.462528,13.480394,13.528799,13.645477,13.919307,14.477227,15.767546,18.476353,20.635336,21.32526,21.416481,21.546717,21.609203,21.619678,21.452587,21.27908,21.209475,21.203302,21.203644,21.21068,21.232294,21.252913,21.26838
20.396294,20.391788,20.388561,20.387136,20.386948,20.388638,20.393122,20.400562,20.41246,20.428833,20.44891,20.470757,20.490356,20.507755,20.523544,20.53584,20.543888,20.548454,20.550636,20.55101,20.550861,20.54942,20.547523,20.545702,20.544153,20.54264,20.54041,20.53714,20.53249,20.526989,20.52058,20.514431,20.509747,20.506725,20.505623,20.505463,20.505962,20.506676,20.50698,20.506721,20.50622,20.505531,20.50443,20.503162,20.501156,20.498451,20.495338,20.491901,20.488121,20.483824,20.478851,20.473019,20.466335,20.458668,20.450092,20.441277,20.43268,20.423887,20.415407,20.407106,20.39901,20.391632,20.385597,20.381184,20.378794,20.378437,20.38015,20.383003,20.385511,20.386616,20.386204,20.383846,20.379158,20.372662,20.364908,20.356703,20.34918,20.343128,20.338043,20.333496,20.329327,20.325226,20.321545,20.31908,20.31813,20.318745,20.320988,20.32375,20.326134,20.327147,20.326538,20.325127,20.323956,20.323183,20.323835,20.326427,20.330976,20.33726,20.344788,20.352629,20.360533,20.3685,20.37604,20.382984,20.389309,20.395065,20.400478,20.405937,20.412058,20.419025,20.426998,20.435757,20.444805,20.453764,20.462448,20.471096,20.479237,20.486385,20.491835,20.495518,20.498312,20.500622,20.503399,20.506107,20.50843,20.510384,20.511717,20.512112,20.511967,20.51109,20.509077,20.50591,20.5024,20.499113,20.49615,20.493874,20.491982,20.490559,20.489151,20.487612,20.485249,20.481928,20.47882,20.475658,20.472626,20.469131,20.465902,20.46285,20.459566,20.455986,20.451717,20.447546,20.442734,20.437447,20.431253,20.424355,20.41745,20.410046,20.401928,20.390516,20.378515,20.366837,20.355612,20.345295,20.335909,20.327734,20.319958,20.313297,20.307379,20.302658,20.299774,20.298237,20.298508,20.300098,20.30539,20.314388,20.325932,20.337473,20.346561,20.354343,20.360977,20.367306,20.37313,20.378756,20.383907,20.387575,20.389977,20.394512,20.399498,20.400875,20.401024,20.407152,20.416327,20.41248,20.397213,20.391308,20.351767,20.3023,20.271158,20.251398,20.226234,20.182392,20.102549,19.95906,19.756058,19.710747,19.848124,19.908688,19.997559,19.725513,16.856709,13.412535,11.636172,11.397383,11.355175,11.40637,11.441568,11.466959,11.450949,11.390754,11.31227,11.2462635,11.210533,11.198399,11.1993065,11.201667,11.196781,11.183546,11.165637,11.144943,11.116186,11.079781,11.033724,10.986145,10.941809,10.906351,10.88965,10.890829,10.903407,10.92526,10.954087,10.985354,11.016388,11.046612,11.074766,11.136862,11.27325,11.472159,11.72628,11.968475,12.115976,12.183081,12.195698,12.168697,12.136385,12.11455,12.102818,12.094887,12.082645,12.06295,12.033783,12.001455,11.957669,11.904514,11.855898,11.821009,11.8007145,11.832231,11.95272,12.109494,12.26247,12.395936,12.501713,12.598297,12.699757,12.816257,12.945835,13.074184,13.185141,13.27339,13.343527,13.394686,13.435097,13.454643,13.47192,13.523104,13.646834,13.910211,14.482283,15.8798275,18.470615,20.4366,21.051456,21.154305,21.277828,21.32412,21.284496,21.133675,20.989048,20.929363,20.92686,20.92759,20.932686,20.949472,20.970005,20.987503
20.149601,20.14579,20.143503,20.143463,20.14503,20.1486,20.155159,20.164795,20.178558,20.19617,20.216654,20.23796,20.256248,20.271854,20.285423,20.295448,20.301403,20.304235,20.305176,20.304695,20.303936,20.302158,20.300161,20.298445,20.297249,20.296326,20.294735,20.291924,20.287407,20.281378,20.273687,20.265583,20.25844,20.252686,20.24876,20.245617,20.243088,20.240887,20.238672,20.23642,20.234478,20.232967,20.23154,20.230394,20.228886,20.226778,20.224072,20.220694,20.21658,20.211552,20.205437,20.19807,20.189486,20.179714,20.169064,20.15836,20.148193,20.138199,20.129013,20.120735,20.113388,20.107285,20.10284,20.100155,20.099442,20.100525,20.103153,20.106215,20.108269,20.108528,20.107147,20.103882,20.098461,20.091515,20.083652,20.07565,20.068527,20.06295,20.05841,20.054531,20.051191,20.048088,20.045464,20.043888,20.043509,20.04432,20.046467,20.048954,20.051037,20.051865,20.051231,20.049934,20.049011,20.048676,20.04997,20.053364,20.0588,20.065987,20.074406,20.083187,20.092255,20.10159,20.110508,20.118616,20.125748,20.132,20.137707,20.14341,20.149765,20.15688,20.164852,20.17347,20.182274,20.19091,20.19924,20.207458,20.21505,20.221518,20.22623,20.229147,20.231077,20.232433,20.234032,20.235338,20.236124,20.236597,20.236708,20.236244,20.235573,20.23436,20.232212,20.229052,20.225586,20.222374,20.219547,20.217417,20.215683,20.214466,20.213272,20.211924,20.209696,20.206432,20.203299,20.200043,20.196869,20.193245,20.189907,20.186771,20.183434,20.17985,20.175575,20.17138,20.166553,20.16129,20.155205,20.148537,20.141968,20.13496,20.127285,20.11642,20.10484,20.093477,20.082561,20.072603,20.063742,20.056274,20.049404,20.043747,20.038801,20.0349,20.03268,20.031727,20.032558,20.03483,20.040874,20.050568,20.062664,20.074646,20.084093,20.092133,20.098976,20.105427,20.11116,20.116545,20.12141,20.124908,20.127447,20.12955,20.133078,20.133217,20.129642,20.127914,20.135807,20.153793,20.147144,20.136139,20.10936,20.068796,20.032915,20.010136,19.983635,19.936638,19.853386,19.706896,19.497253,19.456276,19.621822,19.718159,19.8205,19.412876,16.3745,13.113125,11.583065,11.376629,11.355832,11.40731,11.442259,11.462406,11.438265,11.371833,11.291761,11.227618,11.194601,11.184478,11.184175,11.183722,11.17605,11.160875,11.141815,11.120241,11.090683,11.053169,11.005991,10.953533,10.904191,10.867613,10.850706,10.853366,10.870749,10.895332,10.925108,10.956497,10.987474,11.016275,11.037022,11.092094,11.218973,11.418943,11.67798,11.924184,12.079991,12.155338,12.173225,12.15004,12.121032,12.102083,12.092545,12.085994,12.074381,12.055073,12.026335,11.994797,11.951712,11.898002,11.846634,11.806233,11.776316,11.795883,11.903904,12.06695,12.231262,12.368374,12.481272,12.584121,12.690518,12.809459,12.941395,13.071613,13.1828,13.27013,13.338709,13.387737,13.42512,13.447416,13.467261,13.519054,13.642645,13.901951,14.483084,15.97776,18.462421,20.254578,20.80303,20.910511,21.012098,21.056328,20.982628,20.842476,20.720598,20.67051,20.669582,20.667862,20.66869,20.68326,20.703436,20.722115
19.918316,19.915886,19.91507,19.91658,19.919777,19.924809,19.932724,19.943615,19.958076,19.975613,19.995079,20.01437,20.030033,20.042648,20.052948,20.059856,20.063099,20.063745,20.063091,20.061577,20.06017,20.058037,20.055967,20.054321,20.053331,20.052782,20.051609,20.049088,20.044638,20.038097,20.029316,20.019592,20.010393,20.002357,19.996052,19.990358,19.985203,19.980507,19.976147,19.97224,19.96915,19.96701,19.965397,19.964474,19.963604,19.962317,19.960331,19.95741,19.95344,19.948265,19.941727,19.933714,19.924328,19.913754,19.902466,19.891373,19.881075,19.871338,19.862858,19.855865,19.850357,19.846447,19.844353,19.844055,19.845627,19.848812,19.853052,19.857086,19.859558,19.859884,19.858463,19.855274,19.85014,19.843758,19.836708,19.829704,19.823635,19.818968,19.815222,19.81205,19.809303,19.806711,19.80449,19.803099,19.802572,19.802948,19.804298,19.805786,19.806828,19.806717,19.805317,19.803425,19.802086,19.80153,19.80282,19.806408,19.812132,19.819622,19.828371,19.837587,19.847313,19.857557,19.867485,19.876476,19.884207,19.890778,19.896626,19.902412,19.908825,19.91592,19.923767,19.93216,19.940678,19.949009,19.957008,19.964874,19.972046,19.978004,19.982159,19.984486,19.985758,19.986366,19.987013,19.987175,19.986729,19.986015,19.985134,19.98394,19.982742,19.98113,19.978724,19.975433,19.971867,19.96856,19.965685,19.963516,19.961775,19.960636,19.959576,19.95837,19.956272,19.953102,19.950008,19.946781,19.943583,19.939987,19.936735,19.933716,19.930511,19.927082,19.922956,19.918907,19.914242,19.909138,19.903217,19.89677,19.890522,19.88388,19.876625,19.86627,19.855087,19.84399,19.83331,19.82362,19.815105,19.808094,19.801788,19.796757,19.792427,19.789064,19.787262,19.786686,19.787918,19.79066,19.79724,19.807402,19.81987,19.83218,19.841934,19.850246,19.857334,19.863966,19.869713,19.874947,19.8796,19.882965,19.885502,19.88661,19.88905,19.887787,19.88125,19.875938,19.880053,19.894268,19.915253,19.905712,19.889076,19.855923,19.816936,19.791574,19.762928,19.71402,19.626877,19.478245,19.26342,19.22091,19.401823,19.527832,19.650692,19.156845,16.01769,12.89316,11.5392,11.361389,11.356295,11.405006,11.441324,11.456989,11.426152,11.355072,11.27375,11.211003,11.180506,11.170217,11.168524,11.165659,11.155584,11.138771,11.118706,11.096305,11.066046,11.027715,10.979721,10.924403,10.871968,10.8341875,10.816584,10.819653,10.839104,10.866215,10.898188,10.930405,10.963878,10.997456,11.013697,11.063202,11.182299,11.377327,11.63469,11.882433,12.042699,12.121311,12.147273,12.12823,12.102194,12.085909,12.078346,12.073032,12.062012,12.043127,12.015102,11.984758,11.943021,11.889646,11.836477,11.791727,11.754564,11.764068,11.861765,12.028075,12.20109,12.343164,12.462686,12.570223,12.68036,12.803118,12.937172,13.06786,13.178648,13.264963,13.332459,13.380343,13.416214,13.4396925,13.465639,13.515532,13.628389,13.893133,14.47863,16.046429,18.44086,20.08767,20.57925,20.692326,20.774363,20.781929,20.707829,20.583702,20.479136,20.438076,20.436695,20.430664,20.430561,20.442768,20.462173,20.481688
19.685211,19.684685,19.68567,19.688736,19.69326,19.699211,19.707726,19.718872,19.732895,19.749125,19.766281,19.782295,19.794271,19.803017,19.809326,19.812569,19.812727,19.810986,19.808659,19.806059,19.80401,19.801586,19.799456,19.797848,19.796942,19.796547,19.79557,19.793194,19.788744,19.7818,19.772243,19.761362,19.750694,19.741035,19.732986,19.725384,19.71822,19.711601,19.705608,19.700472,19.69656,19.69402,19.692343,19.69171,19.691544,19.691193,19.690132,19.687956,19.684458,19.679567,19.673164,19.66523,19.655941,19.64561,19.634815,19.624458,19.615074,19.606606,19.599781,19.594875,19.591824,19.590588,19.591194,19.593502,19.597595,19.603128,19.609322,19.614809,19.618292,19.619366,19.61868,19.616371,19.6124,19.607456,19.602036,19.596733,19.592258,19.58889,19.586164,19.583748,19.581448,19.57903,19.576742,19.575014,19.573872,19.573341,19.573467,19.57349,19.572987,19.571419,19.56871,19.565659,19.563354,19.562027,19.56274,19.565945,19.571404,19.578651,19.587189,19.596336,19.606266,19.616957,19.627514,19.637081,19.645144,19.65179,19.65757,19.663223,19.669506,19.676449,19.684063,19.692173,19.70043,19.708515,19.716278,19.723932,19.730839,19.736439,19.740185,19.742067,19.742786,19.742777,19.742626,19.741873,19.74046,19.73883,19.737167,19.73537,19.733704,19.731693,19.728992,19.725533,19.72185,19.718441,19.71548,19.713238,19.711426,19.710325,19.709396,19.708378,19.706486,19.703522,19.700613,19.69757,19.694607,19.691322,19.688423,19.685795,19.682999,19.679932,19.676151,19.67239,19.668026,19.663162,19.657417,19.65115,19.645126,19.63878,19.631882,19.622007,19.611237,19.60046,19.590054,19.580633,19.57243,19.565746,19.559822,19.555183,19.55122,19.548134,19.546524,19.546124,19.547512,19.550455,19.557262,19.567547,19.580017,19.592323,19.602123,19.610512,19.617725,19.624397,19.63005,19.635033,19.639353,19.642471,19.644932,19.645494,19.647,19.6445,19.635237,19.626556,19.628372,19.640541,19.65987,19.672606,19.665913,19.639507,19.606594,19.578032,19.548223,19.497917,19.407352,19.255865,19.039043,18.990631,19.175573,19.332539,19.474983,18.92054,15.720734,12.714216,11.501769,11.349847,11.357297,11.4029,11.439777,11.45191,11.415077,11.33897,11.256669,11.196227,11.166323,11.1557455,11.152527,11.147227,11.134832,11.1164665,11.095433,11.072242,11.041429,11.002538,10.95401,10.897213,10.842905,10.803675,10.784717,10.787188,10.807352,10.836622,10.871223,10.905867,10.941605,10.977903,10.997847,11.043331,11.155285,11.343004,11.595503,11.841839,12.003112,12.083731,12.117037,12.101822,12.078491,12.064596,12.058809,12.054705,12.044521,12.0263,11.999485,11.971027,11.9315,11.879293,11.824922,11.776472,11.733641,11.734305,11.822702,11.989784,12.170887,12.320364,12.445675,12.557664,12.672466,12.798515,12.933742,13.064131,13.174,13.25926,13.3261595,13.373774,13.409555,13.431584,13.465804,13.5196295,13.621467,13.887005,14.473939,16.093136,18.401287,19.916222,20.355549,20.476654,20.54436,20.5079,20.42455,20.326586,20.244312,20.208166,20.205654,20.19782,20.19667,20.206799,20.225378,20.245583
19.430092,19.431473,19.434208,19.438545,19.443913,19.450111,19.45828,19.468475,19.480698,19.494171,19.507633,19.519245,19.526749,19.531116,19.533182,19.532818,19.530193,19.526505,19.522999,19.519886,19.517834,19.515821,19.51436,19.513481,19.513248,19.513447,19.513037,19.511192,19.50726,19.50066,19.491287,19.480358,19.46938,19.459206,19.450424,19.441881,19.433647,19.425991,19.419205,19.41359,19.409454,19.406929,19.40545,19.405167,19.405586,19.40601,19.405773,19.404408,19.401701,19.397585,19.392048,19.385155,19.377209,19.368528,19.35963,19.351372,19.344143,19.33812,19.33401,19.332035,19.332047,19.333809,19.33716,19.341913,19.348246,19.355816,19.363714,19.370567,19.375196,19.377357,19.377785,19.376816,19.374458,19.3713,19.367779,19.36433,19.361479,19.359394,19.357601,19.3558,19.353722,19.351135,19.348347,19.345806,19.343567,19.341698,19.340126,19.338257,19.335793,19.332325,19.32789,19.32331,19.319674,19.31721,19.316963,19.319407,19.3242,19.330778,19.33868,19.347363,19.357096,19.367863,19.378693,19.38852,19.396627,19.40307,19.408527,19.413834,19.419828,19.426502,19.43386,19.441706,19.44971,19.457586,19.465183,19.472742,19.479568,19.485085,19.48877,19.490612,19.491245,19.491066,19.490627,19.489494,19.487638,19.485516,19.483343,19.481045,19.478878,19.476353,19.473194,19.46938,19.465359,19.461544,19.45814,19.455465,19.453278,19.451958,19.450981,19.450035,19.448303,19.445553,19.442856,19.440086,19.437428,19.434578,19.432175,19.43006,19.42781,19.425287,19.421993,19.418716,19.414822,19.410362,19.40497,19.39904,19.393366,19.387398,19.38094,19.371643,19.361431,19.351158,19.341206,19.332167,19.324265,19.317793,19.311974,19.307371,19.303337,19.300053,19.29815,19.297426,19.298487,19.301117,19.307594,19.317444,19.329403,19.34128,19.35086,19.3592,19.366436,19.373123,19.378677,19.38334,19.387203,19.389963,19.392239,19.39247,19.393223,19.389694,19.378769,19.367554,19.366753,19.377441,19.394232,19.42062,19.424206,19.412806,19.39096,19.35785,19.326193,19.276459,19.182835,19.029072,18.805977,18.749495,18.943047,19.131935,19.287132,18.679752,15.446146,12.552792,11.4640255,11.338182,11.359549,11.39827,11.435588,11.445276,11.4028225,11.322485,11.239817,11.180693,11.151306,11.140303,11.1354065,11.127537,11.112671,11.092592,11.070499,11.046571,11.015488,10.976547,10.928034,10.871466,10.816898,10.776461,10.756115,10.757575,10.7779455,10.808088,10.844896,10.882669,10.920981,10.959887,10.986071,11.030442,11.138012,11.317343,11.561756,11.803169,11.961266,12.04051,12.078335,12.06566,12.0443325,12.0323715,12.028217,12.024935,12.014425,11.997477,11.973133,11.946948,11.909702,11.859863,11.806587,11.756462,11.709836,11.702695,11.784087,11.949227,12.139929,12.302357,12.430812,12.549173,12.669004,12.798218,12.934229,13.0639,13.172672,13.257106,13.323988,13.37228,13.408979,13.430868,13.46671,13.524599,13.62796,13.888767,14.472891,16.132727,18.34853,19.736048,20.116287,20.226372,20.281256,20.205296,20.129074,20.060383,19.998789,19.966545,19.962353,19.954697,19.952974,19.961636,19.979717,20.000679
19.158348,19.161386,19.165592,19.17084,19.176544,19.1824,19.189468,19.197805,19.207264,19.21711,19.226212,19.2331,19.236181,19.236568,19.23504,19.2319,19.227472,19.222834,19.219078,19.21632,19.215076,19.21431,19.214325,19.214928,19.216011,19.217329,19.21792,19.217064,19.214226,19.208775,19.200603,19.190786,19.18068,19.171112,19.162598,19.154064,19.145733,19.137962,19.131214,19.125858,19.122112,19.120012,19.118946,19.118996,19.119787,19.120678,19.121037,19.120434,19.118681,19.115704,19.111618,19.10659,19.101017,19.095127,19.089268,19.084122,19.07994,19.077133,19.076336,19.077667,19.080828,19.085373,19.090984,19.097523,19.105274,19.11401,19.122837,19.130503,19.13601,19.13923,19.140873,19.141376,19.140759,19.139435,19.13773,19.13598,19.134556,19.13354,19.132492,19.131119,19.129051,19.126095,19.122599,19.11906,19.115555,19.112223,19.108925,19.105158,19.100735,19.095367,19.089169,19.082989,19.077934,19.074194,19.072811,19.074236,19.078016,19.08353,19.0904,19.098223,19.107323,19.117746,19.128447,19.138153,19.145971,19.151907,19.156769,19.161541,19.167084,19.173458,19.180616,19.188305,19.19616,19.203907,19.211441,19.219006,19.225933,19.231615,19.235554,19.237736,19.238714,19.238825,19.238615,19.237669,19.235939,19.233803,19.231434,19.228775,19.226133,19.223078,19.219389,19.21511,19.210575,19.2061,19.201946,19.198532,19.195673,19.193888,19.192657,19.191633,19.189953,19.187332,19.184786,19.182262,19.179897,19.17745,19.175518,19.173927,19.172256,19.170345,19.167633,19.164963,19.161686,19.157806,19.152962,19.147566,19.142433,19.137005,19.13113,19.122568,19.113148,19.103676,19.094471,19.086037,19.078547,19.072277,19.066433,19.061615,19.057177,19.053316,19.050718,19.049244,19.049541,19.051388,19.05701,19.065907,19.07689,19.087955,19.097055,19.105179,19.112343,19.118967,19.124348,19.128578,19.131817,19.134012,19.135899,19.135223,19.135284,19.130999,19.119339,19.106283,19.102573,19.112549,19.128643,19.156034,19.17596,19.183563,19.17059,19.137886,19.10403,19.056536,18.960903,18.805828,18.57753,18.511642,18.705654,18.916498,19.097507,18.444172,15.190587,12.405558,11.427743,11.323453,11.355417,11.390123,11.42923,11.4370985,11.389653,11.306324,11.223972,11.165531,11.136711,11.125211,11.118559,11.108032,11.090543,11.068552,11.045256,11.020615,10.9895115,10.950972,10.902956,10.848158,10.794722,10.753159,10.731308,10.731289,10.751097,10.781191,10.819747,10.8608265,10.902276,10.944059,10.975504,11.023323,11.129828,11.301659,11.536763,11.76914,11.918442,11.994524,12.033177,12.021687,12.001586,11.990904,11.9879675,11.985704,11.976154,11.960477,11.938538,11.914919,11.880537,11.833294,11.781985,11.733001,11.683278,11.672035,11.748801,11.912632,12.111256,12.285761,12.420492,12.5459,12.670865,12.8030205,12.939455,13.068141,13.175851,13.259859,13.327372,13.377249,13.415792,13.438478,13.471941,13.534853,13.648201,13.898839,14.475997,16.162706,18.279156,19.545578,19.871132,19.953724,19.97331,19.895515,19.833786,19.782743,19.742626,19.720884,19.713951,19.707798,19.70633,19.71439,19.732216,19.754684
18.8797,18.884068,18.889416,18.895214,18.900843,18.906021,18.911661,18.91784,18.924381,18.930649,18.93575,18.938606,18.93822,18.93582,18.932072,18.927582,18.92273,18.918404,18.915495,18.914001,18.914322,18.915522,18.91765,18.920315,18.92324,18.92611,18.928074,18.9286,18.927324,18.923656,18.91747,18.909653,18.901333,18.893242,18.885784,18.878052,18.870392,18.863228,18.857157,18.852581,18.84961,18.84816,18.84758,18.847881,18.848814,18.849892,18.850624,18.850685,18.849918,18.848225,18.845823,18.84299,18.840109,18.837303,18.834703,18.832762,18.831627,18.83188,18.834099,18.838266,18.843922,18.850431,18.857374,18.864689,18.872818,18.88161,18.890347,18.897999,18.903769,18.907606,18.910126,18.911755,18.912506,18.912586,18.912199,18.911608,18.911087,18.910671,18.91,18.90875,18.906494,18.903078,18.89888,18.894413,18.889826,18.885294,18.880661,18.875477,18.869635,18.862907,18.855444,18.848076,18.841923,18.837145,18.834795,18.835224,18.83789,18.842176,18.847809,18.854534,18.86272,18.87244,18.882652,18.89196,18.899261,18.904505,18.908642,18.912762,18.917791,18.923895,18.930954,18.938625,18.946476,18.954212,18.961765,18.969389,18.976486,18.98243,18.986748,18.98943,18.990957,18.991629,18.992,18.991653,18.990519,18.988852,18.986698,18.98399,18.98113,18.977764,18.973751,18.969137,18.964127,18.958996,18.954102,18.94991,18.946295,18.943903,18.94222,18.940859,18.938969,18.936228,18.933565,18.93105,18.92873,18.926453,18.924786,18.923523,18.922264,18.920834,18.918598,18.916443,18.913708,18.910358,18.90604,18.901165,18.896532,18.891603,18.886272,18.878433,18.869877,18.861343,18.853073,18.845428,18.838467,18.832464,18.82663,18.821564,18.816679,18.8122,18.808857,18.806587,18.806044,18.806995,18.811607,18.819393,18.829266,18.839418,18.847979,18.85587,18.862965,18.869555,18.874762,18.878544,18.881102,18.88262,18.883965,18.882526,18.881039,18.875923,18.864323,18.849823,18.843117,18.853182,18.86941,18.894289,18.926296,18.949274,18.948254,18.924206,18.888378,18.844227,18.747936,18.592346,18.365128,18.289614,18.470123,18.694462,18.916206,18.223433,14.954269,12.270054,11.392237,11.304224,11.344046,11.378086,11.420797,11.427799,11.377319,11.292261,11.2100525,11.152219,11.123858,11.11179,11.103373,11.0901985,11.070009,11.045914,11.021224,10.995807,10.964773,10.926854,10.87954,10.827614,10.776197,10.73326,10.709709,10.70781,10.725931,10.75581,10.796033,10.840343,10.885441,10.930849,10.967659,11.021017,11.128268,11.2954645,11.523222,11.74309,11.876804,11.949522,11.985689,11.974492,11.955065,11.944962,11.942656,11.941498,11.934425,11.920971,11.9012165,11.880366,11.849378,11.804804,11.755259,11.70805,11.6572275,11.644583,11.7182865,11.881588,12.085587,12.269653,12.413706,12.546303,12.676622,12.811832,12.948853,13.076868,13.183956,13.267974,13.336423,13.388142,13.428586,13.451585,13.481147,13.548553,13.67267,13.911163,14.478498,16.171215,18.185232,19.345161,19.626919,19.675673,19.649193,19.59458,19.546852,19.507126,19.484283,19.47472,19.468685,19.463741,19.46356,19.471329,19.490536,19.51801
18.606915,18.612291,18.618437,18.624475,18.629776,18.634193,18.638445,18.642702,18.646818,18.650263,18.65239,18.652521,18.650032,18.646288,18.641815,18.637417,18.633406,18.63044,18.629225,18.629627,18.63197,18.635494,18.640026,18.645031,18.650055,18.654705,18.658283,18.660433,18.66099,18.659485,18.655737,18.650402,18.6444,18.638302,18.632439,18.626062,18.61958,18.613506,18.608528,18.60503,18.603,18.602242,18.602123,18.602589,18.603489,18.604572,18.605541,18.606174,18.606352,18.605942,18.605219,18.6045,18.604095,18.604004,18.604156,18.604801,18.606009,18.608505,18.612793,18.61876,18.625824,18.633224,18.640472,18.647583,18.655125,18.663012,18.670753,18.677578,18.682892,18.686684,18.689445,18.69154,18.692913,18.693594,18.693695,18.693407,18.692974,18.692486,18.691639,18.690092,18.687412,18.68348,18.678673,18.673498,18.668186,18.66293,18.657547,18.651695,18.645271,18.638062,18.630207,18.622475,18.615917,18.610653,18.607508,18.60699,18.608608,18.611702,18.616077,18.621698,18.62904,18.63818,18.647999,18.65688,18.66359,18.66814,18.671604,18.67511,18.679672,18.685547,18.692581,18.700306,18.708227,18.716003,18.723564,18.731213,18.738403,18.744549,18.749203,18.75237,18.754498,18.755846,18.757015,18.757597,18.757347,18.756334,18.754477,18.751717,18.74862,18.744976,18.740746,18.736,18.730843,18.72523,18.719414,18.714346,18.710022,18.70721,18.705383,18.70403,18.702091,18.699184,18.696371,18.693794,18.691433,18.689056,18.687305,18.686031,18.684843,18.68357,18.681519,18.679592,18.677113,18.674034,18.670006,18.665413,18.661005,18.656319,18.65129,18.643936,18.636065,18.62837,18.620975,18.614101,18.607685,18.60197,18.596199,18.590961,18.585752,18.580826,18.576931,18.574104,18.57293,18.573195,18.576973,18.583828,18.592773,18.602198,18.610397,18.61821,18.625381,18.632076,18.637253,18.640718,18.64271,18.643604,18.6444,18.642855,18.639275,18.63285,18.621487,18.606344,18.597435,18.607159,18.623577,18.64896,18.681248,18.715435,18.734066,18.72171,18.684624,18.643663,18.548332,18.39322,18.171944,18.087101,18.24678,18.48277,18.747646,18.02201,14.743099,12.148638,11.35627,11.281162,11.329253,11.363022,11.410605,11.418402,11.367414,11.28173,11.199196,11.14197,11.113909,11.101246,11.091164,11.075497,11.05265,11.026313,11.00002,10.973679,10.9426565,10.905365,10.858751,10.810194,10.761471,10.717375,10.692026,10.688225,10.703333,10.732935,10.774921,10.822393,10.871389,10.921271,10.965516,11.024431,11.1327095,11.297981,11.51783,11.721775,11.839527,11.908491,11.940544,11.92947,11.910641,11.90078,11.89875,11.8983345,11.89344,11.883036,11.866407,11.848568,11.82081,11.779226,11.731242,11.684539,11.637061,11.622913,11.69372,11.855669,12.062933,12.255094,12.408628,12.548649,12.684633,12.823331,12.961555,13.089629,13.196703,13.280949,13.350067,13.403044,13.444433,13.466372,13.491079,13.558515,13.687832,13.918623,14.475857,16.146069,18.063099,19.14212,19.389557,19.404102,19.347023,19.31347,19.279009,19.2524,19.237057,19.234169,19.236103,19.233807,19.235535,19.245075,19.269655,19.296589
18.352776,18.358845,18.36547,18.371582,18.37654,18.380318,18.383526,18.386448,18.388939,18.390585,18.390965,18.389679,18.386345,18.382435,18.37832,18.374908,18.372417,18.37128,18.372013,18.374405,18.378716,18.38439,18.391125,18.398247,18.405174,18.4115,18.416649,18.420366,18.42274,18.423426,18.422138,18.419338,18.415743,18.411766,18.407703,18.402908,18.397848,18.393112,18.389408,18.387089,18.386034,18.385939,18.386204,18.386776,18.387573,18.388561,18.389666,18.39077,18.391788,18.39256,18.39337,18.39452,18.396229,18.398321,18.400562,18.403042,18.405777,18.40964,18.415014,18.421764,18.429264,18.436665,18.443459,18.449741,18.456062,18.462475,18.4687,18.474205,18.478558,18.481792,18.484272,18.486256,18.487574,18.488132,18.487957,18.48722,18.486202,18.485058,18.483578,18.48138,18.478092,18.473639,18.468378,18.462791,18.457136,18.451624,18.446098,18.440289,18.4341,18.42725,18.41972,18.41217,18.4057,18.40033,18.39634,18.394817,18.395464,18.39746,18.400665,18.405333,18.412107,18.421215,18.43119,18.439884,18.44603,18.449966,18.45282,18.455757,18.459885,18.465584,18.472645,18.48051,18.488605,18.496494,18.504084,18.511738,18.518927,18.52514,18.529991,18.533495,18.53611,18.538094,18.540127,18.541832,18.542587,18.542122,18.540283,18.537128,18.533401,18.529186,18.524555,18.51969,18.514679,18.508636,18.501411,18.495182,18.490198,18.487366,18.486122,18.485697,18.484394,18.48165,18.479103,18.476768,18.474655,18.472118,18.470114,18.468699,18.467445,18.466211,18.464235,18.46236,18.4599,18.456835,18.452847,18.448292,18.443878,18.43919,18.43421,18.427074,18.41964,18.412567,18.405853,18.399586,18.393621,18.38813,18.38241,18.377031,18.371569,18.366322,18.362068,18.35887,18.357265,18.357075,18.360245,18.366407,18.374687,18.383627,18.391663,18.399544,18.406898,18.413797,18.419083,18.422415,18.424019,18.424433,18.424763,18.422878,18.418377,18.410389,18.398476,18.383837,18.374264,18.381378,18.397696,18.423403,18.453857,18.498798,18.537012,18.534672,18.496998,18.457611,18.365198,18.212109,17.996763,17.902699,18.04172,18.286797,18.589054,17.84241,14.56623,12.047703,11.32189,11.256664,11.312855,11.347185,11.400295,11.410456,11.360323,11.274829,11.19228,11.135508,11.107683,11.094551,11.083059,11.06518,11.039825,11.0111885,10.983108,10.955677,10.92454,10.887791,10.841922,10.796261,10.750687,10.706977,10.68004,10.674284,10.685298,10.714177,10.757831,10.808424,10.861442,10.916189,10.968607,11.033967,11.14348,11.307511,11.51331,11.698133,11.809055,11.87338,11.901945,11.89189,11.874327,11.865028,11.863411,11.863466,11.85961,11.850978,11.838401,11.82362,11.798611,11.7601185,11.713636,11.666952,11.626659,11.611092,11.678019,11.837215,12.044609,12.241964,12.405435,12.552623,12.694346,12.836855,12.976783,13.105458,13.212831,13.2971325,13.36622,13.419391,13.460403,13.479929,13.499682,13.561537,13.68831,13.919733,14.46983,16.090832,17.921186,18.948483,19.16534,19.139826,19.077885,19.06218,19.042873,19.025766,19.011631,19.01236,19.02449,19.02903,19.033047,19.048573,19.079563,19.087374
18.112583,18.119179,18.126213,18.1325,18.137415,18.141054,18.143982,18.146545,18.148611,18.149784,18.14978,18.148378,18.14535,18.142174,18.139156,18.137197,18.136421,18.13707,18.139526,18.143559,18.149368,18.15655,18.164722,18.173166,18.181263,18.188627,18.194817,18.199707,18.203505,18.206009,18.206837,18.206284,18.204899,18.202961,18.200642,18.197508,18.193995,18.190674,18.188255,18.187046,18.186842,18.187284,18.18784,18.188429,18.189053,18.189863,18.19096,18.192324,18.193882,18.195461,18.197332,18.199741,18.20279,18.206179,18.209541,18.212885,18.21622,18.220463,18.225948,18.232536,18.239574,18.246243,18.252085,18.257214,18.262163,18.267029,18.271717,18.275867,18.279179,18.281712,18.283737,18.285385,18.286411,18.286644,18.286083,18.284866,18.283234,18.281403,18.279247,18.276373,18.272491,18.26762,18.262146,18.256521,18.250984,18.245827,18.240854,18.235836,18.230728,18.225014,18.217594,18.208496,18.2007,18.194126,18.1898,18.188091,18.188292,18.189642,18.19209,18.196022,18.202198,18.21075,18.220598,18.22953,18.235619,18.238739,18.240438,18.24219,18.24552,18.251106,18.25864,18.267418,18.276632,18.285511,18.293945,18.3022,18.309513,18.315594,18.320112,18.323135,18.325403,18.327305,18.329578,18.331907,18.333866,18.334976,18.334599,18.332499,18.329468,18.325722,18.321255,18.316147,18.310219,18.303288,18.295887,18.289341,18.28402,18.280697,18.278757,18.27755,18.27586,18.273127,18.27034,18.267761,18.265358,18.26309,18.261711,18.261133,18.261028,18.261173,18.260616,18.25925,18.256622,18.2532,18.248873,18.244026,18.239412,18.23452,18.229374,18.222254,18.21503,18.208366,18.20218,18.196405,18.190798,18.18552,18.179893,18.174438,18.16882,18.163383,18.15889,18.155457,18.153572,18.15303,18.15571,18.161303,18.169022,18.177528,18.185362,18.19322,18.200657,18.207697,18.21312,18.216457,18.217901,18.21805,18.218056,18.215788,18.211063,18.202682,18.19001,18.17453,18.16341,18.166805,18.181965,18.2066,18.236599,18.280388,18.33462,18.359428,18.31871,18.280071,18.192518,18.042946,17.83428,17.731861,17.850897,18.10126,18.423357,17.685642,14.4293165,11.970561,11.292273,11.234337,11.297134,11.332521,11.391417,11.404856,11.356504,11.271671,11.189167,11.132797,11.10529,11.091951,11.079365,11.0595455,11.031767,11.000696,10.970587,10.941875,10.910492,10.874243,10.829534,10.784447,10.7414,10.701716,10.67433,10.664045,10.670664,10.698673,10.74386,10.797663,10.855049,10.914965,10.975054,11.045174,11.156789,11.320507,11.512968,11.679657,11.784682,11.845634,11.872141,11.866346,11.851843,11.843704,11.842884,11.843449,11.840397,11.83329,11.821827,11.808569,11.786705,11.75197,11.707109,11.660477,11.626677,11.614166,11.676626,11.827711,12.030673,12.231617,12.404108,12.558147,12.705678,12.8524065,12.9945755,13.124329,13.232117,13.315969,13.384018,13.436063,13.475184,13.49109,13.505479,13.562253,13.687293,13.920261,14.468567,16.031145,17.769047,18.772362,18.941624,18.832088,18.82929,18.817856,18.82816,18.822578,18.809532,18.810795,18.823738,18.831198,18.841356,18.861502,18.878563,18.869804
17.866486,17.873487,17.880857,17.887396,17.892532,17.896427,17.899624,17.902582,17.905125,17.906853,17.90752,17.907013,17.905151,17.90344,17.902122,17.901882,17.902857,17.905216,17.909199,17.9146,17.921564,17.929773,17.938805,17.94794,17.956615,17.96451,17.97129,17.976994,17.981903,17.985935,17.988651,17.99021,17.990986,17.991093,17.990662,17.989405,17.987705,17.986053,17.985027,17.984892,17.985493,17.986397,17.987143,17.987629,17.987946,17.988419,17.989311,17.990726,17.992607,17.994682,17.997269,18.00055,18.004429,18.008492,18.012302,18.01578,18.018976,18.022768,18.027498,18.033073,18.038956,18.044407,18.049,18.05286,18.056446,18.059855,18.063107,18.065979,18.068302,18.070147,18.071629,18.072796,18.073404,18.073086,18.071556,18.069172,18.066597,18.064009,18.06128,18.057999,18.053848,18.048855,18.04337,18.037853,18.032503,18.027094,18.022089,18.0173,18.01252,18.007046,18.000187,17.992338,17.985336,17.979351,17.975452,17.973766,17.973515,17.97398,17.9752,17.97776,17.982487,17.989502,17.998032,18.005974,18.011261,18.013645,18.01476,18.01593,18.018837,18.02422,18.03173,18.04061,18.049992,18.059017,18.067543,18.07583,18.083183,18.089195,18.093632,18.096748,18.09933,18.101738,18.104834,18.10847,18.112179,18.115273,18.116821,18.11636,18.11467,18.112064,18.108616,18.104347,18.09894,18.092293,18.08505,18.078424,18.072906,18.069159,18.06657,18.064566,18.062063,18.058582,18.055122,18.052023,18.049198,18.046719,18.045235,18.044601,18.044474,18.044624,18.044167,18.043669,18.042599,18.04103,18.038673,18.03473,18.029167,18.023556,18.017838,18.01044,18.003212,17.996746,17.990885,17.985458,17.980104,17.97498,17.969406,17.963867,17.958115,17.952526,17.94785,17.94421,17.942083,17.941261,17.943506,17.948568,17.955757,17.963818,17.971355,17.979118,17.986576,17.99374,17.999401,18.00298,18.004566,18.004753,18.004654,18.002121,17.997162,17.988598,17.975817,17.960186,17.946869,17.943642,17.957043,17.979342,18.007877,18.05038,18.115398,18.163494,18.133945,18.096321,18.014091,17.868938,17.668243,17.556808,17.653503,17.905293,18.230066,17.532366,14.319202,11.911541,11.265099,11.212175,11.281576,11.318607,11.384089,11.402918,11.35689,11.272561,11.190254,11.134079,11.106911,11.093562,11.080123,11.058496,11.028218,10.994437,10.961939,10.931677,10.899911,10.864141,10.8207245,10.776845,10.734683,10.695291,10.66678,10.654289,10.6588745,10.686394,10.733064,10.790577,10.8531,10.918972,10.9874935,11.062284,11.175564,11.33548,11.513872,11.664705,11.763271,11.820082,11.846937,11.848262,11.840477,11.835707,11.836076,11.836916,11.833252,11.825199,11.813301,11.802023,11.784397,11.752962,11.708824,11.661949,11.626003,11.631008,11.688549,11.826651,12.022657,12.224604,12.405032,12.566515,12.72064,12.872522,13.017708,13.149004,13.257151,13.339737,13.405336,13.454521,13.489844,13.500593,13.509282,13.560661,13.683186,13.919482,14.473713,15.973791,17.610798,18.532528,18.653378,18.536196,18.580143,18.580715,18.605143,18.609058,18.600529,18.604107,18.619572,18.62996,18.641602,18.645168,18.645685,18.63215
17.623535,17.63094,17.638752,17.645796,17.651527,17.656124,17.660147,17.664112,17.667818,17.67081,17.67287,17.673897,17.673613,17.673569,17.673996,17.67551,17.678154,17.68196,17.687105,17.693424,17.70103,17.709652,17.71885,17.727966,17.73653,17.744339,17.75118,17.75721,17.762798,17.767933,17.772152,17.77549,17.778149,17.780119,17.781487,17.78199,17.781998,17.781939,17.782284,17.783255,17.784678,17.786015,17.786917,17.787296,17.787308,17.787403,17.787903,17.788967,17.79073,17.793056,17.79602,17.799652,17.803799,17.807812,17.811096,17.813713,17.815811,17.818293,17.821589,17.825743,17.830275,17.834412,17.837662,17.840103,17.842073,17.843687,17.845093,17.846203,17.846863,17.847193,17.847551,17.847733,17.847355,17.84604,17.843613,17.840458,17.837208,17.834064,17.830883,17.82727,17.822872,17.817764,17.812273,17.8068,17.801643,17.796904,17.7929,17.78947,17.786306,17.782509,17.77753,17.771875,17.766556,17.761944,17.758926,17.757572,17.757126,17.756855,17.75687,17.757967,17.760979,17.7661,17.77284,17.77932,17.783552,17.785267,17.78595,17.786695,17.78916,17.794102,17.801174,17.809673,17.818779,17.827599,17.835976,17.844189,17.851627,17.857803,17.862488,17.86602,17.869198,17.87239,17.876545,17.88167,17.88723,17.892365,17.895935,17.897343,17.897299,17.89622,17.894238,17.891308,17.887047,17.881248,17.874493,17.868027,17.862457,17.858301,17.855068,17.852333,17.849117,17.845062,17.84127,17.83796,17.835056,17.832554,17.831013,17.830244,17.829878,17.829706,17.828941,17.828594,17.828037,17.827055,17.82522,17.822098,17.817871,17.813482,17.80834,17.800528,17.79286,17.786356,17.780712,17.775549,17.77039,17.765362,17.759819,17.754185,17.748306,17.742603,17.737795,17.734032,17.731743,17.73069,17.732534,17.73708,17.743721,17.75126,17.758404,17.765894,17.773174,17.780266,17.786041,17.789825,17.791584,17.791859,17.791683,17.78891,17.783676,17.775002,17.762293,17.746716,17.731977,17.723804,17.731754,17.75003,17.775972,17.818008,17.886528,17.949936,17.949455,17.912836,17.836136,17.696144,17.504223,17.38291,17.454569,17.703926,18.022533,17.386513,14.242472,11.876171,11.241543,11.191101,11.2667675,11.306967,11.379147,11.404516,11.361492,11.277653,11.195265,11.138819,11.111658,11.098179,11.083966,11.060684,11.027979,10.991397,10.956339,10.9244,10.892205,10.8569355,10.81498,10.772766,10.731379,10.691509,10.661787,10.6476345,10.650566,10.6775,10.725645,10.78731,10.855822,10.927727,11.001676,11.085182,11.200177,11.347697,11.510253,11.650881,11.742493,11.794575,11.820846,11.82777,11.827746,11.827684,11.829719,11.832516,11.831291,11.822505,11.810356,11.802172,11.788296,11.75902,11.715624,11.668528,11.631895,11.6453495,11.706396,11.833073,12.016958,12.21996,12.408649,12.578395,12.740199,12.898296,13.047085,13.179949,13.287827,13.36783,13.429352,13.4738865,13.503662,13.50841,13.512388,13.560023,13.681417,13.925171,14.499462,15.951092,17.45902,18.253857,18.355663,18.295258,18.34574,18.353691,18.382359,18.39386,18.391964,18.399261,18.417791,18.4268,18.419712,18.416681,18.400417,18.3827
17.391502,17.399248,17.407558,17.415356,17.422047,17.42775,17.433073,17.438522,17.44385,17.448555,17.452385,17.455235,17.456783,17.45853,17.460705,17.463867,17.467915,17.472778,17.478657,17.485443,17.493252,17.501797,17.510632,17.519173,17.52706,17.53424,17.54065,17.546518,17.552265,17.55795,17.563097,17.56765,17.571682,17.575096,17.5779,17.579918,17.581451,17.582834,17.584484,17.586273,17.587788,17.58894,17.589346,17.588871,17.587685,17.5864,17.585524,17.585377,17.58625,17.587982,17.59058,17.593971,17.597809,17.601265,17.603657,17.605036,17.605648,17.606388,17.607822,17.610188,17.613117,17.615822,17.617722,17.618807,17.61922,17.619091,17.618664,17.618015,17.61714,17.61623,17.61567,17.615108,17.614042,17.612194,17.609558,17.606426,17.603191,17.60007,17.59694,17.593445,17.58924,17.584421,17.579302,17.574245,17.569681,17.566208,17.56382,17.562428,17.561655,17.560417,17.557907,17.554386,17.550842,17.54773,17.545792,17.545015,17.544653,17.54398,17.543102,17.542973,17.544413,17.547691,17.552626,17.557606,17.560795,17.561886,17.562126,17.5624,17.564285,17.568548,17.5749,17.582756,17.591402,17.599934,17.608171,17.616386,17.624027,17.630579,17.635757,17.639874,17.643723,17.647701,17.652828,17.659218,17.666298,17.673115,17.678429,17.681557,17.683144,17.683678,17.683298,17.68188,17.678978,17.674332,17.668438,17.662455,17.657066,17.65268,17.648968,17.645748,17.642235,17.638165,17.63461,17.631584,17.629045,17.626911,17.625643,17.62501,17.62464,17.624336,17.62341,17.622814,17.621944,17.620586,17.618217,17.615108,17.611992,17.60852,17.6043,17.597664,17.591091,17.585045,17.579367,17.574272,17.569355,17.564457,17.558983,17.55332,17.547398,17.5417,17.536934,17.533215,17.530926,17.529749,17.531273,17.535316,17.541351,17.548298,17.554901,17.56189,17.568697,17.575397,17.581028,17.584846,17.586647,17.586891,17.586552,17.583496,17.578003,17.569233,17.556599,17.541027,17.52566,17.515057,17.514465,17.527576,17.549974,17.591267,17.659792,17.735603,17.773159,17.735634,17.66439,17.529926,17.347288,17.213352,17.255869,17.502972,17.810783,17.248787,14.194565,11.863224,11.223982,11.172773,11.253813,11.298401,11.3768215,11.409225,11.369754,11.28636,11.203381,11.146061,11.118477,11.104735,11.08977,11.065033,11.030134,10.990887,10.953306,10.919692,10.887033,10.852232,10.811819,10.771494,10.73135,10.691574,10.660874,10.644869,10.64573,10.671762,10.72126,10.787287,10.862395,10.940617,11.018412,11.107689,11.2213545,11.356409,11.5052185,11.6368475,11.721374,11.769695,11.795507,11.806124,11.812828,11.818357,11.823148,11.827631,11.828451,11.822203,11.812911,11.80707,11.794933,11.767561,11.725585,11.678715,11.645916,11.656054,11.717894,11.837124,12.01203,12.216859,12.414256,12.593106,12.763903,12.929466,13.082536,13.216889,13.323658,13.399626,13.45549,13.493729,13.516533,13.515085,13.516203,13.563207,13.687872,13.947584,14.557707,15.977463,17.326866,17.979607,18.084507,18.092861,18.128834,18.13931,18.169601,18.18121,18.18571,18.200312,18.21365,18.205383,18.187576,18.180637,18.151688,18.13005
17.17537,17.183321,17.192078,17.200634,17.20837,17.215282,17.222012,17.229004,17.235977,17.242388,17.247929,17.252502,17.255838,17.259285,17.263084,17.267609,17.27269,17.278252,17.28454,17.291477,17.29908,17.307152,17.31528,17.322895,17.329716,17.335842,17.341373,17.346645,17.352055,17.357735,17.363209,17.368351,17.373112,17.377216,17.380585,17.38327,17.385468,17.387486,17.389687,17.391682,17.39287,17.393494,17.39312,17.391518,17.388832,17.3858,17.383186,17.381544,17.38118,17.381721,17.383339,17.385967,17.388931,17.391424,17.392864,17.393105,17.39244,17.39164,17.39131,17.391838,17.393013,17.39415,17.394684,17.394547,17.393726,17.392313,17.390617,17.388844,17.387203,17.385937,17.38509,17.38435,17.383276,17.381622,17.37932,17.376627,17.373905,17.371313,17.368744,17.365887,17.36243,17.358398,17.354069,17.349842,17.346207,17.343748,17.342648,17.342896,17.344055,17.344908,17.344524,17.343044,17.341244,17.339672,17.338907,17.338852,17.338808,17.338074,17.336748,17.335838,17.336132,17.33794,17.341326,17.344948,17.34716,17.347624,17.347364,17.34707,17.34821,17.351555,17.356918,17.363865,17.37179,17.379826,17.387733,17.395794,17.403505,17.410343,17.415974,17.420643,17.425102,17.429726,17.435587,17.442867,17.450962,17.458908,17.465492,17.469997,17.47302,17.475082,17.476322,17.47651,17.475174,17.472008,17.467361,17.462242,17.457386,17.453127,17.449318,17.446014,17.442614,17.4389,17.435852,17.433304,17.431244,17.42954,17.428566,17.428091,17.427753,17.427368,17.426361,17.425697,17.4248,17.42348,17.42109,17.417673,17.413925,17.409817,17.405712,17.400728,17.396183,17.391777,17.387268,17.382853,17.378017,17.373234,17.367912,17.36237,17.356586,17.351112,17.346657,17.343254,17.341219,17.34016,17.341587,17.345284,17.350826,17.35722,17.36322,17.369566,17.375668,17.381676,17.386837,17.390377,17.391933,17.391884,17.391197,17.387774,17.382074,17.37336,17.361078,17.34584,17.330366,17.318562,17.310276,17.318085,17.336578,17.37611,17.44426,17.530296,17.598345,17.566875,17.502052,17.372835,17.200615,17.045088,17.049995,17.309696,17.601768,17.116535,14.164019,11.864895,11.211077,11.156471,11.242382,11.291868,11.376427,11.415816,11.3800955,11.297218,11.213362,11.154776,11.126524,11.112549,11.097019,11.071161,11.03446,10.992895,10.953037,10.9178505,10.884651,10.850119,10.811031,10.772495,10.733723,10.694349,10.662999,10.64534,10.644172,10.669209,10.719936,10.790401,10.872513,10.957848,11.040545,11.130529,11.240074,11.367525,11.505562,11.625381,11.701757,11.748499,11.776735,11.791649,11.804167,11.815495,11.823847,11.828321,11.826977,11.822752,11.816464,11.810979,11.798788,11.773539,11.735146,11.691825,11.664284,11.668676,11.722654,11.835733,12.007765,12.215048,12.420849,12.609491,12.790537,12.964762,13.122713,13.258413,13.363302,13.434162,13.483442,13.514465,13.529585,13.522251,13.5223675,13.571491,13.704237,13.989962,14.648069,16.048779,17.228226,17.743916,17.851303,17.904419,17.92983,17.942608,17.972126,17.978956,17.98794,18.003727,18.001324,17.977095,17.967129,17.942917,17.906921,17.885077
16.978596,16.98665,16.995739,17.004856,17.013367,17.021194,17.028965,17.037056,17.045174,17.052753,17.059505,17.065327,17.069891,17.074484,17.079363,17.08482,17.090607,17.096594,17.103,17.109808,17.116821,17.12413,17.131325,17.137768,17.143211,17.147936,17.152225,17.15653,17.16119,17.16639,17.17165,17.17681,17.181643,17.18563,17.188587,17.190792,17.192413,17.193867,17.195515,17.1973,17.198786,17.199436,17.199013,17.197319,17.19442,17.191002,17.187809,17.185427,17.184261,17.183994,17.184673,17.18621,17.18789,17.189014,17.18917,17.18826,17.186592,17.18474,17.18324,17.182438,17.182173,17.18187,17.181063,17.179726,17.17783,17.175432,17.172932,17.170551,17.16845,17.16684,17.16575,17.164827,17.163717,17.1622,17.160212,17.157965,17.155779,17.153736,17.151737,17.149534,17.146801,17.143503,17.139866,17.136318,17.133392,17.13176,17.131672,17.133163,17.135788,17.138306,17.139727,17.14009,17.139948,17.13991,17.140324,17.141098,17.141594,17.141151,17.139887,17.13883,17.138618,17.139606,17.14198,17.144594,17.145977,17.14579,17.14489,17.143845,17.144028,17.146236,17.150404,17.156229,17.16317,17.170399,17.17763,17.185162,17.192524,17.199265,17.205029,17.20997,17.214775,17.219809,17.226107,17.233871,17.242512,17.251099,17.258484,17.264011,17.268215,17.271633,17.274408,17.2762,17.276525,17.27504,17.271915,17.267979,17.264,17.260246,17.256735,17.253706,17.250683,17.247444,17.244864,17.242647,17.24084,17.239311,17.238396,17.237873,17.237408,17.23685,17.23574,17.23501,17.234108,17.232826,17.230515,17.22716,17.22337,17.219162,17.21481,17.209335,17.20502,17.20267,17.201235,17.198868,17.194471,17.190186,17.185162,17.17988,17.174435,17.169422,17.165524,17.162703,17.161205,17.160576,17.162193,17.165884,17.171238,17.177269,17.182764,17.188465,17.193783,17.198912,17.203266,17.206104,17.206985,17.206276,17.204973,17.201069,17.195219,17.186853,17.175434,17.161242,17.146484,17.134418,17.122517,17.125202,17.139954,17.177353,17.244005,17.33239,17.413246,17.406712,17.3501,17.22544,17.064003,16.881746,16.846077,17.130058,17.403093,16.987051,14.140097,11.872473,11.199214,11.140227,11.231187,11.2856865,11.376803,11.422489,11.390402,11.308371,11.223722,11.163855,11.134929,11.120823,11.105076,11.0785675,11.040569,10.997172,10.955427,10.918864,10.885033,10.850437,10.812191,10.7750225,10.737476,10.6987095,10.66712,10.648223,10.645372,10.669525,10.721405,10.796219,10.885545,10.978683,11.067268,11.160059,11.267029,11.386754,11.5133095,11.620014,11.686697,11.73362,11.766096,11.78658,11.804911,11.82133,11.83296,11.837414,11.832317,11.824399,11.815818,11.809454,11.797197,11.774136,11.741636,11.705706,11.682009,11.68245,11.729469,11.835232,12.00375,12.213835,12.427269,12.626006,12.818184,13.001913,13.165135,13.30204,13.404608,13.470024,13.512825,13.536781,13.544447,13.531934,13.532379,13.585158,13.72928,14.047803,14.75378,16.139051,17.159027,17.55629,17.661598,17.734701,17.75349,17.767956,17.791706,17.799028,17.8059,17.805185,17.789188,17.774158,17.762695,17.719355,17.680136,17.659376
16.800154,16.80825,16.817482,16.826914,16.835905,16.844313,16.85275,16.861496,16.870243,16.878464,16.885872,16.892393,16.8977,16.90298,16.908596,16.914677,16.921007,16.927128,16.93301,16.939098,16.945606,16.95229,16.958616,16.963634,16.967333,16.970423,16.973211,16.976221,16.979668,16.983759,16.98814,16.992561,16.996792,17.000477,17.00346,17.005735,17.007534,17.009178,17.010998,17.01287,17.014313,17.01488,17.01438,17.012646,17.009665,17.00603,17.002438,16.999462,16.997555,16.996456,16.99612,16.996439,16.996742,16.99649,16.995422,16.993496,16.990973,16.988285,16.985868,16.983986,16.982504,16.980942,16.978931,16.976517,16.973652,16.970425,16.96728,16.964453,16.96206,16.960241,16.95903,16.958027,16.956911,16.955555,16.953857,16.951992,16.95026,16.948666,16.947113,16.945417,16.943256,16.940529,16.937445,16.934458,16.932102,16.931112,16.931786,16.934177,16.937866,16.94167,16.944601,16.946571,16.947975,16.949345,16.950928,16.952536,16.95366,16.953762,16.952944,16.952164,16.951944,16.95261,16.954386,16.956284,16.956997,16.956203,16.95465,16.952868,16.952091,16.953192,16.956219,16.960934,16.966848,16.973167,16.97954,16.986292,16.99305,16.999413,17.005032,17.010004,17.014927,17.020119,17.026566,17.034473,17.043257,17.052067,17.059872,17.066103,17.071266,17.075825,17.080015,17.083347,17.08535,17.085623,17.084156,17.08163,17.078758,17.075788,17.072868,17.070332,17.067791,17.06503,17.062775,17.06071,17.058933,17.057335,17.056278,17.05557,17.054897,17.054138,17.052906,17.052118,17.051231,17.050018,17.047783,17.044472,17.040718,17.036594,17.032349,17.02703,17.022816,17.020359,17.019196,17.018696,17.018036,17.01643,17.012009,17.006943,17.00193,16.997528,16.994366,16.992302,16.991508,16.991482,16.993519,16.997438,17.002811,17.008633,17.013706,17.018776,17.023293,17.02745,17.030787,17.032642,17.032581,17.030968,17.02886,17.024395,17.018433,17.010563,17.000277,16.987568,16.974075,16.9626,16.951359,16.947958,16.958702,16.993946,17.05835,17.143276,17.223549,17.254274,17.205309,17.085052,16.929691,16.74696,16.697754,16.959427,17.215317,16.858265,14.116266,11.882715,11.190004,11.125336,11.220585,11.279655,11.377091,11.42834,11.399706,11.318734,11.233416,11.172349,11.142817,11.128689,11.11297,11.086256,11.04749,11.0027275,10.959425,10.921662,10.887122,10.852186,10.814385,10.778235,10.741793,10.703783,10.672241,10.652366,10.647945,10.671059,10.72361,10.80225,10.898574,10.999786,11.095081,11.191852,11.297594,11.411291,11.526133,11.618937,11.677451,11.72519,11.758434,11.783125,11.806902,11.8280525,11.842747,11.848263,11.842185,11.831226,11.818617,11.810059,11.799528,11.780451,11.751205,11.716925,11.69346,11.69491,11.735792,11.834888,12.000137,12.211281,12.431517,12.640221,12.844164,13.038244,13.20752,13.346125,13.446621,13.506887,13.543764,13.561161,13.56183,13.544859,13.546382,13.604445,13.7644005,14.119133,14.848862,16.192137,17.075642,17.401203,17.512104,17.579853,17.595379,17.611084,17.62785,17.640732,17.625809,17.605097,17.597061,17.58099,17.553282,17.51231,17.474323,17.453022
16.616123,16.624031,16.633118,16.642548,16.651691,16.660358,16.669167,16.67828,16.68738,16.695984,16.703842,16.710869,16.716743,16.72258,16.727913,16.73327,16.738672,16.743988,16.74937,16.75495,16.760761,16.766443,16.771423,16.77517,16.777761,16.779709,16.781387,16.78335,16.785715,16.78875,16.792212,16.795881,16.799507,16.802736,16.805374,16.8074,16.80903,16.810566,16.81228,16.814018,16.815304,16.815739,16.815212,16.81359,16.810764,16.807238,16.803608,16.80037,16.797987,16.796219,16.79497,16.794123,16.793095,16.791538,16.789375,16.786629,16.783484,16.780209,16.77713,16.774437,16.77198,16.769379,16.76641,16.763184,16.759636,16.755909,16.752491,16.749596,16.747263,16.745556,16.744476,16.743587,16.742657,16.741592,16.7403,16.73891,16.737625,16.736423,16.735233,16.733932,16.732193,16.7299,16.727257,16.72474,16.7229,16.722462,16.723757,16.726826,16.731281,16.736036,16.740185,16.743574,16.746384,16.749123,16.751858,16.75437,16.756268,16.757149,16.7571,16.75697,16.757126,16.757816,16.759256,16.76059,16.760681,16.759287,16.757097,16.75462,16.752941,16.753002,16.754913,16.75848,16.763248,16.768457,16.773752,16.779446,16.78529,16.790985,16.796211,16.800991,16.805828,16.810995,16.81739,16.8252,16.833874,16.842657,16.850681,16.857468,16.863478,16.869091,16.874538,16.879272,16.88286,16.88488,16.88516,16.884212,16.882664,16.880733,16.878609,16.876667,16.874578,16.872135,16.870003,16.867884,16.865927,16.86409,16.862785,16.86185,16.860989,16.860111,16.858864,16.858122,16.857317,16.856216,16.854134,16.850979,16.84736,16.843428,16.83939,16.834291,16.830242,16.827847,16.826809,16.826721,16.82676,16.826578,16.825562,16.824085,16.820635,16.816475,16.813988,16.812714,16.812643,16.813255,16.815735,16.819881,16.825264,16.83085,16.83546,16.83981,16.843431,16.846508,16.84872,16.84946,16.84829,16.8456,16.842546,16.83741,16.831352,16.824108,16.815216,16.804401,16.792694,16.782333,16.771976,16.765488,16.77229,16.804537,16.866417,16.947107,17.026363,17.093311,17.050262,16.934835,16.786972,16.600956,16.53393,16.776499,17.020199,16.69857,14.073883,11.889858,11.179145,11.107236,11.207269,11.271554,11.375271,11.432303,11.407592,11.3281,11.242304,11.180077,11.149956,11.135859,11.120316,11.0936575,11.054472,11.008732,10.964212,10.925406,10.890154,10.854786,10.817273,10.782021,10.746733,10.7096815,10.678344,10.657401,10.65106,10.672478,10.7247095,10.806448,10.909904,11.020242,11.12416,11.227926,11.336246,11.441822,11.539308,11.619674,11.677432,11.721441,11.754328,11.782317,11.811027,11.836902,11.854946,11.861662,11.854486,11.841458,11.825991,11.81476,11.803532,11.786051,11.759572,11.727957,11.705719,11.7057495,11.741684,11.834076,11.993777,12.203985,12.429827,12.648457,12.86553,13.072152,13.249811,13.391907,13.491414,13.547298,13.579058,13.590462,13.584671,13.564024,13.567181,13.632687,13.81402,14.210756,14.964394,16.220118,16.966442,17.244938,17.367638,17.421658,17.435728,17.453377,17.465498,17.467543,17.425938,17.38995,17.388494,17.37378,17.345913,17.30674,17.269222,17.246817
16.4287,16.43613,16.444756,16.453802,16.462675,16.471195,16.479774,16.488518,16.497124,16.50507,16.51211,16.518284,16.52341,16.528534,16.533503,16.538599,16.543684,16.548683,16.553785,16.558947,16.564087,16.568913,16.572853,16.575642,16.577415,16.578552,16.579367,16.580425,16.581776,16.583748,16.586178,16.588945,16.591816,16.594404,16.596502,16.598099,16.59937,16.600624,16.602106,16.603622,16.604696,16.605034,16.60456,16.603207,16.600805,16.597734,16.594467,16.591387,16.588871,16.586737,16.58482,16.583036,16.580921,16.578335,16.5754,16.572157,16.56874,16.565256,16.561932,16.558832,16.55579,16.552536,16.548979,16.545296,16.541477,16.537683,16.53444,16.531883,16.529963,16.52866,16.527916,16.527298,16.526676,16.52597,16.52509,16.524117,16.523197,16.522274,16.52129,16.520155,16.518585,16.516478,16.514057,16.51183,16.51036,16.510305,16.511972,16.515404,16.52022,16.52547,16.53041,16.534847,16.538792,16.542692,16.546455,16.549862,16.552635,16.55449,16.555527,16.556402,16.557327,16.558483,16.559914,16.560863,16.560425,16.558468,16.555683,16.55259,16.55014,16.549284,16.550196,16.552673,16.556252,16.560253,16.564327,16.568808,16.573551,16.57836,16.582977,16.587399,16.592014,16.59705,16.603268,16.610817,16.6192,16.627792,16.635874,16.643047,16.649694,16.656113,16.662506,16.66831,16.673151,16.676628,16.678461,16.679,16.678755,16.67793,16.676683,16.675362,16.673641,16.671352,16.669167,16.666859,16.664597,16.662437,16.660862,16.659756,16.658848,16.658024,16.656937,16.65638,16.655773,16.654886,16.65305,16.650166,16.646847,16.643246,16.63956,16.634811,16.631018,16.628773,16.627834,16.627789,16.627842,16.628057,16.62827,16.628506,16.628239,16.627522,16.626629,16.625618,16.62615,16.627281,16.630108,16.634396,16.63971,16.645027,16.649145,16.652763,16.65547,16.657442,16.658459,16.65799,16.655598,16.651707,16.647587,16.641731,16.635569,16.629078,16.621857,16.613384,16.60405,16.595457,16.586594,16.578558,16.582169,16.611694,16.670954,16.747154,16.823612,16.909113,16.883888,16.777767,16.634981,16.453606,16.37732,16.586767,16.808197,16.513065,14.009625,11.888462,11.1672535,11.08704,11.19227,11.261274,11.370992,11.433762,11.413279,11.3357525,11.24984,11.186577,11.155878,11.141847,11.126606,11.100297,11.061142,11.01495,10.969685,10.93014,10.8942585,10.858359,10.82096,10.786498,10.752432,10.716572,10.685661,10.663633,10.655036,10.673768,10.7242775,10.807837,10.917877,11.038084,11.152695,11.262205,11.370079,11.473933,11.561795,11.6302395,11.684744,11.723209,11.754023,11.783701,11.8162,11.846317,11.867737,11.87583,11.86766,11.852619,11.833975,11.819078,11.805742,11.788755,11.764866,11.736612,11.716551,11.7154045,11.746775,11.831779,11.983974,12.19096,12.42062,12.648442,12.879555,13.101091,13.290139,13.43821,13.53842,13.591439,13.619798,13.626632,13.615631,13.59252,13.597654,13.671732,13.8785,14.318967,15.073157,16.216442,16.861254,17.102411,17.217728,17.261286,17.27499,17.291573,17.306835,17.271679,17.21132,17.181387,17.182507,17.169392,17.14402,17.106579,17.069096,17.044643
16.23901,16.245396,16.253017,16.261124,16.26916,16.276943,16.284828,16.292866,16.300709,16.307775,16.313812,16.31895,16.323128,16.327343,16.33191,16.336807,16.341724,16.346497,16.351229,16.355877,16.360384,16.364552,16.367828,16.37003,16.371346,16.372091,16.372456,16.372974,16.373634,16.37476,16.376245,16.378065,16.380043,16.381786,16.383108,16.384007,16.38465,16.385344,16.386349,16.387459,16.388218,16.38839,16.387943,16.386871,16.384975,16.38251,16.379818,16.377161,16.374794,16.372595,16.37035,16.368002,16.365223,16.362053,16.358759,16.355427,16.35212,16.348848,16.345747,16.342775,16.339746,16.336468,16.33295,16.32942,16.325909,16.322584,16.319931,16.318008,16.316677,16.31588,16.315516,16.315203,16.314884,16.314499,16.313969,16.313334,16.31269,16.311974,16.311111,16.310032,16.308458,16.306335,16.303932,16.30178,16.300442,16.300484,16.30217,16.30553,16.310205,16.315434,16.32063,16.325584,16.330206,16.334867,16.339413,16.343597,16.347229,16.350132,16.352379,16.354412,16.356363,16.358305,16.360123,16.361124,16.36058,16.35848,16.355534,16.352276,16.349558,16.348259,16.348557,16.350235,16.352852,16.355837,16.358887,16.36234,16.366138,16.370136,16.374153,16.378181,16.3825,16.38728,16.393166,16.400219,16.40803,16.416122,16.423923,16.431131,16.43806,16.444881,16.451801,16.458246,16.463907,16.468414,16.471437,16.473188,16.474026,16.47417,16.473719,16.472935,16.47152,16.46935,16.467125,16.46472,16.462318,16.460026,16.45841,16.457386,16.456669,16.45615,16.45544,16.455261,16.455025,16.454517,16.453096,16.450684,16.447868,16.444782,16.441628,16.437399,16.434004,16.432016,16.431215,16.431244,16.431385,16.431664,16.431759,16.432135,16.433458,16.43567,16.437696,16.438608,16.43937,16.440907,16.444,16.448406,16.45369,16.458809,16.462555,16.465595,16.467573,16.46866,16.468693,16.467213,16.463823,16.458958,16.45398,16.447615,16.441507,16.435833,16.430283,16.424122,16.417166,16.410378,16.40298,16.394527,16.395664,16.42231,16.478466,16.55035,16.622543,16.707485,16.711048,16.618711,16.479496,16.30774,16.222425,16.381153,16.587612,16.316105,13.926403,11.877481,11.156836,11.067511,11.177959,11.250549,11.365303,11.433104,11.416669,11.34136,11.255719,11.191711,11.160526,11.146536,11.131628,11.10586,11.067113,11.020981,10.975504,10.935612,10.899254,10.862808,10.825388,10.791592,10.758823,10.724473,10.694349,10.67139,10.660303,10.675276,10.722134,10.805083,10.919478,11.04837,11.173984,11.28859,11.400631,11.504646,11.58803,11.649635,11.697191,11.729682,11.757048,11.786671,11.82131,11.854536,11.878822,11.888249,11.879271,11.862267,11.840057,11.820707,11.804329,11.787075,11.765537,11.741168,11.724238,11.723104,11.750659,11.828112,11.971474,12.172574,12.402879,12.638659,12.882654,13.120018,13.323295,13.480625,13.584213,13.636627,13.66389,13.66824,13.654341,13.63085,13.638731,13.722624,13.95393,14.424567,15.146315,16.210117,16.769714,16.963112,17.0634,17.10101,17.115261,17.129444,17.118723,17.053993,16.995703,16.979303,16.981178,16.969805,16.94647,16.910774,16.875412,16.853222
16.051826,16.056866,16.063148,16.069984,16.07687,16.083605,16.090645,16.097988,16.105186,16.11164,16.117077,16.121572,16.125118,16.128693,16.132532,16.136665,16.140831,16.144886,16.148914,16.152851,16.156681,16.160238,16.163029,16.164928,16.166136,16.166882,16.167233,16.167631,16.168022,16.168636,16.1694,16.170351,16.171364,16.172102,16.172428,16.172367,16.172108,16.171963,16.17224,16.172766,16.173107,16.173038,16.17256,16.171711,16.17028,16.16843,16.166382,16.16426,16.162241,16.160217,16.157993,16.155506,16.152555,16.149288,16.146051,16.143011,16.140146,16.137459,16.135006,16.132679,16.130274,16.127628,16.124815,16.122055,16.119408,16.11701,16.115248,16.114094,16.113377,16.113031,16.112974,16.11291,16.112804,16.112638,16.112356,16.111984,16.111582,16.111057,16.110336,16.109299,16.107662,16.10542,16.102892,16.100634,16.099186,16.099033,16.10039,16.103281,16.107403,16.112164,16.117123,16.122086,16.126896,16.13187,16.136868,16.14162,16.145977,16.149815,16.153137,16.156218,16.159195,16.16203,16.164528,16.166035,16.16592,16.16426,16.161774,16.158974,16.156645,16.155525,16.155735,16.157053,16.159115,16.161486,16.163933,16.166794,16.170036,16.17354,16.177158,16.180874,16.184893,16.189335,16.194752,16.20111,16.208084,16.215353,16.222523,16.229382,16.236187,16.243002,16.250002,16.256653,16.262688,16.267773,16.271545,16.274118,16.275717,16.276577,16.276728,16.27636,16.275206,16.273212,16.27111,16.268848,16.26662,16.264545,16.263237,16.262611,16.262363,16.262383,16.262253,16.262642,16.262976,16.263035,16.26222,16.260475,16.258343,16.255943,16.253464,16.249886,16.246998,16.245342,16.24472,16.244835,16.245052,16.245434,16.245674,16.246164,16.247143,16.24966,16.25394,16.257921,16.2595,16.261375,16.264687,16.269253,16.274586,16.279625,16.283184,16.285872,16.287418,16.287966,16.287373,16.285252,16.281258,16.275833,16.27039,16.263874,16.258049,16.253181,16.24907,16.244848,16.239826,16.234442,16.228035,16.219906,16.21943,16.24263,16.294641,16.362387,16.429993,16.507229,16.540527,16.462887,16.32741,16.164791,16.06694,16.170643,16.371284,16.121258,13.829035,11.857176,11.149677,11.0513,11.166534,11.242062,11.359799,11.431259,11.418276,11.34516,11.260113,11.195742,11.164227,11.150245,11.13566,11.110559,11.072544,11.026962,10.981802,10.941963,10.905308,10.868341,10.830799,10.797562,10.766195,10.733767,10.7049675,10.681511,10.668058,10.67853,10.719904,10.799425,10.915016,11.049689,11.183641,11.306699,11.428928,11.533434,11.613906,11.672794,11.71311,11.7395,11.762563,11.790574,11.82555,11.860434,11.886759,11.897316,11.887853,11.869267,11.843628,11.819546,11.799475,11.781193,11.761599,11.7414,11.728388,11.728423,11.753412,11.823936,11.958006,12.151073,12.3781595,12.618309,12.875094,13.128597,13.347258,13.516057,13.626257,13.681532,13.709572,13.713516,13.699456,13.678038,13.689647,13.78416,14.036769,14.520937,15.186687,16.181667,16.669298,16.820913,16.908619,16.94217,16.955563,16.955465,16.900505,16.829744,16.78646,16.778885,16.781883,16.772602,16.75166,16.720028,16.688698,16.672245
15.875948,15.879831,15.884885,15.890533,15.896353,15.902182,15.908403,15.91501,15.921527,15.927309,15.932016,15.935671,15.938314,15.940924,15.943742,15.94684,15.949982,15.953056,15.956169,15.959269,15.962365,15.965328,15.967742,15.969482,15.970726,15.971653,15.972212,15.972714,15.973096,15.97345,15.973696,15.973904,15.974001,15.97372,15.973027,15.971951,15.970698,15.969654,15.96916,15.969086,15.969015,15.968751,15.968253,15.967602,15.966617,15.965381,15.963995,15.96248,15.960928,15.959257,15.957309,15.955029,15.9523,15.949315,15.946453,15.943945,15.941726,15.939831,15.938269,15.936865,15.935396,15.933739,15.931955,15.930249,15.928695,15.927395,15.926582,15.926165,15.925973,15.925962,15.926098,15.926185,15.926192,15.9261265,15.92597,15.925773,15.92557,15.92525,15.924667,15.923662,15.921932,15.919519,15.916775,15.914267,15.912529,15.911989,15.912802,15.91501,15.9183855,15.922464,15.926916,15.931559,15.936207,15.941162,15.946296,15.951374,15.9562435,15.960758,15.964868,15.968725,15.972495,15.976139,15.979378,15.981579,15.982185,15.981319,15.979679,15.977739,15.9762335,15.975728,15.976254,15.977604,15.979502,15.981659,15.983906,15.986586,15.989645,15.992947,15.996362,15.999872,16.003632,16.00775,16.01267,16.018305,16.024385,16.030735,16.037128,16.043432,16.049847,16.056364,16.063126,16.069643,16.07569,16.080967,16.085098,16.088129,16.090187,16.091522,16.092094,16.092056,16.09115,16.089384,16.087542,16.085615,16.083792,16.082182,16.081396,16.081356,16.081749,16.082424,16.082973,16.084026,16.085028,16.085758,16.085651,16.084656,16.083298,16.08165,16.079891,16.076992,16.074623,16.0733,16.072845,16.072998,16.073227,16.073626,16.07391,16.074442,16.07551,16.077848,16.082113,16.087536,16.091476,16.093737,16.09718,16.101925,16.107384,16.112465,16.11596,16.118504,16.119867,16.120157,16.119236,16.116781,16.112497,16.10685,16.101261,16.094873,16.08947,16.085339,16.082428,16.07977,16.076244,16.071928,16.066208,16.05848,16.057327,16.077,16.124079,16.187698,16.251097,16.323006,16.380978,16.31605,16.184288,16.029377,15.922545,15.982758,16.170685,15.935661,13.719814,11.827042,11.146341,11.040466,11.15933,11.237585,11.355904,11.42924,11.418669,11.347372,11.263084,11.198673,11.166979,11.153018,11.1387615,11.114439,11.07744,11.032819,10.988358,10.948824,10.911939,10.87438,10.836566,10.803755,10.773891,10.743824,10.717028,10.693858,10.678761,10.68478,10.719814,10.793947,10.907957,11.045334,11.184408,11.319216,11.450033,11.559422,11.640761,11.696583,11.731532,11.752184,11.770724,11.796186,11.83025,11.865734,11.893481,11.905077,11.89555,11.875875,11.847142,11.818365,11.7942,11.774168,11.755867,11.739616,11.730726,11.732662,11.756117,11.820595,11.945647,12.129871,12.351204,12.591188,12.861877,13.13188,13.364454,13.544204,13.663951,13.726438,13.756413,13.761472,13.749462,13.732132,13.748176,13.853048,14.122757,14.607735,15.211308,16.098358,16.544685,16.683535,16.756512,16.786964,16.794987,16.75959,16.68203,16.615044,16.58484,16.58377,16.587624,16.580482,16.562807,16.5378,16.511185,16.498722
15.715719,15.7185,15.722395,15.726927,15.73176,15.736731,15.742176,15.748123,15.754034,15.759214,15.763242,15.76609,15.767876,15.769562,15.771391,15.773499,15.775652,15.777752,15.779945,15.782211,15.784628,15.78704,15.78911,15.790732,15.792057,15.793214,15.794056,15.794781,15.795293,15.795578,15.795492,15.795143,15.794528,15.793424,15.791883,15.78993,15.787817,15.785967,15.784785,15.784193,15.783788,15.78337,15.782876,15.782404,15.781812,15.78113,15.780361,15.779432,15.778349,15.777096,15.775517,15.773586,15.771251,15.768705,15.766319,15.764387,15.762812,15.761646,15.760904,15.760355,15.759753,15.758981,15.758126,15.757362,15.756733,15.756334,15.756262,15.756336,15.756414,15.756527,15.756697,15.75679,15.75679,15.75672,15.756594,15.756478,15.756403,15.75623,15.755756,15.754778,15.752952,15.750321,15.747278,15.744417,15.742258,15.741215,15.741405,15.7429085,15.745565,15.749001,15.752928,15.757151,15.761484,15.76622,15.771309,15.776516,15.781653,15.786566,15.79117,15.795517,15.799819,15.80408,15.807953,15.810838,15.812235,15.812258,15.811562,15.810607,15.810091,15.810379,15.811447,15.813092,15.815115,15.8173485,15.819687,15.822433,15.825518,15.828755,15.832021,15.835335,15.838866,15.842667,15.847145,15.852124,15.857414,15.862937,15.868577,15.874287,15.880237,15.886345,15.892774,15.899044,15.904979,15.91029,15.914596,15.917919,15.920298,15.921991,15.922924,15.923185,15.922545,15.921066,15.919551,15.918025,15.91668,15.915611,15.915401,15.9159565,15.916958,15.91826,15.91942,15.921075,15.922668,15.924019,15.924587,15.92433,15.923727,15.922771,15.92167,15.919408,15.917503,15.916449,15.916098,15.916224,15.916391,15.916742,15.917004,15.917532,15.918601,15.920913,15.924965,15.930346,15.937109,15.940096,15.943628,15.948526,15.954264,15.959589,15.963192,15.965766,15.967133,15.967377,15.966385,15.963833,15.959485,15.9538765,15.9483795,15.942278,15.937357,15.933889,15.931967,15.93055,15.928167,15.924675,15.919497,15.911961,15.910178,15.926781,15.96928,16.028698,16.087957,16.15506,16.235409,16.18185,16.053387,15.904554,15.792451,15.822815,15.995831,15.760518,13.599236,11.787811,11.147313,11.036404,11.156813,11.236872,11.354552,11.427935,11.418172,11.347866,11.264229,11.19998,11.16823,11.154292,11.14035,11.116833,11.0809555,11.03743,10.99374,10.954449,10.917143,10.87876,10.840414,10.807808,10.779451,10.752112,10.72801,10.70615,10.690606,10.6931305,10.722162,10.790193,10.900629,11.038624,11.183107,11.326214,11.463417,11.5799885,11.665495,11.720148,11.751652,11.767954,11.782822,11.806008,11.839107,11.875043,11.904146,11.916896,11.907634,11.88721,11.855582,11.8221855,11.793615,11.771058,11.753046,11.739827,11.734409,11.738104,11.7604065,11.819498,11.93604,12.111676,12.327387,12.566896,12.848806,13.134492,13.377802,13.5661335,13.697409,13.77055,13.803688,13.810648,13.801928,13.789991,13.810997,13.925856,14.204427,14.668482,15.214699,16.005701,16.420887,16.55154,16.611282,16.638004,16.635513,16.559675,16.462494,16.40918,16.39426,16.39642,16.400213,16.395208,16.383371,16.361942,16.34314,16.33438
15.554255,15.556019,15.558849,15.56234,15.566225,15.570366,15.575078,15.580426,15.585829,15.590527,15.594004,15.596185,15.597242,15.598139,15.599112,15.60034,15.601587,15.60277,15.604078,15.605545,15.607289,15.609171,15.610901,15.612385,15.613763,15.615111,15.616224,15.617205,15.617912,15.618229,15.617957,15.6171875,15.61597,15.6141815,15.611923,15.609203,15.606284,15.603665,15.601848,15.600792,15.600084,15.599541,15.59906,15.598757,15.598535,15.598378,15.598217,15.597899,15.59734,15.596567,15.595479,15.594056,15.592278,15.590324,15.588533,15.58718,15.586222,15.585732,15.585682,15.585829,15.585926,15.585873,15.58576,15.585724,15.585806,15.586065,15.586458,15.586777,15.586916,15.586977,15.587059,15.587088,15.587013,15.586872,15.586718,15.586634,15.586641,15.586593,15.58622,15.585264,15.583349,15.580496,15.577114,15.573834,15.5711975,15.569611,15.569156,15.56999,15.571993,15.574847,15.578283,15.582074,15.5860405,15.590472,15.59538,15.600531,15.605686,15.61068,15.615414,15.619888,15.624407,15.629018,15.633377,15.636902,15.639112,15.640126,15.640529,15.640743,15.641401,15.642725,15.64459,15.646788,15.649191,15.651723,15.654346,15.657333,15.660552,15.663777,15.666917,15.670048,15.673331,15.676821,15.68087,15.68526,15.689827,15.694589,15.699543,15.704699,15.710197,15.715923,15.722015,15.728065,15.733896,15.739227,15.743687,15.747255,15.749912,15.75193,15.75318,15.753718,15.753346,15.752194,15.751066,15.750002,15.749214,15.748773,15.749181,15.750324,15.751913,15.753794,15.755512,15.757683,15.759795,15.761696,15.762873,15.763274,15.76335,15.763031,15.762545,15.760857,15.759374,15.758566,15.758285,15.758357,15.758459,15.758735,15.758972,15.759515,15.76058,15.762852,15.766802,15.772015,15.778567,15.785358,15.789686,15.794212,15.800138,15.805727,15.809734,15.812539,15.814039,15.814409,15.8135395,15.811117,15.806971,15.801653,15.796483,15.790876,15.786551,15.783739,15.782638,15.782163,15.780609,15.777684,15.772871,15.765465,15.762789,15.775869,15.813421,15.868312,15.922812,15.984621,16.089165,16.047043,15.921288,15.777854,15.660877,15.664158,15.821703,15.578432,13.459574,11.737215,11.1507,11.037576,11.160044,11.239757,11.3553295,11.427202,11.416662,11.346464,11.263457,11.199591,11.167892,11.153991,11.140366,11.117684,11.083038,11.040759,10.997933,10.958849,10.920969,10.881538,10.842412,10.809824,10.783054,10.758928,10.738343,10.718868,10.704026,10.703808,10.726884,10.787947,10.892938,11.02918,11.177635,11.330199,11.474735,11.599291,11.690635,11.746412,11.7762575,11.78949,11.801523,11.822852,11.855172,11.89167,11.922251,11.936366,11.92765,11.906633,11.871948,11.833482,11.799635,11.773336,11.75437,11.743153,11.740467,11.745535,11.76655,11.8201065,11.92782,12.094145,12.303266,12.542285,12.836134,13.13672,13.393036,13.594431,13.73699,13.816797,13.85813,13.866249,13.861731,13.856749,13.883717,14.008774,14.284328,14.695185,15.198078,15.899548,16.288084,16.412363,16.460377,16.475082,16.434422,16.314701,16.231678,16.200172,16.197311,16.201477,16.204308,16.20092,16.190926,16.17588,16.164257,16.159014
15.3922825,15.3932295,15.3951645,15.397757,15.400792,15.40415,15.408125,15.412801,15.417619,15.421782,15.424699,15.42625,15.426662,15.426896,15.427157,15.427645,15.428128,15.428516,15.429035,15.429792,15.430935,15.432322,15.433708,15.434981,15.436239,15.437534,15.438635,15.439615,15.440279,15.440474,15.43998,15.438866,15.437209,15.434952,15.432228,15.428978,15.425509,15.42238,15.420174,15.41887,15.418041,15.417511,15.417119,15.416971,15.417037,15.417277,15.417561,15.417665,15.41746,15.41703,15.416298,15.415283,15.414005,15.412598,15.411318,15.410437,15.409912,15.409833,15.410143,15.4105835,15.410927,15.411102,15.411223,15.411425,15.411742,15.412197,15.412677,15.412973,15.413025,15.412967,15.412961,15.412963,15.412905,15.41282,15.41276,15.412792,15.412928,15.413021,15.41275,15.411821,15.409817,15.406748,15.403062,15.39941,15.396327,15.394247,15.393233,15.393454,15.394851,15.397125,15.399998,15.403232,15.40666,15.410566,15.415,15.419737,15.424529,15.429193,15.4336405,15.4379,15.442298,15.446949,15.451515,15.455431,15.45826,15.460086,15.461414,15.462677,15.464432,15.466782,15.469509,15.472382,15.475319,15.478313,15.481354,15.484726,15.488237,15.491643,15.494871,15.4980345,15.501311,15.504727,15.508617,15.512703,15.516846,15.521103,15.525541,15.5302105,15.535212,15.540455,15.546061,15.55167,15.557152,15.562269,15.566668,15.5703,15.57309,15.575358,15.576927,15.577823,15.577866,15.577198,15.576612,15.576133,15.576004,15.576251,15.577293,15.579,15.58112,15.583488,15.585674,15.588292,15.590842,15.593189,15.594845,15.5957575,15.596347,15.5964985,15.596447,15.595202,15.594051,15.593422,15.593181,15.593195,15.593229,15.593415,15.593578,15.594063,15.595056,15.597212,15.600985,15.605936,15.612035,15.619677,15.627752,15.633658,15.63877,15.644466,15.648774,15.651888,15.653752,15.654455,15.653908,15.651821,15.648048,15.643137,15.63834,15.633179,15.6293125,15.626934,15.626397,15.626652,15.625824,15.623529,15.619262,15.612358,15.608327,15.618677,15.651199,15.698887,15.747614,15.803527,15.921076,15.900869,15.786127,15.646065,15.525057,15.50355,15.639358,15.359803,13.27861,11.669571,11.1567745,11.042841,11.168411,11.245813,11.357986,11.425131,11.412829,11.342794,11.260117,11.197018,11.165573,11.151801,11.138586,11.11688,11.083698,11.042947,11.001221,10.962505,10.924201,10.883921,10.844231,10.811848,10.786898,10.766367,10.749851,10.733561,10.7203865,10.718151,10.735504,10.78887,10.887861,11.022888,11.173866,11.330845,11.484774,11.620237,11.719555,11.778841,11.80886,11.820183,11.82984,11.849014,11.87969,11.91562,11.946659,11.961601,11.953525,11.932337,11.895105,11.851952,11.812639,11.78172,11.760494,11.749885,11.748716,11.75423,11.77342,11.821225,11.920229,12.077389,12.280344,12.521519,12.83042,13.145961,13.421381,13.633673,13.776538,13.860975,13.914459,13.932154,13.931733,13.93379,13.968427,14.098865,14.359538,14.710203,15.162806,15.765686,16.143288,16.274605,16.305668,16.278858,16.158161,16.050215,15.995504,15.984297,15.989885,15.995394,15.9974575,15.995348,15.990892,15.982363,15.975105,15.972322
