5.4457664,5.444278,5.442771,5.439954,5.435771,5.4317536,5.4280233,5.423808,5.4190845,5.4153204,5.4115753,5.407939,5.4040546,5.399324,5.3938684,5.3876715,5.3816724,5.3754387,5.369066,5.3628497,5.3566465,5.350672,5.345138,5.3398046,5.334901,5.32998,5.3240104,5.316658,5.3088784,5.3015122,5.2946568,5.288197,5.2823305,5.277187,5.2725773,5.266637,5.259141,5.250478,5.2417655,5.234186,5.2283487,5.2244167,5.222577,5.222314,5.222373,5.2203283,5.217353,5.2146606,5.212386,5.2093744,5.203399,5.1951675,5.1848474,5.17297,5.1570225,5.1388097,5.1130056,5.069996,4.999384,4.9000916,4.825644,4.771448,4.743996,4.74077,4.7520056,4.76466,4.769105,4.7636147,4.7524977,4.741659,4.734722,4.73336,4.7368946,4.7431154,4.750758,4.761305,4.7781,4.802539,4.8284492,4.853778,4.86728,4.8567877,4.8208675,4.775077,4.7379713,4.7168636,4.713668,4.7226944,4.7343044,4.744781,4.748781,4.7476563,4.744747,4.739895,4.732452,4.724226,4.7169333,4.709875,4.706186,4.7059197,4.7054324,4.7009926,4.690735,4.674184,4.653724,4.6353073,4.6240883,4.630451,4.6633205,4.735713,4.8777957,5.1027336,5.356783,5.5555496,5.653887,5.723199,5.77321,5.808676,5.833806,5.853529,5.8734026,5.8930607,5.9141426,5.9348297,5.952883,5.9698505,5.985335,5.997039,6.005394,6.0129623,6.018926,6.024623,6.0307384,6.0366545,6.042085,6.046836,6.0509706,6.0548086,6.0586977,6.0628138,6.0666866,6.07003,6.0723443,6.073015,6.072068,6.0700336,6.0673914,6.0646863,6.0630217,6.0629053,6.064839,6.068981,6.073008,6.074973,6.0747952,6.0734024,6.071725,6.070696,6.0705247,6.070718,6.0708694,6.0707483,6.0706816,6.0712166,6.0726414,6.0749645,6.0780277,6.081245,6.0834646,6.0843525,6.083394,6.0799303,6.0737343,6.065486,6.0565653,6.0479784,6.0398026,6.031297,6.0218387,6.0112906,6.0015182,5.993826,5.9877224,5.984188,5.983438,5.984275,5.9881606,5.9926167,5.9949875,5.9955215,5.9958925,5.9966125,5.9976473,5.999464,6.000847,6.0012336,6.0003414,5.997673,5.993395,5.98823,5.982893,5.9788594,5.97666,5.9768486,5.9791737,5.9833393,5.987726,5.991533,5.9953575,5.999077,6.002309,6.0051074,6.0071616,6.0078535,6.0073795,6.006394,6.0051575,6.003914,6.003441,6.0037184,6.0048556,6.0083103,6.012999,6.0178347,6.0218506,6.024597,6.0264735,6.0280437,6.0297203,6.032791,6.038944,6.04552,6.052327,6.0590205,6.0636425,6.0652075,6.0645695,6.062575,6.059643,6.0567007,6.0538282,6.0509663,6.0479774,6.0447226,6.0414925,6.038953,6.0368843,6.035816,6.034198,6.032114,6.0297375,6.0265517,6.0219135,6.015972,6.00994,6.0047436,5.999797,5.995131,5.990163,5.9837236,5.9742646,5.961314,5.9457884,5.9273243,5.911046,5.896781,5.8842335,5.8728247,5.8617964,5.850294,5.8375854,5.823639,5.809987,5.796896,5.784168,5.772051,5.761814,5.7531815,5.7439613,5.732341,5.7183003,5.7025604,5.684292,5.6634445,5.641079,5.6167603,5.591734,5.567531,5.543988,5.5220194,5.5016522,5.4815235,5.460601,5.4361343,5.409084,5.381813,5.3522468,5.317132,5.2813826,5.24933,5.2194014,5.193925,5.172667,5.153483
5.450235,5.448227,5.4462595,5.443921,5.4403214,5.4354725,5.4310207,5.4268913,5.4230423,5.419518,5.415043,5.4100394,5.404827,5.399084,5.392932,5.386732,5.3805747,5.374291,5.368086,5.362008,5.355487,5.3490505,5.3433123,5.337722,5.3323717,5.3268824,5.3202467,5.312497,5.304539,5.297096,5.2906685,5.2853756,5.2805185,5.2750444,5.2697096,5.263629,5.2564516,5.248548,5.24074,5.2343874,5.2302184,5.2273703,5.2252297,5.224446,5.2233667,5.2204924,5.2166367,5.21297,5.2101326,5.2067537,5.1997404,5.1903315,5.1781654,5.164831,5.1484556,5.126972,5.089258,5.016464,4.907574,4.7966375,4.7210073,4.6686244,4.641876,4.6378922,4.646429,4.6566563,4.6605225,4.654729,4.6433363,4.6320214,4.6232777,4.6193023,4.619251,4.621147,4.623831,4.6281533,4.6364527,4.650131,4.667325,4.6840997,4.6898117,4.6716833,4.631736,4.5850782,4.5470257,4.5259314,4.5243115,4.536072,4.55371,4.5716105,4.5839543,4.589878,4.592028,4.592118,4.5901165,4.58664,4.58234,4.577683,4.5751266,4.576088,4.578907,4.580285,4.5777225,4.5705605,4.560419,4.551841,4.5539217,4.57195,4.602064,4.6596932,4.7962065,5.0323133,5.3012934,5.5571175,5.671319,5.7458687,5.79877,5.831395,5.851642,5.8683004,5.883514,5.899246,5.918586,5.938177,5.9565434,5.975439,5.9917974,6.003687,6.0130897,6.0214024,6.027916,6.0336475,6.0391264,6.0442705,6.048953,6.0530148,6.056599,6.0600443,6.063587,6.0673265,6.0708017,6.073636,6.0753603,6.075369,6.07375,6.071126,6.0679665,6.0644994,6.061202,6.0585737,6.057267,6.0575085,6.058358,6.0584993,6.057577,6.0561886,6.0549803,6.0548105,6.055807,6.0573387,6.0588512,6.059863,6.060557,6.061552,6.0631323,6.0650015,6.066862,6.0684853,6.069609,6.0694594,6.067459,6.063551,6.0581617,6.0517597,6.0446167,6.037582,6.0309305,6.024214,6.017173,6.009557,6.00233,5.996395,5.991647,5.988679,5.9878144,5.9883223,5.9911413,5.9941635,5.9966335,5.998876,6.000967,6.0029,6.0047083,6.006877,6.008128,6.0080557,6.0067387,6.004015,6.000051,5.9953394,5.990362,5.986327,5.984007,5.9840994,5.9865103,5.9907174,5.995448,6.000066,6.0043564,6.0074573,6.0097046,6.011522,6.012883,6.0135827,6.0138245,6.0138903,6.0138197,6.0134954,6.0129976,6.0131392,6.0142975,6.0171847,6.021414,6.0263567,6.030979,6.0346565,6.037676,6.040377,6.0430064,6.0468893,6.054124,6.062994,6.071421,6.0790954,6.0852966,6.0883455,6.0887966,6.087287,6.0840397,6.0800896,6.075795,6.0713453,6.067151,6.063475,6.0603065,6.057895,6.055931,6.05519,6.054928,6.0534563,6.051013,6.047457,6.0420637,6.03594,6.030633,6.02658,6.022538,6.018117,6.012686,6.0054884,5.995182,5.980977,5.963808,5.9446726,5.9290786,5.9143133,5.9010973,5.889104,5.8774667,5.8653264,5.8520613,5.837886,5.82421,5.8107038,5.796931,5.7839174,5.7720346,5.7614107,5.7509336,5.738457,5.7234993,5.7075715,5.6896157,5.6688185,5.646179,5.622199,5.5978436,5.5738125,5.5502243,5.528367,5.5082064,5.488168,5.468844,5.445018,5.4180665,5.3910775,5.3630724,5.331736,5.2973166,5.2659483,5.237272,5.213481,5.1937623,5.1756687
5.4558916,5.4535513,5.4510345,5.448489,5.4454374,5.441117,5.4363923,5.432009,5.4276795,5.423128,5.417948,5.411921,5.4058514,5.400038,5.393836,5.3876405,5.3816156,5.3755293,5.3695803,5.3637433,5.3573523,5.350914,5.3450065,5.338996,5.3330383,5.3268003,5.3193274,5.3108015,5.3017225,5.293002,5.28582,5.28075,5.276782,5.2717547,5.2660685,5.2601943,5.2539067,5.2473927,5.2409086,5.2355857,5.2322807,5.2300634,5.2283287,5.226822,5.224557,5.220525,5.21525,5.2095013,5.2038317,5.197096,5.187023,5.1766233,5.1663046,5.1567955,5.1416903,5.115197,5.066944,4.974401,4.847083,4.748933,4.6747837,4.6220703,4.5938535,4.5875998,4.59459,4.6039925,4.6070504,4.6006355,4.588334,4.57541,4.5644755,4.5577173,4.555373,4.5550985,4.555139,4.556135,4.559989,4.5678368,4.577623,4.5837984,4.578414,4.553234,4.5111156,4.4641776,4.425972,4.405735,4.4052114,4.420206,4.445137,4.472335,4.493881,4.5068645,4.513583,4.516815,4.5171366,4.5157013,4.514125,4.5138555,4.515726,4.5198326,4.524556,4.5276384,4.529089,4.5305915,4.5298877,4.5317993,4.5420284,4.5660925,4.596303,4.649926,4.7860293,5.0267916,5.300808,5.575632,5.6973453,5.7736063,5.8246956,5.8526115,5.869501,5.883606,5.8941793,5.9112215,5.9311166,5.950553,5.970703,5.990115,6.0061483,6.0182877,6.027713,6.035042,6.0406933,6.045363,6.0499845,6.0548105,6.059149,6.0626297,6.0654793,6.068201,6.0712852,6.074808,6.0779657,6.0803423,6.081505,6.0808525,6.078513,6.075119,6.07112,6.066794,6.0627365,6.059286,6.056002,6.0530987,6.0509696,6.0490623,6.047009,6.045237,6.044098,6.0442276,6.045739,6.0481033,6.050846,6.053497,6.056031,6.058652,6.0612464,6.0633564,6.064663,6.065102,6.0647717,6.0635366,6.0611815,6.0576105,6.0530295,6.047744,6.041918,6.036148,6.030752,6.0254927,6.0203333,6.0148025,6.0088615,6.003352,5.999219,5.9967475,5.9962378,5.996982,5.9983063,5.999631,6.0013514,6.003664,6.0061173,6.0083528,6.0102406,6.0122766,6.0131655,6.012827,6.0117884,6.0098176,6.0066643,6.002717,5.9986124,5.995197,5.9933157,5.993462,5.995632,5.9992228,6.0037546,6.0087957,6.0134277,6.016624,6.018494,6.019649,6.020608,6.021538,6.022645,6.023656,6.02419,6.024211,6.0239763,6.0244913,6.02645,6.0292587,6.032939,6.0373244,6.0418296,6.0461884,6.050541,6.054619,6.0582933,6.062754,6.069771,6.0799146,6.0899324,6.098659,6.1060853,6.110471,6.111971,6.111025,6.107687,6.102915,6.097411,6.091809,6.08664,6.082176,6.0785837,6.0761337,6.0744176,6.0729446,6.071946,6.0703053,6.0679975,6.0646305,6.0597258,6.054556,6.050288,6.047086,6.0442157,6.040269,6.034956,6.027197,6.0158854,6.000589,5.9819255,5.963915,5.9480553,5.9329824,5.9193335,5.906759,5.894452,5.8816695,5.868024,5.8538375,5.839861,5.8255544,5.810748,5.7970676,5.78448,5.7721624,5.759595,5.746188,5.7311773,5.7152147,5.6971245,5.6761045,5.6532373,5.629341,5.6050324,5.5808725,5.5574927,5.5359316,5.5162477,5.4964404,5.4784656,5.4565096,5.430664,5.404048,5.377117,5.348713,5.318578,5.2892013,5.2613215,5.238761,5.2204876,5.203568
5.462407,5.459798,5.4570127,5.453919,5.4504957,5.446579,5.442009,5.4370704,5.4313684,5.425706,5.420659,5.4150286,5.408765,5.402588,5.396381,5.3903446,5.384593,5.37887,5.373275,5.367754,5.3619375,5.3561096,5.350257,5.3437014,5.337041,5.3299556,5.321583,5.3117256,5.301069,5.29095,5.2827253,5.277135,5.2735376,5.2696085,5.264533,5.2593546,5.254603,5.249895,5.24489,5.240203,5.236534,5.2337475,5.2319965,5.2298546,5.226388,5.2206383,5.2133226,5.2044306,5.1939125,5.181873,5.168357,5.1572905,5.149492,5.145177,5.1344957,5.1083145,5.058591,4.96731,4.844158,4.7494354,4.675645,4.6229057,4.593423,4.584695,4.588913,4.596366,4.598689,4.592352,4.580454,4.567707,4.556963,4.5502424,4.54844,4.548677,4.548661,4.5488615,4.5507154,4.5552673,4.561499,4.563774,4.5528107,4.5214086,4.4703484,4.413089,4.3672447,4.3428836,4.3426623,4.3608065,4.3933797,4.4307327,4.4627457,4.484949,4.49879,4.50706,4.510897,4.5112867,4.51047,4.5104446,4.5131507,4.5183945,4.5249414,4.531853,4.538847,4.545329,4.5492086,4.5562754,4.5680285,4.5909786,4.6256266,4.693083,4.842841,5.0908175,5.3704214,5.6161776,5.7343354,5.808316,5.852961,5.8761196,5.89003,5.900673,5.9106474,5.9303503,5.9509735,5.970877,5.9919357,6.0110188,6.026143,6.0374203,6.045701,6.0518155,6.0564523,6.06029,6.0647054,6.069523,6.0736666,6.0766926,6.078889,6.0807996,6.0831337,6.0864244,6.0892935,6.0911913,6.091715,6.090291,6.087119,6.0828576,6.0779,6.072489,6.0672274,6.0624,6.0577984,6.053815,6.0505347,6.0475636,6.044774,6.042555,6.041292,6.0414386,6.043106,6.0459714,6.049741,6.054002,6.0584087,6.062598,6.066128,6.0686197,6.06981,6.069729,6.0686436,6.0668845,6.064641,6.0615244,6.0573235,6.052431,6.0471935,6.0421324,6.037548,6.0331182,6.0286155,6.023592,6.0182924,6.013611,6.0102305,6.008444,6.0084767,6.009301,6.010376,6.011679,6.0128727,6.014489,6.016956,6.019307,6.0210514,6.0226374,6.022998,6.022367,6.0214577,6.0199156,6.017276,6.0139303,6.010607,6.0079236,6.0063105,6.005949,6.0070524,6.009889,6.013938,6.018324,6.0224724,6.025874,6.0278625,6.0289097,6.029827,6.030965,6.0326834,6.0346284,6.036007,6.0367336,6.0375795,6.038889,6.041298,6.0443845,6.0477037,6.0512905,6.0552573,6.059734,6.0647216,6.069681,6.074241,6.079317,6.086401,6.0962477,6.107383,6.1176395,6.1257906,6.131355,6.133826,6.133475,6.130222,6.12498,6.1186047,6.1117954,6.1056147,6.1007395,6.096838,6.0936837,6.091179,6.088853,6.086213,6.0838547,6.081681,6.0790167,6.0756683,6.0721273,6.069031,6.0666356,6.0650935,6.061677,6.0565515,6.048622,6.036573,6.0201945,6.000642,5.983973,5.967974,5.952733,5.9386396,5.9254313,5.912445,5.8991137,5.885209,5.870845,5.8564315,5.840934,5.8257084,5.811558,5.7981224,5.784655,5.7707787,5.7563286,5.7409797,5.724663,5.7061334,5.684724,5.661569,5.637331,5.612771,5.5886745,5.5655766,5.544379,5.5245686,5.504837,5.48746,5.4689116,5.445214,5.418676,5.392055,5.3641515,5.337825,5.311477,5.285473,5.2644186,5.2473254,5.2313366
5.469474,5.466743,5.463818,5.4605465,5.456755,5.4522824,5.4473615,5.442086,5.4360833,5.4299955,5.4243956,5.418965,5.4130254,5.406643,5.4004793,5.394655,5.389185,5.3837476,5.378456,5.3731155,5.3679295,5.36312,5.357836,5.351146,5.3441916,5.336512,5.327364,5.3158436,5.3037004,5.29272,5.2840276,5.2782283,5.274748,5.2714357,5.267131,5.262866,5.259516,5.256306,5.252463,5.2480497,5.243745,5.240121,5.2368927,5.2336397,5.2284174,5.2201395,5.210005,5.19786,5.1839323,5.1695023,5.1550283,5.1433883,5.1354427,5.1327233,5.1294823,5.112257,5.0715218,4.9964995,4.8913527,4.7940073,4.7216682,4.6680393,4.637043,4.6268907,4.6291275,4.634695,4.6366663,4.6315775,4.6217318,4.6116676,4.6036386,4.5997725,4.6002994,4.6026287,4.604871,4.607644,4.611617,4.615299,4.618668,4.617242,4.597009,4.5509405,4.483059,4.4084926,4.347596,4.3166103,4.3200808,4.3440533,4.3885145,4.441557,4.490288,4.5256076,4.5476775,4.5616035,4.569359,4.5720224,4.572109,4.569833,4.5693026,4.5730467,4.5815015,4.5936236,4.6065917,4.617289,4.627196,4.6371326,4.650934,4.6695094,4.709279,4.8009896,4.9727077,5.224398,5.5010653,5.6791277,5.783122,5.850659,5.8878107,5.906,5.914333,5.9206624,5.93378,5.9528103,5.9739428,5.995617,6.0166683,6.0350733,6.049303,6.059513,6.0668287,6.0721035,6.076005,6.0793247,6.0841365,6.088611,6.092246,6.0949306,6.096922,6.098566,6.100358,6.1034527,6.106023,6.1073503,6.107052,6.1046047,6.1003046,6.094857,6.0886235,6.081826,6.07507,6.068572,6.0622587,6.0567093,6.0519943,6.0477667,6.044028,6.0412335,6.039782,6.0401497,6.0423737,6.046032,6.050763,6.05616,6.061778,6.0671024,6.071553,6.0745745,6.075796,6.075487,6.074051,6.071973,6.0696487,6.0668125,6.063216,6.059128,6.054779,6.0506344,6.0469966,6.0435286,6.0399895,6.035901,6.0314283,6.0274096,6.024557,6.0231915,6.0235767,6.024873,6.026525,6.0282183,6.0294466,6.03123,6.0341873,6.0366907,6.038172,6.03913,6.0386605,6.0371847,6.0354147,6.0332813,6.0306716,6.0281363,6.0262194,6.0246434,6.023155,6.0220184,6.0216107,6.023058,6.026354,6.0304947,6.0344887,6.037557,6.03924,6.0401573,6.041282,6.043023,6.0456276,6.0486226,6.051127,6.052864,6.0543694,6.0560417,6.058792,6.061756,6.0647187,6.067984,6.0716763,6.075841,6.0806074,6.085706,6.090728,6.0961275,6.103126,6.1122303,6.124004,6.1357193,6.144658,6.151158,6.154506,6.1547604,6.151723,6.146372,6.138879,6.130362,6.123498,6.119214,6.115386,6.1110516,6.1063757,6.102565,6.100225,6.0982676,6.0963016,6.0942,6.09179,6.089545,6.0878243,6.086528,6.085888,6.083038,6.0775585,6.0693207,6.0567303,6.039095,6.019683,6.0039396,5.9879684,5.972846,5.958525,5.944791,5.931222,5.917437,5.9032393,5.8884716,5.8732653,5.857292,5.8419447,5.827028,5.8124824,5.79799,5.7831345,5.7677307,5.751526,5.734592,5.715616,5.693819,5.6703186,5.645806,5.621086,5.597001,5.5741644,5.553295,5.5325055,5.5129204,5.4960585,5.480523,5.4593315,5.4332657,5.4068346,5.3789434,5.352165,5.327331,5.303854,5.2846813,5.2683506,5.2526608
5.47694,5.47425,5.471323,5.467988,5.4641685,5.4598303,5.4550924,5.4495792,5.4428473,5.4358635,5.429534,5.423788,5.418096,5.412094,5.405946,5.400261,5.3948526,5.389303,5.3840055,5.3789005,5.374012,5.3694286,5.3646336,5.3589115,5.352605,5.345007,5.335422,5.3238726,5.3112955,5.2996354,5.290499,5.2845197,5.280957,5.2770834,5.273367,5.2700987,5.267967,5.2657614,5.26264,5.258216,5.2530375,5.248538,5.243992,5.239066,5.232261,5.2214074,5.2080116,5.1930876,5.1776233,5.1623554,5.1464987,5.133124,5.127526,5.1294055,5.1316214,5.124411,5.0970154,5.0438886,4.9663,4.873699,4.80005,4.7465067,4.714155,4.7011585,4.7005053,4.704378,4.706538,4.7035584,4.6966887,4.6900883,4.68635,4.687024,4.6924343,4.6999454,4.707083,4.713877,4.720592,4.725261,4.729681,4.728754,4.699415,4.626117,4.5295334,4.427085,4.338622,4.300905,4.3106813,4.347267,4.4077663,4.4850473,4.558419,4.6121416,4.646327,4.668313,4.681284,4.6873007,4.6893167,4.687425,4.6859503,4.6892977,4.6989646,4.714226,4.7325873,4.750226,4.7662215,4.782797,4.8034515,4.824073,4.8718605,4.9800887,5.165609,5.4088426,5.638029,5.7557645,5.8402224,5.898052,5.92745,5.940258,5.943144,5.945049,5.9588695,5.977957,6.0008764,6.022505,6.043111,6.060968,6.0745106,6.083969,6.0906086,6.0953135,6.0988073,6.1022887,6.1067953,6.110902,6.1142626,6.116729,6.1185465,6.120283,6.12253,6.125807,6.1280107,6.128609,6.1272125,6.123358,6.1174784,6.110368,6.1024113,6.0938644,6.085376,6.0771637,6.0692015,6.0624275,6.056447,6.050802,6.0458016,6.0421033,6.0401783,6.0405035,6.043027,6.047221,6.0526276,6.0589952,6.0657873,6.072234,6.0776196,6.08129,6.0828753,6.0827103,6.0813003,6.079279,6.077244,6.074995,6.0722094,6.069062,6.065708,6.06254,6.059851,6.057295,6.0546107,6.0513115,6.0475163,6.044036,6.0416107,6.040566,6.041189,6.042769,6.0448246,6.0471306,6.0491323,6.0518055,6.0555267,6.058214,6.0592275,6.0591373,6.0570536,6.0541906,6.0516863,6.049419,6.047055,6.044839,6.0429993,6.041396,6.039959,6.0389776,6.038583,6.0385914,6.0402403,6.0439034,6.0479374,6.0509253,6.052494,6.053412,6.054859,6.057337,6.0609856,6.0651283,6.068688,6.071258,6.0733347,6.0753455,6.078083,6.08063,6.083229,6.0862637,6.089767,6.093958,6.0991793,6.1049166,6.1102915,6.115423,6.1215343,6.129614,6.1406765,6.153124,6.163681,6.1707954,6.174892,6.1756973,6.1729393,6.167553,6.158311,6.148567,6.141714,6.1371007,6.132784,6.1283894,6.122916,6.1173825,6.114689,6.113022,6.111569,6.110381,6.1091747,6.1082134,6.107629,6.1071653,6.1064816,6.104501,6.0992866,6.0900373,6.0757914,6.057373,6.03924,6.022872,6.0068007,5.992325,5.9785104,5.9645686,5.9504104,5.936103,5.9215403,5.906415,5.889678,5.8744555,5.858638,5.8428617,5.8274164,5.811928,5.796052,5.77971,5.762786,5.745288,5.725854,5.703632,5.6797104,5.6548223,5.629818,5.605603,5.582878,5.5622563,5.5409536,5.5223913,5.5051165,5.4893737,5.470787,5.447151,5.420387,5.392364,5.365387,5.3401814,5.3162932,5.29706,5.280864,5.2652354
5.484462,5.4818964,5.4790206,5.4759693,5.472759,5.4689207,5.464219,5.4586024,5.451445,5.4436445,5.4364367,5.430003,5.423929,5.417925,5.4119425,5.4060555,5.400448,5.394982,5.3898,5.384714,5.37978,5.3751607,5.3703175,5.3644857,5.358138,5.350836,5.3423076,5.332608,5.3221245,5.3113937,5.3020372,5.2954426,5.291002,5.2874064,5.2839155,5.2817583,5.2803965,5.277652,5.2742777,5.2701664,5.264246,5.258155,5.2523685,5.2464895,5.2389803,5.2262707,5.2117844,5.197072,5.1815934,5.165488,5.148866,5.134677,5.125246,5.1298385,5.1359673,5.136859,5.1240273,5.0886974,5.0323486,4.966486,4.901976,4.847099,4.8105326,4.7929473,4.7886133,4.791964,4.797294,4.7985783,4.7950935,4.791648,4.7920527,4.7978997,4.8097525,4.8234487,4.8351536,4.8461485,4.859612,4.874327,4.8873878,4.882113,4.8410378,4.7336087,4.5929832,4.448785,4.3285236,4.2834344,4.297518,4.3556213,4.4394007,4.5422554,4.642567,4.7199306,4.769533,4.7995048,4.8186064,4.830303,4.8383274,4.8415384,4.842743,4.846675,4.85588,4.8709555,4.8911753,4.913994,4.9376955,4.9653845,4.9923897,5.02884,5.09812,5.207382,5.3673077,5.5679445,5.735151,5.8311715,5.8970466,5.944313,5.966508,5.9737787,5.9727073,5.971985,5.985259,6.0063,6.028517,6.050004,6.0701337,6.0872793,6.100091,6.1089,6.1150255,6.119393,6.122755,6.1263504,6.130643,6.1345425,6.137761,6.14005,6.1419845,6.144648,6.148146,6.151357,6.153214,6.15302,6.150366,6.144856,6.1370425,6.1278462,6.1177244,6.107066,6.096975,6.0883665,6.079707,6.0714293,6.063838,6.056919,6.050993,6.0467353,6.0445843,6.0449605,6.04775,6.052423,6.0585995,6.0656796,6.072855,6.079336,6.084451,6.0878496,6.090315,6.0908394,6.0899696,6.088448,6.087021,6.085564,6.083727,6.08161,6.0792823,6.0770707,6.0752516,6.073451,6.0714154,6.0686445,6.0652637,6.0621424,6.060052,6.05928,6.060113,6.061984,6.064885,6.0672965,6.071596,6.0777493,6.082469,6.0846567,6.0846586,6.082986,6.0780587,6.0728073,6.0690794,6.066148,6.063201,6.0606537,6.05879,6.05729,6.055996,6.0550985,6.0547943,6.0551844,6.056383,6.0585146,6.061469,6.0644846,6.0660877,6.0671577,6.069051,6.0723324,6.0771074,6.082408,6.0869207,6.0902615,6.0929365,6.095285,6.0979404,6.1005106,6.1033177,6.10647,6.1099005,6.1138706,6.119017,6.1254487,6.131525,6.137084,6.1432037,6.150745,6.160283,6.171821,6.183037,6.190862,6.195606,6.196843,6.194335,6.1883345,6.1781564,6.1682415,6.1611753,6.155614,6.150839,6.146227,6.140834,6.1353436,6.1307755,6.128007,6.1270447,6.1270447,6.127258,6.1276755,6.128395,6.1288643,6.128443,6.126068,6.1204467,6.1104,6.095091,6.0765133,6.058997,6.0418367,6.025501,6.010789,5.997879,5.984199,5.9693556,5.9544125,5.939329,5.923671,5.906753,5.8910284,5.8745937,5.8580694,5.84179,5.8254347,5.808695,5.791566,5.774028,5.7560253,5.736182,5.7135878,5.689269,5.6639814,5.6386204,5.614151,5.5913124,5.570628,5.549276,5.530945,5.514192,5.4977903,5.4798207,5.4583836,5.432578,5.403783,5.3760386,5.3503065,5.3257422,5.305932,5.289231,5.2732754
5.4921093,5.4896793,5.4871473,5.4843655,5.4809694,5.4767466,5.471987,5.466838,5.4610143,5.452958,5.4447894,5.4375544,5.4309683,5.4246445,5.418515,5.412609,5.40703,5.4015493,5.396455,5.391695,5.3871984,5.383106,5.3784814,5.371915,5.3644257,5.3565874,5.3481627,5.3397665,5.3311977,5.3220806,5.313522,5.3066173,5.3009396,5.296772,5.294036,5.292736,5.290784,5.287862,5.284258,5.279749,5.2742386,5.2682676,5.2618756,5.25504,5.2467375,5.233196,5.217703,5.2027464,5.1874523,5.170727,5.153243,5.138013,5.1269865,5.1299944,5.1387973,5.1443787,5.1403656,5.122615,5.090682,5.048685,5.000787,4.957616,4.9265003,4.9087124,4.902257,4.903798,4.9083204,4.9108057,4.9104443,4.9113984,4.91726,4.92931,4.948468,4.9678392,4.9835215,5.0005274,5.020653,5.032462,5.0327883,5.016799,4.9708986,4.854568,4.672369,4.4767437,4.3333282,4.280106,4.2971387,4.367673,4.4777336,4.6112785,4.7591496,4.875656,4.9403744,4.9779873,5.004289,5.025891,5.043951,5.052946,5.0573134,5.063102,5.074396,5.093572,5.1205683,5.1519156,5.1846595,5.2188005,5.2486854,5.278688,5.331276,5.426295,5.5722594,5.7323785,5.8303866,5.9019756,5.953842,5.991099,6.006567,6.010255,6.0067267,6.0043344,6.017863,6.038824,6.0605836,6.082058,6.102276,6.119005,6.1305647,6.1378417,6.1431103,6.147461,6.150819,6.1542253,6.1580725,6.16171,6.1652136,6.1684275,6.1715994,6.1752496,6.1792,6.182578,6.184184,6.183221,6.179221,6.1718593,6.1617937,6.150089,6.1374035,6.1246557,6.1139464,6.103527,6.093014,6.082877,6.0735655,6.0652275,6.0583572,6.053649,6.051305,6.0517225,6.0547237,6.0597353,6.066359,6.0739536,6.081647,6.0888243,6.0949326,6.0990534,6.10105,6.1010575,6.100663,6.099984,6.0994544,6.099002,6.098303,6.0973854,6.096205,6.0950174,6.094058,6.0929356,6.091381,6.0889196,6.0859795,6.083423,6.08162,6.0810375,6.082221,6.0847597,6.08734,6.093652,6.102179,6.1093225,6.1137214,6.115159,6.113903,6.11044,6.103053,6.094324,6.088242,6.0841656,6.0803404,6.077112,6.074872,6.07333,6.072116,6.071332,6.0711975,6.071888,6.0734043,6.0756702,6.078444,6.0811024,6.082946,6.0846553,6.0871134,6.0906334,6.095724,6.1018376,6.1073666,6.1114273,6.114685,6.11755,6.1203213,6.122651,6.1254153,6.128615,6.131983,6.1360617,6.1417446,6.1487565,6.1553173,6.1611004,6.1670437,6.1741233,6.183139,6.1941566,6.204965,6.2127743,6.2178993,6.219465,6.2172065,6.210664,6.200468,6.190175,6.1821146,6.175926,6.170849,6.1661015,6.160729,6.1554494,6.151066,6.148073,6.147089,6.1476135,6.14849,6.149532,6.150855,6.1517353,6.151518,6.148947,6.142846,6.1321993,6.1171856,6.09934,6.0804873,6.062316,6.045512,6.030301,6.0173817,6.004383,5.989558,5.973655,5.9576516,5.941061,5.9243374,5.90802,5.890894,5.873618,5.8565702,5.8394575,5.8219743,5.804168,5.7860794,5.7675934,5.7473383,5.724337,5.699589,5.673805,5.6479406,5.623084,5.599867,5.5786066,5.557577,5.539335,5.522648,5.5062103,5.4888573,5.46935,5.445286,5.415809,5.3860464,5.35813,5.3325944,5.312192,5.294399,5.2772665
5.499552,5.4973607,5.4951572,5.492316,5.4885216,5.484161,5.4793754,5.474455,5.4693174,5.4625587,5.454354,5.446296,5.439087,5.432397,5.426075,5.4200788,5.4144926,5.409298,5.404772,5.4005165,5.396556,5.3921986,5.386334,5.3790526,5.371532,5.3636603,5.3552237,5.3470273,5.339012,5.3311014,5.3233376,5.316302,5.3110247,5.3074884,5.3051853,5.303484,5.300975,5.2977886,5.2938604,5.288934,5.2834597,5.277809,5.2708282,5.2635975,5.253517,5.2392335,5.223172,5.2072325,5.191119,5.173872,5.1558332,5.1402035,5.128071,5.1269007,5.1351194,5.1455364,5.1502132,5.1448927,5.1296587,5.106845,5.0801134,5.05048,5.02546,5.0095277,5.001734,5.000491,5.0036173,5.0074406,5.0104313,5.012947,5.0202165,5.0324483,5.050642,5.0706973,5.0868077,5.100991,5.1166267,5.1221256,5.1113396,5.0949,5.059906,4.9497986,4.736187,4.498955,4.341484,4.2805843,4.303498,4.3851576,4.5158267,4.6919985,4.88478,5.029915,5.101994,5.1362553,5.1658154,5.1923456,5.213833,5.2274785,5.2345924,5.241578,5.2553596,5.280869,5.318452,5.362968,5.40973,5.458068,5.5040674,5.547146,5.5943565,5.664357,5.760906,5.8551445,5.917315,5.9683676,6.007967,6.034368,6.044406,6.0464916,6.042139,6.0397644,6.0543976,6.075677,6.097294,6.118697,6.138948,6.1551247,6.165703,6.171821,6.1756096,6.1785517,6.181724,6.1853943,6.189409,6.193451,6.1974773,6.2013216,6.2051916,6.209448,6.2138395,6.2175026,6.219071,6.2177334,6.2128305,6.2040777,6.192069,6.177909,6.162464,6.1470814,6.1348257,6.122261,6.1096087,6.0974035,6.0861654,6.076303,6.067459,6.060024,6.0560093,6.055231,6.0574293,6.0622396,6.069574,6.0792675,6.090463,6.1004457,6.107283,6.112404,6.1149263,6.1154246,6.114811,6.1147485,6.1153107,6.115919,6.1163893,6.1166945,6.116663,6.116456,6.1161766,6.1153526,6.113907,6.1118226,6.1091976,6.10664,6.105011,6.1046076,6.1056366,6.1083527,6.1149125,6.1253786,6.1357303,6.1431,6.1472807,6.1480665,6.1457157,6.1405573,6.13089,6.118763,6.1095624,6.103638,6.0987883,6.094611,6.091552,6.089654,6.088485,6.08785,6.0880227,6.089217,6.0913577,6.0942483,6.097562,6.100671,6.1030173,6.105342,6.1085095,6.1125374,6.118187,6.1250496,6.131237,6.135664,6.139207,6.142364,6.1454287,6.1476583,6.149743,6.152461,6.155939,6.160597,6.1671963,6.175083,6.1820116,6.1879287,6.193615,6.2000966,6.208432,6.2190175,6.229615,6.2371483,6.242046,6.2436905,6.2417727,6.2349863,6.224681,6.214225,6.2053986,6.1983204,6.193055,6.188416,6.1832066,6.1782446,6.1743774,6.1717825,6.171033,6.1718187,6.1730814,6.1743417,6.1749573,6.1755233,6.17521,6.172455,6.1660547,6.155688,6.141645,6.124101,6.1038904,6.0846977,6.067664,6.051643,6.0376163,6.0247526,6.0100307,5.993122,5.9760165,5.958341,5.941362,5.924357,5.9064837,5.888492,5.870818,5.853156,5.8351555,5.8168817,5.79841,5.7795696,5.7589674,5.7358437,5.710574,5.6842527,5.6578164,5.6323094,5.6085777,5.5862226,5.566022,5.547886,5.5311794,5.5144606,5.4974923,5.47989,5.4570365,5.4256325,5.3943677,5.364525,5.3364563,5.314062,5.294999,5.2764587
5.5065584,5.504609,5.5028157,5.499897,5.495718,5.491666,5.487445,5.482436,5.4771338,5.4715786,5.463954,5.455663,5.448081,5.441101,5.434589,5.4284525,5.422825,5.4178705,5.413681,5.4098744,5.405475,5.4002066,5.3942494,5.3875656,5.380574,5.372838,5.364049,5.355682,5.3478613,5.340316,5.332827,5.326357,5.3223104,5.319268,5.3168025,5.314499,5.3115234,5.3079185,5.303624,5.2982416,5.291978,5.2854815,5.278079,5.26906,5.257308,5.2421474,5.224929,5.207634,5.1908503,5.1736,5.15551,5.139077,5.1256247,5.120148,5.1276813,5.1410093,5.1517363,5.1557374,5.1517267,5.1413813,5.127224,5.109109,5.0921335,5.0793543,5.0708494,5.0673094,5.068654,5.072343,5.07629,5.0779676,5.084264,5.0935783,5.1081476,5.125345,5.137823,5.148912,5.1651096,5.1692066,5.159425,5.1443787,5.1204615,5.012762,4.7747574,4.509773,4.3472366,4.288454,4.311599,4.402144,4.551546,4.7676606,5.001339,5.1588116,5.222108,5.249312,5.2722054,5.303164,5.33103,5.360178,5.382142,5.4006963,5.423787,5.455271,5.496031,5.545763,5.5986,5.650201,5.703156,5.7537684,5.800923,5.85081,5.9032173,5.949988,5.990679,6.026772,6.055916,6.072171,6.07843,6.080902,6.077836,6.0775967,6.094572,6.1168585,6.139059,6.1603894,6.1795616,6.194873,6.204689,6.2100782,6.213274,6.215341,6.217597,6.2208147,6.2246933,6.228827,6.2333484,6.238141,6.24328,6.2490587,6.2551184,6.2600403,6.2624884,6.2610407,6.255123,6.244004,6.229025,6.212302,6.194529,6.176191,6.1602526,6.145636,6.130702,6.116143,6.1032486,6.0904913,6.078047,6.068874,6.0638003,6.0625496,6.064637,6.0697412,6.0778913,6.0889435,6.1029186,6.115535,6.122882,6.128912,6.132359,6.1333265,6.133765,6.1347876,6.136333,6.13799,6.139614,6.141079,6.1420226,6.142496,6.1425962,6.142031,6.1408052,6.139477,6.1375647,6.1349874,6.1331615,6.132849,6.136073,6.142197,6.152459,6.164477,6.1749268,6.1822157,6.1859245,6.18561,6.181728,6.174539,6.1625743,6.1464834,6.1338587,6.125652,6.119175,6.1138945,6.1098523,6.1071725,6.10582,6.1053324,6.105879,6.1076803,6.1105223,6.114242,6.1185603,6.12252,6.125529,6.1285667,6.1323996,6.137459,6.1444745,6.1521635,6.158387,6.162693,6.166055,6.169067,6.1720643,6.1742344,6.175951,6.178298,6.181783,6.1869507,6.1943483,6.202752,6.2099986,6.215991,6.221328,6.227232,6.2350445,6.245093,6.2551723,6.262416,6.2669683,6.2686152,6.267071,6.260203,6.2500024,6.23932,6.2300396,6.2226973,6.216947,6.212388,6.207554,6.2030478,6.199685,6.1975284,6.197095,6.1980753,6.1992626,6.199974,6.1997724,6.1999307,6.199383,6.1965165,6.190213,6.1803923,6.1670513,6.1495514,6.1285267,6.1087055,6.0910387,6.073981,6.0584,6.04488,6.02993,6.0122657,5.9940414,5.974886,5.9571347,5.9393244,5.9206395,5.901953,5.8837757,5.865752,5.8474436,5.8288965,5.8102136,5.7911644,5.770443,5.746335,5.720035,5.693426,5.6672506,5.641759,5.617317,5.593976,5.574766,5.55669,5.5399847,5.522805,5.507039,5.4902906,5.4658985,5.4334135,5.4003696,5.368556,5.337617,5.311632,5.2902412,5.270181
5.5122623,5.510452,5.508979,5.506458,5.502413,5.498365,5.494752,5.4898753,5.484292,5.479248,5.4723043,5.464349,5.456763,5.449642,5.442976,5.436673,5.4308543,5.4256625,5.421443,5.417622,5.4125366,5.407051,5.4020624,5.3960104,5.3892126,5.3814845,5.37239,5.363935,5.3563957,5.34896,5.341623,5.335825,5.3322754,5.328761,5.3256655,5.322884,5.3193274,5.3146744,5.3090553,5.302271,5.2944446,5.28642,5.2780175,5.2675,5.2543917,5.2382555,5.2200046,5.2019234,5.185014,5.16807,5.1502542,5.1332006,5.1187496,5.110983,5.1164694,5.129464,5.143202,5.154299,5.1594696,5.1567955,5.148472,5.138024,5.127698,5.117399,5.1087475,5.1040373,5.1038017,5.1061287,5.1083117,5.1101065,5.116411,5.1249704,5.1385183,5.1514664,5.160475,5.1730633,5.192814,5.2038403,5.197857,5.18498,5.162757,5.055189,4.8019137,4.5172133,4.353545,4.30367,4.3246183,4.420948,4.5906835,4.842039,5.0971346,5.2486553,5.2938204,5.3091207,5.329116,5.3654165,5.410769,5.4544296,5.492295,5.5246916,5.556751,5.593153,5.635585,5.684457,5.7371225,5.787307,5.8377957,5.885013,5.929032,5.9681473,6.0003424,6.0265665,6.0493393,6.0749106,6.0963144,6.105034,6.109995,6.1138306,6.1133504,6.1172934,6.136898,6.1605425,6.185095,6.209132,6.2307763,6.2470207,6.2555676,6.2578335,6.257292,6.2568054,6.2588954,6.2620134,6.2662077,6.270953,6.2762947,6.2820854,6.288174,6.2952833,6.3042283,6.313416,6.319063,6.3203454,6.314124,6.300673,6.2818785,6.2597113,6.236594,6.21476,6.1937904,6.17499,6.1573434,6.140502,6.1257105,6.1102533,6.0951476,6.08527,6.0802236,6.0795717,6.082567,6.0886707,6.0976567,6.109974,6.124315,6.136465,6.144287,6.1507387,6.154353,6.156907,6.1592913,6.1615143,6.163959,6.1666183,6.1692758,6.1719594,6.174491,6.176685,6.1789684,6.1815996,6.182191,6.181538,6.180719,6.180216,6.1810827,6.183543,6.1895227,6.1983805,6.2083626,6.2177753,6.2250195,6.2292557,6.23044,6.2287025,6.2240343,6.2153707,6.200322,6.180049,6.1628237,6.1509857,6.142342,6.135608,6.130289,6.1265163,6.124371,6.123552,6.124154,6.126313,6.1297874,6.1344504,6.1398025,6.144496,6.148348,6.1522837,6.157268,6.1640587,6.1725364,6.180769,6.1868362,6.1907206,6.193549,6.196151,6.198941,6.2010126,6.2027426,6.2048845,6.208082,6.2134466,6.2213936,6.229788,6.2370133,6.242896,6.247903,6.253315,6.260496,6.269602,6.2789845,6.286414,6.2908764,6.2925344,6.2907057,6.284217,6.2750244,6.2649317,6.255343,6.247465,6.241546,6.23679,6.2323976,6.228516,6.225748,6.2240677,6.223892,6.224757,6.2252145,6.224733,6.2240705,6.2238936,6.2230744,6.2202196,6.2143464,6.204992,6.1919518,6.174574,6.153143,6.132558,6.114147,6.0959387,6.0790367,6.0644765,6.0488977,6.0305796,6.01127,5.9907613,5.971388,5.9526596,5.933109,5.913703,5.8950324,5.8766804,5.8581057,5.8393173,5.820451,5.801235,5.780448,5.75556,5.7287846,5.701725,5.6754684,5.650243,5.625534,5.6025295,5.583704,5.5655813,5.5487547,5.5313034,5.516347,5.4989834,5.4721537,5.43934,5.4041023,5.370185,5.33678,5.307475,5.282708,5.2606487
5.516134,5.5142994,5.512814,5.511108,5.507932,5.503478,5.5000296,5.4956226,5.490219,5.4854217,5.4788523,5.471217,5.4637985,5.4567604,5.450139,5.4437785,5.437606,5.43177,5.4272795,5.422879,5.4177504,5.4129305,5.408268,5.401956,5.3950253,5.3872333,5.378132,5.369657,5.362321,5.3549004,5.3478413,5.3424783,5.3381205,5.3338246,5.3299723,5.326049,5.3208704,5.314204,5.306467,5.297738,5.2883635,5.2791944,5.2694297,5.2582684,5.2443914,5.22715,5.208375,5.190283,5.173485,5.156938,5.1396627,5.1229258,5.108245,5.099801,5.101293,5.112089,5.1266365,5.1399956,5.1496286,5.152627,5.150221,5.144696,5.1376395,5.1293497,5.1219635,5.117049,5.1151175,5.115651,5.1167,5.1210012,5.1302385,5.141448,5.1547365,5.1629343,5.168437,5.181903,5.20499,5.2276297,5.223637,5.2150984,5.192639,5.0893774,4.8283267,4.526746,4.359681,4.31606,4.3386936,4.4430113,4.634694,4.9218583,5.174162,5.3039684,5.3321295,5.3310657,5.35325,5.392864,5.4543858,5.508732,5.555127,5.5945044,5.630474,5.670118,5.7171683,5.768313,5.822463,5.875319,5.9256268,5.9713297,6.011881,6.0445013,6.06602,6.0796895,6.0945816,6.112217,6.1276994,6.1328106,6.139208,6.1445513,6.147748,6.158151,6.180608,6.2067957,6.2351418,6.264228,6.289274,6.3051996,6.3115005,6.3111553,6.3075085,6.3040943,6.3049283,6.3072457,6.311709,6.3174567,6.323678,6.3296165,6.336368,6.345852,6.358363,6.3725376,6.3837547,6.3899784,6.3867116,6.374423,6.353611,6.3263674,6.297148,6.268747,6.2407155,6.213208,6.190217,6.169855,6.152496,6.1368027,6.1222405,6.111413,6.1064634,6.106748,6.1110497,6.1185517,6.129119,6.1423845,6.154875,6.164481,6.17243,6.178812,6.183483,6.1884127,6.192015,6.194929,6.1981106,6.2017546,6.2063417,6.21241,6.218717,6.224111,6.2302465,6.236364,6.2391233,6.2396975,6.241025,6.243925,6.247844,6.252864,6.258703,6.2658105,6.2728786,6.2782793,6.281184,6.281639,6.279674,6.275408,6.269807,6.2607183,6.2433357,6.219879,6.1967125,6.1795697,6.16846,6.1600037,6.153,6.1479044,6.144454,6.142601,6.1426177,6.1445994,6.148382,6.153655,6.1596174,6.1650753,6.1698895,6.174758,6.181224,6.189753,6.1993513,6.208051,6.214156,6.217578,6.2197776,6.221795,6.224366,6.226651,6.228526,6.2303495,6.232852,6.2376466,6.2454634,6.253828,6.2608013,6.2664146,6.2711105,6.276,6.2822657,6.290316,6.2991743,6.306778,6.3112674,6.3128777,6.31072,6.3053484,6.2979083,6.289448,6.280216,6.2714252,6.2650967,6.2602887,6.2561293,6.252928,6.2508965,6.249884,6.249975,6.250297,6.2495236,6.247888,6.2468596,6.246275,6.245178,6.2424507,6.237192,6.228464,6.215747,6.1985455,6.1770597,6.1554995,6.135959,6.116684,6.0989714,6.0833387,6.066782,6.0476418,6.027301,6.0059013,5.9841423,5.964473,5.9440193,5.9238157,5.9045386,5.885721,5.866745,5.8475876,5.828427,5.8089924,5.7880373,5.7635345,5.7372313,5.709793,5.682896,5.657542,5.63311,5.6113224,5.5922837,5.5740304,5.5568714,5.539235,5.5235963,5.5047226,5.4764585,5.4426837,5.4054737,5.369751,5.334283,5.303006,5.2755733,5.251198
5.5183263,5.516247,5.5145035,5.5133743,5.5112753,5.507036,5.503557,5.499542,5.4946294,5.4898224,5.483262,5.4757357,5.4684916,5.4617443,5.45539,5.4490776,5.4429817,5.4367685,5.4314356,5.426223,5.4213057,5.4168997,5.4119406,5.4054475,5.398384,5.3904495,5.3812685,5.372777,5.365328,5.357373,5.35034,5.3454027,5.340024,5.3351765,5.3303595,5.324311,5.3162975,5.3073664,5.2980795,5.2881317,5.277828,5.2679176,5.2574244,5.2450256,5.230906,5.21256,5.193125,5.1751513,5.158662,5.142722,5.126275,5.1101246,5.0955505,5.0862,5.084798,5.092592,5.1047444,5.1151304,5.122814,5.1291428,5.1308737,5.129837,5.1261835,5.12101,5.115999,5.1112356,5.1071157,5.105751,5.1083837,5.1159987,5.130171,5.1448603,5.1563997,5.160933,5.161571,5.1728144,5.204276,5.238418,5.240911,5.2350245,5.217746,5.1188135,4.8505354,4.5351906,4.3616533,4.3190436,4.3455515,4.463869,4.6779566,4.995393,5.2374825,5.340001,5.3544455,5.3425045,5.3570137,5.3969016,5.4602613,5.5306396,5.588466,5.633644,5.6729927,5.713557,5.7615128,5.8173485,5.8741293,5.9259224,5.9766192,6.0219736,6.059799,6.0870485,6.1018763,6.111265,6.126447,6.1389,6.147888,6.1531973,6.1623507,6.1706176,6.1800756,6.198408,6.2250133,6.255394,6.287282,6.3187227,6.3406367,6.351313,6.3551006,6.3567286,6.3570147,6.3548946,6.35215,6.351857,6.35532,6.3610163,6.3674436,6.3734207,6.3822536,6.3959336,6.4106975,6.4260416,6.441375,6.4506254,6.4532113,6.446333,6.428276,6.4024963,6.3721423,6.336387,6.2998886,6.262027,6.229409,6.2026405,6.182086,6.1671066,6.1549606,6.14494,6.1406136,6.142012,6.1479225,6.1573257,6.1696243,6.1812534,6.190616,6.198822,6.206509,6.2133036,6.220565,6.225971,6.229785,6.233006,6.2367315,6.242506,6.251122,6.2615905,6.2721334,6.281089,6.2898693,6.2954264,6.2990103,6.301833,6.3055315,6.3097434,6.312509,6.315784,6.3198595,6.3243904,6.3289156,6.3324337,6.3341794,6.3341947,6.331003,6.3230114,6.31419,6.3041763,6.2875967,6.2623014,6.2338843,6.211337,6.1970057,6.1866617,6.177803,6.171115,6.1661944,6.1628647,6.16166,6.1628103,6.1662254,6.1713247,6.1772704,6.183375,6.188922,6.1945734,6.2020044,6.211455,6.2222056,6.231842,6.2381372,6.241248,6.2429514,6.244267,6.2462745,6.248951,6.2509794,6.252388,6.253888,6.2574043,6.26449,6.272926,6.279812,6.2851944,6.289549,6.293932,6.2995567,6.3069983,6.3152018,6.322061,6.326374,6.3279343,6.326659,6.3229237,6.317339,6.3105235,6.302602,6.293889,6.2861547,6.281742,6.277605,6.2749987,6.273781,6.273501,6.2738395,6.273454,6.2714252,6.269121,6.267764,6.2667522,6.26545,6.2629356,6.2583904,6.2505913,6.238447,6.221596,6.200778,6.1786137,6.157051,6.136788,6.118347,6.1015177,6.083682,6.0634937,6.0422325,6.0200653,5.996074,5.975369,5.9539356,5.9328136,5.912731,5.893209,5.8735986,5.8538694,5.834256,5.8145156,5.7933817,5.76947,5.7436523,5.71667,5.6899376,5.664406,5.6402483,5.618922,5.599761,5.581308,5.563647,5.5455027,5.5285873,5.5080276,5.478283,5.4426713,5.4039927,5.3669696,5.329975,5.2976527,5.269017,5.2418656
5.5185556,5.516024,5.514045,5.512806,5.5113697,5.5084877,5.5046415,5.500907,5.4961014,5.491002,5.4846597,5.477478,5.4703593,5.463751,5.457439,5.4508557,5.4460115,5.4404507,5.433834,5.427974,5.423284,5.418868,5.41356,5.4068236,5.399535,5.3913884,5.382128,5.3733616,5.3647017,5.356016,5.3486814,5.3433332,5.338455,5.332949,5.326296,5.317955,5.3083167,5.298054,5.287599,5.2765846,5.2652283,5.2545176,5.243022,5.231299,5.2153006,5.1963944,5.1771235,5.1591997,5.142931,5.1274705,5.1116924,5.0960093,5.081444,5.070941,5.0672607,5.0703716,5.077304,5.0844603,5.0904884,5.095887,5.098378,5.0995893,5.0989113,5.0958433,5.0911264,5.0860233,5.082059,5.08118,5.085194,5.095429,5.1124477,5.128873,5.1405096,5.1453586,5.1484265,5.161348,5.193556,5.2388577,5.248181,5.2468987,5.233838,5.1385283,4.8669415,4.54396,4.365629,4.3212833,4.3536153,4.4848433,4.7185626,5.0495224,5.2775955,5.356107,5.3603563,5.3448343,5.3491354,5.387064,5.452412,5.5231028,5.593087,5.644545,5.6827826,5.7239766,5.7732368,5.8302455,5.889802,5.94237,5.993056,6.036563,6.0713825,6.094475,6.1110644,6.1293087,6.143051,6.154738,6.1566935,6.164073,6.1760263,6.1911535,6.209894,6.2344027,6.265669,6.2997484,6.3343825,6.363524,6.382159,6.390382,6.392873,6.3934503,6.393265,6.3925,6.391219,6.3920765,6.3958044,6.4016504,6.408189,6.416028,6.426914,6.439564,6.451539,6.46593,6.4789286,6.4897566,6.4955974,6.493991,6.483573,6.4617176,6.4306703,6.3977346,6.3584404,6.3159714,6.2730613,6.239067,6.2142167,6.1968727,6.186263,6.180892,6.1793594,6.18182,6.189497,6.20131,6.2124996,6.2219133,6.230266,6.2379165,6.245598,6.2541533,6.260418,6.2650967,6.2684503,6.271681,6.276656,6.287506,6.3004484,6.308279,6.3176575,6.330203,6.3402853,6.34735,6.3534784,6.3569813,6.3589435,6.3623304,6.366832,6.371764,6.376577,6.381017,6.384603,6.386342,6.385866,6.383541,6.378484,6.3691807,6.357449,6.344558,6.3299866,6.303764,6.2730646,6.24673,6.227854,6.2146497,6.2037516,6.1951804,6.1882987,6.183078,6.1801114,6.179677,6.181818,6.1861043,6.1915092,6.197055,6.2027044,6.2088532,6.2170577,6.227352,6.23901,6.2494297,6.2561502,6.2593184,6.2608156,6.2618093,6.2632594,6.2651796,6.266531,6.267406,6.268302,6.271556,6.2789526,6.286998,6.293664,6.298876,6.303088,6.3072767,6.3126745,6.319639,6.326973,6.3329554,6.336859,6.3386364,6.338414,6.3364134,6.332739,6.3275585,6.320694,6.312421,6.304762,6.300315,6.296434,6.294386,6.2939053,6.294404,6.294876,6.2938166,6.291027,6.288354,6.2866106,6.2851176,6.283682,6.281413,6.277542,6.2707214,6.2593718,6.2434444,6.2243166,6.2016735,6.178932,6.15732,6.137285,6.118977,6.099766,6.0783315,6.056287,6.0335283,6.0081143,5.9859757,5.9634295,5.941279,5.920172,5.899675,5.8791637,5.858637,5.8383956,5.8182383,5.7969046,5.77339,5.7482376,5.721892,5.6952667,5.66971,5.646126,5.62478,5.6055107,5.5867367,5.56837,5.549402,5.5311184,5.5089664,5.4773026,5.4390163,5.3995156,5.361747,5.3238754,5.291839,5.261137,5.2292924
5.5169277,5.514332,5.512376,5.511113,5.5101404,5.5082426,5.5042105,5.5004387,5.4960456,5.490899,5.4850883,5.4783916,5.470187,5.461396,5.45398,5.447783,5.4429083,5.438955,5.4343114,5.4290805,5.4240217,5.419176,5.4135485,5.406492,5.3989286,5.3905754,5.381061,5.3710923,5.3604603,5.3508477,5.343513,5.337716,5.332118,5.325489,5.317759,5.308114,5.2967534,5.2844925,5.2724533,5.2612686,5.2505045,5.2392,5.2272816,5.2140484,5.1979246,5.1792374,5.160085,5.1422133,5.126025,5.1107717,5.0953107,5.0797586,5.06518,5.0535946,5.0470085,5.045997,5.048714,5.0524864,5.056058,5.0594077,5.0618525,5.064265,5.066063,5.06643,5.0653214,5.0634184,5.0620255,5.0625978,5.0661125,5.074231,5.0879674,5.1029673,5.116861,5.1271935,5.1345434,5.148283,5.179863,5.2234406,5.243966,5.2519836,5.2442546,5.148396,4.8753114,4.552545,4.373228,4.3278856,4.3675356,4.5078154,4.753022,5.085251,5.299761,5.35964,5.355385,5.3350925,5.3211226,5.3572764,5.4255266,5.500826,5.566985,5.624955,5.672868,5.715881,5.765889,5.8214717,5.877692,5.9350977,5.986185,6.0285654,6.064831,6.0948977,6.118017,6.135429,6.146185,6.147538,6.1525126,6.165698,6.1877117,6.2121053,6.2374277,6.267304,6.3025293,6.340565,6.3773603,6.4042015,6.422697,6.432146,6.434343,6.432161,6.427865,6.423524,6.4211235,6.421667,6.425194,6.4310083,6.4381084,6.445571,6.4554076,6.467864,6.4797964,6.4935822,6.5083685,6.5220246,6.5313635,6.533305,6.5261374,6.5084553,6.4806824,6.4467587,6.410043,6.3632708,6.3169336,6.278003,6.249545,6.230418,6.2193456,6.2157845,6.2177935,6.224411,6.236232,6.250782,6.263482,6.2725897,6.2787533,6.284257,6.2908077,6.2970095,6.3007855,6.304515,6.3080316,6.3114676,6.321066,6.3330836,6.341721,6.3504815,6.3615413,6.3736906,6.383611,6.3909826,6.396797,6.4003153,6.403552,6.408906,6.4152217,6.4215693,6.427042,6.4313993,6.434291,6.4349356,6.432987,6.429445,6.4238725,6.413888,6.4004083,6.38599,6.3699617,6.345888,6.316262,6.2885547,6.265855,6.2473664,6.2333508,6.221665,6.2121077,6.204421,6.1990004,6.196124,6.196002,6.1986265,6.203079,6.2077837,6.2125773,6.2184906,6.227027,6.2378387,6.2496185,6.260187,6.267391,6.2709146,6.272583,6.2736745,6.2749605,6.27569,6.275724,6.276688,6.2785645,6.281583,6.287587,6.2958813,6.3026886,6.3078127,6.3116817,6.315585,6.320837,6.3276477,6.334774,6.340652,6.34474,6.347038,6.3473816,6.345519,6.342631,6.339058,6.3335457,6.326476,6.3204827,6.315725,6.312477,6.3110375,6.311273,6.31239,6.3129063,6.3115144,6.3083925,6.3051605,6.3028774,6.300727,6.2991476,6.2971735,6.293819,6.2877407,6.277256,6.261947,6.2433786,6.2226877,6.1990347,6.17592,6.1543293,6.1345587,6.1140456,6.091552,6.0687075,6.045237,6.018772,5.99564,5.972065,5.948832,5.9265966,5.9049788,5.8834257,5.8619967,5.841051,5.8204355,5.798894,5.7755494,5.7507596,5.7247953,5.6985035,5.6732244,5.649991,5.6292076,5.6095085,5.590219,5.570883,5.5507975,5.5310774,5.5070357,5.4729567,5.4322557,5.392456,5.354358,5.316922,5.284719,5.251705,5.2166696
5.5135374,5.5109158,5.508974,5.507683,5.506626,5.5051527,5.5026083,5.4987817,5.494651,5.489808,5.4825015,5.473407,5.463821,5.4547014,5.446905,5.4405117,5.43568,5.4320803,5.4294176,5.425699,5.420968,5.415912,5.409896,5.4021826,5.3937397,5.384301,5.374144,5.3624306,5.350587,5.3405504,5.332882,5.326742,5.320885,5.3139467,5.304878,5.2930965,5.2798185,5.266303,5.253403,5.2413473,5.2299747,5.2188816,5.207245,5.194198,5.178574,5.160412,5.1415205,5.1235504,5.107111,5.091777,5.0764866,5.0610647,5.0460405,5.0330105,5.0239344,5.0193615,5.0179615,5.0180054,5.019121,5.0217695,5.0248413,5.0287476,5.0327945,5.0357203,5.036912,5.036726,5.036594,5.038247,5.0426674,5.0515914,5.0659447,5.0810366,5.0959115,5.1070976,5.1142616,5.1275992,5.158533,5.201256,5.238447,5.2545886,5.251644,5.1491184,4.87479,4.5584545,4.380805,4.3377395,4.3804398,4.52265,4.770806,5.100304,5.3043475,5.3518324,5.333399,5.298273,5.279067,5.313248,5.375725,5.450387,5.5219536,5.5894413,5.645956,5.693548,5.746055,5.804749,5.8627415,5.9196334,5.9720573,6.017006,6.055525,6.0868664,6.10905,6.1227107,6.130508,6.134947,6.153454,6.1784754,6.2076974,6.2379475,6.2690067,6.303454,6.3422985,6.3822794,6.414097,6.436741,6.4507704,6.457881,6.4594336,6.457161,6.4531736,6.448674,6.444239,6.443907,6.447029,6.4523,6.4591103,6.46662,6.474922,6.4858923,6.5002713,6.5145407,6.531273,6.5468407,6.5590086,6.565507,6.56374,6.551618,6.5278053,6.49381,6.457037,6.4089146,6.360218,6.318242,6.289308,6.271076,6.2600174,6.2563314,6.259388,6.2701206,6.286175,6.302332,6.3156385,6.324378,6.3300247,6.3351436,6.3403025,6.344307,6.345875,6.347388,6.3502054,6.3556232,6.3659205,6.3758855,6.382345,6.3901873,6.400056,6.409625,6.4167633,6.4213614,6.425619,6.431454,6.4370213,6.441725,6.4481673,6.4549026,6.4604254,6.464972,6.468231,6.4696255,6.4682503,6.465414,6.461053,6.452696,6.4428463,6.429845,6.413677,6.394836,6.368181,6.3406234,6.317933,6.297412,6.2779865,6.259446,6.243324,6.2315626,6.223096,6.217103,6.2138557,6.213629,6.2157807,6.2192087,6.223131,6.228224,6.235277,6.2455206,6.25713,6.267437,6.274482,6.277942,6.2794743,6.280304,6.2808495,6.280401,6.281119,6.28271,6.2846036,6.2875357,6.292324,6.2987466,6.305887,6.3112774,6.3153577,6.3192263,6.3242345,6.330739,6.337656,6.343573,6.347952,6.3507695,6.351845,6.350913,6.3491974,6.3467283,6.3426533,6.3371344,6.331705,6.327671,6.325,6.324151,6.3252244,6.3269887,6.327839,6.326627,6.3234386,6.3194036,6.315144,6.3115807,6.3093147,6.3083,6.3059154,6.3002605,6.29033,6.275728,6.257636,6.237937,6.214341,6.190439,6.1677036,6.14628,6.1248155,6.1022205,6.078121,6.0522494,6.0267735,6.003381,5.9789786,5.954773,5.9315453,5.9089527,5.886528,5.8643904,5.842909,5.8219514,5.8002796,5.7770305,5.7524843,5.727113,5.7009745,5.674061,5.648734,5.6295376,5.6117287,5.591446,5.570757,5.5493536,5.528287,5.501071,5.4634023,5.422847,5.3831854,5.3449736,5.310219,5.2763066,5.2406883,5.203824
5.508998,5.506278,5.5042944,5.5029287,5.501702,5.5002446,5.498358,5.4954844,5.4910994,5.4846144,5.47579,5.465411,5.455144,5.4459724,5.4377975,5.4308777,5.4257355,5.4218707,5.419113,5.415782,5.411317,5.4058313,5.398838,5.3899813,5.3803906,5.370064,5.357933,5.3455844,5.3343325,5.324911,5.3172274,5.310282,5.30275,5.2938366,5.2825785,5.269333,5.2553434,5.241717,5.228979,5.21706,5.2059135,5.195462,5.18456,5.172407,5.1577377,5.140374,5.122079,5.104605,5.0883145,5.0725784,5.0568376,5.0411816,5.0260153,5.0119286,5.000638,4.993325,4.9891605,4.986991,4.986957,4.989149,4.992442,4.996813,5.001756,5.006098,5.0086203,5.009424,5.009671,5.010969,5.0155478,5.0254655,5.0413218,5.057972,5.0742893,5.085479,5.0915117,5.104009,5.134234,5.177063,5.2287464,5.248519,5.2551355,5.143647,4.86633,4.56166,4.389951,4.3507543,4.3949556,4.532876,4.7747107,5.0976553,5.2952867,5.341902,5.3116274,5.253051,5.233249,5.2581587,5.313583,5.3824005,5.4571476,5.535287,5.6121664,5.682824,5.745817,5.8032475,5.8616924,5.9172134,5.9678183,6.010934,6.0469713,6.075797,6.0968995,6.112422,6.126928,6.1434717,6.1694307,6.2001038,6.233533,6.267999,6.3035984,6.3419714,6.3819838,6.417248,6.4424415,6.4593525,6.4698267,6.4749155,6.475376,6.4726686,6.4688025,6.464465,6.4591293,6.459339,6.462182,6.467189,6.47389,6.4816666,6.489952,6.4999776,6.5140905,6.5313625,6.549364,6.566541,6.58183,6.592614,6.5960135,6.589529,6.5703397,6.5385714,6.502658,6.453561,6.4046965,6.3617425,6.332881,6.316099,6.3063946,6.3035936,6.307975,6.3209877,6.3373165,6.35326,6.3665543,6.3756094,6.3814316,6.3859434,6.389735,6.392606,6.394166,6.393367,6.3953543,6.402132,6.4102945,6.4166694,6.4215164,6.426998,6.434308,6.439607,6.4424562,6.4420767,6.439807,6.440258,6.444673,6.4521046,6.4619126,6.4702044,6.4780245,6.482647,6.4865217,6.4896536,6.4923983,6.4940653,6.492502,6.4874077,6.481846,6.473898,6.4615774,6.4455986,6.424387,6.4018307,6.381017,6.35997,6.3369303,6.312921,6.2890844,6.2673273,6.2530246,6.243414,6.236473,6.2326756,6.231759,6.232667,6.2348,6.238392,6.243807,6.2511225,6.260723,6.270212,6.2765303,6.279376,6.280304,6.280501,6.281808,6.282893,6.284511,6.2863235,6.288043,6.2904387,6.2943153,6.2993045,6.304673,6.309245,6.313273,6.317156,6.3216987,6.3275595,6.334178,6.3401318,6.3447685,6.3481965,6.350334,6.3509135,6.350317,6.348509,6.3455296,6.341651,6.3373547,6.3338556,6.331764,6.331853,6.334094,6.336716,6.3381596,6.3372893,6.3337517,6.3284664,6.3224354,6.316595,6.3121724,6.3099723,6.3083224,6.3046827,6.2961197,6.2818146,6.2644672,6.2452183,6.2221007,6.1979647,6.1742606,6.151121,6.1279716,6.104207,6.0797367,6.055246,6.0317564,6.0081015,5.9831038,5.958264,5.9343967,5.911185,5.888262,5.865836,5.844198,5.823165,5.801544,5.7784557,5.754708,5.729024,5.7001123,5.6702914,5.644533,5.625247,5.6088777,5.5899715,5.568864,5.5453997,5.519822,5.4890347,5.4513803,5.411358,5.372648,5.335989,5.3040524,5.2677803,5.2291393,5.191227
5.5041533,5.5014477,5.499074,5.4969873,5.4951515,5.493124,5.490487,5.4872856,5.482347,5.474913,5.46612,5.45608,5.4453335,5.4352016,5.426489,5.419302,5.4139643,5.409404,5.405442,5.401366,5.3964376,5.390131,5.3813276,5.3696413,5.3578753,5.345947,5.332265,5.319659,5.308737,5.2994723,5.2914515,5.283485,5.2743044,5.2636395,5.251307,5.237689,5.224061,5.2112484,5.1995096,5.188675,5.1785975,5.169098,5.159237,5.1482277,5.134797,5.118991,5.102212,5.0856414,5.0696845,5.054205,5.0387683,5.0232797,5.007888,4.993662,4.9818435,4.9734974,4.968377,4.965722,4.9653597,4.967078,4.9700766,4.97427,4.979442,4.9845004,4.9880652,4.9898043,4.9903884,4.991437,4.9958344,5.005787,5.0213594,5.0388346,5.056347,5.0683746,5.0743685,5.0853195,5.113006,5.155402,5.2131147,5.2386494,5.2554283,5.1347933,4.8548727,4.563549,4.400318,4.365587,4.409969,4.541043,4.7714634,5.087564,5.282037,5.328629,5.293767,5.224585,5.2013187,5.220063,5.272743,5.339463,5.4172907,5.505188,5.5966597,5.688532,5.771325,5.8278465,5.8836427,5.934065,5.980009,6.018688,6.0519047,6.0807915,6.1055775,6.1281147,6.150424,6.17323,6.198829,6.230335,6.265769,6.301828,6.3402896,6.381295,6.417706,6.443964,6.464226,6.4764147,6.4844494,6.488043,6.4874034,6.4842834,6.4797454,6.474325,6.470839,6.471278,6.4738336,6.4791956,6.4866185,6.4950237,6.504158,6.5138607,6.5251646,6.542507,6.5635242,6.5838184,6.602471,6.6171765,6.624835,6.62356,6.6098714,6.5809517,6.545948,6.4987164,6.451291,6.408867,6.379922,6.364114,6.3561945,6.354773,6.360758,6.3733044,6.3880935,6.4032803,6.416609,6.4263144,6.432585,6.4373074,6.441415,6.4437513,6.444674,6.4456816,6.4474277,6.450525,6.4537363,6.4566517,6.4601574,6.46445,6.4681907,6.4689035,6.463826,6.4541874,6.444864,6.4392824,6.4388204,6.443612,6.4516563,6.458871,6.465157,6.473104,6.4827814,6.494429,6.5068817,6.5165715,6.5208955,6.521172,6.5197687,6.5161343,6.508648,6.4965816,6.4812574,6.4627395,6.442704,6.422617,6.400675,6.377468,6.3477974,6.3167796,6.292247,6.2757044,6.2643404,6.256372,6.251644,6.2491636,6.248462,6.2495346,6.252493,6.2564173,6.2623205,6.268849,6.2734537,6.2757845,6.276998,6.278144,6.280764,6.2835217,6.2858877,6.287901,6.289527,6.291301,6.29416,6.2978044,6.3012247,6.304784,6.3083982,6.3119645,6.3158255,6.320399,6.3253784,6.3299475,6.3338118,6.3371964,6.3403206,6.3430285,6.344903,6.3455286,6.3447165,6.34254,6.3394365,6.336319,6.334222,6.3341246,6.3358445,6.338974,6.3414855,6.34109,6.3370285,6.330308,6.3229976,6.3163557,6.3103986,6.305857,6.302066,6.297823,6.2905684,6.27821,6.2617846,6.242712,6.2202005,6.1971188,6.173706,6.1501465,6.1263275,6.1022115,6.0783677,6.055353,6.0326185,6.008708,5.983401,5.9582906,5.934169,5.910981,5.888528,5.8666964,5.8453975,5.8248415,5.8036194,5.7808404,5.7557573,5.7271714,5.695608,5.664938,5.639327,5.6186676,5.601119,5.5825987,5.560899,5.5353093,5.5056896,5.4732513,5.437923,5.399193,5.362261,5.3288555,5.296234,5.2580843,5.2182937,5.180402
5.4987755,5.49492,5.491268,5.4879556,5.485129,5.482312,5.4788575,5.474665,5.469572,5.462657,5.4545116,5.444991,5.4341707,5.4233303,5.4138336,5.405805,5.3996534,5.3940773,5.388939,5.382845,5.375355,5.366435,5.3550014,5.3407607,5.326872,5.3131266,5.2989273,5.2859316,5.274598,5.264903,5.2562428,5.247407,5.237399,5.226143,5.213876,5.2006025,5.1879587,5.1766,5.1664166,5.157028,5.1482267,5.1398363,5.1311417,5.121661,5.110133,5.096485,5.0815983,5.0664663,5.0515957,5.0370455,5.022643,5.0081882,4.9934254,4.9800587,4.9695187,4.9619684,4.9571457,4.954644,4.954152,4.9556894,4.958535,4.9627705,4.9681973,4.97363,4.9779963,4.980701,4.982146,4.9840097,4.9886026,4.9982295,5.012973,5.0303135,5.0478783,5.0600147,5.066427,5.076055,5.099238,5.1389585,5.1941586,5.2292166,5.2485847,5.1226435,4.844927,4.5645323,4.4106417,4.3814163,4.422616,4.5481167,4.7670746,5.0794683,5.274684,5.3212285,5.2883177,5.222297,5.1964016,5.216646,5.2707276,5.3423986,5.4279423,5.5258474,5.6239023,5.721349,5.8129773,5.87194,5.9246616,5.971302,6.012553,6.0480814,6.080072,6.110405,6.1395326,6.1670322,6.192058,6.2148395,6.2389393,6.270304,6.3052,6.3410935,6.3808384,6.4193563,6.4461737,6.465765,6.482391,6.491541,6.497179,6.499241,6.4979215,6.494069,6.488802,6.4841404,6.4825554,6.482995,6.4856005,6.491025,6.499127,6.508625,6.5189714,6.5286427,6.5370064,6.551301,6.5752306,6.5998006,6.6220865,6.640568,6.6520386,6.6550436,6.6464047,6.621072,6.586875,6.543891,6.499109,6.458414,6.4294686,6.414084,6.4076805,6.406898,6.412819,6.423894,6.437543,6.452401,6.4668303,6.478147,6.4856977,6.491335,6.4967337,6.501105,6.5013065,6.501417,6.4997096,6.4968123,6.4956408,6.4967957,6.4994373,6.5024695,6.502493,6.4983883,6.4848614,6.468183,6.4555883,6.4471474,6.4416504,6.4399796,6.4419947,6.4456654,6.4484963,6.4566817,6.4693055,6.4862404,6.5084534,6.530861,6.5455294,6.551771,6.555101,6.5550737,6.550969,6.543316,6.53178,6.5153933,6.496341,6.477701,6.459277,6.440648,6.412546,6.3773956,6.34264,6.3160315,6.297806,6.2847605,6.275437,6.2688804,6.2645245,6.2621775,6.2617416,6.262719,6.2653046,6.268669,6.2715006,6.273553,6.2754316,6.277731,6.2805266,6.2831297,6.2854857,6.2874346,6.288949,6.2906103,6.2930365,6.295885,6.298748,6.301754,6.3046436,6.307348,6.3101892,6.3132734,6.3163834,6.319399,6.3223124,6.325265,6.3286066,6.332081,6.3356247,6.3389473,6.34081,6.340301,6.338186,6.335724,6.3336287,6.3329716,6.333967,6.336804,6.339327,6.3389683,6.3349104,6.328087,6.3207273,6.3143206,6.307729,6.3013678,6.294626,6.287444,6.279119,6.267639,6.2520056,6.233985,6.213408,6.1920547,6.169588,6.14636,6.1226683,6.0988398,6.0752983,6.0519967,6.0290227,6.005864,5.981409,5.9571157,5.9340134,5.911558,5.888681,5.8656435,5.843951,5.8232994,5.8027773,5.7803087,5.753727,5.7229505,5.690812,5.6605644,5.6338167,5.6110897,5.590652,5.5697103,5.5465145,5.519609,5.4890337,5.4568014,5.42313,5.386935,5.352371,5.3214226,5.2861123,5.247692,5.2090797,5.172183
5.4925346,5.486802,5.4814534,5.476667,5.4724817,5.4689083,5.46544,5.461603,5.456747,5.4501424,5.442151,5.4327717,5.422307,5.4115057,5.401022,5.3913727,5.38288,5.3753314,5.368291,5.3594294,5.3484597,5.3359337,5.321851,5.3065987,5.2915263,5.276682,5.261944,5.2486277,5.2370963,5.227221,5.218236,5.208931,5.1985283,5.187153,5.175071,5.162614,5.151373,5.1417246,5.133379,5.1257257,5.1183286,5.1110926,5.1035924,5.095726,5.0863504,5.0749216,5.06201,5.04895,5.035987,5.0226526,5.009489,4.996832,4.9845057,4.9730477,4.9641833,4.957925,4.9537535,4.9514046,4.950918,4.9524574,4.955282,4.9594917,4.9649935,4.970649,4.9755774,4.979292,4.9821825,4.9855137,4.990656,5.000037,5.014509,5.0316525,5.048445,5.059736,5.0665607,5.0758805,5.0947194,5.1292076,5.180024,5.2233086,5.2382603,5.1119623,4.840014,4.5660686,4.420597,4.397543,4.432859,4.5557632,4.7667027,5.079179,5.279927,5.334459,5.308692,5.246232,5.2235355,5.24763,5.3065243,5.387195,5.4853077,5.593231,5.6952667,5.7851562,5.864914,5.929295,5.982162,6.0287614,6.064929,6.0950875,6.1241026,6.15387,6.18344,6.211426,6.2375803,6.261161,6.2862196,6.3165073,6.3486276,6.384798,6.422701,6.4518547,6.469082,6.4859447,6.498587,6.505417,6.5091476,6.509905,6.5077453,6.503084,6.4984226,6.496338,6.4947577,6.4958563,6.4992266,6.504403,6.5120525,6.5219297,6.533395,6.543852,6.5517664,6.5645647,6.5873957,6.6144924,6.640189,6.661892,6.6765428,6.682612,6.6775026,6.6566544,6.6243334,6.5850625,6.5443087,6.50622,6.477898,6.462859,6.457342,6.456564,6.460919,6.47066,6.4841156,6.4996996,6.5159416,6.5296555,6.5398293,6.5474415,6.553526,6.5580974,6.556845,6.549959,6.5421424,6.5358667,6.532977,6.533374,6.535001,6.5355473,6.5333047,6.5258203,6.5086412,6.4917603,6.477683,6.4664173,6.4584403,6.454295,6.4534264,6.4546566,6.4567657,6.4598303,6.467184,6.480315,6.5047274,6.537064,6.5625815,6.573662,6.5810046,6.585513,6.5850134,6.580053,6.570902,6.557996,6.5421104,6.52511,6.5093184,6.494193,6.4746237,6.4396195,6.3990517,6.362624,6.335081,6.315879,6.301875,6.290761,6.2823467,6.2762814,6.2723427,6.2707343,6.271512,6.2734675,6.275305,6.276906,6.278574,6.2804365,6.282558,6.284443,6.2861547,6.28771,6.2891684,6.2909966,6.2935905,6.296443,6.299083,6.301466,6.303383,6.3049593,6.3065996,6.308571,6.3109245,6.313618,6.3164034,6.319276,6.3224077,6.325184,6.3281574,6.3316875,6.334365,6.334865,6.3338633,6.332248,6.330845,6.33072,6.3324723,6.3347034,6.3359976,6.335187,6.331606,6.3258696,6.3192816,6.312214,6.304575,6.2969475,6.2891397,6.280364,6.269699,6.2566633,6.2415733,6.2252283,6.207068,6.186675,6.1645155,6.1410856,6.116964,6.0930634,6.069933,6.0471983,6.0250306,6.0033894,5.980786,5.957838,5.93481,5.911371,5.886832,5.862081,5.8401194,5.8193665,5.799342,5.7773867,5.751664,5.721386,5.689008,5.6574783,5.627983,5.602113,5.5786476,5.5545263,5.529464,5.501891,5.4717226,5.439989,5.407133,5.3736477,5.341692,5.3114076,5.2755384,5.2387986,5.2023067,5.1669283
5.4872065,5.481324,5.4748974,5.4680395,5.461586,5.45658,5.4528856,5.4494667,5.444787,5.438702,5.4311357,5.4219017,5.411193,5.399664,5.3880796,5.3769345,5.3656187,5.3548203,5.344785,5.3342514,5.322141,5.3082075,5.292488,5.2755175,5.2590904,5.2431984,5.2276917,5.213927,5.202135,5.1920977,5.1830444,5.1737995,5.163661,5.1528435,5.1416574,5.130459,5.1207943,5.112742,5.10616,5.1002917,5.094283,5.0882187,5.0819693,5.0752687,5.0672536,5.0579777,5.0476694,5.03661,5.025162,5.0137672,5.0028124,4.9925423,4.98308,4.974182,4.9667206,4.961191,4.957635,4.955715,4.9552946,4.956645,4.9590206,4.962555,4.967727,4.973502,4.9789686,4.983721,4.9881725,4.9931793,4.9993086,5.0085554,5.0221715,5.038592,5.0544205,5.065957,5.0736704,5.08267,5.098975,5.127463,5.1780796,5.2263093,5.2380996,5.1123686,4.843314,4.5715213,4.4313097,4.413116,4.444008,4.565219,4.7741184,5.090483,5.3004665,5.367426,5.352322,5.2963433,5.2801456,5.309255,5.377531,5.4710484,5.582597,5.692393,5.7846746,5.8597918,5.930336,6.002866,6.058625,6.0999517,6.128088,6.1467533,6.169261,6.197153,6.2253222,6.253766,6.281451,6.305524,6.332693,6.36172,6.3913856,6.4266376,6.4573135,6.475814,6.4913044,6.505001,6.5133886,6.5185833,6.521201,6.5208826,6.5172925,6.513832,6.5121813,6.509924,6.508823,6.509705,6.513641,6.5192327,6.525869,6.5345993,6.54613,6.5583563,6.569354,6.5828924,6.6016808,6.6279,6.6555557,6.6793633,6.695936,6.704179,6.701687,6.6842957,6.6543036,6.618583,6.582602,6.547263,6.5208635,6.506808,6.5011845,6.5002575,6.503834,6.511607,6.5261645,6.543967,6.5615196,6.57668,6.589779,6.600698,6.6057057,6.6012363,6.5938454,6.5836287,6.573729,6.5656095,6.560869,6.5593405,6.559229,6.5587277,6.556127,6.549535,6.533164,6.517021,6.5006204,6.4872456,6.478551,6.473279,6.4712324,6.471176,6.4718933,6.474333,6.4789324,6.4920273,6.512219,6.540289,6.5697536,6.5850835,6.5940456,6.6014624,6.606241,6.6054926,6.6001368,6.591032,6.5789814,6.5655155,6.552021,6.539369,6.5260873,6.4956856,6.4525557,6.4085894,6.3726864,6.347024,6.328705,6.3135524,6.3013787,6.2918377,6.284521,6.2812138,6.280571,6.2810144,6.281852,6.2827334,6.2838173,6.285264,6.28712,6.289005,6.2909346,6.2927637,6.294321,6.295862,6.297768,6.299765,6.3014584,6.302878,6.303838,6.304469,6.305176,6.3062525,6.307854,6.310054,6.312605,6.3155212,6.3189983,6.3224893,6.3256693,6.3282604,6.3298407,6.3303394,6.3301306,6.3292446,6.328497,6.328908,6.3306427,6.3326993,6.3338866,6.3330183,6.3294406,6.3236465,6.316573,6.308425,6.2995634,6.2907467,6.2819157,6.27254,6.2618747,6.2492414,6.2345514,6.2185383,6.2004776,6.1802053,6.1580057,6.134638,6.110959,6.088374,6.0673375,6.0462656,6.0259356,6.0050364,5.982443,5.958603,5.9317827,5.9045467,5.880361,5.85884,5.8393993,5.82093,5.801168,5.780316,5.7550583,5.7243195,5.690506,5.6559143,5.622014,5.5920515,5.5652485,5.538595,5.511979,5.4838667,5.453776,5.4225893,5.3909035,5.35927,5.3297453,5.300127,5.26632,5.232419,5.1984577,5.16502
5.486618,5.4798117,5.4718146,5.462742,5.4536123,5.4458694,5.4399405,5.4354944,5.432124,5.4283953,5.4219027,5.412814,5.4021034,5.3899345,5.376144,5.3612843,5.348325,5.336403,5.325344,5.3137875,5.300605,5.2854605,5.2684035,5.2503004,5.2334414,5.21717,5.2013125,5.187313,5.175474,5.1655083,5.156544,5.147375,5.137352,5.1268625,5.116709,5.106967,5.0992737,5.093152,5.087955,5.083025,5.07781,5.0724826,5.0672426,5.061899,5.0559273,5.0485144,5.039858,5.030373,5.0208035,5.0118756,5.003451,4.995409,4.9875355,4.9798164,4.9740286,4.9700975,4.967594,4.9662743,4.9660616,4.967348,4.969556,4.972945,4.977582,4.9827414,4.9880476,4.993263,4.9985647,5.0045815,5.0118155,5.0219135,5.0363092,5.0516205,5.0669365,5.0787086,5.0862494,5.094763,5.1097736,5.1339226,5.1843996,5.235751,5.24607,5.1232862,4.8546896,4.5812616,4.4448495,4.4294786,4.459197,4.5736914,4.788021,5.1142797,5.3362975,5.4070787,5.3975143,5.3589697,5.3525696,5.3897576,5.4690957,5.580636,5.693223,5.7836733,5.859524,5.937248,6.0170827,6.088002,6.1400995,6.175456,6.195425,6.2065783,6.2187014,6.2378454,6.263817,6.2924967,6.319888,6.346676,6.3744864,6.4036884,6.433626,6.461479,6.48254,6.4974995,6.510886,6.520804,6.5274105,6.53164,6.5336275,6.533113,6.5299993,6.527239,6.5261536,6.524624,6.524044,6.523743,6.5260115,6.530696,6.5376196,6.546942,6.55897,6.572187,6.5847883,6.5994234,6.6154084,6.6400003,6.6686497,6.6935062,6.7111177,6.7203817,6.719315,6.7057796,6.678357,6.647252,6.6156073,6.5830865,6.5592136,6.5467253,6.5412054,6.5400443,6.5432754,6.5507975,6.5651035,6.5846066,6.6048536,6.6218424,6.6351233,6.642208,6.639535,6.6303926,6.6190605,6.6063,6.5937796,6.583712,6.577957,6.575097,6.573242,6.572118,6.5700283,6.564646,6.5510125,6.538534,6.523742,6.5092783,6.4993896,6.49386,6.4908905,6.4899626,6.490036,6.4913874,6.494078,6.5043826,6.521623,6.5450263,6.571075,6.5896263,6.59934,6.608251,6.61626,6.6201706,6.619376,6.6145563,6.606744,6.5971913,6.587144,6.577221,6.564871,6.5426683,6.5005465,6.4513607,6.410392,6.379883,6.355883,6.3378477,6.3225794,6.310135,6.3000765,6.2945204,6.2920704,6.291069,6.2908206,6.2908816,6.291271,6.2921467,6.293621,6.295685,6.298052,6.300234,6.301694,6.302555,6.3035583,6.304887,6.3057127,6.306171,6.306138,6.305799,6.305578,6.305807,6.306717,6.308421,6.3106394,6.3134165,6.316878,6.3204956,6.323949,6.326965,6.32909,6.3300347,6.3300724,6.3296824,6.3292065,6.329042,6.3299084,6.33175,6.3330126,6.3319616,6.327983,6.321578,6.313786,6.304779,6.2949243,6.285102,6.275388,6.265383,6.2544403,6.2418866,6.2275114,6.2118835,6.194194,6.1741867,6.1517124,6.130172,6.1102896,6.0903797,6.069903,6.049242,6.0288134,6.008724,5.9809937,5.9525566,5.9257135,5.900838,5.878761,5.8593626,5.8421097,5.825654,5.807726,5.7877855,5.762319,5.7310753,5.695033,5.655699,5.6167507,5.582295,5.551945,5.5231113,5.4964333,5.4686685,5.4389095,5.408292,5.3775043,5.347388,5.3197737,5.2897816,5.258918,5.2281322,5.196666,5.165208
5.492099,5.4844723,5.4748297,5.4631953,5.4509993,5.4403477,5.4319377,5.4257345,5.4214435,5.4172697,5.4117517,5.403858,5.3930235,5.3794603,5.36422,5.3487453,5.334918,5.32202,5.310149,5.2979064,5.28405,5.268156,5.2505875,5.232416,5.215093,5.1986,5.182702,5.1689005,5.157413,5.147808,5.139207,5.130614,5.121537,5.112088,5.1031423,5.094785,5.08834,5.0834103,5.079281,5.07539,5.071288,5.066891,5.0625744,5.0583572,5.053897,5.0482273,5.041369,5.0336676,5.025843,5.018589,5.011732,5.005137,4.998616,4.992961,4.9886045,4.9854975,4.9835877,4.982642,4.9825573,4.98376,4.985732,4.9888115,4.9930983,4.9980555,5.0034947,5.009161,5.015131,5.022011,5.0302362,5.0411015,5.0567036,5.072775,5.0879507,5.0992575,5.1065826,5.1149626,5.1293645,5.152217,5.2021313,5.253025,5.264556,5.144144,4.873784,4.596877,4.4616475,4.4494042,4.4785147,4.5883427,4.8113394,5.1490593,5.3837776,5.461544,5.4624243,5.4437304,5.4466343,5.4924874,5.5894175,5.6981544,5.7904816,5.8753424,5.9579825,6.0350122,6.1044054,6.1609974,6.2034903,6.23438,6.2549505,6.26898,6.2764373,6.2860126,6.3050127,6.330988,6.361451,6.3903675,6.4166746,6.4422874,6.4664125,6.4862967,6.501706,6.5147142,6.526154,6.535142,6.5413857,6.545313,6.5469174,6.5465856,6.544588,6.5422225,6.540515,6.538916,6.537065,6.5354323,6.5364027,6.541013,6.548275,6.557918,6.5701027,6.5843267,6.5993867,6.6139355,6.6303887,6.651864,6.677783,6.7039623,6.723695,6.733137,6.732801,6.7226343,6.699562,6.673933,6.6489644,6.6207156,6.5993185,6.588833,6.5849047,6.5846148,6.5879416,6.5947056,6.607729,6.6266804,6.645772,6.65973,6.668497,6.6707225,6.664776,6.6556215,6.6417356,6.626131,6.610482,6.597076,6.5883646,6.5828466,6.5787582,6.5767574,6.575239,6.5710473,6.563221,6.551833,6.541088,6.530122,6.5196714,6.513294,6.511072,6.5096455,6.508582,6.5085583,6.509795,6.516156,6.5283713,6.5474386,6.571292,6.590972,6.601117,6.610797,6.619624,6.6270323,6.631317,6.631775,6.628937,6.6238403,6.6176414,6.610874,6.6007156,6.5825887,6.547039,6.498194,6.452095,6.416581,6.3884015,6.366706,6.3493857,6.3346605,6.322402,6.313722,6.308978,6.306612,6.305071,6.3040943,6.3036346,6.3041615,6.3064413,6.3088474,6.3109426,6.3123975,6.313181,6.313423,6.3135405,6.314192,6.314119,6.313545,6.312442,6.311071,6.3098874,6.3092475,6.3094664,6.310798,6.3129787,6.3156033,6.318718,6.3216805,6.324855,6.327901,6.33021,6.331481,6.3317633,6.3316584,6.331384,6.3312397,6.3316073,6.333025,6.333932,6.3323784,6.3278027,6.320693,6.312133,6.3022485,6.2914605,6.2806916,6.270138,6.259534,6.248272,6.2356524,6.221445,6.206089,6.188675,6.1684556,6.148576,6.1297493,6.110971,6.091696,6.0725193,6.054001,6.034994,6.009594,5.9818487,5.954236,5.9280233,5.9037776,5.8825417,5.865012,5.8497496,5.83515,5.8185916,5.800292,5.7756186,5.7428303,5.7039185,5.6599894,5.613553,5.5736923,5.539539,5.5092974,5.4824376,5.455159,5.4260416,5.396037,5.366153,5.3371873,5.3100967,5.28219,5.254079,5.22599,5.196777,5.167125
5.50212,5.4926367,5.481447,5.4690933,5.455247,5.440755,5.4294305,5.420972,5.415092,5.4099617,5.4042263,5.396414,5.3854723,5.371538,5.3558855,5.340115,5.325756,5.3122272,5.2998676,5.2872853,5.273164,5.2571774,5.2397294,5.221727,5.204624,5.188503,5.1730814,5.15996,5.149274,5.140542,5.1329174,5.12528,5.1169653,5.1083746,5.100339,5.09289,5.087349,5.0832853,5.0800524,5.07701,5.0736246,5.0700364,5.066722,5.0638094,5.0610504,5.057322,5.0524893,5.0467315,5.0403795,5.034043,5.02826,5.0233197,5.0183926,5.013829,5.0100474,5.0075436,5.0062084,5.005705,5.0060635,5.007351,5.0093765,5.012408,5.0164824,5.021274,5.0267777,5.0327396,5.0392475,5.046876,5.0559072,5.068598,5.085183,5.101877,5.1181965,5.1299534,5.1375256,5.146058,5.160015,5.1860332,5.2369137,5.2815733,5.2992573,5.1831737,4.9059086,4.6200075,4.4825687,4.4711475,4.500861,4.609034,4.846224,5.199752,5.447822,5.5294595,5.5315056,5.527855,5.5559072,5.614439,5.7040358,5.798338,5.8977823,5.9841394,6.055665,6.121852,6.1795063,6.220502,6.2544403,6.282089,6.301381,6.3156757,6.3261433,6.3348455,6.348011,6.370199,6.3972664,6.422735,6.447585,6.4701643,6.4884205,6.5032663,6.516488,6.52875,6.5398474,6.549243,6.555831,6.5600967,6.56194,6.5619907,6.560605,6.5583715,6.5559874,6.5536814,6.5515385,6.550003,6.5499754,6.5540867,6.5611534,6.5701466,6.5812225,6.5951033,6.611694,6.628545,6.64476,6.663872,6.6856527,6.7102103,6.7315826,6.742936,6.7434464,6.735736,6.719843,6.700186,6.6812115,6.6609197,6.6430206,6.6334,6.6306114,6.629696,6.6315117,6.635815,6.648903,6.6665645,6.6802464,6.6897125,6.6942425,6.6919765,6.6845665,6.6746197,6.661041,6.644123,6.6249495,6.607283,6.5937285,6.5839014,6.5770917,6.57364,6.572446,6.5711794,6.5679135,6.5608654,6.552533,6.54465,6.5377226,6.532175,6.5287857,6.5280128,6.5266237,6.5249386,6.5243797,6.5263557,6.5323043,6.5453577,6.564436,6.5819054,6.5942245,6.604908,6.615775,6.626608,6.636236,6.642831,6.645686,6.645666,6.6439257,6.6409593,6.6339974,6.6189313,6.5905905,6.5479364,6.4991417,6.4586005,6.4304285,6.404786,6.3846173,6.3676167,6.3537965,6.342614,6.3346257,6.3301053,6.3275657,6.325392,6.323888,6.3232884,6.32427,6.325963,6.327744,6.3286557,6.32948,6.3305798,6.330906,6.330746,6.329747,6.3280983,6.325856,6.3233633,6.321119,6.3195086,6.3188553,6.3193455,6.3206162,6.322527,6.325135,6.327846,6.3309765,6.334131,6.336545,6.337824,6.3380566,6.337714,6.3370967,6.336429,6.3372717,6.3384104,6.3382783,6.335717,6.330119,6.3219614,6.312397,6.3014927,6.2896805,6.2781615,6.266967,6.255481,6.243458,6.23063,6.216319,6.201028,6.184272,6.1655464,6.147616,6.1299934,6.111669,6.0932674,6.0757074,6.058196,6.0382514,6.013158,5.987129,5.9608893,5.9359283,5.913003,5.893071,5.877109,5.863366,5.850111,5.8360786,5.819193,5.7945156,5.7619743,5.720429,5.669036,5.614609,5.5682244,5.5301104,5.498354,5.471284,5.4445653,5.4161167,5.3866463,5.3575373,5.3295927,5.303047,5.277193,5.2513514,5.225526,5.1983113,5.1703544
5.5132446,5.502456,5.48994,5.4762535,5.4616456,5.446497,5.432504,5.4213285,5.413415,5.406993,5.400489,5.3922424,5.381153,5.3673167,5.3518453,5.3361406,5.3217797,5.3081546,5.2957172,5.28316,5.2692266,5.2536077,5.2367516,5.219614,5.2035313,5.1884184,5.1739855,5.161916,5.15234,5.144718,5.138158,5.1315513,5.1242275,5.1164865,5.1089296,5.102131,5.097107,5.093602,5.0910864,5.088733,5.0860777,5.0836573,5.081647,5.0803905,5.080019,5.07903,5.076859,5.0734243,5.068762,5.0635023,5.058731,5.054574,5.0503206,5.0461726,5.043071,5.0412145,5.0403976,5.040413,5.0411963,5.0427604,5.0448384,5.047819,5.0518627,5.0568533,5.0626564,5.0689077,5.0758376,5.084238,5.0944366,5.108504,5.1271772,5.146063,5.1644926,5.177494,5.1845293,5.1923637,5.2089605,5.240612,5.292611,5.319621,5.3346395,5.236794,4.9577184,4.6515036,4.506939,4.4940376,4.523679,4.632493,4.8925343,5.263441,5.5144587,5.5950155,5.605053,5.6130166,5.6428757,5.7118654,5.8019943,5.903115,5.9981894,6.0756884,6.1370173,6.190099,6.236622,6.2719355,6.3001547,6.3228083,6.3391113,6.3520355,6.363212,6.372008,6.381554,6.3976955,6.4200807,6.443339,6.467971,6.488415,6.5034494,6.516355,6.5289383,6.540924,6.552361,6.5626307,6.5702987,6.575343,6.5778065,6.57839,6.5774727,6.5756636,6.573596,6.5714707,6.569631,6.5683026,6.5681,6.5706882,6.5762577,6.584609,6.5955763,6.608914,6.6245985,6.6425576,6.657814,6.6755366,6.69479,6.7174144,6.7385545,6.751418,6.754324,6.7495785,6.7405615,6.727891,6.714276,6.7020745,6.689391,6.679379,6.674835,6.673195,6.6730766,6.6778116,6.6906953,6.7025223,6.7105966,6.7158046,6.7162323,6.7111983,6.703199,6.692203,6.678116,6.6604843,6.6401567,6.6185145,6.599265,6.584384,6.5740366,6.568499,6.567069,6.5677347,6.567833,6.5658216,6.5613785,6.5562124,6.5525575,6.550442,6.5483913,6.546714,6.544798,6.5425615,6.5388737,6.536193,6.5376453,6.5453176,6.557725,6.5707417,6.5832624,6.5945306,6.607938,6.6225014,6.6362906,6.64793,6.6568766,6.663041,6.6666565,6.6679745,6.664826,6.652896,6.632085,6.5987277,6.5555105,6.5124187,6.4778194,6.4518824,6.4288616,6.40983,6.3943276,6.3808484,6.370204,6.3624945,6.3575153,6.3549366,6.352848,6.3515043,6.3510914,6.351651,6.3529506,6.3543415,6.355715,6.3567486,6.3566585,6.3554835,6.353344,6.350419,6.3468904,6.3432045,6.3398876,6.3373137,6.335766,6.335346,6.335629,6.3366733,6.3384905,6.3405805,6.3430614,6.3457575,6.3478327,6.348648,6.3484516,6.3478,6.3475323,6.3472548,6.347824,6.347845,6.346212,6.342152,6.3350797,6.3254857,6.314596,6.3024216,6.2894077,6.277273,6.265392,6.252965,6.239992,6.2265806,6.212514,6.1975937,6.181334,6.1640096,6.1470604,6.130026,6.112426,6.095264,6.079054,6.0619555,6.042616,6.019784,5.995572,5.971302,5.948679,5.9281206,5.909933,5.8948326,5.881743,5.868701,5.8576555,5.8405476,5.8187227,5.786954,5.7405415,5.6820965,5.620727,5.568328,5.5266414,5.492934,5.4651012,5.4384437,5.4102855,5.3810706,5.3524566,5.325099,5.2982426,5.273597,5.249179,5.2248716,5.1992483,5.1727886
5.523694,5.5124397,5.4988317,5.48346,5.467575,5.4523582,5.4374666,5.4248667,5.4151,5.4069138,5.39918,5.390602,5.3798547,5.366523,5.351534,5.3363404,5.3224783,5.3092957,5.2972445,5.2851567,5.2719264,5.2573338,5.2416887,5.225813,5.2113204,5.1976995,5.1845465,5.173613,5.165145,5.158657,5.1532736,5.1478868,5.1417522,5.134986,5.1279984,5.121577,5.116752,5.1136236,5.111534,5.109579,5.1077223,5.1068506,5.106958,5.1083984,5.111682,5.1148496,5.1166315,5.1165514,5.1144667,5.1109695,5.1072702,5.1032915,5.099004,5.094879,5.0917153,5.089719,5.089037,5.0895452,5.090928,5.0931797,5.0957108,5.098985,5.1032715,5.10865,5.1148696,5.1215076,5.1289787,5.1382656,5.1496906,5.1651025,5.18631,5.208726,5.230122,5.244301,5.249997,5.256797,5.2773333,5.313905,5.348532,5.360438,5.3657403,5.301503,5.0257936,4.687791,4.5350976,4.5165625,4.5445986,4.656207,4.9472637,5.336816,5.5806813,5.656762,5.6787186,5.6979437,5.7308884,5.801751,5.89701,5.997048,6.0776014,6.1440344,6.199749,6.244324,6.281931,6.3134413,6.3369923,6.3547835,6.3669777,6.377139,6.3855495,6.392661,6.400153,6.4116282,6.431557,6.454749,6.480015,6.499645,6.514002,6.5265927,6.538891,6.5508347,6.5627613,6.5740137,6.5829577,6.589277,6.5926285,6.5938807,6.593557,6.5924206,6.591178,6.58984,6.5884857,6.5873423,6.5873947,6.5891943,6.59377,6.601758,6.612792,6.625636,6.6396465,6.6556287,6.6706696,6.68739,6.705572,6.7271934,6.747239,6.7607937,6.7667317,6.7647524,6.7601395,6.753318,6.74475,6.7371197,6.729131,6.7193336,6.710665,6.7064514,6.7061553,6.7124987,6.722837,6.7298822,6.73495,6.737007,6.7346973,6.7289906,6.7210484,6.7097554,6.694599,6.675812,6.654549,6.6306086,6.607087,6.587313,6.5730658,6.565071,6.5625906,6.5636344,6.5660696,6.567252,6.5665493,6.5644245,6.562986,6.5634556,6.5640116,6.562543,6.560237,6.557134,6.552352,6.5464497,6.544771,6.5491285,6.5565643,6.565545,6.5757236,6.586273,6.6010284,6.617764,6.6343307,6.649535,6.663044,6.674554,6.6834764,6.68954,6.6912503,6.6841707,6.6690817,6.645585,6.6135454,6.575943,6.5392327,6.509379,6.486522,6.4655304,6.446355,6.429843,6.4159317,6.404843,6.397027,6.3920674,6.3888426,6.387339,6.386692,6.3868065,6.3877296,6.3892493,6.3908844,6.391776,6.391194,6.3892355,6.3861246,6.38213,6.3774376,6.3724666,6.3677397,6.363737,6.3608713,6.3592663,6.35845,6.3582926,6.358919,6.3599405,6.3612046,6.3628693,6.364581,6.3655944,6.3656535,6.3651075,6.3647847,6.36434,6.363614,6.3619013,6.358479,6.3525567,6.343629,6.3322234,6.319664,6.3059235,6.291568,6.278652,6.266055,6.252891,6.2390776,6.224725,6.210313,6.195684,6.179629,6.163274,6.1470404,6.1306124,6.114314,6.0985184,6.082669,6.0661073,6.0493693,6.0292606,6.0073185,5.986477,5.9668837,5.9482117,5.931107,5.9159493,5.9023914,5.8912525,5.8780003,5.859642,5.8407903,5.8094864,5.759155,5.696328,5.630626,5.5737066,5.5290747,5.493157,5.463937,5.436657,5.4082975,5.3791656,5.350414,5.3221636,5.294898,5.2705507,5.2466764,5.223114,5.1987085,5.173581
5.5315123,5.5203724,5.5062356,5.489865,5.472293,5.4555454,5.440446,5.4273562,5.41632,5.406739,5.398082,5.389538,5.379874,5.3678293,5.353525,5.339118,5.326046,5.3137603,5.302666,5.2917566,5.280055,5.2674937,5.254109,5.2401953,5.2275677,5.215477,5.2033944,5.1931763,5.1853914,5.1797094,5.175354,5.1711674,5.166158,5.1604347,5.154333,5.1482344,5.143627,5.1407027,5.1386986,5.1369705,5.135993,5.1369057,5.139777,5.1448116,5.152336,5.160162,5.1664414,5.170251,5.171278,5.170067,5.167857,5.1646867,5.160846,5.156781,5.1528482,5.149882,5.148676,5.149187,5.1509247,5.153697,5.156769,5.160489,5.1651764,5.1711464,5.178279,5.186051,5.194666,5.2049713,5.2171917,5.232705,5.25482,5.2794733,5.303288,5.3209085,5.3279495,5.3342123,5.355936,5.3851285,5.393573,5.4012785,5.3988957,5.366832,5.096161,4.728089,4.56513,4.5367436,4.561928,4.6782107,5.0030775,5.4103107,5.6473837,5.720741,5.7482123,5.772773,5.8225527,5.8915024,5.980961,6.064933,6.1411877,6.2039833,6.2515965,6.288846,6.319603,6.343127,6.3609753,6.3741307,6.3827357,6.3899965,6.3954,6.399542,6.4052033,6.4161606,6.435618,6.4589243,6.4851284,6.50585,6.5208335,6.5335073,6.5457425,6.557884,6.5704203,6.582674,6.592733,6.6004705,6.6049023,6.606917,6.607209,6.606716,6.606208,6.6056023,6.6049256,6.6043644,6.604831,6.6071157,6.611926,6.61973,6.630257,6.6425505,6.655696,6.669259,6.6841264,6.69965,6.7172627,6.738085,6.7570868,6.7707477,6.778446,6.7788,6.776582,6.773163,6.768347,6.762369,6.7565656,6.747183,6.7350864,6.727666,6.727626,6.7339206,6.7407413,6.7465577,6.750127,6.7505646,6.747695,6.7424307,6.7352357,6.724576,6.7092996,6.6893325,6.666088,6.6411037,6.615217,6.5915365,6.5740795,6.564106,6.5601683,6.5610304,6.5644946,6.5671816,6.5682106,6.568447,6.568939,6.5704494,6.5727057,6.57345,6.5717335,6.567655,6.5633383,6.556854,6.5525856,6.5539536,6.5590386,6.5657716,6.573819,6.5836964,6.5978456,6.6140575,6.631771,6.649162,6.665089,6.679803,6.6928353,6.703325,6.7099905,6.709103,6.6990566,6.683266,6.662043,6.6360664,6.6073756,6.5768585,6.5524855,6.529957,6.5090737,6.490825,6.4736023,6.458972,6.4476223,6.438427,6.433573,6.431531,6.430702,6.4307737,6.4317684,6.433407,6.435306,6.436405,6.435499,6.432764,6.4286375,6.4235063,6.4175506,6.4111137,6.40477,6.3992815,6.3951583,6.3923435,6.3903775,6.3889303,6.3881116,6.3876476,6.387452,6.387841,6.3888426,6.3898106,6.390008,6.3892894,6.3879533,6.386166,6.3838954,6.380472,6.375189,6.3672886,6.356304,6.3428297,6.3283362,6.3127894,6.2968955,6.282716,6.269225,6.25535,6.2407603,6.2254515,6.210026,6.1951585,6.179385,6.163824,6.1482906,6.132583,6.11749,6.10264,6.0869293,6.071414,6.0570455,6.040461,6.0230875,6.006488,5.989341,5.97194,5.955544,5.9400415,5.9257402,5.9134007,5.8942814,5.8755074,5.85594,5.8239193,5.7730145,5.7086573,5.6415653,5.5820103,5.535263,5.497311,5.466421,5.438072,5.4092216,5.3798876,5.350218,5.3200903,5.2925663,5.2677965,5.2437162,5.2203503,5.1968656,5.1729383
5.534196,5.5234447,5.5095787,5.4930487,5.4749184,5.4571953,5.4409485,5.4267845,5.4149675,5.405094,5.39666,5.3886337,5.3803306,5.3700953,5.3567743,5.3433113,5.3312235,5.320278,5.3108788,5.302149,5.2931414,5.2837167,5.2737627,5.263095,5.252679,5.2420945,5.230794,5.2207065,5.21285,5.207101,5.202862,5.1991625,5.1949396,5.19014,5.184922,5.1794395,5.1750984,5.1719666,5.1696167,5.167899,5.167629,5.170125,5.1752954,5.183444,5.194423,5.2049484,5.213408,5.219513,5.222918,5.223792,5.2233725,5.2216554,5.2188473,5.2152977,5.2116127,5.2087154,5.207183,5.207196,5.2087793,5.211579,5.214833,5.218793,5.223997,5.2310247,5.2398996,5.2498293,5.260335,5.271761,5.2843337,5.2984886,5.3198633,5.343837,5.367812,5.389055,5.4015546,5.4103003,5.4254494,5.4334245,5.4353285,5.4435787,5.437275,5.422039,5.159088,4.7750273,4.5950522,4.554497,4.577053,4.6986194,5.0532637,5.4730687,5.7131205,5.7898173,5.8158517,5.834981,5.885752,5.955868,6.0354815,6.1180573,6.1965365,6.2572412,6.2958956,6.3231983,6.347369,6.3634963,6.3745227,6.382287,6.3887362,6.3938713,6.3957205,6.3960667,6.400466,6.4129915,6.4332023,6.4577913,6.48505,6.508423,6.524764,6.5376506,6.550033,6.5624695,6.5755577,6.5886593,6.599695,6.608412,6.613843,6.616564,6.617365,6.6174555,6.6176805,6.617882,6.6180334,6.618287,6.619522,6.622397,6.6275673,6.635496,6.645913,6.6579065,6.6706467,6.6837244,6.6976395,6.711788,6.728922,6.748468,6.7661514,6.7791157,6.786902,6.789336,6.7887383,6.7873487,6.784346,6.779487,6.7736607,6.7634497,6.7503147,6.7417026,6.740225,6.74544,6.749441,6.753115,6.7547846,6.7548614,6.7532167,6.749297,6.7430706,6.7336345,6.718898,6.698671,6.6744347,6.648444,6.620989,6.595173,6.576091,6.5652447,6.560108,6.560546,6.563887,6.5672626,6.5690517,6.5702496,6.5721927,6.575345,6.5791397,6.581414,6.5808477,6.5774517,6.5721025,6.5664144,6.5609975,6.5589333,6.562092,6.5676727,6.575147,6.5855694,6.5980935,6.6121306,6.6285906,6.6461644,6.663344,6.679954,6.6955595,6.7092886,6.7196784,6.724189,6.7209873,6.7103276,6.69666,6.680531,6.661171,6.641778,6.6147614,6.5933733,6.5749435,6.557022,6.5392537,6.522456,6.507511,6.4960666,6.489793,6.48606,6.483794,6.483527,6.4849668,6.487714,6.4901505,6.49058,6.488672,6.484706,6.479158,6.472478,6.465026,6.4571867,6.449575,6.4431405,6.438306,6.434641,6.431729,6.429223,6.426755,6.4244432,6.4226856,6.421693,6.4210997,6.4203634,6.419176,6.4171963,6.4146786,6.411563,6.4078693,6.402794,6.395585,6.3856654,6.3726597,6.3570576,6.3404837,6.3229775,6.3052425,6.289195,6.274273,6.2593875,6.2439146,6.227809,6.2117043,6.1963415,6.1809425,6.165748,6.150716,6.1357555,6.121101,6.106555,6.091892,6.0779195,6.0648685,6.0515566,6.0396833,6.0264378,6.0114675,5.9963675,5.9811544,5.9651284,5.949177,5.929267,5.9076633,5.888485,5.8649797,5.8306026,5.780571,5.7171164,5.6507487,5.590719,5.5429897,5.5035486,5.4710846,5.4415503,5.412169,5.3821287,5.3510213,5.31955,5.291112,5.2653847,5.240494,5.216977,5.1940727,5.1711245
5.5320396,5.5209217,5.5075502,5.4922514,5.4752216,5.4572425,5.4407187,5.426271,5.4142327,5.4044504,5.3965197,5.389325,5.3821974,5.3735685,5.361903,5.349393,5.3384795,5.3293447,5.3224354,5.3168993,5.3116417,5.306282,5.300397,5.2933674,5.285757,5.277083,5.266761,5.2566924,5.248092,5.2412724,5.236139,5.2320166,5.2278357,5.2234173,5.218792,5.213895,5.2093306,5.205411,5.2020698,5.19944,5.1987453,5.2015743,5.2076006,5.2169,5.2299223,5.240159,5.247033,5.2527413,5.2571216,5.259042,5.2595387,5.2586308,5.256384,5.2534695,5.251152,5.250357,5.2499943,5.2500763,5.2521896,5.255658,5.2596436,5.264307,5.270397,5.2786818,5.2892904,5.3011703,5.313403,5.325845,5.3385153,5.354164,5.375374,5.397483,5.4200563,5.4360085,5.451915,5.467725,5.46786,5.464677,5.4735746,5.4850507,5.4761887,5.46867,5.217271,4.827895,4.626668,4.5720153,4.5947924,4.7210603,5.0989532,5.5275936,5.7799683,5.8634567,5.8840446,5.8952885,5.9328833,6.0015182,6.0763826,6.1602445,6.2368584,6.2931824,6.3256187,6.346135,6.364903,6.374716,6.3794584,6.384678,6.387455,6.387616,6.3849764,6.3843164,6.390493,6.404234,6.4257107,6.4534216,6.4814644,6.507651,6.5261807,6.5397673,6.5523014,6.5649652,6.5783834,6.591983,6.603608,6.612913,6.6190166,6.622204,6.6234274,6.6240864,6.625003,6.6260023,6.62702,6.6281857,6.630334,6.6340117,6.6397834,6.6480794,6.658645,6.670592,6.6831274,6.6959524,6.7101765,6.7233143,6.739016,6.7567577,6.772936,6.785032,6.7922807,6.7947445,6.795198,6.7951717,6.7933683,6.788995,6.781955,6.7711067,6.7576804,6.7470636,6.7439733,6.7472544,6.747701,6.7485285,6.7485437,6.7484655,6.749771,6.7494154,6.7438526,6.7355556,6.721803,6.70216,6.678268,6.651704,6.623539,6.597629,6.5787287,6.5675964,6.5615454,6.5614014,6.56417,6.5673056,6.5689354,6.571026,6.5745935,6.5789857,6.583826,6.5873294,6.587512,6.585191,6.579816,6.5741434,6.5691404,6.5663023,6.5675063,6.5721836,6.579131,6.5892663,6.6008377,6.612212,6.6253433,6.6407957,6.6578474,6.6755066,6.692473,6.708629,6.7223754,6.730939,6.7336006,6.728999,6.719324,6.709073,6.6988635,6.68515,6.6690464,6.653217,6.6345496,6.6158643,6.600545,6.586923,6.5736237,6.5627003,6.554494,6.5486045,6.544444,6.5441694,6.5460978,6.5490117,6.551071,6.550568,6.54739,6.5420504,6.535185,6.5273013,6.5188165,6.510123,6.501625,6.494178,6.4883404,6.483785,6.479979,6.476366,6.472247,6.4686117,6.4654903,6.46285,6.460331,6.457493,6.4542685,6.450487,6.446293,6.44147,6.436414,6.429639,6.4201193,6.4078007,6.392638,6.3748417,6.3561106,6.336543,6.3167524,6.2984514,6.281629,6.2654476,6.248978,6.231983,6.215267,6.1994963,6.183967,6.1689215,6.1542597,6.1396513,6.125083,6.110895,6.097453,6.084881,6.0728188,6.06214,6.051796,6.04057,6.0294237,6.0174847,6.0028095,5.9849043,5.963867,5.941049,5.9191384,5.8959694,5.8673015,5.8303366,5.7813034,5.720533,5.6563635,5.5978584,5.55033,5.51014,5.4765067,5.445946,5.4161053,5.385212,5.3526297,5.320301,5.290667,5.2636337,5.2375402,5.213599,5.190857,5.168559
5.5301104,5.5181694,5.5044274,5.4896836,5.4735703,5.4565306,5.4405003,5.4265804,5.4150844,5.4059772,5.398944,5.3927927,5.3866673,5.379723,5.3704786,5.3586674,5.34901,5.3420467,5.33852,5.3371477,5.3364277,5.3356667,5.334126,5.3307967,5.3256707,5.3176794,5.30721,5.296803,5.2874413,5.2794056,5.2731986,5.2687488,5.2645817,5.259177,5.2540884,5.2488956,5.2437677,5.238817,5.234006,5.229643,5.2272396,5.2288127,5.234366,5.2408323,5.2525215,5.2645564,5.2746124,5.282204,5.2870092,5.2893596,5.290433,5.2902927,5.2888927,5.286414,5.28343,5.280957,5.2800455,5.2811155,5.283931,5.288017,5.292636,5.297924,5.304748,5.314374,5.327134,5.3399043,5.3513384,5.363709,5.376919,5.392651,5.4125586,5.4356585,5.456971,5.4714694,5.480201,5.4878607,5.4954863,5.5008736,5.511194,5.522295,5.512063,5.5022273,5.2687383,4.88719,4.6588326,4.5901413,4.617262,4.7478085,5.1513195,5.5945673,5.8474827,5.930456,5.9491806,5.9523325,5.9826064,6.0399027,6.1111465,6.1905107,6.262648,6.3137608,6.341756,6.3587017,6.3728886,6.3783026,6.380184,6.3811297,6.3789206,6.3727226,6.3681335,6.3705115,6.3799253,6.3950934,6.4177265,6.4469185,6.476371,6.5031857,6.5247154,6.5404053,6.5530624,6.565819,6.5794353,6.593314,6.605292,6.6149883,6.6216297,6.6252794,6.627055,6.628416,6.6300707,6.631878,6.633754,6.635831,6.6389146,6.6434555,6.649908,6.6586647,6.66948,6.681481,6.6938877,6.7064147,6.7202034,6.7327986,6.7470484,6.7628784,6.7772164,6.7882524,6.7946954,6.79553,6.7968187,6.7978735,6.797063,6.7930746,6.7851787,6.772723,6.757943,6.7454576,6.7381525,6.7370377,6.7376046,6.7379084,6.737458,6.736989,6.7396345,6.7427025,6.7397394,6.731697,6.7188997,6.7003465,6.6777806,6.6515017,6.62342,6.59888,6.581353,6.56956,6.562636,6.5627213,6.565267,6.5682077,6.5698395,6.5713,6.5758734,6.5827436,6.5878963,6.592494,6.593899,6.5923877,6.5876083,6.581506,6.577241,6.575902,6.5771494,6.5812435,6.5875854,6.59643,6.6073875,6.615923,6.6252174,6.6370974,6.6514883,6.668481,6.687043,6.704938,6.7212915,6.7337275,6.7407722,6.7421837,6.73809,6.731186,6.7247953,6.7182264,6.708946,6.6962934,6.6843915,6.6733747,6.663348,6.653912,6.6444607,6.635419,6.628129,6.62325,6.620119,6.619618,6.6217537,6.625279,6.6269765,6.6246123,6.6186457,6.6100388,6.6003046,6.5901318,6.579691,6.5694065,6.560174,6.5530987,6.5481186,6.544548,6.5428476,6.5411816,6.538574,6.534528,6.529309,6.523134,6.5158396,6.507167,6.4981613,6.491757,6.486413,6.4805326,6.473749,6.4651375,6.4535327,6.4378457,6.418399,6.3974037,6.37665,6.3549156,6.332938,6.3128138,6.2941566,6.2761507,6.258226,6.240251,6.2228727,6.206416,6.190054,6.1747475,6.1600537,6.1454725,6.1310654,6.1173086,6.1045427,6.0928297,6.0825706,6.0743995,6.0657325,6.05769,6.048476,6.036205,6.0203986,6.0006332,5.976907,5.952053,5.925385,5.8965316,5.8647795,5.8251677,5.7758493,5.7186003,5.6575465,5.6020756,5.5557327,5.515634,5.481445,5.4502435,5.420054,5.3888235,5.3555584,5.322295,5.291398,5.2628894,5.235471,5.2108026,5.187933,5.1660686
5.523951,5.512164,5.499599,5.486109,5.4710255,5.455019,5.440344,5.4276724,5.417363,5.409397,5.4035444,5.398546,5.393368,5.38803,5.3813972,5.3708353,5.362568,5.3591,5.355898,5.356765,5.3608475,5.3652315,5.366503,5.362789,5.3593903,5.3520274,5.342221,5.3333035,5.3260098,5.320301,5.314169,5.3066397,5.299851,5.2935038,5.2877283,5.282031,5.276088,5.2697816,5.2630672,5.2564993,5.2521067,5.252104,5.2557325,5.2623568,5.2727747,5.283991,5.293786,5.3011813,5.305851,5.308284,5.309655,5.310046,5.3092494,5.307339,5.3048058,5.3027124,5.3024635,5.304579,5.3084965,5.3135815,5.3190327,5.3249784,5.3326817,5.343092,5.354604,5.3662186,5.3783116,5.3909454,5.404149,5.419816,5.43991,5.4645367,5.4854383,5.500629,5.51003,5.5167313,5.5257845,5.533167,5.545443,5.555356,5.5520763,5.534236,5.3219366,4.9565744,4.6964674,4.6177597,4.646637,4.782577,5.2018976,5.6623564,5.9082336,5.9796867,5.998871,6.0029106,6.0309906,6.0765905,6.1403604,6.2124662,6.2783246,6.323917,6.349915,6.365862,6.37559,6.377449,6.377343,6.37263,6.364502,6.356149,6.354061,6.3607187,6.3731966,6.3894067,6.4116387,6.4415774,6.471349,6.4983454,6.5200734,6.5379972,6.553036,6.566124,6.5796337,6.593638,6.6057596,6.6156473,6.6227946,6.6270494,6.6295414,6.6317053,6.634142,6.636721,6.6393657,6.642234,6.646143,6.6514645,6.658581,6.667837,6.678975,6.691122,6.703486,6.7157345,6.728839,6.740752,6.7534647,6.767209,6.779661,6.788518,6.79276,6.7934093,6.795476,6.7976656,6.797947,6.7944827,6.7860312,6.772229,6.754903,6.738613,6.7283025,6.725462,6.7268906,6.727028,6.7264013,6.725771,6.72747,6.731371,6.732175,6.7251177,6.712751,6.6954203,6.675044,6.6489716,6.6222916,6.6009417,6.5849795,6.5734797,6.569545,6.569769,6.571847,6.574286,6.5753207,6.575885,6.580099,6.5877323,6.5938873,6.5990543,6.601535,6.6011086,6.5976768,6.5918465,6.587289,6.5860853,6.587694,6.591917,6.598448,6.607132,6.616786,6.6228333,6.628376,6.6362305,6.6472445,6.6618404,6.6797028,6.6994586,6.717704,6.733434,6.7448053,6.7511225,6.7522583,6.749772,6.746189,6.7422705,6.737012,6.730833,6.7251053,6.719821,6.713644,6.7070966,6.701684,6.697728,6.6947174,6.6920652,6.690983,6.6915636,6.6936584,6.6963863,6.6974087,6.6949806,6.689312,6.68117,6.6721478,6.6628036,6.6536427,6.6451025,6.637787,6.6326847,6.6298857,6.628391,6.627601,6.6260834,6.62199,6.615036,6.607068,6.5982866,6.5889907,6.578564,6.5659323,6.554493,6.539945,6.526246,6.516148,6.50603,6.4926233,6.474805,6.452389,6.4269238,6.4024887,6.3786416,6.354578,6.332014,6.311534,6.292117,6.272654,6.2532196,6.234582,6.2170706,6.1995964,6.183366,6.1681156,6.1531706,6.138577,6.125023,6.1129427,6.10255,6.095167,6.090831,6.0839415,6.077156,6.0686,6.05548,6.0379686,6.016315,5.98897,5.9594793,5.9271398,5.8926573,5.8569064,5.8151517,5.766141,5.711999,5.65547,5.6040974,5.559667,5.5203314,5.486063,5.4545193,5.424116,5.39289,5.359474,5.32541,5.29329,5.2632823,5.2345,5.208929,5.1857796,5.1642103
5.513162,5.5036306,5.4928665,5.4805865,5.4670258,5.453319,5.440812,5.430135,5.421608,5.4151297,5.4105597,5.4065986,5.4022036,5.397584,5.392722,5.386293,5.3796196,5.375516,5.3775887,5.3827887,5.38807,5.3892484,5.386415,5.3845024,5.3816795,5.3765697,5.3690424,5.3620276,5.3550043,5.347544,5.3398414,5.332356,5.32559,5.3189898,5.312844,5.3074822,5.3020134,5.2957153,5.288233,5.2800016,5.2731543,5.2703414,5.2712765,5.2761183,5.2844424,5.2938685,5.302308,5.3087616,5.3129406,5.315279,5.3168225,5.3176613,5.317439,5.316205,5.3146276,5.3137794,5.3149176,5.318491,5.3239393,5.330497,5.3371897,5.344264,5.35245,5.362009,5.373022,5.3854885,5.398947,5.412445,5.425637,5.4404984,5.461135,5.485057,5.506572,5.524175,5.536331,5.544442,5.5535154,5.5623674,5.574806,5.5839214,5.585487,5.5600214,5.3786154,5.0361366,4.7418036,4.6556873,4.682984,4.8275223,5.2560964,5.7130766,5.9522123,6.020213,6.043274,6.05268,6.0719743,6.108879,6.1643667,6.2276354,6.2850294,6.32678,6.352906,6.367934,6.3741827,6.373376,6.371149,6.3634067,6.3524275,6.3448687,6.3454733,6.3541455,6.3680897,6.3858852,6.408782,6.438713,6.4674716,6.4943,6.5155554,6.5334234,6.54978,6.564722,6.5790825,6.592807,6.6049128,6.614955,6.62253,6.6276712,6.631199,6.6342883,6.637533,6.640789,6.644004,6.647438,6.6519537,6.6578894,6.6655717,6.6753016,6.686784,6.699131,6.7115493,6.7236176,6.73609,6.747119,6.7582474,6.7698584,6.7806664,6.787054,6.7883224,6.789447,6.7923527,6.7957535,6.797213,6.7944417,6.785866,6.7704687,6.750377,6.73157,6.719805,6.7163014,6.7185764,6.7195897,6.7194233,6.7186203,6.7188015,6.7209377,6.72188,6.7162595,6.7050843,6.6894803,6.6701727,6.6461625,6.623546,6.6065493,6.593395,6.5836115,6.5811625,6.5816097,6.5835648,6.584297,6.5839896,6.584635,6.5893936,6.5970116,6.602938,6.6083612,6.611413,6.6112814,6.609829,6.6056337,6.601244,6.5993776,6.600012,6.6028748,6.6081305,6.615739,6.62566,6.6320314,6.6362944,6.6406813,6.647461,6.658854,6.674773,6.6935005,6.712928,6.7309375,6.7458467,6.7564487,6.762166,6.763853,6.7632337,6.7614,6.7589607,6.7575006,6.7555823,6.7532487,6.750577,6.7479787,6.74622,6.7456884,6.7456856,6.7448792,6.7451153,6.746661,6.749231,6.7521505,6.7532463,6.7509384,6.745953,6.739506,6.7323895,6.724619,6.7168913,6.7097635,6.7036467,6.6993074,6.6969843,6.6959267,6.6955147,6.695259,6.6943064,6.690626,6.6820936,6.6700306,6.656744,6.6434536,6.6306114,6.617366,6.600178,6.58346,6.5672936,6.5520487,6.5366955,6.5176806,6.492511,6.463569,6.4354734,6.4081364,6.3819733,6.3571696,6.334329,6.313024,6.2919664,6.2708254,6.250627,6.2317114,6.2129784,6.195129,6.1787324,6.1629906,6.1478806,6.1342354,6.1231947,6.116153,6.1130667,6.1105833,6.1052246,6.098709,6.088415,6.073717,6.054718,6.0292125,5.9975333,5.9631453,5.9253736,5.8856707,5.8449545,5.801011,5.7533503,5.702645,5.6507535,5.604251,5.5620947,5.5239363,5.489971,5.458374,5.4280205,5.396847,5.3632913,5.3289247,5.2959948,5.2648506,5.234991,5.208662,5.1852713,5.163926
