23.070234,23.078854,23.086687,23.093397,23.101772,23.111082,23.119255,23.12856,23.139229,23.148876,23.158628,23.170391,23.181702,23.19195,23.205475,23.219433,23.2309,23.245075,23.260275,23.272919,23.286133,23.301027,23.314693,23.328112,23.346073,23.36281,23.374294,23.389467,23.405262,23.41811,23.434006,23.450794,23.464367,23.478828,23.494293,23.507347,23.519833,23.53342,23.54544,23.55614,23.569204,23.583162,23.59573,23.610924,23.628105,23.643305,23.659843,23.680721,23.701378,23.72147,23.746445,23.770699,23.791353,23.815826,23.839436,23.858023,23.881844,23.910845,23.937946,23.967796,24.002094,24.031494,24.0565,24.083256,24.105556,24.122597,24.144331,24.169857,24.194202,24.225523,24.26315,24.295992,24.3265,24.358183,24.38324,24.403255,24.424023,24.438904,24.44748,24.450764,24.446556,24.439354,24.429234,24.41675,24.406027,24.395645,24.38364,24.372952,24.363977,24.353798,24.345379,24.339788,24.333488,24.327993,24.324368,24.321001,24.319984,24.321857,24.325338,24.331013,24.336834,24.341438,24.346525,24.351036,24.354544,24.359169,24.364616,24.369534,24.374874,24.38092,24.386269,24.391396,24.397408,24.403027,24.407885,24.414043,24.421032,24.427647,24.43222,24.435612,24.438545,24.440971,24.443872,24.446573,24.448296,24.450272,24.45204,24.45325,24.45515,24.456974,24.458057,24.460117,24.463654,24.467789,24.473505,24.480394,24.486439,24.49202,24.49831,24.503952,24.508648,24.513165,24.517063,24.520317,24.523678,24.527084,24.529854,24.532425,24.535496,24.538399,24.540834,24.543951,24.54693,24.549137,24.552055,24.556168,24.560719,24.56754,24.576286,24.584513,24.593685,24.605293,24.61701,24.628704,24.641758,24.653822,24.66415,24.676659,24.690329,24.702272,24.715122,24.729008,24.74049,24.750395,24.761627,24.772213,24.781528,24.795578,24.811798,24.825823,24.84275,24.863037,24.882662,24.905842,24.935877,24.963602,24.986404,25.008121,25.018456,25.01696,25.008282,24.988508,24.963535,24.939692,24.921173,24.911747,24.90877,24.920937,24.941109,24.96587,24.947878,24.864288,24.754309,24.562778,24.165983,23.631985,22.77438,21.911404,21.398777,20.943714,20.553038,20.290901,20.089403,19.857325,19.633953,19.440649,19.204502,18.967764,18.778074,18.56556,18.354364,18.19234,18.034897,17.86697,17.72483,17.601715,17.454254,17.31348,17.196579,17.056465,16.915741,16.80244,16.676014,16.542046,16.430088,16.318287,16.190176,16.074383,15.972026,15.845855,15.721968,15.619035,15.49568,15.372034,15.274708,15.171265,15.064922,14.977189,14.891296,14.786712,14.6849785,14.59236,14.47661,14.364368,14.275532,14.178089,14.091008,14.030182,13.971253,13.91552,13.871641,13.829834,13.778347,13.726964,13.680113,13.619605,13.556217,13.502407,13.438446,13.371016,13.315523,13.257757,13.194513,13.137316,13.078247,13.005473,12.932372,12.862645,12.782387,12.71233,12.66374,12.617183,12.581898,12.5613575,12.543925,12.529104,12.517567,12.505611,12.49044,12.474754,12.460272,12.442331,12.423758,12.408247,12.391747,12.374109,12.358027,12.338739,12.313617,12.288797,12.265114,12.236973,12.212228,12.193808,12.17473,12.159418,12.149316
22.779806,22.788332,22.7961,22.802776,22.811237,22.820736,22.829094,22.8387,22.849709,22.8596,22.869568,22.881584,22.893114,22.90353,22.917156,22.931107,22.942524,22.956573,22.971565,22.983997,22.997013,23.011642,23.025026,23.038176,23.055733,23.072155,23.083632,23.098715,23.1143,23.1269,23.14232,23.158455,23.171444,23.18534,23.200268,23.212954,23.225203,23.238586,23.25053,23.261293,23.274529,23.288822,23.301775,23.317661,23.335522,23.351095,23.368126,23.389185,23.409506,23.42897,23.45279,23.475464,23.494434,23.516703,23.537987,23.554672,23.57647,23.603287,23.628386,23.655907,23.687279,23.713902,23.736347,23.760328,23.780544,23.796303,23.817017,23.842207,23.866728,23.898392,23.936462,23.969578,24.00027,24.031378,24.055079,24.073475,24.091923,24.10447,24.111244,24.11271,24.10716,24.099226,24.088516,24.075737,24.065037,24.055014,24.04366,24.033691,24.025394,24.015945,24.008076,24.00279,23.996868,23.991667,23.988182,23.984932,23.983986,23.985886,23.989365,23.995201,24.00134,24.006292,24.011839,24.016811,24.020668,24.02563,24.03132,24.036346,24.041769,24.047787,24.053005,24.057941,24.063648,24.068878,24.073318,24.078857,24.085068,24.09093,24.094715,24.097385,24.099804,24.10183,24.10444,24.10699,24.108627,24.11052,24.112265,24.113514,24.115585,24.11771,24.119106,24.121521,24.125292,24.12944,24.135012,24.14162,24.14738,24.152706,24.158697,24.164043,24.16846,24.172674,24.176361,24.179533,24.18294,24.186604,24.18973,24.192673,24.196163,24.199425,24.202215,24.205812,24.209309,24.211975,24.215431,24.219957,24.224699,24.231647,24.240429,24.248623,24.257734,24.269184,24.280577,24.291769,24.303972,24.31496,24.324276,24.335518,24.34782,24.358633,24.370325,24.38309,24.39378,24.403248,24.413935,24.423244,24.430294,24.440575,24.452415,24.462727,24.477905,24.497501,24.516096,24.53763,24.563274,24.587093,24.61242,24.637882,24.655434,24.667229,24.67937,24.680595,24.66956,24.64996,24.629536,24.618584,24.612171,24.617174,24.62999,24.648857,24.636707,24.570354,24.477394,24.306698,23.970394,23.53417,22.74366,21.916822,21.417267,20.966335,20.573578,20.306164,20.093758,19.853973,19.62936,19.436728,19.204308,18.972445,18.785732,18.574844,18.362774,18.1982,18.037323,17.865402,17.720488,17.595694,17.448391,17.31015,17.196644,17.06142,16.92579,16.81604,16.692127,16.55862,16.445305,16.331093,16.199303,16.079905,15.974525,15.845135,15.718798,15.614321,15.489482,15.365004,15.267541,15.164403,15.05896,14.972271,14.887497,14.78363,14.681562,14.58787,14.469566,14.353575,14.261061,14.159187,14.067938,14.0043545,13.943325,13.886661,13.843042,13.802045,13.751982,13.702137,13.656611,13.597703,13.5359,13.483416,13.421127,13.355633,13.301704,13.244378,13.181318,13.124663,13.066895,12.994879,12.921564,12.851475,12.769421,12.696953,12.646727,12.5990715,12.563088,12.542028,12.524252,12.5092125,12.497536,12.485455,12.469574,12.453779,12.440811,12.42473,12.408036,12.394022,12.379032,12.362282,12.3463745,12.327487,12.302884,12.278547,12.25528,12.2274275,12.202654,12.183998,12.16443,12.148483,12.137867
22.520573,22.529179,22.537064,22.543877,22.55257,22.562344,22.570934,22.580826,22.59209,22.602123,22.612194,22.624311,22.635914,22.646393,22.660034,22.673954,22.68533,22.699293,22.714128,22.72639,22.739288,22.753738,22.766901,22.779846,22.79702,22.813072,22.824432,22.839207,22.854313,22.866436,22.8811,22.896284,22.908466,22.921583,22.935738,22.947876,22.959784,22.97292,22.984816,22.995687,23.009228,23.02401,23.03745,23.054138,23.072758,23.088736,23.10624,23.12741,23.147316,23.166077,23.188755,23.209972,23.2274,23.24768,23.266857,23.281782,23.301544,23.326065,23.349081,23.374195,23.402702,23.426853,23.447258,23.469337,23.488592,23.504211,23.525259,23.551292,23.576683,23.609287,23.648014,23.681248,23.711857,23.742008,23.763992,23.780474,23.79629,23.806225,23.810982,23.81041,23.80329,23.794418,23.782902,23.769566,23.75865,23.74871,23.737665,23.728104,23.72025,23.711266,23.703728,23.698643,23.693014,23.688122,23.684856,23.681866,23.681164,23.68323,23.686838,23.692917,23.699379,23.704643,23.71061,23.716019,23.720226,23.72557,23.731611,23.736908,23.742577,23.74876,23.753994,23.758848,23.764324,23.769192,23.77324,23.778214,23.783731,23.78893,23.792057,23.79412,23.7961,23.797781,23.800117,23.80249,23.804007,23.805782,23.807468,23.808727,23.810936,23.813343,23.815033,23.817774,23.821743,23.825878,23.831244,23.837456,23.842781,23.847698,23.853218,23.858137,23.862206,23.866053,23.869473,23.872509,23.87585,23.879623,23.882965,23.886139,23.889933,23.893509,23.896622,23.900696,23.904736,23.907911,23.911995,23.917065,23.922123,23.929314,23.93827,23.946568,23.955719,23.96713,23.978342,23.98923,24.000843,24.011038,24.019596,24.029804,24.04092,24.050713,24.061298,24.072968,24.082882,24.091755,24.10202,24.111147,24.11842,24.126455,24.134258,24.141127,24.152054,24.167374,24.183018,24.203789,24.229057,24.250788,24.269936,24.288506,24.304085,24.319277,24.342552,24.364937,24.378502,24.374382,24.358444,24.345608,24.335918,24.33526,24.342398,24.353607,24.34679,24.298462,24.22273,24.071653,23.789717,23.44144,22.713211,21.922907,21.438644,20.990551,20.59227,20.317345,20.096859,19.84856,19.618341,19.422775,19.190903,18.962309,18.77834,18.569437,18.357285,18.190815,18.02717,17.851871,17.704512,17.578163,17.43108,17.29539,17.185255,17.055115,16.925257,16.820065,16.700344,16.569832,16.457802,16.344059,16.212017,16.091965,15.985927,15.855732,15.728592,15.623415,15.497572,15.371899,15.273392,15.169048,15.062284,14.97448,14.888666,14.78334,14.679474,14.583829,14.462423,14.342558,14.246363,14.13994,14.044177,13.977355,13.913511,13.855056,13.811041,13.770401,13.72156,13.67341,13.629534,13.572805,13.513338,13.462868,13.40304,13.340054,13.288028,13.232746,13.170189,13.112829,13.05589,12.983737,12.909885,12.840662,12.757844,12.683348,12.631369,12.581567,12.544401,12.523541,12.505957,12.490896,12.479272,12.468271,12.4532175,12.438351,12.427263,12.412767,12.396903,12.383167,12.368803,12.352493,12.336675,12.318137,12.294172,12.270578,12.248066,12.221039,12.196827,12.178425,12.158876,12.142628,12.1316
22.300234,22.308994,22.317068,22.32407,22.333012,22.343048,22.35184,22.361942,22.37336,22.383438,22.393518,22.405617,22.417198,22.427666,22.441273,22.455143,22.46649,22.480373,22.495096,22.507261,22.520092,22.534424,22.547422,22.560217,22.577072,22.592773,22.603962,22.618355,22.632896,22.644463,22.658321,22.672543,22.683903,22.696232,22.709631,22.721258,22.73285,22.745798,22.757732,22.768768,22.78269,22.798018,22.811981,22.829464,22.848831,22.865211,22.883121,22.904358,22.92387,22.94197,22.963642,22.983624,22.999744,23.018354,23.035748,23.049168,23.067097,23.089512,23.110622,23.133549,23.15953,23.181652,23.200508,23.221355,23.240334,23.256409,23.27843,23.305782,23.332275,23.365963,23.405313,23.438524,23.46886,23.497877,23.518097,23.532671,23.54589,23.553272,23.55606,23.553493,23.544819,23.534992,23.5226,23.50861,23.497372,23.487366,23.476421,23.467075,23.459492,23.450806,23.443497,23.438549,23.433147,23.428543,23.425537,23.42286,23.422482,23.42478,23.428587,23.434925,23.441666,23.447197,23.453499,23.459251,23.463755,23.469444,23.475838,23.481403,23.487377,23.493792,23.499096,23.503944,23.509266,23.513847,23.51757,23.522078,23.52703,23.531698,23.53431,23.535923,23.537577,23.53898,23.541058,23.543247,23.544617,23.546265,23.547878,23.549097,23.551384,23.553999,23.555923,23.558914,23.563011,23.567085,23.5722,23.577963,23.582794,23.587221,23.59219,23.596636,23.600328,23.603786,23.606895,23.609734,23.612955,23.616726,23.620148,23.623451,23.627426,23.63121,23.63456,23.639008,23.643513,23.647144,23.65178,23.657352,23.662727,23.670132,23.679256,23.687674,23.696857,23.708252,23.719349,23.730013,23.74123,23.750872,23.758856,23.768284,23.778454,23.787392,23.797031,23.807762,23.817017,23.82543,23.835348,23.844212,23.851173,23.858746,23.865364,23.870415,23.876637,23.886662,23.899088,23.916092,23.937847,23.957752,23.977491,23.994705,24.006943,24.018826,24.040577,24.066586,24.087444,24.11164,24.117695,24.103184,24.0891,24.081894,24.084854,24.092133,24.092503,24.060724,23.999573,23.867165,23.630466,23.351007,22.686296,21.934677,21.45859,21.015965,20.610973,20.323994,20.098667,19.844307,19.607967,19.407387,19.174007,18.947334,18.76557,18.558563,18.346786,18.179058,18.013437,17.83558,17.686275,17.558636,17.411652,17.27794,17.170471,17.044498,16.919613,16.818573,16.703003,16.576069,16.466263,16.354206,16.223513,16.104286,15.9988365,15.869196,15.742294,15.63706,15.510771,15.384092,15.284383,15.17841,15.069553,14.979811,14.892105,14.784498,14.678381,14.580605,14.456215,14.332878,14.233446,14.122932,14.022985,13.953047,13.886321,13.825758,13.780937,13.740245,13.692177,13.645386,13.602926,13.548185,13.490965,13.442493,13.385086,13.324551,13.274378,13.220995,13.160017,13.103289,13.046116,12.972699,12.898354,12.8312025,12.748587,12.672686,12.619465,12.568169,12.529987,12.5089855,12.491653,12.477331,12.466677,12.456705,12.44374,12.430568,12.419444,12.404808,12.389196,12.376219,12.361839,12.345268,12.329435,12.311065,12.287565,12.264606,12.242785,12.216574,12.192963,12.17486,12.15538,12.138834,12.127348
22.040379,22.04934,22.057663,22.064884,22.074116,22.084425,22.093395,22.103664,22.115149,22.125183,22.135178,22.147125,22.15855,22.168915,22.18239,22.196148,22.20742,22.22118,22.23574,22.247768,22.260517,22.274715,22.287518,22.300137,22.31661,22.331863,22.34276,22.35661,22.370388,22.381214,22.394077,22.407139,22.417519,22.428932,22.441486,22.45258,22.463848,22.476707,22.488834,22.500164,22.514664,22.530743,22.545357,22.56372,22.58387,22.60065,22.618927,22.640125,22.659111,22.676405,22.696926,22.71554,22.73022,22.74698,22.762405,22.774168,22.78994,22.80981,22.828632,22.848942,22.87208,22.892128,22.909603,22.929697,22.949135,22.966425,22.990314,23.019672,23.047588,23.082516,23.122295,23.15505,23.184555,23.211708,23.229446,23.241459,23.251335,23.255512,23.255844,23.250795,23.240181,23.22913,23.21561,23.200737,23.189018,23.178806,23.167862,23.158667,23.151306,23.142876,23.135777,23.130978,23.125866,23.121666,23.119053,23.11686,23.116987,23.11966,23.12377,23.130447,23.137524,23.143354,23.150028,23.156145,23.16095,23.167006,23.173801,23.17971,23.186043,23.192757,23.198196,23.203064,23.208233,23.212519,23.215916,23.21996,23.224358,23.22852,23.230644,23.231836,23.233187,23.234344,23.236172,23.238148,23.239359,23.240833,23.242306,23.243431,23.245726,23.24848,23.25059,23.25375,23.257881,23.261795,23.266508,23.271595,23.275703,23.279423,23.283573,23.287317,23.290474,23.293388,23.296068,23.29863,23.301636,23.305305,23.308733,23.312084,23.316174,23.320116,23.323639,23.328398,23.333328,23.337389,23.342566,23.348635,23.354322,23.361946,23.371212,23.37969,23.388836,23.400105,23.411003,23.421421,23.432198,23.441246,23.44865,23.457268,23.466433,23.474443,23.483051,23.49272,23.501223,23.509094,23.518642,23.527311,23.534096,23.54132,23.547125,23.551044,23.555023,23.56063,23.567715,23.578167,23.594141,23.61088,23.62765,23.642862,23.653973,23.663933,23.685413,23.713688,23.737827,23.76902,23.790909,23.795242,23.795933,23.788742,23.780727,23.783218,23.784042,23.76535,23.729378,23.623865,23.427097,23.199665,22.635374,21.955675,21.482716,21.05029,20.642548,20.343077,20.107174,19.846588,19.60617,19.396494,19.158083,18.93137,18.751202,18.54606,18.335102,18.166527,17.999321,17.819115,17.667751,17.538517,17.391056,17.258617,17.153175,17.030708,16.910337,16.81326,16.701878,16.578907,16.471909,16.362267,16.23398,16.116714,16.012932,15.885218,15.759847,15.655529,15.529801,15.402769,15.302046,15.194305,15.082754,14.990272,14.899746,14.788713,14.6793165,14.578584,14.450239,14.322472,14.218962,14.103246,13.997837,13.92366,13.852806,13.788807,13.742147,13.700539,13.652532,13.606747,13.565544,13.51284,13.458227,13.41223,13.357895,13.30064,13.253073,13.202303,13.143567,13.08805,13.031521,12.957676,12.883125,12.817745,12.735617,12.659209,12.605706,12.554283,12.516215,12.495566,12.479116,12.466707,12.457915,12.448381,12.436309,12.423975,12.412859,12.398024,12.382298,12.369483,12.354713,12.337616,12.321562,12.303228,12.280161,12.257913,12.236918,12.211727,12.1889105,12.171232,12.151886,12.134964,12.122848
21.782394,21.791567,21.80017,21.807636,21.817139,21.827679,21.83678,21.847128,21.858576,21.868484,21.878296,21.88995,21.901081,21.911224,21.924456,21.938019,21.949163,21.962738,21.977077,21.988913,22.001514,22.01553,22.028114,22.040524,22.056599,22.071362,22.081854,22.095055,22.108002,22.118042,22.129927,22.141901,22.151392,22.161999,22.173868,22.184566,22.195614,22.20857,22.221096,22.232822,22.248034,22.264942,22.280201,22.299324,22.320091,22.337158,22.355633,22.376656,22.39506,22.41153,22.430935,22.448288,22.461647,22.476686,22.49028,22.500507,22.51419,22.531553,22.54815,22.565987,22.586626,22.60511,22.621822,22.642048,22.662819,22.682003,22.708406,22.740072,22.769348,22.80523,22.844849,22.876507,22.904488,22.929096,22.943903,22.953047,22.959332,22.960186,22.958012,22.95047,22.937918,22.925652,22.911003,22.895245,22.883026,22.872559,22.861538,22.852436,22.845247,22.837013,22.8301,22.825449,22.820656,22.816948,22.814833,22.813225,22.813969,22.8171,22.821566,22.82861,22.836002,22.842115,22.849117,22.855541,22.86059,22.866943,22.874073,22.880285,22.886942,22.893948,22.899536,22.90444,22.909489,22.913519,22.916645,22.920315,22.9243,22.928093,22.9299,22.93082,22.931973,22.932983,22.934635,22.936428,22.937489,22.938774,22.94007,22.941044,22.943233,22.945978,22.948135,22.951305,22.955303,22.958925,22.963116,22.967388,22.970636,22.973526,22.976717,22.979647,22.982208,22.984524,22.986729,22.988976,22.9917,22.995176,22.998508,23.001804,23.00588,23.009857,23.01341,23.018286,23.023428,23.027729,23.033234,23.039614,23.04549,23.053205,23.062473,23.070902,23.07991,23.09095,23.101597,23.111773,23.122139,23.13067,23.1376,23.145523,23.153805,23.160973,23.16858,23.177181,23.184893,23.192165,23.201284,23.209787,23.216524,23.223621,23.22916,23.23275,23.236456,23.239782,23.24267,23.24749,23.256645,23.267733,23.279293,23.2914,23.301804,23.31091,23.33049,23.357374,23.381771,23.407774,23.433874,23.454441,23.471115,23.479385,23.478905,23.478281,23.474657,23.461811,23.445192,23.370441,23.209938,23.01381,22.559052,21.969456,21.507122,21.090973,20.686451,20.377827,20.128834,19.860218,19.616776,19.401329,19.155018,18.92279,18.741793,18.536633,18.325863,18.156828,17.988913,17.807487,17.654839,17.524466,17.376259,17.243973,17.139208,17.018303,16.900272,16.805422,16.696629,16.57643,16.471693,16.364285,16.23867,16.124008,16.022692,15.89812,15.7756405,15.673399,15.549629,15.423517,15.322612,15.213768,15.099861,15.004638,14.911131,14.796341,14.683317,14.57935,14.446773,14.314356,14.206609,14.085466,13.9742565,13.895441,13.819876,13.751593,13.702195,13.658701,13.609621,13.563861,13.523117,13.4716,13.418938,13.375028,13.323391,13.269241,13.224318,13.176197,13.119838,13.065872,13.010693,12.937763,12.863917,12.799753,12.718958,12.643806,12.591372,12.541395,12.504824,12.485329,12.470407,12.460018,12.452721,12.4433365,12.431353,12.419117,12.407978,12.392906,12.376633,12.363162,12.347651,12.329856,12.313402,12.29496,12.272234,12.250689,12.230555,12.206504,12.184639,12.1675205,12.148435,12.131203,12.118464
21.570261,21.579605,21.588457,21.596144,21.605862,21.616558,21.625744,21.636112,21.647488,21.657253,21.666862,21.678202,21.68901,21.69889,21.711847,21.72519,21.736181,21.749546,21.763638,21.77525,21.787651,21.80143,21.81379,21.825987,21.841692,21.85601,21.86611,21.878716,21.890957,21.900352,21.911495,21.922691,21.931557,21.941647,21.953117,21.96363,21.974602,21.987812,22.000832,22.012972,22.028858,22.046488,22.062258,22.081905,22.103045,22.120255,22.13875,22.159508,22.177387,22.193146,22.21161,22.227934,22.240242,22.2539,22.266022,22.275032,22.287066,22.302467,22.31735,22.333382,22.35232,22.36992,22.386448,22.407356,22.42973,22.450798,22.479523,22.513092,22.543285,22.579601,22.618572,22.648823,22.675056,22.6971,22.709213,22.715828,22.719057,22.717167,22.712957,22.70343,22.689377,22.676182,22.660686,22.644287,22.631718,22.621052,22.609985,22.600975,22.593925,22.58587,22.579132,22.574627,22.570135,22.566898,22.565262,22.564194,22.565495,22.569035,22.573816,22.581158,22.588785,22.595116,22.602352,22.608974,22.614178,22.620703,22.628025,22.634407,22.641273,22.648472,22.654152,22.659079,22.664036,22.667881,22.670807,22.674217,22.677938,22.681532,22.683193,22.68401,22.685074,22.68602,22.687588,22.68927,22.690212,22.691343,22.692478,22.693298,22.695322,22.697945,22.700026,22.703087,22.70684,22.710117,22.713804,22.717329,22.719809,22.721964,22.724316,22.72655,22.728624,22.730452,22.73227,22.734245,22.736732,22.740017,22.743229,22.746418,22.750408,22.754316,22.757801,22.762619,22.767765,22.7721,22.777687,22.784153,22.790071,22.79771,22.806847,22.815155,22.823965,22.834759,22.845161,22.85511,22.865147,22.873295,22.879864,22.88726,22.894852,22.901352,22.908121,22.915787,22.922768,22.929457,22.938112,22.946415,22.953117,22.960243,22.965801,22.969341,22.97268,22.975285,22.977226,22.980074,22.983849,22.988426,22.995865,23.004305,23.012321,23.02031,23.035282,23.058113,23.08266,23.109604,23.133171,23.148556,23.164452,23.195312,23.225094,23.226873,23.222351,23.211239,23.197664,23.148483,23.022865,22.849773,22.476643,21.964169,21.526436,21.128613,20.73047,20.417694,20.159075,19.881004,19.633614,19.41951,19.166069,18.924644,18.740253,18.532661,18.32072,18.15121,17.983213,17.801773,17.64899,17.518425,17.36987,17.237213,17.132195,17.011208,16.89335,16.798794,16.69056,16.571201,16.46737,16.361122,16.237299,16.124744,16.025644,15.904169,15.784822,15.685013,15.563818,15.439487,15.339232,15.230282,15.115128,15.018074,14.922434,14.804778,14.688858,14.582258,14.446205,14.309966,14.198745,14.07316,13.957166,13.874477,13.794889,13.722747,13.670638,13.625013,13.574232,13.527639,13.486507,13.435011,13.383039,13.340147,13.289953,13.237713,13.194592,13.1483345,13.093798,13.041219,12.987347,12.916077,12.843746,12.780571,12.701872,12.629175,12.578463,12.530436,12.495812,12.477839,12.4644985,12.455034,12.447889,12.43885,12.427153,12.4149685,12.403704,12.388387,12.371461,12.357052,12.340764,12.32234,12.305504,12.286933,12.264477,12.24353,12.2241535,12.201151,12.180216,12.163683,12.144943,12.127579,12.114416
21.342136,21.35158,21.360615,21.368483,21.37837,21.389187,21.398432,21.408777,21.420012,21.42956,21.438883,21.449818,21.460224,21.469757,21.482365,21.495407,21.506159,21.51921,21.532936,21.544224,21.556282,21.569693,21.581718,21.593594,21.608803,21.62257,21.632217,21.644176,21.655682,21.66444,21.674881,21.685383,21.693722,21.703396,21.714668,21.72525,21.736391,21.75024,21.76414,21.77698,21.79385,21.812435,21.828833,21.848995,21.87041,21.887661,21.905977,21.926155,21.943186,21.957966,21.975128,21.990067,22.001072,22.013031,22.023472,22.031235,22.041609,22.055136,22.068476,22.082966,22.100565,22.117641,22.134354,22.156403,22.180725,22.203854,22.234985,22.270306,22.30112,22.337456,22.37524,22.403625,22.427645,22.44671,22.455862,22.45974,22.45972,22.454967,22.448654,22.437117,22.421581,22.40748,22.391201,22.374203,22.361279,22.350399,22.33928,22.330383,22.323507,22.315704,22.309265,22.30502,22.300959,22.298344,22.297325,22.29692,22.298876,22.30288,22.30802,22.315647,22.32346,22.329971,22.33736,22.34407,22.349327,22.355877,22.363209,22.369617,22.376537,22.383785,22.389467,22.394342,22.399162,22.40282,22.405577,22.408768,22.412308,22.415798,22.41743,22.418266,22.419346,22.42034,22.42189,22.423494,22.424393,22.425388,22.426315,22.426949,22.428722,22.431065,22.432896,22.435648,22.438955,22.441734,22.444775,22.447445,22.449093,22.450485,22.451977,22.453522,22.455147,22.45655,22.45808,22.459898,22.462246,22.465424,22.468548,22.471624,22.475475,22.479244,22.482574,22.487202,22.492191,22.496437,22.501938,22.508297,22.514084,22.521507,22.530357,22.538387,22.546864,22.557236,22.567225,22.576775,22.586292,22.593885,22.599968,22.606705,22.61348,22.619215,22.625055,22.63169,22.637852,22.64385,22.65192,22.659914,22.666473,22.673561,22.679153,22.682709,22.68591,22.68792,22.688904,22.690212,22.691551,22.693172,22.696648,22.699587,22.703108,22.709053,22.722029,22.742447,22.76405,22.789171,22.809807,22.82077,22.83033,22.854391,22.890366,22.93396,22.959341,22.953161,22.93767,22.905846,22.809208,22.65897,22.362772,21.936678,21.544216,21.164688,20.776154,20.46846,20.203934,19.91542,19.660679,19.44662,19.190365,18.941305,18.747135,18.532951,18.317463,18.146822,17.978996,17.79884,17.647526,17.518208,17.370415,17.23759,17.131939,17.009731,16.89021,16.794163,16.684446,16.563726,16.459047,16.352438,16.229015,16.117739,16.020428,15.902033,15.786337,15.689669,15.572138,15.450924,15.352461,15.244684,15.1296,15.031723,14.934844,14.815144,14.696856,14.587954,14.448698,14.308804,14.194237,14.064365,13.943723,13.857241,13.773655,13.697443,13.642166,13.593769,13.540219,13.491513,13.448717,13.395558,13.342518,13.299173,13.248749,13.196927,13.154678,13.109558,13.056652,13.005848,12.953974,12.88559,12.816072,12.754767,12.679853,12.611448,12.563654,12.518665,12.486591,12.470256,12.458813,12.449491,12.441179,12.432375,12.420771,12.408366,12.396847,12.381235,12.363726,12.348485,12.33124,12.312056,12.294928,12.276252,12.254062,12.233711,12.215092,12.193175,12.173233,12.157351,12.13905,12.121657,12.108175
21.09515,21.104633,21.11382,21.121819,21.131853,21.14277,21.152042,21.162323,21.173363,21.182648,21.191628,21.202087,21.212029,21.22116,21.233341,21.246004,21.256432,21.269049,21.282238,21.29303,21.30456,21.317383,21.328886,21.340239,21.354761,21.367863,21.376976,21.388271,21.399082,21.407248,21.417107,21.427101,21.43509,21.444517,21.455841,21.46677,21.478363,21.493267,21.508461,21.522282,21.540382,21.560036,21.577076,21.597527,21.618858,21.635826,21.653526,21.672665,21.68851,21.70204,21.717491,21.73062,21.740013,21.749908,21.758429,21.764896,21.773682,21.785572,21.797672,21.811077,21.827908,21.844973,21.862335,21.88601,21.912586,21.93786,21.971344,22.008083,22.039036,22.074717,22.110483,22.136274,22.157406,22.172897,22.178741,22.179676,22.17627,22.168625,22.160244,22.146816,22.129993,22.11517,22.098316,22.080944,22.06783,22.05684,22.045795,22.03714,22.030529,22.023142,22.017185,22.01336,22.009918,22.00811,22.007854,22.008224,22.010923,22.015423,22.020897,22.028742,22.036646,22.043243,22.050655,22.057304,22.062473,22.068863,22.075993,22.082237,22.089012,22.09613,22.101704,22.106441,22.111065,22.114529,22.117138,22.12019,22.123669,22.127182,22.128948,22.129982,22.131222,22.13239,22.134043,22.135654,22.136562,22.137466,22.138199,22.138626,22.140053,22.141941,22.143354,22.145573,22.148222,22.150366,22.152649,22.154398,22.155228,22.155905,22.15659,22.15752,22.158792,22.159912,22.16133,22.163126,22.165482,22.168634,22.171677,22.17464,22.178272,22.181765,22.184807,22.18907,22.193707,22.19769,22.20288,22.208908,22.214386,22.221409,22.229792,22.237415,22.245451,22.255272,22.264711,22.273735,22.282589,22.289497,22.29498,22.300945,22.306805,22.31167,22.316479,22.321941,22.327139,22.332283,22.339558,22.347046,22.353317,22.36026,22.365887,22.369541,22.372822,22.374601,22.375034,22.375402,22.375496,22.375603,22.3765,22.375845,22.375774,22.378563,22.38796,22.404293,22.421621,22.444073,22.461666,22.468163,22.470518,22.480404,22.506954,22.560986,22.61293,22.636505,22.64141,22.624779,22.54895,22.430756,22.203169,21.86424,21.536423,21.199146,20.832193,20.527855,20.265007,19.969345,19.704885,19.487907,19.229301,18.973461,18.76759,18.541273,18.317072,18.143848,17.976006,17.798525,17.650814,17.524834,17.379646,17.247402,17.141075,17.016651,16.893492,16.793926,16.680367,16.555649,16.44796,16.339087,16.214298,16.103184,16.007002,15.891472,15.779839,15.686979,15.574159,15.457415,15.361986,15.25679,15.143262,15.045731,14.948668,14.827887,14.707814,14.596949,14.454748,14.311361,14.193584,14.059645,13.934623,13.844557,13.757145,13.676842,13.618119,13.566471,13.509276,13.4573345,13.411739,13.355343,13.299457,13.254087,13.201538,13.148291,13.105614,13.060482,13.008562,12.959597,12.910152,12.845644,12.780416,12.72276,12.652874,12.589781,12.546228,12.505335,12.476418,12.461642,12.449953,12.439257,12.429731,12.420605,12.408453,12.395374,12.383362,12.367317,12.349502,12.3340225,12.315711,12.295771,12.278804,12.260357,12.238806,12.219399,12.2018795,12.181503,12.163029,12.148212,12.13085,12.113955,12.100602
20.875822,20.885303,20.89458,20.902657,20.912785,20.923767,20.933031,20.943222,20.95407,20.96312,20.97179,20.981833,20.991371,21.000166,21.011978,21.024296,21.034416,21.046602,21.059235,21.069487,21.08044,21.092606,21.103512,21.114288,21.128109,21.140575,21.1492,21.159939,21.170238,21.177996,21.187508,21.197275,21.205158,21.21459,21.226208,21.237663,21.249836,21.265863,21.28233,21.297073,21.316238,21.3367,21.354137,21.37454,21.395433,21.411884,21.428724,21.446636,21.461224,21.473476,21.487139,21.498367,21.506128,21.513977,21.520681,21.526009,21.533596,21.54443,21.555862,21.568844,21.585602,21.603098,21.621313,21.646603,21.675102,21.702026,21.73716,21.774567,21.805096,21.83954,21.872871,21.89592,21.914124,21.926212,21.929111,21.92752,21.921299,21.911362,21.901407,21.88665,21.869064,21.853909,21.836903,21.819551,21.80653,21.795658,21.784897,21.776634,21.770412,21.763573,21.758217,21.754898,21.75214,21.751137,21.751587,21.752663,21.75599,21.760872,21.76655,21.774471,21.782326,21.78887,21.79616,21.802624,21.807598,21.813711,21.820522,21.826496,21.83302,21.839909,21.845325,21.849909,21.854347,21.85767,21.860191,21.86319,21.866707,21.87032,21.8723,21.873604,21.875067,21.876446,21.878252,21.87991,21.880844,21.881699,21.88229,21.882534,21.883614,21.88504,21.886023,21.887667,21.889664,21.89125,21.892889,21.89392,21.894161,21.894352,21.894495,21.89504,21.896132,21.897173,21.898636,21.900524,21.90299,21.90618,21.909147,21.912003,21.91539,21.918558,21.921284,21.925144,21.929388,21.933052,21.937859,21.943478,21.948605,21.955194,21.963102,21.97033,21.97798,21.987316,21.996265,22.004814,22.013065,22.019321,22.024208,22.029448,22.034433,22.038475,22.042305,22.046646,22.05089,22.05516,22.061558,22.068436,22.074322,22.081001,22.086594,22.090332,22.09378,22.095604,22.095848,22.095768,22.095007,22.094168,22.094173,22.09288,22.091616,22.091831,22.096792,22.108217,22.121952,22.141514,22.156868,22.1613,22.160513,22.162786,22.175886,22.20116,22.253632,22.307806,22.3419,22.339922,22.281456,22.197659,22.02414,21.757004,21.492373,21.212885,20.880253,20.581558,20.325352,20.028538,19.757282,19.535572,19.272118,19.009815,18.79602,18.556301,18.320099,18.142288,17.97337,17.798588,17.655418,17.533989,17.392857,17.26233,17.156036,17.029736,16.902657,16.799,16.680756,16.550892,16.439144,16.326986,16.19971,16.087791,15.991911,15.878335,15.770029,15.680471,15.571869,15.459368,15.367039,15.2647,15.15332,15.056835,14.960352,14.839388,14.718325,14.60614,14.461788,14.315758,14.195544,14.058584,13.930368,13.837711,13.747528,13.664154,13.602697,13.54835,13.487904,13.432825,13.38439,13.32448,13.26516,13.21706,13.161403,13.105516,13.061335,13.015068,12.963095,12.91531,12.8678255,12.806803,12.7459,12.692528,12.627808,12.569731,12.530144,12.492691,12.465754,12.451241,12.437497,12.4247875,12.414505,12.404432,12.391125,12.377091,12.364489,12.348032,12.330296,12.315229,12.29653,12.276355,12.2598295,12.242046,12.221598,12.203482,12.187351,12.168853,12.152205,12.138799,12.12286,12.107058,12.094376
20.684616,20.694067,20.703394,20.711514,20.721691,20.732693,20.741951,20.75204,20.762697,20.771534,20.779942,20.78963,20.798838,20.807362,20.818905,20.83096,20.840824,20.852654,20.864801,20.874565,20.884995,20.896532,20.906876,20.917171,20.930382,20.942276,20.950468,20.960705,20.970589,20.978086,20.9874,20.997107,21.005058,21.01471,21.026829,21.038921,21.05169,21.06868,21.086124,21.101543,21.121445,21.142368,21.159916,21.180088,21.200502,21.21648,21.232544,21.249302,21.262665,21.2737,21.285583,21.294914,21.30109,21.306978,21.311966,21.316256,21.322906,21.333082,21.344212,21.357185,21.37426,21.392357,21.411411,21.43811,21.468128,21.496239,21.532417,21.569927,21.599667,21.632584,21.663435,21.683918,21.699402,21.708447,21.708813,21.705135,21.69663,21.684885,21.67377,21.658129,21.640163,21.624958,21.6081,21.591053,21.578321,21.567749,21.557447,21.549706,21.543957,21.53775,21.533047,21.53027,21.528223,21.528006,21.529102,21.53082,21.534683,21.539845,21.545647,21.553532,21.561245,21.567638,21.574707,21.580914,21.585659,21.591457,21.597916,21.603605,21.60986,21.616535,21.621819,21.626278,21.630617,21.6339,21.636417,21.639416,21.642994,21.646732,21.648903,21.650429,21.65203,21.65353,21.655354,21.656948,21.657894,21.658695,21.65914,21.65921,21.659992,21.661028,21.661654,21.662819,21.66428,21.66542,21.666584,21.667112,21.666954,21.6668,21.666603,21.666939,21.667952,21.669,21.670559,21.67256,21.675144,21.678375,21.681286,21.684017,21.68718,21.690086,21.692547,21.696075,21.699993,21.7034,21.70789,21.713154,21.717976,21.724194,21.731709,21.738619,21.745975,21.754957,21.763542,21.771736,21.779497,21.78518,21.78951,21.79404,21.798191,21.801441,21.804337,21.807598,21.810907,21.814322,21.819838,21.82608,21.83156,21.837912,21.843395,21.847172,21.850765,21.852695,21.852894,21.852613,21.851398,21.849953,21.849178,21.846916,21.844818,21.844604,21.84742,21.855461,21.8662,21.881317,21.894156,21.899029,21.89752,21.895885,21.901718,21.917212,21.952581,21.994225,22.02792,22.043617,22.015831,21.958874,21.839157,21.638979,21.42683,21.198212,20.909824,20.63316,20.37926,20.082844,19.810822,19.585865,19.313457,19.04208,18.824444,18.573303,18.324692,18.140438,17.969246,17.79642,17.657747,17.54123,17.404934,17.277147,17.171837,17.044672,16.914467,16.807146,16.684486,16.549576,16.433748,16.31825,16.188305,16.075287,15.979349,15.867103,15.761311,15.674271,15.568918,15.459739,15.369883,15.269871,15.1603565,15.064918,14.969141,14.848322,14.726713,14.613665,14.467798,14.319847,14.197868,14.058748,13.928289,13.833845,13.74177,13.656261,13.592843,13.536526,13.473572,13.4159355,13.365107,13.30212,13.239597,13.188791,13.129955,13.071126,13.024998,12.977043,12.924306,12.877037,12.83087,12.772598,12.715317,12.665424,12.606517,12.553877,12.516981,12.481247,12.453669,12.437169,12.422429,12.408737,12.3974285,12.386255,12.37164,12.356622,12.343502,12.326801,12.309304,12.294723,12.2768755,12.257233,12.240763,12.223877,12.204854,12.188234,12.173643,12.157175,12.1425085,12.13068,12.116432,12.102051,12.090338
20.46151,20.47089,20.480211,20.488327,20.498484,20.509441,20.518621,20.528542,20.538958,20.547543,20.555641,20.564953,20.573826,20.582092,20.59338,20.605188,20.614796,20.626266,20.637897,20.647114,20.656918,20.667744,20.677485,20.687243,20.699757,20.711014,20.718763,20.728481,20.737972,20.745281,20.75452,20.76434,20.772484,20.782219,20.794718,20.807474,20.820934,20.839046,20.85767,20.873991,20.894793,20.91621,20.933802,20.953556,20.973228,20.988504,21.003489,21.018658,21.030348,21.039776,21.04932,21.05619,21.060364,21.063824,21.066795,21.069962,21.075739,21.085552,21.096779,21.110252,21.12811,21.147099,21.16729,21.195555,21.226994,21.25605,21.292772,21.329666,21.35794,21.388462,21.415974,21.433317,21.445549,21.45108,21.448647,21.442715,21.43182,21.418287,21.40609,21.389748,21.371706,21.356749,21.340405,21.324074,21.31197,21.301975,21.292496,21.285656,21.280756,21.275574,21.27185,21.269882,21.26846,21.26865,21.27003,21.271996,21.276031,21.281254,21.287012,21.29475,21.30225,21.308418,21.315193,21.321102,21.325607,21.331142,21.337387,21.342957,21.349098,21.355705,21.360928,21.365211,21.369312,21.372364,21.374699,21.377506,21.381,21.384787,21.38715,21.389034,21.391031,21.393064,21.395596,21.397663,21.398495,21.399036,21.399199,21.39898,21.399347,21.399918,21.400154,21.400837,21.40177,21.402485,21.403229,21.403374,21.402966,21.40261,21.402218,21.40245,21.403458,21.40458,21.40628,21.408401,21.411095,21.414318,21.417091,21.419632,21.422482,21.425056,21.427216,21.430384,21.433979,21.437138,21.441319,21.446247,21.450768,21.456654,21.463804,21.470406,21.47749,21.48613,21.494328,21.502113,21.509266,21.51421,21.517826,21.521437,21.524498,21.526737,21.52845,21.530344,21.532469,21.53479,21.539143,21.544506,21.549376,21.555199,21.560413,21.564135,21.567799,21.569853,21.570084,21.569725,21.568222,21.566309,21.564842,21.561699,21.558802,21.558018,21.55967,21.565239,21.57265,21.584623,21.59526,21.599232,21.598063,21.59458,21.594624,21.600973,21.618984,21.643536,21.667015,21.684345,21.67612,21.646338,21.581493,21.459309,21.316177,21.145016,20.912613,20.674494,20.43877,20.151615,19.878765,19.649364,19.369347,19.089205,18.86483,18.603685,18.340618,18.143421,17.966858,17.794462,17.660244,17.549175,17.4188,17.294983,17.19167,17.06448,16.931517,16.820545,16.69321,16.552734,16.432327,16.313063,16.17996,16.065414,15.969058,15.857706,15.753998,15.669098,15.566561,15.4603615,15.372793,15.274929,15.167194,15.072819,14.9778385,14.857297,14.735259,14.621429,14.474146,14.324404,14.200808,14.059768,13.927393,13.8314705,13.737852,13.650554,13.585409,13.527303,13.461943,13.401704,13.34835,13.282016,13.215865,13.16189,13.099268,13.036766,12.988035,12.937664,12.883392,12.836048,12.790703,12.734792,12.681036,12.634812,12.581222,12.533623,12.499825,12.466362,12.439055,12.421318,12.404892,12.388486,12.37438,12.360691,12.344,12.32793,12.31419,12.297275,12.280229,12.266405,12.249841,12.23143,12.215742,12.200266,12.183209,12.168594,12.156005,12.142143,12.130035,12.120287,12.108349,12.0960455,12.085852
20.244003,20.253311,20.262575,20.270622,20.280678,20.291492,20.300526,20.310246,20.320404,20.328743,20.336567,20.345562,20.354183,20.362278,20.37339,20.385015,20.394428,20.405611,20.416794,20.425512,20.434708,20.444866,20.454056,20.463245,20.475039,20.485678,20.493061,20.502365,20.511528,20.518635,20.527752,20.53767,20.54607,20.556011,20.569027,20.582542,20.596823,20.616024,20.63562,20.652605,20.673933,20.69552,20.713032,20.732052,20.750597,20.76488,20.778534,20.791893,20.801804,20.809647,20.816963,20.821573,20.82397,20.825356,20.826694,20.829025,20.834332,20.84422,20.855865,20.870167,20.889187,20.909302,20.930618,20.960228,20.992569,21.021881,21.058203,21.093555,21.119736,21.147243,21.171013,21.18515,21.19429,21.196613,21.191696,21.18385,21.170982,21.156063,21.143105,21.126442,21.1087,21.094292,21.078812,21.063591,21.052456,21.04337,21.034882,21.028858,21.024574,21.0202,21.017282,21.015944,21.015007,21.015453,21.016933,21.01892,21.022854,21.02788,21.033375,21.04074,21.047848,21.053642,21.060009,21.065569,21.069817,21.075119,21.081207,21.086704,21.092796,21.099401,21.10464,21.10888,21.11291,21.115902,21.118198,21.120949,21.124409,21.128197,21.13066,21.132761,21.13501,21.137417,21.14048,21.143002,21.144012,21.144726,21.145008,21.144861,21.145199,21.145538,21.14544,21.14577,21.146374,21.146875,21.14743,21.147501,21.147144,21.146862,21.14656,21.146889,21.147993,21.149254,21.151077,21.153263,21.155968,21.159061,21.1616,21.163874,21.166351,21.16856,21.170422,21.173256,21.176586,21.179564,21.183537,21.188263,21.192621,21.198349,21.205318,21.211758,21.218714,21.22715,21.235058,21.242496,21.249102,21.253345,21.256264,21.25898,21.260963,21.2622,21.262753,21.263306,21.264256,21.265463,21.268589,21.272957,21.277113,21.28225,21.28704,21.29058,21.294178,21.296272,21.296549,21.2962,21.294617,21.292496,21.290619,21.28694,21.283451,21.282032,21.283037,21.287277,21.292603,21.302181,21.310783,21.313847,21.313734,21.310238,21.306976,21.306879,21.312399,21.322025,21.331697,21.339241,21.336708,21.325335,21.297825,21.237648,21.157337,21.040703,20.865582,20.672447,20.469006,20.202888,19.935555,19.70737,19.425049,19.13858,18.907299,18.640812,18.368542,18.159948,17.974741,17.798092,17.664986,17.556616,17.42992,17.309307,17.208202,17.082094,16.948421,16.835873,16.70617,16.562515,16.43932,16.317669,16.182398,16.06657,15.969591,15.858278,15.755298,15.671225,15.569792,15.464811,15.378236,15.281274,15.174301,15.080378,14.985685,14.864998,14.7422905,14.627567,14.47887,14.327546,14.202652,14.060214,13.926638,13.829926,13.735573,13.647483,13.581545,13.522593,13.455965,13.394173,13.339183,13.270564,13.201754,13.145325,13.079709,13.014117,12.962994,12.910171,12.853768,12.8053055,12.759481,12.704077,12.651961,12.60787,12.557235,12.512681,12.481203,12.449595,12.422932,12.404625,12.38637,12.366796,12.349509,12.333062,12.313847,12.296353,12.281983,12.264881,12.248337,12.235304,12.219971,12.203202,12.189016,12.17506,12.15992,12.147242,12.136541,12.125115,12.11541,12.107649,12.097994,12.0878525,12.079313
20.065056,20.074337,20.083527,20.09148,20.101393,20.112034,20.120918,20.130459,20.140392,20.148525,20.156153,20.164944,20.173414,20.18141,20.192421,20.203936,20.213223,20.224205,20.235048,20.243383,20.25207,20.261662,20.27037,20.279013,20.290127,20.300236,20.30734,20.316347,20.325218,20.332062,20.3409,20.350765,20.359396,20.36985,20.383694,20.398062,20.41322,20.433315,20.453438,20.470606,20.491856,20.51318,20.53049,20.548615,20.565865,20.579037,20.59138,20.603117,20.611576,20.618244,20.624023,20.627167,20.628475,20.62864,20.62906,20.630941,20.636166,20.64634,20.658426,20.67348,20.693668,20.714909,20.737047,20.76757,20.80029,20.82931,20.864634,20.89807,20.922104,20.946735,20.967161,20.97858,20.985344,20.985264,20.978523,20.969326,20.955091,20.939249,20.925821,20.909107,20.891815,20.878004,20.86343,20.849361,20.839203,20.831068,20.82339,20.817738,20.813496,20.809355,20.806751,20.805603,20.805088,20.805988,20.807724,20.809877,20.813744,20.8185,20.823639,20.83048,20.837059,20.8424,20.84829,20.853474,20.857456,20.862503,20.868355,20.87367,20.879627,20.886168,20.891443,20.89581,20.900124,20.903454,20.90604,20.909094,20.912724,20.91653,20.919006,20.92102,20.923115,20.925293,20.928009,20.930412,20.93201,20.933506,20.934464,20.934853,20.935669,20.936127,20.935814,20.935972,20.936493,20.93703,20.937647,20.93791,20.937817,20.937786,20.937763,20.938313,20.939571,20.94098,20.942875,20.945042,20.94766,20.950542,20.952824,20.954807,20.95692,20.958809,20.960415,20.96297,20.966095,20.968958,20.972822,20.977486,20.981827,20.98754,20.994507,21.000948,21.007915,21.016293,21.024044,21.031263,21.037495,21.04124,21.043652,21.045694,21.046864,21.04734,21.047005,21.04653,21.04657,21.046886,21.048979,21.052479,21.055992,21.06048,21.064823,21.068132,21.071579,21.073624,21.07389,21.07354,21.071962,21.069803,21.06779,21.063873,21.06003,21.058155,21.058191,21.061478,21.066395,21.073092,21.07957,21.083134,21.083857,21.080513,21.075525,21.071888,21.069548,21.069305,21.069935,21.07145,21.071026,21.06758,21.056774,21.029234,20.987328,20.914906,20.787302,20.630747,20.459301,20.218971,19.965046,19.745836,19.465923,19.175734,18.940624,18.672644,18.398956,18.187115,17.992943,17.80838,17.672503,17.563091,17.436394,17.316813,17.217083,17.092422,16.959944,16.848139,16.718918,16.575325,16.451878,16.329857,16.194042,16.077663,15.98019,15.868391,15.765022,15.680653,15.578787,15.473356,15.386455,15.289149,15.181866,15.087683,14.992622,14.871174,14.747417,14.631596,14.481407,14.328628,14.202664,14.059202,13.924937,13.827925,13.733444,13.6453705,13.579486,13.520594,13.453896,13.39179,13.336319,13.26688,13.19692,13.139299,13.0721855,13.004869,12.952217,12.897614,12.839155,12.788969,12.741671,12.685045,12.632517,12.588607,12.53882,12.495501,12.465001,12.434131,12.407455,12.388445,12.368933,12.347485,12.328371,12.31032,12.288891,12.269672,12.254763,12.237475,12.221272,12.208788,12.194262,12.178891,12.16622,12.153393,12.139575,12.128244,12.118846,12.109079,12.101019,12.094637,12.086622,12.078091,12.070818
19.866749,19.875969,19.885033,19.892857,19.902555,19.912933,19.921604,19.930922,19.940605,19.94852,19.955956,19.964544,19.972885,19.980827,19.991835,20.003338,20.012554,20.023422,20.034065,20.042088,20.049784,20.058105,20.065859,20.073788,20.083952,20.093159,20.099674,20.10802,20.116434,20.123116,20.131947,20.142233,20.15157,20.163048,20.178211,20.19373,20.20987,20.230915,20.251625,20.269112,20.290161,20.310753,20.327263,20.34451,20.360437,20.372105,20.382847,20.392715,20.399593,20.40505,20.409376,20.41128,20.411842,20.410934,20.410076,20.41082,20.41555,20.42626,20.439585,20.456673,20.478956,20.501417,20.52427,20.555424,20.588135,20.616455,20.650158,20.680988,20.702347,20.723543,20.740206,20.74871,20.752865,20.750359,20.74194,20.731518,20.71603,20.69936,20.68557,20.668926,20.652332,20.639463,20.626284,20.61322,20.603233,20.59511,20.58773,20.582792,20.579464,20.576378,20.574635,20.574034,20.574104,20.575375,20.577202,20.579319,20.582867,20.587143,20.591743,20.597855,20.603754,20.60859,20.613977,20.618782,20.622509,20.627316,20.63295,20.638083,20.643938,20.650509,20.655937,20.660534,20.665257,20.669056,20.672031,20.675486,20.679354,20.683208,20.685692,20.687588,20.689482,20.691423,20.693836,20.69598,20.697414,20.698734,20.699535,20.699785,20.700521,20.701195,20.701355,20.702076,20.703373,20.704716,20.706371,20.707565,20.707962,20.708261,20.708591,20.709393,20.710762,20.712246,20.714136,20.716251,20.71873,20.721344,20.723322,20.72496,20.726658,20.72818,20.729506,20.731762,20.734661,20.737408,20.741169,20.745798,20.750156,20.755894,20.762903,20.769371,20.776335,20.784618,20.792168,20.799107,20.804893,20.808067,20.809914,20.811195,20.811483,20.811192,20.809952,20.808441,20.80756,20.806955,20.80796,20.810524,20.813318,20.817076,20.8209,20.8239,20.827127,20.829082,20.829336,20.829002,20.827505,20.825426,20.823404,20.81941,20.815292,20.812944,20.811954,20.813908,20.817717,20.823215,20.828373,20.830778,20.830372,20.827484,20.82335,20.818092,20.810616,20.80335,20.797714,20.792728,20.790241,20.78982,20.791653,20.788511,20.774742,20.742188,20.663433,20.549347,20.417572,20.213894,19.982883,19.77795,19.508,19.219799,18.982445,18.714394,18.440308,18.2263,18.026861,17.832504,17.687351,17.573502,17.443558,17.322926,17.223541,17.100023,16.969524,16.859703,16.732615,16.591087,16.469063,16.348085,16.212954,16.096699,15.99901,15.886604,15.782336,15.697102,15.593886,15.486902,15.398769,15.300247,15.191905,15.096938,15.000969,14.878104,14.752722,14.635351,14.48321,14.328659,14.201458,14.056875,13.921959,13.824764,13.73034,13.642603,13.577133,13.518672,13.452381,13.390425,13.334875,13.265083,13.194443,13.136055,13.067974,12.999445,12.945589,12.889417,12.828788,12.776419,12.726967,12.668076,12.614027,12.569335,12.519373,12.476518,12.446569,12.416115,12.38933,12.369678,12.349012,12.325851,12.305115,12.2856865,12.26288,12.242697,12.227161,12.209496,12.193379,12.181246,12.167457,12.15308,12.141257,12.12931,12.116585,12.1063385,12.097956,12.089506,12.082786,12.077548,12.070959,12.063906,12.05784
19.654325,19.66349,19.672401,19.680069,19.689518,19.699604,19.708038,19.717121,19.726593,19.734375,19.741741,19.750324,19.758646,19.766481,19.777153,19.788223,19.797153,19.80759,19.81756,19.824825,19.831593,19.838806,19.845604,19.852657,19.86182,19.870201,19.876146,19.8839,19.891987,19.898659,19.907745,19.918797,19.929127,19.941847,19.958466,19.97515,19.992226,20.01397,20.034985,20.052711,20.073326,20.092808,20.108166,20.124144,20.138523,20.148674,20.15783,20.165777,20.171011,20.175373,20.178593,20.17953,20.179218,20.177437,20.17585,20.176064,20.18087,20.19248,20.207129,20.226086,20.250683,20.27493,20.298952,20.33051,20.362448,20.389484,20.420788,20.44828,20.466484,20.48383,20.496536,20.502172,20.503834,20.499132,20.4893,20.477894,20.461428,20.444183,20.430225,20.414093,20.398178,20.385548,20.372911,20.360538,20.351131,20.343513,20.336956,20.33307,20.330873,20.329021,20.32824,20.328268,20.328938,20.330505,20.332308,20.334259,20.33733,20.34098,20.344933,20.350246,20.355394,20.359554,20.364288,20.368668,20.37218,20.37689,20.382538,20.387703,20.393473,20.400002,20.40554,20.410389,20.415586,20.419945,20.423412,20.427418,20.43163,20.435555,20.43808,20.439873,20.441566,20.443272,20.445389,20.44723,20.448303,20.449207,20.449644,20.449585,20.450056,20.45076,20.451206,20.45229,20.454134,20.456093,20.458559,20.46085,20.46231,20.46357,20.464993,20.466728,20.468832,20.47094,20.472996,20.474892,20.477076,20.47933,20.481016,20.482307,20.483595,20.484758,20.48579,20.48773,20.490389,20.492989,20.49665,20.50127,20.505672,20.511482,20.518581,20.525085,20.532003,20.540117,20.547367,20.553932,20.559156,20.56167,20.562922,20.563417,20.562847,20.56184,20.559774,20.55732,20.5556,20.554134,20.554083,20.555695,20.557724,20.560696,20.56393,20.566563,20.569511,20.571346,20.57159,20.571293,20.569954,20.56807,20.566185,20.562271,20.557976,20.55519,20.553144,20.553581,20.555977,20.560436,20.564728,20.566399,20.565605,20.562946,20.559088,20.553232,20.543652,20.533428,20.525242,20.51669,20.511532,20.510487,20.515682,20.52314,20.524887,20.517044,20.478144,20.407743,20.318848,20.165638,19.974104,19.791725,19.542213,19.265717,19.032635,18.766407,18.494095,18.28223,18.079468,17.878155,17.724182,17.598627,17.457523,17.330296,17.227573,17.10215,16.972454,16.864895,16.741146,16.604229,16.486418,16.36919,16.237587,16.123468,16.026775,15.914383,15.808991,15.722349,15.616852,15.507162,15.416851,15.316075,15.205572,15.1089325,15.01123,14.886114,14.758463,14.639048,14.484481,14.327856,14.199274,14.053492,13.917958,13.820672,13.726459,13.639326,13.574582,13.516893,13.451456,13.390113,13.334914,13.265348,13.194728,13.136261,13.068122,12.999325,12.944939,12.887783,12.825167,12.770273,12.718002,12.655648,12.598646,12.551811,12.500105,12.4564,12.426157,12.3954115,12.368208,12.347973,12.326385,12.301948,12.2800455,12.259639,12.235962,12.2151785,12.199125,12.181045,12.164797,12.152745,12.139303,12.125437,12.11406,12.102664,12.0906105,12.08098,12.073153,12.065437,12.059515,12.055017,12.049454,12.043579,12.038534
19.467506,19.476637,19.485409,19.492887,19.502075,19.511879,19.520094,19.528997,19.538315,19.545982,19.553232,19.56171,19.569893,19.577492,19.587662,19.598183,19.606777,19.616707,19.625872,19.632286,19.638605,19.645382,19.651634,19.657986,19.666435,19.67435,19.67999,19.687489,19.695522,19.702309,19.711763,19.723568,19.734764,19.748447,19.766098,19.783537,19.801184,19.823126,19.843971,19.861576,19.88163,19.900053,19.914257,19.92875,19.941532,19.950422,19.958231,19.964558,19.968468,19.972063,19.974716,19.975225,19.974358,19.972317,19.971008,19.971798,19.977459,19.990086,20.00558,20.025429,20.051594,20.077517,20.102768,20.134605,20.165487,20.190971,20.219723,20.243977,20.259304,20.27327,20.282684,20.286089,20.285908,20.279657,20.268887,20.256886,20.239899,20.222374,20.208317,20.192526,20.176846,20.163977,20.151203,20.139416,20.131203,20.124802,20.119564,20.11669,20.11526,20.114231,20.114098,20.114557,20.115501,20.117043,20.118618,20.120228,20.122723,20.125736,20.129063,20.133667,20.138176,20.14172,20.14589,20.149971,20.153408,20.15818,20.16403,20.169376,20.175137,20.181625,20.187227,20.19228,20.19788,20.202724,20.206638,20.211164,20.215721,20.219725,20.222347,20.224144,20.22575,20.227348,20.22931,20.231005,20.231945,20.232738,20.233116,20.23304,20.233414,20.233944,20.234234,20.235159,20.236904,20.23888,20.24142,20.244389,20.24699,20.249409,20.252169,20.255093,20.258167,20.261196,20.263721,20.265644,20.26786,20.269981,20.271416,20.272467,20.273457,20.274355,20.275154,20.276821,20.279259,20.281704,20.285261,20.28986,20.294302,20.300179,20.307346,20.313858,20.320688,20.328571,20.335472,20.341629,20.346277,20.348177,20.348923,20.348774,20.347542,20.346024,20.343363,20.340248,20.337929,20.33584,20.334995,20.335846,20.33725,20.339552,20.34227,20.34458,20.347265,20.34899,20.34922,20.348957,20.34777,20.346073,20.344341,20.340534,20.336098,20.33294,20.329971,20.329037,20.330095,20.333076,20.336617,20.33853,20.338726,20.336239,20.33165,20.325832,20.3166,20.30688,20.299164,20.290966,20.285423,20.28331,20.285385,20.291977,20.29744,20.295963,20.278044,20.239338,20.183636,20.078896,19.932068,19.776718,19.555418,19.2995,19.077255,18.817175,18.54934,18.341661,18.137749,17.934216,17.775608,17.637814,17.482471,17.344074,17.233772,17.102085,16.96989,16.862759,16.741226,16.609173,16.496784,16.384861,16.258907,16.148796,16.054495,15.943308,15.837387,15.749512,15.641813,15.529352,15.4367485,15.333428,15.220242,15.121391,15.021526,14.89385,14.763826,14.642321,14.485368,14.32678,14.196925,14.050043,13.913937,13.816555,13.722519,13.635944,13.571901,13.5149765,13.45043,13.389812,13.335136,13.266123,13.196032,13.138046,13.0706,13.002394,12.948197,12.89083,12.826939,12.769936,12.715069,12.649216,12.588882,12.539368,12.485092,12.439644,12.408441,12.376814,12.348932,12.328202,12.306009,12.28087,12.258362,12.237436,12.213205,12.19198,12.17561,12.157194,12.140707,12.128536,12.115044,12.101295,12.090136,12.078964,12.067125,12.057632,12.049906,12.042345,12.036674,12.032482,12.027465,12.022328,12.01797
19.299679,19.308884,19.317598,19.324821,19.333633,19.343042,19.35098,19.359764,19.368881,19.376125,19.382679,19.390137,19.397451,19.404549,19.41464,19.425383,19.434074,19.444107,19.453302,19.45965,19.465755,19.472204,19.478125,19.484116,19.492056,19.499527,19.504934,19.512245,19.520267,19.527172,19.53695,19.54937,19.561256,19.575666,19.594048,19.611956,19.629879,19.651741,19.672104,19.689072,19.708622,19.7262,19.739067,19.752087,19.763147,19.770454,19.776562,19.781261,19.784184,19.787258,19.789654,19.790487,19.79048,19.789164,19.78864,19.790356,19.79694,19.810516,19.826828,19.84759,19.874702,19.901287,19.927021,19.95929,19.989616,20.013357,20.03957,20.06081,20.07352,20.084488,20.091091,20.092655,20.091019,20.083616,20.072227,20.059889,20.042747,20.0251,20.01078,19.993889,19.977718,19.965708,19.953995,19.943474,19.93626,19.930761,19.926455,19.92432,19.923496,19.923107,19.923481,19.924309,19.92503,19.92585,19.926722,19.92757,19.929173,19.931381,19.933945,19.937695,19.941584,19.94483,19.948814,19.952896,19.956423,19.961304,19.96721,19.972553,19.978512,19.985264,19.9911,19.996449,20.002483,20.007786,20.012093,20.017046,20.021904,20.026033,20.028816,20.030739,20.032398,20.03403,20.036003,20.03773,20.038727,20.039692,20.040379,20.040718,20.041233,20.041687,20.041931,20.042809,20.044521,20.046515,20.049181,20.052532,20.055643,20.058535,20.061846,20.065168,20.068398,20.071846,20.075272,20.078308,20.08184,20.084438,20.08535,20.086102,20.086779,20.087431,20.088036,20.089464,20.091673,20.09397,20.0974,20.101955,20.106411,20.112318,20.119513,20.126007,20.132732,20.140383,20.146946,20.152695,20.156809,20.158176,20.158482,20.157799,20.156046,20.154137,20.15105,20.14745,20.144691,20.14213,20.140652,20.140888,20.14178,20.143507,20.145775,20.147816,20.150278,20.15189,20.152103,20.151865,20.150799,20.14925,20.147606,20.143839,20.139229,20.135674,20.131767,20.129433,20.129135,20.13062,20.133099,20.13474,20.135202,20.133904,20.130955,20.126757,20.119587,20.111736,20.105442,20.098476,20.093346,20.090927,20.090008,20.090862,20.091576,20.090042,20.081797,20.061878,20.029968,19.963596,19.857574,19.733683,19.549828,19.322231,19.112347,18.86663,18.6067,18.399265,18.19735,17.99087,17.825981,17.68565,17.520098,17.367065,17.245079,17.103703,16.966454,16.857824,16.736868,16.608795,16.501766,16.395447,16.275951,16.170818,16.079742,15.970644,15.864837,15.77609,15.666574,15.551644,15.45692,15.351088,15.235046,15.133737,15.031522,14.901194,14.768814,14.645239,14.485961,14.325508,14.194468,14.046542,13.909876,13.812382,13.718485,13.632415,13.569028,13.512817,13.449129,13.389269,13.335181,13.266864,13.197536,13.140287,13.073866,13.006634,12.952962,12.895768,12.831053,12.772318,12.715181,12.64609,12.58252,12.530318,12.473277,12.425762,12.393318,12.360554,12.331854,12.310639,12.287987,12.2624235,12.239594,12.218386,12.193802,12.172216,12.155512,12.13671,12.119907,12.107561,12.093972,12.0802555,12.069189,12.058105,12.046288,12.036732,12.02891,12.021266,12.015619,12.011545,12.006847,12.002217,11.99836
19.101494,19.110106,19.118027,19.124659,19.132893,19.141863,19.149544,19.158096,19.167038,19.17418,19.180637,19.187979,19.195225,19.202343,19.212643,19.22366,19.23252,19.242718,19.252037,19.258446,19.264523,19.270834,19.27657,19.28234,19.28994,19.297153,19.302528,19.309902,19.318142,19.325344,19.335562,19.348614,19.361113,19.37608,19.394844,19.4128,19.430511,19.451641,19.470867,19.486633,19.504805,19.521011,19.532686,19.544167,19.553423,19.559174,19.563795,19.566895,19.568563,19.570766,19.572771,19.573986,19.574715,19.574963,19.576317,19.579407,19.587635,19.602528,19.619497,19.640991,19.668787,19.695673,19.721216,19.753468,19.783104,19.804958,19.828274,19.84608,19.855919,19.863667,19.867313,19.867008,19.863972,19.855589,19.843842,19.831589,19.814278,19.79612,19.781189,19.764204,19.748718,19.73774,19.72726,19.718077,19.711885,19.707296,19.703886,19.702312,19.70168,19.701332,19.70153,19.702063,19.702463,19.702843,19.70322,19.703457,19.704254,19.705696,19.707535,19.710499,19.713833,19.716791,19.720627,19.724783,19.728476,19.733559,19.739607,19.74499,19.751026,19.757828,19.76371,19.769226,19.775574,19.781252,19.785929,19.79131,19.796455,19.800663,19.803555,19.80555,19.807236,19.808884,19.810905,19.812716,19.81382,19.814976,19.815922,19.816532,19.817497,19.81847,19.819113,19.820446,19.822681,19.825176,19.828518,19.832436,19.835854,19.8391,19.842817,19.846413,19.849716,19.853327,19.857056,19.860474,19.864384,19.867687,19.869461,19.87099,19.87212,19.872734,19.873146,19.874262,19.876183,19.878273,19.88153,19.88598,19.890377,19.896238,19.903381,19.909801,19.916348,19.923653,19.929764,19.935001,19.938442,19.939152,19.938934,19.937653,19.93537,19.933115,19.929665,19.925686,19.922596,19.919678,19.917704,19.91743,19.917871,19.919086,19.92091,19.922634,19.924814,19.926243,19.926373,19.92605,19.924934,19.923344,19.921589,19.917599,19.912575,19.908447,19.903492,19.899746,19.898104,19.898104,19.899511,19.90083,19.901436,19.901222,19.89991,19.89735,19.892494,19.886967,19.882572,19.877522,19.873365,19.870848,19.868286,19.865515,19.86268,19.8591,19.85337,19.844446,19.833618,19.80325,19.739723,19.65492,19.513222,19.323463,19.14228,18.918692,18.671833,18.469997,18.273243,18.065983,17.895325,17.74991,17.57874,17.417316,17.28324,17.123901,16.970673,16.854483,16.728485,16.600769,16.498013,16.397482,16.286154,16.188488,16.103153,15.998907,15.895291,15.806911,15.696493,15.579311,15.48221,15.373341,15.253564,15.148897,15.043405,14.90941,14.773867,14.647597,14.485395,14.322624,14.19007,14.040729,13.903158,13.805302,13.711275,13.625489,13.562651,13.507101,13.44431,13.385349,13.332048,13.264759,13.196664,13.140648,13.07592,13.010442,12.957966,12.901701,12.836929,12.777008,12.7180195,12.645988,12.579218,12.524195,12.464039,12.413931,12.379748,12.345276,12.315241,12.293226,12.269905,12.243813,12.220636,12.199135,12.174172,12.15217,12.135059,12.115797,12.098649,12.086134,12.07247,12.058803,12.047828,12.036783,12.024883,12.015152,12.007149,11.999375,11.993783,11.989903,11.985682,11.981761,11.978568
18.907993,18.915956,18.923145,18.929314,18.937153,18.945889,18.95346,18.961903,18.970898,18.978306,18.98522,18.993235,19.001099,19.008667,19.01934,19.030598,19.039639,19.050022,19.059532,19.066114,19.07235,19.078777,19.084541,19.090286,19.097832,19.105103,19.110699,19.118427,19.127127,19.134779,19.1455,19.159073,19.171967,19.187164,19.205837,19.223328,19.240295,19.260073,19.277613,19.291765,19.307827,19.322039,19.332352,19.342304,19.35004,19.354582,19.358086,19.360054,19.360909,19.36256,19.364666,19.36672,19.368404,19.370771,19.374514,19.379108,19.388945,19.404934,19.42228,19.44408,19.47207,19.498816,19.523643,19.554985,19.583555,19.604277,19.625072,19.639702,19.64706,19.6521,19.653347,19.651594,19.64756,19.638662,19.626825,19.614517,19.596798,19.577991,19.562443,19.546104,19.531982,19.521988,19.512646,19.5046,19.49922,19.495226,19.492285,19.490894,19.490208,19.489655,19.489468,19.489538,19.48973,19.489983,19.49012,19.489971,19.490185,19.491037,19.492306,19.494678,19.497604,19.500301,19.50401,19.508251,19.512127,19.517426,19.523666,19.52914,19.535154,19.541836,19.547632,19.553165,19.559654,19.56557,19.570505,19.576199,19.581535,19.585766,19.588692,19.59071,19.592403,19.594059,19.596146,19.598068,19.599302,19.600643,19.601791,19.602552,19.604,19.605627,19.606773,19.608658,19.611479,19.614496,19.618492,19.623066,19.626972,19.630695,19.634958,19.638939,19.6424,19.645977,19.649456,19.652588,19.656109,19.65982,19.662739,19.665226,19.667168,19.66823,19.66893,19.67035,19.672445,19.67456,19.677734,19.68202,19.686293,19.692053,19.699116,19.705444,19.711819,19.718819,19.724518,19.729275,19.732086,19.732182,19.731493,19.7297,19.72702,19.724552,19.720898,19.716734,19.713486,19.710413,19.7082,19.707645,19.707806,19.708672,19.710138,19.711548,19.713402,19.714554,19.714493,19.713955,19.71257,19.710691,19.708574,19.70406,19.69841,19.693604,19.687687,19.682816,19.680153,19.679005,19.679512,19.680445,19.68095,19.681206,19.680786,19.679235,19.676083,19.672558,19.670013,19.66713,19.664457,19.662369,19.659903,19.656628,19.653013,19.64806,19.641823,19.63715,19.63786,19.629705,19.597454,19.54699,19.44429,19.294113,19.146942,18.95493,18.73288,18.54506,18.356632,18.15226,17.979607,17.829712,17.654507,17.487785,17.345543,17.170033,16.996384,16.863932,16.725506,16.591848,16.489397,16.391933,16.287415,16.197355,16.118374,16.020468,15.920845,15.834175,15.7242565,15.605848,15.506859,15.395353,15.272043,15.164022,15.055124,14.917267,14.778408,14.649356,14.484207,14.3191185,14.18502,14.034151,13.895472,13.797026,13.702564,13.6167,13.55411,13.498951,13.43682,13.378653,13.326135,13.259941,13.193232,13.138624,13.075798,13.012382,12.961474,12.9066925,12.842747,12.782637,12.722863,12.649166,12.580239,12.523123,12.460402,12.407857,12.371845,12.33547,12.303844,12.280855,12.2568035,12.230228,12.206812,12.185137,12.159954,12.137678,12.120264,12.100681,12.083321,12.070728,12.0570545,12.04344,12.032497,12.021382,12.009245,11.999218,11.990971,11.983061,11.977591,11.974006,11.970396,11.9673195,11.964876
18.747597,18.755573,18.762924,18.769115,18.776976,18.785732,18.793346,18.801935,18.811213,18.818945,18.826221,18.834726,18.843044,18.850943,18.86192,18.873398,18.882603,18.8932,18.902962,18.909767,18.916216,18.922853,18.928768,18.93459,18.942247,18.949717,18.95562,18.9638,18.973011,18.981098,18.992283,19.006252,19.019379,19.034613,19.052982,19.069855,19.08594,19.104286,19.120152,19.13272,19.146717,19.158754,19.167255,19.175705,19.18224,19.185865,19.18835,19.189674,19.190525,19.1924,19.195374,19.198856,19.202066,19.206444,19.212093,19.217966,19.228653,19.245115,19.262697,19.284513,19.312363,19.338757,19.362942,19.392813,19.420038,19.440565,19.45957,19.471659,19.477211,19.480312,19.479898,19.477192,19.47255,19.46351,19.45163,19.438656,19.420319,19.401146,19.385326,19.369232,19.355907,19.346792,19.338425,19.331318,19.326504,19.32275,19.31982,19.318378,19.317802,19.317392,19.317322,19.317457,19.317629,19.317698,19.317575,19.317074,19.316803,19.317177,19.317963,19.319859,19.322453,19.32493,19.328526,19.332817,19.336819,19.342274,19.348667,19.354227,19.360252,19.366898,19.372665,19.378212,19.3848,19.39088,19.395988,19.40186,19.407295,19.41153,19.41448,19.416534,19.418264,19.419964,19.42212,19.424133,19.42549,19.427032,19.428421,19.429413,19.431086,19.432896,19.434189,19.43618,19.439049,19.442078,19.446098,19.451214,19.456001,19.460423,19.465504,19.470078,19.4738,19.477386,19.480701,19.483723,19.487165,19.490784,19.493622,19.496078,19.498426,19.500275,19.50183,19.504322,19.507221,19.509682,19.512924,19.517061,19.521221,19.526905,19.533928,19.540226,19.546516,19.553345,19.558784,19.56319,19.565556,19.565231,19.564209,19.56207,19.559158,19.55659,19.552849,19.548613,19.545303,19.542194,19.539902,19.539207,19.539204,19.539839,19.541023,19.542156,19.543701,19.544544,19.544239,19.543442,19.541718,19.539452,19.536886,19.531773,19.52549,19.520067,19.513363,19.507664,19.504286,19.502287,19.50204,19.50253,19.502724,19.502972,19.50287,19.501793,19.499657,19.497572,19.496529,19.495583,19.494541,19.493324,19.491272,19.487888,19.48416,19.479744,19.476097,19.475475,19.47928,19.480232,19.465614,19.437408,19.367565,19.250935,19.127262,18.971128,18.78304,18.613281,18.434212,18.234865,18.06388,17.913841,17.731377,17.555134,17.408735,17.227283,17.039335,16.886719,16.732979,16.589806,16.484287,16.386692,16.285847,16.201147,16.126722,16.034088,15.938398,15.853682,15.744901,15.626179,15.526102,15.412908,15.287119,15.176594,15.065008,14.924024,14.782441,14.651085,14.483505,14.316515,14.181145,14.028977,13.889293,13.7902565,13.69528,13.609156,13.5465975,13.491594,13.429836,13.372217,13.320303,13.254981,13.189393,13.135931,13.07462,13.012884,12.963324,12.909922,12.847041,12.787307,12.727509,12.653214,12.583199,12.524874,12.460469,12.406105,12.368604,12.330631,12.297625,12.273787,12.24916,12.222296,12.198832,12.177167,12.1519985,12.129683,12.112157,12.09248,12.075076,12.062489,12.048843,12.03524,12.024244,12.012948,12.000463,11.990083,11.981571,11.973518,11.968178,11.964895,11.961869,11.959562,11.957787
18.565536,18.57352,18.580921,18.58711,18.594986,18.60381,18.611534,18.620316,18.629915,18.638016,18.645706,18.65477,18.663597,18.671875,18.68319,18.69491,18.704292,18.715126,18.725178,18.732254,18.739006,18.74593,18.75203,18.757969,18.765774,18.773481,18.779736,18.788452,18.798279,18.806915,18.818655,18.83309,18.846472,18.86176,18.879807,18.895985,18.911049,18.927715,18.941574,18.952194,18.963654,18.973125,18.979628,18.98621,18.991367,18.99426,18.996204,18.997496,18.998802,19.00119,19.005304,19.010391,19.015182,19.02169,19.029373,19.036583,19.048042,19.064846,19.082571,19.104202,19.131647,19.157446,19.18075,19.2091,19.234516,19.253384,19.271217,19.282017,19.285809,19.286968,19.284468,19.280159,19.274334,19.264704,19.252674,19.239248,19.22031,19.201141,19.1862,19.171146,19.15889,19.1506,19.143032,19.136593,19.13216,19.128613,19.125767,19.124329,19.123768,19.123392,19.12333,19.123442,19.123503,19.12333,19.122902,19.121979,19.12114,19.120966,19.121193,19.122492,19.124641,19.126802,19.130177,19.134424,19.13847,19.144005,19.150475,19.156067,19.162056,19.168615,19.174305,19.179825,19.186436,19.192583,19.19778,19.203756,19.20922,19.213387,19.216324,19.218388,19.220121,19.221806,19.223984,19.226067,19.227516,19.229227,19.230848,19.232098,19.234085,19.236202,19.237732,19.239958,19.242994,19.246128,19.250261,19.255623,19.260717,19.265392,19.270687,19.275408,19.279247,19.283157,19.28695,19.29041,19.294533,19.298653,19.301598,19.30418,19.306728,19.308817,19.310589,19.313374,19.316683,19.319597,19.323685,19.32891,19.333961,19.340088,19.347088,19.353144,19.359251,19.3659,19.37114,19.375237,19.377216,19.376522,19.37521,19.372787,19.369701,19.367077,19.36333,19.359123,19.355835,19.352749,19.350437,19.34965,19.349514,19.349918,19.350792,19.35162,19.352777,19.35323,19.352627,19.351498,19.349327,19.34657,19.343422,19.337555,19.330496,19.32436,19.316736,19.310064,19.305851,19.302824,19.301596,19.301432,19.301094,19.301064,19.301039,19.300236,19.29889,19.298042,19.29832,19.299274,19.300138,19.300247,19.299355,19.296827,19.29374,19.2902,19.2888,19.291973,19.300339,19.311176,19.311573,19.298977,19.259823,19.180592,19.086205,18.96379,18.813278,18.675106,18.523983,18.344917,18.179825,18.027218,17.83739,17.651794,17.497387,17.306957,17.109596,16.947931,16.771498,16.607141,16.493519,16.390854,16.289005,16.206553,16.13485,16.045948,15.953618,15.871065,15.7641945,15.646353,15.546211,15.432367,15.304885,15.192165,15.077982,14.933703,14.789024,14.654915,14.484369,14.314985,14.177961,14.024112,13.8831005,13.783245,13.687508,13.600892,13.538202,13.483196,13.421699,13.364575,13.31324,13.248707,13.184099,13.131628,13.071608,13.01131,12.962942,12.910856,12.849214,12.790228,12.73089,12.656708,12.586314,12.527384,12.461882,12.40611,12.367357,12.328003,12.2938,12.269283,12.244337,12.217554,12.194422,12.17313,12.148396,12.126369,12.108945,12.08934,12.071936,12.059296,12.045496,12.031552,12.020101,12.008139,11.994742,11.98355,11.974409,11.965881,11.960475,11.957408,11.954906,11.953353,11.952251
18.373611,18.381607,18.389042,18.395256,18.403215,18.41219,18.420086,18.429102,18.439045,18.44752,18.45563,18.46524,18.474579,18.483252,18.494907,18.506863,18.516422,18.5275,18.537865,18.545248,18.55239,18.559706,18.566067,18.572184,18.580181,18.588154,18.594795,18.60407,18.614548,18.623756,18.636082,18.650948,18.664513,18.679768,18.697397,18.712788,18.726707,18.741577,18.753319,18.761858,18.770626,18.77747,18.782024,18.786816,18.79089,18.79353,18.7956,18.797653,18.80001,18.803295,18.808765,18.815416,18.821648,18.829985,18.839357,18.847672,18.859718,18.876644,18.894241,18.91537,18.942028,18.966908,18.989107,19.015785,19.03919,19.056013,19.072296,19.081709,19.083933,19.083218,19.07887,19.073353,19.066849,19.056229,19.043333,19.029839,19.011368,18.993279,18.979673,18.965939,18.954721,18.947079,18.940037,18.933914,18.929596,18.926071,18.923195,18.9217,18.92107,18.92066,18.920582,18.920654,18.920605,18.920197,18.919483,18.918163,18.916767,18.916035,18.915668,18.916283,18.917862,18.919579,18.922554,18.926554,18.930468,18.935875,18.942223,18.947704,18.953533,18.959894,18.96542,18.970808,18.977295,18.983364,18.988514,18.994446,18.999823,19.003857,19.006718,19.00872,19.010391,19.011992,19.014088,19.016136,19.01759,19.019379,19.021181,19.022657,19.024967,19.027431,19.029243,19.031738,19.034988,19.038244,19.042488,19.047926,19.053051,19.05775,19.062984,19.06759,19.071346,19.075325,19.07933,19.083008,19.087494,19.092123,19.095577,19.098759,19.102055,19.104855,19.10734,19.11054,19.114033,19.117258,19.12196,19.127941,19.13359,19.14038,19.148163,19.154888,19.161484,19.168205,19.173126,19.176912,19.178577,19.177645,19.176147,19.173588,19.17046,19.167877,19.164242,19.16019,19.157043,19.154095,19.151897,19.15113,19.150944,19.151184,19.151772,19.152294,19.153038,19.153046,19.152084,19.150543,19.147827,19.144476,19.14066,19.13396,19.126106,19.11925,19.110746,19.103157,19.09813,19.094044,19.091715,19.090734,19.089611,19.088882,19.088465,19.087482,19.08635,19.086193,19.08734,19.089882,19.092823,19.094788,19.096111,19.095963,19.094833,19.09322,19.094387,19.100492,19.111523,19.129147,19.140587,19.139605,19.122099,19.074545,19.011963,18.923828,18.811821,18.708405,18.595161,18.452663,18.310402,18.17207,17.987728,17.793373,17.621838,17.417637,17.210941,17.042435,16.854757,16.67043,16.535711,16.419228,16.307434,16.2203,16.145985,16.055916,15.964127,15.882578,15.777475,15.661694,15.563049,15.450481,15.323289,15.209724,15.094021,14.947253,14.799755,14.662834,14.489044,14.316843,14.177769,14.021765,13.878931,13.777845,13.6808815,13.593278,13.530064,13.474703,13.413149,13.356318,13.30541,13.241423,13.177423,13.125521,13.066145,13.00656,12.958855,12.907643,12.847154,12.78928,12.731029,12.658004,12.588414,12.529934,12.46447,12.408222,12.368849,12.328743,12.293911,12.269167,12.244428,12.218357,12.196136,12.175744,12.1520195,12.130727,12.113688,12.09437,12.076975,12.064146,12.049872,12.035023,12.02251,12.00918,11.994068,11.981402,11.9711075,11.961594,11.95577,11.952711,11.950524,11.949562,11.949024
18.207846,18.215809,18.223253,18.229507,18.237564,18.246683,18.254715,18.263903,18.27409,18.282825,18.29124,18.301262,18.310986,18.31998,18.331902,18.344027,18.35373,18.364998,18.375626,18.383297,18.390827,18.398563,18.40522,18.411545,18.419735,18.42794,18.434902,18.444614,18.45557,18.465195,18.477934,18.493046,18.506624,18.52171,18.538841,18.553463,18.56634,18.579683,18.589718,18.596611,18.603273,18.608139,18.61131,18.614925,18.61853,18.62138,18.624027,18.627235,18.630821,18.635077,18.6417,18.64946,18.656647,18.666094,18.676434,18.6854,18.697931,18.714916,18.732197,18.752722,18.778471,18.802374,18.823507,18.848652,18.870378,18.885754,18.900055,18.907581,18.908585,18.906387,18.90079,18.89463,18.887842,18.87632,18.862598,18.849548,18.832563,18.816206,18.80362,18.790882,18.780376,18.773111,18.766294,18.760204,18.755795,18.752132,18.749077,18.747435,18.74669,18.746208,18.746101,18.746151,18.746033,18.745474,18.744576,18.742985,18.741184,18.740011,18.739166,18.739176,18.740202,18.741467,18.743961,18.747568,18.751211,18.756304,18.762346,18.767578,18.77312,18.779171,18.784445,18.789593,18.79583,18.8017,18.806692,18.812447,18.817657,18.821556,18.824306,18.826206,18.82777,18.829247,18.831184,18.8331,18.834457,18.836224,18.8381,18.839714,18.84225,18.845,18.847054,18.84977,18.853188,18.856544,18.86085,18.866325,18.871462,18.876152,18.881336,18.885818,18.889378,18.893047,18.896698,18.900108,18.904257,18.909018,18.913113,18.917074,18.92147,18.925407,18.929064,18.933155,18.937061,18.940582,18.945475,18.95137,18.956795,18.964,18.972897,18.980825,18.988342,18.995504,19.000374,19.004168,19.005775,19.004757,19.00322,19.000671,18.997631,18.995167,18.991709,18.98788,18.984928,18.982183,18.98019,18.979544,18.97939,18.979584,18.980007,18.980305,18.980738,18.980373,18.979095,18.977192,18.973988,18.970123,18.96575,18.958399,18.94995,18.942553,18.933426,18.925173,18.919521,18.914581,18.911308,18.90958,18.907684,18.90616,18.90516,18.903763,18.902431,18.902462,18.90398,18.907505,18.912066,18.91573,18.919373,18.922012,18.9233,18.924036,18.927773,18.935776,18.947052,18.967518,18.986103,18.99471,18.988935,18.960745,18.92279,18.864067,18.7837,18.70673,18.625618,18.521523,18.412363,18.303164,18.138433,17.943047,17.757523,17.53938,17.32011,17.14229,16.956306,16.763336,16.606878,16.47364,16.345268,16.24609,16.163082,16.065548,15.9697895,15.886641,15.781532,15.667694,15.5714245,15.461693,15.336973,15.224526,15.109175,14.961779,14.812738,14.673843,14.497496,14.322794,14.181761,14.023582,13.878738,13.776186,13.6776905,13.588706,13.524601,13.46854,13.406561,13.349708,13.298956,13.23515,13.171269,13.119406,13.0598955,13.000108,12.95232,12.901224,12.841349,12.784489,12.727503,12.656205,12.588251,12.531069,12.466695,12.410976,12.371744,12.331672,12.296896,12.272392,12.248278,12.223309,12.202286,12.183036,12.160565,12.140181,12.123644,12.1046715,12.087225,12.074066,12.059089,12.042997,12.029091,12.014055,11.996862,11.982435,11.970753,11.959986,11.953497,11.950231,11.94806,11.947367,11.947127
18.053944,18.061842,18.069262,18.075512,18.083597,18.092773,18.100855,18.110104,18.120403,18.12929,18.137903,18.148228,18.15826,18.167507,18.179634,18.191883,18.201696,18.213123,18.223995,18.231949,18.239899,18.248089,18.25507,18.261658,18.270077,18.27849,18.28571,18.295753,18.307037,18.316929,18.329868,18.345009,18.35844,18.373194,18.389675,18.403458,18.41531,18.427248,18.435822,18.441387,18.446392,18.44976,18.451946,18.45476,18.458158,18.461365,18.464706,18.469114,18.473911,18.479073,18.486664,18.495249,18.503105,18.513302,18.524319,18.53379,18.54705,18.564331,18.58127,18.60128,18.626215,18.649189,18.669315,18.693008,18.71318,18.72723,18.739952,18.745943,18.745785,18.742764,18.735928,18.728146,18.719374,18.707323,18.69474,18.68274,18.667215,18.652254,18.640652,18.628796,18.618832,18.611801,18.605062,18.598867,18.594292,18.590418,18.587112,18.585264,18.584362,18.58376,18.583584,18.583584,18.58339,18.582714,18.58168,18.579899,18.5778,18.576284,18.575039,18.57455,18.5751,18.575935,18.577942,18.581116,18.584427,18.589119,18.59474,18.599625,18.60477,18.610382,18.615288,18.6201,18.625965,18.631523,18.63628,18.641785,18.646801,18.650555,18.653196,18.654995,18.656448,18.657784,18.659529,18.661268,18.66249,18.664154,18.666027,18.667713,18.670403,18.673365,18.675606,18.678514,18.682081,18.685501,18.689821,18.69528,18.70038,18.70503,18.710148,18.71452,18.717945,18.721432,18.724903,18.728176,18.732227,18.736992,18.7412,18.745365,18.750103,18.754444,18.758469,18.76371,18.769144,18.773829,18.78003,18.786585,18.791843,18.798943,18.807621,18.815403,18.823137,18.831308,18.837572,18.84259,18.844723,18.843569,18.841969,18.83935,18.836338,18.834019,18.830769,18.827187,18.824436,18.821907,18.82015,18.819672,18.819626,18.819874,18.820244,18.820415,18.820637,18.819994,18.818466,18.816269,18.812672,18.808401,18.803608,18.795765,18.78686,18.779064,18.769428,18.760597,18.754398,18.748684,18.744547,18.742147,18.739601,18.737476,18.73609,18.734459,18.733063,18.733257,18.735027,18.739178,18.744781,18.749561,18.754753,18.759418,18.762613,18.765343,18.771444,18.781181,18.792452,18.814732,18.838753,18.855011,18.862587,18.85075,18.826736,18.792122,18.742931,18.693436,18.640594,18.568687,18.487324,18.402103,18.260586,18.081345,17.90799,17.677795,17.436903,17.249552,17.05235,16.856613,16.702787,16.556995,16.405947,16.285215,16.187859,16.07677,15.972311,15.8845825,15.777081,15.664335,15.570779,15.464993,15.344721,15.235362,15.1222725,14.976166,14.8269615,14.687088,14.50907,14.332369,14.189578,14.029284,13.882303,13.778086,13.677807,13.587093,13.521761,13.464676,13.401909,13.344713,13.293854,13.229904,13.165765,13.113564,13.053374,12.99272,12.94427,12.892643,12.832834,12.776758,12.720998,12.651674,12.585857,12.530531,12.467978,12.413509,12.374945,12.335428,12.301126,12.277104,12.253798,12.23007,12.2103405,12.192316,12.171171,12.15173,12.135712,12.117046,12.099445,12.0858345,12.069989,12.052464,12.037001,12.020088,12.000655,11.984359,11.971192,11.959066,11.951787,11.9481735,11.945812,11.945133,11.944967
17.876036,17.883884,17.891281,17.897518,17.90562,17.914816,17.922888,17.932117,17.942429,17.95139,17.960154,17.970745,17.98108,17.990604,18.002943,18.01532,18.02523,18.036821,18.047981,18.056286,18.064766,18.073576,18.081024,18.087997,18.096748,18.105412,18.1129,18.12322,18.134716,18.144733,18.157696,18.172596,18.185604,18.199741,18.215214,18.227839,18.238424,18.248789,18.255901,18.260267,18.263865,18.266094,18.267637,18.27003,18.273636,18.27755,18.28201,18.288044,18.294327,18.300598,18.30917,18.318378,18.32668,18.337267,18.348627,18.358429,18.372341,18.390087,18.406921,18.42622,18.450008,18.471785,18.49067,18.512596,18.530926,18.54346,18.554394,18.558838,18.557657,18.552551,18.543356,18.534042,18.524174,18.512352,18.501158,18.490517,18.476828,18.46355,18.453106,18.442225,18.432793,18.425945,18.41917,18.412731,18.407864,18.403706,18.400055,18.397923,18.396803,18.396019,18.395752,18.395702,18.39545,18.394701,18.393585,18.391684,18.38937,18.387573,18.38598,18.385021,18.385086,18.385464,18.386917,18.389536,18.392376,18.396488,18.401463,18.405785,18.41032,18.415272,18.419615,18.423908,18.429193,18.43428,18.438684,18.443836,18.44859,18.452183,18.45472,18.45642,18.457762,18.458946,18.460468,18.46199,18.46302,18.464512,18.466328,18.46804,18.470858,18.47402,18.476456,18.479548,18.483238,18.486687,18.490965,18.496326,18.501324,18.505857,18.510845,18.515087,18.518368,18.52166,18.524935,18.528076,18.532001,18.536716,18.540981,18.545315,18.550373,18.555117,18.55952,18.565582,18.572006,18.57742,18.584362,18.591671,18.597626,18.60542,18.614613,18.622587,18.630169,18.638401,18.645023,18.650356,18.65321,18.65303,18.65229,18.650908,18.648796,18.646656,18.643593,18.640179,18.637611,18.63533,18.633907,18.63374,18.633926,18.63438,18.634827,18.634972,18.635063,18.634212,18.632496,18.630058,18.626133,18.621538,18.616434,18.608246,18.599026,18.590939,18.58091,18.571571,18.56485,18.558361,18.553335,18.550243,18.547077,18.544422,18.542728,18.540928,18.539513,18.539814,18.541664,18.546139,18.552376,18.557894,18.564228,18.570644,18.575706,18.58054,18.589088,18.600857,18.613947,18.635784,18.66137,18.684875,18.704927,18.709896,18.701786,18.685843,18.66216,18.639433,18.615017,18.578041,18.530281,18.477463,18.373564,18.224598,18.070858,17.85045,17.603325,17.402355,17.191135,16.98441,16.824224,16.667154,16.499506,16.359043,16.237667,16.101303,15.979353,15.882224,15.768359,15.655121,15.564522,15.464007,15.3505945,15.246662,15.138042,14.995285,14.847157,14.707039,14.527834,14.349116,14.204254,14.041268,13.891333,13.7846985,13.681805,13.588462,13.521178,13.462477,13.398417,13.340595,13.289464,13.225225,13.160608,13.107745,13.046307,12.983991,12.934134,12.881163,12.820761,12.765243,12.710783,12.643953,12.581121,12.528524,12.468861,12.416594,12.379334,12.340937,12.307497,12.284181,12.261864,12.239565,12.221298,12.20466,12.184978,12.16653,12.151019,12.132576,12.11462,12.100329,12.083287,12.063885,12.046432,12.027155,12.004927,11.986294,11.971258,11.957378,11.948996,11.944803,11.94197,11.941007,11.940655
17.706856,17.714714,17.72213,17.728378,17.7365,17.745676,17.753685,17.762814,17.773043,17.782003,17.790848,17.801638,17.812223,17.821993,17.834522,17.847006,17.856995,17.868721,17.880144,17.888796,17.897821,17.907299,17.91529,17.92273,17.931889,17.940823,17.948566,17.959076,17.970617,17.980598,17.993378,18.007793,18.02016,18.033459,18.047718,18.059072,18.06837,18.077297,18.083282,18.086872,18.089699,18.091496,18.092957,18.095503,18.099762,18.104622,18.110409,18.11818,18.125927,18.13327,18.142601,18.152065,18.160425,18.170877,18.182068,18.191866,18.20588,18.223879,18.240887,18.259846,18.282618,18.303047,18.320658,18.34079,18.357296,18.368382,18.377758,18.380585,18.377869,18.370232,18.358818,18.348701,18.338825,18.327732,18.317696,18.308367,18.29648,18.284864,18.275537,18.265556,18.25657,18.249838,18.24297,18.236225,18.231033,18.226576,18.222569,18.220127,18.21878,18.217806,18.21744,18.217346,18.21709,18.216362,18.215248,18.213367,18.21101,18.209095,18.207342,18.206108,18.205837,18.205887,18.206894,18.209,18.211365,18.214867,18.219128,18.222824,18.2267,18.230932,18.23467,18.238407,18.243074,18.247658,18.251688,18.256489,18.26101,18.264477,18.266964,18.268642,18.269928,18.271013,18.272367,18.273712,18.274574,18.275923,18.27768,18.279396,18.282299,18.285618,18.288208,18.291428,18.295189,18.298628,18.302803,18.308002,18.312834,18.317194,18.321997,18.326075,18.329208,18.332314,18.335403,18.338406,18.342178,18.346825,18.35113,18.35561,18.36096,18.366066,18.370838,18.377253,18.38391,18.389477,18.396473,18.404165,18.410894,18.419357,18.429157,18.437485,18.44507,18.453156,18.459568,18.46447,18.467724,18.468643,18.468868,18.468819,18.467867,18.466316,18.463879,18.461143,18.459156,18.457344,18.456387,18.456562,18.457005,18.457727,18.458357,18.458586,18.458664,18.457726,18.45593,18.453365,18.449265,18.444508,18.439285,18.431005,18.421724,18.413578,18.40343,18.39386,18.386831,18.379826,18.374166,18.370567,18.366964,18.363937,18.362015,18.3601,18.35867,18.35898,18.36075,18.365196,18.371525,18.377201,18.383923,18.391205,18.39737,18.403584,18.413687,18.426865,18.442066,18.463112,18.487556,18.513191,18.540146,18.55782,18.563515,18.56001,18.551273,18.54469,18.539154,18.528282,18.508825,18.485237,18.420792,18.30952,18.183311,17.996357,17.76809,17.564663,17.345436,17.123222,16.948362,16.781738,16.602999,16.44841,16.308483,16.147043,16.00289,15.892008,15.76739,15.650243,15.560623,15.463932,15.356834,15.258546,15.154957,15.016415,14.870226,14.730663,14.551079,14.370853,14.224123,14.058458,13.905285,13.79583,13.68984,13.593267,13.52353,13.462826,13.39715,13.338535,13.287077,13.222613,13.157635,13.104155,13.041499,12.977446,12.926002,12.871388,12.809977,12.754652,12.701197,12.636632,12.576723,12.526899,12.470287,12.420403,12.384535,12.347256,12.314514,12.291626,12.269878,12.248442,12.231117,12.215401,12.196668,12.178823,12.163584,12.145159,12.126789,12.111866,12.093775,12.072762,12.05361,12.032323,12.007698,11.987038,11.970375,11.954926,11.945485,11.94066,11.937212,11.935713,11.934909
17.566776,17.57469,17.582169,17.588448,17.5966,17.605747,17.613682,17.622686,17.632809,17.641745,17.650642,17.661587,17.672375,17.682331,17.695017,17.70759,17.71764,17.729458,17.741081,17.750025,17.759521,17.769588,17.778078,17.785969,17.795532,17.80474,17.812727,17.82338,17.834898,17.844784,17.857307,17.87119,17.882908,17.895374,17.90849,17.918709,17.9269,17.934673,17.939865,17.943043,17.945566,17.94738,17.949093,17.952091,17.957146,17.962929,17.969925,17.979189,17.988153,17.996353,18.006199,18.015686,18.023891,18.033916,18.044651,18.054234,18.067808,18.08564,18.102875,18.122196,18.144444,18.163551,18.18004,18.198608,18.21354,18.223402,18.231716,18.232765,18.227566,18.218369,18.206148,18.195782,18.18581,18.17522,18.166183,18.157955,18.147552,18.137306,18.128923,18.119682,18.111048,18.104412,18.097454,18.09045,18.084995,18.080282,18.075966,18.073256,18.07172,18.070576,18.070116,18.069992,18.069767,18.069117,18.068073,18.066303,18.064034,18.06213,18.060364,18.059042,18.058617,18.058506,18.059237,18.06097,18.062973,18.065975,18.069653,18.072838,18.076176,18.079823,18.08307,18.08636,18.090542,18.094727,18.098454,18.102995,18.107368,18.110775,18.11327,18.11499,18.116283,18.117332,18.118599,18.119839,18.120615,18.121906,18.123653,18.125376,18.128353,18.131798,18.134483,18.137793,18.141586,18.144995,18.14906,18.154083,18.158737,18.162922,18.167526,18.171425,18.174416,18.177351,18.180271,18.18314,18.186764,18.191322,18.195654,18.200207,18.205763,18.21113,18.216152,18.222847,18.22974,18.235483,18.242603,18.250244,18.256786,18.264841,18.274233,18.282509,18.29068,18.299725,18.306797,18.311699,18.314842,18.315662,18.315865,18.31569,18.315208,18.314777,18.313614,18.312363,18.311546,18.310493,18.310051,18.31046,18.31104,18.311964,18.312782,18.313126,18.31324,18.31229,18.310476,18.307856,18.303669,18.298851,18.293613,18.285385,18.2762,18.26815,18.258091,18.248524,18.241413,18.23418,18.22818,18.224281,18.220413,18.217098,18.21496,18.212917,18.21142,18.211685,18.21334,18.217644,18.223824,18.229366,18.236,18.243399,18.249853,18.256523,18.267105,18.280619,18.296022,18.31838,18.342812,18.364517,18.393272,18.418398,18.432137,18.44064,18.442345,18.441242,18.44379,18.446417,18.443672,18.437126,18.400776,18.324844,18.23333,18.083908,17.885117,17.697432,17.478039,17.244904,17.05943,16.883455,16.69017,16.522701,16.380617,16.205704,16.041613,15.915958,15.778919,15.655323,15.564212,15.468555,15.365082,15.270683,15.170874,15.035795,14.891491,14.752773,14.573321,14.392186,14.244098,14.076264,13.920229,13.80814,13.699192,13.5994625,13.527298,13.4646435,13.397383,13.338011,13.286287,13.22178,13.156742,13.102978,13.039633,12.974447,12.921869,12.865992,12.803707,12.748404,12.69559,12.632624,12.574865,12.527135,12.472847,12.424729,12.389801,12.3531475,12.320566,12.297597,12.275785,12.25442,12.23732,12.221871,12.203409,12.185703,12.17049,12.15196,12.133293,12.118,12.099321,12.077395,12.05725,12.034771,12.008676,11.986736,11.969049,11.952587,11.942411,11.937096,11.933118,11.931059,11.929724
17.4056,17.413647,17.421253,17.427624,17.435844,17.444977,17.452827,17.461693,17.471703,17.480629,17.48959,17.500713,17.511734,17.5219,17.534744,17.547401,17.557514,17.569412,17.581253,17.590527,17.600534,17.611269,17.620358,17.62881,17.638916,17.648506,17.6568,17.667633,17.679111,17.688854,17.70103,17.714243,17.725151,17.736599,17.74834,17.757235,17.764183,17.77072,17.775166,17.778032,17.780468,17.782557,17.784718,17.788374,17.7944,17.801205,17.809528,17.820374,17.830566,17.839622,17.849922,17.859285,17.867144,17.87653,17.886658,17.895945,17.909172,17.926662,17.943611,17.962563,17.984402,18.003036,18.018827,18.03603,18.04921,18.057508,18.063265,18.061672,18.05478,18.044315,18.031298,18.020565,18.010506,18.000496,17.992565,17.985544,17.976776,17.968033,17.960669,17.952244,17.944016,17.937489,17.930481,17.923252,17.917538,17.912573,17.907936,17.904934,17.903168,17.901806,17.90121,17.901035,17.900833,17.900282,17.899366,17.897778,17.895699,17.89393,17.89228,17.891006,17.890545,17.890377,17.890923,17.89233,17.893974,17.896463,17.899502,17.902111,17.904842,17.907833,17.910519,17.913307,17.916927,17.920654,17.924057,17.928322,17.932573,17.935963,17.938519,17.940329,17.941673,17.942745,17.943981,17.945156,17.945883,17.94714,17.948896,17.950653,17.953709,17.957249,17.960009,17.963375,17.967163,17.970505,17.974403,17.979183,17.983593,17.987541,17.991905,17.99561,17.998434,18.001162,18.00388,18.006584,18.010017,18.014439,18.018736,18.023325,18.029026,18.034592,18.039791,18.046682,18.05371,18.059534,18.066673,18.074219,18.080591,18.088314,18.097214,18.105053,18.112907,18.121616,18.128666,18.134071,18.138199,18.14013,18.141178,18.141293,18.140896,18.140766,18.14006,18.13932,18.13898,18.138653,18.139492,18.141403,18.143515,18.145058,18.145714,18.146048,18.146156,18.145206,18.143408,18.140774,18.136578,18.13181,18.126692,18.118692,18.10978,18.10199,18.09221,18.082832,18.07579,18.06848,18.062263,18.05814,18.054056,18.05049,18.048132,18.04595,18.044352,18.04449,18.04592,18.04987,18.05553,18.060528,18.066517,18.073315,18.079414,18.0859,18.096249,18.109455,18.12448,18.14675,18.171257,18.192854,18.22057,18.247032,18.265486,18.282452,18.294395,18.300583,18.306793,18.31349,18.318653,18.325161,18.313732,18.273243,18.219282,18.119251,17.970951,17.820461,17.629208,17.400375,17.199919,17.008102,16.799988,16.622238,16.467976,16.285053,16.11179,15.9691925,15.814293,15.678294,15.582808,15.485266,15.3830185,15.291054,15.193926,15.061476,14.918701,14.780799,14.601589,14.41968,14.27026,14.1001,13.940741,13.825429,13.712801,13.60904,13.533705,13.46849,13.399045,13.338522,13.286322,13.221705,13.156727,13.102835,13.039104,12.973141,12.919666,12.86269,12.799599,12.744278,12.692031,12.630599,12.574978,12.529348,12.477419,12.431021,12.396864,12.36049,12.327505,12.303871,12.281291,12.259186,12.241643,12.22591,12.207159,12.189215,12.173836,12.155077,12.136148,12.120617,12.101608,12.079147,12.058364,12.035077,12.007933,11.985039,11.966568,11.9492855,11.938452,11.932653,11.928059,11.925258,11.923197
17.236164,17.24451,17.25241,17.258999,17.267445,17.276703,17.28456,17.293392,17.303373,17.312328,17.321362,17.332657,17.343866,17.35418,17.367115,17.379807,17.389942,17.401888,17.413918,17.423492,17.433964,17.44534,17.45502,17.464031,17.474684,17.484653,17.493233,17.504204,17.515585,17.525127,17.536898,17.549387,17.559475,17.569904,17.580341,17.58804,17.59391,17.599447,17.60338,17.606125,17.60868,17.61118,17.613827,17.618126,17.625004,17.632677,17.642132,17.654318,17.66557,17.67537,17.686066,17.695305,17.70283,17.711628,17.721228,17.730297,17.743338,17.760544,17.777103,17.795494,17.816738,17.834745,17.84962,17.865292,17.876568,17.883057,17.886211,17.88234,17.874329,17.862896,17.849209,17.838154,17.82804,17.818592,17.811693,17.805763,17.798477,17.791107,17.784683,17.777039,17.769253,17.762913,17.755985,17.748713,17.742895,17.737823,17.732994,17.729767,17.727806,17.726217,17.72546,17.725208,17.725004,17.724575,17.723843,17.722507,17.720741,17.71923,17.717823,17.716753,17.716393,17.716286,17.716787,17.717983,17.719345,17.721378,17.723806,17.725847,17.727974,17.730286,17.732386,17.734632,17.73764,17.740864,17.7439,17.74786,17.751987,17.755398,17.75807,17.760048,17.761507,17.762684,17.763966,17.765148,17.765903,17.767204,17.769022,17.770859,17.774006,17.777626,17.780441,17.783829,17.78756,17.790771,17.79446,17.79894,17.803066,17.806751,17.81086,17.814365,17.817036,17.819588,17.822119,17.824657,17.827888,17.832134,17.836348,17.840897,17.846619,17.85223,17.857468,17.86434,17.871294,17.877033,17.884012,17.891323,17.897446,17.904793,17.913109,17.920311,17.927471,17.93537,17.942034,17.947742,17.95262,17.955559,17.957518,17.958658,17.959257,17.959854,17.959476,17.958836,17.958652,17.958782,17.960535,17.96354,17.966621,17.969265,17.97078,17.971607,17.971779,17.970705,17.968933,17.966345,17.962273,17.957691,17.952847,17.945286,17.936867,17.929523,17.920269,17.911327,17.904556,17.897429,17.891241,17.88705,17.882898,17.87917,17.876606,17.874271,17.872482,17.872334,17.873367,17.876638,17.88134,17.885359,17.890144,17.895668,17.900782,17.90646,17.91583,17.927982,17.94189,17.962816,17.986546,18.008373,18.034512,18.059742,18.079048,18.098019,18.114109,18.124474,18.132072,18.13818,18.14289,18.149586,18.150534,18.137083,18.114569,18.0619,17.970398,17.868532,17.725622,17.529076,17.3364,17.140203,16.920116,16.731228,16.56945,16.381914,16.20626,16.060589,15.895668,15.746075,15.640299,15.535118,15.427422,15.3320265,15.231871,15.096493,14.951614,14.812288,14.631789,14.448735,14.29817,14.126064,13.963802,13.845486,13.729222,13.62129,13.5425415,13.474474,13.40238,13.340225,13.287174,13.222116,13.157123,13.1032715,13.039669,12.973749,12.920143,12.862853,12.799551,12.744384,12.692602,12.632282,12.57818,12.534051,12.483791,12.438448,12.404514,12.367765,12.333638,12.308676,12.284563,12.260862,12.242178,12.225566,12.205955,12.187425,12.171719,12.1526785,12.133604,12.118032,12.09902,12.0764675,12.055475,12.031866,12.00419,11.980723,11.961737,11.943815,11.932344,11.926001,11.920671,11.916983,11.91408
17.08966,17.098396,17.106697,17.113585,17.122374,17.131893,17.139874,17.148808,17.158867,17.167881,17.176989,17.188393,17.1997,17.21006,17.222998,17.235657,17.245777,17.25773,17.269882,17.279678,17.290482,17.302332,17.312462,17.321884,17.332932,17.343166,17.351929,17.36295,17.374195,17.38354,17.394949,17.40686,17.41632,17.425987,17.435522,17.442453,17.447655,17.452633,17.456331,17.459068,17.461761,17.46454,17.467472,17.472103,17.479431,17.487587,17.497683,17.51069,17.522636,17.532944,17.543978,17.553246,17.560642,17.569178,17.578566,17.587627,17.600689,17.617876,17.634308,17.65246,17.672937,17.689781,17.703388,17.717396,17.726917,17.731773,17.733421,17.728394,17.719563,17.707403,17.69323,17.681995,17.671877,17.662857,17.656702,17.65153,17.64526,17.638842,17.633083,17.626015,17.618612,17.612513,17.60578,17.598646,17.59291,17.58791,17.58306,17.579723,17.577648,17.575882,17.574966,17.57463,17.574398,17.574068,17.57351,17.572433,17.570988,17.56976,17.5686,17.567768,17.567564,17.567568,17.568108,17.569202,17.570377,17.572088,17.574047,17.575634,17.57726,17.578995,17.58059,17.582355,17.5848,17.587551,17.590237,17.593884,17.597885,17.601322,17.604115,17.606285,17.607895,17.609196,17.610579,17.611816,17.612648,17.614044,17.61596,17.617886,17.621124,17.624813,17.627663,17.631046,17.634686,17.637745,17.64123,17.645432,17.649298,17.652767,17.656658,17.660007,17.662579,17.665035,17.667458,17.669874,17.672955,17.677055,17.68117,17.685625,17.691261,17.696793,17.701942,17.708626,17.715351,17.720898,17.727612,17.734612,17.740463,17.74744,17.755257,17.761974,17.768673,17.776133,17.782501,17.78802,17.79278,17.795887,17.798227,17.800627,17.802958,17.804855,17.805176,17.80499,17.805176,17.80558,17.807362,17.810131,17.812746,17.816269,17.819311,17.820969,17.821428,17.820362,17.81871,17.816223,17.812325,17.807999,17.803488,17.79644,17.788574,17.781717,17.773052,17.764639,17.758234,17.75143,17.745436,17.74131,17.737213,17.733414,17.730696,17.728226,17.726198,17.725664,17.72623,17.728687,17.73229,17.735249,17.738762,17.742931,17.746979,17.75174,17.759975,17.77089,17.783485,17.802673,17.824701,17.845058,17.87085,17.896027,17.914526,17.93153,17.945923,17.95602,17.964733,17.970669,17.972088,17.970633,17.97136,17.969925,17.963749,17.940243,17.889439,17.82653,17.728344,17.579334,17.420555,17.241108,17.020855,16.824053,16.664438,16.473896,16.297668,16.1618,15.999264,15.842653,15.726313,15.610831,15.492356,15.3881855,15.279774,15.135656,14.984228,14.840601,14.656668,14.471813,14.320306,14.1469555,13.982933,13.86263,13.743717,13.632527,13.550972,13.4804325,13.405807,13.34186,13.287724,13.22188,13.156687,13.1029625,13.03989,12.974779,12.9218445,12.865168,12.802434,12.74771,12.69636,12.636665,12.58326,12.539798,12.490242,12.445135,12.410904,12.3733425,12.33779,12.311335,12.285534,12.260071,12.240092,12.222468,12.201905,12.182783,12.166786,12.147563,12.128497,12.113039,12.094212,12.071827,12.050888,12.027267,11.999424,11.975666,11.956371,11.937971,11.925924,11.919035,11.913003,11.908514,11.904896
