2.7971866,2.7980936,2.7990246,2.7999926,2.801103,2.8018765,2.80229,2.8026843,2.803102,2.803484,2.8038352,2.8042536,2.8049102,2.8057728,2.8066304,2.807306,2.80776,2.808132,2.8086734,2.8093781,2.8101916,2.8108938,2.8114257,2.8117838,2.812056,2.8123584,2.8127522,2.8133197,2.8140576,2.815044,2.8162801,2.8174055,2.8182127,2.8186767,2.8188987,2.8191679,2.8197565,2.8206987,2.8218954,2.8232093,2.8246915,2.8265426,2.8289318,2.8317971,2.834804,2.8375378,2.8395379,2.8413534,2.8425465,2.842873,2.8421326,2.8406467,2.8390732,2.8380272,2.8374257,2.836976,2.8365486,2.8362625,2.8364143,2.83712,2.8383203,2.839953,2.8414607,2.842411,2.8428414,2.8425012,2.8417366,2.8402088,2.8384721,2.8367193,2.835435,2.8347254,2.834309,2.8341858,2.8344367,2.8349493,2.8356042,2.8363652,2.8369753,2.8373585,2.837385,2.8372407,2.8370705,2.837008,2.8370843,2.8372722,2.8375826,2.8379765,2.8384326,2.8388917,2.8392732,2.83959,2.8398657,2.8401113,2.8403902,2.8407187,2.8411527,2.8415556,2.8418608,2.8419936,2.8420696,2.8421588,2.8423116,2.8426085,2.8430777,2.8435616,2.8439653,2.8442864,2.8446226,2.8450854,2.8456979,2.8464322,2.8472106,2.848041,2.8489742,2.8500495,2.8512049,2.8523672,2.8534594,2.8545494,2.8556685,2.8568182,2.8579822,2.8590875,2.8600407,2.8607883,2.86126,2.8615506,2.8618033,2.8621335,2.8625715,2.8631015,2.8637187,2.8644753,2.8653603,2.8663015,2.8671994,2.8679852,2.868661,2.869256,2.8697748,2.8702128,2.8706126,2.871025,2.8714614,2.8719196,2.8723416,2.8727045,2.8730268,2.8733158,2.8735986,2.8739119,2.87431,2.8747706,2.8752167,2.875536,2.8756323,2.8755136,2.875327,2.8751686,2.8750477,2.874898,2.8746524,2.8742924,2.8738513,2.8733788,2.8729255,2.872531,2.8721957,2.8718963,2.8715973,2.8712773,2.8709407,2.8706965,2.8706017,2.8706465,2.8707438,2.8707962,2.8707952,2.8707867,2.8707986,2.8707707,2.8705845,2.8701682,2.8695917,2.868992,2.868536,2.8682685,2.8681335,2.8680348,2.867881,2.867691,2.8674874,2.8673239,2.8672295,2.8671784,2.867093,2.866895,2.8665442,2.8661208,2.8657527,2.8655324,2.8654637,2.865449,2.8654003,2.865275,2.8651433,2.8650875,2.8651698,2.8654246,2.8657885,2.8661556,2.866437,2.8665466,2.866476,2.8662572,2.8659697,2.8657236,2.86557,2.865499,2.8654075,2.865273,2.865087,2.864872,2.8646889,2.8645682,2.8645544,2.8646746,2.8649154,2.8652165,2.8655376,2.8658454,2.8660972,2.8662992,2.8664312,2.8665075,2.8665895,2.8667412,2.8670154,2.8674238,2.8679364,2.868525,2.8692007,2.8699112,2.870616,2.8712373,2.8717394,2.8721104,2.872387,2.872621,2.8728676,2.8731892,2.8735926,2.8740864,2.87457,2.875019,2.8753347,2.875453,2.8752894,2.874758,2.8739853,2.8732347,2.8728619,2.872994,2.87346,2.874055,2.8746812,2.8753533,2.8759613,2.8763409,2.8763494,2.8760471,2.8755126,2.8748252,2.8742394,2.873889,2.8739543,2.874207,2.8745785,2.8748581,2.8749757,2.8747954,2.8741431,2.8732076,2.8722892,2.8718228,2.8719387,2.872545,2.8732681,2.873676,2.8733363,2.8721921,2.870835,2.8695343,2.8678846,2.8654628,2.862116,2.858117,2.8543527,2.8512688,2.8488703,2.8468137,2.844832,2.843039,2.8416967,2.8407326
2.782802,2.783749,2.784698,2.7856731,2.7867844,2.7875805,2.7880201,2.7884033,2.7887657,2.7890596,2.7893116,2.789629,2.790199,2.7909842,2.7917871,2.79243,2.7928262,2.7931552,2.7935908,2.7941518,2.794806,2.7953663,2.7957983,2.7961612,2.796567,2.7971244,2.797844,2.798738,2.799796,2.8010697,2.8025322,2.8037243,2.8044524,2.804708,2.8046992,2.8047938,2.8052523,2.8061993,2.8074744,2.8088772,2.8103957,2.8121963,2.814509,2.817311,2.8201966,2.8226745,2.8243716,2.8258328,2.826467,2.826281,2.8251204,2.8234553,2.8221302,2.8212523,2.820852,2.8207493,2.8207932,2.821083,2.8217642,2.8229032,2.8246288,2.8265283,2.82788,2.8282301,2.8277347,2.8263535,2.8247743,2.8229656,2.8210952,2.8196256,2.8187988,2.8186264,2.8187547,2.819106,2.8196578,2.8202786,2.8209329,2.8216496,2.8222075,2.8224874,2.8223443,2.8219907,2.8216834,2.821605,2.821791,2.8221483,2.82264,2.8231888,2.8237407,2.82424,2.824627,2.8249507,2.825234,2.8254652,2.8256798,2.825911,2.826243,2.8266025,2.8269413,2.8271713,2.8273687,2.8275845,2.8278613,2.8282735,2.8288393,2.8293922,2.829856,2.8302321,2.8306189,2.8310912,2.8316524,2.8322916,2.8329828,2.8337655,2.834711,2.8358407,2.837071,2.8383055,2.8394217,2.8404675,2.841459,2.8424394,2.843434,2.844393,2.8452234,2.8458557,2.846216,2.8464103,2.846589,2.84687,2.8472815,2.8478017,2.8484197,2.8491697,2.8500333,2.850935,2.8517904,2.8525343,2.8531601,2.8536785,2.8540888,2.8544025,2.8546839,2.855001,2.8553667,2.8557723,2.8561616,2.8565252,2.8568592,2.8571386,2.8573751,2.8576171,2.857952,2.8583672,2.858764,2.8590035,2.8589802,2.8587213,2.8584003,2.8581371,2.8579535,2.857782,2.857552,2.8572223,2.8568082,2.8563445,2.8558881,2.8555002,2.8551943,2.8549356,2.8546734,2.8543751,2.8540483,2.8538113,2.8537264,2.853786,2.8538942,2.853942,2.8539145,2.8538492,2.853775,2.853639,2.853344,2.8528204,2.8521504,2.85147,2.8509374,2.8506136,2.8504422,2.8503308,2.8501854,2.850021,2.8498483,2.8497179,2.8496573,2.8496351,2.8495736,2.849401,2.8490791,2.8486862,2.84834,2.848112,2.848003,2.847914,2.847787,2.847612,2.847463,2.8474214,2.8475215,2.8477814,2.8481357,2.848483,2.848752,2.848868,2.8488245,2.8486567,2.8484225,2.8482232,2.8480968,2.8480384,2.8479533,2.8478255,2.847649,2.847441,2.8472674,2.847161,2.8471704,2.8473198,2.847602,2.8479552,2.8483324,2.8486786,2.848936,2.8491156,2.8492126,2.8492532,2.849299,2.8494048,2.849626,2.8499875,2.8504639,2.8510337,2.8516986,2.8524134,2.8531399,2.8537836,2.8542945,2.8546562,2.8549156,2.8551602,2.855451,2.855847,2.8563337,2.8568928,2.8574204,2.8578882,2.8581958,2.8582811,2.858088,2.8575344,2.8567648,2.8560326,2.8556747,2.8558204,2.856303,2.856926,2.8575788,2.8582706,2.8589306,2.8594494,2.8597312,2.859774,2.8595614,2.8590589,2.8584452,2.857904,2.8576298,2.8575246,2.8575888,2.857705,2.8578324,2.8578372,2.8575318,2.8569856,2.8564272,2.8561368,2.8562183,2.8566527,2.8572454,2.857706,2.8577147,2.8572478,2.8566918,2.856235,2.85533,2.8534496,2.8503637,2.8463583,2.8423045,2.8387756,2.8359518,2.8335721,2.8312678,2.8290606,2.8271632,2.825562
2.7691045,2.7700868,2.771038,2.7719958,2.7730742,2.7738314,2.7742047,2.7744672,2.7746735,2.7747993,2.7748866,2.7750463,2.7754955,2.7761912,2.776957,2.7775927,2.7779648,2.7782576,2.7786202,2.77908,2.779614,2.7800536,2.7803962,2.780768,2.7813034,2.7820854,2.7830815,2.784223,2.7854798,2.7868943,2.7884145,2.7895744,2.7902079,2.790342,2.7902503,2.7903357,2.7908068,2.7918167,2.7931511,2.7945638,2.7960646,2.7978468,2.8002043,2.8031032,2.805959,2.8081963,2.8094978,2.810061,2.8098507,2.8090782,2.807807,2.8065948,2.8055248,2.804832,2.8046846,2.8049588,2.8055656,2.8065348,2.807842,2.809476,2.8114688,2.8131146,2.8139036,2.8134646,2.8120885,2.8100157,2.8081808,2.8063207,2.8047523,2.803666,2.8032606,2.8035088,2.804039,2.8047206,2.8054595,2.806111,2.806706,2.8073373,2.8078172,2.8079882,2.8076928,2.8071733,2.8067827,2.806737,2.807053,2.80758,2.8082442,2.80896,2.8096557,2.8102717,2.8107595,2.8111787,2.8115458,2.8118231,2.812004,2.8121254,2.8123097,2.8125534,2.8128371,2.8130734,2.8133016,2.813551,2.8138719,2.8143396,2.8149552,2.815547,2.816043,2.8164504,2.8168597,2.8173144,2.8178024,2.818326,2.8189092,2.8196168,2.8205228,2.821631,2.8228347,2.8240316,2.8250813,2.8260164,2.8268588,2.8276834,2.8285513,2.8294218,2.8301997,2.8307981,2.8311415,2.8313344,2.831521,2.83181,2.8322186,2.8327265,2.8333192,2.834023,2.8348122,2.8356242,2.8363886,2.8370533,2.837607,2.838048,2.838369,2.8385813,2.838757,2.8389928,2.8393145,2.8397126,2.8401263,2.8405418,2.8409286,2.8412447,2.8414779,2.8416872,2.8419788,2.8423543,2.8426967,2.8428452,2.8426828,2.8422465,2.841739,2.841309,2.8409994,2.8407583,2.8405232,2.8402395,2.8398976,2.8395107,2.8391361,2.838838,2.8386292,2.8384614,2.838266,2.8380036,2.8376763,2.8374114,2.8372703,2.8372574,2.8372881,2.837255,2.837134,2.8369608,2.836766,2.836512,2.8361135,2.835513,2.8347883,2.8340693,2.8335056,2.8331559,2.8329694,2.8328562,2.8327231,2.8325777,2.8324285,2.8323221,2.8322866,2.8322937,2.8322701,2.83215,2.8318968,2.8315768,2.8312926,2.8310938,2.830978,2.8308644,2.830719,2.8305585,2.83046,2.830481,2.830633,2.8309126,2.831252,2.8315635,2.8317914,2.8318768,2.831822,2.8316607,2.831439,2.8312445,2.8311143,2.8310452,2.8309593,2.8308408,2.83068,2.8304873,2.8303237,2.8302221,2.830226,2.8303642,2.8306365,2.8309886,2.8313727,2.831716,2.8319528,2.8320985,2.8321686,2.8321953,2.8322384,2.8323412,2.8325615,2.832932,2.8334255,2.8340144,2.8346953,2.835432,2.836194,2.8368812,2.837431,2.8378127,2.83808,2.8383384,2.838657,2.8390856,2.8395958,2.8401477,2.8406425,2.8410501,2.8412912,2.8413258,2.8411145,2.8405833,2.8398662,2.839189,2.8388522,2.8389747,2.8394117,2.839986,2.8405855,2.8412166,2.841836,2.8423839,2.8428092,2.843069,2.8430731,2.8426971,2.8420615,2.8413796,2.840856,2.840486,2.8403416,2.8403716,2.8405669,2.8408074,2.8408923,2.8407857,2.8406255,2.840548,2.840643,2.840901,2.84127,2.841606,2.841731,2.8416967,2.841773,2.842098,2.8421717,2.841384,2.8393211,2.8360937,2.8324368,2.8289757,2.8259664,2.8232214,2.820386,2.817492,2.8147879,2.8123183
2.755588,2.7566054,2.7575588,2.7585053,2.75956,2.760271,2.760553,2.7606697,2.7607088,2.7606733,2.7606077,2.7606173,2.7609308,2.7615123,2.7622106,2.7628174,2.7631633,2.763431,2.7637649,2.7641804,2.7646556,2.7650383,2.7653646,2.765808,2.7664971,2.767456,2.7686129,2.7698271,2.7710629,2.7723856,2.7737455,2.7747664,2.775324,2.7754965,2.775541,2.775814,2.776416,2.7774706,2.7787585,2.7800455,2.781447,2.7832155,2.7856884,2.7887864,2.7917256,2.7939043,2.794632,2.7942507,2.7931528,2.7919269,2.790822,2.7897983,2.7890224,2.7886815,2.7888768,2.7895584,2.7907386,2.7924156,2.7943945,2.7964723,2.7984805,2.7995372,2.7994385,2.7980523,2.7958517,2.793439,2.7914639,2.7898521,2.7887082,2.788122,2.788168,2.7887187,2.7894678,2.7903209,2.7911477,2.79178,2.7922993,2.7928424,2.7932534,2.7933464,2.7929595,2.7923503,2.7919378,2.7919507,2.7923775,2.793023,2.7937946,2.7946222,2.7954307,2.7961593,2.7967618,2.7973006,2.7977855,2.7981548,2.7983623,2.7984276,2.7984972,2.7986193,2.7988157,2.7990017,2.7991934,2.7994032,2.799693,2.8001423,2.8007398,2.8013134,2.8017948,2.802197,2.8026047,2.8030365,2.8034608,2.8038917,2.8043833,2.805014,2.805856,2.806893,2.8080096,2.809105,2.8100488,2.8108742,2.8116095,2.8123493,2.813169,2.8140287,2.8148272,2.8154635,2.815861,2.8161209,2.8163738,2.8167086,2.8171368,2.8176346,2.8181927,2.8188338,2.819524,2.8202195,2.8208666,2.8214386,2.8219259,2.8223124,2.8225827,2.8227377,2.8228426,2.8230162,2.8233025,2.823692,2.8241265,2.8245769,2.8249903,2.8253145,2.8255293,2.8256927,2.8259306,2.826253,2.8265386,2.82661,2.826338,2.8257651,2.8251095,2.8245387,2.8241186,2.823813,2.8235698,2.8233294,2.8230667,2.8227792,2.8225145,2.8223348,2.8222418,2.8221707,2.822044,2.8218079,2.8214679,2.8211422,2.8208995,2.8207655,2.8206744,2.8205342,2.8203197,2.8200567,2.819773,2.8194427,2.818993,2.8183703,2.8176417,2.816926,2.8163595,2.8159971,2.8157964,2.8156729,2.8155417,2.815405,2.8152652,2.8151677,2.815145,2.8151698,2.8151803,2.8151116,2.8149266,2.8146763,2.814444,2.8142624,2.814133,2.8140044,2.8138726,2.8137703,2.8137627,2.8138776,2.8140965,2.814404,2.814733,2.815011,2.8152013,2.815258,2.8151839,2.8150125,2.814775,2.8145518,2.8143833,2.8142827,2.8141809,2.8140597,2.813908,2.8137255,2.8135645,2.8134532,2.8134263,2.813517,2.81374,2.8140497,2.8143978,2.8147066,2.8149054,2.815013,2.8150606,2.815086,2.8151388,2.81526,2.8155084,2.8159206,2.8164673,2.817104,2.8178225,2.8185923,2.819395,2.820132,2.8207319,2.8211534,2.8214445,2.821719,2.8220453,2.8224692,2.8229578,2.8234584,2.8238783,2.824197,2.8243566,2.8243532,2.8241675,2.823733,2.8231518,2.8226013,2.8223248,2.8224277,2.8227887,2.8232632,2.82375,2.824254,2.82475,2.8252163,2.8256478,2.825985,2.8260999,2.8258088,2.8251896,2.8244622,2.8238235,2.8233237,2.8230786,2.8230762,2.8233294,2.8237467,2.8241415,2.8244114,2.8246067,2.8247387,2.824876,2.8249888,2.82513,2.825277,2.8253899,2.8255773,2.8260531,2.8269439,2.8279195,2.8283863,2.8277209,2.8257797,2.8230937,2.8202398,2.8174565,2.8145857,2.8113441,2.80785,2.8044114,2.8011477
2.7419214,2.742961,2.743919,2.7448726,2.7459342,2.7466273,2.7468467,2.74686,2.7467985,2.7466893,2.7465582,2.7464852,2.7466805,2.7471268,2.747703,2.7482157,2.7485013,2.7487206,2.7490325,2.749435,2.7499104,2.7503269,2.7507544,2.7513695,2.7522643,2.7533565,2.754544,2.755624,2.7565863,2.7575603,2.7585325,2.7593179,2.7598295,2.7602172,2.760621,2.7612553,2.7620668,2.7631125,2.7642386,2.765293,2.7665327,2.7682555,2.7708101,2.7740297,2.777134,2.7791905,2.7794197,2.7783558,2.7766666,2.7751207,2.773988,2.773158,2.7728171,2.7729535,2.773572,2.774654,2.776313,2.7785478,2.7810822,2.7834573,2.7852058,2.7854474,2.7843037,2.781959,2.7791266,2.7764878,2.7745376,2.7733302,2.7727182,2.7726507,2.7730474,2.7737641,2.7745738,2.7754283,2.776249,2.776834,2.7772913,2.7777724,2.778151,2.7782254,2.7778292,2.7772212,2.7768435,2.7769256,2.7774265,2.7781324,2.7789388,2.7798054,2.7806654,2.781465,2.7821555,2.7828016,2.7834127,2.783916,2.784228,2.7843304,2.7843757,2.7844348,2.7845664,2.784702,2.7848463,2.7849975,2.7852216,2.7856038,2.7861261,2.7866278,2.7870445,2.787404,2.787786,2.7881932,2.7885785,2.7889519,2.7893782,2.7899418,2.7907062,2.7916489,2.7926486,2.7936192,2.794458,2.7952037,2.7958956,2.7966266,2.7974644,2.7983599,2.7992067,2.7999034,2.8003764,2.8007216,2.8010502,2.801435,2.8018808,2.802366,2.8028884,2.803463,2.8040557,2.8046343,2.8051646,2.8056502,2.806086,2.8064532,2.806714,2.8068595,2.8069515,2.8071012,2.80736,2.8077283,2.8081546,2.8085895,2.808968,2.8092341,2.8093703,2.8094435,2.809594,2.809841,2.8100688,2.8100944,2.8097773,2.809149,2.8084292,2.8077931,2.8073149,2.8069735,2.8067236,2.8065085,2.8063037,2.806098,2.8059335,2.8058546,2.805851,2.8058455,2.8057609,2.8055344,2.8051696,2.8047743,2.8044193,2.8041594,2.8039536,2.8037353,2.803473,2.803182,2.8028784,2.8025424,2.8021035,2.8015141,2.8008273,2.8001466,2.7995954,2.7992225,2.7990053,2.7988734,2.7987413,2.7986097,2.7984712,2.7983737,2.798351,2.7983832,2.798412,2.7983718,2.7982259,2.7980123,2.79779,2.7975874,2.797411,2.7972498,2.7971306,2.7970896,2.7971706,2.7973635,2.7976277,2.7979417,2.7982492,2.7984982,2.7986662,2.7987156,2.798644,2.798471,2.7982183,2.7979596,2.79775,2.7976155,2.7974887,2.797353,2.7971907,2.796998,2.796822,2.7966814,2.796605,2.796628,2.7967794,2.7970228,2.7973185,2.7975836,2.7977467,2.7978315,2.7978735,2.7979047,2.7979703,2.7981112,2.7983909,2.7988539,2.7994628,2.80016,2.8009233,2.8017318,2.8025703,2.8033488,2.8039951,2.8044572,2.8047771,2.80506,2.8053744,2.8057666,2.8062108,2.806651,2.8069992,2.8072422,2.8073406,2.807333,2.8072152,2.806942,2.8065643,2.8062096,2.8060484,2.8061676,2.8064675,2.8068419,2.8072047,2.8075633,2.8078995,2.8082213,2.8085656,2.8088715,2.8090134,2.808771,2.808197,2.8074913,2.8068347,2.8062954,2.8060184,2.8059952,2.8062565,2.8067546,2.807336,2.807884,2.8083735,2.8086994,2.8088737,2.808864,2.808805,2.8087707,2.8088193,2.809069,2.80972,2.810954,2.8125103,2.8139853,2.8145869,2.814057,2.8126466,2.8107991,2.8086562,2.8060696,2.8028207,2.79912,2.7953448,2.791665
2.7282722,2.7292895,2.7302308,2.7311897,2.7322721,2.7329707,2.7331693,2.733152,2.733098,2.7330418,2.7329595,2.7328885,2.7329922,2.7332907,2.7337189,2.7341115,2.7343264,2.734487,2.7347522,2.7351193,2.735591,2.7360656,2.7366476,2.7374759,2.7385817,2.7397728,2.7409105,2.7417703,2.7423918,2.7429667,2.7435431,2.744122,2.7446241,2.7452574,2.746031,2.7469878,2.7479634,2.7489793,2.7499907,2.7509623,2.7521982,2.7539449,2.756448,2.7595234,2.7624116,2.7641096,2.7639246,2.762412,2.7603292,2.7586467,2.7575033,2.7569466,2.7571445,2.7579103,2.759107,2.7606406,2.7626421,2.7651186,2.767858,2.770166,2.771315,2.7706733,2.7686107,2.7656374,2.7624912,2.7598028,2.7580583,2.7572746,2.757134,2.7574239,2.7580147,2.7587342,2.7594657,2.760203,2.7609217,2.7614493,2.7618814,2.762362,2.7627668,2.7628906,2.7625587,2.7620196,2.7617106,2.7618551,2.7623944,2.7631202,2.7639256,2.7647927,2.765672,2.7665203,2.7672925,2.7680514,2.7688105,2.7694812,2.7699552,2.7701685,2.7702618,2.7703166,2.770424,2.7705405,2.7706747,2.7708068,2.7710028,2.77134,2.7717981,2.7722335,2.772591,2.7729082,2.773262,2.7736506,2.7740135,2.7743545,2.7747338,2.775233,2.7759075,2.776737,2.7776086,2.7784564,2.7792082,2.7799091,2.7806005,2.7813544,2.782218,2.7831311,2.7839897,2.7847033,2.7852046,2.7855837,2.785935,2.786315,2.7867296,2.7871652,2.7876315,2.788136,2.7886443,2.7891269,2.7895656,2.7899842,2.7903788,2.7907364,2.7910035,2.791168,2.7912893,2.7914512,2.791699,2.7920465,2.792444,2.7928233,2.793117,2.7932713,2.7932925,2.7932546,2.7933095,2.793485,2.7936707,2.7936866,2.7933784,2.7927566,2.7920256,2.79136,2.7908428,2.7904644,2.790188,2.7899656,2.7897813,2.7896285,2.7895355,2.7895265,2.7895734,2.7895956,2.7895265,2.7893033,2.7889214,2.7884774,2.7880447,2.7876997,2.7874255,2.7871735,2.7869065,2.7866247,2.786333,2.7860122,2.7855973,2.7850502,2.7844148,2.7837787,2.7832522,2.782882,2.7826602,2.7825298,2.7824078,2.782287,2.782155,2.782059,2.782041,2.7820854,2.7821312,2.7821105,2.7819855,2.781786,2.7815554,2.7813225,2.781098,2.7809043,2.780789,2.7807813,2.7809105,2.7811284,2.781387,2.7816687,2.781929,2.7821436,2.7823005,2.7823668,2.7823281,2.7821865,2.7819536,2.7816992,2.781485,2.7813377,2.7811923,2.781023,2.7808208,2.780588,2.7803745,2.780194,2.7800696,2.7800379,2.780133,2.7803245,2.7805796,2.7808194,2.7809749,2.781069,2.7811282,2.7811685,2.7812304,2.781364,2.7816415,2.7821207,2.7827644,2.7835011,2.784302,2.7851386,2.785996,2.7867904,2.7874556,2.7879355,2.7882657,2.788537,2.788814,2.7891483,2.789534,2.7899194,2.790218,2.7904162,2.7904863,2.7904973,2.7904673,2.7903678,2.7902136,2.7900734,2.7900503,2.7902079,2.7904696,2.790762,2.7910204,2.7912545,2.7914476,2.7916303,2.7918653,2.792107,2.792244,2.7920458,2.7915468,2.7909122,2.790294,2.7897596,2.7894745,2.789421,2.7896352,2.7901049,2.7907228,2.791398,2.7920609,2.79253,2.7927442,2.7926767,2.7925067,2.792373,2.7923863,2.7926261,2.793272,2.7945142,2.7962258,2.798136,2.7995174,2.8000543,2.7998037,2.7990541,2.7978263,2.7959561,2.793261,2.789983,2.7865262,2.7830763
2.714419,2.7153723,2.716269,2.7172194,2.7183132,2.7190237,2.719232,2.7192538,2.719299,2.7193995,2.7194521,2.71944,2.719473,2.719629,2.7199311,2.7202463,2.7204473,2.7205994,2.7208192,2.7211237,2.721549,2.7220457,2.7227488,2.7237568,2.7250223,2.726273,2.727339,2.7280178,2.7284038,2.7287273,2.7290878,2.7295609,2.7300775,2.7308478,2.7318134,2.7328954,2.7339087,2.7349253,2.7360036,2.7372067,2.7387223,2.740603,2.742908,2.7455301,2.7476313,2.748577,2.7479162,2.7461262,2.744083,2.7423615,2.7413168,2.7410614,2.7418392,2.7433457,2.7452774,2.7473245,2.7495184,2.751924,2.7544148,2.7561135,2.7563906,2.7549644,2.7523255,2.7492096,2.746089,2.743629,2.742207,2.741768,2.741932,2.7423968,2.74301,2.7435982,2.7441382,2.7446601,2.7452116,2.7456813,2.7461326,2.7466774,2.747167,2.747397,2.747188,2.7467666,2.7465444,2.74674,2.7472973,2.7480197,2.7488093,2.7496548,2.7505283,2.7514052,2.7522516,2.7531261,2.7540367,2.7548757,2.7555184,2.7558627,2.7560263,2.7561014,2.756203,2.7563272,2.7564878,2.7566586,2.7568824,2.757225,2.7576685,2.7580814,2.7584229,2.7587304,2.7590742,2.7594585,2.7598228,2.760159,2.760511,2.760953,2.7615376,2.7622545,2.7630115,2.7637556,2.7644475,2.7651339,2.7658434,2.766621,2.7674818,2.768365,2.769173,2.7698379,2.7703075,2.7706609,2.7709706,2.771286,2.7716136,2.7719593,2.772344,2.7727823,2.773223,2.7736406,2.7740202,2.7743826,2.7747285,2.7750597,2.7753344,2.7755337,2.7756987,2.7758949,2.7761567,2.7764976,2.7768612,2.7771678,2.7773528,2.7773833,2.7772956,2.777173,2.777169,2.777307,2.7774858,2.777533,2.7772746,2.7766972,2.775978,2.7752934,2.774739,2.7743163,2.773994,2.7737389,2.7735517,2.773431,2.773387,2.7734165,2.7734818,2.7735026,2.7734373,2.7732215,2.772847,2.7723956,2.7719388,2.7715664,2.771277,2.7710295,2.7707775,2.7705078,2.770218,2.7698917,2.7694817,2.7689586,2.7683625,2.7677722,2.7672806,2.7669272,2.766717,2.7666004,2.7664962,2.7663846,2.766254,2.7661574,2.766149,2.7662134,2.7662864,2.7662883,2.7661808,2.7659905,2.7657537,2.7655015,2.7652524,2.7650418,2.7649262,2.7649267,2.7650547,2.7652466,2.7654557,2.7656727,2.7658706,2.7660465,2.766197,2.766294,2.7663083,2.7662249,2.7660487,2.7658427,2.765669,2.7655396,2.765379,2.7651608,2.764892,2.7645955,2.7643344,2.764123,2.7639732,2.7639203,2.7639937,2.7641635,2.7644,2.7646322,2.7648046,2.7649343,2.7650247,2.7650762,2.7651157,2.7652063,2.7654371,2.7658842,2.7665124,2.7672467,2.7680573,2.7688994,2.7697453,2.7705188,2.771166,2.771634,2.7719505,2.772189,2.772407,2.772666,2.772981,2.7733152,2.7735877,2.773776,2.773852,2.7739058,2.7739725,2.7740397,2.7740884,2.7741466,2.774254,2.774457,2.7746954,2.7749202,2.775093,2.7752318,2.7753239,2.7754083,2.7755647,2.7757585,2.7758992,2.7757683,2.775385,2.7748613,2.7743201,2.7738242,2.7735484,2.7734666,2.773596,2.7739449,2.7744606,2.7751045,2.7758012,2.7763324,2.7765856,2.7765298,2.7763658,2.7762485,2.7762911,2.7765317,2.7770844,2.778092,2.7795453,2.78132,2.7828593,2.7838926,2.7844043,2.7845674,2.7843297,2.7834544,2.781773,2.7795143,2.7770257,2.7744615
2.7000356,2.7009215,2.701771,2.702702,2.7037883,2.7045043,2.7047443,2.7048576,2.7050707,2.7053928,2.705622,2.7056751,2.7056317,2.7056503,2.7058694,2.7061744,2.7064395,2.706654,2.706871,2.707138,2.707519,2.7079983,2.7087226,2.709762,2.711017,2.712206,2.7131472,2.7137165,2.7140512,2.714396,2.7148557,2.715447,2.7160645,2.7168503,2.7177668,2.7187147,2.7196,2.7206035,2.7218595,2.723484,2.725437,2.7275896,2.7297468,2.7316372,2.7326744,2.7326937,2.7315488,2.7297516,2.7279491,2.7264042,2.7255363,2.7255354,2.7267687,2.7289157,2.731548,2.7340822,2.736418,2.7386143,2.7404237,2.7410927,2.7403796,2.7383363,2.7355363,2.7326388,2.7299204,2.7279174,2.7269068,2.7267447,2.7270737,2.7275631,2.7280698,2.728434,2.7287083,2.7289703,2.7293365,2.7297535,2.730258,2.730901,2.7314944,2.7318406,2.7317638,2.7314687,2.7313373,2.7315755,2.7321453,2.7328627,2.7336397,2.7344613,2.7353106,2.7361908,2.737084,2.738038,2.739052,2.7399957,2.7407393,2.7411528,2.7413425,2.7414107,2.7414937,2.741634,2.7418513,2.7421174,2.7424374,2.7428565,2.743361,2.7438316,2.744233,2.7445855,2.7449522,2.745346,2.7457185,2.7460542,2.7463856,2.7467885,2.7472959,2.7479062,2.748549,2.749187,2.7498043,2.7504458,2.7511334,2.7518835,2.7526832,2.7534714,2.7541704,2.7547379,2.7551336,2.755422,2.755651,2.7558656,2.756072,2.7563057,2.7565978,2.7569747,2.7573724,2.7577605,2.7581174,2.7584414,2.758733,2.759007,2.7592573,2.759466,2.759656,2.7598789,2.7601595,2.7605019,2.7608452,2.7610984,2.761208,2.7611613,2.7610283,2.7608972,2.760919,2.761096,2.761331,2.7614589,2.7612848,2.760769,2.760057,2.7593305,2.758704,2.758202,2.7578075,2.7574997,2.7572944,2.7571898,2.757174,2.7572212,2.7572823,2.7572937,2.7572334,2.757048,2.7567177,2.7563074,2.7558842,2.7555404,2.7552805,2.7550604,2.7548182,2.7545364,2.7542114,2.753837,2.75339,2.7528563,2.7522802,2.7517326,2.7512875,2.7509773,2.750804,2.7507207,2.7506413,2.750538,2.7503977,2.7502868,2.7502732,2.7503471,2.7504318,2.7504396,2.7503266,2.750124,2.7498722,2.7496061,2.7493536,2.749147,2.7490337,2.7490296,2.7491333,2.7492833,2.7494373,2.7495916,2.749729,2.7498634,2.7499995,2.7501087,2.750156,2.7501183,2.7499979,2.7498553,2.749743,2.749651,2.7494912,2.749238,2.7489216,2.748588,2.7483134,2.7481086,2.7479765,2.7479506,2.748045,2.7482264,2.7484698,2.748716,2.7489219,2.749099,2.7492208,2.7492719,2.7492685,2.74929,2.7494407,2.7498126,2.7503843,2.7510793,2.7518685,2.7526865,2.7534938,2.7542162,2.7548163,2.7552524,2.7555466,2.7557535,2.7559166,2.7561064,2.7563596,2.75666,2.7569327,2.7571487,2.7572677,2.757383,2.757543,2.7577426,2.7579446,2.758146,2.7583432,2.758566,2.758773,2.758936,2.7590437,2.7591248,2.7591748,2.759235,2.75938,2.7595823,2.7597723,2.759756,2.7595282,2.75915,2.758705,2.7582564,2.7579932,2.757882,2.757917,2.758112,2.7584653,2.7589984,2.7596521,2.7602,2.7605016,2.7605133,2.7604303,2.7604048,2.7605224,2.760793,2.7612505,2.7619553,2.7629752,2.7643101,2.7656121,2.7667017,2.767559,2.7682981,2.7688227,2.7688522,2.7682276,2.7671413,2.7658658,2.764504
2.6848114,2.685666,2.6864905,2.6874082,2.6884868,2.689214,2.6895099,2.689755,2.6901727,2.6907372,2.6911464,2.6912503,2.6911297,2.6910396,2.6912427,2.6916196,2.6920319,2.6923816,2.6926627,2.6929505,2.693311,2.6937363,2.694368,2.6952705,2.6963212,2.6973057,2.6980634,2.6985998,2.699061,2.699699,2.7005649,2.7014813,2.7022867,2.7029862,2.7036564,2.7042885,2.7049437,2.7059264,2.707379,2.7094052,2.711792,2.7142868,2.7162216,2.7173114,2.7173066,2.7164657,2.7150378,2.713498,2.7120776,2.7109513,2.7103848,2.7105994,2.7120776,2.714591,2.7176592,2.7205296,2.7229989,2.7247615,2.7255144,2.7250292,2.7234373,2.7210534,2.7184181,2.7159855,2.7139025,2.7124815,2.7119136,2.7119637,2.71235,2.7127619,2.7130833,2.713183,2.7131753,2.713189,2.7134032,2.713797,2.714374,2.715126,2.7158127,2.7162573,2.7162986,2.7161207,2.716072,2.7163424,2.7169123,2.7176156,2.718369,2.7191415,2.719925,2.7207508,2.7216191,2.7225723,2.7235954,2.7245376,2.7252738,2.7256734,2.7258263,2.7258487,2.725895,2.7260518,2.7263403,2.7267275,2.7271788,2.7277174,2.7283309,2.7289133,2.729438,2.7298827,2.7303016,2.730717,2.7310967,2.7314188,2.731727,2.732112,2.7325635,2.7330818,2.7336166,2.7341425,2.734665,2.7352319,2.735858,2.736537,2.7372398,2.7379017,2.7384686,2.738927,2.7392457,2.739469,2.7396235,2.7397435,2.739842,2.7399745,2.7401843,2.7405083,2.7408876,2.7412844,2.7416518,2.7419584,2.7422032,2.742407,2.7425985,2.7427769,2.7429562,2.74318,2.743456,2.743785,2.7441034,2.7443178,2.7443805,2.7443037,2.744182,2.7441082,2.744214,2.7444806,2.7448082,2.7450414,2.7449694,2.7445304,2.743833,2.7430634,2.742362,2.7417831,2.7413316,2.7409935,2.74079,2.7407076,2.7407181,2.7407732,2.740819,2.7408168,2.740765,2.7406197,2.7403522,2.7400079,2.7396498,2.7393627,2.7391536,2.7389612,2.7387118,2.7383854,2.7379909,2.7375317,2.7370157,2.7364416,2.7358654,2.7353568,2.7349634,2.7347093,2.7345839,2.7345376,2.734479,2.7343726,2.734209,2.7340648,2.734024,2.734085,2.7341638,2.7341595,2.7340212,2.7337856,2.733508,2.733234,2.732997,2.7328138,2.7327156,2.7327127,2.7328055,2.7329383,2.7330694,2.7331924,2.7332938,2.7333918,2.7335007,2.7335925,2.7336335,2.7336044,2.7335129,2.73342,2.7333636,2.7333155,2.733172,2.7329197,2.7326076,2.7322955,2.7320657,2.7319229,2.7318583,2.7318978,2.7320442,2.7322593,2.7325234,2.7327924,2.7330365,2.7332537,2.7333956,2.7334318,2.733376,2.733324,2.7333884,2.7336705,2.7341628,2.734796,2.7355413,2.7363138,2.737062,2.7377157,2.738253,2.738649,2.7389252,2.7391171,2.7392488,2.7393947,2.7396116,2.7399015,2.740199,2.7404723,2.7406607,2.7408514,2.7410967,2.741393,2.7416983,2.7419834,2.742219,2.7424288,2.7425904,2.7426941,2.7427573,2.742819,2.742887,2.7429936,2.7432015,2.743482,2.7437813,2.7439299,2.7438974,2.7436945,2.7433662,2.7429812,2.7427433,2.742619,2.7425766,2.742628,2.7428174,2.7432122,2.743784,2.7443187,2.7446625,2.7447581,2.7447782,2.744853,2.7450495,2.7453485,2.7457008,2.7461104,2.746679,2.7474825,2.74838,2.7492566,2.7501283,2.7510912,2.752039,2.752682,2.7528777,2.7527857,2.7526221,2.7524416
2.66884,2.6697285,2.6705828,2.6715279,2.672632,2.6734018,2.6737754,2.6741533,2.6747532,2.6755166,2.6760747,2.6762176,2.6760502,2.6759205,2.6761765,2.6766768,2.6772509,2.6777377,2.6780915,2.6784256,2.6787934,2.6791782,2.6796954,2.6804066,2.6811972,2.681933,2.6825147,2.6830564,2.6836896,2.68466,2.6859531,2.6872077,2.6882029,2.6888347,2.689294,2.689726,2.6902943,2.691331,2.6928897,2.6950097,2.697526,2.6999502,2.7014914,2.7019348,2.7011762,2.6998725,2.6984642,2.6972094,2.696425,2.6960049,2.6960037,2.6965618,2.6981628,2.7007053,2.7037697,2.7066598,2.7088566,2.7097816,2.7094495,2.7080956,2.7060008,2.7036085,2.701254,2.6993837,2.6979609,2.6970854,2.6968899,2.6970685,2.6974297,2.6977189,2.6978612,2.6977494,2.697524,2.6973553,2.6974723,2.6978762,2.698521,2.6993527,2.7001033,2.700623,2.7007706,2.700705,2.700726,2.7010055,2.7015433,2.7021947,2.7028792,2.703547,2.704194,2.7048793,2.7056222,2.7064605,2.707375,2.7082098,2.7088552,2.7091916,2.7092922,2.709279,2.7093081,2.7094972,2.7098613,2.710361,2.7109244,2.7115602,2.7122674,2.7129362,2.7135274,2.7140198,2.7144632,2.7148905,2.7152874,2.7156448,2.7159827,2.7163548,2.7167559,2.7171986,2.7176409,2.718069,2.718501,2.7189913,2.719552,2.7201629,2.7207813,2.7213385,2.721812,2.7222106,2.7225146,2.722745,2.7229009,2.7230039,2.7230687,2.723165,2.7233407,2.7236395,2.7240176,2.7244315,2.724813,2.7251062,2.7253141,2.7254605,2.7255988,2.725745,2.7259073,2.7261198,2.7263706,2.7266622,2.7269325,2.7270916,2.7271028,2.7269921,2.7268715,2.7268326,2.7269852,2.7272935,2.7276616,2.7279558,2.7279673,2.727624,2.7269912,2.7262444,2.7255387,2.724957,2.7245226,2.724221,2.7240677,2.7240338,2.7240732,2.7241282,2.7241454,2.724111,2.724051,2.7239323,2.7237153,2.7234359,2.7231426,2.722917,2.7227619,2.7225976,2.7223387,2.7219684,2.7215085,2.720973,2.7203956,2.7197819,2.7191963,2.7187111,2.7183542,2.718133,2.7180305,2.7179937,2.7179282,2.717801,2.717602,2.7174177,2.717347,2.7173924,2.7174675,2.7174597,2.7173035,2.7170367,2.7167315,2.7164483,2.7162259,2.7160668,2.7159882,2.7159977,2.7161016,2.7162533,2.716405,2.7165375,2.7166352,2.7167182,2.7168047,2.716867,2.7168698,2.7168083,2.7167022,2.716615,2.7165802,2.7165575,2.7164388,2.7162251,2.7159696,2.7157376,2.7156024,2.71556,2.7155883,2.7157035,2.715897,2.7161343,2.7164035,2.716675,2.7169318,2.7171698,2.717321,2.717357,2.7172842,2.7172046,2.717228,2.7174478,2.7178726,2.718442,2.7191293,2.7198386,2.7205105,2.7210817,2.7215495,2.721906,2.7221756,2.7223744,2.7225065,2.7226439,2.7228498,2.7231474,2.7234824,2.7238212,2.7240882,2.724354,2.7246718,2.7250342,2.725401,2.7257247,2.7259629,2.726142,2.726262,2.7263293,2.7263865,2.7264743,2.7266068,2.726807,2.7271209,2.7275162,2.7279477,2.7282705,2.7284307,2.7284005,2.728198,2.7279015,2.727726,2.7276413,2.7275887,2.727572,2.7276635,2.7279587,2.728452,2.728947,2.7293024,2.7294502,2.729537,2.7296605,2.729869,2.730145,2.73038,2.7305403,2.7307184,2.7310233,2.731467,2.731999,2.732675,2.7335837,2.7346177,2.735492,2.7360969,2.7365842,2.7371655,2.7378783
2.6524794,2.6534514,2.6543822,2.6553998,2.6565666,2.6574097,2.6578698,2.658346,2.6590657,2.6599479,2.6606112,2.660788,2.660629,2.660538,2.6608922,2.6615267,2.6622195,2.6627803,2.6631565,2.663516,2.6639066,2.6642952,2.6647587,2.6653383,2.6659415,2.6664996,2.666984,2.6675522,2.6683116,2.66947,2.670988,2.672432,2.673534,2.6741848,2.6746244,2.6751447,2.6758943,2.6771069,2.678648,2.6805055,2.682565,2.6844354,2.6854913,2.6854916,2.6844954,2.683138,2.6818113,2.680953,2.6809213,2.681407,2.6822371,2.6833334,2.685036,2.687347,2.6900303,2.69242,2.693712,2.6936269,2.6925068,2.6907506,2.6885252,2.6862855,2.6843252,2.6829758,2.6820903,2.681631,2.681687,2.6819196,2.6822524,2.68245,2.6824698,2.6822298,2.6818728,2.6815972,2.6816683,2.6820953,2.682787,2.6836524,2.6844246,2.684991,2.6852345,2.6852753,2.685352,2.6856139,2.6860821,2.686642,2.6872132,2.6877317,2.6881914,2.688673,2.6892147,2.6898563,2.6905785,2.6912417,2.6917627,2.6920342,2.692112,2.6921072,2.6921678,2.6924148,2.6928577,2.6934385,2.694066,2.6947432,2.6954808,2.696176,2.6967835,2.6972933,2.6977448,2.6981788,2.6985915,2.698983,2.6993427,2.699686,2.700034,2.70041,2.7007794,2.7011333,2.7014933,2.701918,2.702424,2.70298,2.703534,2.7040246,2.7044568,2.7048624,2.7052302,2.7055552,2.705808,2.7059903,2.7061136,2.70625,2.7064502,2.706758,2.7071357,2.7075438,2.7079124,2.7081802,2.708353,2.7084563,2.7085626,2.7086954,2.7088556,2.7090611,2.709283,2.7095218,2.709722,2.7098045,2.7097452,2.7095785,2.7094202,2.709356,2.709478,2.7097368,2.7100592,2.710341,2.7104025,2.7101612,2.7096453,2.708998,2.7083712,2.7078662,2.7075207,2.7073143,2.7072518,2.7072816,2.707355,2.7074075,2.7073886,2.7073078,2.7072196,2.7071066,2.7069232,2.7066913,2.7064514,2.706279,2.7061696,2.7060323,2.7057724,2.7053766,2.7048802,2.7043052,2.7036934,2.7030578,2.7024667,2.7019918,2.7016478,2.7014322,2.7013185,2.7012563,2.7011623,2.7010024,2.70077,2.7005525,2.7004585,2.7004998,2.7005877,2.7005954,2.7004397,2.7001576,2.6998339,2.6995473,2.699339,2.699202,2.699142,2.6991713,2.6993048,2.6994982,2.6996946,2.6998572,2.6999705,2.7000542,2.7001302,2.7001636,2.700117,2.6999989,2.6998405,2.699718,2.699667,2.6996489,2.699561,2.6994114,2.6992483,2.6991293,2.699111,2.6991792,2.6992984,2.6994727,2.6996877,2.6999166,2.7001576,2.7003992,2.7006376,2.7008696,2.7010312,2.7010942,2.7010634,2.701024,2.7010708,2.7012784,2.7016582,2.702168,2.702787,2.7034214,2.7040067,2.7044907,2.7048893,2.7052155,2.7054958,2.7057285,2.7058969,2.706058,2.7062774,2.706592,2.706966,2.7073634,2.7077003,2.7080302,2.7084002,2.708805,2.7092032,2.709534,2.709753,2.7098956,2.7099893,2.7100575,2.710152,2.7103028,2.710526,2.7108312,2.7112508,2.711751,2.7122898,2.7127419,2.7130427,2.713145,2.713056,2.712862,2.71279,2.7128024,2.7128205,2.712831,2.7129133,2.7131662,2.713601,2.7140424,2.714373,2.7145314,2.7146225,2.7147164,2.7148447,2.715025,2.715138,2.7151062,2.7149801,2.7148647,2.7148743,2.7150493,2.7154746,2.716198,2.7171068,2.7179205,2.7185664,2.719215,2.720107,2.721305
2.636376,2.6374116,2.6384096,2.6395025,2.6407363,2.6416507,2.6421661,2.6426654,2.643405,2.644301,2.6450105,2.645221,2.645125,2.6451397,2.645629,2.6464021,2.6471844,2.64777,2.648107,2.6484275,2.6487923,2.6491885,2.6496673,2.6502385,2.6508303,2.6514053,2.6520042,2.6527314,2.6536355,2.6548228,2.6562774,2.657621,2.6586328,2.6592937,2.6598382,2.6606574,2.661792,2.663303,2.6648223,2.666296,2.6676145,2.6686525,2.6692114,2.6690474,2.6681516,2.666864,2.6657147,2.665194,2.6657758,2.667071,2.6687746,2.6705189,2.6724052,2.6744957,2.6766121,2.6780114,2.678124,2.6771765,2.675598,2.673678,2.6715589,2.6696396,2.6680987,2.6671512,2.666628,2.666429,2.6666367,2.6669369,2.6672583,2.6673994,2.6673222,2.6669974,2.6665912,2.6662972,2.6663775,2.6668327,2.667542,2.6683965,2.6691563,2.669752,2.6700764,2.6702073,2.6703188,2.6705375,2.6709034,2.671338,2.6717653,2.672114,2.6723795,2.6726599,2.6729994,2.673441,2.6739717,2.6744766,2.6748953,2.6751316,2.675223,2.6752594,2.6753755,2.675682,2.676177,2.6767838,2.677409,2.6780515,2.6787426,2.6794066,2.680004,2.680523,2.6809926,2.6814425,2.6818705,2.6822598,2.6825914,2.682887,2.683182,2.6835098,2.6838408,2.6841636,2.684491,2.6848845,2.6853614,2.6858861,2.6864023,2.686861,2.6872907,2.687743,2.6882114,2.6886683,2.689062,2.6893706,2.6896005,2.6898184,2.6900716,2.6903963,2.6907582,2.6911206,2.6914303,2.6916373,2.6917543,2.6918192,2.6919067,2.6920452,2.6922228,2.69244,2.6926498,2.6928468,2.6929796,2.692984,2.6928482,2.6926107,2.6923819,2.692243,2.6922617,2.6923919,2.6925836,2.6927743,2.6928282,2.6926613,2.692274,2.691763,2.691265,2.6908865,2.690668,2.690587,2.6906347,2.6907473,2.6908736,2.6909409,2.6908977,2.6907718,2.6906404,2.6905153,2.6903434,2.6901367,2.6899266,2.6897812,2.689693,2.6895664,2.6893015,2.68889,2.6883795,2.6877975,2.6871858,2.6865563,2.6859748,2.6855123,2.685175,2.6849523,2.6848137,2.6847134,2.6845841,2.684394,2.684139,2.6839023,2.6837974,2.6838467,2.6839633,2.6840076,2.6838791,2.6836088,2.683291,2.683021,2.6828418,2.6827364,2.682702,2.6827576,2.6829221,2.6831532,2.6833818,2.6835608,2.6836772,2.683755,2.6838193,2.6838295,2.6837456,2.6835828,2.6833816,2.6832275,2.6831582,2.6831393,2.6830807,2.68299,2.6829102,2.6828854,2.6829553,2.6830988,2.68327,2.6834626,2.6836576,2.6838355,2.6840045,2.6841712,2.6843507,2.6845493,2.6847248,2.6848502,2.684926,2.6849995,2.6851356,2.685382,2.6857476,2.6862135,2.6867692,2.6873336,2.6878428,2.68826,2.6886146,2.6889367,2.6892545,2.68955,2.6897826,2.6899881,2.690228,2.690549,2.6909342,2.6913557,2.691728,2.692092,2.6924865,2.6929088,2.6933146,2.6936355,2.6938298,2.693945,2.6940312,2.6941268,2.6942828,2.6945133,2.694826,2.695218,2.6957073,2.6962593,2.696835,2.6973352,2.6976933,2.697867,2.6978679,2.6977866,2.697846,2.6979945,2.6981297,2.698213,2.698322,2.698547,2.698913,2.699273,2.6995392,2.6996636,2.6997156,2.6997328,2.6997375,2.6997857,2.6997738,2.6995997,2.6992643,2.6988482,2.6985292,2.6984308,2.6986575,2.699213,2.6999695,2.7006521,2.7012095,2.701826,2.7027411,2.7040548
2.6210766,2.6221063,2.6231093,2.6242256,2.6254754,2.6264124,2.6269279,2.6273768,2.6280594,2.6289015,2.629622,2.6298847,2.6298952,2.630039,2.630654,2.6315265,2.6323438,2.6329036,2.63314,2.6333451,2.6336195,2.6339977,2.6345263,2.635189,2.6359174,2.6366844,2.6375825,2.6385922,2.639697,2.6408353,2.6420436,2.643105,2.643906,2.6445727,2.6452758,2.6464396,2.6479516,2.6497722,2.6513443,2.6523895,2.6528835,2.653133,2.6532829,2.6531098,2.652413,2.6514392,2.650611,2.6503983,2.651378,2.653215,2.6555886,2.6578736,2.659974,2.6619112,2.6632283,2.6634421,2.6625085,2.6609359,2.6590557,2.6571937,2.6554146,2.6539125,2.652771,2.6521072,2.6517937,2.6517656,2.6520863,2.6524496,2.6527374,2.6528196,2.65269,2.652345,2.6519475,2.6516795,2.6517808,2.6522384,2.6529207,2.6537166,2.6544302,2.6550279,2.655404,2.6556005,2.6557271,2.655897,2.6561604,2.656474,2.6567688,2.656972,2.6570864,2.657213,2.657398,2.6576834,2.6580625,2.6584456,2.658789,2.6589997,2.6591053,2.659175,2.6593347,2.659677,2.6601863,2.660769,2.661338,2.6618943,2.6624866,2.6630704,2.6636152,2.664121,2.6646051,2.665087,2.665544,2.6659415,2.6662526,2.6665044,2.6667576,2.6670628,2.6673927,2.6677241,2.6680517,2.6684372,2.6688962,2.6693964,2.669884,2.6703203,2.67075,2.6712403,2.6717863,2.6723413,2.672841,2.6732492,2.6735702,2.6738615,2.6741645,2.6744976,2.6748307,2.675128,2.6753561,2.6754842,2.6755373,2.6755672,2.675641,2.6757898,2.675992,2.6762342,2.676454,2.6766362,2.6767273,2.6766791,2.6764922,2.6762054,2.675922,2.675714,2.6756287,2.675626,2.675676,2.6757498,2.6757586,2.675621,2.6753223,2.674919,2.6745248,2.6742449,2.674119,2.6741278,2.6742604,2.674448,2.6746368,2.6747384,2.674696,2.6745415,2.6743739,2.6742284,2.674059,2.673867,2.673674,2.6735415,2.673461,2.673337,2.6730726,2.6726608,2.6721609,2.671603,2.671022,2.6704278,2.6698766,2.6694365,2.6691093,2.6688802,2.6687164,2.6685839,2.668429,2.668223,2.6679614,2.6677208,2.6676152,2.6676772,2.6678257,2.6679134,2.6678243,2.6675816,2.6672864,2.6670454,2.6668994,2.666823,2.666808,2.666875,2.6670504,2.6672924,2.667525,2.6676924,2.6677885,2.6678479,2.6679,2.667901,2.6678052,2.6676302,2.6674137,2.6672459,2.6671653,2.6671398,2.6670976,2.6670442,2.6670187,2.6670518,2.6671708,2.6673446,2.6675258,2.6676996,2.667844,2.6679463,2.668018,2.6680832,2.6681767,2.6683264,2.6685205,2.668731,2.66895,2.6691756,2.6694345,2.6697483,2.6701198,2.6705546,2.6710582,2.671565,2.6720228,2.672407,2.6727562,2.673112,2.6734977,2.67388,2.6741943,2.6744528,2.6747084,2.6750143,2.6753767,2.6757784,2.6761446,2.6765084,2.6769037,2.6773233,2.6777234,2.678029,2.6782012,2.6783004,2.6783912,2.6785238,2.6787477,2.6790605,2.6794562,2.6799154,2.6804385,2.6809888,2.681536,2.6820128,2.682363,2.6825624,2.6826315,2.6826568,2.6828458,2.683124,2.6833646,2.6835074,2.6836228,2.683794,2.6840646,2.684318,2.6844945,2.684569,2.6845732,2.6845307,2.684449,2.6844053,2.684318,2.6840804,2.6836512,2.6830895,2.6825962,2.682341,2.6824398,2.6828604,2.6834655,2.6840186,2.6844625,2.68498,2.6857572,2.6869106
2.6065078,2.6074429,2.608355,2.6093903,2.6105573,2.6114345,2.6118977,2.6122763,2.6129115,2.613737,2.614509,2.6148803,2.615013,2.615252,2.6158972,2.6167579,2.617528,2.61802,2.6181529,2.6182373,2.6184113,2.6187553,2.619326,2.6200826,2.6209517,2.6219087,2.6230955,2.6244102,2.6257615,2.6269386,2.6279933,2.628872,2.6295662,2.630281,2.6310816,2.6323557,2.6339943,2.63591,2.6373794,2.6379912,2.6378503,2.637549,2.6373668,2.6371646,2.636858,2.6364975,2.6362896,2.6365633,2.637861,2.639964,2.6425853,2.6450248,2.6471484,2.648642,2.648995,2.648273,2.6467047,2.6447902,2.6428592,2.6412573,2.6399324,2.6388812,2.638103,2.6376429,2.6374528,2.6375313,2.6379178,2.6382937,2.6385756,2.638639,2.6384912,2.6381488,2.6377697,2.6375165,2.637604,2.6380105,2.6386113,2.6393073,2.6399424,2.6405072,2.640903,2.641146,2.6412983,2.6414585,2.6416812,2.6419375,2.6421602,2.642281,2.642303,2.6423283,2.6423998,2.642559,2.642813,2.643095,2.6433678,2.6435347,2.6436172,2.6436768,2.6438391,2.644183,2.6446795,2.6452162,2.6457157,2.646179,2.6466656,2.6471617,2.6476521,2.6481464,2.6486506,2.649169,2.6496613,2.6500785,2.650394,2.6506395,2.6508932,2.6512156,2.6515732,2.6519303,2.6522593,2.652619,2.653029,2.6534698,2.653893,2.6542723,2.6546583,2.6551237,2.655662,2.6562207,2.6567311,2.6571608,2.657515,2.6578422,2.6581774,2.658517,2.6588292,2.659079,2.6592436,2.6593096,2.6593127,2.659309,2.65936,2.6594965,2.659699,2.659953,2.6601903,2.6603832,2.66047,2.660412,2.6602192,2.6599374,2.6596603,2.6594543,2.659352,2.6593165,2.6593237,2.6593518,2.6593404,2.6592116,2.6589491,2.6585894,2.6582303,2.6579733,2.6578577,2.657876,2.6580248,2.6582427,2.6584725,2.6586084,2.6585813,2.6584194,2.6582298,2.65807,2.6579032,2.6577249,2.6575499,2.6574316,2.65736,2.6572475,2.657002,2.6566176,2.6561565,2.655651,2.655126,2.6545892,2.6540854,2.6536782,2.6533673,2.6531403,2.6529684,2.6528273,2.6526754,2.6524835,2.65224,2.6520085,2.6518993,2.651955,2.6521072,2.6522124,2.6521451,2.6519191,2.6516366,2.651409,2.6512768,2.651206,2.6511803,2.6512256,2.6513758,2.6515942,2.651798,2.6519246,2.6519752,2.6519954,2.6520278,2.6520276,2.6519408,2.6517775,2.6515682,2.651399,2.6513052,2.6512618,2.651217,2.6511807,2.6511931,2.65127,2.6514237,2.6516123,2.6517901,2.6519384,2.6520393,2.652083,2.6520815,2.6520677,2.6520944,2.6522095,2.6524305,2.6527288,2.6530824,2.6534462,2.6538115,2.6541817,2.6545513,2.6549559,2.6554098,2.655871,2.6563022,2.6566875,2.6570697,2.657493,2.6579711,2.6584575,2.6588664,2.6591835,2.6594577,2.6597457,2.6600766,2.6604466,2.6607912,2.6611385,2.6615272,2.6619444,2.6623435,2.6626449,2.662806,2.6628947,2.662989,2.6631498,2.6634297,2.6638155,2.6642866,2.6648002,2.6653388,2.6658633,2.6663594,2.6667905,2.66712,2.667335,2.6674607,2.667561,2.6678255,2.6681585,2.6684253,2.668552,2.6686053,2.668673,2.6688218,2.6689644,2.6690598,2.6691046,2.6691031,2.669075,2.669011,2.6689873,2.6689305,2.6687386,2.6683507,2.6678028,2.6673021,2.6670332,2.6671019,2.6674476,2.6679277,2.668356,2.6686661,2.6690273,2.6695542,2.6703644
2.5924892,2.5932586,2.5939922,2.5948424,2.5958266,2.5965629,2.596943,2.5972753,2.5979238,2.5988276,2.5997267,2.6002717,2.6005254,2.6007977,2.6013455,2.6020603,2.6026952,2.603086,2.6031547,2.603169,2.6032915,2.6036232,2.6042333,2.6050487,2.6059754,2.6069922,2.6082964,2.6098177,2.6113935,2.6127524,2.6138802,2.6148202,2.6156278,2.6164608,2.6173012,2.6185012,2.6198745,2.6214495,2.6225727,2.6228557,2.6224098,2.6217432,2.6212869,2.6210942,2.6212697,2.6217232,2.6224248,2.6234462,2.6251175,2.6273112,2.6297827,2.6320338,2.633655,2.6343422,2.633911,2.6326685,2.6308296,2.628852,2.6270962,2.625857,2.625012,2.624391,2.623932,2.6236267,2.6235108,2.6236243,2.6240149,2.624406,2.6246915,2.6247525,2.624604,2.6242692,2.623898,2.6236289,2.6236548,2.6239576,2.624435,2.625001,2.625535,2.6260386,2.626423,2.626694,2.6268883,2.627092,2.6273496,2.627625,2.62785,2.6279507,2.6279268,2.6278863,2.6278648,2.627907,2.6280475,2.6282406,2.6284432,2.628552,2.6285777,2.628591,2.6287227,2.629047,2.6295226,2.6300192,2.6304665,2.6308575,2.6312609,2.631689,2.6321416,2.6326337,2.63316,2.633709,2.6342287,2.6346714,2.635019,2.6353025,2.6356065,2.635985,2.6363893,2.6367774,2.6371026,2.637424,2.6377664,2.638125,2.638462,2.6387575,2.6390593,2.6394382,2.6398878,2.6403565,2.6407895,2.6411643,2.6414917,2.6418169,2.642165,2.6425142,2.642828,2.6430674,2.6432133,2.6432624,2.6432507,2.6432328,2.643259,2.6433675,2.643547,2.6437988,2.6440573,2.6442819,2.6443942,2.64436,2.644198,2.643959,2.6437387,2.6435997,2.6435716,2.6436143,2.6436946,2.643775,2.6437888,2.6436648,2.6433954,2.6430194,2.6426303,2.642324,2.6421428,2.6420958,2.6421933,2.6423864,2.6426196,2.6427727,2.6427627,2.6426048,2.6424036,2.642235,2.6420705,2.6419096,2.6417592,2.6416647,2.6416175,2.6415358,2.6413364,2.641009,2.6406124,2.6401768,2.63972,2.6392465,2.638792,2.6384134,2.6381123,2.6378832,2.6377099,2.6375766,2.6374507,2.6372995,2.637095,2.6368837,2.6367664,2.636794,2.63692,2.637009,2.6369367,2.6367068,2.6364152,2.636177,2.63603,2.6359334,2.6358662,2.6358633,2.6359668,2.6361456,2.636313,2.636395,2.636396,2.6363773,2.6363943,2.6364064,2.6363497,2.636217,2.636024,2.6358478,2.6357255,2.6356397,2.635566,2.6355314,2.6355755,2.6356978,2.6358886,2.6360927,2.6362653,2.636394,2.6364677,2.6364808,2.636444,2.6363935,2.6363916,2.6364994,2.636753,2.6371212,2.6375713,2.6380224,2.6384442,2.6388316,2.6391797,2.6395445,2.6399493,2.6403728,2.6407933,2.6411998,2.641632,2.642132,2.6427047,2.643291,2.6437922,2.6441646,2.6444592,2.644734,2.64504,2.645382,2.645703,2.6460323,2.6464124,2.6468365,2.6472487,2.647561,2.6477213,2.6478012,2.6478891,2.6480606,2.6483781,2.6488216,2.6493568,2.6499147,2.650462,2.6509619,2.6514144,2.6518097,2.6521366,2.65238,2.6525536,2.6526918,2.6529636,2.6532683,2.6534762,2.6535163,2.6534586,2.6534004,2.653431,2.6534863,2.653533,2.6535826,2.6536303,2.6536965,2.6537542,2.6538565,2.653926,2.65387,2.6536183,2.6531987,2.6528063,2.6526182,2.6527169,2.6530187,2.6533818,2.6536613,2.6538026,2.653959,2.6541848,2.6546102
2.5789232,2.5795035,2.5800223,2.5806363,2.5813875,2.5819464,2.5822468,2.5825844,2.5833192,2.5843916,2.5854878,2.586256,2.586627,2.5868742,2.5872083,2.58764,2.588024,2.5882492,2.588271,2.5882854,2.588464,2.5888882,2.5896287,2.590549,2.591497,2.592421,2.593588,2.5950792,2.5967345,2.598318,2.5996842,2.6008914,2.6019936,2.603066,2.6040854,2.6050034,2.605805,2.6067314,2.6074367,2.6075778,2.6070235,2.6061492,2.6055312,2.6053526,2.605955,2.607202,2.608901,2.610828,2.6129951,2.6152778,2.6174977,2.6192076,2.6199615,2.6197891,2.6187482,2.6172047,2.6153078,2.6134553,2.6120272,2.611218,2.6108346,2.6105926,2.6104012,2.6102228,2.610147,2.6102495,2.610592,2.610945,2.611197,2.6112437,2.6110911,2.6107621,2.6103835,2.6100664,2.6099863,2.610139,2.610456,2.6108708,2.611289,2.611713,2.6120696,2.6123562,2.6125998,2.6128752,2.613214,2.6135628,2.6138449,2.6139755,2.613945,2.613864,2.6137676,2.6137118,2.6137607,2.6138856,2.6140378,2.6141038,2.61409,2.6140728,2.6141899,2.6145148,2.6149926,2.6154761,2.6158953,2.6162333,2.6165676,2.6169324,2.6173437,2.6178179,2.6183467,2.6189017,2.6194286,2.6198874,2.6202726,2.6206117,2.6209846,2.621431,2.6218898,2.6223154,2.622653,2.622962,2.6232674,2.6235745,2.6238506,2.6240766,2.6242929,2.6245623,2.6248827,2.6252153,2.6255224,2.625801,2.6260695,2.6263707,2.6267166,2.627076,2.6274078,2.6276717,2.6278496,2.6279383,2.627966,2.6279788,2.628016,2.6281223,2.6282988,2.6285646,2.6288602,2.6291327,2.6292884,2.629293,2.6291695,2.6289759,2.628815,2.6287522,2.6288252,2.628996,2.6292148,2.6294084,2.6294847,2.6293707,2.6290703,2.6286416,2.6281803,2.62778,2.6274877,2.6273274,2.6273243,2.6274447,2.6276376,2.6277754,2.627766,2.6276093,2.6273985,2.6272192,2.6270592,2.6269224,2.6268134,2.6267667,2.626771,2.6267495,2.6266236,2.626377,2.6260564,2.6256871,2.6252832,2.6248462,2.624411,2.6240258,2.6236997,2.623436,2.623238,2.623099,2.6229963,2.6228921,2.622736,2.6225545,2.6224322,2.6224256,2.6225104,2.6225677,2.6224732,2.6222267,2.621911,2.6216424,2.6214576,2.6213183,2.6212022,2.6211548,2.6212273,2.621388,2.621548,2.6216187,2.621606,2.6215856,2.6216242,2.6216846,2.6216836,2.6215894,2.6213994,2.6211815,2.6209877,2.6208186,2.620684,2.6206338,2.6207042,2.6208763,2.6211066,2.6213274,2.6214914,2.6215992,2.6216502,2.6216464,2.6215997,2.621544,2.6215463,2.6216693,2.6219556,2.6223657,2.6228552,2.6233249,2.6237345,2.6240828,2.6243708,2.624669,2.625005,2.6253767,2.6257718,2.6261802,2.6266375,2.6271815,2.6278107,2.6284623,2.6290221,2.6294277,2.6297278,2.6299844,2.6302671,2.6305847,2.630885,2.6312041,2.6315885,2.6320386,2.6324863,2.6328273,2.6329947,2.6330626,2.6331372,2.633307,2.6336446,2.6341279,2.6347065,2.635292,2.6358366,2.6363099,2.6367273,2.6371126,2.637467,2.637761,2.6379848,2.6381378,2.6383739,2.6386085,2.6387267,2.6386733,2.638522,2.6383777,2.6383395,2.638361,2.6384094,2.638505,2.6386442,2.63885,2.639082,2.6393585,2.6395965,2.6397083,2.6396322,2.63939,2.6391492,2.639061,2.6391702,2.6393821,2.6395726,2.6396463,2.6395807,2.6395185,2.639478,2.6395884
2.5653744,2.5657916,2.5661125,2.5665047,2.567038,2.567432,2.5676746,2.568049,2.568894,2.5701597,2.571462,2.572442,2.572895,2.5730762,2.573155,2.573269,2.5733898,2.5734515,2.5734668,2.5735636,2.5739074,2.5745351,2.5755203,2.576624,2.5776165,2.578393,2.5792909,2.5806217,2.5822825,2.5841079,2.5857668,2.5872574,2.5886147,2.5900002,2.591022,2.5915318,2.5917091,2.5920362,2.592373,2.592381,2.5918326,2.590994,2.5904498,2.5904179,2.5914035,2.59329,2.5958197,2.5985265,2.601117,2.603488,2.6052966,2.6062295,2.6061196,2.6052213,2.6037836,2.602172,2.6004493,2.5989413,2.5979586,2.5975785,2.597572,2.5976057,2.5975928,2.5974922,2.597423,2.5974736,2.597716,2.597972,2.598144,2.5981505,2.5979822,2.5976546,2.5972643,2.5968895,2.5966878,2.5966744,2.5968218,2.597083,2.597388,2.5977352,2.5980597,2.598352,2.5986376,2.5989742,2.5993886,2.5998113,2.6001568,2.6003351,2.600316,2.6002111,2.600058,2.599936,2.599928,2.6000156,2.6001484,2.6002092,2.6002011,2.6002092,2.6003642,2.600737,2.6012573,2.6017601,2.6021729,2.6024666,2.6027322,2.6030245,2.6033766,2.6038086,2.6043098,2.6048436,2.6053576,2.6058145,2.6062198,2.6066022,2.6070313,2.6075296,2.6080317,2.6084905,2.6088562,2.6091876,2.6095035,2.6098127,2.61008,2.610284,2.610453,2.6106422,2.6108541,2.611069,2.6112692,2.6114657,2.6116831,2.6119595,2.612294,2.6126485,2.612988,2.6132765,2.6134958,2.6136415,2.6137314,2.6138005,2.613883,2.6140232,2.6142316,2.6145387,2.6148915,2.615227,2.6154375,2.615487,2.6153965,2.615234,2.6151032,2.6150765,2.61521,2.6154733,2.6158073,2.6161056,2.6162415,2.61614,2.6158135,2.6153417,2.6148248,2.6143503,2.6139655,2.613703,2.6135957,2.613623,2.6137433,2.6138353,2.6138031,2.613639,2.6134186,2.613233,2.613082,2.6129785,2.6129217,2.6129344,2.6129985,2.6130397,2.6129827,2.6128035,2.612536,2.6122026,2.6118164,2.611377,2.61092,2.6104908,2.6101074,2.6097798,2.6095314,2.6093674,2.609273,2.6092095,2.6091027,2.6089573,2.608838,2.6088016,2.608845,2.6088655,2.6087432,2.6084743,2.6081336,2.6078362,2.607623,2.6074595,2.607327,2.607275,2.6073623,2.607548,2.6077383,2.6078315,2.6078339,2.6078353,2.6079125,2.6080298,2.608088,2.6080236,2.6078224,2.6075377,2.6072428,2.606965,2.6067486,2.6066668,2.6067495,2.6069565,2.607213,2.6074357,2.6075757,2.6076508,2.607675,2.6076574,2.6076136,2.6075716,2.6075983,2.607751,2.6080651,2.6084929,2.608976,2.6094122,2.6097603,2.6100295,2.6102314,2.6104455,2.610699,2.6110013,2.6113446,2.6117191,2.6121545,2.6126857,2.6133134,2.6139765,2.61455,2.6149578,2.6152434,2.615477,2.6157424,2.616047,2.616342,2.6166673,2.617075,2.6175714,2.6180706,2.6184497,2.618631,2.6186924,2.6187553,2.6189184,2.6192613,2.61976,2.6203535,2.6209416,2.6214628,2.621893,2.622274,2.6226563,2.6230476,2.6233978,2.6236653,2.623825,2.6240146,2.6241808,2.6242309,2.6241255,2.62394,2.6237743,2.6237273,2.6237648,2.6238527,2.6240149,2.6242561,2.6245956,2.624988,2.625426,2.625826,2.6261058,2.6262197,2.6261811,2.626116,2.6261425,2.6262584,2.6263666,2.6263738,2.6262393,2.6259794,2.6257267,2.6254828,2.6253548
2.551536,2.5518293,2.5520005,2.5522237,2.5525882,2.552855,2.5530472,2.553432,2.5543232,2.5556982,2.5571237,2.5582266,2.558718,2.5588317,2.5587564,2.5587003,2.5587225,2.5587535,2.5588331,2.559054,2.5595741,2.560409,2.5616493,2.5629783,2.5640812,2.564817,2.5655687,2.5668616,2.5686638,2.5707774,2.5726633,2.5741763,2.5755916,2.576846,2.5776281,2.577829,2.5775898,2.577526,2.5774834,2.5772839,2.5768251,2.5763154,2.5762339,2.5767016,2.5781765,2.5805407,2.5834923,2.586493,2.589091,2.5912628,2.5924222,2.5926204,2.5918708,2.5905914,2.5891445,2.5877495,2.5864737,2.5854642,2.58495,2.5849094,2.585114,2.5852613,2.5852947,2.5852025,2.5851102,2.5850902,2.585215,2.5853443,2.5854077,2.5853438,2.5851402,2.5848067,2.5844107,2.584002,2.5837157,2.58358,2.5835977,2.5837426,2.583959,2.5842469,2.5845394,2.5848203,2.5851097,2.5854607,2.585896,2.5863419,2.586711,2.5869138,2.5869017,2.586782,2.5865989,2.58645,2.5864272,2.586516,2.5866618,2.5867543,2.586801,2.5868945,2.5871453,2.5876164,2.5882206,2.5887764,2.5892026,2.5894585,2.5896559,2.589869,2.5901513,2.5905237,2.5909796,2.591477,2.591966,2.5924096,2.5928166,2.5932207,2.5936847,2.5942178,2.5947487,2.5952349,2.5956397,2.5960193,2.5963888,2.5967486,2.5970614,2.597305,2.5974953,2.5976772,2.5978556,2.5980253,2.5981882,2.5983615,2.5985641,2.5988252,2.5991316,2.5994458,2.599744,2.6000075,2.6002262,2.6003935,2.6005197,2.6006336,2.6007648,2.6009545,2.601213,2.6015778,2.6019964,2.6023998,2.6026707,2.6027684,2.602713,2.60257,2.6024427,2.6024013,2.60252,2.6027842,2.6031384,2.6034613,2.6036072,2.6034966,2.603155,2.602673,2.6021528,2.6016712,2.601265,2.6009598,2.6007853,2.6007316,2.6007705,2.600799,2.6007283,2.6005511,2.6003294,2.6001534,2.60003,2.5999703,2.5999675,2.6000302,2.6001358,2.6002116,2.600184,2.6000257,2.5997646,2.5994222,2.5990148,2.5985403,2.598035,2.5975423,2.5970874,2.5966852,2.5963721,2.5961666,2.596062,2.596024,2.5959597,2.5958498,2.595741,2.5956872,2.5956955,2.5956812,2.595533,2.5952477,2.594898,2.594603,2.5944045,2.5942798,2.5942078,2.594232,2.5944054,2.5946722,2.5949287,2.595063,2.5950828,2.5950937,2.5951855,2.5953274,2.5954132,2.5953586,2.5951347,2.5947833,2.5943923,2.5940118,2.5937138,2.593589,2.5936594,2.5938683,2.5941138,2.5943012,2.5943842,2.5944042,2.5943887,2.5943518,2.5943108,2.5942838,2.5943327,2.5945094,2.5948353,2.5952563,2.5957046,2.5960803,2.5963507,2.596536,2.5966606,2.5968006,2.5969803,2.5972135,2.5974908,2.5978014,2.5981696,2.5986323,2.5992017,2.5998268,2.600379,2.6007698,2.6010358,2.6012511,2.6015072,2.6018124,2.6021152,2.602458,2.6028962,2.6034412,2.603991,2.6044073,2.6046066,2.6046748,2.604741,2.604906,2.6052501,2.6057458,2.60633,2.6068969,2.6073804,2.6077576,2.6080933,2.6084557,2.6088634,2.6092472,2.6095452,2.6097116,2.6098747,2.6100068,2.6100392,2.609943,2.6097872,2.6096542,2.6096363,2.6097074,2.6098366,2.6100473,2.610355,2.6107683,2.6112478,2.611779,2.6122866,2.6126995,2.612989,2.6131601,2.6132896,2.61346,2.6136255,2.613687,2.6135888,2.613335,2.6129646,2.6125994,2.6122262,2.6119342
2.5372813,2.5374904,2.5375686,2.537692,2.5379543,2.5381432,2.5382938,2.538646,2.5395002,2.5408735,2.542315,2.543432,2.5439134,2.543982,2.5439076,2.543911,2.5440698,2.5442493,2.5444572,2.5447912,2.5454006,2.5463254,2.5476933,2.549187,2.5504227,2.5512757,2.5521317,2.5536509,2.5558403,2.5583236,2.5603492,2.5618064,2.5628076,2.5634766,2.5638618,2.563828,2.5633793,2.562962,2.56254,2.5621176,2.5618088,2.5618448,2.5625868,2.563937,2.5660846,2.5688386,2.5718122,2.574553,2.5767632,2.5782084,2.5785902,2.5781457,2.577055,2.5757554,2.5745623,2.5736263,2.572958,2.5725112,2.572423,2.5725946,2.572846,2.5729537,2.5729148,2.5727787,2.5726583,2.572596,2.5726423,2.5726717,2.572639,2.5725074,2.5722642,2.571929,2.571548,2.5711536,2.5708544,2.5706775,2.570638,2.5707202,2.5708833,2.5711284,2.5713887,2.5716367,2.5718875,2.572198,2.5725913,2.5729995,2.5733442,2.573537,2.5735238,2.5733972,2.5732057,2.5730588,2.5730438,2.573143,2.573302,2.5734315,2.5735493,2.573752,2.5741243,2.5747194,2.5754318,2.5760612,2.57652,2.5767565,2.5768993,2.5770502,2.5772736,2.5775943,2.5780098,2.5784776,2.5789483,2.579382,2.5797849,2.5801992,2.5806806,2.5812318,2.5817747,2.5822687,2.582697,2.583118,2.5835433,2.5839653,2.5843513,2.5846772,2.584949,2.585197,2.5854218,2.5856252,2.585822,2.5860283,2.5862565,2.586516,2.5867867,2.587037,2.5872626,2.5874617,2.5876408,2.5877945,2.5879266,2.588062,2.5882277,2.5884588,2.5887594,2.5891685,2.589634,2.590087,2.5904093,2.5905538,2.590535,2.590417,2.5902867,2.590209,2.5902603,2.5904453,2.5907247,2.590989,2.591096,2.5909648,2.5906305,2.5901833,2.5897202,2.589301,2.5889444,2.588655,2.588451,2.588326,2.5882707,2.5882142,2.5880876,2.587893,2.58768,2.587533,2.5874567,2.5874476,2.587489,2.587578,2.5876923,2.5877624,2.5877182,2.5875373,2.5872457,2.5868692,2.5864282,2.5859165,2.5853665,2.5848198,2.5843077,2.5838428,2.5834742,2.5832233,2.5830982,2.5830674,2.583026,2.5829375,2.5828314,2.5827572,2.5827312,2.5826797,2.5825033,2.5822067,2.5818658,2.5816035,2.581469,2.5814404,2.581498,2.58166,2.581967,2.5823426,2.5826726,2.5828414,2.5828598,2.582847,2.5829072,2.5830245,2.5830965,2.583033,2.582791,2.5824,2.5819502,2.581505,2.5811481,2.580984,2.5810287,2.5812101,2.581415,2.5815396,2.5815468,2.5815027,2.5814517,2.5814073,2.5813804,2.5813732,2.581441,2.5816274,2.5819478,2.5823402,2.5827322,2.58304,2.5832343,2.583352,2.5834231,2.5835161,2.5836468,2.5838277,2.5840435,2.584279,2.5845563,2.584918,2.5853944,2.5859518,2.5864663,2.5868397,2.587094,2.587307,2.5875695,2.5878873,2.58821,2.588575,2.589037,2.5896115,2.5901887,2.590622,2.5908332,2.590916,2.5910022,2.5911818,2.5915263,2.5920043,2.5925567,2.5930862,2.5935252,2.59385,2.5941367,2.5944676,2.5948672,2.5952604,2.5955777,2.5957575,2.595921,2.596056,2.5961123,2.5960667,2.5959783,2.5959039,2.5959258,2.5960274,2.5961828,2.5964165,2.5967464,2.5971751,2.5976684,2.5982242,2.5987825,2.5992894,2.599728,2.600093,2.600415,2.6007419,2.6009972,2.6010807,2.6009722,2.6007037,2.6003144,2.5999093,2.5994592,2.5990455
2.5223927,2.522553,2.5225835,2.522668,2.522894,2.5230646,2.5232048,2.5235147,2.5242887,2.5255933,2.5269802,2.5280347,2.5284734,2.5285215,2.5285954,2.5288801,2.5294194,2.5299442,2.530364,2.5307956,2.5313668,2.5321796,2.5334187,2.5348644,2.5361328,2.537178,2.53835,2.540338,2.5430958,2.5460904,2.548472,2.5495932,2.5498648,2.5497344,2.5495582,2.54928,2.5486953,2.548006,2.5473099,2.5467052,2.5465608,2.5471985,2.5489132,2.5513446,2.5542898,2.5573962,2.560095,2.5624003,2.5636501,2.5640306,2.5635672,2.5625753,2.5613742,2.5602326,2.559455,2.5591168,2.5590732,2.5591211,2.5593476,2.5596342,2.5598207,2.5597801,2.5595863,2.5593762,2.5592492,2.5592127,2.5592713,2.559289,2.5592368,2.559091,2.5588531,2.5585508,2.5582323,2.557926,2.5577097,2.5575938,2.557582,2.5576577,2.557798,2.558012,2.5582352,2.5584307,2.5586174,2.5588474,2.559156,2.559484,2.5597665,2.5599227,2.5598922,2.559754,2.559555,2.5593982,2.55936,2.5594227,2.5595396,2.5596542,2.5597954,2.5600696,2.5605335,2.561232,2.5620432,2.5627556,2.5632656,2.563515,2.5636454,2.5637784,2.5639882,2.5643005,2.564713,2.5651884,2.565677,2.5661335,2.566556,2.5669956,2.5674953,2.568053,2.5685775,2.5690374,2.5694375,2.569841,2.5702672,2.5707078,2.5711482,2.5715594,2.5719433,2.5723057,2.5726342,2.5729318,2.5732188,2.5735033,2.5737917,2.5740776,2.574336,2.5745444,2.5747147,2.5748672,2.5750148,2.575159,2.575292,2.5754366,2.575618,2.5758595,2.576164,2.5765696,2.577029,2.5774822,2.5778193,2.5779896,2.5780015,2.5779169,2.5778017,2.577703,2.5776825,2.5777533,2.5779023,2.578054,2.5780976,2.5779562,2.5776696,2.577312,2.5769625,2.5766625,2.5764017,2.5761607,2.5759368,2.5757284,2.5755477,2.5753717,2.5751586,2.5749297,2.5747304,2.574627,2.5746105,2.574649,2.5747137,2.5747943,2.5748813,2.574914,2.5748298,2.5746126,2.574294,2.5739093,2.5734725,2.5729737,2.5724287,2.571879,2.5713534,2.5708685,2.5704727,2.5701914,2.570037,2.5699859,2.5699306,2.5698204,2.5696785,2.569553,2.569467,2.5693598,2.5691433,2.5688312,2.5685053,2.5682945,2.5682492,2.5683436,2.5685468,2.5688524,2.5692801,2.569735,2.5701003,2.5702624,2.570238,2.5701551,2.5701277,2.5701694,2.5701957,2.5701244,2.5698967,2.569531,2.5690997,2.5686631,2.5683117,2.568151,2.5681927,2.568358,2.56853,2.5686014,2.5685503,2.5684695,2.5684159,2.5684018,2.5684223,2.5684564,2.5685492,2.5687404,2.5690413,2.5693884,2.569715,2.5699515,2.570079,2.5701509,2.5701976,2.5702765,2.5703957,2.5705593,2.5707464,2.5709324,2.5711374,2.5714114,2.5718026,2.572303,2.5727944,2.573175,2.573452,2.5736942,2.5739884,2.5743387,2.5746877,2.575065,2.5755253,2.5760865,2.5766401,2.5770466,2.5772433,2.5773315,2.5774417,2.5776415,2.5779827,2.5784316,2.5789385,2.5794191,2.5798135,2.580099,2.5803518,2.580656,2.5810418,2.5814307,2.5817635,2.5819628,2.582139,2.582293,2.5823834,2.5823915,2.5823703,2.5823483,2.5823991,2.5825138,2.5826743,2.5829048,2.5832262,2.583634,2.5840998,2.5846438,2.585221,2.585795,2.5863514,2.5868692,2.5873423,2.587794,2.588141,2.5882878,2.5882392,2.5880346,2.5876908,2.587292,2.5867944,2.586283
2.5073185,2.5074716,2.5074983,2.5075917,2.5078392,2.5080457,2.5082111,2.5084858,2.5091605,2.5103593,2.5116541,2.512627,2.5130386,2.5131087,2.5134077,2.5140772,2.5151048,2.516059,2.5167117,2.5171828,2.5175734,2.518091,2.5189896,2.5202296,2.5214806,2.5227814,2.5243912,2.5268703,2.5302846,2.533825,2.5362852,2.5369394,2.536476,2.5355277,2.534783,2.5343342,2.5335956,2.5328565,2.5321407,2.531592,2.5317454,2.5330095,2.5356455,2.5390635,2.5426657,2.5458949,2.5483007,2.5497222,2.5497503,2.5490212,2.547823,2.546472,2.5453377,2.544487,2.5441935,2.5443602,2.544764,2.5451307,2.5455427,2.5458477,2.545897,2.545665,2.5452862,2.544997,2.5448842,2.5449243,2.5450644,2.5451465,2.545144,2.545043,2.5448573,2.5446267,2.5444112,2.5442476,2.5441897,2.5442095,2.5442815,2.5443912,2.5445247,2.5447083,2.5448873,2.5450168,2.5451179,2.545247,2.5454507,2.5456848,2.5458984,2.5460114,2.5459685,2.5458353,2.5456476,2.5454912,2.5454247,2.5454302,2.5454743,2.5455346,2.5456476,2.5459247,2.5464063,2.5471363,2.5479846,2.5487437,2.5492988,2.5495913,2.5497618,2.5499399,2.5501947,2.5505507,2.5510006,2.551517,2.552052,2.5525606,2.5530322,2.5535202,2.554049,2.554615,2.5551171,2.5555296,2.5558753,2.556219,2.5565958,2.557003,2.5574522,2.5579162,2.5583954,2.5588717,2.559316,2.5597239,2.5601141,2.5604928,2.5608592,2.5612006,2.5614874,2.5617132,2.5618944,2.5620625,2.5622358,2.5624118,2.5625768,2.562746,2.562945,2.5631847,2.5634665,2.5638268,2.5642328,2.5646417,2.5649598,2.5651333,2.565172,2.5651321,2.565061,2.5649796,2.5649157,2.5648816,2.5648909,2.564918,2.5649,2.564763,2.564541,2.5642786,2.5640378,2.5638404,2.5636554,2.5634394,2.5631711,2.5628548,2.562526,2.562207,2.5618844,2.5616088,2.5614204,2.5613623,2.561405,2.5614824,2.5615535,2.5616117,2.5616665,2.561668,2.561562,2.5613384,2.5610318,2.5606885,2.5603175,2.5598943,2.5594153,2.5589137,2.5584204,2.5579536,2.5575542,2.5572476,2.5570502,2.556942,2.5568213,2.5566378,2.556415,2.556207,2.5560431,2.5558717,2.5556118,2.555284,2.5549803,2.5548258,2.5548735,2.5550811,2.5554023,2.5558066,2.556294,2.5567691,2.5571158,2.5572333,2.5571427,2.5569742,2.5568528,2.5568142,2.5568013,2.556746,2.5565805,2.5563054,2.5559673,2.5556126,2.5553255,2.5552065,2.555269,2.5554328,2.555583,2.555615,2.5555277,2.5554368,2.555408,2.5554476,2.555531,2.555613,2.555726,2.5559096,2.5561733,2.556461,2.5567088,2.5568666,2.5569293,2.556963,2.5569985,2.5570807,2.5572126,2.55739,2.5575852,2.5577621,2.557939,2.5581686,2.5585186,2.5590029,2.5595093,2.5599318,2.5602593,2.5605488,2.5608773,2.5612414,2.5615888,2.5619407,2.5623555,2.56285,2.5633302,2.5636706,2.5638335,2.5639234,2.564062,2.5642862,2.5646226,2.5650315,2.565475,2.565892,2.5662422,2.566504,2.566746,2.5670469,2.567433,2.5678275,2.5681758,2.5683937,2.5685825,2.56875,2.5688608,2.5689058,2.568934,2.5689518,2.569027,2.569153,2.569313,2.5695395,2.5698476,2.5702348,2.570672,2.571196,2.5717661,2.5723677,2.5729847,2.5735784,2.5741234,2.5746245,2.5750155,2.5752153,2.5752478,2.575142,2.574881,2.5745285,2.5740278,2.5734744
2.492766,2.4929755,2.4930549,2.493207,2.4935265,2.4938138,2.49404,2.4943,2.4948707,2.4959285,2.4971147,2.4980297,2.4984584,2.4985855,2.4990616,2.5000248,2.5014129,2.5026689,2.503436,2.5038269,2.503932,2.504096,2.5046458,2.505731,2.5070872,2.5087495,2.510758,2.5137386,2.5175066,2.5210018,2.5231943,2.5234704,2.5225043,2.520967,2.519908,2.5191343,2.5182796,2.5177436,2.5174363,2.517447,2.5182505,2.5202532,2.523621,2.5276423,2.531406,2.5345054,2.5362036,2.5365162,2.535458,2.5338826,2.5322905,2.5309076,2.530052,2.5295708,2.52961,2.5300183,2.5305681,2.5310283,2.5314407,2.5316882,2.5316167,2.5312324,2.5307107,2.5303702,2.530286,2.5304122,2.530644,2.530807,2.5308807,2.5308583,2.5307574,2.5306227,2.5305262,2.5305142,2.5306191,2.5307775,2.530932,2.531067,2.5311832,2.531326,2.5314503,2.5315032,2.5315127,2.5315394,2.5316482,2.5318093,2.5319743,2.532061,2.5320253,2.5319304,2.531798,2.5316815,2.531619,2.5315857,2.5315723,2.5315742,2.5316257,2.5318336,2.5322359,2.5328875,2.5336642,2.5343935,2.534958,2.5353098,2.5355735,2.5358653,2.5362287,2.5366774,2.5372036,2.5377874,2.538385,2.538954,2.539482,2.5400171,2.5405712,2.5411363,2.541615,2.541987,2.5422852,2.542571,2.5428834,2.543233,2.5436492,2.5441184,2.5446453,2.5451956,2.5457242,2.5462182,2.5466917,2.5471473,2.5475862,2.5480003,2.548366,2.5486817,2.5489674,2.5492444,2.5495257,2.5497983,2.5500474,2.5502815,2.5505242,2.5507784,2.551042,2.5513508,2.55169,2.5520399,2.5523252,2.552496,2.552565,2.5525842,2.5525808,2.552549,2.5524755,2.5523658,2.552261,2.5521927,2.5521407,2.5520277,2.5518622,2.5516534,2.5514452,2.5512595,2.5510616,2.5507956,2.5504332,2.5499864,2.549504,2.5490484,2.5486228,2.5482981,2.5481162,2.548096,2.5481849,2.5482917,2.5483665,2.5484133,2.5484614,2.5484705,2.5483875,2.5481997,2.5479488,2.5476923,2.5474343,2.547134,2.5467644,2.546349,2.545918,2.545493,2.5451045,2.5447695,2.5445,2.5442877,2.5440488,2.5437446,2.5434108,2.5431075,2.542871,2.5426497,2.5423636,2.5420303,2.5417464,2.5416386,2.5417528,2.5420294,2.5424006,2.542817,2.5432746,2.5436945,2.5439715,2.544028,2.5438852,2.5436692,2.5435076,2.5434475,2.5434506,2.5434651,2.5434146,2.5432854,2.5430956,2.5428686,2.5426724,2.5426025,2.5426807,2.5428257,2.5429409,2.5429282,2.5428104,2.5427198,2.5427246,2.5428195,2.5429559,2.5430732,2.5431924,2.5433555,2.5435696,2.543786,2.5439453,2.5440168,2.5440083,2.5439954,2.5440078,2.544086,2.544233,2.5444398,2.5446692,2.5448756,2.545072,2.5453136,2.545679,2.546192,2.546743,2.5472236,2.547603,2.5479221,2.5482478,2.5485768,2.548867,2.5491452,2.5494723,2.5498662,2.5502481,2.550509,2.5506356,2.5507364,2.550912,2.551166,2.5514898,2.551838,2.552192,2.5525198,2.5528135,2.55306,2.5533195,2.5536487,2.5540667,2.5544872,2.5548644,2.5551014,2.555298,2.5554655,2.5555768,2.5556397,2.5557046,2.5557635,2.5558753,2.5560274,2.5562007,2.556437,2.5567532,2.5571465,2.5575829,2.5580993,2.5586596,2.5592585,2.5598793,2.5604713,2.560996,2.5614505,2.5618043,2.5620015,2.5620794,2.5620499,2.56187,2.561584,2.5611324,2.560617
2.4790473,2.4793682,2.4795425,2.4797807,2.4801903,2.4805644,2.480847,2.481071,2.4815025,2.482356,2.4834058,2.4842973,2.4848032,2.4850328,2.485592,2.4866714,2.488192,2.4895325,2.49025,2.4904366,2.4902067,2.4900603,2.490402,2.4915237,2.493204,2.4953003,2.4979973,2.5012257,2.504724,2.507627,2.5092614,2.5091753,2.507919,2.506208,2.5048513,2.5037355,2.5028126,2.5026631,2.5031292,2.5041704,2.5059958,2.5088868,2.512818,2.5170164,2.520576,2.5230556,2.5236769,2.5228586,2.5209506,2.5188668,2.5172334,2.5161123,2.515702,2.515614,2.5158572,2.5162973,2.5167527,2.5171099,2.5174217,2.517517,2.5173297,2.516852,2.5162468,2.5158777,2.5158136,2.5159898,2.5162702,2.5164833,2.5166183,2.5166736,2.5166616,2.5166235,2.5166333,2.516745,2.5169728,2.5172312,2.5174394,2.5175855,2.517686,2.5178,2.5178852,2.5178795,2.5178099,2.5177553,2.5177937,2.5179055,2.5180395,2.5181105,2.5180962,2.518062,2.5180268,2.5180044,2.5180058,2.5179987,2.5179873,2.5179706,2.5179718,2.518074,2.518327,2.5188007,2.519401,2.520013,2.5205328,2.5209374,2.5213156,2.5217552,2.5222535,2.5228083,2.5234141,2.5240602,2.5247147,2.5253377,2.5259123,2.5264835,2.5270529,2.5276155,2.5280828,2.5284448,2.528729,2.5289898,2.5292532,2.5295377,2.5298922,2.5303183,2.5308309,2.5313964,2.5319595,2.5324988,2.5330186,2.5335221,2.5340176,2.5345092,2.5349796,2.535432,2.535874,2.5363066,2.5367317,2.5371234,2.537473,2.537784,2.5380821,2.5383596,2.5386152,2.5388803,2.5391564,2.5394468,2.539701,2.5398707,2.5399752,2.54006,2.5401397,2.5401776,2.5401196,2.539964,2.5397806,2.5396526,2.5395951,2.5395193,2.539391,2.5391831,2.5389314,2.5386753,2.538391,2.538032,2.537569,2.537017,2.536436,2.5359,2.5354211,2.5350704,2.5348945,2.534892,2.535,2.5351164,2.535191,2.5352435,2.535316,2.5353699,2.535344,2.5352228,2.5350504,2.5348954,2.5347617,2.5345948,2.5343404,2.534018,2.5336547,2.5332735,2.5328941,2.5325208,2.5321603,2.5318146,2.531433,2.530998,2.530562,2.530188,2.529914,2.5296788,2.5293965,2.529076,2.5288138,2.5287383,2.5288908,2.5291924,2.5295515,2.5299087,2.5302634,2.5305672,2.5307403,2.5307283,2.5305524,2.5303268,2.530172,2.530139,2.5301948,2.5302987,2.5303764,2.5304027,2.5303698,2.5302768,2.5301685,2.5301352,2.5302095,2.5303187,2.5303857,2.530327,2.5301843,2.530101,2.5301418,2.53028,2.5304503,2.530583,2.53069,2.530822,2.530982,2.5311236,2.5311985,2.5311885,2.531114,2.5310516,2.531034,2.5311007,2.5312595,2.5315022,2.531785,2.5320454,2.5322998,2.5326006,2.5330296,2.533609,2.534227,2.5347705,2.5351992,2.5355306,2.535822,2.5360708,2.5362601,2.5364304,2.5366528,2.5369437,2.5372338,2.5374365,2.5375547,2.5376968,2.537932,2.5382223,2.5385287,2.538804,2.5390499,2.5392776,2.5395095,2.5397477,2.5400422,2.5404215,2.540889,2.5413482,2.5417495,2.5419953,2.542181,2.542328,2.5424168,2.5424788,2.542567,2.5426664,2.5428205,2.543006,2.543201,2.5434535,2.543789,2.5442054,2.54466,2.5451741,2.5457168,2.5462832,2.546866,2.547403,2.5478501,2.5482087,2.548481,2.548645,2.54874,2.5487635,2.5486526,2.5484488,2.5480876,2.5476727
2.4662843,2.4667723,2.4671187,2.4675007,2.4679794,2.4683867,2.468645,2.4687347,2.4689121,2.4694443,2.4702883,2.4711642,2.4718032,2.4721863,2.4727523,2.473775,2.4751983,2.4764004,2.4769015,2.4767737,2.4761877,2.4758253,2.47616,2.4775376,2.479782,2.48276,2.4860058,2.4891212,2.4919918,2.4939475,2.49474,2.4941926,2.4928336,2.4912353,2.4896765,2.4883208,2.4873629,2.4876409,2.4890275,2.4913363,2.4944024,2.498279,2.5026164,2.506884,2.509926,2.5113127,2.510725,2.508843,2.5063193,2.504004,2.5025716,2.5018883,2.5020103,2.502339,2.502757,2.5031507,2.503403,2.503541,2.5036645,2.5036304,2.5032892,2.502707,2.5020502,2.5016556,2.5015848,2.5017672,2.5020366,2.5022416,2.5023882,2.5024846,2.5025277,2.5025468,2.5026157,2.502791,2.503077,2.503377,2.5036063,2.5037634,2.5038786,2.504014,2.504113,2.5041053,2.5040016,2.503902,2.5038972,2.5039833,2.5041006,2.5041654,2.5041876,2.5042443,2.5043573,2.5045066,2.5046735,2.5048022,2.5049088,2.5049691,2.5049908,2.5050206,2.5051153,2.505365,2.505723,2.5061464,2.5065644,2.5069854,2.5074592,2.508029,2.508638,2.509264,2.5099053,2.5105667,2.5112379,2.5118794,2.512474,2.513054,2.513627,2.5141926,2.5146785,2.515079,2.515405,2.515694,2.5159473,2.5161886,2.5164707,2.5168176,2.517263,2.5177855,2.5183291,2.5188627,2.5193813,2.5198884,2.520401,2.5209413,2.5214944,2.5220585,2.5226257,2.5231717,2.5236864,2.5241451,2.5245414,2.5248895,2.5252123,2.5254939,2.5257287,2.5259483,2.526165,2.5264018,2.5266256,2.5267985,2.5269456,2.5271096,2.5272837,2.5274105,2.5273924,2.52722,2.5269966,2.5268493,2.5268126,2.5267801,2.5266685,2.526425,2.5260887,2.525732,2.525354,2.5249262,2.5244255,2.5238614,2.5233016,2.5228057,2.5223718,2.5220518,2.5218856,2.5218728,2.5219545,2.5220468,2.5221043,2.5221615,2.522265,2.522369,2.5223997,2.5223346,2.5222197,2.5221324,2.5220854,2.5220122,2.5218441,2.5215898,2.5212743,2.520926,2.5205557,2.520153,2.519716,2.5192657,2.5187857,2.5182817,2.5178194,2.517456,2.517218,2.5170336,2.5168,2.5165172,2.516283,2.5162282,2.516397,2.5166936,2.5170064,2.5172658,2.5174818,2.5176492,2.517712,2.5176368,2.5174408,2.5172226,2.5170906,2.5170863,2.5171785,2.517332,2.517479,2.5175943,2.5176558,2.5176337,2.517554,2.5175,2.517521,2.5175612,2.5175593,2.5174499,2.5172873,2.5172186,2.5172977,2.5174747,2.5176668,2.5178018,2.5178943,2.5179977,2.5181136,2.5181952,2.5182078,2.5181437,2.5180326,2.517942,2.5179043,2.5179603,2.5181303,2.5184069,2.5187378,2.519053,2.5193686,2.5197363,2.5202346,2.5208795,2.521554,2.5221496,2.5226166,2.5229483,2.523194,2.5233488,2.5234249,2.523488,2.523622,2.5238404,2.5240836,2.5242846,2.5244536,2.5246882,2.5250149,2.5253575,2.5256462,2.525845,2.5259871,2.5261211,2.5263033,2.5265412,2.526875,2.527307,2.5278192,2.5283062,2.5287132,2.5289454,2.5290952,2.5291996,2.5292468,2.5292926,2.5293932,2.5295281,2.5297213,2.5299335,2.5301418,2.5303993,2.530744,2.5311718,2.5316334,2.5321264,2.5326266,2.5331292,2.5336447,2.5341094,2.5344796,2.534762,2.5349782,2.5351295,2.5352507,2.5353267,2.535286,2.535172,2.5349193,2.5346255
2.4537702,2.454361,2.4547887,2.4552317,2.455747,2.4561887,2.4564939,2.456611,2.4567199,2.4569137,2.4575002,2.4583576,2.459149,2.4597077,2.4602284,2.4610682,2.4622207,2.463128,2.4633317,2.4628868,2.462048,2.4616373,2.4621322,2.4638877,2.4669003,2.4704695,2.4739268,2.4767697,2.4789314,2.4798799,2.479745,2.478819,2.4776115,2.4761057,2.474608,2.4732559,2.472424,2.4731708,2.47546,2.4789643,2.4831443,2.4877625,2.4924486,2.4965088,2.498633,2.4988234,2.4971695,2.4944992,2.4916797,2.489409,2.4883223,2.4881139,2.488707,2.4893794,2.4899175,2.4902267,2.4902456,2.4901328,2.4900463,2.489892,2.489489,2.4888115,2.4881291,2.4877234,2.487648,2.487823,2.4880562,2.488226,2.4883602,2.488474,2.4885478,2.4885986,2.4886985,2.4888973,2.489198,2.4895015,2.4897337,2.4899058,2.4900649,2.4902687,2.4904377,2.4904943,2.490426,2.4903414,2.4903393,2.4904282,2.4905438,2.4906077,2.4906526,2.4907794,2.491026,2.4913454,2.4916956,2.492,2.4922767,2.4924755,2.4925907,2.4926202,2.4926286,2.492702,2.4928482,2.4930887,2.4933934,2.493801,2.4943266,2.4949706,2.495629,2.4962592,2.496874,2.4974985,2.4981513,2.4987845,2.4993715,2.4999366,2.5004914,2.5010467,2.501551,2.5019956,2.502371,2.5027075,2.5029764,2.5031993,2.5034287,2.5037014,2.5040717,2.504536,2.5050359,2.5055332,2.5060172,2.5064917,2.5069892,2.5075362,2.5081215,2.508727,2.5093355,2.509903,2.5104182,2.5108585,2.511232,2.5115564,2.5118546,2.512104,2.5122967,2.5124588,2.5126126,2.512791,2.5129747,2.513136,2.5133107,2.5135345,2.5137894,2.5139887,2.5140069,2.5138326,2.5136018,2.5134706,2.5134878,2.5135274,2.513459,2.513211,2.5128303,2.5124197,2.5120063,2.511581,2.5111275,2.5106502,2.5102136,2.509846,2.5095236,2.5092614,2.509099,2.5090427,2.5090535,2.5090854,2.5091069,2.5091543,2.509272,2.5094013,2.5094593,2.5094123,2.5093064,2.5092278,2.509198,2.509154,2.5090165,2.5087814,2.508482,2.5081496,2.5077896,2.5073795,2.5069115,2.5064216,2.5059202,2.5054336,2.5050287,2.5047503,2.5046062,2.5045106,2.504346,2.5041046,2.5038886,2.5038378,2.5040026,2.5042806,2.5045443,2.5047164,2.504818,2.5048761,2.504859,2.504746,2.5045485,2.5043433,2.5042262,2.5042262,2.5043058,2.5044367,2.5045648,2.5046735,2.5047338,2.504704,2.504589,2.5044737,2.5044227,2.5043917,2.5043283,2.5041862,2.504024,2.503988,2.504118,2.5043406,2.5045593,2.5047076,2.5048015,2.5048995,2.5049968,2.505045,2.5050259,2.5049422,2.5048246,2.5047321,2.5046856,2.5047324,2.5049038,2.5051985,2.5055566,2.5058992,2.5062435,2.5066419,2.5071692,2.507837,2.508526,2.5091407,2.5096292,2.509966,2.5101867,2.5102797,2.5102792,2.5102787,2.5103698,2.5105639,2.5108063,2.5110478,2.5112982,2.5116434,2.512065,2.5124521,2.512719,2.51285,2.51291,2.5129771,2.5131335,2.5133812,2.5137506,2.51422,2.5147545,2.5152411,2.5156238,2.515822,2.5159278,2.515991,2.516008,2.5160534,2.5161812,2.5163612,2.5165884,2.5168133,2.5170133,2.5172472,2.5175745,2.517984,2.5184257,2.5188756,2.5193238,2.5197558,2.5202022,2.5206087,2.5209212,2.5211651,2.5213606,2.5215197,2.521667,2.5217824,2.5218,2.5217743,2.521634,2.5214696
2.4416533,2.4422395,2.442647,2.4430246,2.443421,2.4437232,2.4438894,2.4438312,2.443791,2.4439783,2.4446316,2.445486,2.4463968,2.4471052,2.4475636,2.4481878,2.449052,2.4497116,2.449768,2.4492376,2.4484224,2.4481678,2.448859,2.4510033,2.4542675,2.4577703,2.4610314,2.4635377,2.4652052,2.4654436,2.464868,2.4637392,2.462407,2.4611197,2.4600098,2.4591022,2.4587307,2.460074,2.4631453,2.467487,2.4722595,2.4772038,2.4817147,2.4850273,2.4861472,2.4853635,2.4830453,2.4800453,2.4773102,2.4753304,2.4746065,2.4747305,2.4755378,2.4763255,2.4768639,2.4770687,2.476905,2.4766054,2.476373,2.4761608,2.4757495,2.4751184,2.4744487,2.4740381,2.4739647,2.4741392,2.4743452,2.474485,2.4746072,2.4747329,2.4748354,2.4749193,2.475053,2.475287,2.475615,2.4759393,2.4761963,2.4764056,2.4766285,2.4769192,2.4771922,2.4773626,2.4773917,2.4773798,2.4774234,2.4775467,2.477674,2.4777257,2.477754,2.4778862,2.4781814,2.4785907,2.4790573,2.4794915,2.479911,2.4802573,2.4805136,2.480639,2.48068,2.4807038,2.480749,2.4808772,2.4810963,2.481464,2.4819756,2.4826016,2.483213,2.4837565,2.4842682,2.4848037,2.4854069,2.4860203,2.486592,2.487131,2.4876535,2.488182,2.4886785,2.4891293,2.489518,2.4898705,2.49015,2.4903712,2.4905767,2.4908113,2.4911366,2.4915612,2.492026,2.4924855,2.4929264,2.4933634,2.4938354,2.4943664,2.494936,2.4955084,2.4960632,2.496561,2.4969926,2.497346,2.4976368,2.4978867,2.498111,2.498285,2.4984002,2.4984825,2.498557,2.4986584,2.4987748,2.4988868,2.499044,2.49928,2.4995646,2.499793,2.4998257,2.4996517,2.4994366,2.4993544,2.499461,2.4996138,2.499652,2.499488,2.4991715,2.4988222,2.4984848,2.4981647,2.497849,2.4975343,2.497273,2.4970665,2.4968677,2.4966617,2.4964797,2.4963465,2.4962542,2.496201,2.4961653,2.4961834,2.4962842,2.496399,2.4964411,2.496369,2.4962254,2.4960983,2.4960253,2.495946,2.495781,2.4955187,2.4951973,2.4948566,2.4945092,2.4941247,2.4936867,2.4932342,2.4927921,2.4923954,2.4921055,2.491949,2.491915,2.4919076,2.4918017,2.49159,2.4913783,2.4913182,2.4914722,2.4917407,2.491985,2.492122,2.4921741,2.492185,2.4921412,2.492026,2.491838,2.4916344,2.491497,2.4914472,2.4914446,2.4914627,2.4914699,2.4914627,2.491428,2.4913168,2.4911306,2.4909546,2.4908605,2.4908094,2.4907432,2.4906216,2.4905012,2.4905243,2.4907188,2.4909952,2.491253,2.4914327,2.4915533,2.491672,2.4917753,2.491814,2.4917867,2.4917073,2.4916039,2.4915233,2.4914746,2.4915113,2.4916747,2.4919672,2.4923177,2.4926448,2.492966,2.4933362,2.493831,2.4944606,2.4951146,2.4957137,2.496214,2.4965777,2.4968143,2.4969072,2.4969006,2.4968977,2.4969976,2.4972029,2.497465,2.497749,2.4980702,2.4985013,2.4989877,2.4993987,2.4996448,2.4997282,2.4997406,2.4997787,2.4999318,2.5001974,2.5005913,2.5010703,2.5015864,2.5020308,2.502357,2.5025063,2.5025744,2.5026195,2.5026436,2.5027242,2.5029087,2.5031452,2.5034065,2.503631,2.503807,2.5040033,2.5042953,2.5046704,2.505072,2.505471,2.5058603,2.506227,2.5066142,2.5069692,2.5072398,2.507461,2.5076504,2.507819,2.507984,2.5081244,2.5081978,2.5082679,2.508257,2.5082326
2.4297438,2.430446,2.4307287,2.430956,2.4311402,2.4312177,2.4312034,2.431004,2.4308367,2.4308863,2.431456,2.4324994,2.433671,2.4346604,2.435107,2.4354506,2.436009,2.4364963,2.436605,2.436284,2.4358158,2.4359145,2.4369388,2.4391701,2.442073,2.4449422,2.4475548,2.4495995,2.4509323,2.4512408,2.450508,2.449055,2.4476118,2.4466724,2.4462466,2.446219,2.4466853,2.4488165,2.4525828,2.4574008,2.4622192,2.4668674,2.4705515,2.472746,2.4729118,2.47143,2.4688396,2.4659152,2.4635754,2.4620814,2.4617224,2.4620295,2.4627848,2.4634328,2.4638062,2.463852,2.463543,2.4631293,2.4628425,2.4626503,2.4624043,2.4619303,2.4613194,2.4609287,2.4608755,2.461061,2.461248,2.4613557,2.4614625,2.461597,2.4617333,2.4618654,2.4620566,2.4623542,2.4627383,2.4631038,2.463389,2.4636135,2.4638588,2.4641876,2.4645362,2.4648108,2.4649558,2.4650464,2.4651744,2.4653616,2.4655228,2.4655688,2.4655526,2.4656339,2.4658966,2.4663043,2.4667928,2.4672747,2.4677677,2.4682243,2.468627,2.4689093,2.4690878,2.4691927,2.4692686,2.4693828,2.4695697,2.4698915,2.4703417,2.4708805,2.471372,2.471763,2.4721215,2.472538,2.4730766,2.4736686,2.4742246,2.474732,2.4752097,2.475691,2.4761462,2.4765553,2.4769073,2.4772382,2.477522,2.4777637,2.4779904,2.478239,2.478568,2.4789896,2.4794426,2.479876,2.4802818,2.4806871,2.4811368,2.4816413,2.4821618,2.4826503,2.4830945,2.4834723,2.483787,2.484034,2.4842281,2.4843915,2.484528,2.4846163,2.4846482,2.4846542,2.484658,2.4846864,2.484727,2.4847722,2.4848793,2.485085,2.4853463,2.485553,2.485568,2.485384,2.4851933,2.4851758,2.4853902,2.4856873,2.4858851,2.4858823,2.485717,2.4855113,2.4853182,2.4851549,2.4850104,2.48487,2.4847708,2.4846926,2.4845781,2.4843984,2.4841757,2.4839597,2.483768,2.483633,2.483544,2.4835248,2.4835896,2.4836626,2.4836597,2.4835343,2.4833236,2.483117,2.4829626,2.4828095,2.482582,2.4822636,2.4818995,2.4815412,2.4812124,2.48088,2.4805174,2.4801593,2.4798253,2.4795518,2.4793901,2.4793515,2.4794116,2.4794655,2.479389,2.4791822,2.4789567,2.4788764,2.4790132,2.4792762,2.4795303,2.4796839,2.479755,2.4797873,2.479778,2.4797053,2.4795556,2.4793658,2.4792051,2.479085,2.478969,2.4788337,2.4786658,2.4784846,2.4782982,2.478066,2.4777937,2.4775708,2.4774647,2.477435,2.4774036,2.4773314,2.4772692,2.4773517,2.477601,2.477918,2.478207,2.4784226,2.4785855,2.4787443,2.478874,2.4789233,2.4788995,2.4788306,2.478743,2.4786677,2.4786108,2.4786272,2.4787657,2.4790287,2.4793353,2.479599,2.4798388,2.4801188,2.4805143,2.4810462,2.4816136,2.4821606,2.4826484,2.4830332,2.483306,2.4834383,2.4834726,2.4835134,2.483653,2.483893,2.484181,2.484497,2.484857,2.4853265,2.485835,2.486244,2.486466,2.4865208,2.486515,2.486546,2.4867086,2.4869897,2.4873939,2.4878626,2.4883375,2.4887185,2.4889786,2.4890847,2.4891424,2.4892077,2.489284,2.4894395,2.4897075,2.4900098,2.490302,2.4905126,2.4906478,2.4907937,2.4910429,2.4913797,2.4917417,2.4921045,2.492464,2.4928093,2.4931743,2.493505,2.4937458,2.4939444,2.494115,2.4942722,2.4944274,2.4945636,2.4946785,2.4948425,2.4949727,2.495109
2.4173307,2.418244,2.4187796,2.4190319,2.4190133,2.418808,2.4186182,2.4183533,2.41819,2.4182649,2.4188247,2.4198394,2.4209776,2.421949,2.422445,2.4229212,2.4234571,2.4238305,2.4242096,2.4243846,2.4245489,2.4251444,2.4265046,2.4285364,2.430625,2.4324064,2.4339528,2.4355145,2.4370246,2.4374986,2.4367976,2.435256,2.4338574,2.4333844,2.433854,2.4350152,2.4366016,2.4396648,2.4440336,2.4489794,2.4534955,2.45715,2.4594512,2.4603238,2.4595947,2.4576235,2.4550767,2.4524639,2.4507153,2.4498496,2.4498792,2.4502802,2.4507747,2.4510539,2.4510736,2.4508696,2.450492,2.4501066,2.4498854,2.449874,2.4498134,2.4494972,2.4490013,2.4486706,2.448649,2.448833,2.4489822,2.4490411,2.4491167,2.449256,2.4494398,2.4496546,2.4499428,2.4503398,2.4508018,2.451211,2.4514964,2.4516735,2.4518447,2.452102,2.4524274,2.4527369,2.452963,2.4531436,2.4533567,2.453619,2.453832,2.453892,2.4538345,2.4538398,2.4540138,2.4543436,2.4547665,2.4552023,2.4556694,2.4561534,2.4566483,2.4570894,2.4574556,2.4577332,2.45794,2.4581273,2.4583454,2.4586449,2.4590354,2.4594693,2.4598227,2.4600534,2.460259,2.4605653,2.4610493,2.4616332,2.462183,2.462665,2.4630978,2.463522,2.4639099,2.46424,2.4645207,2.4648051,2.4650967,2.4653873,2.4656782,2.465992,2.4663703,2.466822,2.4672823,2.4677052,2.4680936,2.4684882,2.4689384,2.4694312,2.4699116,2.4703217,2.4706619,2.470943,2.4711747,2.4713616,2.4715078,2.4716246,2.4717107,2.4717472,2.4717364,2.4717076,2.4716818,2.471674,2.471665,2.4716563,2.4717078,2.471858,2.4720578,2.4721985,2.4721613,2.4719553,2.4717865,2.4718337,2.4721565,2.472599,2.4729726,2.473155,2.4731638,2.4731064,2.473044,2.4730086,2.4729905,2.4729667,2.4729517,2.4729204,2.47282,2.4726222,2.4723544,2.4720783,2.4718251,2.4716492,2.471541,2.471509,2.4715557,2.4715996,2.471559,2.4713879,2.471118,2.470839,2.4706044,2.4703722,2.4700785,2.4697034,2.4692938,2.4689121,2.4685879,2.468297,2.4680047,2.4677324,2.4674864,2.467299,2.4672112,2.4672308,2.4673252,2.4673877,2.4672956,2.4670632,2.4668028,2.4666877,2.4668007,2.4670625,2.4673476,2.4675574,2.4677029,2.467814,2.4678922,2.467909,2.46784,2.4677043,2.4675539,2.4673944,2.467193,2.466928,2.4666069,2.466268,2.4659402,2.4656043,2.4652762,2.4650433,2.4649625,2.4649854,2.4650111,2.4649994,2.4649906,2.4651098,2.4653716,2.465685,2.4659667,2.4661875,2.4663734,2.4665575,2.466701,2.4667497,2.4667153,2.4666343,2.4665318,2.4664342,2.4663453,2.4663243,2.466423,2.4666362,2.466875,2.4670467,2.4671736,2.467329,2.4675922,2.4679952,2.468452,2.4689183,2.469369,2.4697561,2.470049,2.470222,2.4703016,2.4703925,2.4705777,2.4708505,2.4711576,2.4714837,2.471847,2.4723063,2.472793,2.4731765,2.4733772,2.4734206,2.473412,2.473444,2.473614,2.4739022,2.474309,2.4747603,2.4751873,2.4755058,2.4757085,2.4757943,2.4758697,2.4759903,2.4761515,2.4764051,2.476768,2.4771326,2.4774413,2.4776225,2.4777074,2.4778047,2.4780188,2.4783368,2.4786916,2.479069,2.4794583,2.4798536,2.4802573,2.480595,2.4808083,2.4809566,2.481071,2.4811711,2.4812694,2.481358,2.4814863,2.4817252,2.4820015,2.4823103
2.402892,2.40418,2.4051645,2.405902,2.4063456,2.4062984,2.4061313,2.4059918,2.4060004,2.4062753,2.4068902,2.4077835,2.4086745,2.409421,2.40979,2.410213,2.4111269,2.4120684,2.412842,2.4136686,2.4145079,2.4155474,2.4169989,2.418562,2.4197202,2.4204063,2.4211917,2.4223375,2.423657,2.4243937,2.4241111,2.4228005,2.421687,2.421803,2.4232435,2.4256215,2.4282782,2.4320786,2.4366946,2.4413133,2.444952,2.4471698,2.4479713,2.4476285,2.446432,2.444444,2.4421253,2.4399362,2.4386559,2.4383206,2.4386716,2.4390817,2.4392042,2.4390342,2.4387772,2.438488,2.4380693,2.4376745,2.4375224,2.437644,2.4377522,2.437601,2.4372244,2.4369388,2.4369047,2.4370162,2.4370565,2.4370074,2.437006,2.4371226,2.4373412,2.4376373,2.4380274,2.438528,2.4390602,2.4394984,2.4397535,2.4398403,2.4398766,2.4399834,2.4402127,2.4404733,2.4407148,2.440933,2.4411998,2.4415233,2.4417915,2.4418948,2.4418352,2.441804,2.441918,2.4421854,2.4425426,2.4429154,2.4433177,2.4437704,2.4442859,2.4448254,2.4453382,2.445778,2.4461176,2.4463916,2.4466553,2.446954,2.447309,2.4476705,2.447929,2.4480472,2.4481475,2.4483857,2.4488463,2.4494455,2.4500144,2.4505012,2.4509187,2.451319,2.4516644,2.451932,2.4521527,2.4523954,2.452701,2.4530506,2.453424,2.4538164,2.4542487,2.4547257,2.4551878,2.4555979,2.4559755,2.4563792,2.4568522,2.4573627,2.457839,2.4582195,2.4585176,2.4587698,2.4589963,2.4591918,2.459351,2.4594681,2.459537,2.4595494,2.4595137,2.4594684,2.4594293,2.4594033,2.459366,2.4593267,2.4593391,2.4594414,2.4595838,2.4596593,2.4595807,2.4593596,2.459218,2.45932,2.459723,2.460271,2.4607768,2.4611034,2.4612436,2.4612913,2.461309,2.4613445,2.4613974,2.4614363,2.4614563,2.4614363,2.4613285,2.4611259,2.4608505,2.4605708,2.46032,2.4601514,2.4600582,2.4600358,2.4600792,2.4601052,2.46004,2.4598436,2.4595451,2.4592283,2.4589493,2.4586754,2.458355,2.457963,2.45754,2.4571488,2.456825,2.4565535,2.4562979,2.4560676,2.4558556,2.4556875,2.455608,2.4556239,2.455704,2.4557397,2.4556136,2.455347,2.455052,2.4549022,2.4549863,2.455236,2.4555383,2.4557946,2.4560041,2.4561837,2.4563375,2.456436,2.4564476,2.456379,2.456261,2.456092,2.455844,2.4554973,2.4550734,2.4546294,2.4542127,2.4538221,2.453484,2.4532835,2.4532595,2.4533553,2.4534497,2.4534965,2.4535267,2.453651,2.4538789,2.4541357,2.4543607,2.4545412,2.4547095,2.454881,2.455006,2.4550323,2.4549675,2.4548538,2.4547172,2.4545825,2.4544592,2.4544055,2.4544716,2.454641,2.4548216,2.4549143,2.454942,2.454988,2.4551382,2.455432,2.4557989,2.456202,2.4566135,2.456986,2.4572768,2.457461,2.4575617,2.457675,2.4578786,2.4581642,2.458475,2.458792,2.459131,2.459552,2.4600005,2.4603596,2.460556,2.46061,2.4606118,2.4606447,2.4608107,2.4610891,2.461485,2.4619148,2.4623065,2.4625812,2.4627485,2.4628286,2.4629283,2.4630952,2.4633183,2.463632,2.464042,2.4644246,2.4647202,2.464861,2.4649026,2.4649737,2.4651804,2.4655151,2.4659019,2.4663396,2.4668016,2.4672966,2.4677777,2.4681435,2.4683359,2.4684222,2.4684665,2.4685016,2.4685402,2.4685755,2.4687014,2.4689882,2.4693792,2.4698353
2.388444,2.3900478,2.3913321,2.3923056,2.3929613,2.3933558,2.3937924,2.3940997,2.3944101,2.3948293,2.3954515,2.3962078,2.396871,2.3974276,2.3977294,2.3981695,2.399363,2.401296,2.4028866,2.4041443,2.4053562,2.4064305,2.4075537,2.408564,2.4092953,2.4093103,2.4091392,2.409524,2.4106088,2.411697,2.41215,2.4119315,2.41137,2.412187,2.41455,2.4178877,2.4212177,2.425178,2.4293838,2.4330978,2.4353771,2.4360886,2.435812,2.434926,2.433648,2.4319053,2.4300036,2.428265,2.4274087,2.4273753,2.4278498,2.428247,2.4281712,2.4277463,2.4272108,2.4267282,2.4262881,2.4259405,2.4258485,2.4260318,2.426217,2.426158,2.4258492,2.4255576,2.4254413,2.425397,2.4252512,2.4250371,2.4249256,2.4249938,2.4252038,2.4255257,2.4259481,2.426482,2.4270267,2.427442,2.4276266,2.4275913,2.4274707,2.4274035,2.4274833,2.4276419,2.427836,2.4280353,2.428314,2.428665,2.4289815,2.4291437,2.4291348,2.4291382,2.4292784,2.4295697,2.4299388,2.4303074,2.4306753,2.4310818,2.4315617,2.4321032,2.4326563,2.4331617,2.4335637,2.4338832,2.4341776,2.4344935,2.4348626,2.4352293,2.4354856,2.4355893,2.4356718,2.4359088,2.4363918,2.4370353,2.43765,2.438181,2.4386444,2.4390907,2.4394684,2.4397438,2.4399538,2.4401884,2.4405174,2.440919,2.4413576,2.441804,2.4422588,2.4427204,2.4431438,2.4435134,2.443864,2.4442654,2.4447541,2.4452882,2.4457874,2.4461884,2.446508,2.4467974,2.4470782,2.4473343,2.4475434,2.4476871,2.4477549,2.4477468,2.4476843,2.4476106,2.447546,2.4474983,2.4474454,2.4473977,2.4474018,2.4474895,2.447607,2.4476566,2.4475665,2.447361,2.4472501,2.4473844,2.4478168,2.4484034,2.4489627,2.4493554,2.449552,2.4496315,2.4496658,2.4497175,2.4497964,2.4498675,2.4499083,2.4499044,2.4498148,2.4496498,2.4494324,2.4492145,2.4490223,2.448899,2.4488394,2.4488344,2.4488754,2.4488857,2.4488037,2.4485974,2.4482975,2.4479825,2.4477053,2.4474404,2.4471452,2.4467902,2.4463995,2.446024,2.4457006,2.4454236,2.4451656,2.4449286,2.4446971,2.4444957,2.4443793,2.4443612,2.4444098,2.4444165,2.444262,2.4439712,2.4436536,2.4434738,2.4435203,2.4437354,2.4440188,2.4442735,2.4444923,2.4446805,2.4448519,2.444984,2.4450455,2.445035,2.4449635,2.4448152,2.4445648,2.4441965,2.443743,2.4432707,2.4428368,2.4424534,2.4421544,2.4420166,2.442061,2.4422216,2.44237,2.4424586,2.4425046,2.442596,2.4427445,2.4428973,2.4430184,2.4431167,2.443225,2.4433458,2.443429,2.443419,2.4433193,2.4431736,2.4430125,2.4428563,2.442722,2.4426587,2.442715,2.442863,2.4430099,2.4430585,2.443029,2.4430108,2.4430928,2.4433234,2.44364,2.4440084,2.4443932,2.4447403,2.4450045,2.4451628,2.4452453,2.445341,2.4455295,2.4458027,2.4461055,2.4464078,2.4467173,2.4470944,2.447506,2.4478521,2.448064,2.4481444,2.448165,2.4481955,2.4483438,2.448598,2.4489722,2.4493868,2.4497683,2.4500358,2.4501984,2.450281,2.450385,2.4505537,2.45077,2.4510593,2.4514284,2.451761,2.452008,2.4521081,2.4521272,2.452198,2.4524257,2.4527974,2.4532351,2.453743,2.4542928,2.4548984,2.4554777,2.4558978,2.4560895,2.4561365,2.4561384,2.4561434,2.4561543,2.4561582,2.4562669,2.4565582,2.456995,2.4575253
2.374334,2.3763442,2.3780656,2.3794975,2.3805313,2.381168,2.381682,2.3821852,2.3828428,2.3838205,2.3848364,2.385674,2.3863316,2.3867893,2.387093,2.3876457,2.3890424,2.391357,2.393928,2.395853,2.3970883,2.3977025,2.3980527,2.398332,2.3984041,2.3981962,2.3978896,2.398018,2.3990183,2.4003866,2.4014409,2.4021082,2.4028912,2.4044707,2.4076385,2.411613,2.4151525,2.4186816,2.421887,2.4242303,2.4250982,2.4245617,2.4235172,2.4224074,2.421475,2.4203625,2.4190786,2.417799,2.4171758,2.4172866,2.4178047,2.4181209,2.4178243,2.4171453,2.4164329,2.4159098,2.4155636,2.4153192,2.4152737,2.4154356,2.4155774,2.4154983,2.4151642,2.414789,2.4145098,2.4142256,2.413827,2.4134107,2.4131682,2.4131634,2.413313,2.4135828,2.4139478,2.4144318,2.414927,2.415274,2.4153662,2.415214,2.414957,2.4147387,2.4146628,2.4146876,2.4147794,2.41491,2.4151607,2.4155064,2.415853,2.4160743,2.4161487,2.4162455,2.4164784,2.4168587,2.4172988,2.417713,2.4180875,2.41846,2.4188762,2.4193609,2.4198768,2.420374,2.420782,2.421112,2.4214156,2.421754,2.4221654,2.4225855,2.4228978,2.423048,2.4231687,2.4234414,2.4239655,2.4246593,2.425333,2.4259377,2.4264956,2.4270487,2.4275253,2.4278722,2.428113,2.4283516,2.428687,2.4291086,2.4295766,2.4300418,2.4304838,2.4309,2.4312603,2.4315705,2.431881,2.4322634,2.4327512,2.4332986,2.433824,2.4342647,2.4346373,2.4349916,2.4353502,2.43568,2.4359498,2.4361212,2.4361854,2.4361458,2.4360363,2.4359083,2.435798,2.4357195,2.4356568,2.4356203,2.4356437,2.4357514,2.4358835,2.4359498,2.435887,2.435724,2.4356527,2.435806,2.4362319,2.4368005,2.4373524,2.4377482,2.4379466,2.4380202,2.4380412,2.438086,2.4381685,2.4382548,2.4383178,2.4383473,2.438315,2.4382377,2.438126,2.438013,2.4379103,2.4378486,2.4378262,2.4378319,2.4378607,2.4378476,2.4377441,2.437533,2.4372466,2.4369555,2.4367113,2.4364946,2.436264,2.4359882,2.4356618,2.435323,2.4350066,2.4347208,2.4344482,2.4341888,2.4339185,2.43367,2.433507,2.4334497,2.4334693,2.4334574,2.4332948,2.4330063,2.4326897,2.4324927,2.4325042,2.432672,2.432909,2.4331226,2.4332976,2.433435,2.4335585,2.433664,2.4337282,2.4337444,2.4337049,2.433579,2.4333448,2.43299,2.432554,2.4321055,2.431707,2.4313757,2.4311476,2.431086,2.4311967,2.431408,2.43159,2.4316912,2.4317214,2.4317472,2.4317846,2.4318018,2.4317956,2.431787,2.4318118,2.4318635,2.4318943,2.43185,2.4317336,2.431581,2.4314265,2.4312863,2.4311726,2.4311285,2.4311936,2.4313393,2.4314775,2.4315157,2.4314735,2.4314418,2.4315076,2.4317236,2.4320354,2.432406,2.4327857,2.43311,2.433336,2.4334452,2.4334822,2.433531,2.433673,2.4339046,2.4341695,2.4344323,2.4346945,2.43502,2.4354007,2.4357505,2.435999,2.4361253,2.4361715,2.436203,2.4363213,2.436533,2.4368691,2.4372656,2.4376519,2.4379342,2.4381106,2.4381924,2.4382768,2.4384012,2.4385462,2.43874,2.4390001,2.4392414,2.439431,2.43952,2.4395614,2.439679,2.4399633,2.4404001,2.4409025,2.441472,2.4420862,2.442768,2.443418,2.44388,2.4440775,2.4441025,2.4440904,2.4441078,2.4441385,2.444151,2.4442477,2.4445138,2.4449325,2.4454632
2.3606334,2.3630311,2.3651938,2.3671784,2.3687744,2.369907,2.3707569,2.371455,2.3722124,2.3732553,2.3743458,2.375324,2.3761237,2.3768528,2.3776083,2.378694,2.3803668,2.3828168,2.3855796,2.3876162,2.3881512,2.387864,2.3874083,2.387375,2.3876379,2.3878505,2.3878798,2.3880496,2.3890383,2.3905988,2.3922067,2.39371,2.3955812,2.3983345,2.4020848,2.4063158,2.4096208,2.4122581,2.414083,2.4148722,2.4143555,2.4128537,2.4115086,2.4106412,2.4104414,2.410257,2.4097447,2.4089346,2.4083755,2.408372,2.4087157,2.408841,2.4083872,2.4075966,2.4068668,2.4064384,2.4062839,2.4061913,2.4061868,2.4062576,2.4062386,2.406014,2.405539,2.4049835,2.4044585,2.4038687,2.4031696,2.4025269,2.402143,2.4020445,2.4020724,2.402205,2.4024158,2.4027677,2.4031582,2.4034007,2.4033914,2.4031324,2.4027724,2.4024467,2.4022348,2.4021208,2.4020824,2.4021146,2.402316,2.4026432,2.4030075,2.4032795,2.403443,2.4036489,2.4039917,2.404467,2.4049804,2.4054532,2.4058638,2.4062347,2.4066133,2.4070497,2.4075346,2.4080248,2.40844,2.4087715,2.4090652,2.4094,2.4098272,2.410276,2.4106236,2.4108043,2.410942,2.4112232,2.4117625,2.4124851,2.4132168,2.41391,2.414588,2.4152818,2.4158885,2.4163327,2.4166117,2.4168377,2.4171371,2.4175277,2.4179866,2.4184513,2.4188795,2.4192595,2.419574,2.4198475,2.4201317,2.4204938,2.4209642,2.4215024,2.4220343,2.4225016,2.4229145,2.4233143,2.4237273,2.4241097,2.424418,2.4246004,2.424646,2.42456,2.4243865,2.4241922,2.424028,2.423922,2.4238672,2.4238658,2.4239364,2.4240913,2.4242623,2.4243665,2.4243484,2.4242349,2.424199,2.4243598,2.4247613,2.4252882,2.425803,2.426176,2.4263668,2.4264412,2.426466,2.426515,2.426606,2.4267073,2.4267955,2.426873,2.426918,2.4269428,2.426948,2.4269428,2.4269285,2.42692,2.4269204,2.426917,2.426911,2.4268503,2.4267058,2.4264736,2.4261897,2.4259171,2.4257047,2.425537,2.4253793,2.4251878,2.42494,2.4246554,2.4243755,2.4241195,2.4238749,2.4236367,2.4233747,2.4231234,2.4229548,2.4228919,2.4229114,2.42291,2.4227703,2.422515,2.4222279,2.4220407,2.4220304,2.4221554,2.4223366,2.4224896,2.422593,2.4226434,2.4226766,2.4227078,2.4227278,2.42273,2.42269,2.422566,2.4223385,2.422,2.4215913,2.4211862,2.4208384,2.4205713,2.420413,2.4204218,2.420576,2.420805,2.420982,2.4210563,2.4210322,2.4209628,2.4208677,2.4207401,2.4206057,2.4204967,2.4204526,2.420455,2.4204621,2.4204202,2.4203315,2.4202235,2.4201288,2.4200523,2.4199982,2.4199977,2.4200807,2.4202275,2.420361,2.4204059,2.4203773,2.4203625,2.4204464,2.4206834,2.4210181,2.4214096,2.4217954,2.4220948,2.4222739,2.4223204,2.422295,2.422283,2.422359,2.4225209,2.4227128,2.422893,2.4230745,2.4233298,2.4236813,2.424047,2.4243455,2.424529,2.4246042,2.4246306,2.424705,2.4248517,2.4251287,2.4254913,2.4258823,2.4261909,2.42639,2.4264684,2.426518,2.4265776,2.4266262,2.426699,2.4268289,2.4269757,2.4271328,2.4272625,2.427388,2.4276018,2.4279816,2.428502,2.4290724,2.4296796,2.4303088,2.4309986,2.431663,2.4321415,2.4323463,2.4323678,2.4323688,2.4324393,2.432541,2.4326098,2.4327164,2.432949,2.433312,2.4337833
