6.9788394,6.9787703,6.979865,6.9823866,6.985721,6.9884586,6.990764,6.9929852,6.995464,6.998091,7.0007973,7.003225,7.0045652,7.005019,7.0047054,7.004014,7.0031853,7.0024996,7.001876,7.000799,6.9992466,6.998132,6.9976654,6.9983454,6.9999723,7.001949,7.003836,7.0053635,7.006753,7.00824,7.0089674,7.008667,7.007432,7.0054502,7.0032463,7.001034,6.998967,6.9963627,6.9954257,6.99601,6.996331,6.9967546,6.9966335,6.996916,6.9972205,6.997606,6.9980993,6.998966,7.000391,7.0011783,7.0014524,7.000659,6.9987135,6.995441,6.9908705,6.985502,6.9799986,6.97478,6.97031,6.966773,6.9640236,6.9619474,6.960271,6.958354,6.9562006,6.9537983,6.951586,6.9484024,6.943454,6.9369965,6.9294367,6.9214907,6.912833,6.903982,6.8949175,6.885798,6.877293,6.870313,6.8656945,6.8617287,6.8582034,6.8547993,6.851715,6.8490067,6.846445,6.8443832,6.8423853,6.8407655,6.839438,6.838059,6.836649,6.8355937,6.8350344,6.834997,6.835458,6.8366385,6.8382854,6.840119,6.8421497,6.844451,6.8468738,6.849677,6.8527713,6.8562474,6.859987,6.8637223,6.867345,6.8707933,6.8743668,6.8776655,6.8803234,6.8821697,6.8827415,6.8820896,6.8819985,6.8824644,6.8840165,6.8862686,6.888944,6.8917236,6.8943715,6.8971486,6.8999376,6.902419,6.90438,6.9053545,6.905096,6.904056,6.9030256,6.902247,6.902046,6.9018173,6.9016476,6.901499,6.9011645,6.900695,6.9000006,6.899275,6.898555,6.8980846,6.8979187,6.8978257,6.8975143,6.8968716,6.8958673,6.8945746,6.8931313,6.891672,6.8901954,6.888607,6.886903,6.885316,6.8838663,6.882704,6.881696,6.8807235,6.879793,6.8788924,6.878029,6.877177,6.876194,6.875041,6.8738394,6.8727784,6.871933,6.8713574,6.8709316,6.8705406,6.869961,6.869367,6.869083,6.869211,6.869808,6.8708014,6.8717017,6.872113,6.8717184,6.870529,6.8689394,6.8673363,6.865914,6.8647985,6.8638916,6.863263,6.8630095,6.8631067,6.863513,6.8642216,6.865072,6.8657947,6.86615,6.8660736,6.8656125,6.864866,6.8639555,6.8629546,6.8619704,6.861167,6.8606772,6.860536,6.8607006,6.8610983,6.861519,6.8618345,6.861781,6.861116,6.85991,6.858486,6.857086,6.855891,6.85501,6.8545265,6.8544297,6.8546653,6.855218,6.8561115,6.8572826,6.8588457,6.860718,6.8628044,6.864935,6.8669243,6.868673,6.8701706,6.871358,6.87232,6.873214,6.8741536,6.8751917,6.876253,6.8771787,6.8779216,6.8784485,6.8788505,6.879219,6.87959,6.879937,6.880204,6.8803506,6.8802867,6.8799157,6.879163,6.877975,6.876488,6.875103,6.87408,6.8738265,6.8748426,6.876918,6.8793535,6.8815303,6.883235,6.8844757,6.885543,6.8865447,6.887507,6.8882647,6.8886724,6.888837,6.888932,6.8890715,6.8893504,6.889806,6.8904085,6.8911257,6.8918743,6.8925085,6.893252,6.8941345,6.895139,6.896251,6.8973846,6.89844,6.8994384,6.9004884,6.9018183,6.903162,6.904042,6.9041586,6.9033403,6.9015913,6.8995514,6.897829,6.8968153,6.8968487,6.897697,6.8989134,6.9002414,6.901554,6.9031243,6.9050717,6.9073396,6.909779,6.911965,6.9135485,6.9148493,6.915967,6.917037,6.918095,6.9191494,6.920282,6.9214697,6.922532,6.9237266,6.9250603,6.926365,6.927499,6.9283333,6.928878
6.962453,6.963492,6.9656467,6.9687796,6.97227,6.9752374,6.977719,6.98012,6.9826493,6.985216,6.9877834,6.9900017,6.9910927,6.9912386,6.9905705,6.9894886,6.98829,6.987259,6.9863,6.984918,6.983116,6.981885,6.9815006,6.982565,6.9848504,6.987621,6.990308,6.992564,6.9945946,6.996711,6.997984,6.998106,6.997283,6.995842,6.9942703,6.992655,6.9911366,6.988962,6.9884253,6.9893346,6.9898424,6.9904127,6.990245,6.9903755,6.9904027,6.990456,6.9906473,6.991254,6.9924526,6.9931355,6.9934063,6.9926786,6.990814,6.9876575,6.9832816,6.9782057,6.9731345,6.968581,6.9646783,6.961486,6.958771,6.9565015,6.9545517,6.952284,6.949728,6.946875,6.9441905,6.940435,6.934722,6.92731,6.918691,6.909676,6.900059,6.890381,6.880792,6.871448,6.862898,6.8557124,6.849742,6.8444767,6.839525,6.8344054,6.8297462,6.825779,6.8219914,6.8190627,6.816728,6.8148475,6.8132095,6.8113728,6.809373,6.8076878,6.806492,6.8058777,6.805878,6.806655,6.8079495,6.8094287,6.8110604,6.81299,6.8151665,6.8177776,6.8207703,6.824251,6.828108,6.8320494,6.8359265,6.8396735,6.843568,6.8472533,6.8504677,6.8529816,6.854212,6.854146,6.8544564,6.855259,6.857089,6.859524,6.8622227,6.8648443,6.867194,6.869557,6.8719015,6.873923,6.875409,6.8760357,6.875698,6.8748035,6.873961,6.8733273,6.873188,6.8728065,6.872401,6.8720474,6.8715496,6.8709564,6.870167,6.8693323,6.8684716,6.8678336,6.867496,6.867256,6.866844,6.866131,6.865056,6.863633,6.861953,6.8602324,6.858548,6.8568025,6.8549967,6.8533635,6.851924,6.8508544,6.850034,6.8493104,6.8486476,6.848008,6.847376,6.8467197,6.8459005,6.8448753,6.843773,6.84278,6.8419666,6.841405,6.8410025,6.840659,6.8401914,6.8397617,6.839642,6.8399115,6.8405924,6.841612,6.8425393,6.843007,6.8426876,6.841567,6.840019,6.838424,6.8370166,6.8359528,6.8350716,6.8343983,6.8340054,6.833887,6.8340583,6.834573,6.8352323,6.8357964,6.836031,6.835848,6.835305,6.834534,6.8336654,6.8327866,6.832016,6.831482,6.831273,6.831394,6.8317776,6.832346,6.8329296,6.833425,6.8335986,6.833246,6.832417,6.8313704,6.830313,6.8293886,6.828708,6.8283415,6.8282995,6.8285446,6.8290615,6.8298707,6.8309193,6.832291,6.8338995,6.835651,6.837389,6.8389626,6.84031,6.84144,6.842297,6.84296,6.843587,6.8442903,6.8451176,6.8459997,6.8467965,6.8474455,6.8478923,6.848208,6.848475,6.848748,6.849029,6.8492703,6.849432,6.8494344,6.8491783,6.8486166,6.8477607,6.8467355,6.8457856,6.8451457,6.8452196,6.8464155,6.8485146,6.8508134,6.852765,6.8543186,6.855464,6.8564386,6.857316,6.858119,6.8587265,6.8590355,6.8591347,6.859156,6.859172,6.8592873,6.859516,6.8598094,6.8601093,6.8603964,6.860721,6.8611326,6.861669,6.8623066,6.863048,6.863847,6.8646226,6.8654013,6.8662887,6.867476,6.868702,6.869477,6.8694983,6.8686438,6.867017,6.8653436,6.8639517,6.8631697,6.863317,6.8642197,6.8654947,6.8668933,6.8682914,6.869895,6.8718176,6.8740115,6.8763437,6.8784842,6.8801303,6.8814316,6.882465,6.8834696,6.884429,6.8852873,6.8861012,6.88694,6.8877983,6.8888216,6.8899946,6.8911543,6.892148,6.8928356,6.893222
6.948759,6.9497223,6.951965,6.9553123,6.959038,6.9621153,6.9646993,6.9671254,6.9695168,6.971854,6.9741626,6.9761024,6.976928,6.9767833,6.975795,6.9743586,6.9728265,6.971485,6.9702263,6.96859,6.966587,6.965305,6.965102,6.9666343,6.969586,6.973085,6.976486,6.9794164,6.9820766,6.984402,6.9856806,6.9857645,6.984993,6.983804,6.982606,6.9813724,6.9801416,6.978193,6.9778957,6.97902,6.979685,6.9804106,6.980278,6.980386,6.980286,6.9801364,6.980102,6.9804883,6.9815135,6.9822044,6.982622,6.982209,6.9808187,6.97835,6.974799,6.9705005,6.9661975,6.962517,6.959355,6.956637,6.9540343,6.9515233,6.9490786,6.9461956,6.942977,6.9394026,6.9360623,6.9316483,6.9251633,6.9168606,6.907308,6.897298,6.886821,6.8764505,6.866408,6.8568535,6.848276,6.8411703,6.8353133,6.829978,6.824802,6.819294,6.813202,6.8068295,6.800928,6.7963305,6.7934,6.790965,6.788755,6.7863426,6.783736,6.7813935,6.7795367,6.7783175,6.7778263,6.7781653,6.779082,6.780187,6.781387,6.7828884,6.784671,6.786859,6.789604,6.792983,6.7968283,6.8008432,6.8048697,6.8088574,6.8130546,6.817172,6.8209453,6.8241944,6.826241,6.8268547,6.827697,6.828915,6.8310113,6.833574,6.8362303,6.838637,6.8406334,6.842514,6.8443155,6.8457828,6.846735,6.846902,6.846172,6.8449388,6.8438563,6.8430405,6.842704,6.8424253,6.8421464,6.84179,6.8412604,6.840631,6.83984,6.8389964,6.8380966,6.8373823,6.8369164,6.836536,6.8360405,6.8353133,6.83429,6.832857,6.8309765,6.828981,6.827081,6.825173,6.823259,6.8215427,6.8200564,6.8189926,6.8182535,6.817685,6.8172183,6.8167696,6.8163214,6.8158326,6.8151784,6.8143196,6.8133616,6.8124723,6.8117046,6.8111563,6.8107433,6.810401,6.8100057,6.8097,6.809701,6.8100424,6.810685,6.8115277,6.81234,6.8128276,6.81267,6.8118124,6.81052,6.80906,6.807702,6.806677,6.805791,6.8050423,6.804486,6.804117,6.804,6.804223,6.8045683,6.804845,6.8048596,6.8045363,6.8039327,6.8031926,6.802438,6.8017573,6.801279,6.8010845,6.80121,6.801611,6.8021793,6.802849,6.8035035,6.804069,6.8043966,6.8043594,6.803997,6.8034763,6.8029237,6.8024273,6.8020754,6.8019233,6.801998,6.802293,6.802799,6.80351,6.804406,6.805539,6.8068256,6.8081703,6.8094435,6.8105316,6.811413,6.8121376,6.8126636,6.8130503,6.813405,6.8138127,6.8143196,6.814888,6.81543,6.815898,6.8162365,6.8164697,6.816638,6.8167906,6.8169513,6.817106,6.817206,6.8171983,6.8169966,6.8165455,6.8158374,6.815029,6.814437,6.814227,6.8146076,6.8158727,6.8178067,6.81999,6.822005,6.8235564,6.824671,6.8256106,6.8264623,6.827293,6.828024,6.828541,6.8288784,6.82915,6.829364,6.8296175,6.829884,6.8300776,6.8301506,6.8301024,6.8299866,6.829912,6.829917,6.830038,6.830323,6.830742,6.8312254,6.831793,6.832517,6.833561,6.8346653,6.8353467,6.8353267,6.8344965,6.8329434,6.8313417,6.8300447,6.8293724,6.8296604,6.8307347,6.832182,6.833724,6.8352284,6.836889,6.838846,6.8411036,6.843544,6.8457956,6.847508,6.848825,6.849806,6.8506813,6.851453,6.85209,6.8526745,6.8532863,6.8539276,6.854766,6.8557763,6.8568087,6.8577075,6.8583207,6.8586435
6.9345345,6.935585,6.937916,6.941314,6.9450397,6.9480762,6.950627,6.9529476,6.9550943,6.9571576,6.9592123,6.960913,6.96157,6.9612846,6.9601336,6.958492,6.956749,6.9552126,6.953807,6.952111,6.9500685,6.9488983,6.949091,6.9512806,6.9550037,6.9592633,6.9633904,6.9670415,6.970652,6.97121,6.9697156,6.9671984,6.9641104,6.9607587,6.9574385,6.9541926,6.9509172,6.9472303,6.9456697,6.9461317,6.9467726,6.9479804,6.9488444,6.950422,6.952054,6.9536223,6.9551215,6.956868,6.959198,6.9612265,6.9630904,6.9645457,6.965532,6.966161,6.965707,6.963269,6.959767,6.95721,6.955008,6.9528885,6.9503393,6.947287,6.943882,6.9398756,6.9354625,6.9306645,6.9263926,6.9212055,6.9139256,6.9047966,6.8944016,6.883499,6.8722353,6.861378,6.85118,6.8416934,6.8332005,6.8260093,6.819905,6.81412,6.808483,6.8025904,6.7962184,6.789712,6.783713,6.7785783,6.773772,6.7692056,6.7653966,6.7622075,6.759189,6.756261,6.753748,6.7519236,6.7509,6.7507544,6.7512627,6.751994,6.7527933,6.753909,6.755329,6.7571173,6.759495,6.762538,6.7661595,6.7701406,6.774268,6.778426,6.7828827,6.7874007,6.791729,6.7956433,6.7983894,6.799635,6.800928,6.802455,6.8046865,6.807245,6.8097496,6.811891,6.813598,6.815195,6.8166504,6.81775,6.818325,6.818164,6.817162,6.815695,6.8144684,6.8135667,6.813182,6.812843,6.812452,6.8119555,6.811299,6.8105645,6.8097258,6.8088346,6.8078575,6.8070517,6.8064766,6.8059807,6.805378,6.804514,6.8033195,6.801715,6.799823,6.797861,6.795924,6.7939744,6.792029,6.7902784,6.788719,6.7875624,6.786765,6.786209,6.785817,6.78548,6.785179,6.78486,6.784424,6.7838244,6.7831173,6.782401,6.7816906,6.7810965,6.780565,6.780071,6.779568,6.7791786,6.7790546,6.779239,6.7797923,6.7806735,6.78154,6.782091,6.7820053,6.7811975,6.7799497,6.778612,6.777359,6.776305,6.775276,6.774328,6.7735806,6.7730556,6.7727995,6.7729263,6.7731733,6.77337,6.773306,6.7729034,6.7722445,6.7714987,6.770774,6.7701907,6.7698636,6.7698526,6.7701535,6.770708,6.7714133,6.772183,6.7729645,6.773714,6.774294,6.774585,6.7745843,6.7743907,6.774112,6.7738314,6.7736673,6.7736793,6.7739058,6.7743464,6.774974,6.7757516,6.776655,6.777695,6.7788043,6.7799187,6.7809343,6.7817793,6.782462,6.7830095,6.7833767,6.7836094,6.7838073,6.7840652,6.784441,6.7848806,6.7853274,6.785718,6.7859783,6.7861185,6.786162,6.786144,6.786102,6.7860518,6.785969,6.7858086,6.7855196,6.785059,6.784421,6.783753,6.783324,6.783282,6.7838597,6.7852983,6.7873864,6.789701,6.791813,6.79344,6.7945933,6.79554,6.7963743,6.797205,6.798008,6.7986917,6.799264,6.799791,6.8002477,6.800692,6.801051,6.801194,6.80107,6.8007097,6.800189,6.799676,6.7992187,6.798915,6.7988596,6.799041,6.799377,6.7998447,6.8004737,6.801407,6.8023634,6.8029075,6.8028,6.801953,6.8004746,6.7989902,6.7978296,6.797313,6.7977686,6.7990246,6.800661,6.8023686,6.8039985,6.8057146,6.807684,6.809962,6.812447,6.8147583,6.8165264,6.8178525,6.818781,6.8195295,6.8201256,6.820554,6.820917,6.821318,6.8217745,6.822468,6.8233795,6.8243465,6.8252234,6.8258386,6.8261623
6.916012,6.9169683,6.9192553,6.9226017,6.926272,6.929303,6.9319096,6.9342356,6.9362392,6.938222,6.9403553,6.9423537,6.943744,6.9445987,6.944598,6.944069,6.9434285,6.9431753,6.942175,6.938939,6.936037,6.9340105,6.932668,6.932283,6.932694,6.9334016,6.9340158,6.9344034,6.9345493,6.93384,6.9322357,6.9297795,6.926775,6.9236474,6.920618,6.917675,6.914677,6.911269,6.9099903,6.910695,6.9115343,6.91294,6.913955,6.915686,6.9173584,6.9188313,6.9201665,6.9217644,6.9240265,6.92611,6.9281425,6.929895,6.9313087,6.932393,6.932932,6.9326496,6.9317527,6.9312177,6.930849,6.9305973,6.9301605,6.929506,6.928776,6.9277906,6.9267583,6.9266853,6.9223013,6.9144583,6.9049015,6.8936043,6.881439,6.8695498,6.8573933,6.845852,6.835259,6.825593,6.816969,6.8095984,6.8032537,6.796937,6.790818,6.784486,6.777704,6.7708807,6.764684,6.759409,6.75434,6.749543,6.7447634,6.739479,6.7341146,6.7298436,6.7270555,6.724758,6.7232056,6.7225327,6.7225695,6.7228584,6.723192,6.7238407,6.7248173,6.7261124,6.7280235,6.730639,6.733926,6.7377267,6.7418127,6.7460527,6.750656,6.755445,6.7601686,6.7645516,6.7678423,6.769695,6.77145,6.7731028,6.7752767,6.7776546,6.7798605,6.7816353,6.7829823,6.784196,6.785246,6.785949,6.786132,6.78566,6.784437,6.782812,6.7815228,6.7806025,6.780217,6.7798786,6.7794466,6.7788734,6.7781286,6.777308,6.7764163,6.775473,6.774438,6.77354,6.772823,6.77216,6.771411,6.770406,6.769076,6.767294,6.765237,6.763136,6.7610903,6.7590666,6.757082,6.7552958,6.7536902,6.752502,6.7517157,6.7512283,6.7509503,6.7507586,6.7506156,6.750476,6.750251,6.7498856,6.7494087,6.7488856,6.748334,6.747837,6.747378,6.7469516,6.746541,6.7462463,6.7461734,6.7463484,6.7468357,6.7476234,6.748373,6.7488127,6.7486453,6.747771,6.746456,6.7450905,6.743805,6.742728,6.7416706,6.7406845,6.7398753,6.7392597,6.7388964,6.738921,6.739045,6.7391124,6.7389107,6.738367,6.737594,6.7367744,6.736022,6.735462,6.7351894,6.735261,6.7356553,6.7362885,6.7370625,6.7378964,6.7387676,6.739664,6.7404466,6.741001,6.741296,6.7413683,6.741294,6.7411704,6.741124,6.74124,6.7415814,6.7421546,6.742911,6.7437897,6.7447467,6.745775,6.746824,6.74783,6.748719,6.749465,6.7500987,6.7506027,6.750942,6.7511587,6.751321,6.7515306,6.75185,6.752217,6.7526016,6.752944,6.7531543,6.7532635,6.753266,6.75316,6.752985,6.7527885,6.7525578,6.752276,6.7519236,6.7514477,6.750841,6.750249,6.749906,6.749945,6.750584,6.7520456,6.754123,6.756422,6.7585354,6.7601757,6.761365,6.7623386,6.7631702,6.764017,6.76493,6.7658377,6.766712,6.76758,6.7683654,6.769082,6.7696123,6.769787,6.7695427,6.7689314,6.7680464,6.7671123,6.7662015,6.7654867,6.765109,6.7650566,6.7652183,6.7655354,6.766006,6.7667317,6.7674723,6.7678685,6.76769,6.7668524,6.7655044,6.7641907,6.7632275,6.762908,6.7635484,6.7649703,6.7667437,6.768544,6.770211,6.7718687,6.7737117,6.7758574,6.7782316,6.78045,6.7821455,6.7833824,6.784177,6.784746,6.785157,6.7854285,6.785656,6.7859325,6.786293,6.7869043,6.7877407,6.7886477,6.78949,6.790077,6.7903647
6.8918066,6.892603,6.894879,6.898284,6.902059,6.9053364,6.9083576,6.911756,6.914722,6.9178047,6.9216847,6.9253855,6.9266872,6.9245415,6.921466,6.917861,6.914133,6.9107285,6.907362,6.9035163,6.9005203,6.8983927,6.896847,6.895952,6.895536,6.895246,6.8948517,6.894332,6.893469,6.892687,6.891488,6.8894844,6.8869615,6.8844395,6.882066,6.879801,6.8774476,6.874613,6.8737564,6.8746667,6.8755116,6.87681,6.8775816,6.878951,6.880205,6.8812127,6.8821073,6.88337,6.8854136,6.8874197,6.8894653,6.891294,6.8928494,6.8941007,6.8950377,6.8956294,6.895795,6.896082,6.8964076,6.8968096,6.8970957,6.897052,6.8967133,6.8963027,6.896043,6.8965373,6.895444,6.89284,6.8893995,6.884322,6.8757,6.8607993,6.8459883,6.8321276,6.8195934,6.808824,6.7998056,6.791852,6.784829,6.7778716,6.771198,6.7644625,6.7573977,6.7503557,6.743992,6.738575,6.733379,6.728401,6.7231264,6.716973,6.710355,6.704325,6.699366,6.6957006,6.6937556,6.6929693,6.692723,6.6925187,6.692257,6.692277,6.692629,6.6932774,6.6945734,6.6966314,6.69946,6.7029505,6.7068825,6.71107,6.7156463,6.720475,6.7253065,6.72985,6.73337,6.735483,6.737359,6.7391005,6.7410946,6.7430615,6.744773,6.7460995,6.7470713,6.747951,6.748665,6.749063,6.748954,6.748274,6.746953,6.7453094,6.7440834,6.7432775,6.743005,6.7427716,6.7424016,6.7418323,6.741046,6.740156,6.7392187,6.738217,6.737115,6.736126,6.735271,6.7344537,6.7335873,6.7324915,6.7311134,6.72924,6.7270775,6.7248955,6.7228217,6.720832,6.7189016,6.7171736,6.7156277,6.714489,6.7137804,6.713416,6.7132883,6.7132683,6.7133193,6.7133927,6.713407,6.713299,6.713072,6.7127714,6.712406,6.7120647,6.711745,6.711461,6.7112036,6.7110376,6.711025,6.7111797,6.711554,6.712146,6.7126603,6.7128615,6.7125025,6.7114573,6.7099533,6.708443,6.707051,6.7059183,6.7048817,6.703958,6.703201,6.7025843,6.7021494,6.7020183,6.701942,6.7017927,6.701394,6.700672,6.6997333,6.698786,6.697954,6.697353,6.697073,6.6971574,6.6975775,6.698245,6.6990614,6.6999397,6.7008824,6.701887,6.7028093,6.703533,6.7040067,6.704227,6.704251,6.7041817,6.70416,6.7043147,6.7047234,6.7054005,6.706294,6.707311,6.708392,6.7095175,6.710641,6.7116995,6.7126493,6.71349,6.714246,6.7148786,6.715372,6.715727,6.7159986,6.716287,6.7166433,6.716999,6.7173514,6.7176714,6.7178674,6.7179976,6.718036,6.7179265,6.7176795,6.7173796,6.717017,6.716611,6.7161517,6.715606,6.7149715,6.714357,6.713951,6.7138844,6.714371,6.7156105,6.7174335,6.719512,6.7214947,6.7230954,6.724291,6.725292,6.726148,6.7270494,6.7281003,6.7292633,6.7304935,6.731759,6.7329483,6.7340555,6.7348957,6.735269,6.735096,6.7344127,6.73333,6.7321444,6.7309422,6.7299905,6.7294607,6.7293224,6.7294188,6.7296424,6.7299614,6.7304645,6.7309465,6.731132,6.7308664,6.730107,6.728984,6.7279058,6.7271934,6.7271256,6.7279806,6.7295604,6.7314277,6.7332425,6.7348495,6.7363124,6.737878,6.739726,6.7417927,6.743719,6.7451687,6.746172,6.746726,6.7470655,6.747301,6.74748,6.7476845,6.7479687,6.748337,6.748941,6.7497425,6.750598,6.7513866,6.7519135,6.7521257
6.864154,6.8651943,6.8683696,6.873461,6.8793716,6.8849916,6.8903303,6.892441,6.8933616,6.894359,6.8958273,6.896997,6.8960648,6.892142,6.887248,6.8817954,6.8761597,6.8707523,6.866129,6.862656,6.8602157,6.858694,6.857946,6.857889,6.85818,6.85845,6.858562,6.8585396,6.8581753,6.857735,6.856776,6.8549967,6.852784,6.850728,6.848872,6.8467636,6.8445253,6.841831,6.8410697,6.8419623,6.842686,6.8437834,6.844337,6.845412,6.846096,6.846417,6.8467093,6.847517,6.849256,6.85114,6.8531895,6.855147,6.856952,6.8585567,6.8598733,6.860751,6.861056,6.8614774,6.861801,6.8620763,6.86206,6.8614855,6.8604584,6.8593707,6.858505,6.8578434,6.858645,6.859919,6.860662,6.8600664,6.8561225,6.8462644,6.8361397,6.8262196,6.8170805,6.806408,6.7939835,6.7833714,6.7736926,6.7642646,6.7557592,6.7479177,6.740101,6.7323437,6.725274,6.719115,6.7131357,6.7072687,6.7012377,6.6946077,6.6874933,6.680466,6.6739697,6.6688023,6.665308,6.6628537,6.661637,6.661127,6.6605005,6.660077,6.6598873,6.6599693,6.6605773,6.6619406,6.6641803,6.6672316,6.6708765,6.6748595,6.6792207,6.683848,6.688487,6.692877,6.696314,6.69837,6.7000923,6.7016597,6.703333,6.7048116,6.705923,6.706688,6.707265,6.7078867,6.708378,6.7086043,6.708355,6.707602,6.7063046,6.7047577,6.703678,6.703052,6.70296,6.7029037,6.702675,6.7021904,6.70144,6.7005534,6.699621,6.6986117,6.6974864,6.6964455,6.695512,6.6946154,6.6937037,6.692614,6.6912646,6.6893992,6.687234,6.685058,6.683034,6.6811585,6.679368,6.677781,6.676368,6.675339,6.6747446,6.6745133,6.6745367,6.6746907,6.6749506,6.675253,6.6755276,6.6756964,6.675728,6.6756525,6.6754713,6.6752896,6.6751146,6.674986,6.674901,6.674885,6.674946,6.675071,6.675291,6.675609,6.6757846,6.67562,6.674939,6.673641,6.671936,6.670293,6.6688385,6.667696,6.6667476,6.665954,6.6652904,6.664695,6.664189,6.6639075,6.663625,6.663244,6.6626186,6.6617026,6.660617,6.6595616,6.658631,6.657963,6.6576505,6.6577263,6.6581583,6.6588674,6.6597447,6.660694,6.6617055,6.662783,6.6637855,6.6646013,6.665162,6.6654387,6.665484,6.6654115,6.66537,6.66551,6.665946,6.666713,6.6677465,6.66893,6.670169,6.6714544,6.672748,6.673982,6.67512,6.676177,6.677168,6.6780353,6.678778,6.679368,6.679846,6.680293,6.6807346,6.681097,6.6814203,6.681702,6.68187,6.682028,6.6821437,6.682098,6.681855,6.681507,6.681041,6.680514,6.6799545,6.6793346,6.6786385,6.6779613,6.6774592,6.677216,6.6774487,6.6783285,6.679744,6.6814575,6.683181,6.684658,6.6858206,6.6868396,6.6877275,6.688688,6.689875,6.691279,6.692833,6.6944637,6.696036,6.697541,6.698745,6.6994224,6.699467,6.698874,6.6977572,6.696474,6.695144,6.6941104,6.693595,6.693545,6.693739,6.694004,6.694277,6.6945806,6.694789,6.6947317,6.694364,6.6937103,6.692888,6.6921988,6.691831,6.692052,6.6931005,6.694772,6.69663,6.6983414,6.6997786,6.7009544,6.7021513,6.7035875,6.7052274,6.706755,6.707868,6.7085676,6.7088485,6.7089634,6.7090774,6.709243,6.7095156,6.7099,6.7103443,6.71097,6.7117314,6.7125015,6.71319,6.7136135,6.7137327
6.8381934,6.8413982,6.84612,6.851027,6.8558607,6.8609056,6.8657627,6.865778,6.864477,6.863187,6.8616343,6.8596735,6.8574233,6.8549457,6.8513865,6.847169,6.84271,6.8385196,6.83498,6.832215,6.830492,6.8293343,6.828808,6.828841,6.829021,6.8289943,6.8287387,6.828333,6.8275437,6.8266835,6.8252926,6.823107,6.8206234,6.8184896,6.816658,6.8143587,6.811923,6.809067,6.8081584,6.8088894,6.809411,6.8102713,6.8106303,6.8115005,6.8118057,6.811696,6.811667,6.8123164,6.8140497,6.8160777,6.8184247,6.820818,6.82316,6.825321,6.8271894,6.8285975,6.829255,6.829923,6.8304567,6.8308783,6.830855,6.8302555,6.829379,6.828515,6.827971,6.8277497,6.8284016,6.828776,6.82797,6.8260913,6.8233957,6.8205724,6.8168397,6.8123045,6.8076477,6.7994494,6.7875795,6.7777395,6.768855,6.760527,6.7526283,6.7431545,6.73252,6.7221594,6.7124643,6.704113,6.696145,6.6882606,6.680486,6.6725826,6.664696,6.6573486,6.6507688,6.644889,6.6397996,6.6354237,6.632578,6.6307592,6.6288543,6.6272683,6.626448,6.625948,6.6259093,6.626633,6.628324,6.6309476,6.634282,6.638003,6.6420236,6.6462674,6.650489,6.654475,6.657588,6.6593933,6.6608195,6.6619444,6.6631145,6.6640177,6.6645193,6.6647615,6.664985,6.6653605,6.665683,6.665802,6.665491,6.66472,6.663475,6.662053,6.6611204,6.660664,6.660763,6.660919,6.660905,6.6606035,6.659996,6.659225,6.6583786,6.65744,6.656359,6.6553183,6.654352,6.6534233,6.652512,6.651497,6.650235,6.6484694,6.646411,6.6443515,6.642476,6.640802,6.63924,6.63787,6.6366477,6.635776,6.635315,6.635221,6.6354084,6.6357584,6.6362534,6.636815,6.6373796,6.637842,6.6381407,6.6382885,6.638301,6.6382904,6.638277,6.638337,6.6384616,6.638628,6.6387916,6.638892,6.638932,6.6389136,6.6386404,6.637971,6.6368046,6.635113,6.633134,6.6313357,6.6298275,6.6287117,6.627931,6.62738,6.626928,6.6264625,6.625999,6.625691,6.6253204,6.6248093,6.6240172,6.622942,6.6217346,6.620581,6.6195498,6.6187873,6.6183844,6.6183763,6.6187506,6.6194468,6.6203527,6.6213655,6.62246,6.623631,6.624737,6.625659,6.6263113,6.626648,6.6267295,6.62667,6.6266117,6.6267133,6.6271367,6.6279397,6.629054,6.6303616,6.631747,6.633208,6.634713,6.636195,6.6376033,6.6389513,6.6402445,6.6413994,6.6424217,6.643272,6.6439676,6.6445637,6.645057,6.645377,6.645627,6.6458178,6.645931,6.646136,6.646391,6.6465154,6.6464224,6.646182,6.645772,6.645285,6.6447835,6.644227,6.6435766,6.6429157,6.642384,6.642049,6.6420736,6.642604,6.6435466,6.6447725,6.6461077,6.6473417,6.6483994,6.6493716,6.6502433,6.6512146,6.652473,6.654021,6.6557665,6.6576076,6.6594105,6.661172,6.6626534,6.663618,6.6639185,6.6634912,6.662424,6.6611066,6.6597137,6.6586413,6.6581793,6.6582723,6.658623,6.658999,6.6592994,6.6594944,6.6595387,6.659356,6.6589837,6.6585045,6.6580243,6.6577816,6.6578608,6.658452,6.6597223,6.6614504,6.6632223,6.66473,6.66591,6.6667395,6.667512,6.668477,6.669634,6.670721,6.671474,6.671874,6.6719246,6.6718893,6.671982,6.6722565,6.6726933,6.673213,6.6737347,6.674338,6.6749835,6.6755733,6.6760597,6.6763005,6.676279
6.8138113,6.818768,6.8233585,6.824498,6.823595,6.823454,6.823607,6.8244305,6.8250704,6.82579,6.826441,6.826521,6.8260555,6.8245416,6.8216233,6.8178625,6.8137774,6.8099403,6.806731,6.804247,6.8028173,6.80132,6.8001223,6.799346,6.798588,6.797467,6.7960258,6.7944117,6.7923174,6.7901015,6.787334,6.7838492,6.7802606,6.777242,6.7747355,6.7724013,6.770012,6.767015,6.7658243,6.7661605,6.7661657,6.7665005,6.766305,6.766679,6.7669125,6.7669797,6.7672653,6.768408,6.7707586,6.7734766,6.776683,6.780045,6.7833977,6.7865124,6.789275,6.791532,6.792829,6.79401,6.795141,6.7962027,6.796852,6.796979,6.7969117,6.7969832,6.7974544,6.7983675,6.800114,6.8009825,6.8001046,6.797974,6.794659,6.7902865,6.785074,6.778887,6.772337,6.766615,6.7621346,6.7583275,6.7553773,6.753323,6.74988,6.7409506,6.729068,6.7180023,6.7072353,6.6962605,6.6848774,6.6735916,6.663,6.653097,6.6439743,6.635928,6.628937,6.6228504,6.6175985,6.613115,6.6089253,6.604603,6.6002455,6.5965395,6.5945077,6.5928793,6.591894,6.591823,6.5928516,6.59497,6.597932,6.6013,6.6049128,6.6087093,6.612437,6.61593,6.6186395,6.62014,6.6212425,6.6219597,6.622552,6.6227717,6.6227026,6.622589,6.622575,6.622762,6.6229744,6.6230326,6.6226892,6.6219044,6.6206975,6.6193867,6.6185765,6.618273,6.618556,6.618907,6.61911,6.6190248,6.6186013,6.617994,6.6172748,6.616451,6.615455,6.6144643,6.613508,6.6125712,6.611697,6.610799,6.609694,6.608114,6.6062675,6.6044426,6.6028237,6.601437,6.6001725,6.5990667,6.598065,6.5973487,6.5969934,6.597004,6.597333,6.597866,6.5985823,6.599395,6.600231,6.600966,6.6015124,6.6018806,6.602097,6.602271,6.6024394,6.602705,6.603046,6.6033897,6.603639,6.603705,6.6035466,6.6031675,6.6024027,6.6011796,6.599478,6.5973244,6.594998,6.5930033,6.5914297,6.590365,6.5898285,6.589651,6.5895777,6.589422,6.5891795,6.588978,6.588658,6.5881424,6.5872965,6.5861263,6.5847955,6.5835133,6.5823884,6.581495,6.5809245,6.580721,6.5809145,6.5814815,6.582317,6.5833244,6.584482,6.5857553,6.586986,6.588048,6.5888376,6.589298,6.5894794,6.5894823,6.5894284,6.58949,6.5898585,6.590611,6.5916996,6.593026,6.5944915,6.596081,6.597748,6.599441,6.6011086,6.602729,6.6042867,6.6056876,6.6069303,6.6079583,6.608783,6.6094294,6.6098804,6.6100945,6.610223,6.610301,6.610382,6.6106973,6.6111856,6.6116047,6.6118193,6.6118703,6.6117344,6.6115227,6.6112804,6.610969,6.6105366,6.610025,6.609545,6.6092186,6.6091194,6.6093607,6.6098394,6.6105366,6.6114306,6.612355,6.6132445,6.614104,6.6149187,6.6158648,6.6171293,6.6187234,6.620537,6.6224384,6.624319,6.626192,6.627841,6.6290293,6.6295667,6.6293283,6.628358,6.6270604,6.625662,6.624596,6.624221,6.624482,6.6250224,6.6255527,6.625945,6.6261964,6.6262875,6.6261897,6.625991,6.62579,6.625655,6.6257477,6.6262455,6.6272163,6.628706,6.630463,6.632101,6.633359,6.634245,6.6347117,6.6350713,6.6355968,6.636305,6.6369863,6.637429,6.637608,6.6375246,6.637455,6.637627,6.638107,6.6387877,6.639473,6.640065,6.6406193,6.641109,6.641455,6.641669,6.6416636,6.641453
6.7829504,6.78224,6.7827983,6.7839446,6.785119,6.7866135,6.7884674,6.7903414,6.7914886,6.7924986,6.793252,6.7934294,6.7934647,6.7920175,6.78888,6.7845936,6.779634,6.7746334,6.7701216,6.7663474,6.763771,6.7615604,6.7596154,6.7578096,6.7558203,6.7533712,6.750507,6.7475185,6.743982,6.740253,6.7358265,6.7307367,6.7257967,6.721708,6.7184887,6.716259,6.71412,6.710971,6.709278,6.708824,6.7077913,6.7071133,6.7057962,6.70522,6.7050066,6.704937,6.7052717,6.7066717,6.709443,6.7127633,6.716836,6.7213006,6.7259264,6.7303615,6.7344747,6.7381096,6.7405906,6.7429523,6.7451034,6.7472954,6.74935,6.751079,6.752659,6.754335,6.7563543,6.7587967,6.761655,6.764247,6.7656865,6.765416,6.763389,6.7601237,6.7560034,6.749791,6.7425985,6.735903,6.730307,6.7257843,6.72202,6.718904,6.715663,6.712583,6.7100983,6.7090487,6.707185,6.696697,6.681608,6.66641,6.65254,6.640131,6.6292324,6.619962,6.6120944,6.6053057,6.5993567,6.5940504,6.588996,6.5838284,6.5786834,6.5741963,6.5703897,6.5667906,6.563856,6.562027,6.561624,6.562686,6.564875,6.5675325,6.5706544,6.5740514,6.57737,6.580485,6.582923,6.5842495,6.5851955,6.5857143,6.585925,6.585641,6.585093,6.5846276,6.584448,6.584698,6.5849953,6.5851526,6.584899,6.5841913,6.5830884,6.581916,6.5812407,6.5810866,6.5815334,6.5819592,6.582202,6.582165,6.5817986,6.5812726,6.5806293,6.579917,6.579036,6.5781684,6.5773325,6.576515,6.5757937,6.575106,6.574221,6.5728884,6.571281,6.56968,6.5682936,6.567153,6.5661254,6.56522,6.564351,6.5636697,6.5632772,6.5632257,6.563515,6.5640535,6.564825,6.5657177,6.5666637,6.567538,6.5682454,6.5687838,6.569174,6.5694885,6.5697765,6.570181,6.5706673,6.5711246,6.571429,6.571456,6.5711145,6.570433,6.5692782,6.5676317,6.5655947,6.5632467,6.5608244,6.5588374,6.5573826,6.556528,6.5563316,6.55654,6.5568047,6.5569143,6.5568657,6.5567665,6.5565195,6.5560265,6.555167,6.553944,6.552526,6.551158,6.5499516,6.548952,6.5482326,6.5478463,6.5478516,6.548257,6.548985,6.549939,6.551061,6.5522957,6.553504,6.5546026,6.5555067,6.556112,6.5564156,6.556507,6.5564795,6.55651,6.5568123,6.5574846,6.5584993,6.5597754,6.5611873,6.562749,6.564404,6.5661116,6.5678234,6.5694966,6.571086,6.572515,6.5737414,6.5747247,6.5754805,6.5760245,6.5763445,6.5764337,6.576463,6.5764856,6.5766,6.577072,6.5778275,6.578578,6.579139,6.5795007,6.5796566,6.5797367,6.5797772,6.5797358,6.579556,6.5792565,6.578911,6.578624,6.578446,6.578451,6.5786343,6.579027,6.57963,6.5803437,6.581095,6.581902,6.582725,6.5837016,6.5850143,6.586684,6.5885773,6.590564,6.592538,6.5945377,6.5963464,6.5977325,6.598485,6.598442,6.597639,6.5964932,6.595253,6.5943937,6.5943193,6.594978,6.595941,6.5968547,6.5975738,6.59805,6.598311,6.598389,6.5984077,6.5984693,6.598617,6.598967,6.5996714,6.6007414,6.602196,6.603786,6.605164,6.6061316,6.6067443,6.6069365,6.607031,6.607294,6.6077557,6.6082416,6.6085696,6.6087036,6.6086407,6.6086445,6.608951,6.6095953,6.6104803,6.611393,6.6121373,6.612728,6.61315,6.613339,6.6133604,6.613179,6.6128206
6.7470818,6.747118,6.7478223,6.748919,6.750291,6.7519746,6.7531743,6.754424,6.7555323,6.756873,6.7575808,6.7569637,6.755898,6.7537427,6.7499924,6.744792,6.7385263,6.731915,6.7256007,6.719967,6.71565,6.7113132,6.7069354,6.7025356,6.6979923,6.69299,6.687744,6.683467,6.679019,6.6742787,6.6684732,6.662012,6.656078,6.6514134,6.647942,6.6446548,6.6411047,6.6363134,6.633149,6.631503,6.629478,6.6281366,6.62649,6.625578,6.6247616,6.6239595,6.623583,6.6243896,6.626845,6.63023,6.634676,6.640554,6.647059,6.653406,6.6595106,6.6652546,6.6697454,6.674115,6.678328,6.682779,6.687332,6.691783,6.696201,6.700567,6.705113,6.7100782,6.7151384,6.7194457,6.722194,6.7230873,6.7222667,6.7199955,6.716761,6.7121363,6.706786,6.7017794,6.6979685,6.695289,6.692104,6.688112,6.684261,6.681166,6.6789923,6.677534,6.676279,6.674568,6.6730003,6.668107,6.6525655,6.633418,6.6187935,6.607825,6.5984945,6.5905375,6.5835075,6.5771213,6.570919,6.5646353,6.5585318,6.5532,6.5485578,6.544051,6.5400424,6.537093,6.53569,6.5359564,6.5375504,6.5397773,6.542133,6.544405,6.5463,6.5478377,6.548712,6.5487347,6.5490475,6.5494804,6.549693,6.54937,6.5487685,6.548299,6.548159,6.548432,6.5487895,6.5490026,6.548808,6.5481553,6.5471287,6.5460596,6.5454583,6.5453525,6.545754,6.546152,6.546385,6.546342,6.546001,6.545563,6.545037,6.544448,6.543719,6.54302,6.542346,6.54169,6.541167,6.540719,6.5400934,6.5390425,6.5377126,6.5363674,6.5352182,6.5343018,6.533471,6.5327034,6.5318823,6.531122,6.5305357,6.5302434,6.530303,6.530658,6.531316,6.532128,6.532975,6.533763,6.53444,6.5350113,6.5354753,6.535924,6.5363398,6.5371456,6.538162,6.5390925,6.5397334,6.5398936,6.53942,6.5383577,6.5366197,6.5342674,6.531782,6.529394,6.527106,6.525301,6.5240555,6.5234365,6.5235157,6.5240035,6.524518,6.5248475,6.524991,6.525067,6.5249815,6.524622,6.5238457,6.5226398,6.5211825,6.5197372,6.518447,6.5173492,6.5164905,6.5159316,6.5157523,6.515986,6.516574,6.517407,6.518435,6.5195904,6.5207496,6.521884,6.522909,6.52367,6.5241275,6.52433,6.524338,6.524323,6.5245075,6.5250072,6.525814,6.5268707,6.5280533,6.529355,6.531073,6.533039,6.5350537,6.537065,6.5389733,6.540643,6.5419903,6.5429444,6.543545,6.5438395,6.543846,6.5436087,6.5433736,6.5431957,6.5432873,6.5439773,6.545158,6.5464554,6.5475845,6.5484376,6.5490217,6.5495086,6.5499363,6.550295,6.5505342,6.5506425,6.550655,6.5506725,6.550724,6.5508394,6.551054,6.5514636,6.552099,6.5528603,6.5536623,6.554487,6.5552855,6.55622,6.557529,6.559251,6.5612106,6.563196,6.565115,6.5670156,6.5687265,6.5700603,6.570804,6.5707583,6.5699415,6.568815,6.5677314,6.56725,6.5678596,6.5694294,6.5713215,6.573014,6.574292,6.575036,6.575335,6.575344,6.575337,6.5754967,6.5758257,6.5763497,6.5772305,6.5783877,6.5797606,6.5811305,6.582224,6.582885,6.5832086,6.583129,6.582938,6.582882,6.5830193,6.5832486,6.5834217,6.583474,6.583371,6.583394,6.583872,6.584778,6.585939,6.5871067,6.5879664,6.5884895,6.588727,6.5886884,6.5885224,6.588185,6.5876417
6.7124047,6.7124233,6.713014,6.7133627,6.713092,6.712882,6.712305,6.7123985,6.7127104,6.713505,6.713582,6.711864,6.7092223,6.704989,6.698845,6.6908264,6.6811976,6.670758,6.6604023,6.6507645,6.6426716,6.6338277,6.6251297,6.61658,6.6080155,6.599393,6.5907445,6.5822453,6.5736732,6.5646386,6.5540905,6.542982,6.532858,6.5243354,6.51744,6.510275,6.5066447,6.504194,6.5028424,6.501239,6.4982557,6.4955273,6.491332,6.4866867,6.480521,6.4757013,6.4749284,6.4777107,6.481931,6.487201,6.493801,6.501713,6.5103745,6.519077,6.527787,6.536504,6.544141,6.552973,6.562974,6.5738373,6.5848846,6.596102,6.6071205,6.6161613,6.624732,6.634097,6.643448,6.651644,6.6578145,6.6617775,6.6638503,6.664172,6.6635213,6.6616726,6.6588025,6.655713,6.6533604,6.6519117,6.650318,6.6484585,6.6475873,6.6464005,6.6447983,6.6431775,6.6418242,6.642451,6.644305,6.644411,6.6399035,6.634778,6.6252303,6.6072397,6.593663,6.582373,6.573104,6.5647273,6.556458,6.548279,6.540678,6.534167,6.528572,6.5230637,6.517853,6.5135775,6.510885,6.510041,6.51079,6.512392,6.5140753,6.515629,6.5167475,6.517544,6.5178456,6.517428,6.5171223,6.5166883,6.5160046,6.514726,6.51318,6.511902,6.5112963,6.511685,6.512102,6.512354,6.5121818,6.5115547,6.5105824,6.5095897,6.5090303,6.508919,6.5092716,6.509562,6.50966,6.509493,6.509074,6.5086164,6.5081167,6.50762,6.507004,6.5065517,6.506408,6.5064445,6.506519,6.5066233,6.506446,6.505679,6.504498,6.5032496,6.5022545,6.501599,6.5010734,6.500549,6.499849,6.4990377,6.4982834,6.497807,6.4977417,6.4980345,6.498664,6.4994392,6.500308,6.5012236,6.502162,6.503113,6.5040193,6.504939,6.5058537,6.5070143,6.5082827,6.509403,6.510156,6.5103292,6.509735,6.5084195,6.5063553,6.503704,6.5009255,6.4982476,6.4957786,6.493937,6.4927506,6.492276,6.492585,6.4933147,6.493995,6.4944024,6.4946046,6.49476,6.494791,6.4945555,6.4938464,6.4926167,6.4910526,6.489461,6.4880476,6.4867897,6.485683,6.4847956,6.484244,6.484125,6.484421,6.4849997,6.485792,6.4866834,6.48762,6.4886813,6.4898024,6.490742,6.4913716,6.4916525,6.4916167,6.491452,6.4914336,6.4917383,6.492377,6.4932814,6.4943366,6.4955435,6.4970436,6.4987836,6.5006423,6.502518,6.5042753,6.505776,6.506901,6.507594,6.507924,6.5079594,6.5077558,6.507406,6.5071473,6.507048,6.5073414,6.5083246,6.5098505,6.5115094,6.5129905,6.5141563,6.5150337,6.5158305,6.516588,6.5173335,6.518035,6.518635,6.5191045,6.519529,6.5198812,6.5201683,6.5204415,6.520835,6.5214143,6.5221086,6.5228357,6.5235744,6.52427,6.5251093,6.5263567,6.5280657,6.530042,6.5320315,6.5339518,6.5358467,6.5375557,6.5389194,6.5397463,6.5398407,6.5392327,6.5383687,6.53762,6.5375423,6.5386543,6.5408187,6.5433283,6.54559,6.5473704,6.5484705,6.5490065,6.549215,6.5494423,6.5498915,6.55054,6.551327,6.552427,6.5536633,6.554914,6.555988,6.5567017,6.556978,6.5569673,6.556596,6.55615,6.5558605,6.5558176,6.5559597,6.5561557,6.5563354,6.5564356,6.5567036,6.5574446,6.5586433,6.560115,6.561563,6.56264,6.563307,6.563649,6.563712,6.5636673,6.563441,6.5629373
6.6819363,6.6807165,6.6802397,6.679525,6.6775026,6.675101,6.672179,6.6702123,6.668238,6.666542,6.662863,6.6559644,6.648781,6.6404014,6.629012,6.6151104,6.599077,6.581806,6.5646396,6.548685,6.534581,6.5275645,6.5237727,6.522096,6.522345,6.521817,6.519201,6.520301,6.517933,6.5132704,6.5069165,6.500326,6.4947624,6.49079,6.488488,6.4856243,6.485646,6.4857836,6.486253,6.485883,6.483693,6.481739,6.478115,6.474167,6.468768,6.463725,6.4598722,6.4570456,6.4557695,6.456129,6.4586983,6.462277,6.4662147,6.4691553,6.4708023,6.4712873,6.4686737,6.46546,6.462093,6.459531,6.459835,6.462435,6.4682074,6.4828815,6.500101,6.5184684,6.5363903,6.5534678,6.5685306,6.580512,6.5895905,6.5937185,6.5966816,6.598381,6.598933,6.599136,6.5999722,6.601551,6.602784,6.6039524,6.6056967,6.6070566,6.6083093,6.609475,6.6100554,6.6114764,6.6120157,6.612524,6.6143694,6.6175923,6.615796,6.606207,6.598894,6.590192,6.5767574,6.5628805,6.549555,6.537301,6.527198,6.5188932,6.511892,6.5050116,6.498229,6.49214,6.4875555,6.4850035,6.484408,6.4850025,6.4858847,6.4868217,6.4874644,6.487959,6.488214,6.487915,6.487594,6.4869604,6.4860334,6.4844513,6.4825525,6.480916,6.4799156,6.4797645,6.4795947,6.479148,6.478165,6.4767623,6.4752,6.473853,6.473143,6.4730034,6.473358,6.4735274,6.473381,6.4729366,6.472326,6.4718747,6.4716043,6.4715295,6.471478,6.4716377,6.4720645,6.472625,6.473208,6.4737763,6.473994,6.4735374,6.4726057,6.4716005,6.470903,6.4706154,6.47046,6.470225,6.4696603,6.4687786,6.4677544,6.4668846,6.4664006,6.4662976,6.466547,6.466942,6.4675293,6.4682975,6.4692583,6.470411,6.4716306,6.4729056,6.4742136,6.475617,6.477,6.478165,6.478921,6.4790726,6.4784184,6.4769816,6.474788,6.4720764,6.469262,6.4665804,6.4642076,6.462522,6.461486,6.461092,6.4613447,6.4619007,6.462333,6.4624877,6.462526,6.462614,6.4626446,6.4624324,6.4616947,6.46036,6.45864,6.456878,6.4553375,6.4539347,6.4526296,6.4514537,6.45051,6.4499183,6.4496937,6.4497137,6.449909,6.450166,6.45056,6.4513116,6.4523926,6.453474,6.4543214,6.454785,6.4548507,6.4546857,6.454576,6.454714,6.4551153,6.455706,6.4564047,6.457227,6.458203,6.459395,6.460757,6.462149,6.4634285,6.464478,6.465184,6.465541,6.4656563,6.465624,6.4655123,6.4654074,6.465494,6.4658346,6.4666147,6.4680305,6.469886,6.471779,6.473429,6.4747334,6.4757338,6.4766583,6.4775662,6.478517,6.479522,6.480512,6.4813857,6.482212,6.48291,6.483439,6.4838414,6.484247,6.4847345,6.485286,6.4858356,6.4863873,6.4868917,6.4875674,6.4886966,6.490335,6.492287,6.494279,6.4962234,6.498143,6.4998655,6.5012445,6.502125,6.502366,6.50203,6.5015144,6.5011687,6.5014954,6.502999,6.505567,6.5085077,6.511217,6.5134716,6.514986,6.515887,6.516453,6.5170484,6.5178757,6.5189004,6.5199957,6.5213404,6.5226955,6.5238996,6.5247808,6.525214,6.5251923,6.524932,6.524338,6.523697,6.5232153,6.522999,6.5230293,6.5232077,6.523471,6.5237317,6.5241976,6.525113,6.5264606,6.5280914,6.5297318,6.5310454,6.532008,6.532713,6.533199,6.5335875,6.533721,6.5334425
6.6479506,6.6444654,6.6416864,6.6388345,6.6343856,6.6289077,6.6209097,6.6149297,6.608897,6.601461,6.5954304,6.591535,6.585655,6.580982,6.5764832,6.569876,6.5597515,6.546418,6.5317736,6.51787,6.505502,6.502199,6.502951,6.506929,6.5143766,6.5214405,6.5256543,6.5342546,6.5368304,6.5407286,6.543611,6.545826,6.548868,6.5531125,6.55862,6.562847,6.5669594,6.567938,6.5681553,6.5676594,6.565375,6.563777,6.5610504,6.558577,6.5552516,6.550791,6.5439215,6.5353293,6.5282555,6.522806,6.5195384,6.516461,6.5128064,6.506959,6.4987764,6.488794,6.474767,6.4581337,6.440791,6.4242797,6.412178,6.404244,6.4014473,6.411384,6.425136,6.439885,6.4525857,6.459801,6.4640665,6.46893,6.4737425,6.48583,6.4971004,6.507878,6.5177345,6.525533,6.5316963,6.5380054,6.543639,6.549127,6.5544963,6.559615,6.5649314,6.5700636,6.5743155,6.57883,6.5818095,6.5839915,6.585209,6.58582,6.5870533,6.58913,6.5898027,6.586831,6.5763717,6.564581,6.55338,6.54015,6.525324,6.513982,6.5043635,6.4948244,6.4856014,6.476872,6.4694524,6.4643555,6.4617896,6.4609995,6.460907,6.461216,6.461481,6.461833,6.4621997,6.462231,6.462403,6.4623766,6.462019,6.4609056,6.459338,6.4578886,6.4567785,6.455938,6.455031,6.4536815,6.4516497,6.4492617,6.446958,6.445153,6.444235,6.444024,6.444262,6.4441056,6.443437,6.4424076,6.4413347,6.440706,6.4405727,6.4408255,6.441263,6.4418817,6.4425497,6.443214,6.4439645,6.444696,6.445097,6.4448824,6.444258,6.4436193,6.4433184,6.443409,6.4435735,6.443574,6.4431257,6.4421816,6.4408627,6.439496,6.4384055,6.4376698,6.437291,6.4370885,6.437157,6.437512,6.438211,6.4392824,6.4405546,6.4419346,6.4433684,6.4448895,6.446346,6.4475336,6.448305,6.448497,6.44788,6.4464498,6.444256,6.4415636,6.4388523,6.4364033,6.4343467,6.432926,6.4320526,6.4316406,6.4316006,6.431692,6.431652,6.4314346,6.431261,6.4312563,6.431249,6.4310026,6.430196,6.4287524,6.4269056,6.425013,6.423359,6.4218264,6.420365,6.418955,6.417642,6.4165277,6.415648,6.4149013,6.414261,6.4136505,6.4132915,6.4135394,6.4144015,6.415486,6.4164677,6.417095,6.417299,6.4171863,6.416996,6.416892,6.4168825,6.416916,6.416973,6.417082,6.4173965,6.418018,6.4188814,6.4198184,6.420673,6.421321,6.421683,6.421822,6.4219084,6.422052,6.422304,6.422709,6.4233704,6.4243307,6.425705,6.4275846,6.4297304,6.4317746,6.433507,6.4348936,6.4359884,6.4370413,6.438116,6.439293,6.4406166,6.44202,6.443342,6.4446373,6.4457893,6.44668,6.447316,6.4477897,6.448175,6.4485087,6.4487715,6.448991,6.449155,6.449536,6.450445,6.45194,6.453827,6.4558144,6.4577866,6.459749,6.461508,6.4629135,6.463859,6.464261,6.464202,6.464032,6.4640574,6.464727,6.4665213,6.4693575,6.47259,6.4756293,6.478253,6.48011,6.4813323,6.4822464,6.4832277,6.484477,6.4859548,6.4874587,6.4891753,6.490797,6.4921093,6.4929476,6.49322,6.4929686,6.492492,6.491706,6.4908876,6.490193,6.4897285,6.4895067,6.489456,6.489543,6.4896784,6.4900427,6.490872,6.4921374,6.4937205,6.495407,6.496873,6.498106,6.499177,6.5001,6.5009212,6.501391,6.501311
6.601735,6.5932617,6.584901,6.5764494,6.566643,6.5563445,6.5491204,6.5435114,6.541354,6.539932,6.545892,6.5603037,6.5686235,6.5759254,6.588396,6.5992193,6.6044664,6.6045594,6.601827,6.598022,6.5947523,6.59037,6.5862474,6.584932,6.5876527,6.5914345,6.5920534,6.58974,6.584239,6.585682,6.5868115,6.586709,6.58755,6.5893974,6.5923724,6.5936756,6.595424,6.594154,6.5920043,6.5891685,6.584803,6.581462,6.5773654,6.573367,6.568365,6.5625954,6.5568805,6.551997,6.5483365,6.545528,6.5438337,6.5414753,6.5379725,6.5323753,6.52509,6.5172358,6.5075736,6.4971576,6.483182,6.469311,6.4586906,6.452476,6.449049,6.4448013,6.4409547,6.4372764,6.4300604,6.4125876,6.3917017,6.376498,6.365987,6.379378,6.393397,6.404125,6.410691,6.418466,6.431244,6.445904,6.459506,6.472904,6.485869,6.4977164,6.508525,6.5185127,6.52777,6.53685,6.5454226,6.552001,6.5557294,6.5576215,6.5589347,6.559497,6.5583797,6.556774,6.5551386,6.5532913,6.551468,6.543429,6.5280876,6.5167418,6.5070524,6.497269,6.4850364,6.4718,6.459961,6.451138,6.44599,6.4435205,6.442437,6.4423313,6.44256,6.443146,6.443984,6.444638,6.4454336,6.445992,6.446084,6.4452114,6.443698,6.442184,6.440943,6.4399195,6.4387474,6.437022,6.4345317,6.431746,6.429191,6.4272385,6.4262123,6.4258475,6.4257326,6.424944,6.423443,6.421556,6.419778,6.4186954,6.418368,6.418506,6.418851,6.419349,6.4198914,6.4204483,6.4211035,6.4217644,6.422152,6.422016,6.42158,6.421219,6.4212246,6.4215803,6.4219346,6.4220753,6.4217277,6.4207954,6.419328,6.417649,6.4161396,6.414929,6.41407,6.413417,6.4130898,6.4131236,6.4136167,6.4146156,6.4159102,6.4173365,6.418811,6.420335,6.4217634,6.4229345,6.423749,6.4240646,6.4236093,6.4223614,6.4203424,6.4178085,6.4152102,6.412848,6.410876,6.4094763,6.4085555,6.4079814,6.4076247,6.407334,6.4069767,6.4065785,6.4063463,6.4063444,6.4063563,6.406102,6.405277,6.4038253,6.401965,6.400038,6.398317,6.3966475,6.3950047,6.393331,6.391638,6.390011,6.3884883,6.38698,6.385515,6.3840375,6.382891,6.3825336,6.382995,6.3838477,6.38471,6.3852506,6.3853593,6.385079,6.384598,6.38405,6.383442,6.3827734,6.382097,6.3814583,6.3811297,6.3812704,6.381795,6.382474,6.3830996,6.3835206,6.3836823,6.383737,6.3839326,6.384388,6.3851233,6.386129,6.3873987,6.3889575,6.390847,6.3930793,6.395396,6.3974957,6.399273,6.4007773,6.4020844,6.4034643,6.4049664,6.406651,6.4085503,6.4105806,6.4125376,6.4144607,6.416211,6.4175963,6.4185534,6.419127,6.419388,6.419431,6.4193163,6.419095,6.4188094,6.418809,6.4194345,6.4207525,6.422573,6.424594,6.4266577,6.4287663,6.4306936,6.4322944,6.433486,6.434211,6.4345465,6.4347854,6.435173,6.4360914,6.438013,6.4409103,6.4442167,6.447381,6.4501877,6.4522314,6.4536543,6.454857,6.4562364,6.457979,6.4600315,6.462104,6.464376,6.4664335,6.4679737,6.468822,6.468919,6.4683676,6.4675894,6.466555,6.465539,6.4646378,6.4639235,6.4633765,6.462905,6.462549,6.4622583,6.4621854,6.4626307,6.463591,6.464963,6.466553,6.468034,6.46939,6.470637,6.4717407,6.4727087,6.473261,6.4732056
6.5437746,6.5276537,6.5113783,6.495714,6.4806614,6.468543,6.481804,6.490638,6.5112753,6.544276,6.579246,6.609754,6.6347637,6.6459985,6.654633,6.6606355,6.661875,6.659596,6.6559114,6.6507235,6.645626,6.639823,6.633087,6.6312,6.636355,6.6403847,6.6343164,6.62252,6.611626,6.5986075,6.5842676,6.570352,6.557846,6.546953,6.537897,6.528423,6.519256,6.509846,6.5026693,6.4975805,6.4931145,6.4904804,6.48874,6.4882274,6.488519,6.487176,6.485047,6.4846416,6.486285,6.4894776,6.494569,6.500565,6.5065074,6.510991,6.5139065,6.5160847,6.5169225,6.519045,6.5026207,6.4823256,6.4674683,6.4584894,6.4529777,6.447303,6.4424305,6.4364266,6.428186,6.417761,6.406177,6.3947105,6.384094,6.3734913,6.364912,6.342572,6.3073425,6.2907805,6.307797,6.3331065,6.3541975,6.373974,6.3950095,6.415942,6.4358993,6.454435,6.471036,6.4862833,6.499633,6.5106745,6.5198064,6.526911,6.531972,6.5345035,6.5330486,6.5305147,6.52671,6.5228014,6.5192657,6.5161195,6.513232,6.5104704,6.5084515,6.5063357,6.49302,6.4748015,6.4585867,6.445818,6.43746,6.4330587,6.430939,6.430545,6.430958,6.4320087,6.433519,6.43495,6.4364414,6.4375744,6.437996,6.4371567,6.4354663,6.433693,6.432178,6.4308815,6.4294276,6.4274106,6.4245806,6.4215093,6.4187694,6.4166718,6.415493,6.4148874,6.414323,6.4128394,6.4104886,6.4077864,6.4054,6.403989,6.403593,6.4037304,6.404013,6.4043193,6.404561,6.404774,6.4050965,6.4054875,6.4057064,6.40555,6.4052525,6.405147,6.405424,6.405962,6.4063826,6.406573,6.4062757,6.405397,6.403907,6.4020786,6.400307,6.398755,6.397549,6.3965664,6.395961,6.395772,6.3961244,6.3970823,6.39839,6.3998265,6.4012833,6.402751,6.4041095,6.4052725,6.4061956,6.4067407,6.406602,6.405726,6.4040923,6.4018755,6.399463,6.3971562,6.395155,6.3936505,6.3925724,6.391778,6.391135,6.390568,6.390056,6.3896527,6.389492,6.3895617,6.389625,6.389378,6.38858,6.387225,6.3854995,6.3836794,6.3819933,6.3802495,6.3784866,6.376626,6.374647,6.3726053,6.370521,6.368329,6.366081,6.363768,6.3618264,6.360755,6.36061,6.360972,6.3614316,6.3616133,6.3613725,6.3606977,6.3597136,6.3585224,6.3571563,6.3556767,6.3542128,6.352818,6.3518863,6.351635,6.3519363,6.352463,6.352924,6.353162,6.3531246,6.353064,6.3533297,6.35407,6.3552675,6.3568234,6.3586335,6.3606863,6.362976,6.365446,6.3678546,6.3699894,6.371844,6.3735433,6.3751974,6.377083,6.379206,6.381585,6.3842134,6.3869734,6.389636,6.392259,6.3946877,6.3966684,6.3980494,6.398819,6.399055,6.398905,6.3985195,6.39799,6.397401,6.397174,6.397666,6.3989396,6.400822,6.4029903,6.4052753,6.4076653,6.4099255,6.4119167,6.413563,6.414795,6.415679,6.416431,6.41724,6.4184175,6.420437,6.423348,6.4266696,6.429887,6.4328017,6.4349427,6.4364786,6.4378815,6.439596,6.441802,6.4444056,6.447054,6.4498835,6.452364,6.4541054,6.4549055,6.4547396,6.4538007,6.4526615,6.451359,6.4501834,6.449161,6.4482813,6.4474216,6.4464355,6.445466,6.4445252,6.443783,6.443623,6.444096,6.445116,6.44648,6.4478407,6.449161,6.450386,6.4514313,6.452283,6.452698,6.4525414
6.4556403,6.4444523,6.4461355,6.4512734,6.4611144,6.4747505,6.498041,6.524622,6.556675,6.5866423,6.6100307,6.6309657,6.653213,6.6739616,6.6557255,6.654358,6.665984,6.6619387,6.6398754,6.6210194,6.603377,6.583596,6.5617676,6.54405,6.532281,6.5226145,6.509249,6.4882174,6.469811,6.449552,6.4289,6.413599,6.402871,6.392024,6.3832173,6.3755302,6.3627515,6.3490725,6.337776,6.3290086,6.3231726,6.321889,6.320945,6.3200946,6.3187656,6.316462,6.314265,6.3136616,6.3149643,6.3179574,6.323533,6.3326473,6.343025,6.356445,6.3726034,6.3874474,6.4016504,6.416666,6.426799,6.436733,6.4505873,6.465598,6.4774942,6.488092,6.49997,6.5139184,6.5290403,6.5177765,6.4847775,6.4552364,6.426902,6.3994546,6.3720293,6.3482275,6.32545,6.3082285,6.294774,6.272299,6.2446547,6.227371,6.257205,6.3009295,6.3380785,6.3687816,6.3924212,6.4145613,6.4350624,6.4532876,6.468959,6.4813323,6.490653,6.497471,6.500758,6.5015397,6.5003786,6.497726,6.4938602,6.4896283,6.4859786,6.4830327,6.480736,6.478951,6.4760375,6.4728446,6.4696417,6.461627,6.4463763,6.438584,6.4341283,6.432369,6.4320135,6.4326754,6.434165,6.4358406,6.4375734,6.43886,6.4392157,6.438013,6.435802,6.4335265,6.4316015,6.430026,6.4284077,6.4262743,6.4233456,6.4202147,6.417437,6.415243,6.4138393,6.4128804,6.411703,6.4093747,6.4060793,6.402532,6.399562,6.3978844,6.397484,6.3976493,6.3978624,6.397905,6.39771,6.397423,6.3972816,6.3972874,6.397287,6.3971367,6.3970585,6.397306,6.3979235,6.398645,6.3990583,6.3992176,6.398932,6.3981385,6.396746,6.394967,6.3931737,6.391525,6.390191,6.3891325,6.388482,6.3882756,6.3886604,6.3897047,6.3911076,6.3926,6.394061,6.395485,6.3967805,6.3979545,6.399047,6.3999176,6.4002404,6.39996,6.3989697,6.397333,6.3953333,6.3932347,6.3912706,6.3897066,6.3885374,6.387629,6.3868675,6.3862395,6.3858085,6.3856163,6.3856697,6.3858566,6.3859644,6.3856936,6.3849,6.3836603,6.382139,6.3805,6.3788986,6.37716,6.3753805,6.3734612,6.3713665,6.369115,6.3666587,6.363961,6.361083,6.3580704,6.355385,6.3535237,6.3525624,6.352121,6.3518114,6.351245,6.3502483,6.348792,6.3469462,6.344808,6.342467,6.340047,6.3377237,6.3355694,6.3340592,6.3334513,6.3335333,6.333836,6.3340044,6.333844,6.3332996,6.3327656,6.3327184,6.3333673,6.334675,6.3364716,6.338538,6.3408184,6.343258,6.345785,6.3482094,6.350394,6.3524117,6.354438,6.356592,6.3591194,6.361986,6.365127,6.368468,6.371883,6.3751707,6.3784122,6.381486,6.3840976,6.3860416,6.3872423,6.3877587,6.387788,6.387551,6.3871813,6.386817,6.386896,6.3877463,6.3894076,6.3917103,6.394307,6.397064,6.3999586,6.402776,6.405406,6.407775,6.4098043,6.4115644,6.4132686,6.414894,6.4166837,6.419151,6.4224257,6.4260836,6.4296303,6.4328446,6.4351435,6.4367323,6.4381943,6.4400635,6.4425306,6.4454637,6.448427,6.4514456,6.4538856,6.4553013,6.455521,6.454624,6.452966,6.4512944,6.449752,6.448573,6.447683,6.4468737,6.4458003,6.444234,6.4424977,6.4406705,6.4391007,6.438278,6.4382353,6.4388514,6.43992,6.4410763,6.44227,6.4433727,6.4442396,6.4448524,6.4450545,6.444782
6.464068,6.4683332,6.476498,6.484336,6.497287,6.5104017,6.5197616,6.5378914,6.5509357,6.5648293,6.5931416,6.623619,6.628344,6.6315103,6.621057,6.6149073,6.591856,6.5510006,6.520759,6.5210013,6.545134,6.5520163,6.5571766,6.5196686,6.4406433,6.3495817,6.2884297,6.3213425,6.3325763,6.3374195,6.327435,6.264702,6.1700068,6.0935235,6.016654,5.927824,5.850572,5.786192,5.7369494,5.700609,5.672687,5.6530695,5.6415014,5.6401906,5.6540008,5.686097,5.73413,5.792702,5.85776,5.927225,5.9950604,6.050259,6.099635,6.139641,6.169958,6.19212,6.1856112,6.180333,6.1724386,6.159055,6.1563225,6.201806,6.298292,6.384555,6.4529777,6.468689,6.462561,6.472515,6.4950013,6.499765,6.4797072,6.4594045,6.4506903,6.4194765,6.3756585,6.3353443,6.299657,6.2672057,6.2458143,6.235545,6.231244,6.225728,6.2105703,6.214612,6.264437,6.3046274,6.342,6.3763247,6.402281,6.4207535,6.4353104,6.446807,6.4542704,6.4590006,6.4610677,6.46173,6.4613905,6.459854,6.4577703,6.456368,6.4545918,6.4533157,6.452105,6.451017,6.4501896,6.448099,6.443865,6.44285,6.443765,6.4461107,6.4493155,6.4530635,6.4567366,6.459636,6.4620066,6.4633656,6.462681,6.4597344,6.4555807,6.4515142,6.4481745,6.44563,6.4433875,6.440811,6.4375453,6.434106,6.4309597,6.428243,6.4261103,6.424261,6.421789,6.418192,6.4137735,6.409297,6.405728,6.4038463,6.4035225,6.403783,6.403928,6.4036274,6.402835,6.4018316,6.4010167,6.4004726,6.400165,6.400043,6.4003143,6.4010925,6.4021835,6.4031153,6.403451,6.4034677,6.403098,6.402358,6.4011507,6.3996167,6.3980446,6.3965545,6.3953667,6.3945246,6.394127,6.3941803,6.39485,6.3961973,6.3978605,6.3995314,6.4011164,6.4026,6.403926,6.405247,6.406829,6.408617,6.4100556,6.4111137,6.4115562,6.4112263,6.4101925,6.408609,6.406769,6.4051332,6.4038467,6.402868,6.4022126,6.40197,6.4022417,6.4029503,6.403808,6.404523,6.4049234,6.4047327,6.404005,6.403008,6.401888,6.400632,6.3992825,6.3976903,6.396044,6.3942537,6.3922634,6.3900204,6.38738,6.384287,6.380844,6.377142,6.373618,6.370695,6.3684335,6.366535,6.3647075,6.3625755,6.359913,6.356722,6.353068,6.3490987,6.3450303,6.34111,6.3375263,6.334348,6.332261,6.331412,6.3313565,6.331447,6.33121,6.330434,6.3290353,6.3275847,6.326732,6.3267837,6.327701,6.329234,6.331063,6.333048,6.3351383,6.337322,6.3394823,6.341589,6.3438005,6.346264,6.3490844,6.3524647,6.3562827,6.3603516,6.364526,6.368787,6.373121,6.377377,6.3815675,6.3854036,6.3886127,6.391033,6.392681,6.39377,6.394599,6.3954372,6.3964744,6.3981333,6.400628,6.403882,6.407687,6.411686,6.4158382,6.4201603,6.4244957,6.428774,6.4329486,6.4366765,6.439287,6.4403243,6.441324,6.4425488,6.444331,6.4467173,6.4493437,6.451872,6.454229,6.456071,6.4575863,6.4591613,6.4610395,6.463237,6.465687,6.468177,6.4708896,6.473427,6.475418,6.4765863,6.4767547,6.4759755,6.474849,6.473547,6.472289,6.4711676,6.4702435,6.469371,6.468356,6.4674044,6.4667172,6.465079,6.46336,6.462365,6.462275,6.4627867,6.463548,6.4644814,6.4653463,6.465925,6.4662075,6.466156,6.465788
6.527372,6.532684,6.5271654,6.5059714,6.4863596,6.4790263,6.507327,6.506972,6.496608,6.489378,6.4902296,6.505746,6.541103,6.5851154,6.5913777,6.5481567,6.5715637,6.62191,6.566063,6.3681316,6.0379415,5.752843,5.4669533,5.230132,5.018909,4.7958274,4.600817,4.4990015,4.409581,4.3343196,4.2675204,4.178238,4.0785027,4.002962,3.9350936,3.865076,3.8065355,3.758931,3.7234445,3.6986532,3.6806955,3.6684732,3.6636412,3.6682339,3.687288,3.7229185,3.772511,3.8308513,3.8939705,3.9611452,4.0301933,4.095378,4.1622562,4.228059,4.2917576,4.3552113,4.4069486,4.471676,4.5564494,4.6582685,4.7694597,4.9166317,5.133919,5.400111,5.672944,5.940386,6.2067304,6.3255587,6.293128,6.280878,6.3680367,6.42859,6.4187446,6.4007483,6.395469,6.3825865,6.358198,6.3413563,6.3025093,6.2743034,6.2408175,6.212702,6.1899066,6.1854105,6.2118044,6.2288747,6.2425632,6.246151,6.27233,6.3103456,6.3408813,6.366213,6.3860283,6.3967743,6.4037476,6.409086,6.413426,6.416056,6.41739,6.4191465,6.419754,6.420357,6.420435,6.420429,6.420597,6.421092,6.422373,6.4243493,6.427657,6.4321313,6.4373693,6.442896,6.447838,6.4514537,6.4541674,6.455925,6.4561644,6.454911,6.453074,6.45155,6.4506645,6.450414,6.450429,6.450346,6.449878,6.449315,6.448793,6.4482155,6.4476347,6.4467754,6.4457955,6.4415536,6.4352846,6.429161,6.4244366,6.4218717,6.4212112,6.421103,6.4206324,6.4194245,6.417549,6.4154897,6.4138036,6.412594,6.4119463,6.4119115,6.412655,6.4141045,6.4157343,6.416757,6.4167194,6.416271,6.4155884,6.4148636,6.4140778,6.4132185,6.4123263,6.411394,6.4106855,6.4103765,6.410499,6.411013,6.412093,6.413801,6.415727,6.417575,6.4192796,6.4208994,6.4225006,6.424274,6.4257,6.4261103,6.426379,6.4263363,6.4258547,6.424814,6.423238,6.42118,6.41883,6.4166064,6.4146595,6.4129124,6.411455,6.410377,6.409763,6.4096184,6.4098206,6.4101524,6.4105167,6.4106503,6.4104977,6.4101295,6.409537,6.408666,6.4076,6.4062424,6.4047894,6.403221,6.4015436,6.3997703,6.3978424,6.3957458,6.393555,6.3913517,6.3893466,6.3877,6.386366,6.3851175,6.3837843,6.3822045,6.380231,6.377909,6.3752947,6.372454,6.3695407,6.36679,6.364312,6.362322,6.3603134,6.358982,6.3582716,6.357245,6.355441,6.352822,6.349287,6.3457656,6.3431864,6.341978,6.3420568,6.3430066,6.344323,6.3457603,6.347346,6.34926,6.3515115,6.354143,6.3572736,6.360817,6.364796,6.369341,6.374216,6.3792133,6.3840446,6.387977,6.3903103,6.392783,6.3951683,6.3972287,6.398766,6.399736,6.400269,6.4006147,6.401028,6.401376,6.4017735,6.402466,6.4035997,6.405201,6.4072347,6.4095044,6.411917,6.4144998,6.4171724,6.419901,6.4226427,6.425123,6.42685,6.4274898,6.428151,6.429035,6.430399,6.4322443,6.4341965,6.4359226,6.437595,6.4390187,6.440391,6.4419737,6.443822,6.4458485,6.448026,6.4502945,6.452915,6.455615,6.458059,6.4598503,6.4606123,6.4602337,6.4592257,6.4577312,6.4559937,6.45427,6.452843,6.4517565,6.4508843,6.4503365,6.4502306,6.4497213,6.449375,6.4497304,6.4508467,6.452403,6.4540744,6.4557395,6.4572835,6.458434,6.459161,6.459443,6.4593444
6.5328026,6.510275,6.4975195,6.4747458,6.4279537,6.396641,6.4038467,6.412771,6.4057393,6.3839936,6.363191,6.2803755,6.0335317,5.743691,5.468768,5.2036905,5.060414,4.994894,4.8574915,4.581577,4.1642146,3.8185904,3.4831204,3.2421553,3.0714076,2.9043272,2.741653,2.599803,2.489167,2.3980403,2.327614,2.2776084,2.2437148,2.220633,2.2067938,2.2008052,2.1957154,2.191476,2.1891456,2.189125,2.1907911,2.1935873,2.197794,2.2038784,2.2129543,2.22474,2.23873,2.2541695,2.2702503,2.2875972,2.3091645,2.3381476,2.3741934,2.4179928,2.4685943,2.5251184,2.5921526,2.6727242,2.7763453,2.9058833,3.0433946,3.185436,3.3659384,3.6181083,3.9049978,4.2477536,4.639977,4.8961067,5.011067,5.1864495,5.5026,5.8046236,6.068554,6.2002797,6.2274384,6.2655025,6.333052,6.3386135,6.3101115,6.2942896,6.276348,6.252747,6.2330136,6.2201433,6.2063246,6.1934853,6.1841106,6.167291,6.1809177,6.213857,6.241193,6.2588835,6.2657905,6.287296,6.3079553,6.328171,6.3439775,6.3536043,6.360436,6.3674293,6.3728733,6.3773794,6.3815823,6.3851347,6.3879075,6.3897467,6.390672,6.3926287,6.396276,6.401106,6.406572,6.4122396,6.417289,6.420907,6.4234705,6.4254165,6.4267397,6.4274254,6.428062,6.429141,6.430674,6.43257,6.43458,6.436646,6.438572,6.4404955,6.4423094,6.4437766,6.4449096,6.445407,6.445997,6.443469,6.439086,6.4348183,6.431548,6.4298215,6.4293823,6.4291315,6.4283724,6.426863,6.4246926,6.422276,6.420127,6.4183917,6.4171257,6.416367,6.4162517,6.416728,6.417383,6.417564,6.4168797,6.4159875,6.4149837,6.414018,6.4131107,6.4122353,6.4113665,6.410494,6.409891,6.409758,6.4100537,6.410676,6.411733,6.4132295,6.4147663,6.416172,6.4174414,6.418588,6.4196253,6.42053,6.4205914,6.419238,6.4177194,6.4158196,6.4135427,6.4109144,6.4079847,6.4047894,6.401482,6.398386,6.39553,6.392727,6.3900867,6.387656,6.3854885,6.38373,6.382557,6.3819175,6.381748,6.3817987,6.381843,6.381691,6.381173,6.38025,6.379099,6.377666,6.3760934,6.37444,6.3727956,6.371252,6.3698463,6.368593,6.3675427,6.3667564,6.366267,6.3660707,6.366046,6.3659787,6.3657417,6.365326,6.3646517,6.3637547,6.3626785,6.361432,6.3600693,6.3587375,6.3575363,6.3567405,6.355558,6.3547354,6.354451,6.353977,6.3529596,6.3513556,6.3490515,6.346692,6.3448615,6.343859,6.3436956,6.3441343,6.344879,6.3457727,6.3468637,6.348326,6.3501015,6.3521266,6.354432,6.3568983,6.3595376,6.362461,6.365516,6.3685813,6.3714013,6.37318,6.3731613,6.3733063,6.3732686,6.37287,6.3720226,6.370845,6.3695993,6.368565,6.3678937,6.3671703,6.366361,6.3655415,6.364846,6.3644276,6.3644104,6.364739,6.365226,6.3657837,6.3664193,6.3671203,6.367831,6.36849,6.3691163,6.369811,6.370545,6.3714232,6.372697,6.3743696,6.3760934,6.3775635,6.3789997,6.380204,6.381421,6.382927,6.3847656,6.3868313,6.3890867,6.3914585,6.3941793,6.396934,6.399391,6.4011035,6.40164,6.4009275,6.399549,6.397572,6.3952875,6.39303,6.391077,6.389496,6.3882465,6.387473,6.387186,6.387633,6.389028,6.391222,6.393922,6.396786,6.399472,6.4018693,6.4040246,6.4056473,6.406703,6.407178,6.407164
6.46041,6.4012136,6.3754206,6.369034,6.3261666,6.254291,6.157051,5.974758,5.7330337,5.5146227,5.3581944,5.1033773,4.5455427,3.9192576,3.414651,3.0269675,2.6931112,2.4278178,2.2706137,2.1914554,2.1587183,2.1382334,2.13533,2.135752,2.1439016,2.1620932,2.1780412,2.1907842,2.2001214,2.2071962,2.2119877,2.2150314,2.2165647,2.2167287,2.2163296,2.2153938,2.214208,2.2126029,2.2119198,2.2122436,2.212679,2.2132926,2.213674,2.2142506,2.2145388,2.2144847,2.2142563,2.2142274,2.2146373,2.214878,2.2149658,2.2146478,2.2139235,2.2126842,2.2109623,2.2088165,2.2059164,2.2027793,2.197125,2.1946466,2.201428,2.2166953,2.2393541,2.276466,2.3336008,2.418903,2.557785,2.7934456,3.1203835,3.493375,3.890002,4.3285403,4.882181,5.236906,5.38305,5.5866594,5.9038315,6.0851984,6.141687,6.190013,6.2585015,6.266232,6.2376933,6.225594,6.2156377,6.2128477,6.2039614,6.1988497,6.1925683,6.188567,6.1875362,6.1791134,6.15966,6.180397,6.207941,6.225082,6.2416,6.2634196,6.2837896,6.3008885,6.3138213,6.324749,6.334531,6.341934,6.347663,6.3528123,6.3569665,6.361731,6.3677197,6.3742166,6.3807945,6.387381,6.3932495,6.397333,6.399843,6.401744,6.4027686,6.4028754,6.402736,6.402986,6.4037437,6.404928,6.406241,6.40762,6.408861,6.4101386,6.4113717,6.412368,6.4132376,6.413662,6.4136915,6.413574,6.413438,6.4132304,6.413016,6.4130173,6.4131064,6.4128723,6.4120846,6.4106984,6.4086976,6.4062376,6.4036813,6.401285,6.3989606,6.396623,6.3944597,6.392603,6.3910766,6.389713,6.388221,6.3869114,6.385558,6.3841085,6.3825784,6.3810225,6.3795195,6.3781853,6.3772707,6.376872,6.3768854,6.377139,6.3776407,6.378347,6.3789444,6.379431,6.3798327,6.3799877,6.379673,6.3786826,6.3771896,6.375529,6.373526,6.3710756,6.36812,6.3646994,6.3608637,6.356701,6.3524685,6.348546,6.344871,6.341213,6.3377194,6.334448,6.3314385,6.3288336,6.3268523,6.325451,6.3245387,6.323907,6.323372,6.32275,6.3218217,6.3204846,6.3189354,6.3170996,6.3150954,6.313031,6.311021,6.3091326,6.3073654,6.3057027,6.304237,6.3030252,6.3021383,6.301618,6.3013554,6.301107,6.3007298,6.3001566,6.2992764,6.2980566,6.296523,6.2947464,6.292789,6.2907524,6.2888775,6.2872977,6.2864804,6.2865124,6.2873282,6.288765,6.290491,6.2922087,6.2937827,6.2950664,6.295947,6.296485,6.2968774,6.2972865,6.297847,6.298591,6.29946,6.3004036,6.301173,6.3015366,6.301475,6.3011274,6.3005695,6.2999735,6.2993937,6.298806,6.298167,6.297569,6.297162,6.2966943,6.2960386,6.2950573,6.293702,6.292102,6.2905045,6.289159,6.288148,6.2872553,6.2863746,6.285571,6.2849865,6.284761,6.284993,6.285633,6.286475,6.28737,6.2883186,6.2892623,6.290142,6.2909136,6.2915335,6.292066,6.29261,6.2932253,6.2941,6.2952337,6.2964,6.297466,6.2985387,6.299419,6.3003945,6.3017445,6.3034935,6.305514,6.3077593,6.3101196,6.3128324,6.3155537,6.317968,6.3196115,6.32,6.3190584,6.317457,6.3151684,6.3125606,6.3100243,6.307846,6.3061132,6.3048353,6.3041563,6.3041687,6.30497,6.3069134,6.3097796,6.313104,6.3164444,6.3194027,6.3218765,6.3239536,6.325323,6.326021,6.326099,6.3257036
6.363649,6.2786684,6.1507063,6.010383,5.8875313,5.69516,5.468112,4.8020973,4.025319,3.412469,2.9582608,2.6032095,2.4203062,2.3156655,2.2604415,2.235601,2.2334993,2.2390876,2.240408,2.2402802,2.2399454,2.239075,2.237691,2.2356987,2.2331417,2.2304454,2.2280715,2.2259774,2.224034,2.2221117,2.220177,2.2181656,2.2160583,2.213942,2.2119849,2.2101295,2.2082615,2.2061958,2.2052102,2.2054045,2.2058985,2.2066977,2.2075095,2.2087731,2.2102823,2.2119846,2.2139153,2.2162218,2.21896,2.2216969,2.2246242,2.2276514,2.2308824,2.234177,2.2373912,2.2405567,2.2436275,2.2472005,2.2512772,2.2556105,2.2599392,2.2642725,2.2685044,2.2720532,2.2751267,2.2780445,2.2788424,2.292211,2.3310006,2.3981338,2.497589,2.6453664,2.8754184,3.261351,3.7049878,4.215774,4.8308616,5.3788185,5.5550365,5.6709776,5.909648,6.0732694,6.1394205,6.2005315,6.249965,6.2834706,6.2628336,6.242511,6.2247863,6.2083445,6.193637,6.1814027,6.173771,6.166217,6.170396,6.140078,6.128125,6.157681,6.1911,6.216509,6.2392845,6.259714,6.277382,6.2911797,6.302343,6.3120694,6.3198476,6.327484,6.3351407,6.34348,6.351883,6.360214,6.3678164,6.373295,6.3764915,6.3790636,6.380542,6.380946,6.3809543,6.3811474,6.3816366,6.382387,6.38313,6.3838453,6.3843517,6.3848686,6.38531,6.3855,6.3856845,6.3855834,6.3853745,6.384807,6.3839607,6.3830214,6.3820963,6.381241,6.380416,6.3791447,6.37717,6.374471,6.3710785,6.3672047,6.363264,6.359583,6.355992,6.3523684,6.3489885,6.3459907,6.3433867,6.341023,6.338608,6.3364706,6.3344564,6.332635,6.331077,6.329699,6.3283806,6.3272004,6.326394,6.3260145,6.3258934,6.3258047,6.325765,6.325819,6.3257847,6.3257465,6.32561,6.3251877,6.324213,6.322672,6.320719,6.318433,6.3158226,6.312684,6.308922,6.304554,6.299751,6.2946606,6.289506,6.284702,6.280129,6.275569,6.271193,6.2670717,6.263225,6.2597904,6.2570233,6.2548847,6.253234,6.2519703,6.2509317,6.2499347,6.2487173,6.247102,6.245286,6.243134,6.2407637,6.2383423,6.235985,6.2337375,6.231609,6.229582,6.227755,6.226186,6.2249813,6.224187,6.223654,6.2231317,6.222515,6.221719,6.2206554,6.2192225,6.217395,6.2151966,6.212823,6.21066,6.2087064,6.2070866,6.206102,6.205879,6.2064185,6.2075014,6.208727,6.2098503,6.210707,6.2111487,6.2112713,6.2112784,6.2113905,6.2117286,6.21229,6.2130017,6.213805,6.2146883,6.215335,6.215603,6.2156224,6.2153444,6.2147655,6.214061,6.213293,6.212476,6.2116013,6.2106953,6.2098017,6.208921,6.20792,6.206705,6.2052503,6.203633,6.2020473,6.200745,6.1998014,6.1989822,6.1982164,6.197522,6.196966,6.1966696,6.19678,6.1973047,6.198059,6.199115,6.2002873,6.2013874,6.202346,6.2031336,6.203715,6.2041755,6.2045956,6.205021,6.20564,6.2064724,6.2072883,6.2079377,6.2085667,6.208945,6.2094336,6.210362,6.211769,6.2134943,6.215431,6.217443,6.219773,6.222125,6.2243,6.2258472,6.2262044,6.225235,6.223599,6.221199,6.2184916,6.215868,6.2137103,6.212125,6.211009,6.210476,6.2106957,6.211789,6.2141457,6.2175217,6.221359,6.225144,6.228497,6.2312255,6.233494,6.234962,6.235696,6.235738,6.235254
6.204098,6.0736012,5.623395,4.8529663,4.128293,3.556293,3.0578246,2.7036936,2.4673817,2.3472142,2.2955642,2.2564957,2.2361474,2.2246156,2.2180135,2.2144282,2.2132118,2.2127495,2.2116973,2.2104702,2.2094955,2.2084713,2.2072802,2.205818,2.2042074,2.2026834,2.201361,2.20021,2.1991494,2.1980305,2.1968439,2.1955252,2.1940322,2.1924334,2.190883,2.1893768,2.1878157,2.1860127,2.1852403,2.1856105,2.1862533,2.1871614,2.1880498,2.1893444,2.1908538,2.1925402,2.1944175,2.1966228,2.199236,2.201813,2.2045257,2.207308,2.2101867,2.2129712,2.2155414,2.2179842,2.2202818,2.2229261,2.2258348,2.2289186,2.2320797,2.2352676,2.2383099,2.2408514,2.2431893,2.245669,2.2483659,2.2528527,2.2603717,2.2712507,2.2862139,2.3077545,2.3366854,2.4098737,2.534138,2.72635,3.015227,3.406394,3.8737006,4.292006,4.7976317,5.393949,5.756269,5.890244,6.111349,6.1881247,6.209557,6.237522,6.2641687,6.282709,6.2725334,6.228612,6.1986628,6.1709943,6.151509,6.137711,6.1368313,6.133241,6.113786,6.106516,6.144881,6.182863,6.214375,6.236823,6.2541866,6.2696586,6.2819023,6.293028,6.304037,6.3151264,6.3256063,6.335088,6.343106,6.349226,6.3540096,6.3580656,6.3606033,6.36156,6.3616815,6.361477,6.3610964,6.360928,6.3606524,6.360235,6.3595,6.358676,6.3576612,6.3563485,6.3551598,6.3538046,6.352395,6.350662,6.3486195,6.346399,6.344142,6.3419714,6.3398066,6.3370943,6.3336043,6.3293643,6.324488,6.3192296,6.313999,6.309167,6.3044624,6.299751,6.295303,6.2912607,6.2876654,6.284361,6.281039,6.2781916,6.275719,6.273723,6.272302,6.2712693,6.27032,6.2694364,6.268859,6.2685575,6.2683377,6.2679596,6.2674437,6.2669063,6.2662973,6.2657347,6.265092,6.2641134,6.262523,6.2603197,6.2577305,6.254757,6.250951,6.2463727,6.2410665,6.235119,6.2287817,6.222306,6.2159758,6.2102137,6.204792,6.1994514,6.1942973,6.1893115,6.184469,6.1799183,6.1759677,6.1726027,6.1697493,6.1673284,6.1652193,6.1632776,6.1612306,6.15884,6.1562753,6.1533027,6.150037,6.146701,6.143428,6.1402736,6.1372857,6.1344733,6.1319017,6.129635,6.1278496,6.126589,6.125674,6.1248503,6.12404,6.123107,6.1219807,6.120602,6.1188326,6.1164093,6.114655,6.1161203,6.118315,6.121767,6.126018,6.130355,6.13391,6.136089,6.136856,6.136421,6.134614,6.131645,6.1279845,6.1241593,6.120634,6.1176605,6.1152167,6.112937,6.111473,6.111414,6.11133,6.1115894,6.1137877,6.1160674,6.118017,6.119756,6.1212697,6.122594,6.123695,6.1245375,6.125179,6.125642,6.125926,6.1259594,6.1256614,6.125011,6.1243405,6.124321,6.1253276,6.127267,6.1301146,6.1333017,6.13616,6.138466,6.140469,6.14238,6.1443744,6.1465607,6.148695,6.1504955,6.1519322,6.1531124,6.1540165,6.154857,6.1558666,6.1573467,6.1596713,6.162627,6.165412,6.167398,6.16862,6.1686354,6.168168,6.1681347,6.16881,6.169748,6.170442,6.170734,6.17064,6.1704197,6.170688,6.171336,6.171668,6.171262,6.170383,6.168989,6.16742,6.165872,6.1643004,6.1623583,6.1598186,6.157065,6.1542788,6.151901,6.1507444,6.1508713,6.151862,6.1533003,6.154933,6.1568146,6.1589336,6.1610045,6.1628456,6.1641736,6.16483
4.612413,3.9573274,3.3767767,2.9075499,2.5807858,2.3876302,2.2467825,2.1802695,2.1577618,2.160114,2.1731129,2.1838832,2.188976,2.1916215,2.1924489,2.192233,2.1913745,2.1902883,2.1892366,2.18822,2.1874866,2.186809,2.186078,2.1851363,2.1841452,2.1833313,2.182707,2.1822264,2.1818626,2.1814907,2.1810536,2.180203,2.1789563,2.177665,2.17638,2.1751153,2.1737623,2.1721551,2.1715326,2.1720095,2.172753,2.1737528,2.1747198,2.1760635,2.1775548,2.179161,2.18089,2.1828525,2.1851306,2.1873438,2.1897042,2.1921766,2.1947567,2.1972694,2.1996105,2.2018476,2.2039747,2.206436,2.2091868,2.212069,2.2144632,2.2163067,2.2179718,2.2192798,2.2205338,2.2219565,2.2237215,2.2254682,2.2265117,2.2265909,2.2259998,2.2246141,2.2208047,2.220968,2.233952,2.2655368,2.3219547,2.420382,2.592175,2.7970123,3.083543,3.5094967,4.0164557,4.530654,5.0638638,5.6242647,5.966092,6.0974965,6.2431145,6.326308,6.297338,6.280072,6.2721996,6.2681046,6.2227473,6.1745934,6.139591,6.1153994,6.099733,6.093586,6.104031,6.109401,6.1075745,6.1304383,6.1719065,6.203752,6.2250195,6.2411637,6.257531,6.273495,6.28735,6.2986746,6.3080826,6.3158526,6.321778,6.326671,6.329625,6.3305235,6.330146,6.329201,6.327965,6.3266826,6.3250875,6.3231277,6.3206177,6.317745,6.3144636,6.310858,6.307557,6.304313,6.300955,6.297366,6.293459,6.289273,6.284965,6.2807007,6.2764745,6.2718186,6.2664986,6.259241,6.250642,6.2420425,6.2338037,6.2262254,6.2188816,6.211551,6.2045913,6.1983194,6.192891,6.188131,6.183653,6.17986,6.1766315,6.1740294,6.1721253,6.1707363,6.1695414,6.1684484,6.1676054,6.1667995,6.1657634,6.1642413,6.1622953,6.160177,6.1579747,6.155649,6.153003,6.149778,6.1456914,6.140815,6.13522,6.1309433,6.1336164,6.1353655,6.136399,6.1364536,6.1352124,6.1324863,6.1285686,6.1241484,6.11938,6.1146874,6.1105127,6.107305,6.1053123,6.104619,6.1052938,6.107325,6.1092978,6.1122594,6.1160007,6.1199574,6.123569,6.126257,6.128118,6.1296096,6.130968,6.132807,6.13522,6.137848,6.140353,6.14245,6.1446433,6.1475005,6.150673,6.1536818,6.15612,6.157773,6.1588135,6.1595683,6.1606393,6.160614,6.159934,6.159349,6.1593103,6.1606326,6.162699,6.1656823,6.1698446,6.174674,6.179103,6.1822977,6.184075,6.184492,6.1834054,6.1810412,6.176719,6.171322,6.166481,6.1626916,6.159788,6.157343,6.155614,6.155134,6.1556063,6.157081,6.1596956,6.1621637,6.1642127,6.1656504,6.1664753,6.166903,6.167104,6.167174,6.1672306,6.1673136,6.1674023,6.167453,6.167371,6.1670146,6.166593,6.166792,6.168059,6.1702824,6.1734023,6.176704,6.1793327,6.181001,6.1821184,6.1831245,6.1842833,6.1858444,6.1876683,6.189475,6.191099,6.192492,6.1936197,6.194582,6.1956444,6.196297,6.197233,6.1988096,6.2003336,6.201278,6.20177,6.2013903,6.2007627,6.2006574,6.2012014,6.2019114,6.202391,6.202582,6.2026114,6.202652,6.203219,6.2041054,6.2044635,6.203778,6.202506,6.2004576,6.1981587,6.195967,6.193999,6.192065,6.1899567,6.187853,6.186207,6.1843038,6.1832094,6.183635,6.185378,6.1877522,6.190306,6.192976,6.195934,6.1988864,6.201238,6.2020626,6.2014275
2.8097966,2.4324195,2.1995544,2.1135855,2.097042,2.115936,2.145711,2.1629076,2.1718106,2.174279,2.1735194,2.1732545,2.173349,2.1734798,2.1736648,2.1739655,2.1732879,2.1717696,2.1702416,2.168808,2.167613,2.1665337,2.165471,2.1643505,2.1632564,2.1624398,2.1619937,2.1616342,2.1613617,2.161037,2.1606581,2.1600146,2.1590953,2.158092,2.157028,2.1559577,2.154809,2.15341,2.1529288,2.1534822,2.1542983,2.1553757,2.1564035,2.1577892,2.159277,2.1608477,2.162512,2.1643333,2.1663666,2.168324,2.1704512,2.172736,2.175088,2.177355,2.179505,2.1816108,2.183646,2.1860235,2.1886802,2.1914592,2.1939836,2.1961765,2.198175,2.1998377,2.201429,2.2031028,2.204996,2.2063348,2.20652,2.2061293,2.2062333,2.2066689,2.2082496,2.2087264,2.20703,2.2032917,2.1960588,2.1855204,2.1815028,2.2063339,2.2628956,2.3712103,2.5925713,2.907188,3.2548628,3.710161,4.14029,4.5593786,5.043767,5.539415,5.897642,6.0866537,6.2429485,6.323945,6.2993307,6.268284,6.2178946,6.15033,6.1069736,6.0792418,6.0635467,6.0570283,6.0560136,6.068078,6.0851173,6.0972137,6.1142206,6.1482744,6.179839,6.2044806,6.2243977,6.240938,6.2539597,6.264209,6.271871,6.277827,6.2814617,6.28238,6.281302,6.279149,6.2763853,6.273287,6.269767,6.2643394,6.258046,6.251343,6.2438955,6.2360163,6.228834,6.221309,6.213395,6.2052836,6.196791,6.1879153,6.1789007,6.170015,6.161542,6.1524105,6.1418104,6.138362,6.1398325,6.139963,6.139447,6.1393123,6.139153,6.1388803,6.138266,6.137332,6.13589,6.133414,6.1297603,6.126147,6.123006,6.121104,6.120927,6.1216354,6.121911,6.121558,6.121309,6.121289,6.1218343,6.122909,6.1242404,6.125727,6.1274223,6.129224,6.1313396,6.1336007,6.1356764,6.1372213,6.1373777,6.136849,6.140111,6.1426125,6.14417,6.1445084,6.143415,6.140781,6.1369467,6.132677,6.1281066,6.1237597,6.120043,6.1172333,6.1154375,6.11481,6.1156673,6.1181846,6.121258,6.125537,6.131032,6.1372337,6.1433306,6.1485977,6.1530375,6.157365,6.1617665,6.166659,6.1720104,6.1772914,6.181905,6.185467,6.1885962,6.191751,6.194644,6.196987,6.1985483,6.199202,6.199131,6.198681,6.198636,6.1982975,6.197927,6.1980877,6.198763,6.1997004,6.201298,6.2038794,6.207642,6.212217,6.2168164,6.220551,6.2228036,6.22361,6.222822,6.220599,6.21688,6.2126474,6.209315,6.2074246,6.206726,6.2061763,6.206255,6.207153,6.208885,6.211334,6.2140956,6.2165504,6.219056,6.2212725,6.223127,6.2248116,6.226577,6.228565,6.2308583,6.2339454,6.237398,6.241049,6.2445297,6.2473974,6.2496204,6.2517157,6.254119,6.2567725,6.259573,6.2619658,6.263338,6.263632,6.2633843,6.263008,6.262474,6.2624474,6.2629585,6.2637568,6.264653,6.26556,6.2663665,6.2670655,6.2678204,6.2682247,6.2685585,6.268628,6.2678823,6.26664,6.2652035,6.2631497,6.2611113,6.259817,6.259333,6.2591467,6.258903,6.2585907,6.2584257,6.2585545,6.2594056,6.2606316,6.2611732,6.260345,6.258605,6.2556033,6.2519364,6.248031,6.2441826,6.2404275,6.2366943,6.23318,6.230418,6.228067,6.22735,6.228692,6.231502,6.234819,6.2379208,6.240444,6.2427745,6.244603,6.24568,6.245409,6.243785
2.0509832,2.0835493,2.1229758,2.1460376,2.1544466,2.1542552,2.152447,2.1516826,2.151951,2.152841,2.1541476,2.1550846,2.1546004,2.1544185,2.1543155,2.154255,2.1530921,2.151041,2.1490328,2.147174,2.1455414,2.1440694,2.142658,2.1413038,2.1400647,2.1391757,2.1387522,2.138428,2.1381493,2.1377668,2.1373546,2.1368937,2.13631,2.13557,2.1347008,2.1336906,2.132624,2.1313493,2.1309743,2.1315947,2.1324797,2.1336546,2.134805,2.1362739,2.1377325,2.1392267,2.1408126,2.1425257,2.144404,2.1461957,2.148176,2.1503363,2.1524854,2.1544745,2.1563592,2.1582463,2.160071,2.1622195,2.1646094,2.1671705,2.169891,2.172657,2.1752496,2.1775362,2.1797328,2.1819866,2.184326,2.185892,2.1862974,2.1862462,2.1865115,2.1868467,2.1861687,2.185733,2.1858602,2.1872458,2.1905093,2.1945558,2.1965363,2.1949267,2.1882033,2.1691036,2.1481173,2.150407,2.1949816,2.2863517,2.4907665,2.841453,3.2580757,3.7633264,4.2765656,4.698102,5.156521,5.558579,5.8997293,6.1047707,6.208437,6.22742,6.1776695,6.1423116,6.0985184,6.069069,6.0521584,6.038015,6.024818,6.0195303,6.0273986,6.0496616,6.0532427,6.0806665,6.114991,6.1420975,6.1630373,6.1789875,6.1906705,6.1990156,6.203607,6.2040997,6.2015543,6.1971197,6.1915236,6.1856337,6.17811,6.174972,6.1705337,6.163456,6.154632,6.1449122,6.136278,6.131076,6.1277857,6.124977,6.122075,6.118803,6.115129,6.11147,6.108066,6.1049047,6.1008677,6.1042747,6.1126795,6.1195326,6.125205,6.130662,6.135792,6.140796,6.14563,6.149703,6.1521997,6.1525793,6.1509047,6.1488647,6.1472764,6.1469507,6.148388,6.150651,6.152297,6.153218,6.1546226,6.1568723,6.160444,6.1653457,6.1711335,6.177015,6.1824546,6.1883802,6.1952353,6.2025723,6.211036,6.219898,6.2275004,6.2330756,6.2369256,6.2398896,6.2415633,6.241705,6.2403235,6.237577,6.233909,6.230065,6.2260695,6.222418,6.2194633,6.217167,6.215459,6.214321,6.2137194,6.214142,6.2146864,6.2161183,6.218624,6.221872,6.2251005,6.22749,6.2289023,6.230065,6.231163,6.232502,6.2341843,6.2359095,6.237197,6.237795,6.2380476,6.238169,6.237945,6.2376823,6.237364,6.2370596,6.2380238,6.2399607,6.242223,6.244746,6.2472863,6.2496605,6.251719,6.2532477,6.2545867,6.2563705,6.2583957,6.260396,6.261987,6.2626047,6.2618656,6.2602115,6.257322,6.254019,6.251418,6.2495565,6.2483544,6.248251,6.2489953,6.2497168,6.2509894,6.252891,6.2553196,6.258256,6.2613516,6.263383,6.2613697,6.25697,6.2504654,6.2427607,6.234741,6.227027,6.2199,6.2111382,6.2027855,6.1949606,6.1875443,6.1804295,6.1737185,6.1677713,6.162952,6.158702,6.1552296,6.15213,6.1487055,6.144659,6.140506,6.137257,6.1362076,6.1364384,6.1379404,6.1404424,6.1430283,6.144653,6.1449656,6.1440687,6.1417847,6.138252,6.1354465,6.135455,6.137405,6.1380057,6.1378856,6.1368394,6.1355515,6.1348915,6.1350975,6.1357574,6.1364703,6.1371484,6.1377654,6.1388836,6.140897,6.1434283,6.1455674,6.1466575,6.1468735,6.146372,6.1456194,6.1448464,6.1440854,6.143077,6.1415687,6.1398067,6.1383815,6.13797,6.139956,6.144534,6.150996,6.158387,6.1657634,6.1727576,6.1799617,6.18705,6.193789,6.199736,6.204573
2.1436996,2.1429257,2.1405811,2.1385067,2.1369927,2.13568,2.1355817,2.135753,2.1361985,2.1370127,2.138283,2.1386693,2.1364696,2.134832,2.13329,2.1316943,2.1300483,2.1283357,2.1265814,2.124919,2.1234775,2.122181,2.1209323,2.1197162,2.1186104,2.1178136,2.117414,2.117166,2.116965,2.1166792,2.1163988,2.1160638,2.1155849,2.1149535,2.1142507,2.1139302,2.1135232,2.1127045,2.1125536,2.113187,2.1138961,2.1147404,2.1153665,2.1163936,2.1177473,2.1192544,2.1208115,2.1224914,2.124345,2.126089,2.1280167,2.1301033,2.132138,2.133982,2.1357045,2.1374056,2.13901,2.140901,2.1430273,2.145373,2.1478536,2.1503515,2.1527445,2.1549063,2.15697,2.1590948,2.1611018,2.1629648,2.1648254,2.1667373,2.1685228,2.170187,2.169497,2.1689079,2.1689234,2.1697636,2.17158,2.173956,2.1767657,2.180152,2.1847131,2.190812,2.19608,2.1976745,2.194099,2.1845906,2.1783051,2.1904309,2.218379,2.3017604,2.5095415,2.8782701,3.370598,3.9097786,4.541459,5.068613,5.541568,5.902902,6.0688343,6.1805477,6.158374,6.123767,6.0897484,6.0515337,6.0198812,6.0071325,6.0027814,5.995104,5.968308,5.990368,6.019497,6.038547,6.0585704,6.0761056,6.0900764,6.1008162,6.108769,6.1136103,6.115323,6.1147776,6.1124597,6.107498,6.100835,6.103587,6.1052275,6.102705,6.0980206,6.0925827,6.0881963,6.08994,6.0958138,6.1042433,6.1141872,6.1243734,6.133751,6.1422567,6.150091,6.1588,6.1680317,6.1759086,6.1826077,6.1888537,6.1942472,6.1989913,6.203396,6.2072124,6.2093945,6.2107086,6.2113,6.210107,6.2074842,6.205069,6.203352,6.2025247,6.202658,6.2031507,6.203169,6.20269,6.2026916,6.2031975,6.2051144,6.208599,6.2129164,6.217018,6.220524,6.2246056,6.2292743,6.2352114,6.237811,6.2372966,6.236409,6.235264,6.233911,6.232107,6.2295084,6.225751,6.2207074,6.214099,6.2061434,6.1982284,6.190275,6.182461,6.17522,6.1685104,6.162341,6.156524,6.1505747,6.144874,6.1452003,6.1490374,6.1547647,6.160817,6.1657844,6.169242,6.1710815,6.172255,6.172903,6.1733704,6.173895,6.1742954,6.174135,6.173199,6.1718717,6.1704426,6.169242,6.1662183,6.161159,6.1545067,6.14291,6.129371,6.11981,6.1145782,6.11242,6.1120586,6.1126227,6.113527,6.114799,6.1166134,6.118421,6.120039,6.120822,6.1197925,6.1164203,6.110539,6.1010137,6.087271,6.0698576,6.0530214,6.04081,6.0332155,6.028494,6.0250764,6.0213466,6.01611,6.008851,5.9999123,5.9897394,5.977808,5.9587317,5.934624,5.9059772,5.8740625,5.840316,5.806566,5.7748218,5.741499,5.71015,5.6826735,5.6597185,5.6410737,5.6258135,5.6127453,5.6014504,5.5905824,5.580411,5.5704203,5.559452,5.546771,5.5329695,5.519664,5.508792,5.49822,5.4876194,5.477048,5.4679246,5.46213,5.4596734,5.4599023,5.462798,5.4674683,5.472775,5.4806213,5.4911976,5.4988866,5.504514,5.508276,5.510372,5.5114627,5.5118318,5.511217,5.5094495,5.5067396,5.5026283,5.4969454,5.491765,5.4889483,5.489109,5.492084,5.4973884,5.5047016,5.5140533,5.526079,5.5397615,5.5530386,5.5645466,5.5740223,5.5821786,5.5902195,5.598833,5.6086416,5.6200237,5.63306,5.647588,5.6640377,5.683384,5.705545,5.7292995,5.7534895,5.777526
2.126049,2.1248767,2.1245656,2.1242325,2.1239557,2.1241312,2.125188,2.1248658,2.1233108,2.121542,2.1201148,2.1188695,2.1176686,2.116622,2.1155856,2.114351,2.1128907,2.1112392,2.109539,2.108017,2.106793,2.1058242,2.1049428,2.1041288,2.1033447,2.1027625,2.1025505,2.1023936,2.10221,2.101934,2.1017215,2.1015465,2.1013122,2.1009893,2.100765,2.102,2.1030507,2.1031556,2.1033921,2.1039624,2.104177,2.1041386,2.1033869,2.1031592,2.1038828,2.104947,2.1059787,2.107171,2.1086137,2.109983,2.111523,2.1132984,2.1151514,2.116893,2.1184893,2.1200197,2.1215067,2.1232247,2.1251457,2.127261,2.129503,2.1318212,2.1341426,2.1362886,2.138256,2.1402457,2.142304,2.1442344,2.1460354,2.147832,2.1495395,2.1512167,2.152794,2.154449,2.1564288,2.158441,2.1598508,2.1606634,2.1620603,2.1640327,2.1668406,2.1706972,2.1743822,2.1775866,2.1815841,2.186425,2.191877,2.1976388,2.205208,2.210324,2.225367,2.2713022,2.3489606,2.460668,2.7537584,3.311926,4.0477333,4.765801,5.346202,5.7852416,5.9797325,6.0720015,6.1269765,6.1117353,6.0594707,6.028957,6.0068483,5.9956617,6.0010605,6.0144377,6.0066857,5.9948363,6.0003247,6.0110793,6.0230303,6.0347548,6.048064,6.062168,6.074754,6.086052,6.0956383,6.098655,6.1027617,6.107135,6.1113706,6.1141987,6.115771,6.1174307,6.119723,6.123069,6.1291265,6.1374707,6.1465745,6.1558027,6.164754,6.172365,6.178652,6.1840396,6.1889095,6.193936,6.1978755,6.1987505,6.1969957,6.1958885,6.1946707,6.1912045,6.1813293,6.1687493,6.1597195,6.154749,6.149835,6.1453686,6.1417146,6.139196,6.1378307,6.136553,6.134005,6.1300273,6.125327,6.120032,6.112924,6.1036034,6.0935144,6.083674,6.073471,6.063669,6.0530972,6.0413375,6.0151563,5.9781637,5.9411526,5.9060116,5.8752565,5.8471746,5.8209743,5.796217,5.7725277,5.7488527,5.724375,5.7004566,5.6779118,5.655115,5.6321516,5.608859,5.585375,5.5619073,5.5385866,5.514947,5.5070496,5.506163,5.508903,5.5127106,5.515606,5.5185184,5.521385,5.524654,5.5282393,5.5320344,5.5357847,5.5386305,5.539397,5.5376415,5.5337014,5.527641,5.5210004,5.507573,5.4874105,5.4620066,5.418632,5.3666162,5.325018,5.2961235,5.277304,5.265746,5.259799,5.2582517,5.2601647,5.264814,5.2709765,5.278106,5.2845955,5.2880697,5.2867146,5.2785773,5.2614927,5.231266,5.187357,5.1430454,5.11106,5.0907383,5.077817,5.0680804,5.0568166,5.0403953,5.0171146,4.987798,4.954886,4.9209976,4.885643,4.8469024,4.804516,4.7583456,4.709118,4.659546,4.6139994,4.57397,4.5390716,4.5133305,4.497609,4.490222,4.48774,4.4862638,4.4840684,4.4798646,4.473231,4.4635034,4.449575,4.431013,4.4086666,4.38356,4.354833,4.3225913,4.2867312,4.2481995,4.213928,4.1927238,4.185602,4.190372,4.207955,4.2356167,4.262346,4.282564,4.298644,4.311173,4.320712,4.3275642,4.3310585,4.331104,4.3278866,4.3213396,4.3115206,4.2995353,4.2845926,4.2645717,4.244285,4.229158,4.2218623,4.2228436,4.231022,4.2439985,4.261366,4.2846813,4.312292,4.340205,4.365403,4.386602,4.404509,4.4206514,4.434144,4.4457617,4.4572177,4.470234,4.4863195,4.506949,4.5335636,4.5665503,4.603912,4.644013,4.685995
2.1113381,2.115584,2.1179605,2.1147456,2.1109955,2.1095037,2.1081128,2.106444,2.1046298,2.102949,2.1014576,2.1007774,2.101779,2.1028259,2.1031003,2.10241,2.1009846,2.0992827,2.097777,2.0967665,2.0962703,2.0964975,2.0970392,2.0977645,2.0984638,2.0992887,2.1004663,2.1014621,2.102072,2.1025124,2.1032195,2.104264,2.105487,2.1068087,2.1082132,2.1095982,2.1106687,2.1107683,2.1110198,2.1115537,2.111629,2.1114373,2.1105568,2.109589,2.1080225,2.105978,2.103884,2.1021612,2.1009696,2.0999799,2.0992665,2.0994136,2.1002495,2.1012173,2.102067,2.1030679,2.1045403,2.1061497,2.1079156,2.109839,2.1118722,2.1140056,2.1162238,2.1183596,2.1202772,2.1222045,2.1242259,2.1261232,2.1278844,2.1296432,2.1313078,2.1329482,2.1345727,2.1362877,2.1381862,2.140401,2.1430109,2.145937,2.1490145,2.1524787,2.156064,2.1627805,2.164456,2.1611667,2.1635098,2.1660001,2.1690936,2.173248,2.1791568,2.186617,2.196672,2.2110252,2.2294147,2.2492495,2.3272676,2.4445639,2.6894274,3.1845016,3.884309,4.586648,5.3343387,5.715581,5.9584174,6.0560875,6.069622,6.086303,6.069064,6.0291586,6.006832,6.000224,6.0013766,6.008806,6.022867,6.0391927,6.0552406,6.069397,6.080804,6.0895414,6.09789,6.107469,6.117923,6.128496,6.139189,6.1504064,6.1610727,6.1698136,6.1756635,6.1795015,6.183983,6.191183,6.2037477,6.205728,6.193618,6.1760683,6.1609955,6.147934,6.134099,6.119242,6.101822,6.0841613,6.06072,6.023876,5.9779806,5.9395094,5.9014764,5.859222,5.8123856,5.7613654,5.727624,5.7272253,5.732827,5.7367544,5.740916,5.7454305,5.750159,5.7540894,5.7561455,5.7565117,5.7564993,5.758667,5.7431455,5.7038856,5.6566257,5.6101136,5.554915,5.499857,5.4410906,5.3579464,5.260126,5.1575465,5.054585,4.958347,4.8765125,4.8039975,4.7392273,4.681226,4.6286488,4.5810494,4.535914,4.488526,4.4457994,4.402818,4.3588147,4.313321,4.2670097,4.2203994,4.172845,4.1229496,4.0626726,3.9970481,3.9313693,3.8698626,3.8158762,3.7714052,3.7352376,3.7044852,3.6795223,3.6602452,3.6454682,3.6324782,3.6182668,3.6020744,3.5813994,3.5551481,3.5227644,3.4843194,3.4427555,3.4025342,3.3660338,3.3344421,3.3085124,3.289383,3.2763958,3.268279,3.2641437,3.2633939,3.2649627,3.2685127,3.2732067,3.277874,3.2810614,3.2816937,3.2794147,3.2737257,3.2636013,3.2499545,3.2347255,3.221335,3.212438,3.2080417,3.206666,3.2068586,3.2067866,3.2048697,3.2002592,3.1932263,3.184947,3.1767478,3.1682572,3.1588233,3.1478577,3.1349194,3.1202018,3.104888,3.0907848,3.0785396,3.0688984,3.0634608,3.0624208,3.0648503,3.068902,3.0724096,3.074429,3.074619,3.0727324,3.0687814,3.0627227,3.0546126,3.044971,3.0346363,3.0227761,3.008708,2.9948738,2.9827833,2.9730096,2.9660692,2.9619384,2.960248,2.9615626,2.965874,2.972548,2.9794977,2.984861,2.9889953,2.9921641,2.9943786,2.9952302,2.9938474,2.9913187,2.9885626,2.9845738,2.9808426,2.976165,2.9707599,2.9648242,2.9589925,2.9540205,2.950382,2.9485257,2.9479957,2.9493175,2.9524097,2.959065,2.9691787,2.979476,2.987896,2.9951792,3.0018964,3.0077274,3.0129657,3.0183372,3.024578,3.0322478,3.0420187,3.0553682,3.0722902,3.0917428,3.1125083,3.1335595
2.1209154,2.11775,2.113839,2.1085472,2.1038053,2.1003351,2.0978265,2.0961792,2.0950751,2.094515,2.0944448,2.0949154,2.0960846,2.0972002,2.0978308,2.0977287,2.097297,2.0968301,2.0964918,2.096511,2.0968792,2.0977056,2.0985808,2.0993378,2.099885,2.1004767,2.101343,2.1019874,2.102068,2.1019807,2.1022522,2.1030207,2.1041074,2.1053548,2.1067011,2.1079314,2.1090734,2.1093102,2.1096513,2.1101613,2.1101193,2.109839,2.1089578,2.1079748,2.1063638,2.1043441,2.1024556,2.101135,2.1004605,2.1000001,2.0997615,2.1003194,2.1014771,2.1025248,2.1030884,2.1034784,2.1041408,2.1049094,2.1057568,2.1066332,2.1074893,2.1083794,2.109321,2.1101012,2.1105185,2.110901,2.1111183,2.1116939,2.112858,2.1142435,2.1154866,2.11647,2.1175525,2.118744,2.1202726,2.1226733,2.1262376,2.1306524,2.1354742,2.1409764,2.147479,2.1551752,2.1617093,2.166689,2.1719928,2.1758828,2.179832,2.1719697,2.1581988,2.1543605,2.1615586,2.1685011,2.1744895,2.1797829,2.1934366,2.2064097,2.252374,2.3859067,2.6317322,2.9860837,3.5173783,4.1885967,4.927688,5.5418997,5.857999,5.950412,6.027504,5.9942265,6.0062404,6.022679,6.03127,6.032759,6.0369625,6.0514174,6.0686297,6.0853333,6.102167,6.117461,6.13337,6.1521115,6.17023,6.1801653,6.1797047,6.171633,6.157552,6.143359,6.1345105,6.1302686,6.121909,6.091488,6.044161,5.98742,5.9291263,5.863671,5.8202667,5.8410687,5.852569,5.832548,5.7672687,5.647083,5.5056,5.3745856,5.2506113,5.1316214,5.011746,4.8785563,4.724799,4.570712,4.4387045,4.330969,4.240805,4.15403,4.0736856,4.0038958,3.9460266,3.8989584,3.8599,3.8260412,3.7957888,3.7663703,3.734764,3.7002964,3.6659353,3.632463,3.5968907,3.560786,3.521573,3.4732406,3.421412,3.370716,3.3219795,3.2765965,3.237588,3.2012548,3.1684551,3.1392603,3.1138175,3.092063,3.0730915,3.056047,3.0411644,3.02674,3.0124035,2.9979243,2.983471,2.9691064,2.954446,2.938907,2.9193728,2.897559,2.875253,2.854126,2.835556,2.820208,2.807701,2.7969036,2.787818,2.7804782,2.7746048,2.769577,2.764728,2.7597494,2.7537193,2.7461371,2.7365997,2.725367,2.7131546,2.7011085,2.6908054,2.6818733,2.6734226,2.6659763,2.659895,2.6553454,2.6524296,2.651113,2.6509144,2.6514506,2.6524413,2.6534376,2.6539903,2.6538732,2.653094,2.6516342,2.6494558,2.646929,2.6445804,2.6426327,2.641109,2.6400695,2.6395667,2.6394262,2.6394982,2.63952,2.6392603,2.6387231,2.6381547,2.6378207,2.6377137,2.637658,2.6373408,2.6364086,2.6347237,2.6324592,2.62997,2.6275783,2.6256633,2.6246464,2.6247044,2.6256526,2.6269808,2.6281168,2.6287713,2.6288884,2.628434,2.6275678,2.626531,2.6254144,2.624164,2.622767,2.6206346,2.6173167,2.6134381,2.6096232,2.6061988,2.6033685,2.6012883,2.5998733,2.599129,2.5992205,2.6002889,2.6018715,2.6033473,2.6047316,2.6059284,2.6068835,2.6073666,2.6069775,2.605896,2.6044195,2.6024573,2.6004643,2.5981839,2.5957942,2.593131,2.5902262,2.587353,2.5847983,2.5829053,2.5816145,2.5810752,2.5810733,2.582017,2.5841703,2.5870333,2.5900714,2.5935507,2.5973766,2.6010118,2.6041698,2.6068993,2.6094356,2.612053,2.6149354,2.618541,2.6226737,2.6270583,2.6315193,2.6359148
2.1092248,2.1047275,2.100258,2.096642,2.093884,2.0918167,2.0902061,2.089617,2.0897408,2.090558,2.0920868,2.0941846,2.0964699,2.0980608,2.0993595,2.1001346,2.100707,2.1011183,2.1012866,2.1013637,2.101331,2.1012952,2.1009,2.100147,2.0991318,2.0980778,2.09713,2.096034,2.0945754,2.0930326,2.0920122,2.091737,2.092045,2.0927057,2.0935826,2.094576,2.095799,2.096277,2.0968647,2.0975053,2.0974827,2.0972564,2.096539,2.0958056,2.094613,2.093185,2.092089,2.091812,2.0923991,2.093265,2.0943196,2.096043,2.0982592,2.100186,2.1014156,2.10233,2.1033697,2.104513,2.10548,2.1062663,2.1069458,2.1076293,2.1082942,2.1086972,2.1088204,2.1088684,2.1086612,2.1087735,2.109282,2.1097145,2.10994,2.1098332,2.1096888,2.1094568,2.109407,2.1102095,2.1122024,2.1150794,2.1186938,2.123666,2.1301742,2.1373093,2.144957,2.1522772,2.1577096,2.161684,2.1655607,2.164554,2.1599343,2.1600294,2.1578035,2.1462228,2.1450043,2.1499314,2.155913,2.1612542,2.163618,2.1630208,2.1766126,2.244719,2.420425,2.7478533,3.2232673,3.8122294,4.4161797,4.9706936,5.4629307,5.775025,5.77301,5.8133783,5.8835244,5.9269905,5.9533396,5.980243,6.001136,6.0145082,6.0132694,6.001026,5.9829483,5.966045,5.9520535,5.9331264,5.922894,5.932832,5.9409027,5.9360237,5.878835,5.7527213,5.6136103,5.4743953,5.324623,5.1789894,5.0162525,4.8379493,4.6842403,4.5784354,4.4760823,4.362779,4.234221,4.0916915,3.9529657,3.8314967,3.723796,3.6276555,3.5418277,3.453968,3.3589833,3.2664576,3.1840696,3.1109827,3.0496438,2.9925578,2.9390209,2.8914082,2.8509197,2.8175263,2.7900586,2.766867,2.7465773,2.7266319,2.7093217,2.695619,2.6839995,2.6728983,2.6622887,2.6512341,2.6388466,2.6256733,2.6124144,2.599556,2.5870914,2.5749655,2.5638113,2.5525336,2.5418494,2.532135,2.5238667,2.5173025,2.512583,2.5100303,2.5081253,2.5066404,2.5054507,2.5045443,2.5039716,2.5036924,2.5035467,2.503356,2.5033007,2.5031567,2.502893,2.5026982,2.502748,2.50305,2.5035286,2.504009,2.504286,2.5043426,2.5042334,2.5041611,2.5043755,2.504816,2.5054004,2.5059888,2.506474,2.5068834,2.5070896,2.5069053,2.506458,2.505484,2.5037084,2.501374,2.4988835,2.4966679,2.495058,2.4941554,2.4937704,2.493619,2.4936163,2.49362,2.4935126,2.4932618,2.492916,2.4925756,2.492507,2.492623,2.4928484,2.492956,2.4926863,2.4920294,2.491333,2.4906604,2.4902155,2.490057,2.4901469,2.4904768,2.4910805,2.4919605,2.4932332,2.4948812,2.496776,2.4986293,2.5001917,2.5013328,2.501987,2.5023189,2.5024974,2.5025542,2.5026648,2.5028949,2.5031562,2.5033612,2.5034177,2.5033133,2.5030756,2.502894,2.5030837,2.5037563,2.5046926,2.5056186,2.506174,2.5060654,2.5050998,2.5034544,2.501612,2.500039,2.4989266,2.498206,2.497726,2.497467,2.4973226,2.4973097,2.4975324,2.4979465,2.4983814,2.4987888,2.49903,2.4989336,2.4983292,2.4972389,2.4959123,2.4944177,2.4928336,2.4911819,2.4894366,2.4876723,2.4860592,2.4847484,2.483892,2.4834256,2.483266,2.4832294,2.4830995,2.4830725,2.4836075,2.4847813,2.486683,2.4890919,2.4914784,2.4934757,2.4949691,2.4960375,2.4968746,2.4974978,2.4979947,2.4982095,2.4981399,2.4978824,2.4974937
2.0890749,2.0859237,2.0832322,2.0817416,2.0811646,2.0812302,2.081612,2.0829465,2.0848699,2.087514,2.090621,2.093717,2.0966623,2.09882,2.10083,2.1024132,2.1037245,2.1045759,2.1046224,2.1039202,2.102792,2.1013696,2.0992568,2.09628,2.092784,2.089365,2.0863314,2.0835636,2.0807421,2.0779796,2.075889,2.0745933,2.0740323,2.0741591,2.07475,2.075739,2.0772748,2.078201,2.079237,2.080193,2.0803308,2.0802708,2.0798035,2.0793629,2.078493,2.0774617,2.0769424,2.07747,2.0790117,2.0808883,2.0830686,2.085918,2.089265,2.0923386,2.0947263,2.0967941,2.0989156,2.1011047,2.1030161,2.1046443,2.1061008,2.107524,2.1088498,2.109738,2.1101992,2.1103792,2.1101637,2.1099954,2.1099029,2.1095073,2.1087341,2.1074963,2.1059477,2.1040316,2.1020355,2.1006103,2.1001463,2.100511,2.1016545,2.1039598,2.107892,2.1131315,2.1190617,2.1249568,2.130177,2.134543,2.1389513,2.1454873,2.152148,2.1578655,2.156256,2.147044,2.146505,2.1500194,2.1430674,2.1407485,2.1447244,2.14943,2.1491814,2.1426058,2.1505675,2.152523,2.2233567,2.4497814,2.84658,3.3455348,3.8544848,4.3130445,4.546043,4.829386,5.0974817,5.2917013,5.4198847,5.482401,5.489001,5.453548,5.3799257,5.2815895,5.1741695,5.055247,4.925508,4.8160844,4.728672,4.6699057,4.620946,4.565549,4.469293,4.320403,4.16541,4.026288,3.8962839,3.7753067,3.6408534,3.4998865,3.3716347,3.252593,3.1434562,3.0418787,2.9515378,2.878365,2.8190036,2.7675397,2.7236104,2.688926,2.6634355,2.642181,2.6250253,2.6098843,2.595642,2.5835295,2.5742168,2.5669389,2.5594518,2.5518632,2.544682,2.5384865,2.5335865,2.5298967,2.5270987,2.5248647,2.5233302,2.5224805,2.5221477,2.5220392,2.521839,2.521468,2.5208666,2.5198379,2.518007,2.5149772,2.5108736,2.5063534,2.5019207,2.49765,2.4935143,2.4896488,2.486155,2.4833379,2.481443,2.480184,2.4792476,2.478369,2.4774196,2.4764838,2.4757624,2.4753551,2.4751825,2.4750462,2.474849,2.4746547,2.4745865,2.4748285,2.4754972,2.4765403,2.4777954,2.479139,2.480349,2.4813128,2.4820218,2.4825637,2.4830577,2.4835238,2.4839005,2.4841347,2.4842143,2.4842358,2.484248,2.4842088,2.4840987,2.4837153,2.4829798,2.4819958,2.4809325,2.4799957,2.4793806,2.4791794,2.4792895,2.4795012,2.4797955,2.4800665,2.4801579,2.4799843,2.4795847,2.479039,2.4784071,2.477795,2.4772193,2.4766195,2.4758768,2.474947,2.474062,2.4732301,2.4725015,2.4719281,2.4714322,2.471054,2.4709973,2.471376,2.4722772,2.4737194,2.475639,2.4777453,2.4797375,2.481421,2.482656,2.4834962,2.4840739,2.4843955,2.4845881,2.4847655,2.4849143,2.4849453,2.4848044,2.4844546,2.4839194,2.483437,2.4833615,2.483828,2.4846466,2.4855525,2.4862688,2.486491,2.4860795,2.4851441,2.483999,2.482947,2.482092,2.4813871,2.4807348,2.4800808,2.479469,2.4789934,2.4787223,2.478674,2.4787517,2.4789052,2.47904,2.4789777,2.478623,2.4780118,2.4772544,2.47647,2.475684,2.4749162,2.4740841,2.4731853,2.4723313,2.4716299,2.4711802,2.470908,2.470706,2.4703877,2.4699104,2.469535,2.4695854,2.4701042,2.4711478,2.4725926,2.4739966,2.4750679,2.4757283,2.4760463,2.4762,2.4762034,2.4761434,2.4759953,2.475774,2.4755068,2.4751582
