36.971535,37.140533,37.251335,37.152542,36.87011,35.833527,33.447693,30.576637,28.746107,28.305532,28.627007,29.590656,31.735981,33.490463,34.79952,35.580154,35.982563,36.189407,36.25171,36.328873,36.37815,36.29426,36.2322,36.223637,36.19613,36.12535,36.00795,35.808258,35.558228,35.14296,34.337914,32.872917,30.371956,26.805481,24.686552,23.681427,23.172325,22.956257,22.913433,22.91343,23.017899,23.163559,23.226858,23.192543,23.088034,22.965225,22.863935,22.794374,22.747778,22.710537,22.69152,22.712248,22.750317,22.785088,22.833008,22.90239,22.967903,23.018637,23.01485,22.929153,22.751583,22.492798,22.187435,21.848562,21.490623,21.160793,20.894077,20.70113,20.581062,20.529322,20.516752,20.5216,20.547369,20.593868,20.651815,20.712769,20.779066,20.85804,20.957718,21.093042,21.269512,21.492413,21.752687,22.01902,22.256332,22.466599,22.61792,22.72734,22.902573,23.18187,23.517393,23.910532,24.3722,24.938742,25.570877,28.1379,37.345844,51.62301,60.427753,62.65687,64.280594,64.83511,65.03904,65.375435,65.44828,64.92499,64.49457,64.45794,64.56915,64.80103,65.10225,65.36807,65.53897,65.62872,65.624855,64.956436,63.063744,60.78331,58.118027,54.599617,51.74845,49.96875,49.050163,48.737514,48.78968,48.926056,48.95643,48.96927,49.113316,49.43502,49.954315,50.40786,50.71812,50.957474,51.091206,51.14637,51.15291,51.286015,51.450584,51.765915,52.434547,53.341576,54.095318,54.91398,55.708687,56.537308,57.689766,59.284843,61.108727,62.903984,64.58466,65.602554,66.21366,66.683304,67.06124,67.28938,67.36989,67.38904,67.40755,67.415405,67.405396,67.401855,67.42709,67.47221,67.539444,67.62761,67.647934,67.619446,67.57747,67.53758,67.50392,67.46456,67.4081,67.32785,67.2287,67.12856,67.05012,67.00603,66.99097,66.98293,66.965034,66.91237,66.80484,66.65295,66.49088,66.3519,66.2762,66.283134,66.327835,66.35617,66.24825,65.89131,65.298065,64.57553,63.790573,63.182564,62.90882,62.816998,62.70838,62.499958,61.9909,61.07289,59.681686,58.302444,57.579185,57.849133,58.732613,59.319244,59.71373,59.849564,59.785393,59.68107,59.637047,59.657486,59.730152,59.825413,59.897728,59.933548,59.930447,59.893757,59.82876,59.738,59.622463,59.49221,59.359394,59.25721,59.211792,59.22161,59.266136,59.330532,59.401325,59.476257,59.571228,59.698044,59.854393,60.02579,60.190796,60.333107,60.451553,60.533596,60.57798,60.60063,60.61936,60.640503,60.68489,60.76419,60.86763,60.9796,61.066757,61.091377,61.037964,60.9111,60.69196,60.383842,59.99035,59.56729,59.197853,58.93551,58.79722,58.880447,59.114433,59.476482,59.858402,60.14156,60.27407,60.23758,60.025276,59.68064,59.245083,58.74946,58.31469,58.103912,58.144333,58.271362,58.531574,58.857094,59.122917,59.224354,59.144104,58.940125,58.656254,58.387573,58.213562,58.177155,58.315308,58.57489,58.817173,59.000587,59.0887,59.03975,58.934326,58.829155,58.727005,58.61337,58.464294,58.216167,57.750336,56.86068,55.602142,54.3244,53.404587,53.095848,54.12504,56.15821,58.427757,60.135918,61.10568,61.6566,62.04811
37.001434,37.21272,37.327267,37.220654,36.93007,35.837517,33.451347,30.543228,28.652426,28.173973,28.470242,29.38657,31.473234,33.33237,34.718132,35.532257,35.961334,36.192863,36.261826,36.30591,36.3755,36.32702,36.285538,36.268143,36.20803,36.102352,35.970856,35.72889,35.470924,34.842262,33.63623,31.236618,27.822704,25.382189,23.979298,23.338362,23.016594,22.858646,22.837666,22.914684,23.069126,23.15773,23.163406,23.092613,22.966038,22.838463,22.75338,22.705898,22.679115,22.65674,22.661472,22.69409,22.732578,22.768282,22.813055,22.863483,22.903515,22.940514,22.921082,22.81157,22.606884,22.32547,22.009964,21.683582,21.359505,21.076708,20.857079,20.698574,20.592184,20.534637,20.513973,20.51138,20.535267,20.583904,20.644482,20.708538,20.779926,20.862442,20.956806,21.081112,21.241894,21.444324,21.68045,21.922379,22.139038,22.334778,22.493153,22.613289,22.771973,23.013958,23.312374,23.65527,24.115334,24.675213,25.175106,26.133186,31.772194,44.948036,59.876347,62.82211,63.993313,64.37242,64.62365,64.96171,65.05148,64.549576,64.128555,64.07128,64.20018,64.45233,64.74635,64.99431,65.15833,65.2406,65.19173,64.90669,63.003963,60.605034,58.04625,54.56102,51.730347,49.950653,49.049667,48.740417,48.78769,48.908722,48.899628,48.863564,48.96381,49.240383,49.736515,50.198837,50.505363,50.719547,50.864296,50.940407,50.982365,51.08905,51.307583,51.636078,52.15243,52.891167,53.576042,54.333374,55.127098,56.008698,57.177223,58.73462,60.49478,62.122967,63.60181,64.79588,65.53071,66.00969,66.33977,66.441536,66.40088,66.457825,66.59201,66.71581,66.78898,66.8369,66.88602,66.92856,66.97919,67.042984,67.027466,66.97729,66.93203,66.90395,66.904816,66.91525,66.91989,66.90915,66.8773,66.83397,66.79817,66.78276,66.78552,66.7872,66.7741,66.72329,66.61633,66.46346,66.296074,66.14485,66.052505,66.04032,66.074715,66.10869,66.03064,65.73169,65.21521,64.572296,63.86276,63.31111,63.06469,62.986645,62.888405,62.676052,62.15184,61.294846,59.876488,58.418434,57.562424,57.641296,58.359367,58.911404,59.317184,59.505196,59.504086,59.44751,59.43179,59.468895,59.54882,59.64592,59.722786,59.766598,59.776024,59.75414,59.70246,59.62243,59.515915,59.391205,59.263298,59.164936,59.122967,59.13894,59.194794,59.274773,59.369637,59.476036,59.605225,59.76424,59.94433,60.126114,60.291267,60.427788,60.535988,60.610214,60.651222,60.672897,60.692913,60.72,60.772285,60.861404,60.975765,61.098587,61.199463,61.24559,61.220505,61.117695,60.910645,60.588562,60.13851,59.62465,59.15544,58.809254,58.62892,58.713562,58.988697,59.436447,59.910942,60.255714,60.41803,60.389336,60.16713,59.803825,59.33341,58.83158,58.397797,58.126766,58.070606,58.165657,58.400597,58.714577,58.97976,59.084877,59.000916,58.771175,58.44427,58.13096,57.8971,57.83858,58.00115,58.304916,58.60479,58.850075,58.98397,58.95687,58.858658,58.75834,58.666862,58.57212,58.44402,58.189217,57.734627,56.82737,55.49774,54.115234,53.094933,52.713654,53.6734,55.732067,58.086655,59.88016,60.90282,61.498463,61.976795
37.046425,37.281128,37.398445,37.280746,36.983738,35.881477,33.487537,30.547764,28.597183,28.069984,28.335,29.186668,31.203499,33.179787,34.643173,35.48758,35.945335,36.20501,36.28415,36.30509,36.3541,36.35149,36.32838,36.27337,36.18361,36.06599,35.843224,35.687897,35.267822,34.23609,32.273033,29.233124,26.005398,24.377441,23.557442,23.124702,22.871803,22.780792,22.841558,22.961147,23.062046,23.106054,23.065788,22.963627,22.831745,22.722008,22.664158,22.641521,22.635376,22.629599,22.644024,22.679241,22.718029,22.753067,22.793865,22.839912,22.860085,22.879646,22.83903,22.702726,22.47132,22.170551,21.848713,21.536083,21.243446,21.00211,20.822186,20.690239,20.591232,20.525291,20.494825,20.485989,20.508823,20.560505,20.626139,20.698746,20.781551,20.862314,20.95074,21.0676,21.219137,21.408321,21.626247,21.847084,22.043507,22.222782,22.380117,22.518589,22.68584,22.90239,23.157185,23.467987,23.849918,24.37819,24.969494,25.5858,28.397923,38.497715,56.52887,62.534363,63.762024,63.93814,64.21044,64.54204,64.676346,64.29262,63.801605,63.786293,63.928818,64.157036,64.43376,64.67649,64.82033,64.88785,64.790474,64.87925,63.02732,60.501957,57.97178,54.512978,51.671913,49.876884,48.98597,48.68922,48.73648,48.840454,48.79341,48.700066,48.74847,48.97444,49.410973,49.879807,50.19713,50.371246,50.518448,50.607452,50.672523,50.77487,50.967236,51.273567,51.70463,52.25238,52.85811,53.523186,54.273876,55.15013,56.267876,57.73569,59.425186,60.933502,62.19535,63.258293,64.02436,64.46364,64.628784,64.67219,64.77573,64.92978,65.154305,65.418976,65.664894,65.8634,66.00679,66.08674,66.13633,66.15475,66.14621,66.1113,66.07105,66.062454,66.10306,66.16783,66.23931,66.30618,66.35302,66.380066,66.4005,66.42534,66.453735,66.46865,66.46037,66.40965,66.301315,66.14754,65.978745,65.82224,65.721085,65.69328,65.718506,65.761475,65.72041,65.48961,65.064186,64.5226,63.90788,63.42894,63.220394,63.159744,63.0716,62.854317,62.309402,61.466682,60.034813,58.456516,57.396328,57.240875,57.76789,58.304634,58.663544,58.927284,59.022625,59.031414,59.06031,59.12878,59.21869,59.322704,59.40931,59.467216,59.497696,59.502087,59.477947,59.42551,59.346245,59.24634,59.141983,59.06264,59.033768,59.059563,59.125122,59.21508,59.327385,59.458206,59.615753,59.803482,60.005363,60.195744,60.35974,60.48894,60.585747,60.651314,60.689148,60.710926,60.733696,60.769066,60.82895,60.924034,61.044327,61.172882,61.28264,61.347435,61.351818,61.27781,61.0885,60.74796,60.2391,59.635406,59.061874,58.621426,58.386032,58.50301,58.829098,59.350044,59.913864,60.327847,60.517113,60.49968,60.276337,59.909702,59.43492,58.920956,58.468983,58.16677,58.043617,58.087902,58.278362,58.56084,58.80716,58.903748,58.811028,58.555298,58.188274,57.836506,57.5166,57.429817,57.63324,57.98524,58.338028,58.64612,58.829727,58.83181,58.749695,58.662914,58.591072,58.52044,58.40202,58.12413,57.665413,56.771355,55.39861,53.895233,52.76219,52.35496,53.26602,55.303375,57.76928,59.686024,60.771713,61.405766,61.908638
37.08633,37.331253,37.450325,37.318115,37.00997,35.94059,33.546173,30.593187,28.58826,27.987896,28.200293,28.993425,30.933838,33.02308,34.565315,35.44078,35.92704,36.216187,36.30813,36.314873,36.356277,36.341293,36.322895,36.275646,36.15907,36.001965,35.822918,35.682632,34.989586,33.470356,30.321486,26.800037,24.890999,23.861744,23.356354,23.013306,22.828457,22.79854,22.880854,22.986135,23.02945,23.02119,22.945925,22.836882,22.722633,22.644157,22.619167,22.62209,22.634483,22.6428,22.657263,22.683031,22.721249,22.762793,22.799309,22.83967,22.859219,22.864058,22.799425,22.635027,22.376423,22.055988,21.726646,21.423405,21.153675,20.946144,20.798285,20.682772,20.584274,20.513798,20.468447,20.454838,20.477886,20.53139,20.605774,20.691706,20.778633,20.856804,20.9412,21.05235,21.199677,21.383488,21.59069,21.796078,21.975134,22.138168,22.289957,22.444115,22.624092,22.846394,23.10048,23.358675,23.677704,24.153444,24.741385,25.343681,26.64785,33.408947,49.84368,61.97153,63.645195,63.51937,63.81202,64.12918,64.33386,64.15925,63.57233,63.530415,63.670822,63.903873,64.177574,64.40005,64.5124,64.55888,64.47986,64.57595,62.937874,60.51065,57.902855,54.477383,51.590614,49.7919,48.896446,48.61219,48.661324,48.742622,48.65798,48.509163,48.508286,48.68726,49.075977,49.529663,49.83353,49.973007,50.113052,50.20395,50.276527,50.37721,50.509872,50.740875,51.08282,51.484085,52.010773,52.57856,53.26011,54.085735,55.12393,56.404686,57.8683,59.379154,60.63497,61.517067,62.126495,62.49157,62.666603,62.787354,62.950787,63.181015,63.49844,63.886723,64.26086,64.577415,64.82761,64.99216,65.104706,65.165344,65.18488,65.17006,65.14406,65.15236,65.2255,65.335594,65.46414,65.599815,65.72035,65.81822,65.89955,65.97068,66.03001,66.06169,66.060684,66.01079,65.90194,65.750565,65.58697,65.43454,65.335434,65.29812,65.32132,65.37956,65.37935,65.21963,64.88684,64.44252,63.932545,63.52449,63.35252,63.313316,63.23624,63.01011,62.4407,61.52854,60.116093,58.405838,57.09375,56.69122,57.017456,57.52621,57.896698,58.166954,58.319786,58.424484,58.55166,58.689716,58.78675,58.89936,58.99662,59.069714,59.12355,59.15847,59.168697,59.15324,59.11203,59.049248,58.980858,58.931152,58.92218,58.959656,59.032322,59.126396,59.248413,59.395473,59.574493,59.786804,60.00953,60.20984,60.374992,60.499794,60.589638,60.645077,60.6735,60.69616,60.73285,60.783936,60.856136,60.959457,61.08295,61.208603,61.316307,61.390434,61.41645,61.363907,61.196938,60.841347,60.27086,59.579937,58.899796,58.343063,58.070747,58.24879,58.631454,59.22316,59.869083,60.341957,60.555817,60.552063,60.33539,59.980297,59.520836,59.011894,58.544456,58.20911,58.04235,58.03002,58.165184,58.403286,58.6193,58.7004,58.597687,58.31962,57.91884,57.53272,57.152954,57.018456,57.242207,57.660988,58.059364,58.427376,58.66047,58.69423,58.6328,58.564903,58.520706,58.46832,58.29834,57.993385,57.585606,56.7324,55.325016,53.714294,52.481228,52.07801,52.962738,54.972702,57.534508,59.57937,60.73173,61.390224,61.905487
37.1195,37.3674,37.485756,37.336456,37.00393,36.002472,33.556282,30.586136,28.546722,27.863659,28.00748,28.756361,30.643122,32.854786,34.483063,35.389877,35.90327,36.223633,36.327797,36.326237,36.361115,36.34412,36.32526,36.29979,36.175964,35.95134,35.804245,35.540283,34.551804,31.612074,27.990849,25.41364,24.091446,23.514366,23.199823,22.955639,22.835556,22.851492,22.93248,22.985445,22.973465,22.920372,22.825375,22.719702,22.63288,22.592678,22.600277,22.626575,22.654621,22.673307,22.690735,22.713829,22.745825,22.782684,22.81976,22.85947,22.881823,22.872519,22.782616,22.590445,22.306671,21.967567,21.630302,21.333132,21.080303,20.899689,20.771782,20.66544,20.57185,20.498466,20.446753,20.420483,20.439062,20.501049,20.588394,20.681488,20.768536,20.844614,20.926714,21.03786,21.184174,21.363558,21.563427,21.758808,21.92355,22.071455,22.215168,22.375126,22.578243,22.8218,23.071491,23.3024,23.545433,23.937004,24.507217,25.117704,25.877407,30.127874,42.738705,60.87986,63.406136,63.11364,63.395817,63.698444,63.960495,63.984306,63.41167,63.344017,63.47197,63.70384,63.9674,64.1552,64.215805,64.2347,64.164276,64.12598,62.871704,60.668488,57.88801,54.49659,51.519455,49.691154,48.77672,48.51225,48.574165,48.628334,48.493103,48.286446,48.239464,48.3776,48.728203,49.15203,49.42653,49.535576,49.66027,49.743824,49.81326,49.8971,49.983536,50.121376,50.33319,50.602318,51.007645,51.471153,52.0745,52.82887,53.762886,54.87023,56.067898,57.233765,58.284187,59.124382,59.71556,60.063057,60.25786,60.45231,60.748547,61.134277,61.710434,62.232426,62.69169,63.123962,63.490917,63.75769,63.94934,64.06723,64.12185,64.14386,64.14666,64.17059,64.270164,64.41301,64.58522,64.77577,64.96178,65.13043,65.27862,65.40507,65.50588,65.562744,65.573555,65.52765,65.422195,65.27548,65.11722,64.97258,64.87912,64.8472,64.87726,64.95032,64.98632,64.892334,64.646774,64.29636,63.883324,63.552025,63.41996,63.398678,63.329773,63.092484,62.49601,61.520782,60.09987,58.212803,56.630547,55.99009,56.0911,56.47407,56.945774,57.301994,57.51477,57.680496,57.867676,58.063324,58.241413,58.373566,58.483284,58.57286,58.652424,58.721066,58.77071,58.79978,58.805305,58.790398,58.768944,58.758125,58.772232,58.817837,58.89213,58.984665,59.108162,59.259995,59.450653,59.68151,59.92237,60.132797,60.301598,60.424507,60.510254,60.55879,60.586823,60.619576,60.671402,60.73877,60.821358,60.927654,61.045715,61.158092,61.253975,61.32985,61.37262,61.340515,61.193604,60.82767,60.20195,59.431847,58.65158,57.9751,57.66225,57.899925,58.375,59.056187,59.77388,60.29329,60.528496,60.538147,60.33406,60.00258,59.57546,59.091522,58.62593,58.265198,58.05163,57.97561,58.04287,58.22193,58.395267,58.452675,58.33702,58.0402,57.611343,57.19524,56.77073,56.604103,56.84556,57.31871,57.764046,58.188953,58.47007,58.533585,58.491814,58.44724,58.42553,58.376884,58.191376,57.902985,57.48572,56.679794,55.27379,53.56153,52.24198,51.847763,52.651924,54.679672,57.357967,59.51729,60.737694,61.453747,62.021317
37.14322,37.389343,37.501526,37.32999,36.96352,35.99582,33.46324,30.462849,28.403568,27.658546,27.74221,28.456642,30.328514,32.677532,34.403023,35.342697,35.88069,36.22593,36.327988,36.344807,36.370674,36.33506,36.35137,36.316612,36.153168,35.967003,35.74307,35.24254,33.042664,29.252058,26.01242,24.40586,23.656406,23.332005,23.06814,22.883457,22.835686,22.885067,22.942942,22.949802,22.899515,22.823149,22.728584,22.640507,22.579548,22.563946,22.587128,22.618362,22.648155,22.667816,22.687538,22.707329,22.736498,22.777262,22.819288,22.860397,22.880116,22.867039,22.780518,22.577751,22.269321,21.915392,21.570848,21.275677,21.032747,20.8619,20.742657,20.644268,20.554173,20.476929,20.421494,20.390667,20.4087,20.474918,20.567251,20.662237,20.74823,20.822273,20.901613,21.012787,21.162573,21.346283,21.546223,21.734756,21.889843,22.025108,22.156265,22.309357,22.51908,22.78212,23.04716,23.266232,23.46896,23.783356,24.29264,24.911121,25.529264,27.801819,36.038246,57.906673,62.699554,62.813507,62.937843,63.234276,63.520905,63.703445,63.47698,63.45254,63.58436,63.815712,64.0242,64.07311,63.96647,63.916832,63.835648,63.685158,63.151337,61.169487,57.910187,54.604637,51.481613,49.62829,48.65423,48.40233,48.425358,48.39247,48.2344,48.00052,47.915092,48.026604,48.35641,48.750435,48.994595,49.081203,49.180386,49.248688,49.305565,49.364716,49.412407,49.48013,49.582077,49.718697,49.98447,50.39411,50.895412,51.54708,52.355034,53.264732,54.19876,55.066273,55.857185,56.52439,57.015022,57.34124,57.582157,57.848526,58.21796,58.69075,59.37081,60.135384,60.95263,61.63201,62.060028,62.40035,62.665188,62.848366,62.960503,63.04567,63.104797,63.159767,63.273376,63.43431,63.632706,63.858578,64.09481,64.32715,64.543526,64.733116,64.88637,64.9801,65.01281,64.968506,64.856415,64.71077,64.564644,64.435234,64.35452,64.33041,64.36319,64.43861,64.4913,64.44022,64.25949,63.98497,63.654922,63.390167,63.29928,63.299683,63.23886,62.9955,62.380806,61.356148,59.917244,57.829082,55.983376,55.14627,55.057217,55.33155,55.784657,56.223343,56.59127,56.882668,57.131737,57.37141,57.592186,57.774635,57.909912,58.01879,58.124847,58.22914,58.321777,58.400696,58.45906,58.49981,58.53322,58.56675,58.60836,58.66304,58.729412,58.802883,58.908295,59.047947,59.23703,59.478394,59.735016,59.95703,60.13254,60.25649,60.338074,60.389977,60.42409,60.463966,60.529358,60.610603,60.699223,60.802017,60.90638,60.996517,61.073257,61.146587,61.204235,61.193413,61.069435,60.69948,60.0278,59.193085,58.32538,57.533237,57.20109,57.50615,58.101574,58.893593,59.6718,60.213226,60.462692,60.480164,60.287224,59.984505,59.60134,59.15679,58.704384,58.322117,58.05745,57.907135,57.890846,57.993607,58.108803,58.13102,57.99666,57.68188,57.229286,56.80436,56.324963,56.121487,56.397762,56.936623,57.419872,57.894646,58.215405,58.299873,58.272186,58.247696,58.26628,58.274662,58.121803,57.85609,57.422554,56.639595,55.227474,53.435257,52.051544,51.6737,52.383156,54.43479,57.22985,59.493443,60.780403,61.563736,62.185287
37.079605,37.315193,37.412216,37.226654,36.849068,35.837856,33.212326,30.182518,28.124037,27.339521,27.375038,28.101711,29.92989,32.46542,34.3285,35.30795,35.867348,36.235283,36.32143,36.34739,36.348488,36.317757,36.377728,36.32311,36.10627,35.986835,35.85772,34.54878,30.673431,26.904213,24.701878,23.778343,23.430107,23.188934,22.972382,22.846092,22.844007,22.892952,22.915503,22.888985,22.819988,22.742512,22.6651,22.603037,22.565302,22.562733,22.587837,22.613636,22.636536,22.649677,22.665916,22.682209,22.702879,22.73593,22.779636,22.822514,22.83958,22.824696,22.745335,22.559668,22.2605,21.89722,21.545704,21.248627,21.007898,20.836416,20.718513,20.623055,20.531494,20.450346,20.39238,20.36129,20.380894,20.449203,20.543003,20.63823,20.72316,20.795357,20.872974,20.984152,21.138386,21.330109,21.536964,21.726433,21.87458,21.998257,22.114168,22.250622,22.450274,22.719753,23.005913,23.240822,23.427204,23.677029,24.095566,24.678534,25.244131,26.457256,31.494766,49.569702,60.871338,63.010933,62.43554,62.753937,63.038956,63.270905,63.335884,63.482952,63.729416,64.01744,64.24989,64.203,63.820812,63.61274,63.498432,63.318184,63.16578,61.40056,58.010307,54.710724,51.515984,49.67704,48.65146,48.321796,48.238136,48.120766,47.950462,47.71292,47.596954,47.69746,48.028767,48.39522,48.607925,48.68439,48.757004,48.807487,48.84826,48.881195,48.89731,48.92974,48.942078,48.910995,49.06369,49.460136,49.932144,50.50119,51.179874,51.92305,52.66056,53.331722,53.925816,54.43533,54.848164,55.17949,55.473778,55.790535,56.17165,56.634987,57.268448,58.09281,59.070206,60.007423,60.6884,61.093567,61.420475,61.668144,61.84166,61.980167,62.097057,62.20381,62.33643,62.509712,62.71344,62.947353,63.20732,63.482452,63.754505,64.004074,64.2128,64.341225,64.3935,64.35644,64.24477,64.102,63.966232,63.848946,63.777077,63.752075,63.772095,63.825806,63.862885,63.817413,63.664566,63.43437,63.159122,62.938915,62.88241,62.905975,62.857468,62.622856,62.01313,60.9804,59.473846,57.233868,55.228764,54.26054,54.04265,54.240147,54.664543,55.154106,55.637955,56.08432,56.44606,56.713814,56.961197,57.183594,57.35189,57.484924,57.616745,57.753357,57.883568,58.00602,58.1098,58.198975,58.27971,58.349926,58.41096,58.464935,58.511185,58.552765,58.6263,58.74055,58.91713,59.162018,59.43173,59.665836,59.85013,59.977165,60.05477,60.11252,60.15838,60.206703,60.279243,60.370117,60.460266,60.555336,60.64167,60.70638,60.763226,60.834076,60.904964,60.916534,60.808937,60.442497,59.74987,58.88051,57.958675,57.092106,56.762577,57.12406,57.83699,58.710064,59.516876,60.066444,60.31112,60.324493,60.13729,59.861427,59.52382,59.12337,58.688213,58.28364,57.962475,57.727608,57.611977,57.619026,57.656612,57.627186,57.46429,57.133873,56.68073,56.20114,55.67787,55.465755,55.80146,56.430267,56.947796,57.460487,57.809376,57.904682,57.883705,57.87544,57.929237,58.01506,58.008636,57.77205,57.33999,56.53408,55.075356,53.227272,51.808426,51.43322,52.08123,54.119003,56.97105,59.334427,60.712906,61.55278,62.201424
36.90702,37.117943,37.190872,37.000942,36.635124,35.58088,32.880417,29.769306,27.682571,26.894707,26.927948,27.70248,29.471169,32.189598,34.24848,35.29854,35.867107,36.252117,36.3209,36.338425,36.322666,36.324005,36.373024,36.304066,36.095585,35.922485,35.620064,32.920475,28.325768,25.185022,23.944668,23.468788,23.261127,23.062832,22.912457,22.850203,22.858337,22.876938,22.86507,22.818771,22.749489,22.686672,22.634562,22.59875,22.579586,22.583324,22.604462,22.622337,22.636913,22.642551,22.653458,22.668266,22.682743,22.702488,22.734598,22.768896,22.783396,22.768415,22.690355,22.528736,22.26138,21.90253,21.543297,21.241718,20.99722,20.821304,20.699804,20.600788,20.504574,20.420322,20.360817,20.329887,20.351398,20.4225,20.518799,20.615387,20.700321,20.771595,20.848967,20.961102,21.119316,21.318493,21.534376,21.729778,21.874352,21.986603,22.086044,22.199951,22.377659,22.63689,22.932972,23.19609,23.39063,23.58646,23.917439,24.421629,24.926247,25.767025,28.862926,39.07462,55.80925,62.54217,62.641434,62.490356,62.7033,62.84245,62.803112,63.15541,63.558346,63.896423,64.186584,64.23932,63.849236,63.36998,63.168644,63.000046,62.827713,61.269936,58.13423,54.773453,51.6474,49.76197,48.71455,48.27549,48.08392,47.913307,47.711876,47.489506,47.341957,47.43972,47.78829,48.125916,48.30435,48.384323,48.438004,48.47484,48.503464,48.519135,48.505554,48.500557,48.468857,48.381695,48.477158,48.832973,49.256676,49.762,50.359665,51.002975,51.624702,52.179245,52.672493,53.122917,53.530117,53.89587,54.237263,54.582104,54.946655,55.349384,55.87963,56.56289,57.41501,58.409706,59.338604,59.93226,60.302097,60.60743,60.838013,61.018982,61.18184,61.33831,61.493763,61.672726,61.87451,62.103165,62.36972,62.669037,62.978195,63.270676,63.521362,63.68035,63.75237,63.728607,63.62372,63.482788,63.348255,63.23169,63.15568,63.1149,63.103085,63.11041,63.101112,63.02586,62.864876,62.646324,62.395798,62.19818,62.162094,62.205315,62.177437,61.968857,61.39126,60.396328,58.806866,56.500103,54.455948,53.42414,53.138138,53.292397,53.729424,54.25244,54.783714,55.33481,55.812298,56.132042,56.413536,56.665813,56.860573,57.018875,57.176815,57.33991,57.497467,57.6503,57.78402,57.904747,58.015236,58.105415,58.17003,58.208874,58.224144,58.2268,58.262363,58.34511,58.503845,58.747833,59.027153,59.27114,59.463303,59.59259,59.66559,59.721676,59.77302,59.82836,59.9038,59.99489,60.079185,60.164833,60.237724,60.28882,60.334988,60.403572,60.486496,60.51333,60.41568,60.062447,59.374542,58.507607,57.58609,56.709667,56.40074,56.809536,57.589214,58.47659,59.27056,59.80914,60.023273,60.01625,59.82491,59.56638,59.265915,58.904434,58.48385,58.05425,57.673668,57.35025,57.13201,57.032608,56.97535,56.87743,56.680374,56.340485,55.860054,55.284023,54.75598,54.567684,54.952324,55.692764,56.318123,56.848873,57.217545,57.318295,57.29905,57.302475,57.38011,57.522713,57.658302,57.521904,57.091103,56.253983,54.73326,52.83304,51.405464,50.976086,51.633457,53.59236,56.465794,58.948845,60.43541,61.316742,61.96028
36.6513,36.815132,36.864563,36.66973,36.29417,35.29449,32.537334,29.278805,27.131985,26.388912,26.46972,27.2878,29.01712,31.879904,34.171944,35.322777,35.883675,36.27312,36.333057,36.34259,36.333828,36.33545,36.33282,36.26393,36.133484,35.80065,34.645763,30.508854,26.54304,24.285774,23.515947,23.28883,23.121143,22.99548,22.891521,22.863972,22.858969,22.841759,22.8052,22.75394,22.698742,22.658497,22.632004,22.617619,22.609522,22.613527,22.627907,22.636408,22.64346,22.644222,22.653362,22.668827,22.68713,22.704855,22.720142,22.737986,22.74586,22.7322,22.657223,22.504124,22.256447,21.917015,21.553982,21.246828,20.995407,20.812275,20.683239,20.577496,20.476871,20.390247,20.330095,20.300087,20.323902,20.398033,20.49739,20.59648,20.682903,20.75467,20.832586,20.946476,21.108501,21.314009,21.537409,21.738482,21.884388,21.98827,22.069344,22.162981,22.315504,22.548874,22.836046,23.115644,23.344526,23.51046,23.774006,24.187757,24.642944,25.271597,27.007523,31.954477,46.493645,57.44935,61.148445,61.391693,61.605717,61.78949,62.053314,62.629276,63.06568,63.391113,63.703136,63.935688,63.839893,63.136703,62.82937,62.662697,62.484043,61.041893,58.089615,54.797447,51.798286,49.845245,48.78652,48.28991,48.0355,47.813408,47.559566,47.349453,47.179337,47.28302,47.620728,47.923214,48.08607,48.17933,48.227917,48.258022,48.28131,48.291367,48.254395,48.199093,48.165623,48.166805,48.250378,48.512936,48.822834,49.279667,49.856396,50.45107,51.01129,51.509315,51.959484,52.393536,52.815468,53.217903,53.59868,53.96092,54.301083,54.639076,55.061035,55.59297,56.29424,57.141663,58.04731,58.87587,59.322605,59.680984,59.966232,60.197678,60.401527,60.590935,60.7664,60.941673,61.141533,61.361244,61.623894,61.930492,62.255333,62.56728,62.8382,63.023087,63.116608,63.103424,62.99917,62.85349,62.711823,62.585754,62.49402,62.4256,62.369854,62.31803,62.247173,62.123486,61.93339,61.704933,61.45884,61.26953,61.238846,61.293854,61.29222,61.121243,60.59526,59.666904,58.04785,55.74947,53.7362,52.693512,52.384544,52.527233,52.96933,53.517056,54.081093,54.66189,55.198257,55.605606,55.924053,56.223778,56.442703,56.629173,56.816864,57.003113,57.179596,57.350365,57.498833,57.634106,57.75636,57.84971,57.904655,57.9197,57.899357,57.86187,57.86003,57.91246,58.053535,58.29432,58.57898,58.82856,59.024704,59.1532,59.21974,59.26643,59.30989,59.36242,59.436333,59.51741,59.58802,59.660786,59.722713,59.768326,59.811417,59.878166,59.96637,59.996704,59.91002,59.57879,58.914474,58.08323,57.219376,56.402832,56.127274,56.571964,57.323227,58.155792,58.900192,59.388374,59.54688,59.5028,59.29689,59.043148,58.76621,58.432495,58.019936,57.564316,57.12836,56.717434,56.37063,56.15056,56.00334,55.84867,55.622364,55.259327,54.709724,54.05195,53.52767,53.371246,53.804173,54.691086,55.538155,56.09316,56.48046,56.58778,56.570652,56.58054,56.6772,56.850918,57.020058,57.02472,56.60008,55.765358,54.18548,52.220886,50.804283,50.25704,50.95987,52.795124,55.69383,58.29824,59.879974,60.806973,61.417
36.321815,36.414753,36.453083,36.25229,35.82263,34.93795,32.12928,28.76521,26.618263,25.94308,26.058,26.903097,28.570992,31.609665,34.132645,35.37475,35.921577,36.304195,36.35636,36.357697,36.349007,36.279503,36.2834,36.242714,36.164497,35.74073,33.557693,28.449528,25.174828,23.77985,23.30426,23.116585,23.029514,22.957067,22.921768,22.886642,22.848606,22.80408,22.754606,22.707712,22.671398,22.653278,22.647514,22.647886,22.644768,22.64484,22.650755,22.650501,22.651192,22.648323,22.65659,22.672773,22.69143,22.708813,22.723415,22.738033,22.737682,22.716717,22.641209,22.48716,22.245901,21.927074,21.571445,21.2588,20.999573,20.807816,20.670399,20.558079,20.453613,20.365269,20.304796,20.275635,20.301243,20.37775,20.479858,20.581757,20.670452,20.743671,20.82294,20.938463,21.102844,21.312572,21.542171,21.749548,21.899637,22.00219,22.064005,22.149082,22.285683,22.483608,22.744074,23.02673,23.286438,23.464073,23.672338,24.007162,24.405376,24.876408,25.864109,28.286118,35.659676,45.156475,53.120766,56.98877,57.707214,58.63176,60.8255,62.014816,62.490196,62.8377,63.205566,63.425022,63.348103,62.72895,62.423424,62.25873,62.128662,60.634125,57.722687,54.749252,51.83426,50.03737,48.976646,48.433876,48.11979,47.827232,47.516495,47.26995,47.11464,47.234463,47.487312,47.751183,47.94622,48.05543,48.11415,48.14187,48.163322,48.169613,48.12841,48.054947,47.994545,47.985672,48.067406,48.246624,48.55967,49.02722,49.586487,50.154022,50.684666,51.154194,51.585037,52.01615,52.45374,52.8858,53.296444,53.669174,53.985672,54.265404,54.586662,54.981407,55.52617,56.24289,57.064934,57.870163,58.50802,58.921757,59.254173,59.535522,59.77913,60.001877,60.204227,60.377052,60.56324,60.75786,60.993965,61.27968,61.593052,61.90403,62.18016,62.37243,62.47229,62.461433,62.35459,62.20211,62.050472,61.91161,61.800747,61.70259,61.603287,61.49569,61.367077,61.19604,60.974663,60.730232,60.479954,60.292236,60.256283,60.31272,60.33458,60.204353,59.73754,58.88707,57.296677,55.065872,53.122677,52.098442,51.789253,51.928974,52.36432,52.905376,53.462486,54.039696,54.60853,55.085335,55.446793,55.806065,56.072784,56.302895,56.526817,56.737442,56.928535,57.108242,57.25959,57.396378,57.51643,57.60162,57.64067,57.63097,57.578827,57.509274,57.478798,57.508636,57.636177,57.87291,58.158863,58.409492,58.60475,58.729378,58.78795,58.824577,58.85641,58.896103,58.95702,59.025146,59.079506,59.131897,59.170807,59.19282,59.2249,59.291492,59.368927,59.397842,59.32259,59.015633,58.39331,57.620285,56.84836,56.153133,55.914936,56.350903,56.974686,57.69847,58.36174,58.756058,58.83911,58.74643,58.52211,58.26536,57.99988,57.68213,57.27115,56.790718,56.304596,55.797134,55.255672,54.888184,54.681038,54.517242,54.273293,53.84916,53.275635,52.573956,52.010147,51.888733,52.437317,53.518204,54.61339,55.260704,55.67217,55.79075,55.780567,55.79361,55.897057,56.08851,56.284565,56.319237,55.953133,55.130302,53.460247,51.42946,50.024162,49.347366,50.05332,51.778625,54.650505,57.308624,58.98648,59.98716,60.530884
35.906822,35.946342,35.969986,35.795906,35.398933,34.467377,31.62925,28.304123,26.208282,25.554453,25.676176,26.51228,28.088982,31.33115,34.110123,35.44863,35.980976,36.338425,36.32881,36.30777,36.28696,36.20217,36.270233,36.23278,36.177322,35.734535,32.58619,27.30185,24.445156,23.448162,23.144173,23.015408,22.970974,22.974646,22.94519,22.893738,22.831932,22.772118,22.722637,22.688004,22.670063,22.668339,22.674343,22.680725,22.676857,22.671173,22.670046,22.664295,22.661793,22.65794,22.667147,22.684502,22.702854,22.7177,22.728123,22.73862,22.735537,22.715511,22.634533,22.471771,22.237343,21.940712,21.589252,21.271713,21.005089,20.805088,20.65985,20.541746,20.434376,20.344994,20.284275,20.255568,20.282288,20.360518,20.465137,20.570168,20.661812,20.737177,20.818357,20.934921,21.100002,21.3117,21.545383,21.758127,21.913513,22.020529,22.07743,22.146507,22.264439,22.445457,22.684486,22.9394,23.207268,23.413582,23.577185,23.838017,24.175407,24.556536,25.266644,26.794424,29.87228,35.53109,41.599625,45.75015,48.46653,51.81359,55.732704,59.68843,61.746826,62.182076,62.271706,62.455326,62.314026,62.02836,61.897556,61.763607,61.692272,60.127472,57.20748,54.57607,51.865196,50.16211,49.201233,48.712105,48.34085,47.933197,47.52842,47.19897,47.08985,47.153347,47.34497,47.61319,47.848404,47.97677,48.035492,48.061745,48.080215,48.08142,48.03292,47.94111,47.852974,47.8211,47.88312,48.043663,48.359627,48.82769,49.37848,49.932648,50.443443,50.88922,51.29934,51.718266,52.15503,52.599045,53.024105,53.39719,53.69284,53.930233,54.175117,54.45861,54.87103,55.464584,56.204704,57.0019,57.7697,58.23048,58.612255,58.94613,59.233208,59.487984,59.710724,59.896248,60.063965,60.223446,60.4164,60.657528,60.930946,61.211,61.46515,61.644234,61.736805,61.722595,61.61451,61.460426,61.304893,61.159546,61.03546,60.91534,60.78276,60.63268,60.46074,60.25495,60.01145,59.7556,59.501324,59.31653,59.261093,59.304726,59.34848,59.25425,58.844505,58.071117,56.554436,54.431602,52.575798,51.5783,51.27204,51.400925,51.80364,52.302776,52.814156,53.346413,53.916077,54.457306,54.87993,55.309757,55.669456,55.969925,56.24073,56.48257,56.689384,56.874695,57.02337,57.155308,57.267036,57.340187,57.363586,57.334286,57.259346,57.168022,57.11963,57.13617,57.255447,57.48786,57.77024,58.01509,58.202934,58.318855,58.36653,58.390984,58.40915,58.433147,58.476208,58.5241,58.554276,58.577652,58.585514,58.577267,58.583122,58.627937,58.686058,58.702206,58.625114,58.33958,57.77301,57.068855,56.396965,55.85076,55.664238,56.004242,56.480995,57.061165,57.586212,57.852516,57.844803,57.69922,57.45818,57.19922,56.943317,56.63845,56.238815,55.744984,55.169353,54.47201,53.804176,53.319717,53.02427,52.81727,52.55603,52.1307,51.57027,50.95063,50.489304,50.458267,51.084457,52.25985,53.50541,54.380646,54.82779,54.959927,54.95974,54.972847,55.072388,55.263966,55.464756,55.515034,55.191307,54.293262,52.534233,50.453064,48.948242,48.168037,48.92954,50.61322,53.212738,55.847614,57.806206,58.938602,59.34764
35.42467,35.43644,35.447758,35.33881,35.088783,33.922173,31.137403,27.94146,25.883827,25.215248,25.334805,26.134243,27.675892,31.063051,34.098347,35.548523,36.060776,36.38671,36.306335,36.255997,36.21103,36.177902,36.28768,36.257614,36.20912,35.418514,30.852776,26.190102,23.938135,23.226692,23.008352,22.939966,22.972435,23.000877,22.965637,22.89109,22.80838,22.743685,22.704845,22.687853,22.687687,22.697899,22.709085,22.715137,22.706417,22.69376,22.6866,22.677345,22.673481,22.670137,22.681232,22.699888,22.717289,22.728466,22.733423,22.738708,22.732391,22.71246,22.634668,22.468243,22.226837,21.93813,21.611603,21.29007,21.015612,20.807,20.654036,20.530815,20.421535,20.332005,20.271515,20.242828,20.269333,20.347673,20.453543,20.56105,20.655598,20.73362,20.817024,20.934448,21.099363,21.311533,21.547626,21.764778,21.926212,22.040215,22.101233,22.148155,22.243612,22.411919,22.62838,22.863564,23.11945,23.346458,23.505438,23.709602,23.986294,24.324152,24.871838,25.79807,27.486523,30.361454,33.996094,37.39554,40.766277,45.282356,50.09083,55.57943,59.458153,60.95223,61.18421,61.245857,61.175095,61.144257,61.14572,61.05683,61.13593,59.479027,56.47152,54.268066,51.867645,50.346893,49.46344,48.967342,48.601883,48.148464,47.590073,47.169205,46.99083,47.014824,47.21926,47.51937,47.77791,47.919052,47.980972,48.004837,48.01686,48.00859,47.948494,47.83477,47.7173,47.66269,47.703278,47.847885,48.167282,48.6379,49.184883,49.730125,50.222286,50.6409,51.022034,51.414764,51.83316,52.27073,52.699245,53.076218,53.365616,53.583626,53.776047,53.97917,54.294506,54.794403,55.470573,56.254383,57.06568,57.601616,58.043934,58.425198,58.750355,59.02646,59.252808,59.436153,59.592934,59.704895,59.83017,59.999622,60.20449,60.42378,60.628403,60.77245,60.842575,60.818443,60.710358,60.561142,60.410847,60.26899,60.14184,60.012093,59.862198,59.68896,59.494247,59.270805,59.015236,58.757137,58.5049,58.309914,58.233047,58.267864,58.327152,58.26394,57.908966,57.211723,55.811523,53.830757,52.075027,51.110924,50.807465,50.915585,51.262466,51.685043,52.108124,52.555206,53.066376,53.630013,54.19373,54.686634,55.184692,55.580734,55.909485,56.19435,56.421906,56.612488,56.756355,56.88144,56.9834,57.045815,57.058365,57.017235,56.929497,56.82676,56.76818,56.77587,56.885853,57.105957,57.37213,57.59803,57.765892,57.863415,57.893906,57.90062,57.90004,57.902565,57.919106,57.936134,57.930622,57.911392,57.87433,57.821884,57.78629,57.792336,57.814014,57.802288,57.712475,57.44657,56.94805,56.333054,55.77296,55.369293,55.220833,55.406265,55.739365,56.155212,56.49723,56.61379,56.511894,56.319153,56.07505,55.82214,55.577538,55.30098,54.87715,54.25788,53.55306,52.68875,51.905136,51.359993,51.048878,50.867725,50.673447,50.34374,49.88597,49.394592,49.068863,49.144337,49.830032,51.045326,52.382458,53.48517,53.96411,54.11339,54.126343,54.135666,54.219482,54.392456,54.574516,54.614407,54.319427,53.283276,51.444546,49.3894,47.754623,46.708527,47.319683,49.20076,51.637123,54.23925,56.307564,57.372738,57.904648
34.917316,34.92717,34.938545,34.897102,34.789013,33.496704,30.743889,27.70031,25.6991,24.988903,25.079899,25.823225,27.371964,30.823824,34.093113,35.666786,36.13912,36.41259,36.293587,36.22422,36.19464,36.20371,36.313347,36.319214,36.10905,34.583786,29.089817,25.342297,23.624008,23.084759,22.919239,22.908031,23.010372,23.030865,22.976696,22.877132,22.778732,22.718815,22.698933,22.701448,22.71627,22.733404,22.744102,22.745083,22.729034,22.709208,22.697105,22.685667,22.68122,22.678638,22.691385,22.710815,22.726788,22.734161,22.733877,22.734306,22.72535,22.706043,22.634462,22.474361,22.226429,21.93122,21.637745,21.315203,21.032814,20.815153,20.65485,20.52761,20.417843,20.329348,20.269453,20.240444,20.26529,20.341465,20.446293,20.554686,20.651379,20.732056,20.818005,20.936573,21.101032,21.312582,21.549622,21.770206,21.937992,22.060673,22.129646,22.164469,22.237772,22.385212,22.579653,22.797005,23.035,23.273275,23.45993,23.641205,23.870224,24.173561,24.613075,25.318554,26.620592,28.3199,30.514992,33.108387,36.16067,40.18004,45.432262,51.39229,56.042255,58.60327,59.562744,59.846058,60.0206,60.170414,60.270348,60.326233,59.759483,57.954678,55.637268,53.80923,51.88475,50.584824,49.77659,49.252983,48.834023,48.31848,47.665665,47.137974,46.87571,46.875298,47.096367,47.421925,47.69929,47.852386,47.917244,47.935116,47.93442,47.91017,47.832848,47.698265,47.556572,47.47888,47.49791,47.633713,47.950874,48.42135,48.967133,49.50518,49.978363,50.36611,50.71038,51.064484,51.448143,51.866398,52.295,52.682705,52.98184,53.203117,53.377884,53.540684,53.801243,54.245613,54.88311,55.65965,56.491737,57.072113,57.562225,57.982338,58.33117,58.611237,58.820442,58.972145,59.089607,59.151566,59.210503,59.294044,59.405125,59.540394,59.674644,59.767567,59.80062,59.76071,59.656425,59.52028,59.38329,59.252655,59.12961,58.99838,58.841393,58.656273,58.45072,58.2254,57.9787,57.732853,57.493896,57.303482,57.224022,57.25757,57.324997,57.2861,56.97988,56.354378,55.092834,53.274025,51.62757,50.702606,50.40232,50.48062,50.75521,51.07644,51.378242,51.70665,52.1242,52.66176,53.317093,53.948975,54.579536,55.102097,55.520588,55.85386,56.106888,56.303726,56.44312,56.563675,56.660267,56.719643,56.732204,56.691864,56.60431,56.50199,56.441208,56.443,56.539734,56.73629,56.971012,57.163208,57.29798,57.367664,57.37468,57.358566,57.33484,57.310555,57.29268,57.26995,57.22016,57.148735,57.057755,56.95216,56.864326,56.818214,56.78894,56.736362,56.623055,56.371975,55.945644,55.432762,54.973927,54.656998,54.52607,54.598503,54.79766,55.037823,55.193726,55.176163,54.9996,54.752373,54.461864,54.188103,53.93643,53.646786,53.19142,52.500496,51.668636,50.766605,49.96282,49.425705,49.152763,49.04638,48.96399,48.76429,48.44404,48.102215,47.909756,48.08248,48.818855,50.05056,51.40926,52.57979,53.123207,53.304726,53.327938,53.32909,53.38637,53.523273,53.66513,53.67097,53.378204,52.23528,50.359337,48.325394,46.59206,45.468918,45.904716,47.843292,50.107544,52.58992,54.642265,55.62246,56.180336
34.450104,34.47847,34.50438,34.508583,34.46823,33.273937,30.562384,27.605988,25.630405,24.869179,24.914516,25.606127,27.16045,30.645044,34.08854,35.77156,36.20929,36.432854,36.322884,36.24012,36.23471,36.250816,36.329765,36.37642,35.85501,33.447548,27.822208,24.795631,23.431347,22.981339,22.870903,22.925713,23.053513,23.054579,22.972275,22.848831,22.7505,22.702568,22.698689,22.720764,22.746536,22.765911,22.772,22.765165,22.741056,22.71482,22.698898,22.685993,22.68094,22.678524,22.69193,22.711302,22.725712,22.730057,22.72599,22.723108,22.713154,22.696129,22.631449,22.483006,22.23962,21.938398,21.651966,21.34652,21.05803,20.82971,20.662289,20.532158,20.423615,20.33776,20.279259,20.249983,20.272034,20.34384,20.44505,20.552109,20.649475,20.732128,20.8204,20.939922,21.103222,21.312584,21.548344,21.770283,21.943325,22.074802,22.152641,22.190575,22.24533,22.363163,22.538902,22.736855,22.958967,23.202042,23.420868,23.615124,23.830809,24.113447,24.505745,25.17334,26.14301,27.476929,29.147905,31.269695,33.91704,37.287045,42.513268,48.339718,52.81183,55.414455,56.689934,57.36795,57.84884,58.232834,58.477295,58.629738,57.704727,56.204056,54.76447,53.25897,51.889233,50.83308,50.16037,49.608204,49.052567,48.43357,47.72915,47.080513,46.763588,46.745575,46.971554,47.318443,47.621284,47.789482,47.855507,47.863045,47.843292,47.79641,47.696564,47.542328,47.379154,47.274994,47.278854,47.413445,47.726532,48.195877,48.742386,49.27489,49.730408,50.087673,50.393414,50.705643,51.049995,51.445442,51.875633,52.28228,52.604122,52.846634,53.034866,53.196556,53.438744,53.856045,54.47193,55.237717,56.05883,56.642906,57.156437,57.595013,57.942112,58.200844,58.370857,58.467175,58.51696,58.51226,58.493866,58.48786,58.505516,58.551193,58.60788,58.642788,58.63629,58.580994,58.48271,58.363598,58.245514,58.132725,58.02215,57.900326,57.751026,57.572113,57.37471,57.16552,56.944122,56.722775,56.507294,56.33751,56.2695,56.305656,56.37715,56.35769,56.095673,55.538918,54.427055,52.777893,51.24691,50.368843,50.072212,50.11554,50.308746,50.521072,50.689644,50.87352,51.16893,51.643417,52.317482,53.11856,53.864967,54.52658,55.04847,55.427505,55.706192,55.90838,56.04413,56.163063,56.25978,56.324722,56.347958,56.319733,56.24338,56.150265,56.09166,56.086327,56.16168,56.32036,56.506847,56.650322,56.740196,56.77352,56.751553,56.708767,56.65865,56.604263,56.548515,56.483414,56.38891,56.26717,56.125763,55.97126,55.833603,55.73443,55.65184,55.555798,55.41574,55.17646,54.817886,54.40593,54.0375,53.773186,53.64843,53.661194,53.74537,53.82023,53.803253,53.654854,53.401882,53.11302,52.81019,52.541634,52.30033,51.99408,51.502552,50.783543,49.92683,49.070724,48.32135,47.8397,47.63094,47.61194,47.640182,47.55877,47.369003,47.1642,47.079273,47.32443,48.096138,49.323215,50.64395,51.752804,52.340263,52.54798,52.575188,52.5626,52.585922,52.675705,52.766266,52.727142,52.41961,51.25126,49.402405,47.4209,45.705597,44.64641,44.95022,46.713287,48.751564,51.034214,53.006317,53.972843,54.443115
34.078743,34.146736,34.18355,34.21502,34.194622,33.21417,30.622932,27.672834,25.642105,24.821321,24.82394,25.488008,27.029116,30.510498,34.06021,35.83628,36.26951,36.469093,36.39367,36.29728,36.293365,36.30449,36.333435,36.422424,35.59543,32.376053,27.03099,24.42532,23.295757,22.904404,22.847897,22.967997,23.084045,23.060558,22.950737,22.814947,22.729053,22.693802,22.700104,22.738781,22.770622,22.788326,22.787634,22.772457,22.741215,22.710163,22.69167,22.677723,22.671757,22.668713,22.68163,22.70014,22.713142,22.715666,22.709625,22.705208,22.69582,22.682251,22.625908,22.489502,22.259306,21.961731,21.657448,21.380276,21.088799,20.849007,20.673937,20.541695,20.436144,20.354961,20.29942,20.270638,20.289413,20.35522,20.450495,20.553825,20.64994,20.733305,20.822937,20.942377,21.103012,21.307743,21.538822,21.758474,21.933828,22.072144,22.159126,22.207565,22.253742,22.345444,22.500542,22.68332,22.8917,23.134094,23.371372,23.593262,23.825195,24.109846,24.496563,25.080643,25.895075,26.943045,28.316456,30.167927,32.689114,36.159004,41.046,46.458954,50.435944,52.351868,53.249496,54.061386,54.71471,55.264954,55.649635,55.845036,55.536663,54.80088,53.81231,52.700394,51.773277,50.987923,50.493492,49.976837,49.301704,48.54812,47.77636,47.010857,46.652428,46.626354,46.8725,47.25356,47.589622,47.78018,47.852875,47.84968,47.806526,47.731087,47.603363,47.42611,47.240673,47.112457,47.10729,47.239845,47.551723,48.02319,48.572746,49.10253,49.54451,49.876797,50.15065,50.429695,50.745644,51.127266,51.5651,51.996025,52.346176,52.62296,52.84069,53.02433,53.269936,53.67045,54.262108,54.99507,55.719578,56.286522,56.79683,57.21929,57.531235,57.73968,57.850716,57.881767,57.859573,57.774708,57.668915,57.58144,57.524685,57.4943,57.483994,57.46765,57.429657,57.363052,57.269955,57.166107,57.06739,56.974716,56.881805,56.77752,56.648155,56.49208,56.320568,56.140236,55.949207,55.758087,55.571644,55.425957,55.371513,55.412045,55.488716,55.488857,55.271812,54.785492,53.83361,52.360157,50.948975,50.12329,49.830112,49.83412,49.94903,50.057312,50.093643,50.12259,50.274544,50.658108,51.310863,52.194126,53.07431,53.868057,54.469254,54.882793,55.179764,55.382156,55.512657,55.629593,55.727882,55.801697,55.839745,55.828037,55.767406,55.686226,55.628895,55.611313,55.65548,55.76315,55.88816,55.97262,56.01072,56.002953,55.949463,55.878784,55.801895,55.71856,55.628628,55.527542,55.39855,55.241302,55.066505,54.88109,54.71029,54.571968,54.44857,54.319813,54.160774,53.93698,53.641144,53.31192,53.015404,52.801853,52.67994,52.642612,52.635468,52.58542,52.4413,52.197014,51.895584,51.612873,51.372498,51.15651,50.94332,50.63658,50.11023,49.366524,48.57994,47.775085,47.094185,46.684628,46.547318,46.605484,46.719196,46.726913,46.640366,46.536873,46.524208,46.81145,47.58586,48.769897,50.017403,51.037483,51.60495,51.813084,51.83731,51.80703,51.79547,51.837944,51.880592,51.80323,51.485878,50.368813,48.613464,46.767784,45.19906,44.160904,44.3132,45.803886,47.60458,49.660126,51.513893,52.507324,52.92808
33.81404,33.942326,33.970528,34.021286,34.017403,33.25427,30.81387,27.847927,25.720943,24.82418,24.792217,25.451984,26.976852,30.365124,33.988556,35.864548,36.31062,36.50292,36.457554,36.35599,36.36159,36.36798,36.32868,36.48604,35.443336,31.502777,26.503387,24.171387,23.196335,22.859686,22.846405,23.000687,23.097168,23.047092,22.916538,22.78823,22.709654,22.682953,22.702927,22.751434,22.784433,22.797905,22.790302,22.76824,22.731964,22.698044,22.678173,22.663406,22.656233,22.65197,22.663452,22.680532,22.692467,22.694357,22.687927,22.683456,22.675667,22.66589,22.618132,22.49501,22.279358,21.98978,21.680223,21.409893,21.119846,20.871408,20.687037,20.552845,20.451565,20.376877,20.326054,20.29906,20.314816,20.37377,20.461424,20.559013,20.652042,20.73464,20.824345,20.942402,21.098747,21.29641,21.519459,21.733057,21.907166,22.049295,22.144848,22.203613,22.255909,22.335377,22.462872,22.636728,22.833952,23.069778,23.314026,23.552454,23.799797,24.08725,24.45242,24.97897,25.710003,26.564367,27.665684,29.308987,31.800295,35.35621,40.20028,45.22406,48.500923,50.0383,50.805313,51.45143,52.004204,52.4037,52.826973,53.24221,53.429977,53.241764,52.760567,52.157166,51.49138,50.96633,50.59768,50.238117,49.55596,48.659904,47.81788,46.96969,46.582443,46.560097,46.83722,47.255993,47.6275,47.850006,47.94129,47.933517,47.865135,47.756245,47.595592,47.39129,47.186256,47.04402,47.027386,47.152344,47.463802,47.939804,48.49384,49.022446,49.454155,49.768425,50.021133,50.281994,50.587467,50.973038,51.42856,51.884033,52.263027,52.58172,52.826813,53.027958,53.277374,53.655464,54.201595,54.86868,55.433716,55.963013,56.439735,56.81028,57.057404,57.194763,57.23652,57.20217,57.116474,56.971607,56.80409,56.654186,56.53907,56.45709,56.404354,56.35633,56.295834,56.219856,56.129837,56.03656,55.95129,55.873146,55.79374,55.70385,55.591846,55.455776,55.307087,55.153336,54.99192,54.83127,54.67513,54.55574,54.51775,54.565895,54.651024,54.673985,54.505264,54.093193,53.303665,52.011486,50.724907,49.95266,49.662086,49.622566,49.674652,49.68788,49.596283,49.482212,49.49667,49.767357,50.352207,51.205063,52.227962,53.144104,53.79367,54.221092,54.52318,54.717865,54.838974,54.95027,55.04699,55.126343,55.175686,55.177444,55.130188,55.05858,54.999035,54.964504,54.972134,55.02406,55.08511,55.110954,55.099365,55.053223,54.971,54.875587,54.77607,54.670288,54.556244,54.432613,54.286217,54.11446,53.929054,53.735847,53.554184,53.397125,53.250427,53.102486,52.93432,52.721638,52.474068,52.20043,51.94719,51.77836,51.664326,51.58947,51.51949,51.404335,51.22254,50.986336,50.729477,50.498985,50.30639,50.123447,49.90226,49.560944,49.027832,48.327095,47.589348,46.848614,46.24505,45.90695,45.83273,45.94777,46.112633,46.17063,46.143658,46.103733,46.129753,46.42851,47.16664,48.267044,49.422783,50.344643,50.869152,51.06124,51.07515,51.027653,50.98747,50.99264,51.001328,50.90442,50.59487,49.584137,47.973274,46.2928,44.903633,43.89964,43.872604,45.06533,46.632843,48.45253,50.17653,51.21222,51.58784
33.61821,33.808052,33.836205,33.893066,33.896713,33.340996,30.979425,27.99396,25.793581,24.826376,24.769123,25.433594,26.940283,30.226746,33.91621,35.875225,36.33161,36.53209,36.51451,36.413643,36.430447,36.432034,36.320335,36.50425,35.268494,30.751892,26.057232,23.955334,23.087017,22.80767,22.849075,23.025566,23.094498,23.01979,22.875181,22.750221,22.679096,22.66838,22.70574,22.7597,22.791471,22.799976,22.78599,22.758312,22.718431,22.682817,22.66229,22.646954,22.638573,22.63298,22.64271,22.658281,22.669655,22.671965,22.666492,22.663198,22.657848,22.652214,22.613316,22.50433,22.304308,22.0267,21.720982,21.425068,21.150639,20.90013,20.70269,20.56574,20.468916,20.401535,20.356577,20.33243,20.345673,20.397614,20.47683,20.567398,20.655983,20.736534,20.824997,20.940357,21.090984,21.279907,21.492996,21.69849,21.869375,22.013525,22.117031,22.187046,22.248098,22.32642,22.440105,22.594717,22.784256,23.008358,23.251797,23.50005,23.759686,24.05205,24.402851,24.892086,25.539055,26.257751,27.168837,28.615662,31.002798,34.582798,39.435635,44.053314,46.770195,47.86517,48.448563,48.90084,49.00671,49.210484,49.853977,50.588158,51.29579,51.666096,51.677288,51.549103,51.20412,50.867077,50.54734,50.259747,49.707825,48.8323,47.875305,47.024055,46.613533,46.590218,46.87553,47.309814,47.709244,47.96483,48.075966,48.07483,47.9772,47.828545,47.63307,47.40926,47.191776,47.030296,47.00302,47.122257,47.433548,47.91346,48.47075,48.993774,49.409054,49.706963,49.94465,50.196957,50.502842,50.903175,51.3807,51.862694,52.287888,52.659058,52.90889,53.093334,53.31334,53.649895,54.120426,54.663563,55.145638,55.616142,56.02839,56.32411,56.491703,56.553078,56.529266,56.440147,56.306854,56.127914,55.91098,55.704567,55.548656,55.44227,55.372246,55.311844,55.240864,55.158012,55.066154,54.975662,54.896393,54.826912,54.75905,54.68698,54.59697,54.47982,54.34825,54.21579,54.079407,53.945732,53.817856,53.723083,53.699673,53.754097,53.84665,53.89061,53.76903,53.43238,52.78965,51.67196,50.523674,49.817852,49.52702,49.4488,49.446026,49.373978,49.169327,48.929455,48.817505,48.97217,49.47125,50.283653,51.3079,52.33545,53.046715,53.456413,53.749886,53.92975,54.03837,54.13983,54.229744,54.30792,54.360687,54.368744,54.330048,54.26481,54.201645,54.15036,54.123833,54.125366,54.130295,54.10647,54.05448,53.977997,53.87404,53.760757,53.64576,53.526424,53.400253,53.267998,53.11965,52.95278,52.776592,52.594986,52.422413,52.26213,52.093742,51.916508,51.731762,51.46344,51.182453,50.947968,50.77681,50.678555,50.624107,50.59194,50.531063,50.409836,50.235386,50.032555,49.824028,49.635597,49.478592,49.316124,49.09185,48.740105,48.215286,47.549923,46.86345,46.202187,45.676865,45.404526,45.38408,45.533268,45.71711,45.80402,45.80245,45.78646,45.825867,46.110104,46.78042,47.765606,48.801407,49.62113,50.094147,50.257607,50.253372,50.18975,50.128693,50.107826,50.095783,49.99642,49.71401,48.830673,47.394867,45.855164,44.5603,43.608006,43.474022,44.422134,45.768013,47.35704,48.951935,50.01268,50.33652
33.417103,33.663246,33.747665,33.800224,33.80768,33.426376,31.076324,28.094763,25.856688,24.81637,24.73256,25.401669,26.89133,30.089943,33.841705,35.871212,36.342472,36.565777,36.57446,36.4831,36.517056,36.505543,36.367702,36.51014,34.87667,29.727116,25.542328,23.7398,22.987457,22.773605,22.856705,23.029842,23.074535,22.97714,22.825024,22.704779,22.640667,22.651218,22.710495,22.766697,22.795383,22.798065,22.777712,22.744873,22.701939,22.665089,22.644165,22.6283,22.618721,22.611847,22.619932,22.63451,22.64629,22.65023,22.64691,22.645811,22.643475,22.642002,22.61231,22.51915,22.33789,22.07535,21.77559,21.467537,21.192957,20.933434,20.722523,20.580368,20.488045,20.429295,20.392006,20.37237,20.383755,20.428177,20.497543,20.57919,20.661396,20.73809,20.82336,20.933895,21.076475,21.254122,21.454697,21.649889,21.815899,21.960886,22.07241,22.155333,22.228264,22.309608,22.415356,22.558456,22.734018,22.944805,23.18034,23.430468,23.698154,23.994797,24.334515,24.772846,25.35838,25.953655,26.693718,27.936611,30.146202,33.66059,38.492077,42.65477,44.759697,45.590088,45.989357,46.01013,45.79527,46.1715,46.85868,47.660027,48.59574,49.647568,50.46826,50.79167,50.92695,50.7952,50.61726,50.23368,49.807915,49.111176,48.035378,47.266544,46.77578,46.721928,47.003365,47.437576,47.82924,48.07592,48.189987,48.195107,48.135902,47.97963,47.73079,47.4552,47.218822,47.056595,47.01464,47.12431,47.43412,47.911957,48.459904,48.965218,49.359756,49.644573,49.878456,50.134098,50.450203,50.86783,51.376938,51.899803,52.340347,52.645462,52.886475,53.091743,53.319706,53.60755,53.965492,54.380272,54.78566,55.168114,55.48476,55.68239,55.75716,55.739708,55.6559,55.523335,55.363914,55.129044,54.873245,54.654865,54.49198,54.37424,54.290092,54.216347,54.133682,54.043755,53.950775,53.86355,53.78934,53.725574,53.66383,53.598694,53.521156,53.42822,53.328865,53.228275,53.12059,53.010155,52.90045,52.826298,52.825005,52.887856,52.980118,53.044876,52.97233,52.718567,52.217213,51.291058,50.30542,49.675858,49.392017,49.283768,49.22573,49.069313,48.75761,48.39888,48.167397,48.207924,48.60134,49.331898,50.283108,51.39081,52.157036,52.53563,52.805016,52.960793,53.049652,53.13228,53.205257,53.271,53.316322,53.32256,53.288033,53.227516,53.16133,53.09581,53.03968,52.997482,52.954697,52.890377,52.806892,52.707764,52.589733,52.467934,52.347973,52.226814,52.10222,51.975388,51.83791,51.66181,51.478256,51.297096,51.12368,50.961296,50.798264,50.612164,50.37445,50.111717,49.87693,49.70477,49.600586,49.551033,49.528946,49.515873,49.480885,49.398624,49.274055,49.128304,48.97957,48.844025,48.718925,48.56539,48.33004,47.969727,47.46602,46.85652,46.242485,45.682457,45.251728,45.055153,45.0811,45.24819,45.43655,45.529377,45.529068,45.50933,45.530487,45.765076,46.335464,47.17016,48.045494,48.769478,49.19616,49.320923,49.297356,49.228508,49.154213,49.10965,49.086975,48.98826,48.75621,48.00953,46.755074,45.365227,44.193726,43.390366,43.11651,43.791336,44.891674,46.245087,47.64993,48.657524,49.021065
33.24331,33.55722,33.715836,33.71891,33.69586,33.432575,31.095795,28.139332,25.879833,24.785414,24.687843,25.339745,26.815277,29.945408,33.759163,35.860878,36.344757,36.578377,36.61693,36.540596,36.592796,36.56217,36.418457,36.464417,34.26336,28.412577,25.033672,23.52039,22.891678,22.75024,22.862041,23.018295,23.039196,22.923737,22.770874,22.656368,22.610752,22.643114,22.714891,22.772285,22.797012,22.794163,22.76855,22.731821,22.686773,22.649254,22.628288,22.612179,22.601763,22.594093,22.601082,22.61556,22.629002,22.635979,22.636192,22.638506,22.639757,22.642254,22.62159,22.545149,22.384903,22.139996,21.847847,21.533566,21.231537,20.965963,20.749302,20.596018,20.507158,20.457424,20.429253,20.415833,20.426529,20.463736,20.522652,20.594107,20.668417,20.739704,20.82006,20.924055,21.05698,21.221905,21.408813,21.592823,21.753195,21.898247,22.01743,22.11367,22.199917,22.288797,22.392899,22.525002,22.686947,22.88445,23.108551,23.353216,23.621227,23.919312,24.253801,24.654577,25.187057,25.672485,26.273502,27.324938,29.298862,32.64279,37.416008,41.009712,42.729485,43.420097,43.388023,42.95811,42.910824,43.009964,43.51379,44.18871,45.329758,46.86051,48.51827,49.91237,50.444527,50.586494,50.545464,50.24268,49.806854,49.21363,48.37377,47.526726,47.079834,46.997387,47.217464,47.57813,47.89763,48.104557,48.237755,48.29067,48.215775,48.058495,47.84961,47.568737,47.27348,47.098557,47.056313,47.158768,47.453148,47.909824,48.426918,48.899902,49.27398,49.542862,49.769386,50.028214,50.361057,50.79831,51.316246,51.823082,52.219025,52.509293,52.7542,52.963913,53.17549,53.407364,53.67195,53.982063,54.29205,54.563976,54.767185,54.8588,54.84381,54.760338,54.63578,54.47866,54.276344,54.02494,53.775124,53.569416,53.41387,53.29393,53.20085,53.116127,53.02253,52.92478,52.828697,52.74209,52.670135,52.60907,52.55033,52.48854,52.4174,52.33764,52.256496,52.175545,52.08867,51.99861,51.90806,51.8487,51.861633,51.953392,52.07402,52.14534,52.114647,51.945435,51.567543,50.835217,50.032272,49.494743,49.229324,49.100655,48.994568,48.765846,48.36802,47.912773,47.582455,47.52453,47.80744,48.42595,49.27458,50.311356,51.10597,51.513832,51.728245,51.851418,51.913834,51.969437,52.01637,52.059708,52.0884,52.0862,52.05214,51.99576,51.92966,51.85701,51.783546,51.71437,51.642563,51.555954,51.457615,51.3509,51.224648,51.083424,50.94178,50.804893,50.668816,50.53631,50.402336,50.247612,50.092957,49.94358,49.801704,49.6528,49.470085,49.27555,49.041267,48.816093,48.63642,48.517067,48.45761,48.444397,48.448433,48.449585,48.439163,48.400284,48.33362,48.250114,48.158073,48.06464,47.95779,47.80268,47.55786,47.20335,46.74331,46.215034,45.6957,45.25319,44.92991,44.80468,44.861618,45.02952,45.204193,45.28206,45.260612,45.21088,45.184097,45.33809,45.779232,46.436874,47.12641,47.728554,48.11866,48.22428,48.14405,47.99823,47.87912,47.84578,47.881775,47.870712,47.681488,47.072365,46.02997,44.822502,43.78414,43.099316,42.817986,43.19892,44.029793,45.158302,46.33075,47.194855,47.588333
33.11236,33.489723,33.704887,33.64863,33.591698,33.37076,31.032288,28.10056,25.831348,24.701454,24.592884,25.21465,26.67333,29.762014,33.659077,35.8445,36.334778,36.56272,36.631725,36.57016,36.635223,36.577824,36.42699,36.27482,33.521683,27.268707,24.597385,23.318718,22.806942,22.730618,22.859863,22.996784,22.995384,22.867603,22.718533,22.615482,22.590809,22.639055,22.71619,22.774208,22.795685,22.789257,22.760798,22.722279,22.676466,22.63899,22.61845,22.602581,22.592037,22.584435,22.591187,22.606625,22.623253,22.635216,22.640978,22.6483,22.653942,22.660538,22.64872,22.589302,22.451254,22.22554,21.941933,21.62059,21.287245,21.008331,20.780815,20.613884,20.525679,20.483997,20.465454,20.459614,20.47125,20.502592,20.551765,20.613008,20.678898,20.743961,20.818363,20.914978,21.03785,21.190262,21.364286,21.538128,21.693428,21.838488,21.964577,22.072939,22.171864,22.270172,22.376904,22.500792,22.6516,22.838524,23.053577,23.29164,23.557964,23.858776,24.19107,24.56541,25.04346,25.450743,25.956003,26.872944,28.667568,31.82544,36.43358,39.420593,40.938023,41.46158,41.125637,40.565445,40.591404,40.377113,40.668793,41.19314,42.18498,43.729202,45.879353,48.22061,49.59424,50.27069,50.326607,50.13993,49.737873,49.228867,48.683502,47.903465,47.46586,47.346573,47.46375,47.695923,47.92607,48.10402,48.238884,48.308304,48.24843,48.09632,47.90678,47.667534,47.38949,47.178284,47.130653,47.22298,47.494858,47.917778,48.39458,48.831657,49.180027,49.422977,49.630436,49.883068,50.20632,50.62899,51.126938,51.600235,51.955933,52.267628,52.516064,52.70654,52.874405,53.040993,53.223465,53.438335,53.64338,53.801758,53.895306,53.893364,53.809982,53.681114,53.523735,53.343613,53.127083,52.898987,52.68046,52.495773,52.35077,52.232117,52.13325,52.039795,51.936783,51.83143,51.731148,51.643456,51.5722,51.51277,51.456528,51.398712,51.33357,51.26084,51.18716,51.115448,51.041473,50.967358,50.894608,50.8456,50.857742,50.953293,51.093216,51.19529,51.21453,51.107376,50.832146,50.283417,49.668453,49.23854,49.006718,48.873215,48.735424,48.458702,48.012524,47.50017,47.1026,46.970192,47.155445,47.653683,48.375427,49.2465,50.00666,50.44791,50.61454,50.695343,50.728195,50.753952,50.772076,50.78943,50.798035,50.7853,50.751133,50.70047,50.63997,50.567028,50.482075,50.392242,50.297134,50.189713,50.0754,49.957314,49.823746,49.677742,49.52793,49.381958,49.24362,49.11555,48.993126,48.870495,48.74961,48.628334,48.50654,48.36776,48.190163,48.011097,47.823536,47.646973,47.513084,47.433155,47.402977,47.411964,47.432327,47.4475,47.450493,47.435894,47.405632,47.362106,47.30425,47.23208,47.131165,46.97474,46.73661,46.414307,46.023655,45.597336,45.19197,44.87063,44.646408,44.577393,44.651047,44.80308,44.942795,44.98938,44.93409,44.83482,44.74913,44.811142,45.110954,45.588387,46.088543,46.527344,46.82821,46.897545,46.779694,46.59001,46.449875,46.429882,46.508,46.579926,46.46251,46.01806,45.207092,44.207718,43.30709,42.67936,42.43029,42.62142,43.23224,44.138092,45.06993,45.75279,46.096832
33.004124,33.417667,33.662567,33.59182,33.516766,33.275692,30.91774,27.993958,25.727348,24.583836,24.45864,25.05132,26.483791,29.535877,33.532173,35.793205,36.27901,36.50632,36.59587,36.543015,36.610374,36.5114,36.410652,35.910065,32.63422,26.54367,24.25666,23.154709,22.740765,22.715443,22.854877,22.974201,22.9544,22.819359,22.67617,22.588737,22.578728,22.63626,22.717356,22.775288,22.794989,22.78743,22.75872,22.720474,22.675087,22.638176,22.618359,22.603165,22.59318,22.586502,22.59388,22.61115,22.632183,22.650764,22.66367,22.677032,22.687302,22.697712,22.694027,22.650993,22.53515,22.329296,22.054882,21.724838,21.370031,21.060947,20.812057,20.635647,20.543768,20.508343,20.499016,20.501415,20.515408,20.542587,20.583488,20.635462,20.693405,20.75243,20.820969,20.910639,21.024525,21.166147,21.329472,21.495296,21.64677,21.792084,21.92395,22.042175,22.151703,22.258608,22.369667,22.491066,22.633497,22.811998,23.020481,23.256277,23.5267,23.834885,24.16696,24.516668,24.934635,25.298733,25.74987,26.600105,28.31037,31.310505,35.68156,38.222137,39.545776,39.840065,39.50251,39.115936,38.95841,38.72544,38.88891,39.285736,39.839058,41.018433,43.143547,45.803658,48.21003,49.560165,49.997288,49.89261,49.58501,49.198914,48.749374,48.28202,47.82154,47.64982,47.666943,47.79339,47.966286,48.12668,48.23108,48.26416,48.24695,48.117756,47.90621,47.69831,47.500423,47.29397,47.227364,47.306946,47.559673,47.950996,48.389618,48.777973,49.068993,49.28054,49.47066,49.698345,49.98256,50.363113,50.82173,51.264328,51.61258,51.91549,52.147846,52.30777,52.425293,52.522396,52.620926,52.74151,52.842308,52.89881,52.902084,52.83058,52.701572,52.54506,52.36909,52.179657,51.992775,51.79788,51.609085,51.44599,51.311638,51.19461,51.091385,50.99115,50.881855,50.77198,50.669605,50.581993,50.512085,50.454872,50.401978,50.346146,50.28067,50.208107,50.1371,50.07095,50.00568,49.942425,49.88263,49.844154,49.858093,49.93149,50.052673,50.185913,50.247997,50.189537,50.005714,49.61837,49.17601,48.859055,48.674526,48.55204,48.402515,48.10836,47.65355,47.129326,46.7025,46.52006,46.62951,47.013756,47.589867,48.29167,48.946968,49.364304,49.52064,49.568497,49.57196,49.56436,49.547905,49.533363,49.51725,49.490074,49.451477,49.402943,49.346886,49.27671,49.18457,49.079132,48.96598,48.841087,48.71199,48.581177,48.444008,48.310535,48.177013,48.045605,47.926765,47.821457,47.722694,47.618454,47.510406,47.396423,47.27302,47.140953,47.00567,46.866966,46.723392,46.593094,46.50097,46.45363,46.444153,46.46119,46.48312,46.501987,46.50534,46.494038,46.47133,46.436577,46.386604,46.319424,46.220543,46.07212,45.860413,45.5923,45.28498,44.965523,44.678375,44.462257,44.316383,44.28705,44.36338,44.484573,44.574963,44.580856,44.491653,44.344788,44.21008,44.190834,44.358833,44.673058,45.008133,45.288048,45.463745,45.47834,45.368317,45.21177,45.09198,45.066536,45.13233,45.217457,45.18859,44.910515,44.312828,43.518837,42.759827,42.184113,41.927795,42.050873,42.515823,43.21143,43.922333,44.431343,44.669304
32.88773,33.31505,33.57431,33.53354,33.441742,33.157906,30.803795,27.881662,25.628883,24.49887,24.35508,24.915632,26.313532,29.29848,33.36272,35.67279,36.15168,36.388832,36.48307,36.429688,36.486923,36.331944,36.37094,35.454224,31.632326,26.052816,24.009716,23.031816,22.69359,22.71062,22.857147,22.960575,22.926868,22.788246,22.651669,22.576883,22.57856,22.642712,22.72573,22.783321,22.802338,22.795252,22.767906,22.731068,22.686672,22.650394,22.631184,22.616766,22.607613,22.602238,22.610683,22.630123,22.65578,22.681137,22.701122,22.720154,22.734138,22.747036,22.749805,22.721413,22.626656,22.440748,22.176556,21.838902,21.46201,21.114761,20.842964,20.660488,20.562294,20.531078,20.52983,20.54013,20.556995,20.581131,20.615078,20.659027,20.710102,20.764126,20.827991,20.912336,21.019434,21.152855,21.308107,21.468082,21.616821,21.762444,21.89872,22.024342,22.14199,22.255905,22.37141,22.493095,22.630726,22.80177,23.003689,23.240433,23.51924,23.835806,24.167507,24.493526,24.855108,25.19622,25.619524,26.435143,28.084108,30.92846,35.138027,37.467983,38.57322,38.677826,38.35979,38.14141,38.01702,37.760414,37.805298,38.04345,38.360245,39.09686,40.807796,43.476616,46.230904,48.145668,49.38005,49.57533,49.31234,48.995502,48.611923,48.3517,48.034996,47.841133,47.794304,47.8755,48.014458,48.13794,48.211227,48.219208,48.161194,48.057755,47.890137,47.68762,47.51058,47.38898,47.32072,47.39476,47.627335,47.981895,48.36631,48.67624,48.884544,49.068996,49.252823,49.44654,49.698776,50.047478,50.451515,50.832905,51.160637,51.43342,51.63306,51.752937,51.819046,51.8533,51.878456,51.914528,51.919495,51.894386,51.83255,51.716393,51.55786,51.388397,51.22429,51.061184,50.901165,50.73569,50.573666,50.429028,50.30351,50.18849,50.083298,49.97988,49.86639,49.753235,49.649258,49.561016,49.490715,49.433334,49.381184,49.32171,49.24586,49.162815,49.086796,49.021328,48.96087,48.904724,48.854836,48.82667,48.8534,48.924248,49.02136,49.13553,49.206467,49.20305,49.0971,48.838863,48.540234,48.325733,48.1932,48.089706,47.94474,47.66041,47.22583,46.725895,46.305428,46.095047,46.1474,46.42875,46.86932,47.412712,47.92666,48.277245,48.433327,48.469215,48.444614,48.400414,48.34422,48.293602,48.25,48.2048,48.15542,48.101562,48.042538,47.974686,47.886276,47.78312,47.67292,47.55455,47.43373,47.312027,47.18361,47.055603,46.93566,46.8263,46.72703,46.639236,46.556423,46.46587,46.370796,46.27144,46.166107,46.055153,45.943188,45.83535,45.72547,45.628345,45.566105,45.541485,45.543858,45.56212,45.57949,45.5877,45.581024,45.55959,45.526443,45.48284,45.42711,45.357574,45.26164,45.12886,44.953503,44.74521,44.518593,44.295166,44.108345,43.96824,43.882095,43.87732,43.940453,44.021614,44.06309,44.02893,43.913864,43.743553,43.57981,43.502113,43.56388,43.74246,43.953842,44.13297,44.232494,44.21996,44.120255,43.985,43.87641,43.847717,43.90763,43.990906,44.00515,43.83503,43.404404,42.7887,42.166576,41.67518,41.43559,41.507397,41.854446,42.37922,42.90103,43.249744,43.385628
32.756344,33.20501,33.47549,33.453865,33.363426,33.042957,30.700928,27.803516,25.583668,24.470089,24.29956,24.814281,26.178032,29.06678,33.121014,35.48601,35.991207,36.211662,36.302017,36.239285,36.275383,36.06759,36.18869,35.021248,30.898552,25.71209,23.855759,22.95134,22.667173,22.719116,22.870281,22.959549,22.915909,22.776188,22.646057,22.581615,22.592304,22.661064,22.745014,22.802284,22.821297,22.815475,22.790173,22.755165,22.711891,22.676075,22.657124,22.643198,22.634644,22.630333,22.639626,22.660849,22.69041,22.721462,22.74731,22.770939,22.787443,22.801449,22.8091,22.79363,22.718607,22.552597,22.300304,21.957458,21.559338,21.181433,20.882086,20.684723,20.583624,20.554327,20.559547,20.576584,20.595882,20.617197,20.644974,20.68201,20.72737,20.777676,20.83835,20.919281,21.02192,21.14963,21.299109,21.454975,21.60176,21.747616,21.887177,22.018253,22.142023,22.261463,22.380623,22.502647,22.63768,22.806515,23.007114,23.241772,23.521858,23.840706,24.159298,24.453354,24.792315,25.129072,25.532732,26.313572,27.895985,30.620745,34.815987,36.949722,37.88247,37.873543,37.582146,37.455826,37.349655,37.259743,37.196556,37.319492,37.382324,37.72593,38.898705,41.045258,43.856556,46.51214,48.18374,48.99672,49.038193,48.725872,48.48212,48.199146,48.045452,47.939384,47.89068,47.92804,48.0216,48.10586,48.146515,48.13061,48.054604,47.93062,47.774567,47.619934,47.496593,47.418568,47.40096,47.47888,47.675392,47.948517,48.21531,48.436752,48.625687,48.783916,48.944168,49.14315,49.389774,49.689163,50.02136,50.346565,50.631737,50.8608,51.01829,51.095352,51.11712,51.098946,51.0478,50.987156,50.94217,50.869698,50.769756,50.632126,50.468803,50.306362,50.157253,50.013855,49.876038,49.734196,49.59321,49.462765,49.344482,49.232864,49.128605,49.026688,48.90168,48.774536,48.659298,48.56098,48.47995,48.411465,48.347492,48.280643,48.20691,48.129128,48.05619,47.99256,47.934624,47.882156,47.836098,47.806282,47.81489,47.87593,47.983315,48.105064,48.188725,48.20594,48.13151,47.97176,47.793953,47.660843,47.5736,47.492058,47.36163,47.104588,46.713577,46.25952,45.866398,45.64853,45.65204,45.84707,46.174232,46.57921,46.95039,47.200638,47.31099,47.31272,47.26095,47.192932,47.11943,47.056774,47.005234,46.955856,46.90502,46.85121,46.792778,46.725136,46.64714,46.5618,46.47052,46.373062,46.274506,46.17517,46.069435,45.962975,45.861816,45.768085,45.682144,45.605904,45.53281,45.451874,45.364716,45.272392,45.17553,45.07685,44.98179,44.89318,44.80181,44.725845,44.681854,44.669056,44.675533,44.689384,44.69887,44.695282,44.675842,44.641663,44.594856,44.537933,44.472736,44.398697,44.304832,44.187252,44.04908,43.898804,43.74809,43.609104,43.49337,43.40872,43.359406,43.361023,43.401558,43.443626,43.445293,43.38183,43.24862,43.0763,42.903927,42.79059,42.778633,42.85635,42.969658,43.07772,43.132294,43.1066,43.014317,42.89271,42.793526,42.762527,42.80673,42.891724,42.925182,42.822723,42.514496,42.043686,41.547325,41.14186,40.932007,40.968407,41.218304,41.600952,41.965088,42.17681,42.22226
32.5632,33.043003,33.32818,33.32388,33.26451,32.903038,30.588161,27.755402,25.564716,24.44334,24.261703,24.740963,26.023254,28.809872,32.79332,35.205322,35.750404,35.922935,36.001667,35.924854,35.93479,35.683426,35.868217,34.522087,30.226032,25.430382,23.73917,22.889853,22.652927,22.738277,22.894485,22.97226,22.922401,22.783587,22.659992,22.60436,22.622002,22.693623,22.777458,22.834112,22.853416,22.849373,22.826626,22.793861,22.751886,22.716412,22.697388,22.683594,22.675262,22.67163,22.68137,22.703749,22.736433,22.772247,22.802773,22.829819,22.847572,22.861225,22.872547,22.869537,22.815042,22.671146,22.433857,22.088678,21.670246,21.26032,20.929365,20.713518,20.608025,20.577606,20.586494,20.608368,20.630817,20.652447,20.675762,20.705032,20.744884,20.792427,20.851198,20.93031,21.030254,21.153833,21.298714,21.451206,21.596142,21.741825,21.883585,22.01812,22.145973,22.271358,22.397648,22.523247,22.660992,22.830437,23.028929,23.256325,23.527332,23.83434,24.12896,24.401022,24.71283,25.055115,25.44209,26.187359,27.743029,30.42174,34.5651,36.541733,37.314144,37.265472,37.012077,36.901688,36.80458,36.79706,36.868927,36.921844,36.782078,36.781303,37.402184,38.931694,41.417877,44.035873,46.3798,47.72493,48.237984,48.292446,48.09047,47.899757,47.783672,47.74099,47.762527,47.80556,47.8537,47.898987,47.90956,47.875584,47.790154,47.665558,47.520153,47.384216,47.285606,47.24225,47.269073,47.35408,47.516144,47.727848,47.93904,48.12233,48.278763,48.40918,48.543682,48.71479,48.92588,49.17571,49.446877,49.709213,49.936142,50.11152,50.222878,50.265385,50.23685,50.14379,50.023605,49.926018,49.844635,49.740894,49.618645,49.47309,49.314526,49.163937,49.031067,48.90818,48.791428,48.671722,48.551987,48.438087,48.316345,48.177002,48.050915,47.92964,47.800846,47.67597,47.56324,47.466694,47.386665,47.318577,47.252743,47.184856,47.11256,47.0375,46.966537,46.903698,46.84639,46.794647,46.748455,46.714447,46.70945,46.747486,46.825623,46.919174,46.99337,47.02919,47.00705,46.93196,46.842606,46.77379,46.72375,46.663864,46.554604,46.340256,46.010063,45.62167,45.278427,45.073353,45.042416,45.159718,45.38667,45.66078,45.899925,46.048603,46.09555,46.06319,45.993828,45.914116,45.832508,45.762794,45.70672,45.65621,45.606087,45.557358,45.50721,45.450523,45.38686,45.318295,45.24533,45.167816,45.09014,45.01185,44.927402,44.840706,44.75733,44.680046,44.609306,44.54606,44.48355,44.411842,44.332153,44.24686,44.157005,44.065525,43.97936,43.901566,43.82485,43.763084,43.72818,43.717697,43.721703,43.730568,43.731636,43.716133,43.68235,43.6329,43.570793,43.499786,43.42443,43.347557,43.2621,43.166725,43.068516,42.973183,42.885647,42.810753,42.751625,42.704887,42.676815,42.6753,42.686577,42.685535,42.649734,42.56758,42.439125,42.27877,42.11226,41.9812,41.918037,41.920204,41.955994,41.999226,42.01699,41.98409,41.9067,41.807007,41.72129,41.685688,41.707138,41.765274,41.804832,41.749313,41.53447,41.187897,40.81208,40.497265,40.32418,40.33339,40.494804,40.750793,40.97854,41.073154,41.04408
32.2733,32.793465,33.100163,33.118004,33.106556,32.69361,30.435415,27.715796,25.590157,24.457684,24.243843,24.6999,25.900667,28.553684,32.38954,34.78469,35.362682,35.503338,35.557632,35.46271,35.443394,35.16274,35.402004,33.923927,29.557806,25.186544,23.636322,22.849216,22.656982,22.768696,22.931065,23.005611,22.955013,22.818768,22.700539,22.650478,22.671402,22.743097,22.82523,22.880672,22.900383,22.898327,22.87843,22.848148,22.807568,22.772251,22.752647,22.738293,22.729504,22.725708,22.73499,22.757374,22.791548,22.830032,22.862888,22.89095,22.907581,22.91824,22.931038,22.938372,22.904064,22.786278,22.570686,22.226185,21.791046,21.350935,20.98675,20.748861,20.635845,20.60165,20.612095,20.63734,20.660297,20.679157,20.698744,20.72456,20.761087,20.807178,20.86591,20.94598,21.046272,21.168179,21.31023,21.460678,21.604141,21.748941,21.890848,22.029577,22.16257,22.291473,22.421238,22.550465,22.689362,22.854443,23.046375,23.267103,23.525532,23.813633,24.095142,24.356794,24.641485,24.977715,25.342968,26.04673,27.58337,30.26674,34.3591,36.202507,36.836758,36.796345,36.58384,36.448257,36.355133,36.353363,36.453533,36.543488,36.529373,36.37718,36.48979,37.41261,39.133865,41.54651,43.82886,45.651344,46.772995,47.214333,47.28645,47.31305,47.28979,47.285255,47.317825,47.350708,47.37231,47.38757,47.375996,47.333588,47.251587,47.146835,47.029602,46.927155,46.86672,46.852577,46.87503,46.956223,47.111492,47.303238,47.483948,47.634758,47.762,47.870605,47.9834,48.124573,48.292816,48.48944,48.698883,48.89341,49.05449,49.164986,49.206783,49.178974,49.09149,48.96244,48.825737,48.715157,48.617973,48.504288,48.381737,48.24893,48.111774,47.984306,47.869762,47.74979,47.636536,47.518997,47.39554,47.270508,47.140564,47.003456,46.877377,46.755806,46.632927,46.516087,46.409622,46.316727,46.238483,46.170982,46.10672,46.040096,45.968758,45.893936,45.821556,45.755623,45.69483,45.639935,45.59043,45.55053,45.532066,45.54507,45.589294,45.65052,45.705788,45.744255,45.75152,45.721123,45.677406,45.645073,45.620945,45.585323,45.510147,45.34501,45.082966,44.77675,44.50243,44.323257,44.272285,44.329945,44.46935,44.640907,44.7775,44.84091,44.832314,44.77295,44.692482,44.604874,44.515633,44.437622,44.374336,44.320427,44.27186,44.228226,44.18589,44.139503,44.08844,44.034496,43.97781,43.9178,43.85812,43.79779,43.731606,43.662586,43.595642,43.5336,43.476852,43.4254,43.37292,43.31019,43.23819,43.15982,43.07731,42.9947,42.918655,42.849846,42.78225,42.7268,42.692375,42.676456,42.671314,42.669357,42.659393,42.632523,42.587646,42.528046,42.457233,42.379875,42.30208,42.228134,42.153816,42.079144,42.01252,41.956688,41.910763,41.874245,41.846535,41.821014,41.799965,41.786415,41.771908,41.742195,41.68571,41.598495,41.48281,41.340805,41.18923,41.056118,40.964584,40.917995,40.901466,40.898056,40.88603,40.846092,40.779297,40.695763,40.618286,40.57473,40.57451,40.605263,40.63501,40.60329,40.457123,40.213078,39.94358,39.711967,39.575222,39.56263,39.649147,39.79075,39.903378,39.916313,39.836594
31.90016,32.420868,32.75653,32.852043,32.829414,32.40219,30.235878,27.670729,25.645224,24.517212,24.268991,24.692076,25.810408,28.305134,31.911394,34.236183,34.846848,34.961555,34.98661,34.87558,34.83297,34.544502,34.816025,33.307655,29.011063,24.980476,23.54559,22.8208,22.66715,22.80169,22.975464,23.055656,23.00969,22.877264,22.762547,22.71426,22.734554,22.803429,22.882103,22.935448,22.95526,22.954878,22.9377,22.909943,22.870953,22.835955,22.815704,22.8005,22.790874,22.786354,22.79451,22.815859,22.850046,22.889292,22.9221,22.948479,22.961613,22.966759,22.977898,22.994057,22.976128,22.87691,22.685293,22.36147,21.91698,21.44986,21.054028,20.791435,20.66652,20.628977,20.639267,20.66594,20.687088,20.700418,20.71389,20.735153,20.768608,20.814793,20.878654,20.962757,21.065565,21.188442,21.32787,21.471382,21.607588,21.746632,21.882572,22.018288,22.151798,22.282867,22.415579,22.549274,22.69193,22.858202,23.048414,23.26648,23.518467,23.795986,24.07085,24.3278,24.58805,24.900202,25.238974,25.90482,27.416878,30.104942,34.12652,35.88,36.41651,36.396103,36.22307,36.06247,35.967346,35.955948,36.026657,36.137733,36.271023,36.21033,36.127655,36.521637,37.502304,39.314648,41.26992,43.113976,44.50663,45.401203,45.959126,46.207428,46.310402,46.383,46.435165,46.470394,46.491516,46.4981,46.484947,46.452774,46.39139,46.301456,46.21223,46.12919,46.063347,46.04435,46.066956,46.152977,46.305817,46.48677,46.64705,46.76699,46.857594,46.93266,47.014713,47.12219,47.25163,47.401283,47.55836,47.703255,47.82302,47.89917,47.91171,47.85737,47.755814,47.6345,47.51802,47.419746,47.327362,47.225372,47.108307,46.977528,46.84366,46.721558,46.614143,46.503613,46.39708,46.28382,46.160774,46.03249,45.90645,45.786552,45.673927,45.56423,45.45228,45.345306,45.247192,45.160583,45.086258,45.020737,44.95862,44.893154,44.821815,44.74547,44.66941,44.597878,44.530727,44.46867,44.41204,44.363342,44.330437,44.32055,44.334625,44.363857,44.392593,44.41435,44.419388,44.402798,44.379616,44.364876,44.355198,44.336502,44.288074,44.173088,43.987404,43.769142,43.56852,43.42729,43.3725,43.390717,43.460403,43.55123,43.612602,43.617737,43.57245,43.4946,43.406456,43.31494,43.2231,43.141083,43.072197,43.013535,42.963005,42.919197,42.878555,42.83578,42.7909,42.745697,42.699615,42.65139,42.60404,42.55569,42.501465,42.44403,42.38763,42.33516,42.287563,42.244736,42.200783,42.14762,42.08584,42.01803,41.946415,41.874947,41.809326,41.7481,41.68544,41.631126,41.59223,41.56711,41.550205,41.535732,41.515266,41.48005,41.429447,41.36689,41.29564,41.220474,41.14772,41.081177,41.018044,40.958717,40.91129,40.876427,40.85009,40.829277,40.812485,40.79339,40.7714,40.747322,40.717278,40.67355,40.60973,40.525314,40.423225,40.299343,40.16544,40.040268,39.938774,39.866814,39.820778,39.78909,39.75598,39.708954,39.64595,39.570145,39.495644,39.44342,39.423645,39.43009,39.441235,39.416885,39.318886,39.154846,38.970364,38.805695,38.699825,38.67138,38.701187,38.756077,38.78573,38.749237,38.647606
31.439358,31.950684,32.318573,32.479473,32.430405,31.966843,29.974007,27.60921,25.689297,24.577286,24.307148,24.685253,25.716206,28.052513,31.362846,33.585167,34.255005,34.35682,34.333885,34.214455,34.159904,33.88687,34.15768,32.70677,28.6096,24.825253,23.47088,22.795616,22.671741,22.828423,23.019653,23.112314,23.074823,22.946396,22.833057,22.783081,22.79927,22.862946,22.937023,22.98777,23.007328,23.008045,22.993101,22.967793,22.930859,22.897034,22.877052,22.861717,22.851822,22.84694,22.854208,22.87454,22.907724,22.945585,22.976402,23.00054,23.008673,23.00602,23.012806,23.033577,23.026825,22.942371,22.77396,22.480026,22.039455,21.55306,21.128445,20.840525,20.699432,20.654093,20.660212,20.685041,20.703997,20.713371,20.721462,20.737799,20.76912,20.817152,20.885113,20.972878,21.078102,21.200394,21.334797,21.470116,21.598114,21.72972,21.859217,21.988228,22.118149,22.250526,22.387058,22.52592,22.67529,22.849167,23.044516,23.264711,23.518005,23.795177,24.06379,24.313324,24.555212,24.836708,25.150093,25.786572,27.265749,29.92772,33.840897,35.54093,36.022835,36.019276,35.878174,35.705894,35.608265,35.60462,35.674225,35.77107,35.89889,35.992424,36.015617,36.125042,36.613434,37.627518,39.20312,40.70541,41.984016,43.11806,44.00553,44.49871,44.82692,45.052444,45.1783,45.244083,45.275826,45.27962,45.264854,45.238594,45.18306,45.08101,44.986977,44.904358,44.832115,44.81406,44.859894,44.954437,45.089363,45.241207,45.37465,45.467445,45.526237,45.574203,45.633488,45.717724,45.823765,45.942963,46.0642,46.178043,46.276405,46.34392,46.36698,46.33759,46.264637,46.170746,46.081135,46.007133,45.931793,45.849197,45.745857,45.624825,45.500885,45.38962,45.295692,45.21016,45.122326,45.024895,44.917404,44.805138,44.693855,44.586517,44.485947,44.38733,44.2868,44.190506,44.102245,44.024178,43.95613,43.89451,43.83387,43.76747,43.69339,43.61284,43.531006,43.452377,43.37771,43.307648,43.24262,43.184395,43.13845,43.10973,43.09839,43.098015,43.099144,43.09729,43.086742,43.06993,43.054886,43.047314,43.044106,43.03505,43.004467,42.93544,42.822495,42.68305,42.548195,42.44805,42.39943,42.393433,42.413803,42.440918,42.445366,42.411575,42.34354,42.25509,42.163864,42.0734,41.98473,41.90409,41.833496,41.77118,41.71637,41.66884,41.625393,41.580925,41.536003,41.49253,41.44964,41.4057,41.363472,41.320045,41.27087,41.218304,41.166054,41.117195,41.073486,41.035225,40.99694,40.952263,40.90142,40.846508,40.788197,40.728516,40.672188,40.6174,40.558662,40.504528,40.460907,40.427277,40.40029,40.37598,40.347878,40.30792,40.255913,40.195374,40.129192,40.06153,39.99775,39.940475,39.88768,39.83908,39.801346,39.774025,39.75219,39.73281,39.715508,39.69361,39.66761,39.637703,39.600403,39.55054,39.48529,39.40631,39.316772,39.21003,39.094913,38.983994,38.88542,38.804676,38.74453,38.69748,38.651855,38.599197,38.53591,38.462486,38.388596,38.32954,38.293793,38.27942,38.272556,38.24858,38.182755,38.077003,37.956036,37.842743,37.762787,37.726166,37.72007,37.719437,37.69004,37.610405,37.48927
30.930614,31.44895,31.829157,31.99416,31.97668,31.395767,29.661835,27.529507,25.693596,24.592598,24.309769,24.646,25.595686,27.791689,30.773684,32.87624,33.636932,33.752453,33.665375,33.545563,33.489197,33.248295,33.49122,32.113785,28.279367,24.730276,23.415169,22.773048,22.67043,22.846865,23.057398,23.166084,23.139393,23.01342,22.899174,22.84487,22.854588,22.911896,22.980782,23.02774,23.045654,23.04691,23.034206,23.01193,22.978148,22.946934,22.928656,22.914337,22.905113,22.900429,22.907116,22.926338,22.957436,22.99224,23.020336,23.043118,23.047108,23.037508,23.039524,23.057331,23.055994,22.992455,22.849644,22.573025,22.15028,21.65554,21.205334,20.893356,20.733864,20.6735,20.671465,20.691788,20.708546,20.716167,20.722122,20.73645,20.76698,20.816767,20.882763,20.971508,21.077862,21.196617,21.32514,21.457836,21.583748,21.711426,21.839497,21.966148,22.093632,22.225967,22.365042,22.508541,22.663694,22.843565,23.04522,23.271332,23.529236,23.808128,24.073103,24.311384,24.54137,24.797245,25.089462,25.701164,27.142733,29.755415,33.53224,35.181435,35.64112,35.657433,35.535515,35.355835,35.261215,35.26785,35.33873,35.456528,35.56945,35.699856,35.845,35.975655,36.170403,36.689453,37.629646,38.802273,39.912933,40.87127,41.73721,42.47828,43.080055,43.472145,43.68993,43.801327,43.84567,43.839134,43.80609,43.76308,43.685337,43.570564,43.46251,43.39752,43.382294,43.408524,43.467735,43.55606,43.66655,43.781567,43.878975,43.94752,43.996315,44.04529,44.10748,44.192047,44.292282,44.397087,44.49627,44.584724,44.660126,44.71317,44.736694,44.723175,44.677322,44.614212,44.550327,44.49362,44.437904,44.371925,44.298954,44.222145,44.147625,44.081783,44.023636,43.96286,43.893738,43.811836,43.71853,43.619385,43.52012,43.424133,43.33405,43.24533,43.155014,43.06881,42.98976,42.919315,42.85679,42.79834,42.738533,42.669983,42.591675,42.505714,42.417606,42.33215,42.25095,42.17563,42.10474,42.040016,41.985218,41.943333,41.91404,41.892937,41.874657,41.855965,41.833748,41.810863,41.793232,41.784946,41.78431,41.784576,41.774002,41.740845,41.67996,41.59922,41.515667,41.44757,41.406017,41.38556,41.37462,41.359848,41.324417,41.2621,41.179276,41.08754,40.999256,40.91304,40.828552,40.750404,40.679913,40.61597,40.558895,40.50893,40.462646,40.41523,40.367424,40.321228,40.27604,40.230583,40.18766,40.143883,40.095093,40.04348,39.992218,39.944122,39.90116,39.86396,39.827934,39.788338,39.74532,39.700546,39.653614,39.604763,39.557133,39.508728,39.45455,39.40181,39.35569,39.316677,39.283054,39.252136,39.21909,39.176987,39.126152,39.070084,39.01136,38.95356,38.900818,38.85411,38.81112,38.77047,38.736935,38.70955,38.68408,38.658806,38.634995,38.6072,38.576088,38.541634,38.501007,38.450188,38.38787,38.317028,38.240974,38.1491,38.049343,37.949223,37.8547,37.773067,37.70894,37.654617,37.60137,37.545235,37.48287,37.41334,37.342735,37.28193,37.238274,37.211754,37.193653,37.167213,37.115826,37.039963,36.953568,36.869392,36.805252,36.766613,36.744503,36.715015,36.649635,36.537174,36.394135
30.510525,30.960257,31.299915,31.543293,31.54035,30.869202,29.370855,27.444614,25.666647,24.567852,24.287727,24.582962,25.463318,27.53746,30.198822,32.193993,33.041107,33.162964,33.051292,32.934723,32.88363,32.680355,32.883526,31.58176,28.022806,24.687757,23.383331,22.757425,22.667439,22.860268,23.087528,23.210932,23.195879,23.070148,22.952963,22.892975,22.895916,22.947407,23.010216,23.049881,23.06275,23.064026,23.054695,23.03715,23.008137,22.980848,22.965172,22.952297,22.943874,22.93902,22.944275,22.960451,22.988317,23.021187,23.04802,23.068455,23.072079,23.062456,23.061588,23.071327,23.06815,23.022993,22.911354,22.649858,22.249346,21.752153,21.28048,20.94587,20.768787,20.697151,20.689075,20.705784,20.71905,20.721992,20.722206,20.730814,20.756914,20.804478,20.872005,20.962315,21.069374,21.188454,21.316341,21.446377,21.568796,21.692223,21.815523,21.937784,22.062542,22.194687,22.336227,22.484537,22.646172,22.833435,23.043217,23.277294,23.542019,23.82495,24.088566,24.318302,24.537582,24.77044,25.042585,25.632057,27.039059,29.59602,33.22287,34.808445,35.26982,35.30944,35.19709,35.015022,34.924747,34.940163,35.017998,35.143963,35.28109,35.400085,35.534195,35.72905,35.9526,36.15465,36.59183,37.350952,38.274246,39.16224,39.95421,40.664513,41.219658,41.687206,42.00708,42.188786,42.263294,42.263466,42.228928,42.178673,42.105576,42.03501,41.98449,41.966553,41.983994,42.029266,42.093674,42.175606,42.267803,42.35811,42.43419,42.48876,42.52855,42.573196,42.63318,42.715324,42.81122,42.90792,42.99595,43.07275,43.138107,43.18621,43.21411,43.21888,43.201855,43.17068,43.13504,43.099865,43.062447,43.018944,42.97262,42.92752,42.88719,42.8529,42.820488,42.78017,42.72783,42.66104,42.582138,42.49562,42.406128,42.317905,42.23508,42.153435,42.07054,41.992077,41.92085,41.857536,41.800484,41.745285,41.6868,41.619198,41.541416,41.45555,41.36677,41.279716,41.196476,41.118652,41.044594,40.975967,40.91574,40.86573,40.82543,40.791924,40.762108,40.73288,40.702682,40.675125,40.654922,40.645348,40.64597,40.651875,40.653496,40.64321,40.61595,40.57332,40.52362,40.477615,40.44216,40.413933,40.384575,40.345623,40.288635,40.212704,40.124695,40.034424,39.95094,39.870377,39.79167,39.71824,39.650463,39.587273,39.529716,39.478386,39.42966,39.378975,39.327354,39.276985,39.227707,39.178818,39.13315,39.086967,39.03643,38.98364,38.931335,38.882126,38.83806,38.79998,38.76413,38.726883,38.68853,38.650402,38.611412,38.570503,38.52939,38.48613,38.436134,38.38539,38.338623,38.29699,38.25974,38.225067,38.189384,38.14685,38.098175,38.046875,37.99511,37.94663,37.905506,37.870384,37.836723,37.80227,37.76995,37.738914,37.706528,37.67302,37.64135,37.607544,37.572346,37.535835,37.495655,37.448074,37.392056,37.33147,37.271877,37.18554,37.08612,36.976425,36.870224,36.7866,36.72661,36.669777,36.610916,36.554764,36.501083,36.445694,36.388306,36.33516,36.29313,36.263157,36.242767,36.210636,36.151638,36.068993,35.97538,35.88243,35.81246,35.77308,35.748535,35.720703,35.670616,35.585,35.469353
30.157104,30.561869,30.874962,31.119194,31.130697,30.411379,29.112396,27.377573,25.647167,24.526737,24.236517,24.488785,25.3087,27.261414,29.676847,31.58053,32.443867,32.54225,32.46425,32.352074,32.31033,32.144722,32.319542,31.094666,27.802906,24.688194,23.379333,22.750538,22.666348,22.873592,23.11512,23.244072,23.23108,23.118805,22.9958,22.92912,22.926258,22.971302,23.0247,23.05589,23.068636,23.069809,23.061363,23.045454,23.019005,22.994865,22.982346,22.972427,22.96664,22.964233,22.971512,22.989405,23.018745,23.052765,23.079958,23.099041,23.099691,23.085533,23.076391,23.079071,23.079407,23.049334,22.9547,22.72392,22.351982,21.853346,21.360554,21.003317,20.807217,20.722277,20.706623,20.71883,20.728758,20.727955,20.723385,20.726671,20.748093,20.792625,20.858835,20.94881,21.056026,21.174852,21.301243,21.428476,21.547382,21.666393,21.784918,21.902653,22.024399,22.155916,22.299301,22.451847,22.61948,22.813946,23.032322,23.27548,23.548473,23.836906,24.1007,24.323936,24.53357,24.745678,24.997309,25.565205,26.937355,29.424326,32.878952,34.39086,34.874268,34.944115,34.840477,34.664692,34.57658,34.58412,34.67158,34.81241,34.959343,35.083073,35.200005,35.34633,35.52671,35.693386,35.860046,36.256157,36.864254,37.59846,38.370365,39.017998,39.540314,39.992275,40.30535,40.49466,40.589962,40.615917,40.609333,40.587227,40.550873,40.512966,40.488106,40.48919,40.518436,40.567154,40.62632,40.695015,40.76915,40.839752,40.899017,40.94422,40.982613,41.028824,41.089012,41.167953,41.258476,41.349297,41.432045,41.5047,41.567627,41.617355,41.654602,41.6774,41.685776,41.683506,41.675087,41.662155,41.643715,41.61933,41.592335,41.567734,41.54904,41.53608,41.52355,41.50222,41.4685,41.4199,41.358093,41.287437,41.21319,41.139748,41.070103,41.00112,40.931065,40.86492,40.804703,40.75039,40.70005,40.64962,40.59478,40.530422,40.45605,40.37385,40.2884,40.203842,40.122307,40.045437,39.971413,39.901917,39.83938,39.78498,39.738342,39.69783,39.66189,39.627365,39.59453,39.568398,39.550896,39.54267,39.544075,39.551777,39.558372,39.559074,39.549618,39.528572,39.499313,39.467888,39.43801,39.406483,39.367508,39.316128,39.24945,39.16966,39.083374,38.99889,38.92276,38.85097,38.78219,38.718155,38.65818,38.601006,38.547695,38.498947,38.45202,38.394794,38.328484,38.261692,38.197598,38.134468,38.077187,38.021927,37.964714,37.907524,37.85188,37.79875,37.749428,37.705414,37.66369,37.619953,37.582653,37.551453,37.519577,37.483692,37.446342,37.405373,37.35765,37.30918,37.26445,37.219444,37.173454,37.13099,37.08465,37.027367,36.958885,36.887733,36.821842,36.765682,36.72077,36.68628,36.660378,36.641083,36.627457,36.61487,36.596622,36.56959,36.536823,36.496983,36.451057,36.39983,36.34326,36.27865,36.20502,36.126846,36.04718,35.956192,35.859856,35.76294,35.675385,35.605995,35.554035,35.513382,35.479683,35.45189,35.4206,35.37915,35.32853,35.2763,35.232826,35.198093,35.168304,35.136726,35.097176,35.05054,35.0014,34.952553,34.913204,34.88578,34.862755,34.833954,34.789307,34.72239,34.636253
29.869469,30.22391,30.46457,30.632618,30.701225,29.986338,28.878998,27.300491,25.61198,24.479788,24.17061,24.37661,25.137997,26.958408,29.203121,31.023273,31.87896,31.971415,31.897303,31.794924,31.764172,31.631775,31.792963,30.667933,27.639433,24.713818,23.388115,22.75893,22.67188,22.890133,23.137974,23.26352,23.252907,23.141273,23.026342,22.954235,22.944172,22.978603,23.022385,23.051834,23.06426,23.065346,23.05708,23.041948,23.017614,22.996803,22.988155,22.98227,22.980255,22.98148,22.99205,23.013315,23.04654,23.082214,23.106548,23.12303,23.120565,23.099804,23.08115,23.078365,23.084599,23.070812,22.9955,22.798473,22.441326,21.95074,21.447826,21.065998,20.849495,20.749693,20.725471,20.732824,20.739838,20.736198,20.727558,20.725529,20.7416,20.781862,20.845028,20.933058,21.039219,21.157093,21.281704,21.406029,21.521349,21.635801,21.749376,21.862415,21.980986,22.111568,22.256275,22.412516,22.585604,22.787079,23.01439,23.26749,23.549831,23.844818,24.109848,24.32809,24.528667,24.722145,24.955698,25.507149,26.849533,29.257782,32.506657,33.916542,34.45046,34.55693,34.449936,34.28499,34.199036,34.195526,34.278984,34.42367,34.579422,34.70826,34.81008,34.911472,35.033936,35.19387,35.24767,35.410225,35.7819,36.29757,36.873726,37.47649,37.986355,38.37146,38.64289,38.825157,38.9318,38.97938,38.997902,38.999283,38.989037,38.982094,38.9842,39.002472,39.039673,39.08899,39.142677,39.19993,39.259163,39.314667,39.362885,39.40343,39.441833,39.488586,39.547226,39.619972,39.7017,39.78344,39.858246,39.92433,39.981873,40.028915,40.069168,40.10166,40.12719,40.14708,40.161034,40.167557,40.166412,40.159653,40.150368,40.143707,40.142544,40.145412,40.147022,40.14032,40.122803,40.091843,40.050247,40.00077,39.946312,39.890553,39.83621,39.781483,39.725334,39.671883,39.622543,39.577156,39.534126,39.490147,39.44198,39.385323,39.31994,39.247555,39.171555,39.095356,39.021183,38.95029,38.881073,38.81507,38.754173,38.699215,38.65033,38.607185,38.569427,38.535316,38.49752,38.446068,38.39586,38.364285,38.35173,38.35459,38.367287,38.38649,38.407196,38.423058,38.426567,38.41307,38.38555,38.353878,38.312546,38.259014,38.19347,38.119007,38.041145,37.966732,37.901005,37.828495,37.749226,37.67155,37.598057,37.52884,37.467392,37.413544,37.3626,37.30646,37.24702,37.18101,37.108284,37.036827,36.972855,36.91002,36.84317,36.774323,36.705605,36.63954,36.580223,36.531616,36.48817,36.447754,36.41507,36.391335,36.371193,36.348076,36.319862,36.284294,36.23683,36.183475,36.13064,36.079422,36.030533,35.98553,35.939407,35.88523,35.822956,35.75866,35.698956,35.6484,35.608406,35.577614,35.554626,35.53589,35.520546,35.505165,35.48469,35.456673,35.42337,35.383774,35.337547,35.285355,35.228233,35.164787,35.094933,35.023064,34.950287,34.872337,34.793552,34.717964,34.64885,34.589825,34.543785,34.509834,34.483322,34.464226,34.44478,34.418907,34.385696,34.348206,34.312233,34.28087,34.25086,34.22251,34.19496,34.16911,34.145866,34.123325,34.103928,34.087646,34.070442,34.046097,34.009575,33.95838,33.89431
29.650192,29.94,30.130417,30.240955,30.270771,29.664043,28.688675,27.214592,25.57223,24.442984,24.114136,24.27118,24.975979,26.660583,28.767368,30.479227,31.329817,31.479618,31.38581,31.296322,31.277058,31.170147,31.341503,30.313345,27.498184,24.737495,23.39722,22.775394,22.684027,22.908768,23.15873,23.278435,23.268044,23.1484,23.033726,22.959156,22.941183,22.967125,23.007555,23.037989,23.050404,23.049885,23.04073,23.02608,23.004335,22.987175,22.982256,22.980553,22.982391,22.98729,23.001457,23.023865,23.055538,23.089052,23.112038,23.127304,23.122955,23.097866,23.073444,23.067493,23.0793,23.081734,23.02708,22.85123,22.516008,22.045212,21.537785,21.131886,20.894804,20.779701,20.746769,20.749474,20.754322,20.748928,20.736954,20.729582,20.739649,20.774418,20.832901,20.9174,21.02121,21.137333,21.259983,21.381626,21.493582,21.603802,21.712742,21.821344,21.936813,22.066208,22.211632,22.370708,22.54819,22.7557,22.991173,23.253681,23.545021,23.84644,24.113115,24.327795,24.520489,24.699593,24.920572,25.46561,26.788048,29.118824,32.184387,33.411636,33.988995,34.147552,34.038597,33.88588,33.80314,33.787865,33.85922,33.99658,34.146782,34.273056,34.370667,34.4525,34.534267,34.655052,34.700134,34.749004,34.948616,35.272537,35.63448,36.07802,36.494667,36.851933,37.1251,37.298622,37.396,37.455162,37.492092,37.513412,37.512657,37.491516,37.476776,37.48353,37.508785,37.545288,37.585457,37.628624,37.676186,37.72496,37.77321,37.821808,37.872616,37.926094,37.984314,38.05567,38.1324,38.206158,38.271187,38.32551,38.37018,38.405983,38.44014,38.475792,38.514534,38.554516,38.590225,38.61573,38.62931,38.631363,38.623253,38.611282,38.60209,38.59926,38.60155,38.602642,38.598885,38.587418,38.556847,38.508698,38.45437,38.40287,38.357597,38.317093,38.281082,38.251884,38.227524,38.203796,38.176853,38.143963,38.102253,38.049587,37.988705,37.922703,37.854855,37.787235,37.720467,37.656063,37.59221,37.531105,37.4754,37.425808,37.381905,37.342953,37.30793,37.27379,37.238487,37.19424,37.151077,37.122635,37.110764,37.112595,37.123,37.140877,37.16304,37.184376,37.19744,37.195847,37.179363,37.15513,37.118385,37.067986,37.00661,36.938774,36.869987,36.80684,36.754333,36.700253,36.63965,36.576836,36.512917,36.44841,36.38804,36.333344,36.282055,36.227764,36.172485,36.11241,36.046932,35.983215,35.925797,35.86885,35.807823,35.744812,35.682076,35.622032,35.56833,35.52459,35.486584,35.453564,35.426636,35.408154,35.394848,35.379257,35.356743,35.32531,35.280045,35.22599,35.1698,35.116173,35.06645,35.019203,34.97254,34.92228,34.869774,34.81658,34.76573,34.721222,34.684914,34.65528,34.6305,34.606243,34.582664,34.558395,34.5311,34.49998,34.46674,34.42987,34.387947,34.341423,34.29132,34.23686,34.17851,34.120255,34.06257,34.000587,33.939034,33.880283,33.824173,33.773293,33.732697,33.701847,33.676758,33.66015,33.64825,33.635635,33.618683,33.596306,33.570007,33.54445,33.517517,33.49157,33.46827,33.44961,33.43595,33.423973,33.41378,33.404743,33.393196,33.374275,33.345222,33.305008,33.25447
