31.482262,31.61111,31.73172,31.846622,31.946053,32.03904,32.13601,32.262623,32.413437,32.564682,32.70461,32.83794,32.95999,33.077065,33.18315,33.27913,33.36787,33.454758,33.545616,33.638622,33.729515,33.822037,33.909595,33.983204,34.042366,34.093388,34.138023,34.178997,34.222538,34.26838,34.317566,34.368217,34.414974,34.45335,34.48408,34.50756,34.529068,34.563583,34.592262,34.60296,34.616814,34.62364,34.6259,34.611618,34.58728,34.55906,34.53158,34.5084,34.4853,34.46434,34.439945,34.411896,34.373024,34.322186,34.266796,34.210754,34.158134,34.09378,34.023407,33.95382,33.889145,33.831573,33.7823,33.73779,33.691273,33.64453,33.59069,33.526787,33.456253,33.379513,33.28794,33.169456,33.022057,32.85067,32.668064,32.4894,32.324455,32.17533,32.027443,31.871723,31.718475,31.573696,31.43923,31.318933,31.218678,31.134525,31.066298,31.010677,30.962019,30.918089,30.880133,30.84953,30.826662,30.807587,30.787987,30.762619,30.722332,30.6553,30.5587,30.449944,30.304043,30.120255,29.904415,29.65568,29.369675,29.051498,28.719032,28.341188,27.946234,27.488205,27.10999,26.9068,26.738655,26.423729,26.04293,25.36142,23.403542,18.820366,14.544319,13.488682,13.051275,12.869356,12.804178,12.788339,12.798709,12.823612,12.853928,12.894941,12.95212,13.034428,13.128439,13.217623,13.286388,13.330008,13.353888,13.361142,13.361462,13.351368,13.336531,13.321488,13.316669,13.335882,13.3802,13.435141,13.504438,13.609571,13.737108,13.869412,14.004263,14.140451,14.283595,14.456406,14.663293,14.900166,15.15583,15.409784,15.635758,15.818117,15.977491,16.111767,16.22717,16.32386,16.40129,16.467873,16.532417,16.586685,16.628994,16.658325,16.676395,16.685913,16.68874,16.68509,16.67257,16.647762,16.609951,16.562202,16.508732,16.452324,16.394175,16.332607,16.259727,16.17465,16.083683,15.988412,15.892027,15.8012295,15.700901,15.587221,15.45936,15.317008,15.147696,14.950844,14.753449,14.585151,14.445787,14.347329,14.296819,14.285543,14.298337,14.322596,14.349662,14.380999,14.421906,14.473673,14.533472,14.593275,14.643017,14.676436,14.695555,14.704708,14.707573,14.708019,14.706493,14.700227,14.686644,14.665171,14.634903,14.595823,14.547691,14.488846,14.417894,14.335896,14.2459755,14.146151,14.040031,13.936503,13.842642,13.762709,13.697985,13.646376,13.601215,13.559177,13.520145,13.482611,13.446615,13.413727,13.384249,13.355683,13.323891,13.287155,13.246441,13.20961,13.183672,13.166851,13.154604,13.144105,13.134621,13.123675,13.110826,13.097763,13.08588,13.075841,13.06595,13.051258,13.032303,13.00646,12.970421,12.926456,12.881413,12.828175,12.764841,12.694795,12.630842,12.581463,12.545254,12.517544,12.483578,12.436554,12.374912,12.369265,12.465046,12.705046,13.572754,16.737013,23.75684,27.618961,28.58696,28.573277,28.477581,28.78347,28.988573,29.303745,29.517784,29.650278,29.75718,29.827587,29.827824,29.782608,29.732983,29.69425,29.649445,29.595694,29.530628,29.436794,29.305012,29.179806,29.073215,29.015005,29.040676,29.13196,29.233593,29.31496,29.371758,29.390846,29.38182,29.356972,29.332096,29.323517
31.634884,31.7584,31.87554,31.989433,32.088963,32.183655,32.282585,32.41189,32.553516,32.69171,32.825073,32.950176,33.063335,33.171455,33.26983,33.360317,33.446075,33.531548,33.621086,33.71234,33.80079,33.890076,33.974426,34.045433,34.102467,34.151344,34.19361,34.231903,34.271744,34.31353,34.35872,34.405922,34.450497,34.488174,34.51841,34.5419,34.56309,34.596592,34.623737,34.632927,34.645855,34.652634,34.655693,34.642677,34.61966,34.59266,34.566254,34.544,34.522038,34.50226,34.47909,34.45249,34.415436,34.36712,34.314907,34.26187,34.21157,34.14884,34.080254,34.01217,33.948524,33.891968,33.84372,33.800262,33.754715,33.710022,33.659977,33.602394,33.540802,33.474567,33.394547,33.289886,33.15683,32.99906,32.828423,32.659645,32.502834,32.36074,32.219833,32.07209,31.928013,31.793781,31.67091,31.562515,31.473984,31.401314,31.345036,31.300503,31.25979,31.220644,31.184948,31.152689,31.124325,31.095057,31.058275,31.007793,30.936823,30.837322,30.709225,30.571999,30.397364,30.183931,29.937714,29.66035,29.3507,29.014809,28.669106,28.299496,27.86406,27.347767,26.984283,26.874043,26.770027,26.414919,25.975227,25.251148,23.498333,19.081318,14.729195,13.532783,13.060016,12.871478,12.812836,12.796944,12.803261,12.824731,12.852205,12.892639,12.949957,13.031083,13.125537,13.215672,13.284144,13.325752,13.34767,13.356884,13.358298,13.351438,13.341956,13.331044,13.324221,13.335636,13.375563,13.444157,13.52014,13.620567,13.743986,13.876224,14.009129,14.143505,14.2846985,14.454612,14.657154,14.887953,15.136335,15.384193,15.60906,15.798195,15.960884,16.104935,16.229069,16.328693,16.406605,16.47276,16.530144,16.576012,16.616728,16.649666,16.671824,16.682903,16.684357,16.676851,16.657917,16.624495,16.576893,16.51886,16.45552,16.390112,16.323805,16.258274,16.189373,16.113712,16.036299,15.95673,15.869968,15.776052,15.67562,15.573579,15.456924,15.32264,15.159681,14.970604,14.782795,14.617968,14.479011,14.378849,14.325691,14.311943,14.322949,14.345823,14.37129,14.400365,14.437962,14.485407,14.540497,14.595963,14.642396,14.674024,14.692631,14.702001,14.705488,14.706667,14.70582,14.700129,14.686975,14.665777,14.635821,14.597395,14.550409,14.493069,14.423446,14.341963,14.251516,14.150393,14.042722,13.938244,13.844309,13.764862,13.700763,13.64968,13.604853,13.5631275,13.524586,13.487797,13.452756,13.420556,13.390804,13.362041,13.32913,13.298382,13.267677,13.239684,13.219911,13.206158,13.193886,13.182014,13.1699705,13.1577,13.145255,13.132183,13.118252,13.10517,13.090742,13.068768,13.041862,13.009017,12.971,12.931616,12.888906,12.836638,12.77375,12.706158,12.642273,12.592116,12.558556,12.531606,12.499268,12.454042,12.395668,12.394377,12.496731,12.749222,13.671621,17.083061,24.300531,28.129726,28.972298,28.9255,28.854122,29.110453,29.286863,29.601452,29.823215,29.956665,30.051056,30.093906,30.059408,29.994055,29.92767,29.875061,29.817345,29.7345,29.625343,29.49033,29.32269,29.169785,29.044754,28.996723,29.06894,29.231054,29.406527,29.550179,29.655525,29.6988,29.695717,29.66489,29.63184,29.619137
31.77604,31.892397,32.004665,32.116318,32.215027,32.310356,32.40904,32.533653,32.673096,32.806488,32.92866,33.045326,33.15044,33.251137,33.344673,33.432808,33.518482,33.605034,33.6948,33.784866,33.87113,33.956978,34.037666,34.105656,34.16035,34.207047,34.24697,34.28306,34.32013,34.359253,34.402306,34.44803,34.492096,34.53046,34.56127,34.585716,34.607296,34.640076,34.66552,34.672672,34.68392,34.689804,34.69289,34.680626,34.65844,34.632072,34.605972,34.58364,34.561565,34.54151,34.51838,34.49227,34.456406,34.410267,34.36106,34.31093,34.26321,34.20286,34.135506,34.067085,34.003216,33.94759,33.899914,33.857193,33.81277,33.77037,33.724205,33.671852,33.616825,33.559036,33.489487,33.398293,33.280285,33.137756,32.98095,32.823753,32.676514,32.542336,32.408955,32.269466,32.134293,32.00989,31.897758,31.800508,31.72305,31.661264,31.61544,31.578281,31.540462,31.501566,31.464558,31.426977,31.390003,31.34676,31.28988,31.21338,31.11323,30.98489,30.830135,30.669094,30.47011,30.230682,29.956491,29.651648,29.317768,28.96294,28.606228,28.208748,27.700943,27.147873,26.818117,26.789192,26.750229,26.36339,25.85403,25.072868,23.61167,19.445463,14.994299,13.588743,13.076685,12.880843,12.826826,12.808725,12.809555,12.826373,12.849017,12.886152,12.940786,13.018726,13.111732,13.201292,13.268943,13.309142,13.328716,13.334054,13.331936,13.329517,13.328144,13.324808,13.325157,13.341232,13.376164,13.440534,13.530603,13.629429,13.743595,13.872601,14.003485,14.134871,14.2727165,14.43717,14.632021,14.854208,15.0949955,15.337936,15.563244,15.765081,15.938682,16.086594,16.211573,16.318748,16.411188,16.48729,16.542816,16.587849,16.625477,16.655521,16.67662,16.687572,16.687792,16.676651,16.65169,16.61048,16.55417,16.486685,16.413467,16.340446,16.272385,16.207306,16.143576,16.071642,15.994507,15.914355,15.826705,15.730906,15.638456,15.548086,15.438608,15.305202,15.147419,14.970007,14.789409,14.629122,14.491596,14.390419,14.334725,14.318193,14.327045,14.348442,14.372606,14.4000435,14.435179,14.479309,14.530714,14.58293,14.6272545,14.658149,14.677167,14.687782,14.692803,14.695264,14.6952305,14.689962,14.676997,14.655884,14.6260395,14.587952,14.541623,14.485143,14.416195,14.33478,14.243734,14.141612,14.033067,13.928601,13.835816,13.758242,13.6961975,13.64709,13.604075,13.564216,13.5277605,13.492802,13.458585,13.428061,13.404526,13.381566,13.353818,13.3316345,13.312135,13.291662,13.2716255,13.253301,13.237865,13.22362,13.21052,13.195833,13.180204,13.164486,13.146429,13.125907,13.10337,13.076321,13.047508,13.016775,12.982456,12.944256,12.902055,12.849686,12.786901,12.719267,12.653879,12.60213,12.568754,12.542062,12.510979,12.468612,12.41369,12.41815,12.530514,12.800341,13.782936,17.444378,24.715927,28.501688,29.284485,29.237804,29.186314,29.386345,29.538988,29.845648,30.048496,30.156456,30.230066,30.254284,30.19696,30.11565,30.032658,29.962837,29.883024,29.760227,29.598682,29.417486,29.211813,29.01999,28.883804,28.85719,28.985004,29.229671,29.49345,29.708134,29.869991,29.94099,29.943657,29.90408,29.859558,29.841528
31.902536,32.011745,32.11698,32.222,32.31606,32.40869,32.504234,32.6203,32.76413,32.90476,33.020714,33.128372,33.226864,33.32232,33.413624,33.501762,33.589127,33.677795,33.76809,33.856903,33.940765,34.022827,34.09942,34.163883,34.215828,34.26017,34.29774,34.33201,34.367207,34.40502,34.447598,34.493538,34.538513,34.57853,34.61058,34.63645,34.658653,34.69071,34.714294,34.719055,34.728035,34.73227,34.734543,34.722267,34.700256,34.673836,34.647255,34.623955,34.600754,34.579483,34.555546,34.529396,34.49453,34.450424,34.403862,34.356476,34.311028,34.252987,34.18747,34.11991,34.055836,33.999153,33.950043,33.906773,33.863853,33.824505,33.78283,33.735954,33.687195,33.637066,33.57709,33.498928,33.39605,33.269333,33.12703,32.981884,32.84443,32.717926,32.591286,32.458546,32.330147,32.212948,32.108753,32.019928,31.95081,31.896927,31.85742,31.822865,31.785631,31.744686,31.70074,31.652786,31.603588,31.54446,31.468214,31.368748,31.24469,31.09494,30.921982,30.74501,30.529022,30.270023,29.972221,29.64125,29.28252,28.904503,28.518604,28.02565,27.515226,27.016087,26.701298,26.660942,26.644897,26.260338,25.73717,24.876427,23.740826,19.900572,15.341398,13.644932,13.101078,12.894573,12.839546,12.817437,12.811825,12.824186,12.843303,12.874784,12.925745,12.999453,13.089544,13.17766,13.244469,13.283649,13.301781,13.305169,13.300844,13.295626,13.291697,13.294077,13.308567,13.337497,13.37969,13.438492,13.533427,13.641808,13.75289,13.871668,13.999542,14.126753,14.257814,14.414599,14.600353,14.812895,15.045774,15.285126,15.512117,15.718548,15.915989,16.077145,16.208189,16.317638,16.408224,16.484924,16.551182,16.612999,16.654703,16.680557,16.696354,16.703575,16.70076,16.685156,16.655262,16.60791,16.54443,16.470661,16.392044,16.316303,16.252392,16.185139,16.113693,16.028637,15.940522,15.855153,15.769644,15.684998,15.600412,15.505357,15.3981695,15.2721,15.121635,14.95109,14.777082,14.621525,14.486279,14.384991,14.327438,14.308503,14.315399,14.33556,14.358866,14.385224,14.418566,14.460157,14.508619,14.558203,14.60096,14.631674,14.6516485,14.664043,14.670995,14.674873,14.67552,14.670387,14.657318,14.63612,14.606269,14.568304,14.522224,14.466046,14.397255,14.315643,14.22414,14.12153,14.012885,13.909264,13.818464,13.743631,13.684489,13.638201,13.597881,13.560861,13.526839,13.495347,13.4660225,13.442825,13.432017,13.420592,13.405432,13.386194,13.363544,13.339802,13.317293,13.296852,13.278963,13.261471,13.246119,13.226752,13.203315,13.180679,13.158825,13.132997,13.108158,13.083208,13.057401,13.028662,12.995594,12.958082,12.91589,12.863447,12.801489,12.731648,12.664703,12.612046,12.5757675,12.549036,12.518629,12.479408,12.427406,12.438438,12.561866,12.848576,13.896142,17.838291,25.102943,28.800282,29.543722,29.513927,29.462559,29.612698,29.747082,30.037882,30.219685,30.30571,30.36092,30.365936,30.286158,30.191113,30.093023,29.996677,29.862274,29.6794,29.468887,29.242283,28.995914,28.77,28.64337,28.640232,28.81918,29.149338,29.50637,29.79625,30.017567,30.118277,30.128075,30.082357,30.029152,30.00713
32.02355,32.126022,32.219868,32.308533,32.390205,32.47561,32.567383,32.683723,32.825516,32.978596,33.113403,33.211174,33.30519,33.3974,33.488,33.577003,33.66615,33.75647,33.84668,33.933594,34.01458,34.092438,34.164696,34.225414,34.274303,34.31613,34.3515,34.384262,34.41839,34.456192,34.499874,34.54768,34.595036,34.637688,34.671646,34.699368,34.722385,34.753853,34.77572,34.778187,34.784836,34.7873,34.788376,34.775635,34.753296,34.726246,34.69845,34.673244,34.64794,34.62446,34.59883,34.572044,34.537834,34.495407,34.451,34.4057,34.361877,34.305504,34.241463,34.174732,34.11084,34.0539,34.004074,33.960392,33.917595,33.878677,33.838127,33.79624,33.75647,33.714985,33.6639,33.598255,33.510185,33.399174,33.271255,33.138023,33.010277,32.890854,32.769543,32.64115,32.516747,32.40388,32.30471,32.221344,32.15738,32.10737,32.06934,32.034706,31.994139,31.945227,31.889755,31.828661,31.765402,31.69001,31.595936,31.475773,31.330105,31.161198,30.971788,30.779398,30.54587,30.265911,29.941288,29.579605,29.191872,28.773376,28.29478,27.743834,27.32287,26.850252,26.470541,26.352417,26.320742,26.07982,25.554081,24.650948,23.698088,20.226688,15.718015,13.688476,13.133215,12.907995,12.842897,12.820898,12.813925,12.821929,12.839316,12.869426,12.916329,12.985226,13.071314,13.157892,13.224763,13.263596,13.280258,13.281581,13.274925,13.266912,13.26049,13.262207,13.27758,13.309519,13.361355,13.4344225,13.538083,13.671476,13.793866,13.901674,14.0204525,14.139544,14.253975,14.398074,14.573755,14.776696,15.000959,15.235455,15.4630575,15.674753,15.878142,16.062815,16.21253,16.32315,16.40976,16.48902,16.555298,16.615372,16.668163,16.709446,16.73024,16.730694,16.719112,16.696087,16.662735,16.611534,16.542664,16.469294,16.397635,16.324947,16.251461,16.162285,16.068182,15.975507,15.889622,15.80521,15.719252,15.638597,15.556547,15.46553,15.360712,15.236574,15.089247,14.923259,14.754429,14.603268,14.470787,14.370308,14.312022,14.291622,14.297085,14.31623,14.338816,14.364229,14.395906,14.435013,14.480413,14.527008,14.567642,14.597526,14.617785,14.631257,14.63944,14.644094,14.644867,14.639436,14.625999,14.604549,14.574581,14.536602,14.490614,14.434687,14.36631,14.285246,14.194452,14.092869,13.98587,13.884647,13.796879,13.72537,13.669507,13.62631,13.588976,13.555059,13.522853,13.499185,13.488627,13.484283,13.475526,13.464342,13.448578,13.428881,13.40561,13.38075,13.356853,13.334671,13.313465,13.288093,13.263302,13.241215,13.21578,13.186283,13.160881,13.138292,13.115702,13.092392,13.06814,13.0410385,13.009445,12.972998,12.931316,12.87819,12.816809,12.745249,12.675919,12.620905,12.581726,12.5549755,12.526625,12.49103,12.439693,12.455865,12.588532,12.887766,14.006168,18.287556,25.487604,29.052338,29.762934,29.746506,29.667774,29.775698,29.897045,30.175608,30.3306,30.392859,30.43269,30.417912,30.31223,30.206703,30.096922,29.9356,29.732342,29.494282,29.235163,28.962132,28.670727,28.442352,28.354324,28.35995,28.581192,29.001886,29.445293,29.814514,30.096022,30.229612,30.24978,30.20274,30.145199,30.120556
32.134697,32.214638,32.29124,32.37175,32.447216,32.530006,32.620148,32.733467,32.869034,33.021507,33.170486,33.289696,33.39025,33.480316,33.570454,33.6605,33.750713,33.84133,33.930023,34.01351,34.09002,34.162273,34.228867,34.28472,34.329735,34.36838,34.401146,34.432297,34.46678,34.50575,34.55079,34.5999,34.648846,34.694145,34.730736,34.76086,34.78533,34.81682,34.83748,34.837944,34.842167,34.84278,34.842594,34.829296,34.80654,34.778717,34.74955,34.72227,34.694496,34.66854,34.641037,34.613544,34.58004,34.539352,34.49695,34.45349,34.410854,34.35589,34.29338,34.227913,34.165134,34.10923,34.059967,34.017227,33.975822,33.938423,33.899483,33.860218,33.82569,33.793617,33.757538,33.706085,33.634636,33.541557,33.43022,33.3106,33.19344,33.08148,32.965466,32.840797,32.717766,32.60457,32.504704,32.42084,32.35625,32.304775,32.26143,32.21907,32.16735,32.10271,32.028423,31.948399,31.866661,31.771793,31.658348,31.517319,31.349907,31.1605,30.951508,30.738047,30.479496,30.169003,29.804188,29.421543,28.96848,28.38176,27.839058,27.389267,26.97076,26.488163,26.068546,25.78918,25.554142,25.314138,24.942299,24.290077,23.342361,20.177738,16.02315,13.827341,13.17212,12.92016,12.8385105,12.822253,12.818313,12.821098,12.836764,12.865469,12.910782,12.976729,13.058609,13.14257,13.208046,13.244934,13.259199,13.257828,13.248434,13.238428,13.230878,13.230839,13.245741,13.281123,13.336824,13.414339,13.521831,13.65983,13.810575,13.943073,14.050585,14.160597,14.272434,14.396003,14.554599,14.746083,14.960827,15.188827,15.415202,15.630818,15.84219,16.037277,16.202724,16.336367,16.439785,16.51574,16.57721,16.632627,16.681543,16.720362,16.74533,16.755123,16.749395,16.726494,16.688656,16.635536,16.570217,16.500664,16.424875,16.336758,16.242283,16.14598,16.0413,15.937148,15.842777,15.758112,15.678186,15.600956,15.522221,15.433038,15.328255,15.203411,15.056303,14.89237,14.726955,14.579285,14.449638,14.350729,14.292523,14.271226,14.275581,14.293843,14.315704,14.340048,14.369763,14.4058275,14.447317,14.489835,14.527129,14.555006,14.574421,14.587807,14.596092,14.60044,14.600388,14.593944,14.579647,14.557572,14.527124,14.488698,14.442297,14.386322,14.318659,14.239168,14.150673,14.052179,13.948919,13.851781,13.768209,13.700804,13.648733,13.608885,13.574263,13.539055,13.522741,13.520475,13.519691,13.516514,13.509284,13.499023,13.483821,13.464632,13.442282,13.414997,13.38368,13.354575,13.3297205,13.305485,13.274324,13.242802,13.213779,13.186354,13.162333,13.141436,13.120634,13.099206,13.076924,13.051819,13.0223,12.987724,12.946749,12.894407,12.830465,12.756903,12.685122,12.62694,12.58561,12.55686,12.530466,12.499622,12.449328,12.4696865,12.611507,12.932789,14.132627,18.675438,25.808521,29.271893,29.951504,29.937042,29.838306,29.908873,30.02142,30.293749,30.412449,30.454788,30.46737,30.410946,30.28804,30.153091,29.99371,29.783054,29.527542,29.23796,28.915579,28.588547,28.312685,27.964663,27.739044,27.730598,28.12252,28.7705,29.354362,29.800735,30.148119,30.3219,30.358843,30.317135,30.258743,30.229424
32.247288,32.313446,32.378204,32.450462,32.520573,32.601677,32.691734,32.804314,32.936707,33.08409,33.235466,33.371216,33.481625,33.581367,33.67283,33.761612,33.85087,33.939526,34.024765,34.10325,34.1739,34.24019,34.301163,34.352345,34.393745,34.429764,34.460865,34.48985,34.51276,34.542656,34.588413,34.6486,34.710754,34.760086,34.79842,34.83184,34.8611,34.89656,34.91719,34.913948,34.913963,34.908638,34.904617,34.88963,34.866432,34.83824,34.808746,34.78135,34.752174,34.723656,34.693367,34.66368,34.629555,34.5897,34.54855,34.50614,34.463795,34.409348,34.347816,34.283577,34.222527,34.168938,34.1219,34.081947,34.043884,34.010002,33.97461,33.939632,33.911034,33.887177,33.862877,33.83029,33.776714,33.701622,33.607483,33.501934,33.3955,33.290543,33.179253,33.056606,32.932106,32.81499,32.710518,32.62201,32.552193,32.49454,32.441257,32.3852,32.316933,32.23437,32.142143,32.04492,31.946877,31.832706,31.698112,31.531412,31.335157,31.11825,30.883862,30.642948,30.34643,29.997917,29.630634,29.111515,28.452072,27.880114,27.415085,26.967396,26.362555,25.691673,25.187138,24.835005,24.469969,24.17134,23.869898,23.309757,22.551437,19.9756,16.327621,14.034959,13.225958,12.940292,12.836633,12.820208,12.817873,12.816355,12.829153,12.855604,12.898506,12.96195,13.038088,13.118013,13.181813,13.216962,13.2293825,13.226196,13.2152195,13.204607,13.197634,13.199337,13.216038,13.253094,13.31294,13.395726,13.508871,13.650261,13.811647,13.964169,14.086191,14.192656,14.301607,14.41848,14.551563,14.723299,14.929474,15.148594,15.370724,15.586641,15.803101,16.006601,16.183609,16.33053,16.44774,16.53757,16.610676,16.67502,16.724644,16.761597,16.786255,16.796755,16.79237,16.773785,16.740793,16.693623,16.629253,16.549036,16.457108,16.356943,16.251966,16.146486,16.03342,15.921983,15.821325,15.733507,15.65413,15.577802,15.499822,15.409842,15.302475,15.174387,15.0254,14.862211,14.6997595,14.5560465,14.430299,14.334076,14.276846,14.255061,14.258135,14.274883,14.295185,14.317454,14.344082,14.375868,14.412097,14.449078,14.481512,14.505871,14.52298,14.53487,14.542049,14.545221,14.543882,14.536359,14.52145,14.499204,14.468775,14.430453,14.384238,14.32888,14.262762,14.1859,14.100805,14.006472,13.907768,13.81501,13.735407,13.671343,13.621194,13.581307,13.551178,13.536966,13.536171,13.539586,13.540644,13.538332,13.532904,13.524277,13.509053,13.486055,13.458404,13.428722,13.398863,13.370519,13.338661,13.307365,13.274322,13.243204,13.215708,13.191114,13.169386,13.150486,13.131636,13.111958,13.091255,13.067604,13.039022,13.004344,12.962421,12.90962,12.843644,12.767215,12.691972,12.630701,12.587236,12.556225,12.531132,12.505955,12.457617,12.478371,12.6240425,12.982938,14.308441,19.099884,26.139416,29.479677,30.11156,30.09004,29.978039,30.029526,30.13983,30.412289,30.502525,30.489296,30.43315,30.323391,30.175941,30.007935,29.804752,29.541594,29.236,28.887623,28.52123,28.107113,27.546764,27.097641,26.90411,27.055977,27.578098,28.41047,29.258688,29.761925,30.182995,30.40794,30.472763,30.440308,30.38401,30.356369
32.36704,32.42408,32.479485,32.543625,32.60905,32.689774,32.78232,32.898506,33.033607,33.18097,33.332222,33.474205,33.59947,33.69735,33.784813,33.87025,33.956306,34.041367,34.1223,34.195534,34.261135,34.318455,34.369545,34.41262,34.447433,34.476326,34.49858,34.51656,34.5321,34.55851,34.606285,34.674034,34.74698,34.807785,34.855965,34.888412,34.901936,34.918587,34.928802,34.929306,34.94702,34.961067,34.967354,34.955494,34.932777,34.905167,34.8719,34.833675,34.797436,34.767197,34.739136,34.71479,34.685593,34.647293,34.604973,34.5614,34.516888,34.460197,34.398464,34.335423,34.276493,34.22621,34.183,34.14756,34.114902,34.086666,34.056976,34.028244,34.006676,33.99061,33.975975,33.958992,33.922413,33.86439,33.78617,33.69404,33.597786,33.49939,33.39171,33.26991,33.142662,33.020206,32.9097,32.815193,32.738644,32.673313,32.608734,32.53899,32.45668,32.36154,32.258778,32.152096,32.04418,31.91455,31.758429,31.560326,31.323725,31.062748,30.783596,30.49636,30.167011,29.763325,29.205624,28.514671,27.830944,27.216442,26.510391,25.797081,24.981627,24.204182,23.597395,23.237663,23.069035,22.877274,22.567589,22.088501,21.640461,19.772581,16.703403,14.349588,13.306306,12.9878845,12.858786,12.827742,12.820463,12.8160715,12.824047,12.846802,12.886074,12.946026,13.01732,13.091291,13.1514015,13.18561,13.196668,13.19249,13.18116,13.171612,13.167265,13.173311,13.194959,13.236308,13.300661,13.388399,13.5081215,13.655529,13.817774,13.980986,14.125151,14.231357,14.33489,14.455935,14.578905,14.723082,14.907164,15.1195545,15.33363,15.545498,15.762373,15.971472,16.15757,16.314415,16.443174,16.547684,16.633293,16.70804,16.767143,16.811275,16.83995,16.851799,16.847694,16.829998,16.796944,16.747143,16.678473,16.592377,16.495243,16.39265,16.285576,16.17441,16.055382,15.938101,15.831568,15.738554,15.655689,15.577333,15.497215,15.404007,15.292146,15.159241,15.007098,14.84387,14.68418,14.544537,14.422989,14.329718,14.273472,14.250813,14.251711,14.265617,14.2828865,14.301632,14.323807,14.350132,14.380081,14.410593,14.437244,14.457138,14.471031,14.480547,14.48597,14.487719,14.485267,14.477163,14.462311,14.440613,14.410868,14.373121,14.327324,14.272646,14.208096,14.13397,14.052444,13.962381,13.8681135,13.778811,13.700778,13.637245,13.5914345,13.566071,13.549256,13.547121,13.550154,13.552868,13.5528755,13.548143,13.539431,13.529514,13.513521,13.491189,13.465101,13.435935,13.404797,13.375103,13.343513,13.311674,13.281647,13.254439,13.229713,13.207223,13.18728,13.169945,13.152514,13.133942,13.113998,13.090657,13.061445,13.025219,12.982058,12.926338,12.858288,12.778548,12.699462,12.635328,12.589937,12.557488,12.531845,12.50562,12.462573,12.482625,12.626242,13.0381565,14.5361805,19.616364,26.48774,29.668541,30.242336,30.209572,30.094482,30.139103,30.252851,30.531368,30.587084,30.509514,30.390789,30.234028,30.045322,29.832748,29.578995,29.257956,28.908619,28.462925,27.896248,27.269077,26.641617,26.264587,26.177906,26.446169,27.050255,28.020851,29.0878,29.711895,30.206556,30.48952,30.590992,30.573215,30.520088,30.495098
32.500336,32.549637,32.59689,32.65442,32.71621,32.797543,32.894173,33.016716,33.15854,33.311783,33.467644,33.61082,33.728333,33.818855,33.90287,33.984474,34.06368,34.139565,34.210052,34.272358,34.32722,34.373634,34.415268,34.451073,34.4797,34.501484,34.514847,34.52267,34.53771,34.566048,34.615417,34.685493,34.76231,34.826794,34.872124,34.894203,34.888863,34.887146,34.888268,34.89264,34.926422,34.963715,34.992393,34.99739,34.980392,34.95069,34.91211,34.866302,34.824406,34.791588,34.762978,34.74057,34.7145,34.678894,34.63919,34.599968,34.56141,34.5121,34.452057,34.38874,34.33155,34.284496,34.24621,34.216972,34.19161,34.171104,34.14955,34.128983,34.11515,34.10665,34.09987,34.092113,34.06833,34.023884,33.95832,33.877327,33.78945,33.69596,33.589325,33.466663,33.33545,33.206573,33.088932,32.987175,32.902718,32.82865,32.752686,32.671196,32.579533,32.478928,32.37334,32.263218,32.14956,32.005127,31.82334,31.586607,31.299715,30.98183,30.645977,30.309963,29.90118,29.330208,28.596054,27.86433,27.167152,26.33012,25.332716,24.387741,23.51435,22.758106,22.104593,21.680546,21.593637,21.610939,21.45755,21.1377,20.892296,19.612228,17.124022,14.7592125,13.473917,13.074249,12.908167,12.852285,12.829874,12.818354,12.820091,12.837515,12.871965,12.927078,12.994371,13.062254,13.117515,13.150879,13.162081,13.158688,13.148916,13.141842,13.141222,13.152676,13.181253,13.229765,13.299837,13.393093,13.518463,13.671061,13.834749,14.000521,14.155815,14.275667,14.371941,14.490888,14.618826,14.74802,14.903116,15.097906,15.304203,15.509037,15.722528,15.933544,16.12689,16.294762,16.435541,16.550648,16.645367,16.728516,16.799244,16.853636,16.889246,16.905298,16.90272,16.883965,16.84796,16.793262,16.722662,16.640106,16.54841,16.448635,16.342094,16.229555,16.106712,15.98352,15.870088,15.770463,15.681942,15.598695,15.513809,15.415295,15.297591,15.159127,15.003528,14.840252,14.68343,14.547897,14.430637,14.340439,14.285158,14.2613,14.259344,14.269326,14.282061,14.295864,14.312498,14.332764,14.356261,14.38036,14.401281,14.416582,14.426982,14.433766,14.437233,14.437696,14.434619,14.426581,14.412392,14.391701,14.362968,14.325916,14.280477,14.226284,14.163019,14.0912695,14.012896,13.926481,13.835278,13.749376,13.675787,13.620142,13.587257,13.57546,13.567812,13.561466,13.55718,13.554668,13.551344,13.544533,13.534464,13.5244255,13.510473,13.490875,13.467722,13.440467,13.409292,13.37976,13.354023,13.328138,13.302421,13.27778,13.254749,13.233616,13.214678,13.198221,13.181578,13.163524,13.143686,13.119738,13.088879,13.050432,13.005809,12.946403,12.874996,12.791367,12.7085495,12.641719,12.594623,12.561329,12.534952,12.501126,12.465265,12.48629,12.624576,13.106052,14.828648,20.21051,26.82005,29.810383,30.33938,30.30633,30.194805,30.239784,30.362576,30.645615,30.669983,30.534197,30.35775,30.147732,29.896225,29.620668,29.303755,28.948212,28.45463,27.79474,27.023184,26.303526,25.862978,25.635284,25.619556,25.90598,26.607077,27.674706,28.807594,29.66002,30.222832,30.569462,30.716568,30.722206,30.676064,30.654251
32.64068,32.685455,32.72725,32.779724,32.838272,32.919437,33.018875,33.146664,33.294876,33.454704,33.61527,33.753605,33.841873,33.930283,34.011948,34.086464,34.154556,34.216457,34.27189,34.319397,34.359283,34.396957,34.434166,34.467247,34.49353,34.51317,34.52504,34.531807,34.54523,34.572685,34.622593,34.691193,34.76075,34.81289,34.840324,34.852173,34.84832,34.853004,34.85781,34.859634,34.886497,34.92278,34.965294,34.9894,34.981995,34.950222,34.90999,34.870247,34.831505,34.799946,34.770294,34.740807,34.708298,34.672558,34.637054,34.6046,34.577293,34.54182,34.488674,34.42946,34.379723,34.342007,34.31111,34.288662,34.271782,34.260696,34.249565,34.239017,34.233433,34.23166,34.22972,34.226135,34.208298,34.17074,34.111893,34.03673,33.952744,33.86012,33.751396,33.62538,33.488297,33.3515,33.22518,33.114265,33.020058,32.935555,32.849003,32.75717,32.65895,32.557526,32.453415,32.341373,32.22165,32.05873,31.844704,31.563848,31.2243,30.852837,30.467419,30.071331,29.509151,28.799519,28.138138,27.472555,26.613586,25.574549,24.577702,23.649727,22.823406,22.081419,21.436855,20.903835,20.579317,20.656403,20.773788,20.612309,20.372002,19.458714,17.482344,15.177105,13.727341,13.184075,12.968611,12.885645,12.840977,12.816473,12.8109665,12.821491,12.849848,12.8990755,12.961536,13.025129,13.076683,13.108849,13.122534,13.122359,13.11656,13.113771,13.117857,13.135347,13.171225,13.227118,13.304131,13.404132,13.534021,13.688919,13.854561,14.017405,14.17171,14.311752,14.412062,14.518557,14.646404,14.78072,14.920259,15.085158,15.280358,15.47723,15.685091,15.89477,16.092344,16.269234,16.421686,16.549118,16.655508,16.749771,16.830181,16.892443,16.933872,16.953718,16.953539,16.93679,16.903513,16.852669,16.78629,16.707558,16.619041,16.521683,16.41634,16.303387,16.178204,16.05038,15.930222,15.822731,15.726276,15.635483,15.543455,15.437733,15.313093,15.168943,15.010463,14.847904,14.694536,14.563625,14.451234,14.364758,14.311035,14.286333,14.281351,14.287144,14.296391,14.306013,14.317097,14.3305435,14.346644,14.36372,14.378828,14.389941,14.397598,14.402504,14.404689,14.404169,14.400326,14.391937,14.378018,14.358162,14.330535,14.294502,14.249783,14.196201,14.13402,14.064348,13.988987,13.906456,13.818927,13.738511,13.675623,13.636038,13.615185,13.596694,13.582358,13.569422,13.55743,13.547433,13.540633,13.536034,13.530664,13.522736,13.51212,13.49301,13.46849,13.443481,13.4194565,13.396477,13.374716,13.35219,13.3291,13.306205,13.284208,13.263681,13.245115,13.229082,13.212904,13.1951065,13.17508,13.150031,13.117325,13.0767355,13.029226,12.966879,12.891064,12.803028,12.716659,12.647285,12.598599,12.564457,12.538883,12.495859,12.467017,12.491822,12.626516,13.202028,15.204701,20.794872,27.086704,29.876068,30.393457,30.386059,30.275005,30.32496,30.459442,30.739758,30.73798,30.545578,30.295956,30.00849,29.67541,29.32219,28.94786,28.465906,27.717957,26.842949,26.077911,25.531927,25.219677,25.07143,25.10699,25.415913,26.223993,27.35609,28.500881,29.60725,30.232248,30.64647,30.847923,30.886343,30.854961,30.841545
32.77453,32.817635,32.85572,32.903564,32.957855,33.036392,33.135094,33.264206,33.415253,33.579628,33.737267,33.85826,33.94181,34.01891,34.08625,34.145996,34.201157,34.25286,34.30024,34.34124,34.37567,34.40849,34.441746,34.472084,34.49654,34.514587,34.524864,34.529842,34.541546,34.568222,34.618286,34.67424,34.71859,34.76084,34.79133,34.809196,34.812325,34.823128,34.8321,34.834755,34.858173,34.88842,34.925156,34.94619,34.943363,34.917725,34.87952,34.841515,34.807426,34.78775,34.773277,34.746727,34.707867,34.66515,34.622856,34.583824,34.552574,34.513344,34.46975,34.426353,34.39569,34.380238,34.363197,34.34874,34.340496,34.338966,34.338715,34.338737,34.341362,34.345047,34.34545,34.3411,34.322716,34.285088,34.22577,34.149475,34.06366,33.96746,33.855236,33.724373,33.580612,33.435715,33.300484,33.180077,33.075737,32.98042,32.885307,32.785305,32.6824,32.581524,32.479,32.3638,32.235065,32.050102,31.801203,31.477465,31.092897,30.68167,30.252129,29.74842,29.067638,28.546211,28.01054,27.334465,26.49274,25.478096,24.446434,23.52026,22.669834,21.915329,21.255192,20.716772,20.38187,20.316238,20.424694,20.355724,20.04413,19.308922,17.707237,15.500782,13.959672,13.285267,13.023895,12.913414,12.848169,12.812604,12.798929,12.80176,12.823261,12.86589,12.922798,12.98345,13.032952,13.064444,13.081731,13.086062,13.085691,13.089481,13.100187,13.123907,13.16627,13.229014,13.311798,13.4168415,13.550674,13.707998,13.873334,14.032905,14.1817,14.318558,14.445068,14.547138,14.6633625,14.80055,14.942877,15.090543,15.261892,15.450111,15.650748,15.856661,16.055342,16.238361,16.400593,16.539396,16.657299,16.763283,16.855536,16.928627,16.97901,17.005615,17.0103,16.997284,16.967548,16.920233,16.857262,16.781574,16.69558,16.600267,16.49654,16.384335,16.258467,16.127659,16.001657,15.885962,15.780186,15.680136,15.579547,15.465551,15.333729,15.1846695,15.024558,14.863847,14.714878,14.589363,14.482557,14.400482,14.34893,14.32382,14.3161545,14.318995,14.328359,14.336713,14.343261,14.348909,14.3557005,14.36413,14.372774,14.380243,14.386636,14.391512,14.393833,14.392731,14.38739,14.377283,14.362468,14.342886,14.316478,14.282097,14.238802,14.186073,14.1246805,14.056767,13.984622,13.907217,13.82724,13.755113,13.70249,13.668658,13.640671,13.6102295,13.584873,13.565065,13.552582,13.545363,13.540888,13.53764,13.533257,13.522875,13.5102415,13.494709,13.476135,13.455936,13.435784,13.416241,13.397436,13.37734,13.355888,13.333672,13.31165,13.290806,13.271919,13.255828,13.239841,13.222142,13.201795,13.175513,13.141449,13.099606,13.048076,12.982777,12.903057,12.811216,12.721806,12.650324,12.600414,12.56566,12.5413685,12.49012,12.468012,12.498846,12.636356,13.338793,15.672406,21.314503,27.277332,29.872227,30.409458,30.451496,30.330147,30.38374,30.525532,30.797579,30.745422,30.49509,30.175049,29.796349,29.37431,28.939701,28.486708,27.64027,26.71732,25.8847,25.245453,24.865376,24.618359,24.52713,24.643608,24.993343,25.840038,27.038303,28.289726,29.556652,30.238022,30.716724,30.974733,31.050505,31.040276,31.041058
32.92774,32.96966,33.00418,33.046898,33.095467,33.168625,33.262825,33.38867,33.537598,33.7014,33.853462,33.95842,34.03407,34.10073,34.155647,34.202507,34.24641,34.289196,34.32936,34.364616,34.393814,34.422264,34.452198,34.48019,34.503094,34.519806,34.528328,34.53402,34.54946,34.57029,34.599113,34.638958,34.683975,34.72339,34.75763,34.779655,34.788517,34.803665,34.814724,34.817924,34.839554,34.86609,34.89487,34.91079,34.905773,34.88002,34.84307,34.806396,34.77289,34.750755,34.736576,34.735786,34.710243,34.65751,34.613197,34.572647,34.5393,34.497402,34.452904,34.41077,34.382496,34.378647,34.393196,34.405827,34.40567,34.410313,34.418247,34.425774,34.433514,34.439922,34.440617,34.433254,34.41135,34.37077,34.30892,34.230927,34.14439,34.04599,33.931076,33.796432,33.647625,33.49621,33.352966,33.223045,33.10769,33.000095,32.892242,32.782238,32.669876,32.55919,32.44581,32.314106,32.163277,31.946915,31.65855,31.294775,30.892029,30.449612,29.914782,29.32114,28.855164,28.40248,27.924454,27.370342,26.608845,25.59533,24.587654,23.636967,22.788551,22.019707,21.345306,20.807308,20.44523,20.301567,20.380959,20.309513,19.899158,19.222794,17.811064,15.67485,14.144279,13.370897,13.071197,12.935763,12.855217,12.813652,12.794285,12.791546,12.807616,12.844579,12.896347,12.953684,13.002268,13.034638,13.054304,13.063836,13.069277,13.079319,13.096344,13.124899,13.171274,13.238798,13.325251,13.433176,13.568502,13.725485,13.889192,14.046461,14.190959,14.320522,14.444536,14.576389,14.686276,14.809386,14.956314,15.104986,15.255936,15.428299,15.621559,15.823622,16.022,16.208626,16.377628,16.525166,16.652296,16.767921,16.870401,16.953518,17.01297,17.047215,17.058037,17.050037,17.02485,16.98175,16.922363,16.849483,16.765594,16.671963,16.569696,16.458351,16.332186,16.199003,16.067871,15.94466,15.830166,15.721415,15.613002,15.491784,15.354265,15.202,15.041949,14.884573,14.741135,14.621751,14.5209465,14.443512,14.393547,14.366522,14.359797,14.368488,14.374587,14.377604,14.378928,14.379744,14.381962,14.38605,14.390709,14.394705,14.398143,14.400604,14.401306,14.399451,14.394138,14.384602,14.370543,14.351703,14.3259325,14.292007,14.249171,14.197171,14.1369705,14.070733,14.000545,13.924259,13.848389,13.787188,13.736003,13.688651,13.649477,13.618595,13.59321,13.573545,13.561415,13.55195,13.543415,13.537823,13.53298,13.526453,13.516842,13.504073,13.488176,13.470485,13.452612,13.435038,13.417812,13.398767,13.3776,13.354746,13.331442,13.30917,13.289098,13.272351,13.256194,13.238593,13.217884,13.192334,13.159056,13.115412,13.0621605,12.9947815,12.912668,12.818903,12.728371,12.656582,12.606907,12.572462,12.54912,12.499607,12.477213,12.511208,12.660654,13.528326,16.281048,21.962862,27.486673,29.859924,30.43125,30.520859,30.380394,30.43436,30.577065,30.832909,30.697224,30.361774,29.957607,29.480759,28.983398,28.501728,27.622375,26.643341,25.727781,25.00987,24.51772,24.208721,24.072239,24.075472,24.25888,24.663673,25.5514,26.803707,28.152313,29.529938,30.261414,30.79787,31.10804,31.21915,31.232174,31.249569
33.128178,33.168976,33.19934,33.23561,33.276184,33.34031,33.425034,33.541096,33.680397,33.836227,33.97586,34.05916,34.12576,34.18135,34.223907,34.25846,34.29211,34.327175,34.36112,34.391537,34.415817,34.439674,34.46619,34.492416,34.514977,34.532887,34.5447,34.55241,34.557343,34.56642,34.586185,34.618668,34.659966,34.702087,34.738102,34.76223,34.77366,34.79116,34.803505,34.806007,34.824554,34.84701,34.870262,34.878956,34.868973,34.842407,34.80737,34.772987,34.74063,34.716698,34.697723,34.69011,34.684326,34.654945,34.600338,34.55947,34.527386,34.48716,34.445312,34.40739,34.383038,34.381805,34.404076,34.450397,34.468998,34.478966,34.48973,34.50065,34.509445,34.515427,34.513977,34.501724,34.475124,34.43087,34.36635,34.28723,34.20098,34.101616,33.985756,33.849136,33.69719,33.54094,33.390366,33.250126,33.121647,32.99826,32.871605,32.745796,32.616524,32.484512,32.345703,32.18287,31.996534,31.743382,31.421106,31.071693,30.601978,29.995743,29.440823,28.965702,28.56313,28.193216,27.816135,27.381477,26.73554,25.79417,24.83294,23.89058,23.033867,22.26457,21.5696,20.987785,20.582447,20.371006,20.377907,20.264973,19.780785,19.070744,17.72058,15.680826,14.19966,13.406065,13.085976,12.942896,12.860334,12.816431,12.794809,12.788639,12.800419,12.832331,12.879377,12.933729,12.982267,13.01651,13.038828,13.054844,13.066721,13.083042,13.10567,13.138896,13.188274,13.257394,13.346366,13.455532,13.590483,13.745167,13.90547,14.059206,14.200293,14.326021,14.44332,14.573334,14.709236,14.834286,14.965845,15.118031,15.267846,15.418484,15.598467,15.7949505,15.992128,16.179974,16.35235,16.504692,16.637222,16.759212,16.869164,16.960674,17.028946,17.071697,17.090178,17.08886,17.069672,17.031898,16.976654,16.906492,16.824184,16.731647,16.630436,16.519886,16.393608,16.258429,16.12267,15.992466,15.869804,15.753033,15.637564,15.510534,15.369219,15.215953,15.058157,14.906058,14.76978,14.657775,14.564016,14.489301,14.444626,14.42634,14.423382,14.426716,14.427464,14.425045,14.421085,14.416791,14.413977,14.413144,14.41323,14.413277,14.413417,14.413275,14.412183,14.409315,14.403814,14.39477,14.381409,14.36322,14.338045,14.304749,14.26296,14.2125,14.154256,14.090368,14.022631,13.954183,13.882008,13.815599,13.757702,13.70837,13.669499,13.639176,13.610046,13.585468,13.5683975,13.557914,13.551611,13.547543,13.543936,13.539394,13.531339,13.519716,13.504632,13.487564,13.470245,13.453119,13.436204,13.4171295,13.395277,13.370932,13.345615,13.321334,13.299708,13.282167,13.265991,13.248421,13.229654,13.20631,13.173016,13.128134,13.075177,13.005785,12.921867,12.827267,12.736992,12.666282,12.617899,12.584347,12.56276,12.516145,12.494404,12.533646,12.673626,13.8086815,17.302608,22.6301,27.704376,29.875568,30.478992,30.605825,30.427845,30.475338,30.608078,30.835728,30.587015,30.138218,29.6291,29.079271,28.491373,27.60706,26.49405,25.535118,24.74467,24.161598,23.800053,23.610806,23.569624,23.64275,23.890783,24.356983,25.280472,26.600304,28.073261,29.532104,30.313843,30.907066,31.268929,31.415075,31.446869,31.477264
33.36725,33.405323,33.429825,33.45764,33.487724,33.538933,33.60917,33.709023,33.831795,33.96794,34.086243,34.15437,34.210415,34.254913,34.2865,34.310795,34.336372,34.365738,34.39497,34.42137,34.442284,34.465538,34.48984,34.512436,34.532867,34.550243,34.560333,34.563908,34.56375,34.569065,34.58709,34.617256,34.65525,34.696587,34.72991,34.754364,34.7679,34.787407,34.799232,34.798534,34.81341,34.831654,34.849503,34.851646,34.83676,34.808395,34.773834,34.74063,34.708828,34.68364,34.660316,34.64204,34.63244,34.621315,34.59296,34.549885,34.51824,34.480965,34.443295,34.410587,34.39158,34.39384,34.417664,34.467045,34.519913,34.546783,34.555374,34.56141,34.56796,34.570724,34.56635,34.54943,34.517815,34.46919,34.40043,34.31757,34.229095,34.127266,34.0094,33.870518,33.715767,33.555176,33.397476,33.24662,33.104134,32.963615,32.815987,32.66719,32.516193,32.35888,32.18724,31.992098,31.777985,31.478683,31.108276,30.59367,29.935505,29.292175,28.835783,28.54018,28.27883,28.033663,27.766941,27.444607,26.941975,26.153667,25.248184,24.330708,23.461708,22.698463,22.005478,21.380142,20.921898,20.71615,20.644264,20.460327,19.888817,19.044857,17.592817,15.552721,14.102032,13.382191,13.066342,12.933434,12.860809,12.817575,12.797045,12.78906,12.797106,12.823864,12.865765,12.916625,12.96467,13.001192,13.0270195,13.046932,13.065182,13.087478,13.114975,13.152142,13.204066,13.27372,13.362045,13.470945,13.603467,13.753559,13.908327,14.056864,14.193974,14.317137,14.430696,14.553789,14.694363,14.838676,14.976515,15.116768,15.268925,15.416224,15.577312,15.760811,15.954781,16.143595,16.317303,16.47182,16.60676,16.73193,16.846748,16.945036,17.021442,17.072803,17.099562,17.105625,17.09283,17.060375,17.008778,16.94042,16.858566,16.76606,16.665113,16.554989,16.42868,16.292067,16.152802,16.017164,15.888016,15.764849,15.644176,15.513429,15.370848,15.219389,15.066597,14.922188,14.794995,14.691651,14.602856,14.541296,14.508039,14.494504,14.489878,14.486107,14.4791355,14.469293,14.45861,14.448713,14.44134,14.436695,14.433441,14.430502,14.42802,14.42514,14.422449,14.419498,14.414213,14.404653,14.390688,14.372693,14.348365,14.31643,14.2753315,14.225937,14.169936,14.108164,14.042374,13.974675,13.903927,13.836275,13.778803,13.731312,13.68899,13.652643,13.619965,13.594149,13.576508,13.566891,13.562691,13.560246,13.557753,13.553917,13.546293,13.534744,13.519386,13.501913,13.484276,13.466951,13.449905,13.430571,13.407939,13.382146,13.354931,13.328749,13.305639,13.287274,13.270851,13.254292,13.237677,13.215462,13.182033,13.137353,13.083835,13.012745,12.927792,12.83348,12.744637,12.675852,12.629115,12.595829,12.568823,12.529873,12.509676,12.552042,12.722445,14.23591,18.540205,23.15325,27.822239,29.892773,30.533037,30.660223,30.44663,30.504372,30.612173,30.75493,30.377487,29.797129,29.21057,28.527931,27.601603,26.333637,25.327398,24.488674,23.817284,23.354113,23.112148,23.044647,23.104696,23.269335,23.57242,24.093649,25.064226,26.466084,28.062881,29.58997,30.42115,31.064583,31.470978,31.645767,31.688965,31.721825
33.622345,33.653835,33.668922,33.684624,33.70117,33.73653,33.788635,33.867504,33.967194,34.078926,34.176014,34.23099,34.27543,34.309307,34.33184,34.34833,34.367893,34.39373,34.42183,34.449066,34.469612,34.48741,34.505608,34.524315,34.543343,34.56033,34.568493,34.569,34.570255,34.57682,34.59362,34.62316,34.661926,34.70082,34.731792,34.75611,34.77057,34.790154,34.800323,34.79525,34.802597,34.813843,34.826775,34.82406,34.8052,34.77453,34.739372,34.70702,34.67691,34.651794,34.626587,34.60422,34.5818,34.56702,34.559925,34.533146,34.51316,34.477737,34.442417,34.414803,34.401443,34.40904,34.43584,34.475117,34.53575,34.57823,34.60221,34.609962,34.60563,34.60324,34.596436,34.57663,34.540977,34.487686,34.41246,34.321583,34.225903,34.117615,33.994164,33.85064,33.69229,33.527935,33.3648,33.20591,33.052567,32.89907,32.7353,32.56591,32.394638,32.215927,32.01648,31.787746,31.530624,31.165657,30.672241,30.00679,29.312588,28.775475,28.421959,28.2561,28.163967,28.03786,27.865826,27.642948,27.303806,26.748466,25.937813,25.058512,24.191671,23.43827,22.794027,22.260288,21.92072,21.824776,21.713743,21.394924,20.653343,19.526756,17.711756,15.406794,13.889908,13.29291,13.013513,12.901981,12.84821,12.815041,12.798552,12.7903185,12.794561,12.815144,12.850604,12.89665,12.9427185,12.980397,13.009392,13.032042,13.054272,13.080818,13.111921,13.151623,13.20504,13.274657,13.360384,13.465912,13.593919,13.737429,13.884722,14.026632,14.158981,14.279665,14.39267,14.514131,14.646362,14.799188,14.956448,15.101538,15.246504,15.396549,15.554441,15.724118,15.90557,16.091223,16.267141,16.422827,16.558687,16.685085,16.802563,16.90554,16.988688,17.048052,17.08282,17.095856,17.088617,17.06009,17.01033,16.941877,16.858791,16.764948,16.663246,16.552944,16.42655,16.289297,16.1481,16.009138,15.875844,15.748581,15.624935,15.492823,15.351646,15.205054,15.060484,14.926597,14.810286,14.716162,14.643553,14.598419,14.570576,14.550928,14.536657,14.524891,14.510385,14.493511,14.476135,14.460207,14.447402,14.438591,14.433171,14.42943,14.426481,14.423368,14.42095,14.418593,14.4139385,14.404907,14.391354,14.373716,14.350047,14.319286,14.279788,14.232404,14.178635,14.119115,14.056034,13.987539,13.918657,13.855755,13.798017,13.743951,13.696088,13.656473,13.624018,13.599768,13.583843,13.57497,13.570803,13.5685425,13.566182,13.562441,13.554806,13.543085,13.527466,13.509853,13.492374,13.475496,13.459062,13.440329,13.417885,13.391655,13.36346,13.336052,13.311789,13.292562,13.275353,13.260157,13.24444,13.221624,13.187895,13.143738,13.08857,13.016251,12.931007,12.837948,12.751385,12.684708,12.638882,12.60453,12.570927,12.537971,12.513662,12.555084,12.81349,14.748657,19.728783,23.657888,27.903652,29.925146,30.596525,30.669191,30.415962,30.510067,30.59695,30.587894,30.064068,29.357803,28.643036,27.634178,26.235317,25.065937,24.19828,23.481642,22.94696,22.630909,22.513416,22.534462,22.6595,22.886269,23.255207,23.853764,24.903526,26.407444,28.11959,29.707352,30.585602,31.267628,31.703453,31.89281,31.936874,31.96266
33.861794,33.880978,33.8854,33.891907,33.896324,33.91458,33.947334,34.00348,34.07692,34.16391,34.2452,34.29296,34.325027,34.34919,34.36434,34.37603,34.393364,34.41858,34.446587,34.474693,34.493362,34.501793,34.512806,34.52993,34.55012,34.56901,34.580048,34.5832,34.584763,34.590343,34.605007,34.634445,34.67572,34.714436,34.745934,34.77027,34.784286,34.80317,34.812603,34.80423,34.80298,34.80538,34.81108,34.803085,34.780468,34.747528,34.711845,34.68052,34.65235,34.62778,34.601173,34.57499,34.54798,34.521385,34.502846,34.49784,34.495667,34.47406,34.444675,34.420288,34.411175,34.42244,34.450867,34.489136,34.52781,34.568764,34.610344,34.63231,34.629013,34.622707,34.613564,34.591667,34.551487,34.491234,34.405907,34.302437,34.19436,34.075016,33.941467,33.79011,33.626778,33.4593,33.293575,33.13168,32.974373,32.81678,32.647972,32.47194,32.29223,32.106194,31.899372,31.65136,31.344875,30.91595,30.327106,29.72195,29.204853,28.782967,28.481434,28.383587,28.33565,28.27236,28.184288,28.047052,27.834427,27.494675,26.901814,26.146389,25.34766,24.619526,24.053183,23.707653,23.578217,23.569847,23.486498,23.108528,22.337482,20.93396,18.458488,15.466049,13.681402,13.176395,12.937145,12.85347,12.8285475,12.814169,12.802141,12.794161,12.793982,12.807189,12.834033,12.871955,12.913422,12.951529,12.983785,13.009106,13.032825,13.061111,13.093695,13.134138,13.187404,13.255653,13.338136,13.437096,13.557363,13.692101,13.830143,13.963663,14.089881,14.20721,14.319086,14.439339,14.571995,14.716661,14.878714,15.046364,15.19252,15.335303,15.500665,15.671332,15.8414,16.01492,16.186943,16.34257,16.478708,16.605423,16.723988,16.829735,16.918037,16.984446,17.026646,17.046192,17.044075,17.018938,16.970478,16.901611,16.817291,16.722336,16.620226,16.51028,16.384726,16.248302,16.107244,15.96744,15.832627,15.703859,15.57956,15.448511,15.311292,15.172077,15.037797,14.916559,14.814883,14.736156,14.68369,14.642846,14.610142,14.582825,14.55978,14.540449,14.521709,14.501475,14.480884,14.461363,14.444347,14.4316025,14.423695,14.418871,14.415424,14.412768,14.410727,14.408085,14.403635,14.396261,14.38477,14.368496,14.346056,14.316847,14.280657,14.237051,14.186205,14.129795,14.070216,14.006315,13.939117,13.874491,13.809643,13.748446,13.701464,13.665776,13.635886,13.612394,13.596502,13.58758,13.583307,13.580856,13.57831,13.574528,13.566976,13.5553875,13.540021,13.522921,13.5063095,13.490599,13.4754715,13.458092,13.436691,13.410948,13.382643,13.354635,13.329464,13.309204,13.290881,13.275701,13.258911,13.234543,13.1998205,13.154289,13.097193,13.023805,12.938622,12.847322,12.763344,12.698382,12.652217,12.615576,12.579275,12.545618,12.511827,12.549824,12.947146,15.264153,20.645023,24.319483,28.126007,30.009567,30.646206,30.641922,30.360579,30.492405,30.583242,30.360199,29.672329,28.903965,27.875656,26.376268,24.871452,23.99542,23.181747,22.593254,22.231934,22.073746,22.066044,22.143032,22.283016,22.51605,22.954441,23.643803,24.804989,26.429012,28.232918,29.871128,30.788033,31.493963,31.942047,32.13147,32.167393,32.182022
34.062614,34.06607,34.062675,34.069687,34.069473,34.071068,34.085457,34.12044,34.17021,34.23005,34.295074,34.349945,34.372177,34.388817,34.398773,34.409267,34.429295,34.456924,34.482475,34.504078,34.515873,34.52391,34.535694,34.553337,34.574894,34.595783,34.609146,34.613846,34.615295,34.61937,34.632645,34.66184,34.703392,34.74182,34.773407,34.79786,34.81286,34.83386,34.844032,34.833973,34.83019,34.826866,34.820724,34.80478,34.777058,34.74063,34.703278,34.671024,34.641228,34.615013,34.585556,34.554626,34.52105,34.48846,34.464592,34.451195,34.451492,34.45928,34.44659,34.426323,34.42009,34.432938,34.46158,34.497097,34.530777,34.560036,34.585926,34.619453,34.649525,34.64781,34.635193,34.609722,34.561455,34.489555,34.38774,34.262363,34.131714,33.995483,33.84748,33.68667,33.518803,33.35125,33.188618,33.0313,32.87953,32.729065,32.569366,32.403637,32.235023,32.063553,31.87704,31.64951,31.344038,30.91183,30.41968,29.948717,29.534224,29.185772,28.942629,28.875385,28.799706,28.757515,28.735176,28.664104,28.493633,28.243555,27.960773,27.456505,26.840328,26.187569,25.694366,25.449345,25.355865,25.330975,25.352242,25.185268,24.81438,23.4705,20.202606,15.99873,13.635389,13.1071005,12.862782,12.809345,12.821327,12.824167,12.813986,12.805083,12.79962,12.804714,12.820515,12.846075,12.879759,12.917996,12.954025,12.980373,13.005157,13.033432,13.065384,13.105043,13.157055,13.222826,13.301205,13.393309,13.502662,13.62572,13.752371,13.875368,13.993278,14.105089,14.213638,14.332407,14.461895,14.604918,14.7590885,14.923546,15.093666,15.232752,15.387119,15.571692,15.7491,15.910349,16.068531,16.21974,16.353968,16.480335,16.599598,16.707611,16.800335,16.873114,16.922518,16.948929,16.952961,16.932873,16.887878,16.821081,16.73804,16.644255,16.543756,16.436058,16.313288,16.17959,16.040804,15.902508,15.76845,15.640327,15.517435,15.389418,15.257864,15.127736,15.00532,14.898129,14.813802,14.7570305,14.706474,14.659962,14.624525,14.598109,14.575353,14.5549,14.535551,14.515423,14.495907,14.477449,14.461023,14.447381,14.43638,14.427538,14.420525,14.41457,14.4098015,14.4053955,14.400242,14.393122,14.382832,14.368734,14.349175,14.323357,14.290754,14.250961,14.204109,14.15122,14.093784,14.031944,13.961708,13.887598,13.820305,13.766567,13.724634,13.691,13.662746,13.640754,13.626015,13.617783,13.6138315,13.611533,13.609127,13.605665,13.598589,13.587553,13.572756,13.5562935,13.540469,13.525679,13.511516,13.495155,13.47457,13.449286,13.420972,13.392458,13.366341,13.344709,13.325217,13.308039,13.288237,13.261824,13.225263,13.176054,13.116712,13.04225,12.957308,12.867961,12.786442,12.722551,12.675266,12.635952,12.595789,12.558616,12.514793,12.544748,13.158868,15.823927,21.212294,25.082153,28.526463,30.137062,30.633835,30.583508,30.328915,30.466022,30.579636,30.09206,29.254381,28.440258,26.960669,25.091345,24.006832,23.059654,22.439968,22.03574,21.801754,21.729395,21.783676,21.897118,22.04932,22.290375,22.7683,23.516542,24.80057,26.540375,28.382168,30.060913,31.004543,31.716831,32.164013,32.346886,32.372635,32.37659
34.2359,34.23004,34.21811,34.22003,34.220055,34.20581,34.202694,34.218925,34.248356,34.28579,34.328804,34.369835,34.397865,34.412304,34.42189,34.433533,34.4542,34.483616,34.513527,34.537354,34.551365,34.560715,34.57348,34.59252,34.61583,34.638474,34.653675,34.659122,34.65986,34.661568,34.673855,34.702538,34.74225,34.780296,34.811943,34.837997,34.856506,34.878517,34.887356,34.87599,34.870094,34.86413,34.85482,34.829407,34.790962,34.745636,34.70145,34.66475,34.631516,34.602165,34.568993,34.533287,34.494057,34.455856,34.427795,34.41262,34.413162,34.41176,34.418304,34.42397,34.425003,34.434723,34.463024,34.496822,34.528122,34.55545,34.58142,34.61518,34.655426,34.679955,34.66213,34.63121,34.571556,34.48809,34.36223,34.188705,34.002335,33.834885,33.66652,33.49843,33.335205,33.183895,33.043564,32.907173,32.775726,32.6466,32.511,32.368958,32.226185,32.085144,31.933475,31.747665,31.499968,31.190601,30.833351,30.470942,30.126945,29.81055,29.570057,29.515667,29.509132,29.494072,29.442757,29.36445,29.249695,29.067085,28.831202,28.542023,28.221415,27.775196,27.365917,27.171638,27.197083,27.406796,27.65995,27.825014,28.036583,27.244133,23.296299,17.199467,13.86989,13.118591,12.823431,12.789677,12.8309,12.847923,12.837954,12.827773,12.81657,12.812555,12.815704,12.828922,12.853275,12.885396,12.918932,12.948303,12.972561,12.999847,13.030623,13.0689945,13.119532,13.1832485,13.258559,13.34614,13.446625,13.554586,13.666218,13.778316,13.88797,13.993639,14.09807,14.213993,14.340492,14.479237,14.628893,14.785181,14.945011,15.109349,15.247832,15.415337,15.599682,15.782511,15.947405,16.081728,16.20464,16.330412,16.451569,16.562872,16.660812,16.740736,16.798264,16.83257,16.843988,16.830431,16.790562,16.727379,16.646843,16.555138,16.45688,16.351814,16.232182,16.102049,15.96645,15.8304205,15.697878,15.571108,15.450272,15.325186,15.198711,15.080551,14.978446,14.890145,14.811802,14.753948,14.711196,14.675764,14.646688,14.621576,14.598516,14.577517,14.55835,14.539833,14.520901,14.502085,14.484627,14.469469,14.456703,14.44607,14.437167,14.429327,14.422909,14.417288,14.41158,14.404711,14.395418,14.382974,14.365655,14.342521,14.312881,14.276171,14.232452,14.182364,14.126178,14.056231,13.9806795,13.9087715,13.84731,13.797764,13.757992,13.7265835,13.700335,13.680077,13.666651,13.659193,13.655583,13.653448,13.65121,13.648098,13.641596,13.631219,13.617077,13.6012745,13.586128,13.571978,13.558395,13.542528,13.522213,13.496898,13.468169,13.438791,13.411337,13.387866,13.366502,13.346398,13.323645,13.294716,13.255405,13.20314,13.142117,13.067548,12.983889,12.897268,12.818474,12.755436,12.7070675,12.66613,12.620929,12.57871,12.511415,12.513729,13.498157,16.6179,21.591764,25.76381,28.865257,30.224548,30.564854,30.490177,30.323101,30.429504,30.56083,29.800442,28.890438,27.669313,25.966068,24.269554,23.18396,22.463268,22.004745,21.703646,21.543257,21.529564,21.627308,21.76462,21.916914,22.165024,22.674816,23.487957,24.89441,26.711092,28.537235,30.248716,31.221252,31.916012,32.350346,32.526527,32.54526,32.543365
34.408882,34.394047,34.374832,34.370525,34.363556,34.334496,34.32077,34.324375,34.337036,34.35554,34.3795,34.403023,34.42063,34.43734,34.45122,34.46624,34.490356,34.5242,34.558228,34.583763,34.599556,34.610367,34.624535,34.645317,34.670403,34.694473,34.711098,34.71696,34.716843,34.71721,34.72892,34.756912,34.79515,34.832848,34.865345,34.895004,34.915108,34.93668,34.94455,34.931908,34.923843,34.914894,34.901413,34.869522,34.823547,34.770287,34.71757,34.67186,34.62983,34.594482,34.55733,34.51755,34.47382,34.431267,34.399574,34.38243,34.381645,34.377747,34.3813,34.393322,34.415222,34.442757,34.463364,34.49613,34.52741,34.556965,34.588066,34.62656,34.673836,34.71172,34.693283,34.652016,34.58688,34.45659,34.259068,34.035603,33.825348,33.64385,33.477043,33.32646,33.147865,32.96763,32.823708,32.710472,32.617943,32.54717,32.464928,32.377335,32.29256,32.207333,32.107727,31.983025,31.83188,31.638384,31.40065,31.134895,30.855606,30.597498,30.424541,30.380789,30.356852,30.349058,30.344557,30.355331,30.358719,30.293926,30.15583,29.954689,29.692322,29.37463,29.166561,29.171741,29.40223,29.881054,29.906532,29.871502,29.695595,30.264957,27.49765,19.725845,14.609069,13.229618,12.832098,12.807655,12.854699,12.886541,12.888975,12.87714,12.86006,12.846338,12.840136,12.841728,12.854658,12.879368,12.908346,12.934447,12.956542,12.981538,13.009841,13.04559,13.093146,13.153127,13.223601,13.304784,13.3961315,13.492683,13.589693,13.6847515,13.779395,13.876227,13.974035,14.083906,14.205687,14.33746,14.478601,14.626033,14.77417,14.927546,15.085893,15.238611,15.404277,15.580284,15.74636,15.894577,16.0281,16.146616,16.26078,16.371006,16.471264,16.555353,16.620026,16.6619,16.681438,16.676388,16.644619,16.588629,16.514263,16.427877,16.33442,16.234245,16.119972,15.995006,15.863722,15.730955,15.601452,15.478474,15.360755,15.252037,15.13601,15.022747,14.922913,14.84086,14.779023,14.735863,14.702354,14.674351,14.650032,14.6271,14.6054535,14.586523,14.56965,14.552912,14.535833,14.518749,14.502589,14.487896,14.474667,14.463196,14.453836,14.4460745,14.439051,14.432521,14.4262295,14.419279,14.410541,14.399273,14.38376,14.363245,14.335939,14.299382,14.253456,14.200532,14.141502,14.073866,14.002226,13.935986,13.87985,13.8340225,13.797514,13.768898,13.745062,13.726841,13.714935,13.708393,13.705227,13.703341,13.701353,13.698626,13.692707,13.682927,13.669289,13.653878,13.639001,13.624956,13.6113405,13.595215,13.5743885,13.548271,13.518365,13.487383,13.457866,13.431728,13.408508,13.384334,13.359143,13.3279705,13.285092,13.230522,13.168997,13.096096,13.015707,12.933697,12.8590355,12.797491,12.749345,12.710608,12.657062,12.613319,12.520594,12.484052,14.03562,17.920444,22.375263,26.595837,29.244427,30.30584,30.51786,30.433834,30.339102,30.432331,30.399176,29.439415,28.522467,26.875916,24.976006,23.590412,22.613659,22.072102,21.717056,21.485321,21.377111,21.40939,21.541565,21.694073,21.852896,22.124374,22.69331,23.591139,25.146454,27.01076,28.733109,30.463041,31.450953,32.112427,32.524662,32.69296,32.70727,32.70235
34.546036,34.525875,34.50289,34.49422,34.479538,34.444717,34.426346,34.4211,34.421307,34.425735,34.435623,34.448082,34.46209,34.478428,34.49333,34.510063,34.535206,34.568245,34.600307,34.624672,34.639793,34.650414,34.665184,34.687424,34.71424,34.739777,34.757687,34.76407,34.763252,34.765343,34.77787,34.804207,34.84096,34.878685,34.91355,34.943848,34.963326,34.98357,34.990257,34.976585,34.966736,34.955143,34.93779,34.90058,34.84826,34.78811,34.728287,34.675552,34.62702,34.58447,34.539295,34.494347,34.449646,34.4075,34.375053,34.357315,34.354668,34.347557,34.34436,34.35077,34.375824,34.41811,34.456955,34.485527,34.51954,34.556175,34.59622,34.63985,34.682682,34.711098,34.69935,34.63697,34.518997,34.33554,34.103256,33.866104,33.663155,33.498707,33.29181,33.09796,32.91143,32.74822,32.634502,32.573147,32.543114,32.499207,32.460426,32.434856,32.424397,32.421585,32.415863,32.399883,32.362164,32.27672,32.159546,32.008606,31.816847,31.613329,31.456493,31.36465,31.367989,31.419119,31.501865,31.596445,31.673008,31.707561,31.69146,31.548786,31.302856,31.03218,30.92884,31.05378,31.254326,31.367764,31.287804,31.141125,30.883942,31.192469,29.7644,23.788298,15.747425,13.484644,12.929145,12.884142,12.914341,12.956761,12.971289,12.960626,12.940179,12.919912,12.906293,12.90081,12.905588,12.920667,12.9405985,12.959087,12.977457,12.999236,13.0245495,13.057339,13.101448,13.156941,13.221527,13.29513,13.376507,13.461229,13.544521,13.624981,13.705479,13.788721,13.874199,13.975456,14.090069,14.213854,14.344076,14.478395,14.613398,14.74847,14.899254,15.053789,15.204962,15.357931,15.512711,15.657782,15.788382,15.90682,16.021074,16.130268,16.23689,16.33016,16.395203,16.43894,16.461475,16.461916,16.437902,16.391323,16.327385,16.251728,16.168379,16.076706,15.97086,15.855949,15.734096,15.608782,15.482378,15.356957,15.245689,15.140169,15.0337925,14.933115,14.845164,14.774811,14.723739,14.685685,14.655828,14.630842,14.609478,14.590487,14.573341,14.558024,14.544079,14.529892,14.515358,14.500578,14.486277,14.47304,14.461009,14.450434,14.441465,14.433661,14.426781,14.420507,14.41447,14.407889,14.3997,14.389128,14.374349,14.354492,14.328087,14.293429,14.25038,14.200525,14.145032,14.0843725,14.021315,13.96268,13.912531,13.871721,13.839548,13.814512,13.79381,13.778303,13.768545,13.763426,13.761009,13.759455,13.757608,13.755005,13.749288,13.739662,13.725925,13.710106,13.694559,13.679604,13.66495,13.647564,13.625286,13.597567,13.565889,13.532884,13.501125,13.472863,13.447735,13.422911,13.396306,13.362442,13.31706,13.261559,13.200968,13.131207,13.055435,12.978834,12.908571,12.848812,12.801027,12.763994,12.707739,12.67289,12.560406,12.501921,14.770366,19.441008,22.86516,27.258238,29.550613,30.377338,30.505493,30.39708,30.34793,30.460163,30.094753,29.013374,28.103622,26.232067,24.21453,23.04449,22.269829,21.860619,21.579168,21.396223,21.329988,21.394905,21.542595,21.703476,21.887783,22.216919,22.88351,23.902485,25.55389,27.397484,29.005459,30.690956,31.681456,32.2823,32.660194,32.820503,32.832584,32.826546
34.65556,34.633575,34.61154,34.60083,34.577576,34.544586,34.521088,34.507378,34.49842,34.494316,34.496765,34.504097,34.518364,34.53129,34.544212,34.560497,34.58439,34.614044,34.64144,34.66112,34.67315,34.68251,34.697468,34.72047,34.748035,34.774307,34.79318,34.800804,34.802628,34.808033,34.82126,34.84663,34.883774,34.922264,34.95713,34.985336,35.002605,35.020523,35.02523,35.010227,34.998684,34.98462,34.96395,34.922188,34.864548,34.798946,34.73403,34.676888,34.624542,34.577087,34.526695,34.477337,34.42925,34.386547,34.356426,34.338547,34.33332,34.320595,34.311264,34.309578,34.326218,34.373116,34.43833,34.473057,34.513504,34.55867,34.606884,34.651386,34.680702,34.684334,34.65766,34.568924,34.407413,34.201668,33.97962,33.758568,33.555687,33.384445,33.177055,32.9881,32.84641,32.759872,32.70782,32.672325,32.665276,32.646336,32.65775,32.702,32.77752,32.87015,32.949158,32.989594,33.01384,32.99948,32.964134,32.9026,32.80562,32.68325,32.561363,32.454453,32.45497,32.531803,32.656815,32.800537,32.93945,33.03495,33.01731,32.89368,32.66749,32.436447,32.387787,32.47629,32.450306,32.249485,32.174084,32.0463,31.907026,31.445417,31.1376,27.892776,17.206854,13.928219,13.113696,13.026493,13.030155,13.054302,13.066181,13.066799,13.047659,13.023945,13.004013,12.992632,12.990772,12.997006,13.008236,13.020367,13.035035,13.05379,13.076515,13.106508,13.146784,13.19689,13.254404,13.3193035,13.389957,13.462282,13.532949,13.601709,13.670855,13.741934,13.816188,13.905972,14.0083275,14.11974,14.237233,14.35726,14.47613,14.594509,14.721817,14.863539,15.01334,15.155537,15.285879,15.412004,15.527528,15.64016,15.749027,15.850427,15.948353,16.034191,16.098135,16.156492,16.20129,16.227121,16.227264,16.201153,16.151531,16.082973,16.002596,15.91504,15.812138,15.6854725,15.54863,15.418584,15.297173,15.180475,15.083546,14.9865675,14.892265,14.801053,14.722527,14.663698,14.619324,14.584947,14.558963,14.538538,14.521774,14.507234,14.494165,14.482209,14.471343,14.460587,14.449741,14.438692,14.427809,14.4176235,14.408455,14.400454,14.393261,14.386355,14.380241,14.374506,14.36861,14.362017,14.353914,14.343568,14.329225,14.310144,14.285595,14.255081,14.218431,14.176035,14.129094,14.077637,14.024128,13.97388,13.930805,13.8959255,13.868246,13.846598,13.828613,13.815182,13.806833,13.80233,13.79979,13.797667,13.795048,13.791645,13.785231,13.775009,13.76057,13.743852,13.727243,13.711098,13.695223,13.676517,13.652886,13.623869,13.590858,13.556332,13.523336,13.495579,13.471099,13.447447,13.420216,13.384888,13.339249,13.284971,13.227202,13.162354,13.092724,13.022578,12.957594,12.900441,12.853998,12.821086,12.76989,12.721815,12.613817,12.679441,15.528437,20.629042,23.22958,27.775362,29.73371,30.42522,30.515003,30.396332,30.359001,30.31942,29.63115,28.60675,27.449516,25.585766,23.743685,22.678326,22.085491,21.761415,21.534264,21.390749,21.362827,21.446648,21.58857,21.75238,21.982819,22.40245,23.190891,24.394989,26.058796,27.802784,29.364475,30.929386,31.893711,32.42744,32.76841,32.92068,32.932343,32.92559
34.762512,34.74008,34.71869,34.70552,34.674423,34.641914,34.611057,34.58841,34.571396,34.560516,34.558388,34.56343,34.57391,34.58279,34.593437,34.60824,34.63024,34.65715,34.680588,34.69462,34.70282,34.710583,34.72548,34.74881,34.77672,34.803604,34.82351,34.83307,34.839317,34.84739,34.86241,34.88992,34.928432,34.9665,34.99814,35.023106,35.036926,35.051193,35.052795,35.035614,35.022034,35.005478,34.982056,34.936993,34.875927,34.807198,34.73957,34.680054,34.62552,34.57634,34.52572,34.4748,34.42292,34.376312,34.344063,34.324814,34.315914,34.296627,34.280914,34.274178,34.28697,34.334682,34.41223,34.47515,34.521164,34.571182,34.62271,34.661118,34.673943,34.650696,34.57487,34.449776,34.28132,34.09063,33.901505,33.719772,33.543484,33.39174,33.275497,33.194954,33.134335,33.113007,33.112858,33.098473,33.107586,33.15013,33.2111,33.298996,33.41583,33.5467,33.651302,33.69515,33.736942,33.76133,33.767227,33.752945,33.722313,33.679123,33.622677,33.555374,33.502357,33.55552,33.675266,33.844124,34.030937,34.128998,34.047756,33.911324,33.693466,33.462173,33.40764,33.414474,33.257195,33.138824,33.04055,32.95022,32.80369,32.25646,32.489536,30.110237,18.745285,14.451612,13.282259,13.148767,13.1571245,13.157829,13.145981,13.152219,13.142723,13.124851,13.106251,13.092186,13.086036,13.088045,13.0953865,13.105114,13.11788,13.13517,13.156807,13.185059,13.221876,13.266478,13.3165455,13.372381,13.432428,13.493221,13.552532,13.610676,13.67012,13.732822,13.799463,13.877705,13.96652,14.063554,14.166946,14.272099,14.373117,14.474297,14.582518,14.694068,14.832344,14.972293,15.088886,15.198267,15.296919,15.393063,15.485786,15.571446,15.646845,15.710104,15.766388,15.827511,15.891266,15.942031,15.971052,15.974702,15.951515,15.904111,15.842366,15.779435,15.68917,15.553196,15.393599,15.239855,15.105568,14.993305,14.899612,14.810858,14.72588,14.642445,14.572096,14.52263,14.486729,14.462198,14.443619,14.429583,14.417862,14.4063835,14.395129,14.385275,14.3769455,14.369328,14.362277,14.355513,14.349093,14.343161,14.337707,14.332752,14.3280115,14.323069,14.318111,14.312813,14.30682,14.29986,14.291536,14.281223,14.267477,14.250015,14.228338,14.202059,14.171065,14.135755,14.097191,14.05527,14.010971,13.969452,13.934088,13.905195,13.881702,13.862787,13.846615,13.834115,13.825901,13.820709,13.816784,13.812922,13.808474,13.803303,13.795303,13.783754,13.768198,13.750515,13.733056,13.716167,13.699724,13.680621,13.656828,13.62785,13.595118,13.561403,13.530291,13.505987,13.484352,13.46167,13.434664,13.399878,13.355549,13.303589,13.249008,13.188694,13.124103,13.058637,12.996834,12.944171,12.903864,12.872292,12.831133,12.737356,12.669426,13.008143,16.108452,21.227795,23.844044,28.326015,29.880444,30.476334,30.544771,30.420795,30.357319,30.027668,29.154367,28.291323,26.73044,24.937979,23.44527,22.476833,21.988752,21.717915,21.526894,21.419804,21.411572,21.488018,21.607586,21.771635,22.065086,22.598572,23.520641,24.975185,26.615713,28.208405,29.771612,31.17376,32.06923,32.557404,32.870575,33.013733,33.0256,33.016953
34.876854,34.852432,34.826572,34.808746,34.77237,34.734337,34.69667,34.665436,34.63964,34.620605,34.613068,34.61666,34.621773,34.626877,34.635105,34.647957,34.667587,34.691235,34.71061,34.72058,34.72561,34.73145,34.745728,34.769424,34.798454,34.82699,34.84857,34.86033,34.86953,34.8806,34.900387,34.93193,34.97001,35.00493,35.033035,35.05378,35.06299,35.072563,35.070183,35.050163,35.034374,35.015644,34.990364,34.943596,34.88126,34.812042,34.74453,34.685165,34.630722,34.581158,34.530334,34.47993,34.42993,34.380623,34.338814,34.314865,34.30072,34.274715,34.25384,34.245037,34.259804,34.311195,34.39393,34.494278,34.54307,34.593178,34.642624,34.667778,34.654,34.591667,34.46216,34.300682,34.135574,33.983932,33.851223,33.74344,33.671555,33.641586,33.634247,33.66555,33.670525,33.666027,33.690178,33.740913,33.815662,33.919056,33.999126,34.082344,34.172157,34.266113,34.360924,34.441994,34.514538,34.574738,34.619324,34.64223,34.642548,34.622517,34.584602,34.536537,34.46973,34.51049,34.625816,34.79958,34.96096,34.994476,34.944324,34.81629,34.612663,34.3042,34.095646,34.039124,33.97265,33.900177,33.804253,33.79258,33.67376,33.210003,32.99769,30.170788,20.149448,14.952209,13.375314,13.154114,13.193493,13.220776,13.201537,13.19423,13.196402,13.196728,13.193082,13.186929,13.183847,13.186991,13.194391,13.204143,13.217239,13.235119,13.257674,13.286047,13.321049,13.361603,13.405439,13.453276,13.503943,13.554727,13.604378,13.65362,13.704741,13.759561,13.818291,13.888021,13.967485,14.053726,14.143141,14.231739,14.316797,14.401007,14.488489,14.580788,14.683996,14.803869,14.925371,15.025085,15.1102085,15.191164,15.267662,15.336056,15.394352,15.441656,15.477266,15.502964,15.541952,15.576254,15.604143,15.6222,15.626745,15.617809,15.600046,15.586075,15.529835,15.426586,15.281505,15.114632,14.9579315,14.83424,14.73037,14.637173,14.557919,14.493809,14.444998,14.409013,14.382102,14.365065,14.352396,14.341481,14.3314495,14.321321,14.311249,14.3024845,14.295458,14.289578,14.284855,14.280895,14.277767,14.275377,14.273099,14.270412,14.26731,14.263829,14.260048,14.255617,14.250151,14.243444,14.235366,14.225459,14.2124405,14.1962185,14.176577,14.15357,14.127385,14.098192,14.066386,14.032089,13.996204,13.9629135,13.934668,13.911268,13.891535,13.87488,13.859987,13.847762,13.83898,13.832554,13.826875,13.820921,13.814295,13.807035,13.797102,13.783861,13.767009,13.748447,13.73045,13.713337,13.697055,13.678588,13.656305,13.62944,13.599756,13.570606,13.544928,13.524851,13.505476,13.484284,13.458633,13.425249,13.3824005,13.3320465,13.279057,13.220428,13.157054,13.091727,13.028373,12.980751,12.950766,12.913203,12.869476,12.736486,12.72343,13.3778515,16.546417,21.549253,24.744602,28.855509,30.065376,30.551556,30.595762,30.444773,30.304703,29.785465,28.83617,28.066265,26.280888,24.4897,23.208569,22.364819,21.942696,21.70989,21.540684,21.463512,21.44668,21.483809,21.572567,21.747898,22.119514,22.782724,23.896458,25.564075,27.169424,28.634295,30.176613,31.411037,32.20157,32.67016,32.96653,33.099274,33.111416,33.09987
34.99739,34.965855,34.93526,34.912792,34.867027,34.82328,34.7774,34.73658,34.700516,34.676224,34.667053,34.66404,34.664913,34.6666,34.672382,34.683083,34.70025,34.72085,34.73667,34.743233,34.74568,34.750084,34.763966,34.787964,34.817955,34.848022,34.87135,34.88556,34.900284,34.918518,34.94239,34.97416,35.01084,35.04279,35.067047,35.083218,35.08747,35.09222,35.085804,35.062965,35.045364,35.025177,34.999184,34.95218,34.890026,34.821613,34.755318,34.697037,34.643494,34.594193,34.543663,34.493496,34.443565,34.3945,34.350082,34.314964,34.29262,34.25958,34.234062,34.22422,34.242653,34.30233,34.39656,34.512455,34.572224,34.622673,34.666664,34.672188,34.599747,34.449764,34.301918,34.158646,34.037376,33.954895,33.91324,33.91025,33.95004,34.03144,34.060837,34.12847,34.190704,34.23397,34.28031,34.343582,34.420113,34.509968,34.604958,34.70883,34.82341,34.945618,35.066185,35.17363,35.27038,35.356136,35.42908,35.48141,35.509384,35.512768,35.49298,35.459908,35.407246,35.383644,35.454998,35.61464,35.72605,35.68683,35.63128,35.525047,35.35569,35.0777,34.694687,34.439964,34.468525,34.49083,34.415234,34.457237,34.379166,34.03556,33.2294,29.819714,21.596336,15.585169,13.53232,13.0791025,13.068586,13.176275,13.249306,13.239738,13.232964,13.248526,13.266384,13.278326,13.285812,13.292954,13.301689,13.31295,13.327646,13.347271,13.371904,13.401661,13.436264,13.474307,13.513411,13.554718,13.597713,13.64032,13.682185,13.724323,13.768694,13.816888,13.868717,13.930374,14.000528,14.076099,14.15366,14.229512,14.301081,14.371271,14.442936,14.517541,14.595049,14.680878,14.7773285,14.876246,14.966043,15.034597,15.093212,15.142135,15.180728,15.209286,15.228899,15.240715,15.246275,15.24585,15.23871,15.225805,15.208733,15.187872,15.162945,15.137164,15.097602,15.0244665,14.915027,14.79452,14.6897545,14.605058,14.537531,14.480706,14.4298115,14.385582,14.350378,14.324082,14.304338,14.290527,14.280064,14.270681,14.261896,14.252844,14.243626,14.235565,14.229338,14.224552,14.221741,14.220324,14.219547,14.218981,14.218295,14.217037,14.215167,14.212883,14.210168,14.206642,14.201819,14.195566,14.1881485,14.179527,14.168195,14.154184,14.137311,14.117612,14.095298,14.07061,14.0439625,14.01544,13.985832,13.958603,13.935524,13.916,13.898762,13.88337,13.868778,13.855627,13.84511,13.836952,13.829608,13.82167,13.812992,13.803754,13.791953,13.777105,13.759142,13.740031,13.721935,13.705114,13.689579,13.672383,13.65353,13.631898,13.6092205,13.587799,13.567798,13.550145,13.5329485,13.513858,13.490118,13.458347,13.416851,13.367619,13.315451,13.257418,13.194179,13.128204,13.06402,13.017229,12.991632,12.956228,12.862321,12.739023,12.747645,13.769008,17.15665,22.138319,25.876762,29.049076,30.192352,30.591072,30.63385,30.492012,30.206139,29.582825,28.592682,27.891085,25.982111,24.195,23.059221,22.319576,21.944271,21.73024,21.574612,21.50749,21.481808,21.47285,21.530977,21.753353,22.218208,23.019176,24.483612,26.134996,27.607243,29.069645,30.57303,31.632069,32.303505,32.75966,33.042732,33.16555,33.179863,33.167164
35.14611,35.10473,35.066765,35.036972,34.976685,34.923042,34.864567,34.808815,34.762745,34.730988,34.712555,34.702282,34.697823,34.69529,34.698193,34.707027,34.72283,34.74204,34.7562,34.7612,34.762486,34.766365,34.779724,34.803165,34.83442,34.868225,34.894836,34.913357,34.93171,34.95354,34.9801,35.012627,35.04796,35.07684,35.097248,35.108826,35.10798,35.10769,35.0971,35.071526,35.052567,35.031574,35.005665,34.95941,34.898224,34.83125,34.766853,34.710297,34.658222,34.609665,34.559383,34.508713,34.45752,34.406273,34.358353,34.31768,34.28373,34.23519,34.202072,34.192467,34.2168,34.288246,34.396404,34.519867,34.60109,34.65371,34.671265,34.61008,34.468796,34.318977,34.19896,34.10196,34.05377,34.053486,34.116547,34.21803,34.30336,34.39219,34.483513,34.551826,34.62272,34.703403,34.78888,34.878815,34.9699,35.06925,35.18438,35.312954,35.451073,35.594124,35.733715,35.859085,35.972622,36.0772,36.172356,36.248512,36.300213,36.32691,36.327293,36.30205,36.257584,36.206017,36.18405,36.263382,36.355133,36.307034,36.253277,36.152863,35.976616,35.723167,35.38919,35.037758,34.86651,35.051704,35.048286,35.07022,35.03717,34.851234,33.907272,30.911503,24.94194,16.646551,13.973351,13.182474,12.91808,12.944523,13.034176,13.147303,13.255295,13.286412,13.288816,13.301421,13.327899,13.350297,13.362499,13.375878,13.392605,13.414003,13.440725,13.472356,13.506895,13.541996,13.576469,13.611851,13.647375,13.682043,13.716258,13.750949,13.787586,13.827517,13.870085,13.920916,13.979422,14.04309,14.108548,14.172532,14.2331085,14.291783,14.350849,14.411755,14.47496,14.542086,14.611704,14.681024,14.752988,14.815723,14.865807,14.8993225,14.916885,14.922287,14.919001,14.908352,14.891047,14.870652,14.851348,14.838696,14.824718,14.801514,14.778145,14.747911,14.70495,14.650995,14.585733,14.517842,14.45823,14.40855,14.368183,14.333008,14.30178,14.274796,14.252789,14.235912,14.223684,14.216,14.2103405,14.204983,14.199194,14.192341,14.184837,14.178058,14.172862,14.169085,14.167061,14.166531,14.166752,14.167131,14.167467,14.16766,14.167492,14.167067,14.166319,14.164762,14.161739,14.156988,14.150693,14.142619,14.131889,14.118612,14.102827,14.084792,14.064907,14.043531,14.020996,13.997276,13.973326,13.952234,13.934733,13.919471,13.905157,13.891436,13.877606,13.864226,13.852518,13.841879,13.831219,13.82005,13.808346,13.796361,13.782054,13.765203,13.746052,13.726566,13.708792,13.693073,13.679607,13.666201,13.652025,13.636517,13.619899,13.602968,13.586536,13.571568,13.556603,13.539388,13.517047,13.486228,13.445327,13.396376,13.3442745,13.286267,13.223057,13.154897,13.103619,13.065735,13.023111,12.97793,12.830744,12.770204,12.765251,14.480091,18.370983,23.02958,27.031666,29.493258,30.383812,30.6474,30.696524,30.56818,30.139872,29.35743,28.433266,27.654015,25.745907,24.03498,22.993563,22.323185,21.974913,21.759096,21.621122,21.554344,21.520138,21.48691,21.541027,21.832134,22.420116,23.346642,25.151798,26.79589,28.126402,29.550707,30.980846,31.849277,32.434258,32.837418,33.09207,33.209045,33.229473,33.220123
35.319237,35.266647,35.217636,35.17537,35.101215,35.034523,34.960194,34.890354,34.83196,34.788437,34.759396,34.74105,34.730824,34.72386,34.72358,34.730614,34.745407,34.763702,34.776974,34.781395,34.782307,34.785065,34.79982,34.82598,34.85889,34.89355,34.92147,34.94217,34.96289,34.987076,35.015553,35.04863,35.082573,35.108627,35.125553,35.13291,35.12731,35.1222,35.10756,35.07953,35.059772,35.03884,35.014145,34.970016,34.910908,34.846123,34.784233,34.729862,34.67959,34.632225,34.58242,34.53139,34.478928,34.425377,34.374065,34.32894,34.287155,34.22944,34.185516,34.171124,34.201904,34.287857,34.41134,34.542286,34.64366,34.690136,34.650818,34.52542,34.364975,34.23712,34.162277,34.135487,34.175804,34.301422,34.44696,34.56701,34.685555,34.78915,34.873116,34.949947,35.044052,35.148632,35.2518,35.356773,35.463142,35.57701,35.70732,35.850082,35.999355,36.150856,36.298004,36.43045,36.550346,36.66286,36.76898,36.858696,36.923096,36.95278,36.944084,36.92265,36.89006,36.84742,36.80371,36.79196,36.78235,36.716385,36.656353,36.5698,36.44268,36.242886,35.956028,35.62234,35.3817,35.40641,35.568676,35.57785,35.620064,35.545338,34.908928,32.860325,28.205992,19.177265,14.8587,13.446926,12.989626,12.766521,12.791473,12.886812,13.007977,13.109671,13.214714,13.282595,13.318594,13.348544,13.371689,13.395601,13.421925,13.453878,13.49558,13.5417385,13.589949,13.63923,13.677384,13.709703,13.740412,13.767141,13.791311,13.815225,13.840879,13.870634,13.904394,13.9475,13.999343,14.057568,14.119106,14.179745,14.234413,14.280287,14.322453,14.367065,14.414661,14.462312,14.508104,14.552534,14.595031,14.627413,14.643845,14.648001,14.64147,14.62669,14.607967,14.585818,14.5647545,14.545003,14.52739,14.515773,14.512228,14.514478,14.517528,14.511874,14.490822,14.45096,14.401793,14.35379,14.311798,14.277611,14.251076,14.2283325,14.208959,14.192738,14.179581,14.16947,14.162295,14.158,14.155348,14.152559,14.14879,14.14359,14.1375475,14.13204,14.127987,14.125435,14.124634,14.125416,14.1269865,14.128643,14.13003,14.130877,14.131313,14.131613,14.131611,14.130811,14.128551,14.124541,14.118959,14.111511,14.101523,14.089191,14.074734,14.058537,14.041121,14.022924,14.00412,13.984559,13.964886,13.947409,13.933043,13.920371,13.907499,13.894344,13.880566,13.866662,13.853996,13.841986,13.829777,13.817249,13.804429,13.791496,13.776431,13.759182,13.740124,13.721198,13.704364,13.690037,13.67853,13.668211,13.6580925,13.647844,13.636876,13.624989,13.612866,13.601315,13.589153,13.574141,13.55323,13.523265,13.482882,13.434288,13.382778,13.325338,13.263903,13.209356,13.156258,13.101473,13.03874,12.948069,12.8331375,12.844664,12.919087,15.5591545,20.000683,24.020092,28.013062,29.96899,30.606552,30.73509,30.770657,30.633554,30.091227,29.191143,28.321602,27.40186,25.555971,23.950169,22.968567,22.33795,22.00412,21.794886,21.674122,21.613976,21.56556,21.530127,21.623936,22.007812,22.770336,24.083485,25.999908,27.587997,28.770554,30.082588,31.42778,32.065636,32.568283,32.915718,33.140984,33.2518,33.278107,33.273235
35.501667,35.436325,35.37401,35.318214,35.23371,35.152683,35.062557,34.979668,34.908287,34.851936,34.8124,34.78558,34.76921,34.757492,34.753464,34.758266,34.77177,34.78895,34.801414,34.80547,34.80542,34.81067,34.827827,34.855217,34.888344,34.922237,34.949738,34.970573,34.992035,35.017036,35.046276,35.07946,35.112297,35.13646,35.151047,35.155327,35.14615,35.137215,35.119316,35.08962,35.070137,35.05065,35.028755,34.988594,34.933098,34.871513,34.812714,34.760826,34.712368,34.66639,34.617363,34.566505,34.513786,34.459404,34.406322,34.35831,34.311764,34.24868,34.198418,34.179256,34.213486,34.312912,34.45131,34.59028,34.700603,34.72409,34.628242,34.468517,34.323997,34.22847,34.214855,34.27256,34.441948,34.64734,34.828186,34.96958,35.0744,35.160168,35.229218,35.316566,35.42406,35.533165,35.63794,35.74701,35.857025,35.973976,36.104736,36.24455,36.387894,36.531822,36.671356,36.797302,36.911636,37.01985,37.12397,37.213783,37.28119,37.315098,37.30845,37.29197,37.270515,37.24594,37.21882,37.178024,37.116337,37.041435,36.962296,36.858925,36.723473,36.579967,36.37742,36.125282,35.926727,35.845432,36.023037,35.997475,36.023697,36.048737,35.795044,34.674793,31.685982,25.330845,18.005142,14.281065,13.320337,13.011377,12.795904,12.758942,12.806343,12.908258,13.040434,13.139622,13.203283,13.258429,13.303923,13.336398,13.372269,13.417145,13.475683,13.5393505,13.603237,13.667041,13.718912,13.758236,13.797041,13.8298,13.86055,13.894491,13.931793,13.97066,14.0065155,14.047512,14.091442,14.137671,14.187202,14.238768,14.288048,14.333701,14.372624,14.407229,14.428902,14.444817,14.4649935,14.48533,14.500185,14.506222,14.50028,14.489037,14.4717655,14.447048,14.418064,14.386332,14.3582325,14.344516,14.340256,14.345238,14.349188,14.345225,14.346538,14.343427,14.329351,14.304672,14.273151,14.239588,14.209732,14.187313,14.166166,14.146908,14.130661,14.117287,14.107058,14.099887,14.094723,14.091492,14.089762,14.088031,14.085582,14.082024,14.077826,14.074122,14.071709,14.0707035,14.071325,14.073681,14.076847,14.079945,14.082552,14.08426,14.08526,14.086057,14.086536,14.086214,14.084482,14.081118,14.076339,14.069924,14.061241,14.050477,14.037877,14.023809,14.008817,13.993423,13.977716,13.961493,13.945019,13.929877,13.916718,13.904264,13.890864,13.876764,13.861952,13.846891,13.833265,13.820824,13.8087225,13.796726,13.784939,13.773512,13.760181,13.744857,13.727884,13.711107,13.6964,13.684183,13.674858,13.667227,13.660631,13.654657,13.648302,13.640748,13.632221,13.623673,13.613665,13.60014,13.57999,13.551067,13.512892,13.467625,13.420584,13.372277,13.3178425,13.260777,13.194533,13.122866,13.044271,12.946909,12.920193,12.991056,13.546925,16.799095,21.443672,25.186323,28.769083,30.245615,30.767082,30.826336,30.83068,30.660656,30.024471,29.047966,28.221718,27.194555,25.423416,23.910318,22.967941,22.356081,22.021751,21.833046,21.728733,21.691448,21.633015,21.61302,21.800438,22.33989,23.32465,25.168606,27.00479,28.475449,29.544075,30.661903,31.808771,32.28595,32.705574,33.00271,33.199375,33.300934,33.330597,33.328644
35.691326,35.60888,35.53137,35.461845,35.366867,35.27054,35.16572,35.069923,34.98661,34.919147,34.86998,34.835228,34.812904,34.796436,34.78853,34.790977,34.803066,34.819027,34.830635,34.83442,34.836002,34.844963,34.86316,34.88937,34.92138,34.954258,34.98043,35.000114,35.02047,35.04432,35.072845,35.105522,35.13759,35.161118,35.174866,35.177757,35.166885,35.15579,35.135883,35.105476,35.087006,35.069756,35.05126,35.015717,34.96434,34.90618,34.85052,34.801147,34.754425,34.709976,34.662186,34.612316,34.560623,34.50706,34.45394,34.404793,34.35486,34.287228,34.236115,34.218197,34.25641,34.366196,34.51906,34.666225,34.772697,34.76644,34.63589,34.466137,34.343006,34.29019,34.34725,34.51107,34.771053,35.02282,35.21929,35.354362,35.425606,35.480965,35.553276,35.63874,35.735054,35.83289,35.931015,36.034054,36.13613,36.244015,36.36132,36.4841,36.60834,36.73233,36.852352,36.960815,37.060158,37.15416,37.245464,37.324043,37.38484,37.424187,37.437126,37.437202,37.436348,37.427258,37.410995,37.385735,37.34383,37.27944,37.195545,37.080975,36.925705,36.80523,36.666832,36.498135,36.395466,36.391182,36.460556,36.410477,36.311737,36.358803,36.348007,35.883476,34.739265,32.067966,25.098648,18.884876,15.342243,13.852701,13.336645,13.186583,13.125666,13.113844,13.132408,13.1786175,13.243054,13.308676,13.363116,13.402189,13.449862,13.511062,13.583036,13.6637335,13.744415,13.812599,13.867481,13.9299345,14.011569,14.092556,14.171959,14.250414,14.320181,14.376597,14.4165745,14.439273,14.451639,14.461937,14.473307,14.483807,14.490726,14.491951,14.5011215,14.510134,14.501981,14.489279,14.484909,14.479003,14.472666,14.463881,14.447356,14.431463,14.415682,14.393717,14.363121,14.326401,14.29538,14.283942,14.282974,14.289333,14.291941,14.278864,14.256724,14.230677,14.199086,14.1715145,14.146099,14.121546,14.102589,14.091158,14.078442,14.0672455,14.058772,14.052975,14.046991,14.04039,14.036092,14.033691,14.032814,14.032385,14.031643,14.030078,14.028009,14.026491,14.026415,14.027924,14.03103,14.03447,14.038006,14.041485,14.044363,14.046434,14.047673,14.048626,14.04928,14.049082,14.047536,14.04457,14.040371,14.034991,14.0277405,14.018703,14.008041,13.995999,13.983053,13.969784,13.956326,13.942469,13.928304,13.914988,13.90239,13.889252,13.874739,13.859352,13.843388,13.827312,13.813108,13.800841,13.789753,13.779498,13.77006,13.761439,13.75136,13.739351,13.725461,13.711735,13.700277,13.691299,13.685196,13.681276,13.679003,13.677864,13.67637,13.673157,13.668202,13.662443,13.654401,13.642215,13.623042,13.592611,13.549711,13.500373,13.4548855,13.410798,13.360158,13.291165,13.225789,13.163672,13.097494,13.075724,13.144474,13.380794,15.022395,18.503914,22.813839,26.647522,29.43895,30.401718,30.835571,30.90165,30.853458,30.594345,29.896912,28.907688,28.137676,27.057587,25.353905,23.907696,22.986813,22.382385,22.045929,21.877357,21.79483,21.772203,21.725466,21.765911,22.09208,22.879166,24.257,26.364803,28.064499,29.336388,30.330547,31.276285,32.10966,32.513634,32.85733,33.109364,33.277954,33.36656,33.395374,33.392735
35.892426,35.786232,35.689262,35.60264,35.489586,35.376328,35.256912,35.14946,35.05655,34.98087,34.924797,34.884357,34.85773,34.83784,34.827156,34.828083,34.839287,34.854454,34.86595,34.870964,34.877098,34.88652,34.90409,34.929707,34.960594,34.99183,35.015854,35.033134,35.050728,35.071686,35.098114,35.12953,35.160908,35.18474,35.198967,35.202255,35.191795,35.1805,35.16005,35.129627,35.11197,35.096344,35.080086,35.04768,34.999016,34.94294,34.889256,34.841595,34.79602,34.75287,34.706467,34.658203,34.60849,34.55676,34.5045,34.455135,34.403393,34.333633,34.28353,34.27301,34.320786,34.4402,34.608,34.76423,34.86106,34.832054,34.682846,34.51053,34.407745,34.40287,34.527958,34.79255,35.068985,35.36889,35.569733,35.636333,35.704865,35.76478,35.828,35.899815,35.977745,36.059,36.14318,36.231033,36.321487,36.41729,36.517876,36.6211,36.7241,36.825836,36.923912,37.01243,37.09393,37.169876,37.24347,37.306114,37.352722,37.384098,37.403732,37.424095,37.44906,37.458714,37.455296,37.44079,37.410057,37.360443,37.298203,37.218933,37.125248,37.010612,36.863,36.751694,36.75145,36.79634,36.818745,36.792606,36.624817,36.572136,36.64102,36.567516,36.22775,35.26863,33.144577,27.298965,21.10341,17.388546,15.718654,14.953732,14.559949,14.314795,14.174086,14.1207695,14.130924,14.170717,14.220263,14.283781,14.368313,14.478321,14.621626,14.800505,14.997698,15.186382,15.355143,15.520718,15.733129,15.958563,16.17156,16.357954,16.493288,16.553173,16.575428,16.544159,16.46779,16.364834,16.24894,16.12771,16.004639,15.866415,15.758863,15.674413,15.59543,15.510568,15.4211445,15.329797,15.23155,15.125191,15.003082,14.892193,14.811121,14.754118,14.705137,14.658613,14.620522,14.581979,14.533488,14.4854765,14.462959,14.456631,14.417965,14.366005,14.308021,14.243496,14.184458,14.137183,14.102329,14.082525,14.071699,14.066407,14.065008,14.065216,14.0597315,14.048655,14.040758,14.0351715,14.031913,14.029959,14.028899,14.028274,14.027994,14.028547,14.030493,14.03409,14.039275,14.04278,14.0454445,14.048712,14.051958,14.054395,14.055853,14.056629,14.056687,14.055941,14.053995,14.050846,14.047018,14.04183,14.035307,14.027447,14.01829,14.007928,13.996784,13.985491,13.97418,13.962555,13.950392,13.938316,13.9258585,13.911737,13.895359,13.877662,13.859366,13.841015,13.8249,13.811478,13.800339,13.791202,13.783724,13.777546,13.770809,13.763487,13.75621,13.749203,13.742832,13.73845,13.737081,13.738449,13.741873,13.7465,13.750217,13.751124,13.748988,13.744555,13.737427,13.725756,13.7063875,13.671002,13.618347,13.561323,13.515076,13.467213,13.421675,13.376408,13.348835,13.323104,13.310534,13.419567,13.673801,14.453343,17.193823,20.75007,24.48611,28.080688,30.041512,30.599115,30.866875,30.955597,30.834988,30.432001,29.71684,28.816662,28.101091,26.98228,25.340158,23.944191,23.025883,22.42138,22.091589,21.93473,21.872652,21.845942,21.849915,22.016748,22.51371,23.599098,25.491941,27.431934,28.976332,30.033627,30.978493,31.837894,32.38732,32.737923,33.023582,33.240013,33.38437,33.458576,33.482376,33.475685
36.09673,35.961403,35.838795,35.730858,35.588806,35.45762,35.323837,35.207638,35.109234,35.029556,34.97074,34.92826,34.900127,34.87922,34.86773,34.868393,34.87939,34.894493,34.90756,34.91661,34.92269,34.93239,34.950016,34.974968,35.004517,35.033756,35.055077,35.069134,35.0828,35.09966,35.122917,35.152374,35.18292,35.20739,35.222992,35.228016,35.219727,35.210075,35.19053,35.16066,35.143314,35.128067,35.112236,35.0807,35.0325,34.97637,34.92259,34.874847,34.82885,34.785812,34.740128,34.6934,34.646133,34.596947,34.546238,34.497368,34.445236,34.37553,34.329533,34.329002,34.389282,34.521564,34.704468,34.8701,34.95968,34.912025,34.749527,34.579815,34.500145,34.54222,34.731438,35.020126,35.371464,35.63621,35.780907,35.868904,35.9378,35.990353,36.04227,36.096466,36.15724,36.224552,36.29606,36.370693,36.447815,36.53016,36.619858,36.71322,36.80469,36.8924,36.975624,37.050404,37.118435,37.179726,37.238304,37.286972,37.321445,37.34305,37.35582,37.37181,37.392174,37.416683,37.437653,37.44808,37.44009,37.40798,37.358524,37.29998,37.234257,37.162533,37.07933,36.99643,36.967285,37.03944,37.018623,36.998672,36.96031,36.8431,36.74562,36.749763,36.676643,36.37095,35.606667,33.07549,30.314512,26.536167,21.691795,19.062008,17.894325,17.20684,16.849678,16.72261,16.738966,16.832151,16.968307,17.12444,17.29908,17.519464,17.864845,18.315441,18.827412,19.392637,19.962593,20.368908,20.80714,21.271824,21.696575,22.057514,22.313866,22.36747,22.345325,22.25115,22.038578,21.718277,21.347418,20.98656,20.664736,20.368181,20.085184,19.830418,19.578661,19.284285,18.951641,18.610996,18.22016,17.797571,17.357344,16.933123,16.584892,16.349106,16.206652,16.113945,16.017069,15.88949,15.724276,15.578971,15.465584,15.352856,15.250206,15.132818,15.014349,14.895676,14.789813,14.687073,14.586985,14.517153,14.459171,14.407389,14.363814,14.323809,14.284479,14.246598,14.211668,14.181707,14.15571,14.133693,14.118712,14.110695,14.10725,14.105965,14.104913,14.104338,14.104462,14.10538,14.107282,14.111566,14.118229,14.12395,14.127833,14.129528,14.128916,14.12776,14.125507,14.121941,14.118992,14.112665,14.105753,14.098253,14.090048,14.081125,14.072072,14.063623,14.055493,14.047306,14.038227,14.027862,14.014925,13.997795,13.9761715,13.951966,13.92663,13.900891,13.877724,13.858327,13.84281,13.831134,13.823026,13.818045,13.814025,13.813928,13.821384,13.829851,13.833091,13.836589,13.842936,13.852142,13.863013,13.873369,13.879915,13.880209,13.874566,13.865736,13.854219,13.83832,13.813105,13.77469,13.729948,13.690874,13.659166,13.630581,13.617903,13.643793,13.692215,13.729678,13.803551,14.083383,14.777114,16.57819,19.326294,22.697014,26.121677,28.853867,30.369198,30.73601,30.913269,30.977077,30.78878,30.273193,29.554182,28.813957,28.114262,26.961477,25.375496,24.017946,23.092583,22.480011,22.150581,22.005768,21.942324,21.93502,22.035023,22.359932,23.058212,24.404549,26.552551,28.21999,29.541256,30.529121,31.452518,32.214214,32.632233,32.94036,33.18918,33.38391,33.511078,33.57264,33.589695,33.578148
36.31802,36.140987,35.991135,35.85845,35.683247,35.53373,35.385002,35.261658,35.16018,35.078762,35.019363,34.976593,34.948097,34.926903,34.91526,34.915867,34.927116,34.943386,34.958233,34.9675,34.973785,34.98362,35.000954,35.024864,35.05266,35.07959,35.098022,35.108566,35.117844,35.130024,35.14933,35.176025,35.20527,35.230217,35.247345,35.254868,35.25013,35.244057,35.22748,35.19984,35.183807,35.169434,35.15382,35.12239,35.0737,35.016434,34.96144,34.91278,34.86593,34.822857,34.778126,34.733303,34.68884,34.642345,34.59301,34.544518,34.492363,34.423523,34.382915,34.393417,34.468033,34.61557,34.813206,34.986706,35.069855,35.007195,34.83404,34.670914,34.616188,34.69595,34.94477,35.246918,35.615044,35.8612,35.98696,36.082733,36.14742,36.19261,36.230637,36.269417,36.316914,36.372723,36.433002,36.496613,36.56315,36.635548,36.714485,36.796234,36.877365,36.957886,37.034447,37.09824,37.15523,37.20446,37.25098,37.288746,37.313843,37.328186,37.33677,37.3507,37.370564,37.39654,37.420193,37.434147,37.435463,37.424942,37.407112,37.384514,37.35103,37.305862,37.255035,37.214134,37.209305,37.253506,37.232178,37.2228,37.207947,37.17533,37.05111,36.875946,36.845787,36.763,36.40017,35.578957,34.204388,32.05246,29.562042,27.847055,26.994202,25.61124,24.760126,24.642303,25.110186,26.03506,27.188723,28.049438,28.49722,28.820484,29.19042,29.59328,29.909752,30.11684,30.319824,30.453255,30.526173,30.6109,30.610123,30.517056,30.437107,30.380117,30.363674,30.379917,30.412777,30.444763,30.47709,30.460949,30.3252,30.169498,29.92603,29.692009,29.463045,29.191063,28.733942,27.94581,26.91121,25.749058,24.836296,23.780361,22.552975,21.653828,21.377525,21.358166,21.385498,21.338663,21.083542,20.614872,20.017496,19.42255,18.961615,18.58943,18.271431,17.98566,17.666672,17.289965,16.89215,16.518608,16.184906,15.901224,15.663616,15.494659,15.347211,15.182541,15.03007,14.896396,14.763588,14.639524,14.551218,14.4980755,14.46093,14.42927,14.40505,14.386974,14.374512,14.364819,14.360682,14.361703,14.3631,14.36349,14.362217,14.359183,14.353159,14.345451,14.3371525,14.329355,14.324991,14.327547,14.330394,14.332939,14.33387,14.332059,14.327908,14.321716,14.310457,14.298779,14.285658,14.2708,14.253027,14.231146,14.205545,14.178636,14.152046,14.12686,14.1059265,14.090272,14.0787945,14.069841,14.062908,14.058683,14.054518,14.050688,14.046362,14.052822,14.079902,14.118242,14.153629,14.189529,14.222606,14.246231,14.255237,14.247943,14.227619,14.2037115,14.176954,14.145744,14.117498,14.090465,14.059767,14.028973,14.007162,13.995162,13.998724,14.0709095,14.209586,14.437428,14.873284,15.683872,17.150906,19.117134,21.497835,24.590622,27.603321,29.528408,30.579853,30.811102,30.968142,30.984488,30.70602,30.134468,29.473272,28.854416,28.08982,27.02112,25.51214,24.185051,23.255024,22.62801,22.282341,22.106382,22.060682,22.1323,22.356325,22.846413,23.835262,25.48624,27.549004,28.961239,30.08057,31.071552,31.913162,32.50974,32.881287,33.151207,33.369865,33.543083,33.652008,33.699677,33.70713,33.689903
