0.57221866,0.57360935,0.5751096,0.57639074,0.5775243,0.57847774,0.57924116,0.57979655,0.58013797,0.5803155,0.58040583,0.5804261,0.5803771,0.58026946,0.58006024,0.5797442,0.5793695,0.57903033,0.57883406,0.5787825,0.5789529,0.5793093,0.5799961,0.58079445,0.58148265,0.5821521,0.5829289,0.58379006,0.5846239,0.5854026,0.5861248,0.58677995,0.58734006,0.5878247,0.5882952,0.58868843,0.5890912,0.58955216,0.5900092,0.59041756,0.59077907,0.5910988,0.5913664,0.59158546,0.59178615,0.59198076,0.5921794,0.59240127,0.59264,0.59287184,0.5930867,0.5932586,0.59338117,0.5934346,0.59342164,0.5933589,0.593254,0.59310555,0.59292096,0.59271693,0.59247684,0.59219027,0.5918694,0.5915282,0.59117573,0.59082174,0.59047866,0.59016114,0.5898569,0.58957344,0.5893642,0.5891979,0.5890314,0.5888576,0.58867663,0.5884922,0.5883043,0.5881147,0.58789456,0.5876298,0.58732414,0.5869876,0.5866374,0.586292,0.58595467,0.5856558,0.5854074,0.58524054,0.58518624,0.5852139,0.58525455,0.58530116,0.5853127,0.5853025,0.58530277,0.5853352,0.5854233,0.5855583,0.5856819,0.5857699,0.5858413,0.58591086,0.5860151,0.58612657,0.5862038,0.5862216,0.5861724,0.58608174,0.5859809,0.5858786,0.5857606,0.5856558,0.58556217,0.5854584,0.585343,0.5852041,0.58508074,0.5850018,0.58496475,0.585009,0.5851469,0.58533436,0.58552754,0.5857306,0.5859281,0.58618426,0.58652925,0.5869497,0.58743,0.58794296,0.58843076,0.58884305,0.58922946,0.58962595,0.5900221,0.5904244,0.5908228,0.59119326,0.59154177,0.5919144,0.5923283,0.5928112,0.5933472,0.59394175,0.59457225,0.5952073,0.59583634,0.59644103,0.59703,0.5976199,0.59819984,0.5987458,0.59924734,0.59969866,0.6000918,0.600438,0.6007649,0.6011099,0.6014674,0.60182977,0.60219085,0.60253394,0.60282624,0.60304236,0.60323536,0.60343695,0.60365355,0.6038575,0.6040174,0.60410404,0.60406834,0.6038561,0.6035074,0.60300547,0.60226697,0.60149485,0.60077095,0.5999563,0.5988976,0.5975932,0.59619236,0.5941943,0.5917393,0.5888928,0.5858494,0.5825968,0.57920116,0.5762094,0.5733307,0.5708739,0.5685335,0.56630003,0.56452,0.56334746,0.56242377,0.5613923,0.5607147,0.5602729,0.5600594,0.56006765,0.56025875,0.5605899,0.56103396,0.56156045,0.5621146,0.5627613,0.56349194,0.5643375,0.5652385,0.5661701,0.56720424,0.568287,0.5689975,0.5692924,0.56881416,0.5683199,0.56859565,0.5699577,0.5724946,0.57619584,0.58053434,0.58509624,0.5961821,0.61200976,0.6256144,0.6341795,0.63923514,0.64085543,0.64021397,0.6389988,0.6389849,0.63928723,0.6390515,0.6382909,0.6373622,0.63643765,0.6355527,0.63502693,0.6348785,0.6350682,0.635454,0.6359377,0.63641906,0.63688016,0.6377617,0.63865197,0.6396797,0.6421393,0.645473,0.6482036,0.6494322,0.6488991,0.64665604,0.6441945,0.64611804,0.65076,0.66486794,0.697793,0.75067925,0.8100835,0.8505602,0.8744371,0.8886925,0.895195,0.8989916,0.90357316,0.90874195,0.913278,0.91659445,0.91961336,0.9225719,0.9252122,0.9278371,0.9308269,0.93403584,0.9368942,0.9389162,0.9396484,0.9397813,0.9388969,0.9368422,0.9307971,0.9244553,0.9213322,0.90194166,0.8632827,0.7892186,0.7077739,0.6461311,0.61617464,0.6102468,0.6104988,0.60709745,0.6048774,0.6038764,0.60417897,0.60464627,0.60607064,0.6080947,0.60843325,0.60846806
0.57365525,0.5751523,0.5764302,0.5773685,0.5782281,0.5789562,0.5794841,0.5797923,0.5799176,0.5799366,0.5799209,0.579844,0.5797351,0.5795111,0.57924455,0.5790129,0.57884115,0.57877946,0.57892084,0.579225,0.5797748,0.5804204,0.58114123,0.58187395,0.5826009,0.58335996,0.5841211,0.584899,0.58563846,0.5862902,0.58691096,0.5874909,0.58797395,0.5883709,0.58875334,0.58913064,0.58955526,0.58999884,0.59041977,0.59079117,0.59111243,0.5913917,0.5916271,0.5918202,0.59199893,0.59217894,0.592362,0.59257317,0.59280974,0.5930402,0.59324944,0.59341323,0.5935184,0.5935498,0.5935126,0.5934252,0.5932988,0.5931341,0.5929395,0.59272707,0.59247816,0.59218824,0.5918695,0.5915342,0.5911908,0.59084934,0.5905231,0.59022665,0.58995026,0.58968306,0.58950156,0.58936405,0.5892246,0.5890918,0.5889686,0.5888574,0.5887554,0.5886551,0.5885197,0.5883311,0.588093,0.587818,0.5875232,0.5872197,0.58690894,0.5866234,0.5863762,0.58620846,0.5861572,0.5861927,0.5862471,0.58630973,0.58633685,0.5863339,0.58633375,0.58636045,0.5864295,0.58652806,0.5866109,0.5866661,0.5867111,0.5867578,0.5868428,0.5869324,0.5869853,0.5869816,0.58691525,0.5868127,0.58671176,0.58661795,0.58652115,0.5864495,0.5863954,0.58633304,0.58625776,0.5861474,0.5860331,0.58594763,0.5858884,0.58589846,0.5860044,0.58617663,0.5863732,0.5865891,0.58680266,0.5870595,0.58737767,0.58774936,0.5881629,0.5885992,0.5890159,0.5893632,0.5896827,0.5900041,0.59032655,0.59066117,0.5909986,0.59131753,0.5916264,0.5919641,0.5923463,0.59279567,0.593302,0.59386885,0.59447134,0.5950767,0.59567404,0.59624565,0.5968038,0.5973633,0.5979123,0.59842944,0.59890723,0.59934276,0.5997293,0.60007745,0.60040694,0.6007527,0.6011119,0.60147655,0.6018367,0.60218,0.6024916,0.6027596,0.60301113,0.60328054,0.6035637,0.60383856,0.60408056,0.6042551,0.6043029,0.60417104,0.6039067,0.6035279,0.6029186,0.6021625,0.60146034,0.6008464,0.60011053,0.599072,0.59787977,0.5965962,0.59454083,0.5919283,0.58912706,0.58612,0.5827297,0.57914245,0.57591665,0.5732089,0.5707331,0.56837094,0.56614447,0.5643388,0.5631065,0.562089,0.5610923,0.56036377,0.5598991,0.5596998,0.5597295,0.5599276,0.5602509,0.56068647,0.5612025,0.56181675,0.5625141,0.563345,0.564265,0.56520814,0.56618893,0.56722987,0.5682512,0.5688082,0.5689129,0.56836385,0.5678071,0.5682324,0.5699334,0.57251465,0.5759547,0.58054507,0.5868131,0.600634,0.616638,0.62863964,0.636667,0.6410934,0.64265704,0.64212435,0.641029,0.6405431,0.6404283,0.6400974,0.639422,0.6385088,0.63775754,0.6369794,0.6364608,0.636248,0.63627505,0.636426,0.63660324,0.63682854,0.63726664,0.6374899,0.6377306,0.6388457,0.6407708,0.6434446,0.646696,0.64928854,0.64968014,0.64801335,0.6471584,0.64663625,0.64923126,0.65987504,0.6866596,0.734033,0.78750885,0.83074343,0.8571485,0.87247705,0.88095766,0.8864015,0.8918811,0.897446,0.9032831,0.90790284,0.91209584,0.91578484,0.91926813,0.9229256,0.92664385,0.92983425,0.9320146,0.9326618,0.93241787,0.9310154,0.92780644,0.921245,0.9144976,0.9087752,0.8876964,0.84444404,0.77059853,0.6927275,0.6368529,0.61300266,0.61035395,0.6102028,0.60681725,0.6042817,0.60395503,0.6038163,0.6047697,0.6067228,0.6079941,0.60812277,0.6080974
0.57506245,0.5762298,0.5771278,0.57788336,0.5785252,0.5790024,0.57928646,0.5794176,0.57943255,0.57936466,0.57928795,0.57919705,0.5790697,0.57887363,0.5787281,0.5787282,0.5789114,0.57927907,0.5797751,0.5802958,0.58095133,0.5816513,0.5823509,0.5830679,0.58379984,0.584507,0.58516955,0.5857903,0.58638036,0.58693516,0.58746535,0.5879383,0.58831376,0.588642,0.5890281,0.5894182,0.5898324,0.590222,0.59058344,0.5909103,0.5911983,0.59145224,0.5916713,0.5918553,0.59204435,0.59224176,0.5924401,0.5926608,0.5929006,0.59313,0.5933353,0.593494,0.5935854,0.59360087,0.5935464,0.5934399,0.5932966,0.59312177,0.5929208,0.5927024,0.59244907,0.59215903,0.5918447,0.59151703,0.5911839,0.59085643,0.59054804,0.590271,0.5900059,0.5897447,0.589573,0.5894674,0.5893647,0.5892591,0.5891794,0.5891236,0.5890869,0.58905613,0.58899224,0.5888756,0.58870995,0.588508,0.5882822,0.58803535,0.5877692,0.58751404,0.5872893,0.58713496,0.58709115,0.58713305,0.5871893,0.5872483,0.5872762,0.5872724,0.58727384,0.5872961,0.58734596,0.587414,0.5874659,0.5874952,0.5875225,0.5875549,0.5876255,0.58769864,0.5877346,0.5877161,0.5876403,0.58753324,0.58743155,0.58734274,0.5872607,0.58721554,0.5871949,0.58716786,0.58712703,0.58704376,0.5869456,0.5868639,0.58679616,0.58678544,0.5868633,0.58701015,0.5871899,0.587393,0.5875942,0.5878236,0.5880932,0.5883988,0.588737,0.58909553,0.5894381,0.5897226,0.5899815,0.5902374,0.59049726,0.59077704,0.59106934,0.5913553,0.59164244,0.5919632,0.592322,0.59276026,0.5932496,0.5937954,0.5943755,0.59495616,0.5955267,0.5960702,0.5965995,0.5971298,0.5976496,0.5981387,0.59859204,0.5990083,0.5993815,0.59972155,0.6000461,0.6003907,0.6007517,0.6011213,0.60148394,0.6018293,0.6021557,0.6024568,0.60275316,0.60306823,0.60339665,0.60371935,0.6040291,0.60429114,0.6044289,0.60438704,0.604192,0.60385036,0.6033635,0.60270494,0.60195184,0.60126126,0.6006772,0.6000289,0.59907055,0.5981262,0.59664786,0.5946427,0.59215206,0.5893439,0.5863089,0.58278716,0.5790789,0.57570815,0.5729951,0.57051796,0.5680758,0.5658333,0.56401086,0.5627066,0.5616299,0.5606189,0.5598614,0.5594208,0.5592613,0.55931365,0.55951774,0.559839,0.5602726,0.560828,0.5614851,0.56226504,0.5631616,0.56413186,0.56512547,0.5661104,0.5671247,0.56803143,0.5686238,0.5686938,0.5682089,0.5680344,0.56896377,0.57059735,0.5728687,0.57679594,0.58160806,0.59016633,0.60492074,0.6207229,0.6314165,0.63861346,0.64276874,0.6444943,0.64379096,0.64233965,0.641464,0.64114153,0.64079845,0.6402786,0.6395272,0.63879055,0.63809973,0.6374887,0.6369693,0.63658804,0.6363902,0.63635945,0.6364552,0.6366068,0.63703185,0.6373496,0.6385597,0.6402942,0.6421696,0.6454253,0.64868766,0.65122056,0.65166515,0.6499411,0.64795315,0.648895,0.6566746,0.6765183,0.7142607,0.7634398,0.8078488,0.83851177,0.8562391,0.86673033,0.8741413,0.8803401,0.8878013,0.89394695,0.9003413,0.90569276,0.9102336,0.9146561,0.91889757,0.9224315,0.9247948,0.9253613,0.9246207,0.92264307,0.9183038,0.9116839,0.9049787,0.89645684,0.87470794,0.82792664,0.755165,0.682263,0.63159895,0.6113387,0.6102389,0.6096072,0.6061083,0.6035663,0.60370195,0.6032164,0.6047472,0.60708964,0.6075527,0.6076064,0.60755295
0.57592666,0.5767896,0.5775163,0.5780684,0.5784687,0.57871544,0.578846,0.5788832,0.5788325,0.57874304,0.5787006,0.57868755,0.57865375,0.5786669,0.5787715,0.5790416,0.5795225,0.58015454,0.5808075,0.58139515,0.5820261,0.582729,0.58347714,0.5842139,0.58488834,0.5854913,0.5860425,0.58653593,0.58700716,0.58746755,0.58787346,0.58823216,0.5885582,0.58888817,0.5892855,0.58964294,0.58999014,0.59032583,0.59064245,0.59093094,0.59119296,0.59143543,0.5916561,0.5918484,0.5920526,0.59226775,0.59248054,0.59270227,0.5929301,0.593143,0.5933325,0.5934802,0.59356314,0.59356916,0.5935055,0.59338754,0.59323275,0.59305155,0.5928471,0.5926268,0.59237576,0.59209263,0.5917902,0.5914773,0.59116125,0.59085464,0.59056944,0.59031534,0.5900628,0.58981776,0.58965254,0.5895718,0.5895088,0.5894333,0.58938795,0.58937293,0.5893797,0.5893935,0.58938056,0.58932316,0.5892236,0.5890908,0.588932,0.58874273,0.5885256,0.58830833,0.5881136,0.58797663,0.58793545,0.58797306,0.5880249,0.58807474,0.58809936,0.5880965,0.5881029,0.58812547,0.5881673,0.5882239,0.58826435,0.5882822,0.5882971,0.5883178,0.588374,0.58843446,0.5884605,0.5884347,0.5883573,0.5882542,0.5881527,0.5880636,0.5879867,0.58795416,0.5879511,0.58794343,0.5879223,0.58785695,0.58776957,0.5876907,0.58761966,0.5875959,0.5876521,0.58777285,0.58792245,0.58809274,0.58825856,0.588447,0.58866477,0.58890927,0.5891824,0.5894768,0.5897609,0.58999825,0.59021413,0.5904236,0.5906378,0.5908742,0.5911281,0.5913859,0.59165394,0.59195226,0.59229374,0.59272367,0.5931992,0.5937219,0.59427524,0.5948287,0.5953711,0.5958859,0.5963861,0.5968865,0.59737694,0.59783983,0.59827197,0.5986719,0.5990338,0.5993669,0.5996861,0.60002863,0.6003902,0.60076255,0.60113275,0.601495,0.6018485,0.6021807,0.60250306,0.60284305,0.60320127,0.6035594,0.60390866,0.6042218,0.60442877,0.6044663,0.60436213,0.60408425,0.6036538,0.60310286,0.6024045,0.6016246,0.6009328,0.60037506,0.5997915,0.59895897,0.59804344,0.59670264,0.5947472,0.5922564,0.5894487,0.58651257,0.58289766,0.579087,0.5755035,0.5725833,0.5700064,0.56748414,0.5652503,0.5634906,0.56217825,0.5610573,0.5600511,0.55933404,0.55895185,0.55883133,0.5589042,0.5591128,0.55943394,0.55989784,0.56048626,0.56120676,0.56204796,0.5630084,0.56405133,0.56505907,0.5659913,0.5670592,0.56790876,0.5685691,0.56870484,0.56840396,0.5685072,0.5696043,0.5711976,0.5733908,0.57804835,0.58283657,0.5933305,0.6095638,0.6238062,0.63338566,0.64010954,0.6442067,0.64555305,0.6446143,0.6430741,0.64208895,0.64166975,0.6414985,0.6409874,0.6402917,0.6395982,0.6388484,0.6380244,0.6371995,0.63650584,0.6360767,0.63593197,0.63609505,0.63654697,0.6369039,0.63801616,0.6392532,0.64018446,0.64230555,0.64448607,0.6479404,0.6509646,0.65209055,0.64980423,0.64673316,0.6472012,0.6529701,0.66602635,0.69698,0.74380785,0.7871512,0.81908345,0.83969176,0.8519091,0.86096954,0.8691771,0.877629,0.88547504,0.89283264,0.8993934,0.9050696,0.91002357,0.91402775,0.91655725,0.91720855,0.9159305,0.9133761,0.9080497,0.90166795,0.8956096,0.88520265,0.86342007,0.81440973,0.74245477,0.6738931,0.6280353,0.6102706,0.6095251,0.6087564,0.60507405,0.6029842,0.6030415,0.6027516,0.6045524,0.6068367,0.60706854,0.6070148,0.6068541
0.57636905,0.57708144,0.5775993,0.5779163,0.57809746,0.5782195,0.5782911,0.5782518,0.5781553,0.5781623,0.5783021,0.5784236,0.57859254,0.57884586,0.5792114,0.57973725,0.58037436,0.5810153,0.58165514,0.58232933,0.583035,0.58379996,0.58449364,0.58511174,0.58569694,0.586233,0.5867049,0.5871106,0.58747655,0.58781064,0.58813727,0.5884659,0.58880043,0.5891435,0.5894791,0.5897765,0.5900778,0.59037435,0.5906643,0.59093577,0.59119,0.5914376,0.5916728,0.59188396,0.59208935,0.5923009,0.59250325,0.59270775,0.5929149,0.5931057,0.5932745,0.59340537,0.59347665,0.5934727,0.5934,0.5932714,0.5931046,0.59291506,0.5927089,0.5924914,0.59224975,0.5919815,0.59169906,0.5914099,0.5911205,0.59084237,0.59058666,0.5903605,0.59013987,0.5899199,0.5897698,0.5896954,0.58964956,0.589607,0.58958817,0.589604,0.5896402,0.5896818,0.5897013,0.5896826,0.589628,0.58954585,0.58943903,0.589298,0.5891251,0.58894646,0.5887842,0.5886716,0.5886377,0.5886674,0.58871233,0.58875304,0.5887735,0.58877444,0.5887819,0.58880424,0.58884513,0.5888972,0.58893335,0.5889497,0.5889591,0.58897334,0.58901894,0.5890702,0.5890912,0.5890634,0.5889883,0.5888926,0.58879364,0.5887046,0.5886295,0.58860064,0.5886028,0.5886029,0.5885926,0.58853996,0.58845794,0.58838224,0.58831316,0.58828455,0.588327,0.5884261,0.5885463,0.5886822,0.58880925,0.58895516,0.58912516,0.5893186,0.58954227,0.5897914,0.59003615,0.5902433,0.59043187,0.59060836,0.5907872,0.590986,0.5912035,0.59143335,0.591681,0.5919534,0.5922828,0.59269154,0.59314334,0.5936368,0.5941574,0.5946788,0.59518814,0.59567136,0.59614044,0.59661067,0.597072,0.59750974,0.5979222,0.59830886,0.59866357,0.5989939,0.59931177,0.5996547,0.60001826,0.6003959,0.6007754,0.6011528,0.6015284,0.60188615,0.6022375,0.60261095,0.6030061,0.60340774,0.6037893,0.6041219,0.6043565,0.6044332,0.6043984,0.6042032,0.603829,0.6033442,0.6027694,0.6021094,0.60138106,0.60061234,0.6000707,0.5995111,0.59892356,0.59794503,0.59653044,0.5946819,0.5923281,0.5896683,0.5867349,0.5832877,0.5790833,0.57538456,0.5722245,0.56926817,0.5667559,0.56466144,0.5629053,0.561615,0.5604943,0.5595366,0.55887413,0.558545,0.55845845,0.55854267,0.5587574,0.5591073,0.5596057,0.5602621,0.56105095,0.5619769,0.56303453,0.56412005,0.5651498,0.5660964,0.5671109,0.5679673,0.5685823,0.56862926,0.56835175,0.5689107,0.5698707,0.5713861,0.57465875,0.5786278,0.58443713,0.5964527,0.6133138,0.62598,0.634929,0.64152855,0.6451448,0.6460518,0.64530087,0.6440085,0.64291966,0.64238775,0.64241505,0.64191437,0.6412317,0.64045346,0.6395756,0.63856244,0.63749623,0.6366215,0.6361201,0.63594234,0.6361058,0.636575,0.6373488,0.6384012,0.6395911,0.6407709,0.6420233,0.6435285,0.64622056,0.6492984,0.6508548,0.64916956,0.64645505,0.64747393,0.6516908,0.66144305,0.68583345,0.72457194,0.76554525,0.7977594,0.8199425,0.8358985,0.8471498,0.8585634,0.86799496,0.8771846,0.8856633,0.8929461,0.89911246,0.9036319,0.90638745,0.90729755,0.905905,0.9028687,0.89682746,0.8910985,0.8866242,0.8760956,0.85395575,0.8039392,0.73260903,0.66672266,0.6246121,0.60896087,0.6082901,0.60781276,0.60400903,0.60267806,0.6021329,0.6024512,0.6044942,0.6063148,0.60643995,0.6063235,0.60606843
0.5765686,0.5770662,0.5773621,0.5775083,0.5776001,0.5776434,0.57758975,0.57750946,0.57754356,0.57775486,0.5780798,0.5783856,0.5787446,0.5792194,0.57981455,0.5804665,0.5811351,0.5818339,0.58256817,0.58334136,0.58402574,0.58465326,0.58523124,0.58576226,0.5862489,0.58669233,0.5870832,0.5874095,0.5877011,0.5879697,0.5883169,0.58869016,0.5890018,0.58927625,0.58956623,0.5898323,0.5901123,0.5903909,0.59067726,0.5909559,0.59121543,0.5914603,0.591686,0.5918908,0.5920881,0.5922857,0.59247,0.5926511,0.59283066,0.5929936,0.5931363,0.5932458,0.5933036,0.5932903,0.5932065,0.59306586,0.59288967,0.59269476,0.5924897,0.59227955,0.592051,0.5918017,0.5915427,0.59128046,0.5910196,0.59077096,0.59054565,0.5903466,0.5901581,0.5899617,0.58982456,0.5897522,0.5897114,0.58968556,0.5896832,0.58971786,0.5897702,0.5898262,0.589865,0.58987284,0.5898515,0.5898082,0.5897427,0.5896431,0.5895095,0.5893683,0.5892399,0.5891529,0.58913213,0.5891633,0.5892041,0.5892416,0.5892633,0.5892696,0.58927786,0.5892986,0.5893358,0.5893812,0.5894114,0.5894241,0.5894302,0.5894349,0.5894669,0.5895046,0.58951724,0.5894885,0.5894173,0.5893295,0.5892351,0.5891497,0.58908045,0.5890601,0.5890745,0.5890894,0.58909404,0.58905554,0.5889823,0.58891284,0.5888495,0.58881986,0.58885145,0.58893204,0.5890277,0.589134,0.5892267,0.58933485,0.5894625,0.5896112,0.58979195,0.5900019,0.5902128,0.59039587,0.5905629,0.590714,0.59086525,0.59103394,0.5912226,0.59143066,0.59166604,0.5919338,0.5922482,0.5926347,0.5930513,0.5935095,0.59399825,0.5944874,0.5949652,0.59541845,0.59585845,0.5963007,0.5967369,0.5971529,0.597548,0.5979226,0.5982703,0.5985962,0.5989109,0.599252,0.59961474,0.5999938,0.60037804,0.60076517,0.6011561,0.6015319,0.6019029,0.60229814,0.6027174,0.60314435,0.6035571,0.6039298,0.60421443,0.60434943,0.6043494,0.6042177,0.6039232,0.6035241,0.6030476,0.60251963,0.6019623,0.6013214,0.6005268,0.59995687,0.59942794,0.598832,0.5978518,0.59638476,0.59460175,0.59247965,0.5898791,0.5868951,0.5836574,0.57953495,0.57535005,0.57184565,0.5687243,0.5660307,0.5641265,0.5623212,0.56108356,0.5600189,0.55909646,0.55851203,0.5582366,0.5581691,0.55826676,0.5584981,0.5588907,0.5594648,0.56020474,0.56108505,0.5621017,0.5632371,0.5644056,0.56545967,0.5662956,0.5672712,0.56815696,0.56867945,0.5687933,0.568586,0.5691558,0.5702904,0.5717473,0.5751213,0.5788843,0.58606863,0.60047996,0.6168347,0.62794197,0.6368598,0.6428276,0.6458198,0.6466433,0.646139,0.64493,0.6437428,0.6433251,0.6433848,0.64288616,0.6420585,0.6411445,0.640113,0.63890326,0.6376773,0.63680685,0.6362847,0.6361675,0.6364136,0.6368973,0.6377377,0.6389343,0.6402315,0.6419327,0.64233685,0.6433282,0.6456605,0.64821875,0.6496085,0.648906,0.6467637,0.6474601,0.65115213,0.65825415,0.6778518,0.7084745,0.7445288,0.7786627,0.80332094,0.82152116,0.8357142,0.8492819,0.8602283,0.8692311,0.87762344,0.8850702,0.8905355,0.8939508,0.8953185,0.89456946,0.8915577,0.8854612,0.880631,0.8781018,0.8691094,0.84601396,0.79581445,0.725152,0.661358,0.6220366,0.6077403,0.6068616,0.60664046,0.6031183,0.6022742,0.6013201,0.60205615,0.6042229,0.60568285,0.60571903,0.6055504,0.6052666
0.57643014,0.5766984,0.5768554,0.5769602,0.5769557,0.576911,0.5767981,0.57683575,0.57716155,0.57761955,0.5780728,0.57859147,0.5791987,0.57987225,0.5805111,0.5811862,0.58197,0.5827681,0.5834619,0.58409333,0.5846913,0.58522403,0.5856935,0.5861151,0.58650017,0.586855,0.58717436,0.5874374,0.58771443,0.58805996,0.58841217,0.5887367,0.58902526,0.58929056,0.58957326,0.58984125,0.5901462,0.59045374,0.5907439,0.5910108,0.5912584,0.59148866,0.5916977,0.5918849,0.592061,0.59222853,0.59237826,0.59252137,0.5926609,0.5927862,0.59289575,0.59298074,0.59301925,0.5929904,0.5928954,0.59274757,0.5925679,0.592375,0.5921775,0.59198034,0.5917698,0.5915432,0.59130967,0.59107417,0.59084105,0.59062034,0.5904219,0.5902477,0.5900785,0.58990175,0.5897752,0.58970416,0.58966374,0.58964086,0.5896406,0.5896789,0.5897327,0.58978796,0.5898305,0.58984786,0.5898417,0.58981955,0.5897803,0.58971226,0.5896113,0.58950377,0.58940923,0.5893492,0.58934516,0.58938515,0.5894303,0.5894698,0.58949924,0.58951735,0.58953214,0.5895531,0.5895845,0.5896187,0.5896368,0.58964086,0.58963656,0.58962643,0.58964276,0.5896671,0.5896716,0.58964163,0.58957624,0.58949816,0.58941376,0.58934015,0.5892862,0.5892837,0.58931744,0.5893518,0.58937335,0.58935106,0.58928907,0.58922714,0.58917284,0.5891481,0.5891733,0.58923733,0.589312,0.5893916,0.5894551,0.58953106,0.5896236,0.58973753,0.58988595,0.5900663,0.5902521,0.5904193,0.59057224,0.5907075,0.59084225,0.5909925,0.591164,0.591359,0.59158444,0.5918454,0.59214735,0.59250903,0.59289885,0.59332746,0.5937841,0.594242,0.5946904,0.59511614,0.59553087,0.59594893,0.59636253,0.5967586,0.59713745,0.59750056,0.59784067,0.59816074,0.59847045,0.59880626,0.5991632,0.5995381,0.5999197,0.60030663,0.6007013,0.601083,0.60146034,0.6018628,0.60228986,0.6027247,0.60314727,0.60353696,0.60385334,0.6040413,0.6041125,0.60408026,0.60392976,0.6036381,0.6032487,0.60284007,0.6024301,0.60195726,0.60138667,0.60063004,0.59999406,0.59939647,0.59870934,0.59770155,0.59621906,0.59448314,0.5925206,0.5897536,0.58694714,0.58365405,0.57956433,0.5751014,0.57106626,0.5679916,0.56560254,0.5634769,0.5617988,0.56065387,0.5596652,0.5587851,0.5582881,0.5580424,0.55799854,0.55811346,0.55838513,0.5588552,0.55951905,0.56034255,0.56130314,0.5623678,0.56347287,0.56465095,0.5656934,0.56655717,0.5675036,0.56831247,0.5685973,0.56864166,0.5686764,0.5694413,0.5704603,0.5725879,0.57602787,0.5805746,0.58926344,0.6053492,0.6197831,0.63072443,0.6389868,0.6440899,0.64634895,0.6470481,0.64689827,0.6456766,0.64450926,0.64422584,0.6440848,0.6436484,0.64278746,0.6417357,0.64068913,0.639554,0.6383344,0.6374213,0.63685095,0.63670874,0.636925,0.6373445,0.6379547,0.6388725,0.6399962,0.640918,0.64184266,0.64296865,0.64440334,0.6465568,0.6488081,0.6495234,0.64925414,0.6504524,0.654464,0.6615801,0.6759335,0.69982684,0.72940326,0.75867707,0.7858274,0.80661273,0.8238987,0.83793664,0.84957874,0.8587956,0.86650705,0.8741672,0.8789574,0.8812611,0.88131213,0.87909836,0.87425935,0.8706323,0.86927414,0.8618624,0.8385186,0.78885835,0.71894085,0.6566938,0.6196649,0.60653293,0.6054462,0.60562515,0.60238695,0.60158473,0.60038674,0.6016276,0.60387355,0.60498893,0.6049713,0.604728,0.6044816
0.5760863,0.576239,0.57630485,0.5762959,0.5762313,0.5759848,0.5759693,0.57630825,0.57685065,0.5775137,0.57825816,0.57905,0.5797115,0.5804149,0.5812129,0.5820355,0.5828198,0.5835538,0.5842093,0.5847832,0.5852996,0.5857396,0.5861059,0.5864454,0.5867682,0.58705366,0.5873182,0.58756554,0.5878369,0.5881377,0.58844423,0.588737,0.5890063,0.5892752,0.5895823,0.5898668,0.59016836,0.5904668,0.59074783,0.5910034,0.5912362,0.5914494,0.5916375,0.59180105,0.59194934,0.5920831,0.59219855,0.5923079,0.59241456,0.5925105,0.5925948,0.5926583,0.5926809,0.59264314,0.59254515,0.59239835,0.59222436,0.59204304,0.5918636,0.5916878,0.59150314,0.59130406,0.5910983,0.59088975,0.5906824,0.5904862,0.5903093,0.5901536,0.5900041,0.5898434,0.5897239,0.58965355,0.5896071,0.589574,0.5895691,0.5896025,0.5896495,0.58969647,0.5897336,0.5897502,0.5897477,0.589734,0.5897088,0.58966196,0.5895866,0.5895082,0.58944356,0.58940846,0.58942145,0.5894742,0.58953106,0.58958125,0.5896231,0.58965385,0.5896746,0.5896963,0.58972335,0.5897466,0.5897513,0.5897428,0.5897244,0.58969015,0.5896797,0.5896878,0.58968973,0.5896627,0.5896014,0.5895363,0.58946836,0.58941364,0.5893817,0.5894027,0.58945954,0.58951575,0.5895571,0.5895537,0.58950824,0.58946323,0.5894208,0.58940125,0.58942384,0.58947885,0.5895407,0.58960307,0.58964676,0.5897002,0.5897682,0.5898601,0.5899874,0.5901444,0.5903089,0.5904637,0.5906054,0.5907295,0.59085274,0.59099007,0.5911482,0.59133136,0.59154767,0.5918046,0.5920944,0.5924322,0.59279716,0.5931996,0.5936284,0.59405845,0.5944803,0.59488183,0.5952745,0.5956716,0.5960656,0.59644413,0.5968071,0.59715664,0.59748685,0.5977988,0.598101,0.5984285,0.5987755,0.5991398,0.59951115,0.5998877,0.6002724,0.6006446,0.601012,0.601403,0.6018145,0.60223246,0.6026399,0.6030175,0.6033335,0.60354817,0.603665,0.6036943,0.60364795,0.6035291,0.6033012,0.6029959,0.6026803,0.6023187,0.6019097,0.6013725,0.6007751,0.5999799,0.59922254,0.5985676,0.5976328,0.5962281,0.59458864,0.592508,0.59000343,0.5871289,0.5834807,0.578994,0.5743639,0.57036245,0.5673641,0.56495166,0.5628438,0.5614025,0.5603644,0.55939895,0.55864036,0.5582114,0.55802315,0.5580148,0.55817455,0.5585339,0.55910015,0.5598434,0.56071436,0.56167126,0.5627399,0.5637723,0.5648484,0.56588787,0.5668521,0.5678174,0.56857836,0.5686916,0.5685891,0.56903577,0.56979823,0.5710039,0.5736339,0.57749784,0.5831513,0.5938238,0.6105565,0.6237911,0.6341439,0.6412384,0.645244,0.6470959,0.6477756,0.6475735,0.64645624,0.64549863,0.6452321,0.6449038,0.644475,0.6437718,0.6426213,0.6415596,0.6405672,0.63937515,0.6383368,0.6376817,0.63746154,0.6376846,0.6381234,0.63846415,0.6391082,0.64013845,0.6412109,0.6420921,0.64380306,0.6458062,0.64751697,0.6496912,0.6504129,0.65158653,0.6536132,0.65693414,0.6626227,0.6714871,0.6870005,0.7116739,0.7365496,0.76433253,0.7900442,0.8111299,0.827682,0.84036225,0.8497602,0.8570862,0.86353666,0.86615527,0.86725247,0.86598045,0.86323726,0.8613138,0.8603852,0.8542085,0.8308884,0.7821981,0.7133995,0.6524858,0.61734045,0.6053605,0.6042671,0.6047543,0.6017381,0.6009867,0.59988487,0.60136896,0.60350907,0.60432523,0.60421693,0.60395694,0.6037209
0.57560563,0.57565635,0.5756564,0.5755868,0.5752212,0.575181,0.57545066,0.57598037,0.5767662,0.5777185,0.57869804,0.57941693,0.5801827,0.58100724,0.5818516,0.5826905,0.5834851,0.58418643,0.5847862,0.58529234,0.5857841,0.5862118,0.586574,0.5868783,0.5871251,0.5873287,0.5875182,0.58770275,0.5879178,0.5881624,0.5884247,0.5887078,0.5889893,0.5892589,0.58955526,0.5898316,0.59012055,0.5904032,0.5906653,0.59089875,0.5911063,0.5912914,0.5914495,0.591582,0.5916987,0.59179854,0.5918823,0.59196407,0.5920471,0.5921244,0.59219587,0.5922494,0.5922681,0.592232,0.592141,0.5920061,0.5918486,0.59168863,0.5915339,0.5913845,0.59122777,0.59105754,0.5908782,0.5906931,0.5905067,0.59032905,0.59016883,0.5900272,0.589893,0.5897591,0.5896549,0.5895767,0.5895175,0.5894817,0.5894737,0.58950186,0.5895437,0.5895847,0.5896182,0.5896356,0.5896381,0.5896318,0.589617,0.5895877,0.589535,0.58948267,0.58944416,0.58943045,0.58945894,0.5895253,0.58959687,0.5896612,0.58972,0.58976585,0.58979666,0.58982277,0.5898464,0.5898583,0.589846,0.58981305,0.58976704,0.589717,0.58969057,0.589679,0.5896616,0.5896237,0.5895677,0.58951855,0.58947325,0.58945006,0.5894501,0.58949983,0.5895835,0.58966464,0.58972836,0.589746,0.5897194,0.5896867,0.58965206,0.58963406,0.589652,0.58969784,0.58974665,0.58979464,0.5898243,0.5898609,0.58991134,0.5899849,0.5900916,0.59022593,0.59036946,0.5905082,0.59063494,0.59074557,0.5908557,0.5909794,0.5911238,0.5912931,0.5914951,0.5917386,0.5920139,0.59233254,0.5926755,0.5930538,0.5934577,0.59386325,0.59426147,0.59464115,0.59501386,0.5953904,0.59576416,0.5961229,0.5964664,0.59679735,0.5971106,0.59740794,0.5976958,0.5980069,0.5983362,0.59868175,0.5990345,0.599393,0.59975946,0.6001146,0.6004653,0.60083604,0.6012241,0.601617,0.6020007,0.6023607,0.6026708,0.60289794,0.60304934,0.60313416,0.6031629,0.6031545,0.6030792,0.6029311,0.60274625,0.6025179,0.6022183,0.6018157,0.60137904,0.6007842,0.59995174,0.599154,0.59855366,0.5977038,0.5963545,0.59463614,0.5923859,0.58986557,0.5867612,0.58273995,0.57802117,0.57321864,0.56964874,0.56665695,0.56420726,0.5623745,0.5611919,0.56025076,0.55924875,0.55858314,0.5582078,0.55803525,0.5580583,0.55828536,0.55872643,0.5593618,0.56013703,0.56099415,0.5619182,0.5629615,0.5640104,0.5651338,0.56614745,0.5670868,0.5680376,0.56862825,0.56867826,0.56869024,0.569231,0.5700705,0.57173896,0.5747634,0.5789391,0.5853461,0.5993859,0.6151563,0.6279373,0.6370637,0.64304435,0.6464143,0.6480022,0.6487342,0.6485738,0.6474858,0.6467072,0.64647776,0.64613724,0.6455376,0.64482164,0.6436859,0.6425524,0.6416017,0.64053655,0.63963616,0.6390245,0.63877124,0.63884354,0.63902164,0.6392671,0.63984096,0.64080983,0.6419902,0.64358985,0.6449951,0.64602035,0.6475748,0.64881825,0.6496086,0.65140885,0.654572,0.6576587,0.6612185,0.6674425,0.67793155,0.6946676,0.7159159,0.74411243,0.77252805,0.79518414,0.8127572,0.8270774,0.83690214,0.8440964,0.84888756,0.85147643,0.8513876,0.850863,0.8507123,0.85016906,0.8447811,0.8218771,0.77447665,0.70755047,0.64827895,0.61511576,0.60442686,0.60331863,0.60395116,0.6011125,0.6003111,0.599409,0.60093176,0.6029177,0.6035588,0.6033515,0.60307205,0.60287136
0.5751363,0.5750998,0.5750241,0.5747254,0.57452714,0.57470083,0.5752051,0.5760008,0.57709193,0.57826126,0.57912064,0.57988334,0.58072495,0.58160436,0.5824597,0.5832801,0.584032,0.5846834,0.5852811,0.58579445,0.5862552,0.5866399,0.58695793,0.5872109,0.5873965,0.58753735,0.58766896,0.5877996,0.5879588,0.5881835,0.58844304,0.5887178,0.58898747,0.5892496,0.5895357,0.5898002,0.59007293,0.590335,0.5905739,0.5907798,0.59095407,0.591102,0.59122145,0.5913167,0.59139615,0.591459,0.5915102,0.5915643,0.59162647,0.59169084,0.59175324,0.5917981,0.59181434,0.59178233,0.59170294,0.59158516,0.5914495,0.591315,0.59118724,0.59106445,0.5909356,0.59079254,0.5906372,0.5904732,0.5903053,0.59014386,0.5899979,0.5898702,0.5897505,0.5896344,0.5895436,0.58947206,0.5894166,0.58938396,0.5893748,0.5893991,0.5894369,0.5894742,0.5895061,0.58952457,0.58952945,0.58952725,0.5895218,0.5895088,0.58947694,0.5894478,0.589432,0.58943594,0.5894765,0.5895536,0.589638,0.58971655,0.5897932,0.58985364,0.589896,0.5899293,0.5899526,0.5899551,0.58992803,0.58988035,0.58981776,0.5897522,0.5897068,0.58967364,0.5896363,0.58958626,0.5895301,0.5894925,0.5894675,0.5894778,0.5895162,0.5895967,0.5897038,0.58980626,0.58988845,0.58992386,0.5899124,0.58988875,0.589858,0.58983845,0.58985,0.58988684,0.5899253,0.5899612,0.5899794,0.5900034,0.5900389,0.5900973,0.59018654,0.5903014,0.5904277,0.5905502,0.5906618,0.5907606,0.59086025,0.59097135,0.59110117,0.59125483,0.5914401,0.5916651,0.59192187,0.59222,0.5925402,0.59289414,0.59327304,0.59365416,0.5940285,0.5943866,0.5947394,0.595096,0.5954489,0.5957861,0.59610724,0.5964151,0.59670633,0.59698296,0.5972506,0.59753954,0.5978458,0.5981673,0.5984963,0.5988319,0.5991766,0.5995122,0.5998435,0.60019284,0.6005577,0.60092694,0.60128874,0.6016317,0.6019378,0.60218257,0.6023678,0.6025064,0.60260916,0.60268927,0.60275316,0.6027674,0.6027088,0.6026155,0.60244334,0.60218585,0.6018636,0.6014888,0.6008947,0.60010904,0.5993847,0.59873253,0.5978594,0.5964525,0.59450275,0.5921273,0.58932734,0.5859662,0.5818619,0.57704806,0.57221186,0.5686137,0.5658505,0.56364083,0.5621016,0.5610995,0.5601386,0.55912024,0.5585338,0.5581673,0.5580159,0.55809593,0.558389,0.5588783,0.5595368,0.5602918,0.5611187,0.56207037,0.5631813,0.56428593,0.5653739,0.56635803,0.56721604,0.5680836,0.5683994,0.5684099,0.56878287,0.56942177,0.5703552,0.5723065,0.57553303,0.5798881,0.5880634,0.60398924,0.6199827,0.6317105,0.6396377,0.6449416,0.647752,0.64895535,0.64976794,0.64939064,0.6483636,0.6480807,0.6479877,0.6474418,0.6467455,0.6460005,0.64496994,0.643793,0.64265597,0.6416975,0.64084446,0.64011395,0.63963836,0.6394533,0.63954765,0.63992023,0.640579,0.64158654,0.64313257,0.6449485,0.6465063,0.64763355,0.6484258,0.64928275,0.65018064,0.65172637,0.65379727,0.65596247,0.65827006,0.6618371,0.66887593,0.681715,0.7007274,0.726887,0.75471663,0.7788687,0.79770005,0.8114894,0.8218454,0.8297392,0.8344415,0.8361882,0.8377631,0.8389504,0.8386587,0.8337736,0.8115406,0.76571524,0.7011197,0.6444783,0.6133374,0.60349834,0.6024691,0.6031792,0.60042906,0.599544,0.59884316,0.60035086,0.60218537,0.60269964,0.6023917,0.60207605,0.60194004
0.57471925,0.57464427,0.57441294,0.5741552,0.57430476,0.57475805,0.5755442,0.5766454,0.5778029,0.5787686,0.57962716,0.5804634,0.5813142,0.58216506,0.58296835,0.5837009,0.5843847,0.5850345,0.58561367,0.5860965,0.58651054,0.58685124,0.5871279,0.5873487,0.58750963,0.5876248,0.58773685,0.5878729,0.58803976,0.58826256,0.5885186,0.5887859,0.58904463,0.58929825,0.5895723,0.5898186,0.5900663,0.590297,0.5904997,0.5906647,0.5907934,0.5908929,0.5909645,0.59101564,0.5910536,0.5910787,0.591098,0.59112835,0.59117496,0.59122914,0.5912836,0.59132385,0.5913408,0.5913162,0.59125066,0.59115225,0.5910394,0.59093,0.59082836,0.59073085,0.5906284,0.5905107,0.59037846,0.59023505,0.59008604,0.589942,0.589813,0.589702,0.5896002,0.58950365,0.589431,0.5893763,0.5893357,0.58931285,0.5893078,0.5893326,0.58936954,0.58940643,0.58943915,0.58946115,0.5894705,0.58947337,0.5894766,0.58947694,0.5894625,0.58945084,0.58945113,0.5894662,0.58951277,0.58959484,0.58968747,0.5897777,0.58986944,0.5899451,0.58999956,0.5900402,0.5900645,0.59006244,0.5900284,0.589975,0.58990544,0.5898287,0.5897713,0.58972394,0.5896742,0.5896186,0.58956456,0.5895393,0.5895357,0.5895594,0.5896113,0.5897088,0.589833,0.58994967,0.5900444,0.59009385,0.59009576,0.59008014,0.59005326,0.59003294,0.5900396,0.5900695,0.59010077,0.59012914,0.59013975,0.59015536,0.5901803,0.5902272,0.5903034,0.5904032,0.5905142,0.5906234,0.59072304,0.59081215,0.5909026,0.5910003,0.59111166,0.59124446,0.59140694,0.5916074,0.5918383,0.5921093,0.5924016,0.59272647,0.5930758,0.59342813,0.5937761,0.59410965,0.5944401,0.5947754,0.59510624,0.5954206,0.5957173,0.5960002,0.5962669,0.5965196,0.5967636,0.5970268,0.59730643,0.59760153,0.5979049,0.59821606,0.5985379,0.5988523,0.5991643,0.59949446,0.5998394,0.60018945,0.60053384,0.6008637,0.6011679,0.601431,0.6016498,0.6018417,0.6020143,0.6021782,0.6023464,0.6025001,0.6025976,0.6026219,0.6025734,0.6024469,0.60224766,0.602018,0.6017095,0.60120106,0.60048574,0.59974116,0.59905756,0.5979445,0.5963712,0.5942049,0.5915712,0.5885916,0.585155,0.5811143,0.5763109,0.57105756,0.5676677,0.56533754,0.56341577,0.5620395,0.56105614,0.5599648,0.5590677,0.55845356,0.55808705,0.5579768,0.55810094,0.5584265,0.55892944,0.55957276,0.5603143,0.5611819,0.56224537,0.5633648,0.56445396,0.5654316,0.56631404,0.5672288,0.5679301,0.56792414,0.56821334,0.56875473,0.56933737,0.5704238,0.57275265,0.57624805,0.5799085,0.5911978,0.60837126,0.6236439,0.6343716,0.64173037,0.6463525,0.64852136,0.64971936,0.6503246,0.6497687,0.6492852,0.64934945,0.6492269,0.64850223,0.64776516,0.64708114,0.6461242,0.6449423,0.6438465,0.6428896,0.6420454,0.6412667,0.6405299,0.6401942,0.6402457,0.6406115,0.6412004,0.6422368,0.6437851,0.64558494,0.64725375,0.6483293,0.64892006,0.64933074,0.64979005,0.6507031,0.65223515,0.6542148,0.65654933,0.6595932,0.6654871,0.6754551,0.6922735,0.7146978,0.7401743,0.764683,0.783548,0.7972232,0.80845,0.81636363,0.82091546,0.8245001,0.8265008,0.82650733,0.82249343,0.8008728,0.75684464,0.69486964,0.64125717,0.6119827,0.60266703,0.60173917,0.6024544,0.5997201,0.59872246,0.59811413,0.59961456,0.60138476,0.6018523,0.60147405,0.60109377,0.6010182
0.5742943,0.5741238,0.5738869,0.5740184,0.5745128,0.57533073,0.57637936,0.5774858,0.5784863,0.5793821,0.5802963,0.5811399,0.58194804,0.5827222,0.5834071,0.58405787,0.5847163,0.58532304,0.58582586,0.58623266,0.586586,0.5868881,0.58713484,0.5873389,0.58750653,0.587643,0.58777416,0.58792746,0.5881127,0.58833706,0.58858883,0.58885425,0.5891113,0.5893588,0.5896188,0.5898434,0.59006065,0.5902554,0.590417,0.59053665,0.5906169,0.5906671,0.59069264,0.59070385,0.59070647,0.59070146,0.5906962,0.59070843,0.5907427,0.5907886,0.5908381,0.5908781,0.59089994,0.5908859,0.5908364,0.59075797,0.5906666,0.5905791,0.5904994,0.5904224,0.5903406,0.5902432,0.59013,0.59000456,0.5898732,0.5897461,0.58963364,0.5895393,0.5894563,0.58938134,0.5893309,0.58929706,0.5892752,0.58926743,0.5892719,0.5892995,0.5893376,0.5893745,0.5894074,0.58942926,0.5894377,0.58943874,0.58944124,0.5894451,0.5894399,0.58943784,0.5894469,0.589468,0.5895169,0.58960056,0.58969855,0.58979696,0.5899004,0.5899899,0.5900577,0.5901077,0.59013724,0.59013635,0.5901001,0.59004563,0.5899751,0.58989555,0.5898346,0.5897835,0.589733,0.58968085,0.58963156,0.58961535,0.5896199,0.58964974,0.58970606,0.58980846,0.5899371,0.5900556,0.5901514,0.5902074,0.5902175,0.590206,0.59018135,0.59016,0.59016174,0.59018505,0.5902094,0.5902302,0.5902363,0.5902487,0.5902705,0.59031266,0.59038246,0.59047496,0.59057933,0.59068406,0.590781,0.59086907,0.5909569,0.59104574,0.5911423,0.59125566,0.59139514,0.59157026,0.5917757,0.5920197,0.5922848,0.59258217,0.5929029,0.5932268,0.59354836,0.59385693,0.5941645,0.5944773,0.5947857,0.59507656,0.59534883,0.59560555,0.5958453,0.5960709,0.59628737,0.5965214,0.59677136,0.59703815,0.5973155,0.5976032,0.597904,0.5981998,0.59849405,0.59880793,0.59913874,0.5994774,0.599813,0.6001377,0.6004463,0.60072935,0.6009801,0.6012176,0.60144687,0.60168016,0.60192144,0.60217494,0.6024135,0.60255766,0.60260606,0.60258204,0.6024991,0.602371,0.6022364,0.60202384,0.6015843,0.6009122,0.6001481,0.5991875,0.597824,0.59604245,0.59373254,0.5909353,0.5879078,0.58471215,0.5809188,0.5755596,0.570235,0.56694037,0.56500536,0.5632964,0.56191474,0.5608464,0.5597756,0.5588584,0.55823755,0.557914,0.55785775,0.5580296,0.5583843,0.5588938,0.55954,0.56033707,0.5612942,0.56240624,0.5634899,0.5644748,0.56541544,0.5662924,0.5672563,0.5674417,0.56755614,0.5680357,0.568609,0.56923413,0.5706202,0.57317066,0.575703,0.5811976,0.5946988,0.61219627,0.62683856,0.63668585,0.643402,0.6471381,0.6487955,0.64997005,0.65028936,0.64997333,0.6500524,0.65027964,0.6497927,0.6490121,0.6483784,0.64774024,0.6469493,0.64593625,0.6448774,0.6438914,0.64293283,0.64202166,0.6413362,0.640804,0.64064896,0.6408216,0.64130676,0.64211607,0.6433289,0.6449569,0.6465857,0.6476971,0.648697,0.64904296,0.64927554,0.65022016,0.6520287,0.6543541,0.6569244,0.65948415,0.6643803,0.67224896,0.68546164,0.70526266,0.72943985,0.7532288,0.77195525,0.78653777,0.7979014,0.8056768,0.8111943,0.814469,0.81561035,0.81180537,0.7905776,0.7484485,0.68922377,0.6385881,0.6109758,0.6020109,0.6010579,0.6016413,0.599028,0.5978036,0.59726834,0.5988307,0.6005628,0.6009582,0.60053843,0.60017866,0.6001606
0.5737909,0.57364607,0.5737316,0.5742537,0.57510257,0.5761415,0.57720053,0.57816505,0.5791087,0.58010375,0.58099097,0.5817922,0.5825347,0.58320343,0.5838088,0.58443224,0.585047,0.58554924,0.5859566,0.5862868,0.5865792,0.58683646,0.5870632,0.5872675,0.58744943,0.58761066,0.5877645,0.5879249,0.58811307,0.5883393,0.58859074,0.58885384,0.58910716,0.5893463,0.5895896,0.5897908,0.58997786,0.59013855,0.5902638,0.5903468,0.59039104,0.5904066,0.59040207,0.5903894,0.5903722,0.590351,0.5903327,0.59033465,0.59036124,0.59040225,0.5904501,0.59049106,0.5905186,0.5905144,0.5904799,0.5904195,0.5903468,0.5902769,0.5902131,0.5901509,0.5900836,0.5900004,0.58990157,0.58979094,0.5896752,0.5895643,0.5894679,0.5893899,0.58932525,0.5892706,0.58924127,0.58922744,0.5892221,0.5892266,0.5892395,0.58926797,0.5893041,0.589337,0.5893643,0.5893779,0.5893754,0.5893648,0.58935606,0.5893527,0.58934796,0.5893483,0.58936083,0.58938503,0.5894351,0.58951914,0.5896204,0.58972436,0.5898358,0.5899362,0.5900166,0.5900778,0.590116,0.5901209,0.59008723,0.5900359,0.58996916,0.5898939,0.5898347,0.58978623,0.5897415,0.58969593,0.5896516,0.58964133,0.5896475,0.5896843,0.58974516,0.5898442,0.589965,0.5900757,0.5901655,0.59022295,0.59023666,0.59022737,0.5902041,0.59018195,0.5901791,0.59019506,0.590212,0.5902259,0.5902278,0.5902401,0.59026396,0.59030855,0.59037924,0.59047186,0.59057873,0.5906884,0.590792,0.59088933,0.59098333,0.591074,0.5911663,0.59126854,0.59139085,0.59154594,0.5917306,0.5919517,0.5921936,0.5924663,0.5927608,0.59305805,0.5933536,0.59363806,0.5939229,0.59421325,0.5944993,0.59476775,0.5950165,0.595248,0.5954607,0.5956595,0.59584856,0.5960543,0.5962765,0.5965177,0.59677243,0.5970403,0.59732383,0.5976054,0.5978859,0.5981878,0.59850854,0.5988398,0.59917057,0.599494,0.5998076,0.600106,0.6003805,0.60065,0.6009189,0.6012007,0.6014967,0.601809,0.6021261,0.6023874,0.60252887,0.6025888,0.60259557,0.60256463,0.60253024,0.6024715,0.60228974,0.6018961,0.6012175,0.60025924,0.5989729,0.5974291,0.5955212,0.59308463,0.5902308,0.5873295,0.58451045,0.5805729,0.5746408,0.56941736,0.5663403,0.56450254,0.5628716,0.56157225,0.5604651,0.5594156,0.55853105,0.55795276,0.5576986,0.5577105,0.55793095,0.55830956,0.5588409,0.55954766,0.5604179,0.56143916,0.5625324,0.5635804,0.56451833,0.565398,0.5663812,0.5669533,0.5670613,0.5673869,0.5679003,0.5684304,0.5692915,0.57090425,0.5734566,0.5762234,0.58353627,0.59868026,0.6163173,0.6299759,0.6387292,0.6444119,0.64734447,0.64875424,0.649836,0.65012974,0.6503099,0.6506423,0.6505346,0.64992774,0.64921784,0.6485875,0.64807266,0.64737743,0.6464801,0.6454215,0.64431477,0.64339244,0.64253604,0.641629,0.64094365,0.6406454,0.6406857,0.64098203,0.641539,0.6424222,0.6437365,0.64523786,0.64669746,0.64773035,0.64832765,0.6488533,0.64992875,0.65188384,0.6540297,0.6561986,0.65861166,0.6623604,0.66951275,0.68145967,0.69929624,0.722558,0.745679,0.76441944,0.7794632,0.789654,0.79708195,0.80314493,0.80651283,0.8022105,0.7814212,0.74159944,0.68499935,0.6367694,0.61033803,0.6015192,0.60042095,0.60078156,0.598371,0.5968449,0.5963994,0.5980724,0.599715,0.5999826,0.5995709,0.5992813,0.59930396
0.57337457,0.5735208,0.574029,0.5748118,0.57587504,0.5768819,0.5778188,0.5787976,0.5798056,0.58073854,0.58156765,0.5823047,0.5829623,0.5835515,0.58414185,0.58472383,0.5852319,0.58563995,0.58597267,0.58624184,0.5864931,0.5867195,0.58693826,0.5871515,0.587342,0.5875082,0.5876719,0.58784413,0.58803916,0.58826584,0.5885124,0.58876646,0.589008,0.5892322,0.5894543,0.58962953,0.5897875,0.58991504,0.59000754,0.5900633,0.59008545,0.59008265,0.5900645,0.5900427,0.5900192,0.5899941,0.5899723,0.5899714,0.58999646,0.59003663,0.5900849,0.5901277,0.59016013,0.59016466,0.590142,0.5900964,0.59003997,0.5899849,0.5899341,0.58988357,0.58982795,0.58975613,0.5896698,0.5895734,0.58947253,0.5893781,0.589299,0.5892383,0.58919215,0.5891566,0.58914554,0.58914816,0.58915544,0.5891673,0.5891834,0.58921057,0.5892414,0.58926684,0.58928406,0.58928406,0.5892664,0.5892408,0.5892172,0.58920157,0.5891926,0.5891912,0.58920366,0.589229,0.5892793,0.58936214,0.5894642,0.58957183,0.5896882,0.5897968,0.58988786,0.58996,0.5900079,0.59002155,0.5899962,0.58995247,0.5898926,0.5898238,0.5897697,0.5897263,0.58968705,0.5896467,0.5896082,0.58960366,0.58961654,0.5896562,0.5897141,0.58980286,0.5899099,0.5900091,0.5900924,0.59014857,0.59016424,0.5901574,0.59013665,0.5901147,0.5901077,0.5901169,0.590129,0.59014034,0.59013855,0.5901513,0.5901785,0.59022915,0.5903063,0.59040445,0.590518,0.5906372,0.59075105,0.59086096,0.59096575,0.59106433,0.5911592,0.591256,0.5913663,0.5915061,0.5916721,0.5918729,0.59209275,0.592341,0.5926093,0.59287983,0.59314907,0.5934092,0.59367114,0.59393907,0.59420335,0.5944506,0.59467745,0.59488606,0.5950755,0.5952509,0.59541696,0.5955995,0.5957997,0.5960213,0.5962583,0.59651,0.59677905,0.59704757,0.5973171,0.5976088,0.5979191,0.5982408,0.59856415,0.5988833,0.59919626,0.5994997,0.5997871,0.6000767,0.60037255,0.6006892,0.6010278,0.6013794,0.60173595,0.602073,0.60231626,0.6024609,0.602548,0.602607,0.6026575,0.6026701,0.6025932,0.60240483,0.60201395,0.6011634,0.59999245,0.5984895,0.59678614,0.5947783,0.59218955,0.5892569,0.58688027,0.583856,0.5797266,0.57376754,0.56844807,0.56551266,0.5638008,0.5622746,0.5610574,0.5600425,0.55901533,0.5581759,0.55768013,0.55750823,0.5575808,0.55784345,0.55824673,0.55884266,0.55961585,0.5605233,0.56156963,0.5626529,0.56364024,0.56456286,0.5654713,0.566311,0.5667348,0.5668689,0.5671708,0.56776565,0.56853485,0.5696808,0.5715332,0.5741159,0.57719314,0.5866835,0.60345787,0.6206825,0.63256025,0.6403024,0.6451565,0.6473732,0.64894176,0.6497991,0.65019494,0.6505786,0.6508076,0.650452,0.6499016,0.64927363,0.6486331,0.64810646,0.64754665,0.6467584,0.64574444,0.64465547,0.6436174,0.64265025,0.6417284,0.64086616,0.64028466,0.6401051,0.64026004,0.6406647,0.6412604,0.64214385,0.64329517,0.64501244,0.6464224,0.6473471,0.6484053,0.64974535,0.6513783,0.6534164,0.6551674,0.6578828,0.6617899,0.6683514,0.67977375,0.6968251,0.71893483,0.741412,0.76042646,0.77322197,0.7833794,0.7927762,0.79820025,0.793926,0.77392435,0.736575,0.68263143,0.63595176,0.6099691,0.60112226,0.599807,0.5999006,0.59773195,0.59598553,0.59558344,0.59732103,0.59883773,0.5989938,0.59863245,0.59837663,0.5984182
0.57337826,0.5738568,0.5745791,0.5755778,0.5765635,0.5774917,0.5784718,0.5794705,0.58040047,0.5812457,0.5819807,0.58262455,0.583194,0.5837651,0.58430195,0.5847878,0.58521044,0.58555424,0.5858425,0.58608186,0.58631885,0.5865474,0.5867628,0.5869744,0.58717656,0.58736026,0.5875387,0.5877175,0.58791465,0.5881362,0.58837116,0.5886079,0.5888284,0.589029,0.5892242,0.58937126,0.5894979,0.58959144,0.5896522,0.5896837,0.5896895,0.5896752,0.5896499,0.58962643,0.5896032,0.58958054,0.589561,0.5895612,0.5895871,0.5896289,0.5896796,0.5897267,0.58976555,0.58977985,0.5897688,0.5897375,0.5896967,0.58965635,0.58961904,0.5895804,0.5895366,0.5894763,0.58940274,0.58932,0.58923435,0.58915627,0.5890932,0.58904827,0.58901906,0.5890009,0.5890057,0.5890224,0.58904105,0.5890609,0.5890802,0.5891074,0.5891353,0.5891558,0.5891654,0.589154,0.58912385,0.58908576,0.5890491,0.5890235,0.58901024,0.5890065,0.5890182,0.58904386,0.5890932,0.5891739,0.589275,0.5893842,0.5895035,0.5896184,0.58971846,0.5898012,0.5898599,0.58988357,0.5898676,0.58983266,0.5897796,0.58971703,0.5896683,0.58962965,0.5895951,0.58956057,0.5895288,0.589529,0.5895456,0.58958566,0.5896387,0.5897162,0.58980834,0.5898946,0.5899695,0.5900195,0.5900347,0.5900279,0.59000766,0.58998483,0.5899738,0.58997864,0.58998936,0.58999896,0.5899967,0.5900111,0.5900432,0.5901004,0.5901853,0.59029126,0.5904113,0.590537,0.5906589,0.59077746,0.5908897,0.5909928,0.591087,0.591177,0.59127593,0.59140146,0.59155047,0.59173214,0.59193194,0.5921581,0.5924027,0.59264886,0.5928935,0.59312993,0.59336996,0.593617,0.5938606,0.594088,0.5942949,0.594483,0.5946524,0.5948077,0.59495384,0.5951172,0.5952997,0.5955045,0.59572613,0.59596324,0.5962171,0.5964714,0.5967275,0.5970043,0.5973009,0.59760994,0.5979219,0.59823173,0.5985389,0.598842,0.59913516,0.59943664,0.5997509,0.6000932,0.6004635,0.6008531,0.6012479,0.60161567,0.60193634,0.6021799,0.6023456,0.6024756,0.60260284,0.6026877,0.60267234,0.6025632,0.60233045,0.6018035,0.60079765,0.5994734,0.5978284,0.5959535,0.59384274,0.5911617,0.58853805,0.5859444,0.5828682,0.5784457,0.5726409,0.5674881,0.5646986,0.5631052,0.56173337,0.56058955,0.5595805,0.55859303,0.55783486,0.557456,0.5573669,0.5574972,0.5577824,0.5582459,0.5589005,0.55971676,0.5606594,0.56170714,0.5627695,0.5637046,0.56458855,0.56554437,0.56624997,0.56643903,0.5666777,0.56722677,0.5678525,0.5687118,0.57005334,0.572239,0.57434547,0.5793452,0.59119433,0.60863525,0.6248639,0.6348935,0.64170825,0.645781,0.6478815,0.6490822,0.6496428,0.6500248,0.65051925,0.65051806,0.6501813,0.64972556,0.6492034,0.64865583,0.6481055,0.6475488,0.6468427,0.6458372,0.644787,0.64369,0.6426158,0.6413539,0.6401867,0.6393996,0.6390096,0.6389906,0.6393017,0.6399239,0.6408435,0.6421268,0.6438856,0.6459409,0.64766824,0.6487342,0.64998806,0.6513543,0.6531657,0.6549508,0.6577313,0.6618447,0.6682962,0.6797615,0.6966733,0.7191364,0.7407209,0.7577167,0.7717076,0.7833868,0.78999954,0.78676105,0.76798844,0.73268163,0.6818101,0.63589907,0.60969126,0.6008065,0.5991472,0.59886765,0.59709597,0.5952641,0.5948435,0.59654355,0.5979464,0.5980361,0.59771436,0.5974913,0.59755456
0.5738461,0.5745688,0.5753982,0.57634306,0.5772211,0.5781577,0.5791131,0.5800126,0.5808233,0.5815389,0.58214843,0.5826795,0.58321,0.5837152,0.58417034,0.584586,0.5849589,0.585279,0.58557343,0.5858292,0.5860678,0.5863015,0.5865326,0.5867688,0.58699703,0.58720005,0.5873891,0.58756936,0.5877601,0.5879649,0.5881745,0.5883801,0.58856654,0.58873254,0.58889306,0.5890072,0.58909833,0.5891579,0.5891907,0.58920294,0.58919793,0.58917904,0.58915544,0.58913666,0.5891196,0.58910406,0.589091,0.58909637,0.5891261,0.5891713,0.58922696,0.58927846,0.58932364,0.5893469,0.5893469,0.5893289,0.589303,0.58927727,0.5892534,0.58922786,0.5891973,0.5891497,0.58908975,0.58902144,0.58895063,0.58888733,0.58883846,0.58880734,0.58879256,0.5887889,0.58880675,0.5888348,0.58886284,0.58888984,0.58891547,0.58894455,0.5889739,0.5889951,0.589004,0.58898914,0.58895314,0.58890873,0.58886653,0.58883846,0.5888257,0.58882266,0.5888357,0.588863,0.5889113,0.58898854,0.5890884,0.5891965,0.58931637,0.58943516,0.58954155,0.5896321,0.5896998,0.58973277,0.58972484,0.5896962,0.58964825,0.58959115,0.5895458,0.5895096,0.589478,0.58944786,0.5894221,0.5894282,0.5894476,0.5894865,0.58953595,0.5896051,0.5896859,0.5897615,0.5898272,0.5898721,0.58988535,0.5898769,0.58985484,0.5898299,0.5898187,0.5898237,0.58983123,0.58983904,0.58983904,0.58985865,0.5898979,0.5899614,0.5900502,0.590158,0.590278,0.59040016,0.5905214,0.59064007,0.59075105,0.5908501,0.59093726,0.59101737,0.59110355,0.59121513,0.5913484,0.5915133,0.59169585,0.5919039,0.5921289,0.59235424,0.59257764,0.5927948,0.59301585,0.5932438,0.5934689,0.593679,0.593869,0.59403986,0.59419256,0.59433186,0.59446263,0.5946114,0.59477985,0.5949718,0.5951811,0.5954044,0.5956427,0.59588104,0.59612024,0.59637886,0.5966569,0.5969472,0.5972417,0.5975357,0.5978292,0.59812266,0.59841186,0.5987148,0.5990356,0.5993906,0.59977853,0.6001891,0.60060906,0.6010064,0.6013623,0.60169685,0.6019466,0.60214686,0.60233694,0.6024871,0.60253906,0.6024866,0.6023565,0.6020007,0.6012996,0.6001778,0.59871256,0.5969409,0.5948888,0.5926646,0.5898991,0.58725107,0.5845163,0.58121645,0.5769001,0.5715837,0.56667364,0.56416607,0.56265926,0.5612631,0.5601532,0.5591216,0.55819756,0.5575738,0.55730194,0.5572861,0.55745023,0.5577867,0.55831146,0.55901706,0.55986947,0.560833,0.5618285,0.56275046,0.5636587,0.5645442,0.56544363,0.5660368,0.56625736,0.5666557,0.5674005,0.5679525,0.56907016,0.570498,0.5735471,0.5758033,0.58230627,0.5968709,0.61461854,0.6281909,0.63687813,0.64299566,0.6462176,0.6479242,0.6486706,0.6491518,0.6498338,0.650067,0.65001786,0.6497351,0.64936364,0.6489358,0.6484096,0.6478268,0.6472486,0.646593,0.64571595,0.64463687,0.64350563,0.6423034,0.64099145,0.63976204,0.6388306,0.63820916,0.6379899,0.6382127,0.638892,0.64002717,0.64144194,0.6431775,0.6452596,0.64726055,0.6486366,0.6500757,0.65177536,0.65379953,0.6562487,0.65950346,0.663972,0.6707833,0.6827884,0.7013465,0.72270846,0.74234504,0.75914323,0.77309465,0.781891,0.78038216,0.7634236,0.7304673,0.68282366,0.63676447,0.6096278,0.6006471,0.59856844,0.5978161,0.59649825,0.5946412,0.5941508,0.5957309,0.59703434,0.5971082,0.59682107,0.5966184,0.59669375
0.5744381,0.57530856,0.57620704,0.57705826,0.577971,0.5788888,0.5797664,0.580554,0.5812259,0.58179206,0.5822724,0.5827538,0.5831975,0.5836086,0.5839815,0.58433646,0.58468413,0.5850054,0.585287,0.5855362,0.5857808,0.5860251,0.5862756,0.5865326,0.5867765,0.58699054,0.5871837,0.58736193,0.5875437,0.587731,0.58791614,0.588092,0.5882472,0.5883833,0.58851445,0.58860004,0.5886644,0.58869886,0.58871347,0.58871734,0.58871204,0.58869874,0.5886847,0.5886768,0.5886707,0.5886663,0.5886637,0.58867705,0.58871245,0.5887629,0.58882314,0.58887887,0.5889291,0.58895814,0.5889657,0.58895683,0.588942,0.58892834,0.5889163,0.5889019,0.5888823,0.5888468,0.5888001,0.58874583,0.5886898,0.58864164,0.5886066,0.58858824,0.5885861,0.5885942,0.58862114,0.5886557,0.5886885,0.5887193,0.5887487,0.58878124,0.58881485,0.58884037,0.5888531,0.58884037,0.58880556,0.5887623,0.5887202,0.58869207,0.5886812,0.58868,0.58869445,0.5887228,0.5887706,0.58884394,0.5889363,0.58903867,0.58915424,0.5892727,0.58938324,0.5894805,0.5895567,0.58959925,0.5895993,0.5895785,0.5895364,0.58948505,0.58944416,0.5894098,0.5893801,0.5893531,0.58932984,0.5893384,0.5893588,0.5893954,0.58944,0.58950186,0.58957434,0.589642,0.5897001,0.5897372,0.5897465,0.5897357,0.5897129,0.5896894,0.58967894,0.589684,0.58969426,0.58970755,0.58971465,0.5897421,0.589789,0.5898587,0.5899516,0.59006184,0.5901823,0.5903021,0.5904192,0.59053373,0.5906378,0.59072965,0.59080935,0.59088045,0.59095675,0.5910573,0.5911778,0.59132886,0.59149647,0.59168774,0.59189403,0.5920997,0.59230405,0.59250337,0.5927084,0.5929206,0.59313095,0.59332705,0.593504,0.5936635,0.5938064,0.5939368,0.5940602,0.5942017,0.5943636,0.59454894,0.5947511,0.59496486,0.5951901,0.5954131,0.5956348,0.59587336,0.59613097,0.59640193,0.5966783,0.5969551,0.5972326,0.5975114,0.5977901,0.5980853,0.5984025,0.59875774,0.5991472,0.5995599,0.59998405,0.60038906,0.6007549,0.6011064,0.60142493,0.601681,0.60190624,0.6020992,0.6022028,0.6022113,0.60214424,0.60191035,0.6014434,0.60064834,0.59941256,0.5977738,0.59589124,0.5938399,0.5916005,0.58880377,0.5858948,0.5830704,0.5797949,0.57562256,0.5707251,0.56596196,0.5637712,0.5622132,0.5607903,0.559682,0.5587621,0.557963,0.5574807,0.55731976,0.5573642,0.5575964,0.5579995,0.5585896,0.55933774,0.56021595,0.56113636,0.5619695,0.5628815,0.5638211,0.5647193,0.56555927,0.5659447,0.5663862,0.5672262,0.56755984,0.5682201,0.56959593,0.5714085,0.57441014,0.578408,0.5868842,0.60263026,0.6202109,0.6313045,0.63926756,0.6439502,0.6463549,0.6471829,0.6478021,0.6489027,0.64937544,0.6494663,0.6494313,0.6492325,0.64895976,0.6485901,0.6480886,0.6475278,0.64698946,0.6463939,0.64565784,0.6445936,0.64348507,0.64222455,0.64084387,0.6396139,0.6386333,0.6379247,0.63752246,0.63757503,0.63842183,0.63987654,0.64155376,0.6434256,0.64561975,0.64773446,0.6499835,0.6517539,0.6537715,0.65626794,0.65883887,0.6618631,0.6665157,0.67302823,0.6877179,0.70816755,0.7277986,0.7459415,0.7623701,0.773589,0.7743462,0.75960517,0.72924674,0.6850979,0.6387999,0.6099485,0.6003993,0.5981884,0.596971,0.5959492,0.5942031,0.59358853,0.59498906,0.59621096,0.5962995,0.59604704,0.59586644,0.5959518
0.57515025,0.57609475,0.5769656,0.5778116,0.5786854,0.5795306,0.5803019,0.58095026,0.5814966,0.5819891,0.58239734,0.58277154,0.5831193,0.58343947,0.5837562,0.58408344,0.5844065,0.58470464,0.5849751,0.58522135,0.58547205,0.58572876,0.5859922,0.5862593,0.58650887,0.5867236,0.5869124,0.5870811,0.58724827,0.5874164,0.5875789,0.58773077,0.58786225,0.5879752,0.58808434,0.58815205,0.5881994,0.58821905,0.5882251,0.58822644,0.588223,0.58821565,0.5882096,0.5882101,0.58821356,0.5882182,0.5882244,0.5882446,0.58828545,0.5883417,0.5884067,0.5884669,0.5885209,0.5885549,0.58856964,0.5885699,0.5885654,0.5885637,0.5885633,0.5885608,0.58855337,0.58853084,0.58849716,0.5884575,0.5884169,0.5883835,0.5883626,0.58835673,0.58836627,0.588386,0.58842134,0.58846146,0.5884985,0.5885327,0.58856654,0.58860517,0.58864397,0.5886762,0.5886963,0.58869004,0.5886598,0.5886197,0.5885792,0.58855236,0.58854294,0.58854365,0.58855915,0.5885874,0.5886328,0.58870083,0.5887865,0.58888245,0.58899105,0.58910716,0.5892205,0.589325,0.5894104,0.58946127,0.58946806,0.5894534,0.58941734,0.5893719,0.58933485,0.5893036,0.5892771,0.58925295,0.5892317,0.5892399,0.58925855,0.589291,0.58932996,0.5893846,0.5894489,0.58950824,0.58955747,0.5895869,0.58959055,0.58957523,0.58954895,0.5895237,0.589514,0.5895225,0.5895392,0.5895612,0.5895791,0.5896163,0.5896719,0.58974797,0.5898441,0.5899551,0.59007466,0.5901922,0.5903057,0.59041476,0.59051144,0.59059435,0.5906644,0.5907253,0.59079075,0.59088,0.59098816,0.5911256,0.5912794,0.5914546,0.5916433,0.5918311,0.59201765,0.59220093,0.5923914,0.5925893,0.5927865,0.5929698,0.5931343,0.5932827,0.59341574,0.5935366,0.59365183,0.59378535,0.5939386,0.59411556,0.5943079,0.5945089,0.59471834,0.59492373,0.5951268,0.59534514,0.5955832,0.59583604,0.5960964,0.59635854,0.59662104,0.59688604,0.59715426,0.59744084,0.59775186,0.5981027,0.5984881,0.59889495,0.5993122,0.59971267,0.6000786,0.60043466,0.6007825,0.6010977,0.60137045,0.60159254,0.6017425,0.60181093,0.6018049,0.6016693,0.60136664,0.60080194,0.59986794,0.59848154,0.59672606,0.5948589,0.5928748,0.59054387,0.5877688,0.5847777,0.5819203,0.5787055,0.57451004,0.56990135,0.5653404,0.5631362,0.56151974,0.5601976,0.55923104,0.55848014,0.5578399,0.55748415,0.5573844,0.5574914,0.5577792,0.55824435,0.55886924,0.55963445,0.56049573,0.56136566,0.5621934,0.56315994,0.5640176,0.5648645,0.5655571,0.56586665,0.5661613,0.5669973,0.5673543,0.5682494,0.569945,0.5728102,0.574831,0.58000565,0.59316075,0.6098515,0.62468356,0.63444376,0.64069957,0.6440302,0.6452054,0.64608014,0.6475347,0.6483203,0.6486442,0.6488043,0.64884233,0.64876735,0.6485541,0.64820766,0.6477536,0.6472233,0.64672434,0.6461481,0.64549696,0.64453197,0.6434393,0.6421991,0.6407891,0.63957727,0.63859177,0.6378689,0.6375811,0.63795733,0.6389458,0.64040315,0.64227414,0.64441925,0.6464106,0.6487919,0.6513618,0.6533944,0.6554545,0.65797746,0.66065514,0.6636292,0.6682839,0.67750514,0.6944808,0.7127961,0.7320373,0.75079894,0.76439095,0.767918,0.756029,0.7286329,0.6885189,0.641858,0.61107266,0.60057867,0.5978052,0.596349,0.5953874,0.5937734,0.5930084,0.59415925,0.5953095,0.59546596,0.5952589,0.59509814,0.5951812
0.5759392,0.57687426,0.57774806,0.5785593,0.5793504,0.58007884,0.5807414,0.5812992,0.581744,0.5821158,0.5824212,0.5826944,0.58297074,0.58324945,0.5835272,0.58381635,0.58411145,0.58439165,0.58465767,0.58491147,0.5851735,0.58543944,0.585708,0.58597755,0.5862262,0.58643526,0.58661306,0.58676636,0.5869143,0.58705986,0.5871986,0.5873265,0.5874343,0.58752525,0.587615,0.58766794,0.58770347,0.58771336,0.58771557,0.58771765,0.58771825,0.58771807,0.5877205,0.58773017,0.58774316,0.5877575,0.58777285,0.58780074,0.58784825,0.5879109,0.5879811,0.5880458,0.58810365,0.5881423,0.58816344,0.58817154,0.588177,0.5881868,0.58819747,0.5882065,0.588211,0.58820176,0.5881821,0.5881574,0.5881326,0.5881146,0.58810776,0.58811414,0.58813524,0.58816564,0.5882077,0.5882518,0.5882918,0.58832884,0.5883664,0.58841014,0.5884548,0.588495,0.5885241,0.5885259,0.5885023,0.5884671,0.5884303,0.58840585,0.58839816,0.5883999,0.58841485,0.58844084,0.58848226,0.58854365,0.58862114,0.58870924,0.5888106,0.5889232,0.5890376,0.5891465,0.5892383,0.5892961,0.5893103,0.5893017,0.58927214,0.58923423,0.58920294,0.5891769,0.5891557,0.5891354,0.5891154,0.58912206,0.5891366,0.58916306,0.58919704,0.58924556,0.5893017,0.58935225,0.589393,0.5894145,0.5894128,0.58939344,0.58936536,0.5893406,0.58933425,0.58934903,0.58937436,0.5894064,0.58943474,0.5894808,0.5895426,0.58962214,0.58971906,0.5898293,0.5899471,0.5900614,0.5901716,0.59027517,0.59036475,0.59043956,0.5905006,0.59055215,0.59060884,0.59068835,0.5907867,0.59091264,0.5910535,0.59121406,0.59138614,0.5915565,0.5917262,0.591894,0.5920706,0.59225535,0.59243965,0.5926106,0.59276366,0.5929016,0.59302473,0.5931374,0.593245,0.59337103,0.59351623,0.59368384,0.59386504,0.5940522,0.59424424,0.5944301,0.5946127,0.5948094,0.5950262,0.5952594,0.595502,0.5957471,0.59599257,0.5962413,0.5964954,0.59677017,0.5970708,0.5974126,0.59778833,0.5981839,0.5985899,0.59898293,0.5993512,0.59970915,0.6000622,0.6004078,0.60073185,0.6010085,0.6012132,0.601341,0.60139406,0.60133743,0.60115254,0.60076356,0.6000864,0.599023,0.5975382,0.5957855,0.5940709,0.59197843,0.589608,0.58679223,0.583886,0.5810621,0.57780004,0.57366437,0.5690956,0.5645783,0.56217366,0.56072533,0.5596343,0.55893564,0.5583629,0.5577742,0.5575003,0.55744743,0.55760443,0.55795896,0.55847377,0.5591182,0.5598933,0.56076276,0.56153077,0.5624849,0.56329817,0.56408614,0.56496656,0.5654979,0.56569844,0.5663945,0.5667453,0.5672484,0.5686552,0.57093525,0.57366073,0.5771409,0.5844947,0.59904367,0.6165829,0.62861776,0.63672996,0.64109075,0.6428397,0.6440346,0.6456791,0.6469452,0.6475301,0.6479157,0.64814496,0.6482694,0.64826757,0.648113,0.6478181,0.6474157,0.6469641,0.6464795,0.64595234,0.64533377,0.64447016,0.64337707,0.6421177,0.64069617,0.63944155,0.63837665,0.63772726,0.6376655,0.6382921,0.6395078,0.64113533,0.6431247,0.64545476,0.64749265,0.6501609,0.6529387,0.6551712,0.6572466,0.6595811,0.66194034,0.66503394,0.67021614,0.68274164,0.6997282,0.7186779,0.7380341,0.7541797,0.7606771,0.75227517,0.72819316,0.69249856,0.6458513,0.61311316,0.6010748,0.59720194,0.59565735,0.5947968,0.59329796,0.5926145,0.5933418,0.59429085,0.59458685,0.59444445,0.594309,0.59439534
0.5766734,0.57758844,0.57841635,0.5791346,0.57978535,0.5804117,0.5809686,0.58141303,0.58174866,0.5820135,0.5822464,0.5824716,0.5827148,0.5829755,0.5832395,0.5835192,0.5838133,0.5841011,0.5843806,0.5846449,0.58491564,0.5851833,0.58544636,0.5857036,0.5859353,0.5861234,0.58627677,0.586404,0.58652365,0.5866404,0.58675265,0.5868561,0.58694196,0.5870143,0.5870879,0.5871303,0.5871583,0.5871639,0.5871669,0.5871738,0.5871814,0.58719075,0.5872042,0.58722544,0.5872508,0.58727795,0.5873059,0.587345,0.5874025,0.58747447,0.5875522,0.5876224,0.5876852,0.5877296,0.5877571,0.5877731,0.5877884,0.5878089,0.5878305,0.58784986,0.5878659,0.587869,0.5878632,0.58785295,0.58784306,0.58783996,0.5878464,0.5878645,0.58789533,0.58793473,0.58798146,0.58802724,0.5880674,0.5881045,0.58814335,0.5881897,0.58823836,0.5882847,0.58832175,0.58833086,0.58831304,0.58828294,0.5882504,0.58822864,0.5882236,0.58822644,0.5882406,0.58826387,0.5882999,0.5883531,0.58842105,0.5884993,0.5885912,0.588698,0.58880967,0.5889186,0.58901334,0.5890768,0.5890975,0.58909595,0.5890739,0.58904386,0.58902097,0.58900315,0.5889888,0.58897233,0.58895254,0.588956,0.5889649,0.5889837,0.5890109,0.58905226,0.5891002,0.5891423,0.58917564,0.58919096,0.5891863,0.58916664,0.5891403,0.5891198,0.58912015,0.5891435,0.58917785,0.5892191,0.58925533,0.58930695,0.58937114,0.58945,0.58954424,0.58965063,0.5897645,0.5898751,0.5899818,0.5900819,0.5901672,0.5902376,0.59029424,0.59034145,0.59039366,0.5904686,0.59056133,0.5906802,0.5908116,0.59095967,0.5911163,0.5912699,0.59142315,0.5915754,0.59173775,0.59190905,0.5920807,0.5922394,0.5923816,0.5925101,0.59262526,0.592731,0.5928329,0.5929532,0.59309256,0.5932526,0.5934239,0.5935974,0.5937716,0.59393823,0.5941007,0.59427524,0.5944702,0.59468305,0.594906,0.5951315,0.5953568,0.59558475,0.5958184,0.5960737,0.5963554,0.59667695,0.5970316,0.5974058,0.5977905,0.5981661,0.5985285,0.5988861,0.59923935,0.5995879,0.59993196,0.6002456,0.6004943,0.6006795,0.6008041,0.6008097,0.60071015,0.60047364,0.6000073,0.5992271,0.59809476,0.59663075,0.5949956,0.59323496,0.59115756,0.588672,0.5858235,0.5829018,0.5800094,0.57671875,0.57271147,0.56775045,0.563551,0.5612273,0.5600544,0.55927914,0.5587798,0.55814934,0.5576601,0.5574193,0.55741435,0.5576302,0.5580325,0.5585902,0.5592836,0.5600742,0.5608671,0.56171703,0.5624503,0.5631336,0.56400985,0.5648278,0.5652012,0.5654638,0.5662826,0.5666269,0.56753355,0.56947386,0.57242036,0.5747976,0.5788467,0.5907384,0.60704744,0.6218196,0.6318463,0.6373955,0.64002573,0.6415144,0.6432073,0.6451822,0.6461091,0.646729,0.6471301,0.64740276,0.647558,0.6475813,0.6474682,0.6472216,0.64688635,0.6464665,0.6459704,0.6454762,0.6448935,0.64408416,0.6430172,0.64174473,0.6403299,0.6390415,0.6380998,0.63767385,0.63790977,0.6388372,0.64018923,0.6417653,0.64404213,0.6463095,0.6485784,0.65133953,0.65391934,0.65613496,0.65828586,0.6603131,0.66266,0.6660747,0.6738275,0.68776554,0.70480824,0.7236146,0.7416076,0.7510325,0.74653935,0.72661865,0.694615,0.6499941,0.61576664,0.60107094,0.59627616,0.5947099,0.5940341,0.5927714,0.59197307,0.5922748,0.5931585,0.59366393,0.5935911,0.5934878,0.5935775
0.57746696,0.578328,0.57904506,0.57961243,0.5801383,0.5806369,0.5810563,0.5813746,0.58161116,0.5817994,0.58197576,0.58217454,0.5824076,0.5826704,0.58294845,0.58325195,0.5835735,0.5838865,0.5841882,0.5844666,0.5847423,0.5850061,0.5852552,0.58549047,0.5856961,0.5858563,0.58597994,0.58607733,0.5861658,0.58625287,0.5863398,0.58642185,0.5864902,0.58654875,0.5866113,0.58664787,0.58667314,0.5866789,0.5866856,0.58669776,0.58671165,0.58672893,0.58675194,0.58678293,0.58681965,0.5868591,0.5868993,0.5869491,0.58701646,0.587098,0.5871836,0.58726025,0.58732915,0.5873795,0.5874139,0.58743846,0.5874634,0.5874932,0.5875238,0.5875515,0.58757687,0.58759093,0.5875976,0.58760023,0.58760333,0.58761305,0.5876311,0.5876595,0.58769864,0.58774626,0.587798,0.5878459,0.5878873,0.5879253,0.5879655,0.588014,0.58806646,0.58811843,0.58816326,0.5881808,0.5881705,0.58814746,0.5881212,0.5881051,0.588104,0.5881098,0.58812475,0.5881467,0.58817863,0.5882251,0.5882851,0.588355,0.5884384,0.58853716,0.5886427,0.58874786,0.58884144,0.5889066,0.5889305,0.5889336,0.58891785,0.58889437,0.58887863,0.588869,0.5888619,0.58885026,0.5888325,0.588835,0.5888407,0.5888551,0.5888771,0.58891326,0.58895636,0.5889946,0.5890248,0.589038,0.58903426,0.5890179,0.5889971,0.5889836,0.58899224,0.5890249,0.58906806,0.589117,0.58915925,0.5892143,0.5892782,0.5893538,0.5894424,0.58954144,0.58964735,0.58975095,0.589851,0.5899453,0.59002537,0.59009105,0.59014386,0.5901879,0.59023726,0.590309,0.59039825,0.5905118,0.59063566,0.5907737,0.59091866,0.5910593,0.5911995,0.5913391,0.5914895,0.5916487,0.5918089,0.59195685,0.5920892,0.5922094,0.5923175,0.5924173,0.5925141,0.59262943,0.5927632,0.5929157,0.593077,0.5932372,0.5933949,0.59354365,0.5936867,0.5938407,0.5940143,0.5942056,0.5944072,0.59461105,0.5948138,0.5950187,0.595229,0.59546113,0.5957192,0.59601545,0.59634507,0.59669554,0.5970578,0.5974157,0.59776855,0.5981244,0.59848166,0.5988343,0.5991832,0.59951043,0.59978914,0.60002124,0.6002054,0.6002747,0.6002277,0.60008633,0.5997894,0.5992442,0.59841585,0.59731996,0.5959407,0.5943618,0.59247446,0.59034264,0.5878104,0.58489984,0.5819381,0.5790342,0.5757363,0.57152486,0.56642896,0.56251615,0.56050503,0.55960155,0.55904675,0.55861664,0.55792904,0.557505,0.55732596,0.55738956,0.55766594,0.55812407,0.5587238,0.5594079,0.56016755,0.5609206,0.5616574,0.56226265,0.5629983,0.5638734,0.5644989,0.5648246,0.56548905,0.566204,0.5669399,0.56843066,0.57073677,0.5733773,0.5770439,0.5842955,0.5976389,0.61429286,0.62624866,0.63320553,0.6369573,0.6389841,0.6407455,0.6431968,0.6445506,0.645435,0.6459999,0.64635944,0.64657676,0.6466998,0.64672947,0.6466217,0.6464257,0.6461191,0.645705,0.64520586,0.6447488,0.6442206,0.64343596,0.64243114,0.64121264,0.6398225,0.63866985,0.6379325,0.637747,0.6382814,0.6393531,0.64059913,0.642377,0.6447519,0.6471272,0.6494111,0.65191287,0.6544291,0.65671074,0.65896726,0.6609952,0.66359997,0.6677443,0.6777649,0.69128734,0.7080991,0.72659636,0.7383689,0.7378915,0.722775,0.6945432,0.65376174,0.6186869,0.60060525,0.5949151,0.5936705,0.593153,0.5921227,0.59112036,0.5912256,0.59214216,0.59278667,0.59280545,0.5927421,0.5928315
0.57824045,0.5790021,0.57959294,0.5800338,0.5804558,0.5808075,0.58107984,0.58128095,0.5814279,0.58154833,0.581671,0.5818473,0.58208066,0.58236206,0.5826726,0.58301413,0.5833688,0.5837048,0.5840224,0.58431095,0.5845853,0.5848398,0.58507156,0.5852839,0.58546567,0.585604,0.5857057,0.5857812,0.5858469,0.58591247,0.5859817,0.5860498,0.5861069,0.58615667,0.5862125,0.58624494,0.5862688,0.586275,0.58628356,0.5862981,0.58631516,0.5863369,0.5863663,0.5864039,0.586449,0.58649814,0.5865483,0.5866077,0.58668387,0.5867736,0.58686614,0.5869491,0.5870238,0.58708024,0.5871216,0.58715487,0.58718896,0.58722734,0.5872651,0.58729994,0.58733225,0.58735573,0.5873729,0.58738697,0.58740187,0.5874224,0.587451,0.5874892,0.58753705,0.58759284,0.58765054,0.58770245,0.58774734,0.5877888,0.58783275,0.58788514,0.58794224,0.5880004,0.58805346,0.58808017,0.5880796,0.58806616,0.5880485,0.5880399,0.5880456,0.5880571,0.5880753,0.5880981,0.5881289,0.5881715,0.5882261,0.5882902,0.58836734,0.5884583,0.5885563,0.58865523,0.588744,0.58880603,0.5888294,0.5888329,0.58882016,0.5888008,0.5887888,0.588784,0.5887828,0.58877647,0.58876216,0.58876675,0.58877325,0.58878773,0.58880913,0.58884376,0.5888856,0.58892375,0.5889543,0.58896863,0.5889683,0.588957,0.588943,0.5889368,0.5889529,0.5889933,0.58904374,0.5890978,0.58914405,0.5892005,0.58926237,0.5893325,0.5894132,0.58950233,0.5895964,0.589689,0.5897784,0.58986235,0.5899335,0.58999145,0.5900376,0.59007686,0.5901228,0.59019065,0.59027565,0.59038395,0.59050083,0.59063077,0.5907669,0.59089816,0.5910288,0.5911594,0.59130013,0.59144986,0.5916,0.5917386,0.59186274,0.59197545,0.5920769,0.5921712,0.5922634,0.59237397,0.5925016,0.5926464,0.5927979,0.5929457,0.59308827,0.5932205,0.59334564,0.59348017,0.593632,0.5938002,0.59397817,0.59415793,0.5943363,0.59451735,0.5947047,0.5949139,0.59514904,0.5954226,0.59573114,0.5960629,0.5964087,0.5967549,0.5971025,0.59745777,0.5978197,0.5981839,0.5985453,0.5988888,0.59919596,0.5994643,0.5996887,0.5998244,0.59981346,0.5997079,0.5995048,0.5991328,0.5985456,0.597759,0.5967717,0.5953566,0.59366107,0.59173286,0.5895643,0.58702207,0.58409023,0.5810938,0.5782105,0.5746118,0.569948,0.5648525,0.5613729,0.5599769,0.5593604,0.5589564,0.55828756,0.55773115,0.5573722,0.5572709,0.55740684,0.5577339,0.5582125,0.5587951,0.55944216,0.5601272,0.56088,0.56149733,0.5621091,0.56287134,0.5636798,0.5643321,0.5646602,0.5656808,0.5665137,0.5675425,0.5692717,0.5723481,0.5757382,0.57893395,0.5900445,0.6060464,0.6198861,0.6286241,0.6336043,0.63645184,0.63841873,0.641059,0.6429066,0.6441054,0.6448406,0.6452613,0.6454938,0.6456474,0.64576274,0.6457883,0.64570427,0.6455402,0.6452546,0.6448312,0.6443603,0.64391196,0.64338636,0.6426207,0.64167774,0.64045656,0.6391493,0.6381464,0.63763225,0.6377701,0.63857436,0.6397488,0.6410555,0.6430214,0.6456341,0.6479846,0.6501265,0.6524034,0.6548596,0.6572925,0.6592779,0.66153586,0.6641274,0.6707133,0.68057513,0.69427884,0.7110407,0.72418106,0.7271691,0.7167032,0.69279486,0.6564916,0.6212672,0.60025513,0.59362376,0.59254193,0.5921945,0.5913137,0.5903185,0.5903926,0.59126055,0.59193856,0.59207535,0.59205604,0.59213626
0.57890654,0.57955897,0.5800444,0.5804032,0.5806935,0.5809076,0.5810534,0.58114606,0.5812098,0.581275,0.5813651,0.58153284,0.58177376,0.5820799,0.58242947,0.5828097,0.583191,0.5835412,0.5838641,0.58415127,0.5844146,0.58465326,0.5848649,0.58505416,0.58521485,0.58533686,0.58542395,0.5854858,0.58553797,0.58559155,0.5856508,0.5857113,0.5857624,0.58580744,0.5858592,0.5858872,0.58590806,0.58591247,0.58591974,0.585934,0.5859525,0.5859777,0.5860114,0.58605397,0.58610594,0.5861629,0.58622205,0.58629096,0.58637565,0.5864719,0.5865699,0.58665776,0.58673716,0.58679914,0.5868472,0.5868883,0.586931,0.58697724,0.58702147,0.58706224,0.5871004,0.58713156,0.58715844,0.5871837,0.5872096,0.58724034,0.58727837,0.587325,0.5873806,0.587444,0.58750665,0.5875621,0.5876106,0.587656,0.5877049,0.587762,0.58782375,0.58788836,0.58794904,0.5879842,0.58799297,0.5879894,0.5879804,0.5879786,0.5879915,0.58800983,0.5880326,0.5880574,0.5880879,0.5881283,0.5881787,0.58823824,0.5883098,0.58839434,0.5884856,0.5885781,0.5886609,0.5887182,0.5887389,0.58874154,0.5887295,0.5887127,0.5887033,0.5887008,0.5887023,0.588699,0.58868736,0.58869433,0.5887029,0.58871925,0.58874273,0.58877814,0.58881986,0.58885837,0.5888896,0.58890605,0.58890975,0.588904,0.5888965,0.5888964,0.58891845,0.58896464,0.58902013,0.5890774,0.58912575,0.5891819,0.58924055,0.5893047,0.5893774,0.5894562,0.5895382,0.5896188,0.589697,0.58976984,0.58983076,0.58988,0.58991945,0.58995426,0.5899973,0.5900612,0.5901418,0.59024405,0.59035426,0.59047735,0.59060574,0.5907289,0.590852,0.59097517,0.59110767,0.591249,0.5913906,0.59152097,0.5916378,0.59174424,0.59184015,0.59192973,0.5920183,0.59212506,0.5922477,0.59238625,0.5925292,0.5926659,0.59279525,0.59291255,0.59302217,0.59313834,0.59326863,0.5934136,0.59356713,0.5937217,0.59387535,0.5940329,0.59419817,0.59438586,0.59459984,0.5948529,0.5951432,0.5954591,0.5957912,0.59612715,0.59647083,0.59682596,0.5971916,0.5975646,0.59794253,0.5983109,0.5986482,0.59894764,0.5992041,0.5993874,0.5994202,0.59933597,0.5991579,0.59887534,0.5984683,0.59791195,0.5971874,0.5961778,0.59472626,0.5928982,0.59094834,0.5887896,0.5861758,0.58328307,0.5802213,0.5770377,0.5729544,0.5677743,0.563223,0.5607457,0.55982107,0.5592184,0.5586974,0.5580354,0.5575167,0.5572444,0.5572218,0.55740726,0.5577548,0.55822694,0.5587698,0.5593619,0.5600459,0.56072295,0.5613141,0.5619644,0.5627856,0.56357694,0.5641688,0.564883,0.56590825,0.5668669,0.56815207,0.5705408,0.57333386,0.57608855,0.58424646,0.59716344,0.6125152,0.6234566,0.6298102,0.63360286,0.6360028,0.638716,0.641158,0.64270127,0.64363045,0.64412355,0.64437306,0.64454395,0.644714,0.64484954,0.64487493,0.6448319,0.644693,0.64441645,0.644004,0.64352953,0.6430502,0.64249414,0.64171743,0.6407671,0.6395143,0.63833684,0.6375549,0.6373707,0.63790286,0.6390061,0.6401323,0.64164996,0.64392567,0.64659506,0.6487697,0.65070176,0.6529478,0.65515685,0.6573137,0.6595696,0.66191185,0.66607296,0.6734545,0.68370914,0.69672334,0.7104732,0.71578586,0.70923805,0.6896993,0.6577958,0.6231577,0.60022926,0.59267676,0.591314,0.5912131,0.5904405,0.5896162,0.58969486,0.5904075,0.59106994,0.59136504,0.5913881,0.59145224
0.5795212,0.5800751,0.58046603,0.5807121,0.5808641,0.5809427,0.58097774,0.5809952,0.58101666,0.5810612,0.5811441,0.581318,0.58157456,0.58191025,0.58229434,0.5827033,0.58310175,0.58345664,0.58377314,0.584047,0.5842888,0.5845026,0.58468735,0.584849,0.5849859,0.5850902,0.5851631,0.58521265,0.58525467,0.58530015,0.585353,0.5854093,0.5854583,0.5855019,0.58555186,0.58557713,0.5855964,0.585599,0.58560526,0.5856199,0.58564055,0.5856688,0.58570516,0.5857507,0.5858073,0.58587027,0.58593595,0.5860118,0.5861032,0.5862045,0.5863057,0.5863967,0.5864792,0.5865456,0.5865992,0.5866469,0.5866964,0.5867481,0.5867971,0.58684206,0.58688504,0.58692217,0.58695817,0.58699346,0.58702856,0.58706784,0.5871128,0.58716416,0.5872244,0.58729285,0.5873586,0.5874163,0.58746755,0.58751655,0.5875695,0.5876306,0.5876976,0.5877681,0.58783495,0.5878775,0.5878947,0.5878991,0.5878973,0.58790123,0.58791745,0.5879396,0.58796525,0.5879911,0.5880206,0.5880586,0.58810604,0.5881619,0.58822894,0.5883085,0.5883951,0.5884826,0.5885602,0.5886134,0.58863175,0.5886343,0.58862305,0.5886073,0.5886,0.5885992,0.5886006,0.58859634,0.588586,0.5885943,0.58860433,0.5886231,0.5886493,0.5886865,0.58872914,0.5887678,0.5887996,0.58881843,0.5888266,0.58882654,0.5888252,0.5888305,0.5888572,0.5889076,0.5889658,0.58902586,0.589076,0.58913255,0.5891897,0.5892508,0.58931875,0.589391,0.5894644,0.5895362,0.5896063,0.58967066,0.58972377,0.58976656,0.58980155,0.58983374,0.5898747,0.5899356,0.59001255,0.59010875,0.59021187,0.5903286,0.5904507,0.5905678,0.59068525,0.59080267,0.5909288,0.59106237,0.5911969,0.59132105,0.59143215,0.5915333,0.59162486,0.59171116,0.59179693,0.5919002,0.5920193,0.5921526,0.5922877,0.5924152,0.59253377,0.5926387,0.5927354,0.5928359,0.59294784,0.5930722,0.59320325,0.5933348,0.59346616,0.5936016,0.59374624,0.5939132,0.5941061,0.5943372,0.5946063,0.5949031,0.5952181,0.5955396,0.5958735,0.5962243,0.596591,0.596969,0.59735763,0.5977441,0.5981052,0.59843063,0.5987109,0.5989155,0.599001,0.5989492,0.59878933,0.59855103,0.59823096,0.5978194,0.5973311,0.5966772,0.59558374,0.59406006,0.59223545,0.59022456,0.5879904,0.58537626,0.5823811,0.5791967,0.575469,0.5708622,0.5660615,0.56243616,0.5605902,0.55978173,0.559192,0.5584418,0.5577886,0.55735654,0.55716926,0.5572022,0.5574155,0.55776036,0.55820334,0.55869156,0.5593034,0.55999386,0.5606185,0.56120884,0.56193805,0.5628103,0.5636151,0.564047,0.5653541,0.56639814,0.5673553,0.5690503,0.57183135,0.57557684,0.57941675,0.5890746,0.60440433,0.6174509,0.62564915,0.63056654,0.6337207,0.6363378,0.63935435,0.64125466,0.6424131,0.6430101,0.6432976,0.64349943,0.64371186,0.64391017,0.6440443,0.64410895,0.64410126,0.6439817,0.64373094,0.6433265,0.64281917,0.6423147,0.6417735,0.6408876,0.63991386,0.6387249,0.6376954,0.6371916,0.637357,0.63820815,0.63938206,0.6405924,0.6423805,0.6447979,0.6473951,0.6495254,0.65136015,0.653558,0.6555246,0.65748143,0.6597742,0.6628442,0.66867363,0.67580074,0.6851047,0.6984893,0.705042,0.7015797,0.6860452,0.65829086,0.6248308,0.60047126,0.5917379,0.5902269,0.5903299,0.5896114,0.58889735,0.58903587,0.5895983,0.59022814,0.59072256,0.59078944,0.5908418
0.57995844,0.580426,0.5807023,0.58084095,0.58089495,0.58089375,0.58087474,0.5808705,0.5808977,0.5809611,0.5810693,0.5812719,0.58155936,0.5819186,0.58231956,0.58273613,0.5831287,0.58346546,0.5837547,0.5839959,0.58420026,0.5843767,0.5845257,0.5846552,0.58476627,0.58485276,0.5849141,0.58495504,0.58499134,0.5850333,0.58508515,0.5851423,0.58519316,0.58523846,0.5852898,0.5853156,0.5853345,0.58533764,0.58534575,0.5853634,0.5853862,0.5854151,0.58545214,0.5854987,0.58555675,0.58562225,0.58569133,0.5857711,0.58586645,0.5859715,0.58607566,0.58616734,0.58625114,0.5863199,0.58637697,0.58642876,0.5864819,0.58653665,0.5865876,0.58663464,0.5866808,0.58672273,0.5867634,0.5868033,0.5868437,0.5868881,0.5869372,0.58699226,0.5870547,0.5871236,0.5871911,0.58725125,0.58730507,0.5873573,0.58741426,0.5874802,0.58755195,0.58762693,0.58769846,0.5877463,0.58776915,0.5877794,0.5877835,0.58779156,0.58780825,0.5878302,0.58785504,0.58788,0.5879084,0.5879444,0.58798957,0.58804333,0.58810925,0.5881884,0.5882719,0.5883541,0.5884268,0.5884769,0.5884937,0.5884955,0.5884844,0.5884677,0.5884578,0.58845496,0.58845484,0.58844894,0.5884373,0.58844537,0.588457,0.5884794,0.5885093,0.58854944,0.58859414,0.58863443,0.5886674,0.58868825,0.588701,0.58870655,0.5887108,0.58872104,0.5887507,0.5888016,0.58886063,0.5889218,0.5889737,0.5890324,0.5890909,0.5891529,0.5892215,0.58929324,0.5893651,0.58943397,0.58949983,0.58955956,0.5896091,0.58964914,0.5896823,0.5897136,0.5897539,0.5898131,0.5898877,0.58998096,0.5900797,0.5901901,0.5903069,0.59042007,0.59053403,0.5906479,0.5907693,0.5908977,0.5910267,0.59114695,0.5912552,0.5913533,0.5914423,0.5915265,0.591611,0.591712,0.591828,0.59195673,0.5920861,0.5922067,0.5923176,0.59241396,0.59250176,0.5925913,0.5926894,0.59279764,0.59291124,0.5930239,0.59313554,0.5932515,0.59337604,0.59352183,0.5936915,0.5938978,0.594141,0.5944122,0.5947033,0.5950027,0.5953193,0.59565824,0.5960163,0.59639,0.5967812,0.5971777,0.5975545,0.5978986,0.5981977,0.5984208,0.59854925,0.5985415,0.5984093,0.5982055,0.59795815,0.5976565,0.5973064,0.59687495,0.59616923,0.5950335,0.5934781,0.5916275,0.5895679,0.58726203,0.58450675,0.5813128,0.57774925,0.5737834,0.5693384,0.5651759,0.5623102,0.56069684,0.55983937,0.559119,0.55827916,0.55764544,0.55731344,0.5571977,0.5572642,0.5574826,0.5578167,0.55820537,0.55871266,0.55934966,0.56001514,0.5606222,0.56123006,0.56198156,0.562909,0.56365496,0.56471294,0.5658432,0.56685704,0.5681637,0.5704788,0.5736805,0.5760678,0.5840199,0.5964178,0.6105758,0.62131256,0.6276437,0.6317949,0.6343991,0.637581,0.6398579,0.64131415,0.64206874,0.6424335,0.64268446,0.64293045,0.643165,0.64335495,0.6434895,0.64357805,0.6435833,0.6434771,0.64319,0.642735,0.6422396,0.64171076,0.641155,0.6402824,0.6392621,0.6381948,0.63739264,0.6372313,0.63776624,0.63882804,0.6399082,0.64133215,0.64326084,0.6456582,0.64814216,0.65022373,0.65185964,0.65362513,0.65546227,0.6578071,0.6607115,0.6657646,0.6715863,0.6786777,0.68937474,0.696586,0.6954057,0.68301976,0.6590921,0.627135,0.6013807,0.59106064,0.58943224,0.5895815,0.5888947,0.5882354,0.5883926,0.588899,0.5895468,0.5901753,0.5903107,0.5903543
0.5808029,0.58113647,0.5813191,0.58137655,0.5813643,0.5813134,0.58127224,0.5812749,0.5813283,0.58142734,0.58157194,0.5818032,0.58210343,0.5824678,0.5828663,0.5832697,0.5836376,0.58394015,0.58418846,0.58438635,0.5845484,0.5846865,0.58480096,0.58490014,0.58498645,0.5850543,0.58510214,0.58513254,0.58516145,0.5851979,0.585245,0.5852985,0.58534634,0.5853884,0.5854368,0.58545876,0.5854727,0.5854739,0.58548033,0.5854945,0.5855129,0.58553743,0.5855697,0.58561194,0.5856656,0.585727,0.5857926,0.5858693,0.585962,0.5860641,0.5861655,0.58625466,0.5863351,0.58640087,0.5864557,0.58650625,0.58655846,0.5866118,0.5866618,0.58670723,0.5867514,0.5867922,0.58683187,0.58687115,0.58691084,0.5869543,0.5870022,0.5870559,0.5871165,0.58718324,0.5872477,0.58730686,0.58736247,0.5874177,0.5874787,0.5875491,0.5876241,0.5877022,0.5877777,0.5878302,0.5878583,0.58787394,0.5878829,0.5878943,0.58791375,0.5879352,0.5879576,0.58798087,0.588009,0.5880458,0.5880922,0.58814776,0.58821523,0.58829474,0.5883781,0.58846,0.5885327,0.5885831,0.588601,0.58860433,0.5885953,0.5885801,0.58857024,0.58856547,0.5885625,0.588555,0.58854467,0.5885555,0.588571,0.5885987,0.5886344,0.58868074,0.5887321,0.588779,0.58881897,0.5888475,0.5888679,0.5888827,0.5888963,0.5889149,0.5889498,0.58900416,0.5890669,0.58912975,0.5891849,0.5892482,0.5893131,0.58938247,0.589458,0.5895357,0.58961284,0.5896857,0.5897547,0.58981764,0.58987117,0.5899162,0.58995515,0.58999217,0.59003675,0.59009826,0.5901738,0.5902662,0.59036434,0.5904751,0.5905932,0.5907086,0.5908241,0.590939,0.59106064,0.591188,0.59131604,0.59143585,0.59154546,0.5916469,0.59173995,0.5918288,0.5919176,0.5920224,0.59214056,0.5922716,0.5924038,0.5925269,0.5926398,0.5927373,0.59282607,0.59291494,0.5930101,0.5931127,0.59321785,0.59332055,0.5934212,0.5935254,0.593637,0.593768,0.5939207,0.5941074,0.5943299,0.59458053,0.5948514,0.59513307,0.59543484,0.5957625,0.59611195,0.59648025,0.59686947,0.5972672,0.59764755,0.597996,0.5982994,0.59852993,0.5986641,0.59870934,0.5986209,0.5984322,0.598232,0.5980061,0.5977601,0.597465,0.59704566,0.5963077,0.5951541,0.5936029,0.5917009,0.5895196,0.58718604,0.5841738,0.5808507,0.5771115,0.5732318,0.5692677,0.5654634,0.5628436,0.5613322,0.56047344,0.5596112,0.5587716,0.5582155,0.5579931,0.5579629,0.55806583,0.5582986,0.5586065,0.5590221,0.5595886,0.5602405,0.56085706,0.56146175,0.56219304,0.5629293,0.56396925,0.56475776,0.5660604,0.5673069,0.56833935,0.5701479,0.57282597,0.57453644,0.5802362,0.589883,0.6043961,0.61737996,0.6254904,0.6305903,0.63348114,0.63654256,0.6392221,0.64102054,0.6419785,0.64244676,0.642734,0.6429808,0.6432276,0.64345026,0.6436212,0.64377856,0.64389086,0.6439183,0.64378285,0.64344776,0.6429812,0.64247024,0.6419593,0.64139324,0.6406338,0.6396086,0.6386343,0.6381716,0.6383636,0.63905966,0.64028656,0.6415235,0.64303344,0.6450145,0.6473526,0.64969146,0.6516746,0.65318733,0.654799,0.6567912,0.6599182,0.66457534,0.67021406,0.6763207,0.68326867,0.6908874,0.6914624,0.6816256,0.6609211,0.6308496,0.60365236,0.5908264,0.5892493,0.58932084,0.58889323,0.5884902,0.5885446,0.5890043,0.58965665,0.5902541,0.59054863,0.5905665
0.58145547,0.5816791,0.5817754,0.5817743,0.5817231,0.58164966,0.5816112,0.5816382,0.58172727,0.58186865,0.58205724,0.58230644,0.5826113,0.58296686,0.58334625,0.5837215,0.5840547,0.58431953,0.5845282,0.58468604,0.5848131,0.5849209,0.5850101,0.5850879,0.5851564,0.5852107,0.5852474,0.5852681,0.5852885,0.5853173,0.5853579,0.5854057,0.58544904,0.5854876,0.58553255,0.5855513,0.5855644,0.58556545,0.58557034,0.5855822,0.5855983,0.58561945,0.58564746,0.5856856,0.5857341,0.5857898,0.5858496,0.5859202,0.586007,0.58610404,0.58620083,0.5862864,0.58636403,0.58642685,0.58647966,0.5865284,0.58657825,0.5866294,0.5866773,0.5867208,0.58676374,0.5868037,0.586843,0.5868815,0.58691955,0.5869606,0.5870061,0.58705676,0.5871154,0.58718085,0.5872458,0.587306,0.5873634,0.5874224,0.58748716,0.5875602,0.5876378,0.5877191,0.587798,0.5878549,0.5878875,0.58790684,0.58791876,0.58793163,0.5879502,0.5879705,0.5879912,0.5880121,0.58803886,0.58807576,0.5881226,0.5881791,0.5882472,0.58832765,0.58841205,0.5884949,0.5885688,0.58862054,0.58863986,0.58864474,0.588637,0.588622,0.5886102,0.5886017,0.5885947,0.5885841,0.588572,0.5885837,0.58860135,0.5886327,0.5886732,0.58872503,0.5887826,0.5888365,0.58888406,0.58892006,0.58894867,0.5889722,0.588995,0.589021,0.58906096,0.58911777,0.5891807,0.58924484,0.5893031,0.58937174,0.58944297,0.58951914,0.5896017,0.5896862,0.58976954,0.5898481,0.58992255,0.5899918,0.5900518,0.5901035,0.5901488,0.5901915,0.5902399,0.5903031,0.5903789,0.5904706,0.590567,0.59067655,0.59079427,0.5909096,0.5910256,0.5911404,0.59126127,0.5913885,0.5915159,0.5916345,0.5917448,0.59184957,0.5919471,0.5920406,0.5921343,0.59224313,0.5923654,0.59249914,0.5926334,0.5927598,0.592878,0.59298015,0.5930729,0.59316385,0.59325874,0.5933584,0.59345794,0.5935532,0.5936451,0.5937383,0.5938378,0.59395397,0.5940887,0.594255,0.59445584,0.5946851,0.594936,0.5951997,0.59548664,0.5958026,0.5961435,0.5965046,0.59688747,0.5972801,0.5976571,0.59800494,0.5983112,0.5985529,0.5987058,0.59878063,0.59874904,0.59862095,0.59845966,0.5982915,0.59811854,0.59792423,0.5976453,0.5972126,0.59647167,0.59527713,0.59361917,0.59165084,0.58961594,0.58691275,0.58375347,0.5803671,0.57677877,0.573061,0.5693022,0.56563526,0.5630497,0.5615503,0.56082463,0.5600229,0.5592164,0.5587882,0.5586659,0.55865055,0.5587927,0.5590243,0.5593582,0.55982023,0.5604336,0.5611105,0.56172264,0.5623007,0.5630492,0.5641264,0.56481797,0.56615406,0.56753653,0.56852454,0.56991494,0.5722548,0.57528174,0.5777352,0.5854491,0.59833074,0.6122968,0.62288874,0.6290237,0.63271296,0.6350086,0.63832974,0.64057094,0.6417668,0.6423398,0.642615,0.6428381,0.64313495,0.64336646,0.64356875,0.6437918,0.64401495,0.6441869,0.64421296,0.6440259,0.64365375,0.6431851,0.64269733,0.6422484,0.641701,0.6409247,0.6399728,0.6392245,0.6391017,0.6394973,0.64037853,0.6417322,0.64308923,0.6446458,0.64659846,0.64885485,0.65113723,0.6528041,0.6542846,0.655972,0.65896654,0.663185,0.66854405,0.6742777,0.6797751,0.6871693,0.6891449,0.68135476,0.6633415,0.6349437,0.60610175,0.590513,0.58909774,0.5889156,0.58885527,0.5886669,0.5885315,0.5890101,0.5897348,0.59022915,0.5906377,0.5906528
0.58203113,0.582142,0.5821636,0.5821201,0.58205175,0.581978,0.5819581,0.58201575,0.582144,0.5823318,0.58255696,0.58282125,0.58312464,0.58346057,0.5838064,0.5841398,0.5844281,0.5846492,0.5848174,0.58493733,0.5850313,0.5851104,0.5851749,0.58523345,0.58528817,0.5853312,0.58535814,0.58537066,0.58538294,0.585404,0.58543754,0.58548,0.5855185,0.58555293,0.58559567,0.58561397,0.5856278,0.58562964,0.5856347,0.58564633,0.58566123,0.58568,0.58570445,0.5857382,0.58578074,0.5858296,0.5858817,0.5859444,0.5860236,0.5861139,0.58620536,0.586287,0.58636177,0.58642244,0.5864735,0.58652055,0.5865686,0.5866178,0.5866641,0.58670616,0.5867481,0.5867873,0.5868254,0.5868621,0.5868976,0.58693504,0.586977,0.5870249,0.5870818,0.58714646,0.5872135,0.5872773,0.58733886,0.5874027,0.5874716,0.5875479,0.58762896,0.58771306,0.5877951,0.5878556,0.5878912,0.5879128,0.5879257,0.58793795,0.5879541,0.5879716,0.58798957,0.58800876,0.5880352,0.5880729,0.5881218,0.5881808,0.58825153,0.58833456,0.5884212,0.58850586,0.58858097,0.5886338,0.5886538,0.58865863,0.5886502,0.5886328,0.5886167,0.58860254,0.58859,0.58857536,0.5885612,0.5885737,0.5885941,0.58862984,0.58867633,0.58873475,0.58879995,0.5888618,0.5889164,0.5889603,0.58899695,0.5890282,0.58905816,0.58908916,0.5891319,0.5891901,0.58925354,0.58931863,0.5893797,0.58945304,0.58953106,0.58961546,0.58970666,0.58979976,0.5898913,0.5899777,0.59005964,0.59013605,0.59020346,0.59026164,0.5903124,0.59035915,0.59040976,0.59047353,0.5905491,0.5906396,0.5907347,0.59084344,0.59096134,0.59107804,0.59119594,0.59131205,0.59143364,0.5915612,0.5916889,0.5918085,0.5919206,0.5920279,0.5921282,0.59222496,0.5923216,0.5924324,0.5925573,0.5926938,0.59283173,0.5929631,0.59308624,0.59319365,0.59329164,0.593387,0.5934839,0.5935826,0.5936786,0.5937679,0.5938513,0.593934,0.5940206,0.59412146,0.59423745,0.5943818,0.5945584,0.5947639,0.59499395,0.59523964,0.5955114,0.59581465,0.5961453,0.5964982,0.5968735,0.5972596,0.59763247,0.5979785,0.5982871,0.59854007,0.59871376,0.59881294,0.5988425,0.5987828,0.5986526,0.59853697,0.59843004,0.5983275,0.5981785,0.5979868,0.597573,0.59676874,0.5954943,0.5937121,0.59172374,0.5896355,0.5867785,0.5835657,0.5802331,0.57677233,0.57312095,0.56923234,0.5655526,0.5630821,0.5618633,0.561145,0.56036186,0.5596869,0.559403,0.55930537,0.55934083,0.55948406,0.5597305,0.5600908,0.5606079,0.5612457,0.5618763,0.5624546,0.56315684,0.56415,0.5650991,0.5662701,0.56765497,0.5688657,0.56998646,0.57183635,0.5747518,0.5757227,0.58153594,0.59203905,0.60643804,0.61957055,0.62718105,0.631827,0.63406116,0.637386,0.6399639,0.6414722,0.6421751,0.64245594,0.64265025,0.64295423,0.6432363,0.64343745,0.64370644,0.6440224,0.64431834,0.6444874,0.644451,0.6442121,0.64381695,0.6433972,0.64298826,0.6425892,0.6420386,0.64123446,0.64039373,0.6399249,0.63998497,0.64046204,0.6414486,0.64284354,0.6443237,0.6459075,0.6478818,0.6501781,0.65221846,0.65367305,0.6551833,0.6579056,0.6617749,0.66674984,0.6722026,0.67763984,0.6851423,0.688233,0.68190813,0.66570896,0.63873696,0.6087893,0.5905731,0.5886103,0.58845544,0.588799,0.58873844,0.58830607,0.5888748,0.5898038,0.5901849,0.59063315,0.59065187
0.5824878,0.5825209,0.58250445,0.5824561,0.58240473,0.58236,0.5823769,0.5824752,0.58264,0.58285415,0.5830953,0.5833543,0.58363485,0.5839309,0.5842235,0.5844994,0.58473414,0.5849079,0.58503354,0.58511627,0.58518153,0.58523834,0.5852854,0.58533037,0.5853739,0.58540714,0.5854262,0.58543134,0.5854361,0.5854498,0.5854766,0.5855136,0.5855484,0.5855806,0.5856227,0.5856416,0.58565724,0.5856615,0.5856689,0.58568215,0.58569694,0.58571327,0.58573365,0.58576167,0.58579695,0.58583724,0.58587945,0.5859318,0.5860011,0.58608246,0.5861667,0.5862434,0.58631486,0.5863732,0.5864229,0.5864687,0.5865154,0.58656347,0.5866089,0.58664894,0.586689,0.58672655,0.5867622,0.58679605,0.586828,0.5868609,0.5868984,0.58694327,0.586998,0.5870631,0.58713305,0.58720183,0.58726954,0.5873396,0.5874138,0.58749473,0.58757997,0.5876671,0.5877516,0.5878141,0.58785063,0.58787215,0.58788395,0.5878932,0.58790565,0.58791935,0.58793443,0.58795226,0.5879797,0.58802044,0.5880729,0.5881363,0.5882114,0.5882993,0.58839035,0.5884776,0.58855397,0.58860755,0.5886272,0.5886303,0.58861935,0.58859754,0.5885749,0.5885533,0.5885342,0.5885149,0.58849955,0.5885137,0.58853805,0.5885799,0.58863366,0.58870065,0.58877456,0.58884454,0.58890605,0.58895624,0.5889982,0.58903396,0.58906734,0.5891002,0.5891427,0.5891994,0.58926195,0.58932734,0.58939123,0.58947074,0.58955705,0.58965206,0.5897552,0.58986014,0.58996326,0.5900601,0.59015083,0.59023553,0.59031,0.5903733,0.59042746,0.5904759,0.59052634,0.5905891,0.5906632,0.5907515,0.5908456,0.5909549,0.5910747,0.5911947,0.5913168,0.5914369,0.5915618,0.59169185,0.5918216,0.59194326,0.5920576,0.5921668,0.5922686,0.5923661,0.59246254,0.59257275,0.5926972,0.5928346,0.59297574,0.59311247,0.59324217,0.59335685,0.59346235,0.5935646,0.5936662,0.5937675,0.59386384,0.5939504,0.5940285,0.5941031,0.59417844,0.5942645,0.59436226,0.5944852,0.5946389,0.5948213,0.59502995,0.59525776,0.5955131,0.59580207,0.59612024,0.5964612,0.59682405,0.5971982,0.5975611,0.5978994,0.5982045,0.59846556,0.5986587,0.5987851,0.5988627,0.59886724,0.5987903,0.59871185,0.59865445,0.5986243,0.5985929,0.59857035,0.59842545,0.59798753,0.5971107,0.59567505,0.59375364,0.5919534,0.5896459,0.58672523,0.5834392,0.5800757,0.576645,0.57291013,0.5687473,0.5652625,0.5632206,0.56227726,0.5615682,0.5607846,0.5602236,0.560015,0.5599165,0.5599526,0.56010807,0.5603787,0.5607909,0.5613539,0.5619966,0.56261265,0.5631952,0.56412125,0.5652845,0.56622064,0.5676073,0.5692171,0.57034206,0.5717074,0.5739151,0.5756162,0.57908237,0.5870168,0.60073304,0.6151911,0.6248025,0.63041246,0.63307595,0.6362736,0.6391998,0.64108944,0.6420212,0.64237916,0.64251363,0.6427768,0.64313245,0.64330554,0.6435745,0.6439355,0.6443182,0.64460015,0.6446848,0.64456546,0.6442753,0.6438974,0.64354277,0.64320475,0.6428281,0.6423114,0.6416054,0.640899,0.64062476,0.6407625,0.64130795,0.64239466,0.64391804,0.64546573,0.64708096,0.6492424,0.65154576,0.6530714,0.65451956,0.6568228,0.66015077,0.6647473,0.67003787,0.67558134,0.6836904,0.6877296,0.6829145,0.66804636,0.6420882,0.61150455,0.59112036,0.5880188,0.5880792,0.5887644,0.5886599,0.5882225,0.58884907,0.58979356,0.59013796,0.5905429,0.59060276
0.5828835,0.58286834,0.5828428,0.58281446,0.5828006,0.58280015,0.5828624,0.58299667,0.58318055,0.58340025,0.58363754,0.5838716,0.5841123,0.58435273,0.5845807,0.5847927,0.5849714,0.58509815,0.5851841,0.585235,0.5852779,0.5853188,0.5853549,0.585392,0.58542824,0.585454,0.5854665,0.5854652,0.5854625,0.58546877,0.58548844,0.5855197,0.58555084,0.5855812,0.5856234,0.5856434,0.58566177,0.5856698,0.5856805,0.58569604,0.58571136,0.5857253,0.58574206,0.5857636,0.5857902,0.58582044,0.5858513,0.5858915,0.5859491,0.5860201,0.5860957,0.58616626,0.5862338,0.5862895,0.58633804,0.5863831,0.5864291,0.58647704,0.5865221,0.5865612,0.5866002,0.5866356,0.5866684,0.5866983,0.58672523,0.5867527,0.58678585,0.58682775,0.5868812,0.5869478,0.5870224,0.5870975,0.5871725,0.58724976,0.58733046,0.58741677,0.58750707,0.58759767,0.58768475,0.5877485,0.5877849,0.58780456,0.5878133,0.5878186,0.58782667,0.5878367,0.58784974,0.5878674,0.58789665,0.5879414,0.5879982,0.5880666,0.58814704,0.5882404,0.5883368,0.58842784,0.5885063,0.58856046,0.5885786,0.58857846,0.58856314,0.58853483,0.5885047,0.5884757,0.58845025,0.5884273,0.588412,0.5884291,0.5884587,0.5885085,0.58857155,0.5886485,0.58873236,0.5888113,0.58888006,0.58893585,0.5889811,0.58901846,0.5890517,0.5890825,0.5891216,0.58917475,0.5892353,0.58930147,0.58936864,0.5894551,0.5895513,0.5896586,0.5897753,0.5898944,0.59001064,0.5901193,0.5902199,0.59031343,0.5903939,0.5904605,0.59051573,0.5905634,0.5906112,0.5906712,0.59074247,0.5908288,0.5909228,0.5910343,0.5911585,0.5912845,0.59141374,0.5915406,0.591671,0.59180653,0.59194016,0.5920651,0.5921819,0.5922921,0.5923933,0.59248924,0.59258276,0.59269005,0.59281164,0.59294784,0.5930908,0.5932324,0.5933693,0.59349215,0.59360623,0.593717,0.59382564,0.5939326,0.5940325,0.59411997,0.59419584,0.59426457,0.59433043,0.5944034,0.59448403,0.59458745,0.5947207,0.59488267,0.59507155,0.59528136,0.59552026,0.5957939,0.59609735,0.59642357,0.59677124,0.59713054,0.5974804,0.59780824,0.5981074,0.59837365,0.59858453,0.59873974,0.5988513,0.5989221,0.5989333,0.5988797,0.5988605,0.5988865,0.5989474,0.59904,0.59911054,0.59896624,0.5984094,0.59740686,0.5958718,0.59405285,0.5920751,0.58968836,0.58667517,0.5832598,0.5797997,0.5762342,0.5722021,0.56821716,0.56524634,0.56350887,0.5626135,0.56190145,0.56115144,0.56072843,0.5605198,0.5604333,0.56049097,0.56067544,0.560992,0.56147736,0.5621027,0.56274295,0.56332475,0.56418896,0.5653403,0.566365,0.5677325,0.56939447,0.5707345,0.57189924,0.57342154,0.57597864,0.57757014,0.58329034,0.59495175,0.609545,0.62180424,0.6283504,0.63199306,0.6348438,0.6382174,0.64062524,0.6418669,0.6423924,0.6425235,0.6427053,0.6430285,0.643247,0.64350116,0.64385045,0.64424837,0.6445656,0.64471066,0.64467955,0.64448905,0.6441797,0.64385545,0.6435385,0.64322555,0.6429057,0.64247966,0.6418675,0.6413014,0.641119,0.6413077,0.6419617,0.6432734,0.64492035,0.6465907,0.6485473,0.6508343,0.6525121,0.65403295,0.6557241,0.65839183,0.6627736,0.66787577,0.67311764,0.68191206,0.68688446,0.6836531,0.67011553,0.64500546,0.6141074,0.59200394,0.58731914,0.58774966,0.5886621,0.5884839,0.5882838,0.58893335,0.589718,0.590032,0.59035033,0.59048367
