8.666912,8.666651,8.667009,8.667116,8.665628,8.664499,8.663239,8.661924,8.660353,8.658558,8.656778,8.655187,8.654129,8.653435,8.6531,8.65259,8.6516075,8.650278,8.648853,8.6474285,8.646275,8.644443,8.642937,8.642207,8.642368,8.643541,8.645603,8.648472,8.651502,8.654564,8.657581,8.660568,8.663364,8.665527,8.666996,8.667487,8.66728,8.666895,8.666798,8.667355,8.668612,8.670063,8.672054,8.674758,8.678312,8.682417,8.686255,8.689166,8.691336,8.693077,8.694853,8.697085,8.699837,8.702654,8.705015,8.706823,8.708502,8.710547,8.713302,8.717328,8.721848,8.725418,8.727667,8.728743,8.729764,8.730477,8.730804,8.730669,8.730124,8.729665,8.730085,8.731449,8.733938,8.737046,8.740347,8.743708,8.747051,8.750227,8.7533455,8.756201,8.758715,8.760774,8.76247,8.763998,8.765318,8.766644,8.768105,8.7699375,8.772007,8.773854,8.775115,8.775764,8.776066,8.775788,8.774884,8.772841,8.7704315,8.768465,8.766652,8.765375,8.764366,8.763396,8.762557,8.762185,8.762541,8.763565,8.76495,8.7663,8.76745,8.76829,8.76898,8.769714,8.770592,8.77166,8.772791,8.774267,8.775856,8.7773905,8.778889,8.780517,8.782346,8.783927,8.78532,8.786264,8.787027,8.787751,8.788334,8.788727,8.788921,8.789144,8.789803,8.791227,8.793587,8.796448,8.7992,8.802017,8.804991,8.808569,8.812595,8.816767,8.820702,8.824063,8.826751,8.828945,8.831009,8.83296,8.834798,8.836367,8.837624,8.838831,8.84017,8.841845,8.843552,8.845143,8.846504,8.847653,8.8487835,8.849865,8.850927,8.85183,8.852346,8.852463,8.85246,8.852619,8.852948,8.853535,8.85418,8.854803,8.855528,8.856489,8.857605,8.858555,8.859388,8.859968,8.860405,8.860848,8.861333,8.86175,8.8618965,8.861655,8.860987,8.860072,8.859144,8.85837,8.857754,8.857151,8.856712,8.856495,8.856665,8.857056,8.857496,8.857828,8.857941,8.857937,8.858006,8.857994,8.857676,8.856733,8.855017,8.852812,8.850714,8.8490505,8.848211,8.848106,8.84845,8.848876,8.849109,8.84911,8.849009,8.848816,8.848471,8.847881,8.847074,8.846085,8.844913,8.843616,8.842084,8.840311,8.838464,8.836697,8.83506,8.833522,8.831985,8.830391,8.828821,8.827549,8.826736,8.826344,8.826158,8.825928,8.825434,8.824667,8.823668,8.82257,8.821531,8.820648,8.819895,8.819172,8.818344,8.817356,8.8161125,8.814602,8.812989,8.811451,8.810002,8.808586,8.807152,8.805544,8.803705,8.801786,8.799976,8.798433,8.797049,8.795747,8.794462,8.793159,8.791935,8.790986,8.7904415,8.7901125,8.789888,8.78969,8.789285,8.7885895,8.787734,8.786808,8.785795,8.784788,8.783894,8.783192,8.782696,8.782283,8.781795,8.781233,8.780518,8.7795925,8.778622,8.777659,8.776681,8.775802,8.775202,8.774757,8.774513,8.7744,8.774143,8.773545,8.772688,8.771807,8.770943,8.77019,8.76952,8.768784,8.767965,8.767181,8.766545,8.766241,8.766239,8.766394,8.766585,8.76666,8.76651,8.766244,8.765955,8.76561,8.7651825,8.764774,8.764374,8.763966,8.763584
8.628552,8.628317,8.62863,8.62859,8.626911,8.625574,8.624102,8.62261,8.620889,8.618998,8.617185,8.615601,8.614578,8.613962,8.6136,8.61293,8.611635,8.609854,8.60795,8.606223,8.604893,8.602945,8.601387,8.600628,8.600794,8.602091,8.604432,8.607681,8.611145,8.614599,8.617837,8.62089,8.623683,8.62577,8.627116,8.627472,8.627045,8.626392,8.626053,8.626438,8.62759,8.628895,8.63074,8.633316,8.636787,8.640907,8.644829,8.647768,8.649857,8.651386,8.652891,8.654855,8.657399,8.660086,8.662355,8.664087,8.6657295,8.667753,8.670571,8.674701,8.679357,8.683136,8.685635,8.686942,8.688177,8.689007,8.689339,8.689184,8.6886835,8.688366,8.689024,8.690706,8.6935625,8.697039,8.7006645,8.704293,8.707838,8.711136,8.714342,8.717276,8.719875,8.722058,8.723918,8.725624,8.727127,8.72859,8.730164,8.732093,8.7341795,8.735956,8.737072,8.737467,8.73751,8.736881,8.735555,8.732971,8.729881,8.727185,8.72471,8.722845,8.721315,8.719837,8.718564,8.717921,8.718226,8.719423,8.721125,8.722799,8.724234,8.725288,8.726109,8.726922,8.727877,8.729014,8.730225,8.731825,8.733566,8.735257,8.736908,8.738678,8.740631,8.742304,8.74378,8.744773,8.745565,8.746304,8.746849,8.747156,8.747227,8.747286,8.747794,8.749103,8.751375,8.754157,8.756824,8.759594,8.7625675,8.766251,8.770491,8.774929,8.779127,8.782712,8.785541,8.78783,8.789923,8.79184,8.793564,8.794949,8.79597,8.796902,8.797942,8.799273,8.80061,8.801847,8.802902,8.803807,8.804769,8.805731,8.80674,8.807676,8.808321,8.808638,8.808832,8.809134,8.809532,8.810101,8.810655,8.811136,8.811679,8.812435,8.813362,8.814161,8.81491,8.815477,8.815981,8.816543,8.817162,8.817703,8.817972,8.817827,8.817255,8.816399,8.815466,8.814635,8.813942,8.813265,8.812775,8.812537,8.812719,8.813152,8.813656,8.814062,8.814257,8.814331,8.814499,8.814575,8.814318,8.813375,8.811579,8.809236,8.806988,8.805187,8.8042755,8.804187,8.804619,8.805164,8.80551,8.805582,8.805508,8.805318,8.80497,8.804383,8.803598,8.80266,8.801537,8.80028,8.798758,8.796945,8.7950115,8.793144,8.791431,8.789862,8.788343,8.78681,8.785311,8.784123,8.783399,8.783095,8.783016,8.782921,8.782574,8.781993,8.781197,8.7802925,8.779422,8.7786875,8.778067,8.777467,8.776766,8.775886,8.774704,8.773199,8.771561,8.7699995,8.768553,8.767178,8.765841,8.764369,8.762693,8.760945,8.75931,8.757906,8.756648,8.7554455,8.754223,8.752951,8.751724,8.750745,8.750166,8.749783,8.749485,8.749218,8.7487545,8.748005,8.747095,8.746119,8.745059,8.744013,8.743111,8.742422,8.741942,8.741531,8.741018,8.740402,8.7396145,8.738604,8.737535,8.736454,8.73533,8.734306,8.733567,8.732996,8.7326565,8.732471,8.732164,8.731522,8.730613,8.729682,8.728771,8.727955,8.72722,8.7264185,8.725542,8.724713,8.724034,8.723689,8.72364,8.723737,8.723877,8.723909,8.723728,8.723425,8.723101,8.722719,8.722229,8.721733,8.721224,8.720686,8.720169
8.592743,8.592523,8.592749,8.592514,8.590596,8.589031,8.587353,8.585687,8.583798,8.58177,8.579868,8.578222,8.577177,8.576557,8.576099,8.575211,8.57357,8.571347,8.569004,8.567005,8.565519,8.56353,8.562056,8.561468,8.561855,8.563451,8.566221,8.569969,8.57398,8.5779295,8.581463,8.58461,8.587355,8.589264,8.590396,8.590513,8.589796,8.588848,8.588273,8.588537,8.589661,8.590921,8.592711,8.595241,8.598696,8.602894,8.606966,8.610004,8.612067,8.613413,8.614661,8.616322,8.618565,8.620986,8.623034,8.624584,8.626114,8.628069,8.630915,8.635118,8.639871,8.643811,8.646526,8.648058,8.6495075,8.650475,8.650857,8.650724,8.650303,8.650133,8.650998,8.652938,8.656064,8.659782,8.6635895,8.667328,8.670914,8.674176,8.67733,8.680244,8.682887,8.685196,8.687264,8.689228,8.690981,8.692613,8.694271,8.696192,8.698132,8.699646,8.700424,8.700392,8.7,8.698887,8.697015,8.693822,8.690033,8.6866,8.6835,8.68114,8.679235,8.677466,8.675972,8.675189,8.675455,8.676726,8.678602,8.680462,8.682069,8.683297,8.684276,8.685242,8.686364,8.687651,8.689008,8.690813,8.692794,8.6947565,8.6966915,8.698736,8.700933,8.702824,8.704527,8.705727,8.706734,8.707653,8.708289,8.708596,8.7085705,8.708488,8.708853,8.71004,8.712227,8.714924,8.717499,8.720241,8.723227,8.727028,8.731478,8.736164,8.740606,8.744395,8.747353,8.749723,8.751831,8.75368,8.755257,8.756441,8.7572365,8.757921,8.758688,8.759712,8.760727,8.761667,8.762472,8.763193,8.76403,8.7648945,8.765848,8.766794,8.76753,8.768003,8.768368,8.768782,8.769229,8.769772,8.770235,8.770575,8.770933,8.771484,8.7722225,8.772881,8.773561,8.7741165,8.774681,8.775337,8.77605,8.776686,8.777058,8.777024,8.776566,8.775793,8.774885,8.774021,8.773254,8.772502,8.771957,8.77169,8.771856,8.772292,8.772829,8.773304,8.773582,8.773764,8.774036,8.774216,8.774039,8.773132,8.771293,8.768843,8.766476,8.764561,8.763599,8.763549,8.764082,8.764756,8.765213,8.765352,8.765303,8.765117,8.764759,8.7641735,8.763411,8.762507,8.761435,8.760211,8.758697,8.756847,8.754824,8.752832,8.751007,8.749365,8.747829,8.746319,8.744868,8.743742,8.743081,8.742842,8.742849,8.74287,8.742674,8.742285,8.741695,8.740979,8.740278,8.739691,8.73919,8.738705,8.73812,8.737332,8.736208,8.734731,8.733089,8.73152,8.730093,8.728779,8.727549,8.726223,8.7247095,8.723124,8.721624,8.720335,8.719181,8.718069,8.716921,8.7156925,8.714474,8.713458,8.7128105,8.71233,8.711908,8.711512,8.710933,8.71008,8.709068,8.708004,8.706867,8.705763,8.704836,8.704155,8.703691,8.703284,8.702747,8.702091,8.701246,8.700159,8.699014,8.697837,8.6965885,8.695431,8.69456,8.693857,8.693403,8.693121,8.692743,8.692058,8.691111,8.690155,8.689194,8.688312,8.687492,8.686609,8.685661,8.684771,8.684032,8.683624,8.683498,8.683521,8.683592,8.683569,8.683348,8.68302,8.682667,8.682276,8.681757,8.681222,8.680656,8.680033,8.679417
8.558098,8.557835,8.557899,8.55741,8.555249,8.553478,8.551658,8.549892,8.547895,8.545752,8.543749,8.542021,8.540934,8.540281,8.539745,8.538687,8.536781,8.534218,8.531542,8.529353,8.527798,8.52588,8.524642,8.524415,8.525217,8.527276,8.5305805,8.53491,8.539548,8.544077,8.547983,8.551265,8.553963,8.555667,8.556563,8.556438,8.555456,8.554259,8.553523,8.553748,8.554915,8.556195,8.557981,8.560481,8.563913,8.568163,8.572369,8.575531,8.577611,8.57885,8.579882,8.5812435,8.583154,8.585236,8.586953,8.588237,8.58958,8.591391,8.594222,8.598473,8.603281,8.607321,8.610201,8.611889,8.613493,8.614547,8.614952,8.614828,8.614441,8.614338,8.615292,8.617345,8.620565,8.624369,8.628235,8.631979,8.635525,8.638729,8.641826,8.644765,8.647519,8.650055,8.652435,8.654715,8.656737,8.65854,8.660217,8.662016,8.6636715,8.664781,8.665081,8.6644945,8.663549,8.661865,8.659384,8.655553,8.651057,8.646889,8.64316,8.640289,8.63804,8.636047,8.634432,8.633572,8.63379,8.635073,8.637022,8.638986,8.640713,8.642114,8.643303,8.644482,8.645803,8.6472645,8.6487665,8.650746,8.652948,8.655176,8.657408,8.659748,8.662193,8.664312,8.666258,8.667711,8.669001,8.670176,8.670977,8.671339,8.671268,8.671086,8.671326,8.672401,8.674509,8.677139,8.679656,8.682383,8.685402,8.689316,8.693946,8.698828,8.703445,8.707378,8.710411,8.712812,8.714895,8.71664,8.718049,8.719027,8.71961,8.720091,8.720634,8.721418,8.722168,8.722866,8.723497,8.724108,8.724872,8.725674,8.7265835,8.727524,8.728321,8.728916,8.729421,8.729937,8.730427,8.730946,8.731321,8.731539,8.731743,8.732124,8.73271,8.733258,8.733879,8.734438,8.73505,8.735765,8.73652,8.73719,8.737619,8.7376795,8.737327,8.736651,8.735794,8.734915,8.734095,8.73328,8.732681,8.732369,8.73251,8.732941,8.733506,8.734042,8.734413,8.734697,8.735075,8.7353525,8.735252,8.734365,8.732473,8.729914,8.727421,8.725388,8.724359,8.724319,8.724923,8.725683,8.726201,8.72635,8.726277,8.726057,8.725656,8.725042,8.724285,8.723415,8.722385,8.721207,8.719715,8.717851,8.715761,8.713676,8.711765,8.71008,8.708551,8.70709,8.705713,8.704668,8.704075,8.703901,8.703991,8.704117,8.704056,8.703837,8.703427,8.702881,8.702327,8.701853,8.701446,8.701054,8.700559,8.699854,8.698788,8.697339,8.69572,8.694177,8.692798,8.691566,8.690462,8.689295,8.68794,8.686487,8.685106,8.683903,8.682835,8.681808,8.680733,8.679565,8.678375,8.677338,8.676613,8.6760235,8.675463,8.674916,8.674192,8.673206,8.672081,8.670923,8.669722,8.668579,8.667652,8.666991,8.666542,8.666135,8.665575,8.664874,8.663969,8.662819,8.6616,8.660337,8.658983,8.6577,8.656699,8.655869,8.655298,8.65493,8.654503,8.653797,8.652852,8.651888,8.650904,8.649961,8.6490555,8.648081,8.647057,8.646101,8.645311,8.64484,8.644646,8.644585,8.644573,8.644478,8.6442,8.643824,8.643442,8.643023,8.642474,8.641905,8.6412945,8.640608,8.639914
8.519995,8.519648,8.519484,8.5186825,8.51625,8.514308,8.51243,8.510681,8.508696,8.50653,8.504484,8.502703,8.501601,8.500954,8.500393,8.499244,8.497175,8.494401,8.491535,8.489292,8.487788,8.486082,8.485279,8.485627,8.487064,8.48979,8.493756,8.49876,8.504111,8.50931,8.513655,8.517069,8.51965,8.521064,8.521641,8.521227,8.5199795,8.518572,8.517732,8.517988,8.519283,8.5206995,8.52257,8.5251045,8.528542,8.532839,8.537191,8.540542,8.542728,8.543968,8.54483,8.545881,8.547405,8.549055,8.5503235,8.551231,8.552286,8.553854,8.556585,8.560817,8.565618,8.569672,8.572604,8.574326,8.575939,8.57695,8.577267,8.577057,8.576595,8.576399,8.577255,8.579216,8.582328,8.586034,8.589834,8.593521,8.596991,8.600142,8.603239,8.606314,8.6093445,8.612272,8.615112,8.617832,8.620167,8.622142,8.623771,8.625319,8.626518,8.627045,8.626724,8.6254635,8.623881,8.621567,8.618441,8.613952,8.608734,8.603795,8.599369,8.595949,8.59333,8.591145,8.589445,8.5885315,8.588678,8.589876,8.591745,8.593657,8.595387,8.596895,8.598282,8.599695,8.601242,8.602879,8.604508,8.606625,8.609,8.61145,8.613946,8.616549,8.619207,8.621527,8.623694,8.625401,8.626995,8.628476,8.629505,8.629994,8.629946,8.629713,8.6298685,8.630881,8.632948,8.635551,8.6380625,8.640831,8.643928,8.647985,8.652777,8.657799,8.662516,8.666492,8.669521,8.67187,8.673834,8.675379,8.676527,8.677254,8.677633,8.677942,8.678328,8.67893,8.679495,8.680048,8.680597,8.681174,8.681921,8.682686,8.683537,8.684432,8.685242,8.685917,8.686522,8.687112,8.68762,8.688089,8.68839,8.688509,8.688583,8.68882,8.68928,8.689737,8.690321,8.6909,8.691571,8.692337,8.693111,8.693795,8.694263,8.69441,8.694168,8.6936,8.692802,8.691908,8.691019,8.690142,8.689491,8.689133,8.6892395,8.689658,8.69025,8.690866,8.691359,8.691792,8.692317,8.6927185,8.692711,8.691855,8.689912,8.6872425,8.684607,8.682429,8.681295,8.681223,8.681846,8.682626,8.68313,8.683214,8.683057,8.68275,8.68228,8.681629,8.680878,8.68005,8.679078,8.677969,8.67654,8.6747,8.672585,8.670435,8.668461,8.666765,8.665289,8.66393,8.662691,8.661789,8.661318,8.661254,8.661461,8.661726,8.661831,8.661808,8.6615925,8.661216,8.660799,8.660429,8.660101,8.6597805,8.6593485,8.658688,8.65765,8.656221,8.654614,8.653099,8.651775,8.650637,8.649672,8.648668,8.64748,8.646175,8.644901,8.643783,8.642793,8.6418495,8.640863,8.639772,8.638615,8.637545,8.636724,8.636002,8.635282,8.634573,8.633701,8.632587,8.631357,8.630123,8.628883,8.627743,8.626857,8.626247,8.625837,8.625433,8.624836,8.624093,8.623128,8.621902,8.620594,8.619221,8.617745,8.616339,8.615213,8.61426,8.613586,8.613147,8.612703,8.612041,8.611164,8.610246,8.609272,8.608285,8.607283,8.606195,8.605078,8.604049,8.603188,8.60264,8.602341,8.6021595,8.60202,8.601812,8.60145,8.601004,8.600565,8.600111,8.599545,8.598959,8.598324,8.597601,8.5968485
8.479378,8.478903,8.4784775,8.477347,8.474657,8.472596,8.470768,8.469205,8.467447,8.465478,8.463583,8.461938,8.461016,8.460577,8.460242,8.459301,8.457396,8.454749,8.452032,8.450029,8.448858,8.447661,8.447599,8.448837,8.451189,8.454775,8.459508,8.465234,8.471311,8.477171,8.481945,8.485462,8.4878845,8.489009,8.489307,8.488714,8.487376,8.485968,8.485229,8.485691,8.487252,8.488926,8.490946,8.493537,8.496943,8.501221,8.505676,8.509233,8.511564,8.512886,8.513676,8.514477,8.515621,8.516773,8.517435,8.517717,8.518183,8.5191765,8.521511,8.525522,8.530138,8.533957,8.536631,8.538005,8.539191,8.539762,8.539677,8.539158,8.538464,8.538025,8.538626,8.540344,8.543202,8.546687,8.550338,8.55392,8.557299,8.5604315,8.563586,8.566854,8.570204,8.573509,8.576733,8.579794,8.582332,8.58437,8.585838,8.587052,8.587755,8.58769,8.586744,8.584806,8.582526,8.579594,8.5759325,8.571032,8.565481,8.560204,8.555435,8.551744,8.548964,8.546738,8.545044,8.544067,8.544022,8.544929,8.54649,8.548104,8.549595,8.550976,8.552343,8.553786,8.555344,8.5569515,8.558496,8.560516,8.562838,8.565302,8.567875,8.570572,8.5733,8.575708,8.578003,8.579918,8.581821,8.58366,8.585018,8.585774,8.585909,8.585806,8.586048,8.587137,8.589266,8.591909,8.594454,8.597256,8.600402,8.604517,8.609337,8.614334,8.618975,8.622846,8.625763,8.627975,8.629776,8.6311035,8.632008,8.632523,8.632751,8.632948,8.633231,8.633693,8.634099,8.634497,8.634928,8.635431,8.636108,8.636784,8.637506,8.638273,8.639011,8.639683,8.64032,8.640945,8.641459,8.641878,8.642107,8.642141,8.642115,8.642239,8.642592,8.642981,8.643527,8.644102,8.644791,8.645556,8.646298,8.64695,8.64743,8.64765,8.647527,8.647088,8.646383,8.64551,8.644585,8.643656,8.642956,8.642545,8.642603,8.642988,8.64358,8.6442375,8.644806,8.645337,8.645962,8.646452,8.646526,8.645723,8.643787,8.641084,8.638391,8.636147,8.634964,8.634886,8.635523,8.636299,8.636757,8.636753,8.636481,8.636055,8.6354885,8.6347685,8.633972,8.633126,8.632164,8.631091,8.6297035,8.627884,8.625767,8.623595,8.62161,8.619957,8.618586,8.617371,8.616309,8.615564,8.615208,8.615215,8.61548,8.6158085,8.615997,8.616084,8.615982,8.61571,8.615383,8.615086,8.614814,8.614549,8.614185,8.61359,8.612625,8.611282,8.609772,8.608361,8.607166,8.606199,8.605436,8.604643,8.603653,8.602509,8.601347,8.600307,8.599401,8.598562,8.59771,8.596752,8.595688,8.594639,8.593763,8.592957,8.592125,8.59129,8.5903015,8.589083,8.587753,8.586445,8.585167,8.584028,8.583175,8.582602,8.582205,8.58178,8.581142,8.580354,8.579336,8.57807,8.576708,8.575268,8.573721,8.572241,8.571026,8.56999,8.569238,8.568743,8.5683,8.567701,8.566917,8.566076,8.5651455,8.564147,8.563078,8.561908,8.560726,8.559656,8.558762,8.558153,8.557764,8.557463,8.55718,8.556841,8.556365,8.55582,8.555309,8.554797,8.554176,8.553541,8.552856,8.552081,8.551275
8.436905,8.43627,8.435585,8.434156,8.431257,8.4291725,8.427523,8.426346,8.425074,8.423588,8.422135,8.420899,8.420435,8.420516,8.420776,8.420458,8.419161,8.417096,8.414946,8.413545,8.41305,8.412674,8.413641,8.416007,8.419451,8.424004,8.429492,8.435873,8.442568,8.448948,8.454003,8.457506,8.459705,8.4605465,8.460642,8.46003,8.45883,8.457676,8.457283,8.4581585,8.460144,8.462173,8.464404,8.4670515,8.4703665,8.474537,8.479031,8.482783,8.485289,8.486771,8.487644,8.488371,8.489269,8.489967,8.489927,8.48934,8.488871,8.488916,8.490515,8.494045,8.498242,8.501517,8.503521,8.504049,8.504216,8.503777,8.502834,8.501694,8.500557,8.499722,8.499941,8.501308,8.503838,8.507042,8.510516,8.514015,8.517359,8.520544,8.523859,8.527408,8.531096,8.534702,8.538172,8.541418,8.543997,8.545996,8.547249,8.548145,8.548448,8.547914,8.546462,8.543957,8.54096,8.53744,8.533412,8.528473,8.523148,8.518139,8.513548,8.509996,8.507316,8.505216,8.503585,8.502462,8.502024,8.50238,8.503372,8.504429,8.505405,8.506365,8.5074005,8.508547,8.509788,8.511059,8.512222,8.51383,8.515773,8.517939,8.520294,8.522824,8.525397,8.527716,8.5299835,8.532017,8.534183,8.536392,8.538176,8.539349,8.539862,8.54012,8.540683,8.542039,8.544361,8.547127,8.549741,8.552563,8.555708,8.559757,8.564438,8.569214,8.573578,8.577179,8.579869,8.581879,8.583495,8.584639,8.585375,8.585763,8.585913,8.586058,8.586273,8.586618,8.586847,8.58703,8.5872555,8.587581,8.588074,8.58856,8.589054,8.589589,8.59015,8.590713,8.591302,8.591919,8.5924225,8.592798,8.592976,8.592953,8.592865,8.592926,8.593222,8.593565,8.594074,8.594621,8.595282,8.595988,8.596646,8.597231,8.597694,8.597969,8.597967,8.597677,8.597105,8.596304,8.595384,8.594429,8.593687,8.59322,8.593214,8.593542,8.5940895,8.594717,8.59528,8.595823,8.596449,8.596958,8.597071,8.596331,8.594469,8.591833,8.589203,8.5870075,8.58587,8.585839,8.586504,8.587265,8.587658,8.587553,8.58716,8.586605,8.585914,8.585077,8.584173,8.583241,8.582226,8.581133,8.57975,8.577948,8.57585,8.573713,8.5717945,8.570258,8.569054,8.568033,8.567183,8.566605,8.566338,8.566361,8.566595,8.566874,8.567028,8.567095,8.566998,8.566746,8.566446,8.566178,8.565933,8.565716,8.565435,8.564954,8.564137,8.562973,8.561658,8.560456,8.559474,8.558758,8.558254,8.557709,8.556932,8.555946,8.554884,8.553918,8.553101,8.552387,8.551709,8.550947,8.550055,8.549114,8.548279,8.547473,8.546626,8.545755,8.544722,8.54345,8.542053,8.540686,8.5393715,8.538228,8.537383,8.536815,8.5364,8.535934,8.535246,8.534413,8.533362,8.532089,8.530724,8.529276,8.527725,8.52623,8.52498,8.523908,8.523103,8.522558,8.52211,8.521566,8.52087,8.520119,8.519258,8.51829,8.517205,8.51601,8.51482,8.5137615,8.512881,8.512261,8.511822,8.511417,8.51099,8.510491,8.5098715,8.509205,8.508593,8.507973,8.50724,8.506483,8.50568,8.504805,8.5039215
8.393817,8.393019,8.392112,8.390442,8.387386,8.385355,8.383961,8.383303,8.38269,8.381889,8.381084,8.3804455,8.380608,8.381409,8.382481,8.383038,8.382647,8.381459,8.380144,8.379578,8.379953,8.38057,8.382707,8.386293,8.390875,8.396387,8.402536,8.409433,8.416556,8.423252,8.428394,8.431728,8.433611,8.434137,8.434049,8.433491,8.4325485,8.43179,8.431883,8.433294,8.435806,8.438267,8.440785,8.443538,8.446779,8.450842,8.4553795,8.459351,8.462097,8.463814,8.464903,8.465702,8.466484,8.466808,8.466061,8.464508,8.462961,8.461905,8.462639,8.465587,8.469246,8.471764,8.472738,8.471951,8.470554,8.468576,8.466353,8.464306,8.462564,8.461241,8.461043,8.462048,8.464278,8.467236,8.47057,8.474045,8.477415,8.480709,8.484262,8.488144,8.49217,8.495994,8.499574,8.502876,8.505383,8.507271,8.5082855,8.508898,8.5089,8.508043,8.506234,8.503315,8.499662,8.495619,8.491377,8.486698,8.482035,8.477788,8.473789,8.470701,8.468301,8.466416,8.464847,8.463495,8.462509,8.462142,8.4624195,8.462766,8.46308,8.463455,8.463963,8.464594,8.465313,8.466053,8.466661,8.467678,8.469046,8.470705,8.472639,8.474791,8.477022,8.47909,8.481174,8.483198,8.485519,8.488033,8.490238,8.491877,8.492861,8.493605,8.494625,8.496363,8.498955,8.501883,8.504578,8.507409,8.510509,8.514414,8.518844,8.52328,8.527264,8.530514,8.53293,8.534725,8.536171,8.537176,8.537811,8.538139,8.538251,8.538367,8.538525,8.538752,8.538784,8.538718,8.538685,8.538757,8.538998,8.539238,8.539458,8.539703,8.54003,8.540434,8.540937,8.541538,8.542038,8.542397,8.542556,8.542511,8.542391,8.542417,8.542679,8.542976,8.54343,8.543922,8.544508,8.545109,8.545652,8.546152,8.546579,8.5469,8.547013,8.546882,8.546467,8.545769,8.544888,8.54393,8.543162,8.5426445,8.542585,8.542852,8.543329,8.543875,8.544355,8.54483,8.54537,8.545822,8.545931,8.545254,8.543512,8.541034,8.538563,8.536518,8.5355015,8.535566,8.536277,8.537022,8.537355,8.537163,8.536671,8.536012,8.535194,8.534221,8.533175,8.532112,8.531,8.529848,8.528442,8.526651,8.524599,8.522539,8.520742,8.519377,8.518377,8.517578,8.516945,8.516525,8.516317,8.51631,8.516443,8.516596,8.516638,8.516607,8.51646,8.5161915,8.515888,8.51563,8.515394,8.515213,8.515012,8.514664,8.514036,8.5131,8.512028,8.511082,8.510344,8.509901,8.509673,8.50938,8.50881,8.507966,8.506982,8.506083,8.505339,8.504757,8.504261,8.503712,8.503019,8.502232,8.50149,8.500739,8.499941,8.4991,8.498079,8.496799,8.495371,8.493963,8.492622,8.491463,8.49061,8.490027,8.489582,8.489068,8.488338,8.487475,8.486419,8.485167,8.483831,8.482428,8.480929,8.479473,8.478246,8.477177,8.476345,8.475759,8.475292,8.474781,8.474161,8.473505,8.47273,8.471828,8.470781,8.46961,8.468455,8.467447,8.466618,8.46603,8.465569,8.46508,8.464508,8.463835,8.463053,8.462252,8.4615135,8.4607525,8.459857,8.458914,8.457926,8.456903,8.455912
8.352137,8.35121,8.3501425,8.348297,8.345117,8.343142,8.341974,8.341803,8.341853,8.341746,8.341581,8.341527,8.34227,8.343735,8.345533,8.346931,8.347439,8.347135,8.346675,8.3469515,8.348182,8.349768,8.353035,8.357799,8.363458,8.369833,8.376519,8.383787,8.3911495,8.397989,8.403099,8.406182,8.407698,8.4079,8.407623,8.407115,8.406418,8.406067,8.40666,8.408613,8.411675,8.414614,8.417495,8.420467,8.423767,8.427801,8.432394,8.436619,8.439674,8.44169,8.443075,8.443979,8.444638,8.444603,8.443234,8.440863,8.4383335,8.43631,8.436321,8.438822,8.442015,8.443706,8.443424,8.440992,8.437685,8.433859,8.430122,8.427052,8.424694,8.422924,8.422411,8.423171,8.425237,8.428062,8.431326,8.434801,8.4382,8.441571,8.445331,8.449472,8.453743,8.457666,8.461215,8.464458,8.466829,8.468529,8.469273,8.469578,8.469326,8.468253,8.466204,8.463003,8.458839,8.454376,8.450018,8.445727,8.441917,8.438662,8.435466,8.432978,8.430931,8.429266,8.427723,8.426107,8.424559,8.423466,8.423065,8.422731,8.422443,8.422291,8.422304,8.422447,8.422673,8.422913,8.423014,8.423492,8.42433,8.425503,8.426985,8.428698,8.430511,8.432247,8.43405,8.435941,8.43828,8.440952,8.443455,8.445467,8.446859,8.448046,8.449484,8.451569,8.454406,8.457462,8.460203,8.463009,8.4660225,8.469742,8.473892,8.477982,8.481602,8.484536,8.486723,8.488349,8.489685,8.490608,8.491188,8.491479,8.491556,8.491615,8.491696,8.491777,8.4916115,8.491306,8.491018,8.490845,8.490852,8.490873,8.490858,8.490849,8.490971,8.491243,8.4916935,8.492321,8.492868,8.493267,8.493446,8.493397,8.493248,8.493229,8.493427,8.493645,8.494003,8.494385,8.494837,8.495295,8.495708,8.496111,8.496502,8.496866,8.497093,8.497126,8.496883,8.496318,8.495502,8.494564,8.493789,8.493256,8.493177,8.493415,8.493826,8.494268,8.494616,8.494947,8.495335,8.49567,8.495747,8.495131,8.493547,8.49129,8.489045,8.48723,8.486399,8.486601,8.487388,8.488149,8.488468,8.488246,8.487719,8.487007,8.486101,8.485009,8.483817,8.482601,8.481377,8.480148,8.478706,8.476917,8.474915,8.472951,8.471296,8.47011,8.469306,8.4687,8.468237,8.467919,8.467727,8.46764,8.467632,8.467627,8.467527,8.4674015,8.467205,8.46693,8.466645,8.466401,8.466173,8.466017,8.465881,8.465648,8.465197,8.464476,8.463633,8.462908,8.462397,8.4621935,8.462217,8.462156,8.46177,8.461044,8.460127,8.459278,8.458592,8.458118,8.45778,8.457405,8.456885,8.456231,8.45556,8.454866,8.454108,8.4533,8.452295,8.451012,8.449554,8.448101,8.446722,8.44552,8.444632,8.444017,8.443533,8.442982,8.442238,8.441374,8.44034,8.439142,8.437882,8.43657,8.435175,8.433815,8.432658,8.431635,8.430809,8.430195,8.429697,8.429192,8.428625,8.428051,8.427374,8.426556,8.425573,8.424458,8.42336,8.422426,8.42167,8.421142,8.420687,8.420131,8.419427,8.418591,8.417655,8.416716,8.415861,8.414959,8.413882,8.412722,8.411519,8.410326,8.409216
8.312534,8.311518,8.310347,8.308369,8.305079,8.303127,8.3020935,8.302271,8.302841,8.303294,8.303628,8.303997,8.305148,8.307077,8.309385,8.311445,8.312731,8.313207,8.313503,8.314533,8.316514,8.318974,8.3232155,8.328995,8.335579,8.342623,8.349678,8.357178,8.364654,8.371537,8.376571,8.379435,8.380653,8.380585,8.380167,8.37973,8.379297,8.37937,8.380468,8.382954,8.38656,8.389978,8.393269,8.396551,8.400057,8.404043,8.408504,8.412882,8.416273,8.418693,8.420528,8.421631,8.422084,8.421624,8.419851,8.417072,8.413712,8.410916,8.41041,8.41264,8.415487,8.416372,8.414709,8.410465,8.40511,8.399356,8.394093,8.39006,8.387207,8.385134,8.384464,8.385136,8.387169,8.389969,8.393215,8.396671,8.400026,8.403378,8.407236,8.411511,8.415891,8.419792,8.42321,8.426308,8.428498,8.429974,8.430447,8.430473,8.430037,8.42885,8.426668,8.423288,8.418737,8.413923,8.409457,8.405531,8.402527,8.400217,8.397811,8.395886,8.394138,8.392612,8.391024,8.389102,8.387001,8.385262,8.384312,8.383469,8.382774,8.382294,8.382006,8.381842,8.381745,8.381649,8.381419,8.381533,8.381987,8.382773,8.383856,8.385139,8.386534,8.387903,8.389381,8.391064,8.393307,8.396,8.398649,8.400899,8.4025755,8.404095,8.405844,8.408183,8.411188,8.414318,8.417048,8.41979,8.422668,8.426163,8.430021,8.433785,8.43709,8.43976,8.441771,8.443287,8.444572,8.44548,8.446056,8.446329,8.446354,8.446323,8.446288,8.446203,8.4458275,8.445291,8.444781,8.4444065,8.444223,8.444081,8.443895,8.443704,8.443678,8.443869,8.44432,8.445024,8.445677,8.44618,8.446425,8.44639,8.4462185,8.44615,8.446283,8.446405,8.446638,8.446867,8.447138,8.447414,8.447684,8.448002,8.448365,8.4487705,8.449125,8.449338,8.4493,8.44892,8.448229,8.447354,8.446616,8.446113,8.446058,8.4463005,8.44666,8.4469795,8.447147,8.447266,8.447447,8.447628,8.44763,8.447059,8.44565,8.443654,8.441696,8.440168,8.439592,8.439981,8.440885,8.441711,8.442068,8.441875,8.441374,8.440662,8.439709,8.43851,8.437175,8.435815,8.434471,8.433178,8.431711,8.429932,8.427996,8.426155,8.424662,8.423658,8.423037,8.422571,8.422224,8.421961,8.421734,8.421539,8.421377,8.421202,8.420952,8.420725,8.420487,8.420229,8.419976,8.419748,8.419535,8.41939,8.419308,8.419178,8.418881,8.418349,8.4177,8.417158,8.416828,8.416832,8.417051,8.417175,8.416937,8.416306,8.415435,8.414612,8.413973,8.413577,8.413359,8.413133,8.412754,8.412213,8.411615,8.410968,8.41025,8.40946,8.408457,8.407154,8.405649,8.404116,8.402653,8.401371,8.400408,8.39973,8.399195,8.398617,8.397873,8.397032,8.396055,8.394954,8.393821,8.392651,8.391401,8.390187,8.389146,8.388197,8.3874035,8.386772,8.386231,8.385693,8.385134,8.384605,8.383996,8.383255,8.382345,8.381296,8.38028,8.379438,8.378788,8.378355,8.377947,8.377361,8.376547,8.375562,8.374482,8.373424,8.372462,8.371427,8.3701725,8.368792,8.36737,8.365999,8.364777
8.271229,8.270319,8.269251,8.267336,8.264064,8.26219,8.261261,8.261689,8.262658,8.263551,8.264255,8.26491,8.266289,8.268496,8.271095,8.273563,8.275377,8.2764435,8.277372,8.279058,8.28169,8.284882,8.289932,8.296547,8.3039055,8.3114395,8.318362,8.325001,8.331505,8.337424,8.341756,8.344309,8.345536,8.345672,8.34548,8.34534,8.345263,8.345831,8.347637,8.351011,8.35555,8.359778,8.363674,8.367357,8.371012,8.375143,8.379919,8.384576,8.38796,8.390385,8.392176,8.393276,8.393891,8.3933325,8.390946,8.387802,8.384518,8.381943,8.381533,8.383436,8.385468,8.3852625,8.382469,8.377106,8.369334,8.361312,8.354473,8.349563,8.346296,8.3439865,8.343237,8.343898,8.345992,8.34885,8.352129,8.355593,8.358922,8.362272,8.3663225,8.370852,8.375473,8.379483,8.3828745,8.385883,8.3878975,8.389088,8.389118,8.388571,8.387631,8.386114,8.383736,8.380262,8.3755045,8.370529,8.366104,8.362587,8.36035,8.358927,8.357254,8.35586,8.354425,8.353106,8.351564,8.349485,8.347011,8.344766,8.343397,8.342163,8.341146,8.3403845,8.339824,8.339378,8.339,8.338631,8.338155,8.338009,8.338173,8.338617,8.339273,8.340044,8.340889,8.34174,8.3427105,8.343966,8.345877,8.348358,8.350932,8.353231,8.355047,8.3567505,8.358683,8.36117,8.364269,8.367437,8.370144,8.372818,8.375572,8.378843,8.382405,8.385831,8.38879,8.391153,8.3929205,8.394249,8.395378,8.396149,8.396601,8.396735,8.39659,8.396379,8.396164,8.395897,8.395347,8.394663,8.394037,8.393569,8.393314,8.393112,8.392855,8.392572,8.392462,8.392611,8.393076,8.393846,8.394605,8.395195,8.395504,8.395487,8.395296,8.395195,8.395282,8.395334,8.39548,8.395599,8.395742,8.395902,8.396096,8.396383,8.396761,8.397233,8.397705,8.398085,8.398226,8.397995,8.397394,8.396563,8.395838,8.395354,8.395336,8.395609,8.395964,8.396219,8.396279,8.396265,8.396313,8.396399,8.396382,8.395904,8.394699,8.392986,8.391327,8.390083,8.389755,8.390305,8.391285,8.392155,8.39256,8.392442,8.392025,8.39139,8.390469,8.389241,8.387836,8.386401,8.385006,8.383686,8.382231,8.380497,8.378643,8.376923,8.375566,8.374694,8.374182,8.3738,8.373508,8.373266,8.37303,8.372797,8.372568,8.37232,8.37202,8.371792,8.371605,8.371429,8.371256,8.371063,8.370834,8.370684,8.370598,8.370501,8.370266,8.369811,8.369243,8.368782,8.3685465,8.368665,8.369022,8.369286,8.369163,8.368603,8.367773,8.366981,8.366378,8.366049,8.365934,8.365837,8.365583,8.365147,8.364621,8.364029,8.363363,8.362619,8.361645,8.360341,8.358806,8.357225,8.355697,8.354349,8.3533325,8.3526125,8.352052,8.351475,8.350758,8.349953,8.349047,8.3480425,8.347032,8.346001,8.344904,8.343838,8.342927,8.342092,8.341364,8.3407545,8.34021,8.339672,8.3391485,8.338697,8.338192,8.337555,8.336725,8.335731,8.334757,8.333965,8.333374,8.332994,8.332592,8.331935,8.330981,8.329826,8.328605,8.327463,8.326456,8.325381,8.324055,8.322564,8.321026,8.319572,8.318303
8.22797,8.227423,8.226721,8.225081,8.221963,8.220191,8.219297,8.219769,8.220919,8.222067,8.222971,8.223748,8.225182,8.22747,8.23018,8.232722,8.234636,8.23596,8.237332,8.239489,8.242133,8.24522,8.250145,8.256539,8.263517,8.270536,8.276869,8.283104,8.289222,8.295013,8.299505,8.302295,8.303778,8.3043995,8.3048725,8.305731,8.306894,8.308626,8.311204,8.314854,8.319337,8.32349,8.327528,8.331602,8.335674,8.340027,8.344721,8.349102,8.352326,8.354684,8.356467,8.3575115,8.357941,8.357427,8.355668,8.353359,8.350763,8.348626,8.347948,8.348743,8.349056,8.346935,8.342447,8.335876,8.327912,8.319595,8.311737,8.305855,8.30225,8.29969,8.29878,8.299442,8.30168,8.304649,8.307934,8.311344,8.314614,8.317966,8.322317,8.327261,8.332264,8.336472,8.339938,8.343013,8.344935,8.345808,8.345242,8.343771,8.341911,8.33974,8.337002,8.333411,8.328581,8.323633,8.319357,8.316183,8.314501,8.313714,8.312561,8.311558,8.310413,8.309357,8.308023,8.3060465,8.30353,8.301121,8.299583,8.298195,8.297027,8.296116,8.295372,8.294712,8.294124,8.293573,8.292959,8.292693,8.29269,8.292881,8.293137,8.2933445,8.293549,8.293734,8.29401,8.294613,8.295927,8.297911,8.300142,8.30224,8.3039665,8.305624,8.307524,8.309963,8.313005,8.316109,8.318733,8.321316,8.323925,8.326956,8.330206,8.333275,8.335861,8.337869,8.339333,8.340399,8.341272,8.341793,8.341993,8.341864,8.341436,8.34096,8.340502,8.340038,8.339355,8.338619,8.338015,8.3376045,8.337415,8.337299,8.337099,8.336861,8.336786,8.336971,8.337491,8.338357,8.339226,8.339912,8.340298,8.340318,8.340136,8.3400345,8.340116,8.340143,8.340249,8.340313,8.340399,8.340531,8.340742,8.341082,8.341532,8.342104,8.342708,8.343246,8.343554,8.343456,8.342943,8.342146,8.341435,8.340976,8.341011,8.341356,8.341766,8.342043,8.342092,8.342044,8.342058,8.342144,8.342186,8.341851,8.340883,8.33947,8.338127,8.337187,8.337103,8.337805,8.338864,8.339794,8.340294,8.340326,8.340092,8.339636,8.338858,8.337713,8.336336,8.334906,8.333525,8.332239,8.330833,8.329172,8.327417,8.325804,8.324536,8.323729,8.323232,8.32283,8.322502,8.322247,8.322019,8.321809,8.321619,8.321391,8.321136,8.321001,8.320945,8.320921,8.320871,8.320735,8.320499,8.320318,8.320187,8.320042,8.319765,8.319273,8.318666,8.318178,8.317959,8.318123,8.318559,8.318922,8.318885,8.318382,8.3176,8.316844,8.316286,8.316018,8.315994,8.316013,8.315884,8.31556,8.315135,8.314625,8.314026,8.313337,8.312395,8.311092,8.309525,8.307888,8.306296,8.304882,8.303808,8.303049,8.30247,8.301899,8.301212,8.300464,8.299635,8.298727,8.297824,8.296919,8.295976,8.295071,8.294315,8.293629,8.293013,8.292471,8.291969,8.291476,8.291013,8.290675,8.290299,8.289783,8.289033,8.288068,8.2870865,8.28628,8.285694,8.285326,8.284884,8.284121,8.2829895,8.281647,8.2803,8.279123,8.278149,8.277141,8.275873,8.274411,8.272887,8.271465,8.27025
8.184718,8.184786,8.184696,8.183529,8.180702,8.179068,8.178188,8.178589,8.179832,8.1810255,8.181696,8.182165,8.1832695,8.185095,8.187264,8.189206,8.190645,8.191833,8.193412,8.195914,8.198853,8.202272,8.207476,8.214122,8.221252,8.22811,8.233959,8.239931,8.245861,8.251677,8.256599,8.2601185,8.262438,8.26403,8.265587,8.267814,8.270533,8.273765,8.277502,8.281797,8.286655,8.29175,8.296652,8.301643,8.306471,8.311208,8.315874,8.320011,8.323078,8.324846,8.325645,8.325275,8.324007,8.321981,8.319197,8.316143,8.313648,8.311249,8.309894,8.309568,8.308197,8.303904,8.297205,8.288669,8.279755,8.271587,8.264498,8.259708,8.257428,8.256176,8.2563925,8.257682,8.259899,8.262701,8.265841,8.269008,8.271924,8.27488,8.279083,8.284063,8.289151,8.293484,8.296639,8.298716,8.299828,8.300009,8.298822,8.2966,8.294125,8.29175,8.289368,8.286722,8.2828045,8.278206,8.274261,8.271513,8.270304,8.269987,8.269201,8.268452,8.267548,8.26672,8.265548,8.263655,8.261127,8.258602,8.25692,8.255392,8.25403,8.252903,8.251913,8.250987,8.25016,8.2494335,8.248703,8.248367,8.248212,8.248121,8.247902,8.247423,8.2468605,8.246246,8.245686,8.245479,8.246021,8.24733,8.24905,8.250794,8.252283,8.25375,8.255455,8.257704,8.260564,8.2635,8.265972,8.268399,8.270807,8.273531,8.276391,8.27902,8.281146,8.282714,8.283795,8.284533,8.28508,8.285303,8.285212,8.284775,8.284044,8.283287,8.282597,8.281979,8.281225,8.280513,8.279997,8.2797,8.279631,8.27964,8.279552,8.2794075,8.279412,8.279667,8.280263,8.281225,8.282206,8.282993,8.283466,8.283549,8.283419,8.283373,8.283499,8.283548,8.283667,8.283726,8.283815,8.283989,8.284285,8.284733,8.285301,8.285996,8.286741,8.287437,8.287907,8.287955,8.287535,8.286781,8.286093,8.285658,8.285744,8.286173,8.286688,8.28706,8.287186,8.287203,8.287276,8.287447,8.287608,8.287449,8.286737,8.285645,8.284636,8.28401,8.284182,8.285038,8.286188,8.287203,8.287838,8.288078,8.288101,8.287913,8.287369,8.2863865,8.285101,8.283728,8.282408,8.281195,8.279885,8.278345,8.276727,8.275243,8.274069,8.273293,8.272757,8.272259,8.271833,8.271528,8.271317,8.2711735,8.271072,8.270914,8.270732,8.270702,8.270786,8.270916,8.270996,8.270929,8.270706,8.270502,8.270336,8.270138,8.269787,8.269205,8.268508,8.267939,8.267692,8.267862,8.268339,8.268762,8.268774,8.268303,8.267544,8.266809,8.266284,8.266073,8.266138,8.266285,8.26631,8.266148,8.265881,8.265512,8.265036,8.264446,8.263566,8.262284,8.260702,8.259029,8.257389,8.255927,8.25481,8.254017,8.253423,8.252857,8.252205,8.251501,8.250735,8.249899,8.249065,8.248234,8.247377,8.246575,8.24593,8.245354,8.244829,8.24435,8.243895,8.24345,8.243071,8.242862,8.242628,8.242239,8.2415695,8.240613,8.23959,8.238743,8.238131,8.237742,8.237232,8.236314,8.234962,8.233395,8.231905,8.230711,8.229805,8.228928,8.227797,8.22645,8.225027,8.223714,8.222608
8.141491,8.142206,8.142747,8.142123,8.139727,8.138269,8.137267,8.137253,8.138037,8.138784,8.139034,8.13921,8.140025,8.141428,8.143067,8.144493,8.145877,8.147698,8.15037,8.154182,8.158252,8.162533,8.168482,8.175921,8.183905,8.191551,8.197961,8.204071,8.210106,8.21607,8.2216015,8.226276,8.229984,8.232969,8.235843,8.239441,8.243553,8.248381,8.253931,8.260038,8.266565,8.273375,8.279575,8.285627,8.291073,8.295944,8.300327,8.303856,8.306181,8.306513,8.305311,8.302503,8.298767,8.294416,8.289437,8.284611,8.280945,8.277234,8.27462,8.272907,8.269672,8.262966,8.253611,8.242561,8.231242,8.222504,8.216682,8.213848,8.213291,8.213369,8.214542,8.216726,8.219297,8.222312,8.225652,8.228878,8.231648,8.234053,8.237524,8.24151,8.245393,8.2485695,8.250515,8.25124,8.251402,8.250668,8.24883,8.24605,8.243326,8.241217,8.239675,8.238474,8.236338,8.233341,8.230917,8.229457,8.229308,8.229925,8.229961,8.229915,8.229712,8.2294655,8.228792,8.227238,8.224743,8.22191,8.219695,8.217625,8.215596,8.213739,8.212001,8.2103815,8.209022,8.207947,8.206964,8.206446,8.206028,8.20549,8.204581,8.20322,8.201738,8.200208,8.198713,8.197607,8.197315,8.197914,8.199097,8.200468,8.201702,8.20294,8.204406,8.206393,8.20899,8.211682,8.21394,8.216146,8.218285,8.220625,8.222988,8.225052,8.226595,8.227608,8.22821,8.22854,8.228709,8.2286215,8.228265,8.227581,8.226627,8.225687,8.224867,8.224203,8.223477,8.2228565,8.22245,8.22225,8.222271,8.222351,8.222334,8.222242,8.222291,8.222588,8.223235,8.224268,8.225346,8.226231,8.226801,8.226984,8.226957,8.227018,8.227247,8.227367,8.227553,8.227666,8.227821,8.2281,8.228535,8.2291355,8.229853,8.230688,8.231579,8.232433,8.233072,8.233276,8.232965,8.232273,8.231615,8.231207,8.231342,8.231874,8.23254,8.233087,8.233389,8.233585,8.233812,8.234138,8.234458,8.234488,8.234034,8.233267,8.232594,8.232292,8.232726,8.233753,8.235006,8.236125,8.236926,8.237415,8.237748,8.237887,8.237637,8.236874,8.235729,8.234455,8.2332325,8.2321205,8.230949,8.22958,8.228149,8.226844,8.225805,8.225069,8.224489,8.223894,8.223356,8.222985,8.222792,8.222733,8.222725,8.222645,8.222515,8.222549,8.222715,8.222944,8.223118,8.223114,8.222922,8.222731,8.222578,8.222382,8.222005,8.221367,8.220601,8.219968,8.219693,8.219875,8.2203865,8.220852,8.220898,8.220436,8.219673,8.218945,8.218439,8.21829,8.218466,8.218773,8.219006,8.2190695,8.21902,8.218866,8.218593,8.218172,8.217419,8.216218,8.214683,8.213043,8.211423,8.209991,8.208897,8.208117,8.207525,8.206966,8.206328,8.205639,8.204894,8.204065,8.20321,8.202332,8.201429,8.200594,8.199929,8.199349,8.198814,8.198323,8.1978655,8.197453,8.197159,8.197079,8.196987,8.196716,8.196105,8.195131,8.194046,8.193136,8.1924715,8.192031,8.19141,8.190296,8.188675,8.186849,8.185194,8.183969,8.183125,8.1823845,8.181411,8.180199,8.178899,8.1777115,8.1767235
8.098303,8.099503,8.100476,8.100294,8.098345,8.097059,8.0957985,8.095081,8.094864,8.094881,8.095037,8.095535,8.096897,8.099035,8.101536,8.103659,8.105978,8.109289,8.113753,8.119501,8.125054,8.1305065,8.137549,8.145945,8.154806,8.16358,8.171381,8.178329,8.18507,8.191763,8.198299,8.204197,8.209114,8.213257,8.217178,8.221857,8.227067,8.233288,8.240576,8.24854,8.256635,8.263977,8.270507,8.276827,8.28219,8.286402,8.289488,8.29128,8.291925,8.290371,8.287285,8.282606,8.277271,8.271814,8.266291,8.2613735,8.256329,8.251153,8.246766,8.242634,8.236513,8.226862,8.2147,8.20153,8.188787,8.179597,8.17399,8.171759,8.1717,8.171549,8.172007,8.174253,8.177315,8.180887,8.184673,8.188362,8.191622,8.194079,8.197232,8.200241,8.202482,8.203579,8.203924,8.204126,8.204006,8.2026825,8.200277,8.196938,8.193824,8.191692,8.190464,8.189819,8.189106,8.188529,8.188539,8.189042,8.190418,8.1923065,8.193455,8.19441,8.195183,8.195799,8.195921,8.194973,8.192696,8.189635,8.186842,8.184151,8.181355,8.178678,8.176233,8.174006,8.1719885,8.17023,8.168718,8.167764,8.166895,8.165736,8.163996,8.161701,8.159315,8.156918,8.154566,8.152615,8.151546,8.151497,8.152195,8.153233,8.154249,8.155279,8.156506,8.158202,8.160475,8.162857,8.164841,8.166774,8.16859,8.170493,8.172302,8.173735,8.174627,8.17502,8.17509,8.17496,8.1747265,8.174324,8.173748,8.172923,8.171875,8.1709,8.17009,8.169507,8.168918,8.168453,8.168179,8.168049,8.168096,8.168175,8.168145,8.168035,8.168064,8.1683445,8.168995,8.170066,8.1712055,8.172175,8.172853,8.173164,8.173275,8.173473,8.173836,8.174067,8.174356,8.17457,8.17484,8.175259,8.175856,8.176624,8.177495,8.178471,8.1795,8.180506,8.181314,8.181679,8.181498,8.180899,8.180298,8.1799345,8.1801405,8.1808,8.181651,8.182423,8.182972,8.183406,8.18383,8.184335,8.184818,8.185024,8.184803,8.184334,8.183977,8.183985,8.184673,8.185867,8.187224,8.188448,8.189421,8.190168,8.190813,8.191288,8.191353,8.190844,8.189882,8.18875,8.187655,8.186677,8.185659,8.184481,8.183259,8.182154,8.181263,8.18058,8.17996,8.179289,8.17864,8.1782,8.178022,8.178035,8.178103,8.17808,8.177975,8.178015,8.178186,8.178444,8.178658,8.178683,8.178524,8.178362,8.178247,8.178091,8.177742,8.17711,8.17632,8.175663,8.175392,8.175608,8.176156,8.176666,8.176746,8.176295,8.175535,8.174807,8.174324,8.174244,8.174534,8.1750145,8.17547,8.175776,8.175955,8.176048,8.176011,8.175795,8.175208,8.174138,8.172706,8.171148,8.169615,8.168279,8.167254,8.166511,8.16592,8.165337,8.164668,8.163959,8.163195,8.162328,8.161378,8.16037,8.159328,8.15836,8.157577,8.156899,8.156278,8.155716,8.155231,8.154856,8.154661,8.15472,8.154772,8.154612,8.154037,8.153028,8.151861,8.150864,8.1501255,8.149597,8.148829,8.147488,8.145575,8.14347,8.141651,8.140387,8.139599,8.138985,8.138157,8.137063,8.135858,8.134758,8.133848
8.058127,8.059719,8.060997,8.061037,8.059288,8.058125,8.056835,8.055998,8.055716,8.05584,8.056285,8.057409,8.060247,8.064369,8.069294,8.073139,8.076036,8.079206,8.083294,8.088667,8.095619,8.104258,8.114807,8.126274,8.137526,8.147728,8.156007,8.163095,8.169998,8.1768265,8.183631,8.189839,8.194944,8.199265,8.203348,8.208298,8.213814,8.220327,8.227802,8.235708,8.24352,8.250702,8.2568035,8.26263,8.267163,8.270044,8.27132,8.271074,8.270041,8.266853,8.262451,8.256617,8.250511,8.244723,8.239181,8.234668,8.229943,8.224636,8.218995,8.2122135,8.202852,8.190414,8.176206,8.161968,8.148905,8.14002,8.135255,8.134375,8.135965,8.137186,8.138156,8.1395035,8.141233,8.143621,8.146667,8.15016,8.153788,8.157131,8.161641,8.166271,8.169617,8.170957,8.170689,8.1697855,8.168885,8.1674595,8.165075,8.161709,8.158252,8.155718,8.15443,8.153967,8.153676,8.153505,8.154071,8.155256,8.157129,8.159119,8.160105,8.160767,8.161199,8.161697,8.161531,8.160267,8.157989,8.155205,8.152857,8.150537,8.14809,8.145854,8.144377,8.143162,8.141125,8.13834,8.136049,8.134431,8.132945,8.131132,8.128693,8.125735,8.12281,8.119928,8.117075,8.114582,8.112944,8.112366,8.11265,8.113403,8.114235,8.1150875,8.116091,8.1175,8.119429,8.121447,8.123085,8.124685,8.126131,8.12757,8.128827,8.129669,8.129969,8.129799,8.129387,8.128824,8.128216,8.127551,8.126825,8.125946,8.124924,8.124016,8.123312,8.122893,8.122509,8.122227,8.122061,8.121958,8.121945,8.12195,8.121838,8.121628,8.121556,8.121748,8.122342,8.1234,8.124565,8.125598,8.126377,8.126807,8.1270485,8.127388,8.127874,8.128212,8.128593,8.128887,8.129234,8.129745,8.13045,8.131327,8.132284,8.133351,8.1344795,8.135607,8.136571,8.137108,8.137083,8.136612,8.136115,8.135838,8.136135,8.136923,8.137935,8.13888,8.139597,8.140175,8.140711,8.14131,8.141885,8.142217,8.142183,8.14196,8.141869,8.142135,8.1430435,8.144369,8.145798,8.147089,8.14817,8.149101,8.14998,8.150723,8.151049,8.150757,8.149974,8.148987,8.148027,8.147186,8.146305,8.145296,8.1442585,8.143324,8.142559,8.141917,8.141245,8.1404705,8.139692,8.139159,8.138962,8.13901,8.139114,8.13909,8.138954,8.138933,8.139048,8.139267,8.139458,8.139469,8.139294,8.139133,8.13903,8.138895,8.138569,8.137957,8.13718,8.136528,8.136272,8.13652,8.1371,8.137642,8.137749,8.137311,8.136557,8.135836,8.135367,8.135326,8.135683,8.136267,8.136869,8.137356,8.137717,8.137997,8.138149,8.138096,8.137636,8.136668,8.135309,8.133801,8.132314,8.131016,8.12998,8.129173,8.128492,8.127808,8.127049,8.126303,8.125526,8.124659,8.123684,8.122622,8.1215105,8.1204605,8.1195965,8.118864,8.118187,8.117607,8.117161,8.11688,8.116837,8.1170845,8.11731,8.117281,8.116771,8.115741,8.114508,8.113443,8.112647,8.112038,8.111122,8.109556,8.10735,8.104963,8.102974,8.101677,8.100946,8.100464,8.099766,8.098749,8.097567,8.09646,8.09553
8.0188465,8.020678,8.022022,8.022079,8.020447,8.019408,8.018086,8.016983,8.017376,8.019112,8.021029,8.022915,8.025998,8.030334,8.035404,8.040236,8.045345,8.051456,8.058714,8.0676365,8.077665,8.089039,8.102108,8.11578,8.128693,8.139959,8.148861,8.156122,8.163237,8.170139,8.176938,8.182915,8.18741,8.190985,8.194291,8.198518,8.203338,8.209104,8.215654,8.222412,8.229023,8.235327,8.240261,8.244806,8.247587,8.248113,8.246496,8.243252,8.240166,8.235365,8.230083,8.223844,8.2178955,8.21272,8.207981,8.204549,8.200584,8.195522,8.188741,8.179142,8.166243,8.150848,8.134869,8.120528,8.1077175,8.099839,8.096506,8.097385,8.101072,8.104355,8.106937,8.109297,8.111707,8.114935,8.118942,8.12344,8.128162,8.132223,8.136999,8.141302,8.143571,8.1432295,8.140944,8.138251,8.136623,8.135378,8.13423,8.1328125,8.131371,8.130709,8.131231,8.1324215,8.133899,8.135309,8.13722,8.139353,8.141724,8.143867,8.144783,8.14525,8.145433,8.145044,8.143689,8.141163,8.137503,8.133146,8.128952,8.124462,8.1194725,8.114199,8.110224,8.107637,8.105138,8.102955,8.101466,8.10042,8.099349,8.097315,8.094155,8.090635,8.087412,8.084345,8.081278,8.078526,8.076523,8.075523,8.075454,8.0759735,8.076664,8.077414,8.07826,8.079422,8.081013,8.082651,8.083916,8.085129,8.086155,8.087068,8.087751,8.088001,8.087709,8.086993,8.086088,8.085051,8.084035,8.083084,8.082233,8.081371,8.080458,8.07972,8.079218,8.079067,8.078972,8.078918,8.078869,8.0787525,8.078625,8.07849,8.078227,8.077852,8.077606,8.077631,8.078089,8.079068,8.080215,8.081284,8.082142,8.082692,8.083084,8.083579,8.084215,8.084675,8.085144,8.08552,8.085945,8.086529,8.087303,8.088238,8.089236,8.090334,8.091506,8.092705,8.0937805,8.094463,8.094589,8.094257,8.09388,8.093712,8.094137,8.095074,8.096247,8.097349,8.098205,8.098873,8.099471,8.10012,8.100756,8.101197,8.101339,8.101327,8.101442,8.101904,8.102934,8.104309,8.10573,8.107003,8.108114,8.109149,8.110195,8.111142,8.111689,8.111614,8.111027,8.110218,8.109425,8.108732,8.107988,8.107134,8.106251,8.105469,8.10482,8.104208,8.103465,8.102575,8.101639,8.100983,8.100751,8.100822,8.100942,8.100905,8.100718,8.100605,8.10062,8.100755,8.100874,8.100816,8.10058,8.100379,8.100243,8.100111,8.09981,8.099226,8.098481,8.09785,8.097614,8.097889,8.098489,8.099054,8.099194,8.09879,8.098066,8.097382,8.096938,8.09691,8.097279,8.0978985,8.098578,8.099169,8.099651,8.10007,8.100367,8.100447,8.100109,8.099248,8.097986,8.096557,8.095137,8.093866,8.0928,8.091892,8.091061,8.0902195,8.089342,8.088535,8.087732,8.086872,8.08589,8.084783,8.083605,8.082476,8.0815325,8.080734,8.080014,8.079433,8.0790615,8.078936,8.079098,8.079571,8.079992,8.080118,8.079674,8.078614,8.077305,8.076166,8.075296,8.0746,8.073524,8.0717125,8.069193,8.066511,8.064345,8.063026,8.0623665,8.062035,8.061482,8.060541,8.059349,8.058174,8.057147
7.9796133,7.981327,7.9823084,7.9816265,7.979148,7.9774437,7.9755363,7.974764,7.975939,7.978553,7.981496,7.984661,7.989594,7.9968204,8.004807,8.012577,8.020135,8.028154,8.037511,8.048784,8.061252,8.0751915,8.09079,8.1067295,8.121466,8.134501,8.145889,8.155179,8.164949,8.1748905,8.184707,8.193062,8.198937,8.203256,8.207487,8.213264,8.219263,8.225671,8.23245,8.23868,8.24357,8.247461,8.249588,8.251059,8.251129,8.2499,8.247943,8.2450485,8.24058,8.234034,8.22765,8.220274,8.21305,8.206353,8.199648,8.194128,8.187081,8.1778145,8.165768,8.15057,8.132498,8.112919,8.094252,8.079084,8.066282,8.059204,8.056844,8.058934,8.06447,8.070029,8.074827,8.078862,8.082565,8.087079,8.092508,8.098529,8.104708,8.109713,8.114857,8.119048,8.12053,8.119041,8.11566,8.112379,8.111355,8.1118145,8.113782,8.116377,8.118825,8.121794,8.12569,8.129282,8.132995,8.135941,8.138538,8.139931,8.140598,8.140832,8.139698,8.138271,8.136609,8.134106,8.130753,8.126528,8.121297,8.115271,8.109215,8.102556,8.09513,8.087297,8.080064,8.073962,8.068857,8.064882,8.062468,8.060663,8.060028,8.058613,8.055771,8.052893,8.050614,8.0485115,8.046149,8.043346,8.040861,8.039296,8.038687,8.038813,8.039249,8.039877,8.040572,8.04148,8.042728,8.043989,8.04488,8.045744,8.046392,8.0468445,8.047053,8.046818,8.04603,8.044825,8.043421,8.041845,8.040321,8.03897,8.037899,8.0369835,8.036122,8.035505,8.035157,8.0352125,8.035338,8.035454,8.035465,8.0352745,8.034967,8.034658,8.034199,8.033608,8.033117,8.032885,8.033106,8.033913,8.034979,8.036055,8.036993,8.037689,8.038274,8.038988,8.039835,8.04045,8.041042,8.041517,8.042013,8.042659,8.043484,8.0444355,8.045426,8.046503,8.047646,8.048843,8.049963,8.050731,8.050965,8.050747,8.050476,8.050411,8.050964,8.052059,8.053408,8.054696,8.055717,8.056506,8.057215,8.057968,8.058727,8.059338,8.059687,8.05989,8.060202,8.0608225,8.0619335,8.063293,8.064637,8.065826,8.066887,8.067943,8.069073,8.070151,8.070864,8.070988,8.070625,8.070053,8.069486,8.068983,8.068388,8.067661,8.066875,8.0661545,8.065533,8.064885,8.064014,8.062954,8.061842,8.061065,8.060809,8.06093,8.061098,8.061083,8.060865,8.060683,8.060611,8.060654,8.060678,8.060503,8.060125,8.059781,8.059516,8.059299,8.05896,8.058378,8.057661,8.0570545,8.056831,8.057116,8.057718,8.058304,8.058498,8.0581875,8.057574,8.056983,8.056625,8.056628,8.056966,8.057531,8.058157,8.058706,8.059178,8.059607,8.059935,8.060053,8.059765,8.058983,8.057816,8.056466,8.055112,8.053864,8.052721,8.05164,8.050562,8.0494585,8.048369,8.047401,8.0464945,8.04557,8.044537,8.043378,8.042154,8.040991,8.040031,8.0392475,8.038584,8.03811,8.037918,8.038052,8.03852,8.039312,8.040029,8.040384,8.0400505,8.038966,8.037542,8.03626,8.035239,8.034393,8.033096,8.031007,8.02818,8.025239,8.022966,8.021725,8.021238,8.021151,8.020826,8.020026,8.018865,8.017628,8.016485
7.9375505,7.938917,7.9394035,7.9380617,7.9351025,7.9335012,7.932206,7.932767,7.935317,7.9393425,7.9442177,7.949918,7.957887,7.9682055,7.979084,7.989195,7.998104,8.006758,8.016865,8.029224,8.043313,8.059809,8.079458,8.100246,8.119588,8.134689,8.142841,8.150366,8.15935,8.1685295,8.177407,8.184656,8.18965,8.193661,8.195778,8.197239,8.198166,8.1991415,8.200343,8.201161,8.200991,8.200378,8.198677,8.196857,8.194401,8.191839,8.189867,8.187989,8.185372,8.181565,8.178604,8.175632,8.173729,8.173206,8.173319,8.174545,8.1742935,8.174822,8.16742,8.146854,8.119377,8.0938,8.071346,8.053449,8.038568,8.029881,8.026018,8.027279,8.033504,8.041202,8.048832,8.055429,8.061413,8.06801,8.075417,8.0834255,8.091644,8.098464,8.104996,8.110096,8.112085,8.111092,8.108677,8.10742,8.110043,8.115721,8.12486,8.135741,8.146416,8.154503,8.159693,8.164515,8.169182,8.172599,8.174848,8.175795,8.1731825,8.165801,8.156124,8.147007,8.137842,8.129194,8.121527,8.114333,8.106865,8.09906,8.091354,8.082885,8.073345,8.063343,8.053449,8.04439,8.036728,8.0303545,8.025465,8.021439,8.01874,8.016146,8.013844,8.012438,8.010714,8.009278,8.007636,8.005521,8.003569,8.00228,8.001758,8.001972,8.002557,8.002909,8.003287,8.003848,8.00471,8.00558,8.006116,8.006739,8.007144,8.007302,8.007249,8.006771,8.00572,8.0042,8.002378,8.000264,7.9981575,7.9962783,7.9948254,7.9936676,7.99264,7.991905,7.99146,7.991452,7.991548,7.991614,7.9915156,7.9911456,7.9906015,7.990076,7.989407,7.988579,7.987796,7.987237,7.9871597,7.9877434,7.9886985,7.9897842,7.990832,7.9917307,7.992579,7.993581,7.9946947,7.995508,7.996251,7.9968357,7.9973965,7.998082,7.99893,7.999872,8.00082,8.001819,8.002871,8.003992,8.005081,8.005869,8.006163,8.006019,8.005825,8.005841,8.006511,8.007756,8.009299,8.010805,8.012039,8.0130205,8.013933,8.014912,8.015928,8.016832,8.017487,8.017965,8.018494,8.019266,8.020437,8.021743,8.022955,8.023987,8.024909,8.025886,8.026983,8.028073,8.028851,8.029105,8.02895,8.02865,8.02836,8.028098,8.027683,8.027081,8.026352,8.025623,8.024942,8.024187,8.023132,8.021878,8.0205765,8.019688,8.019439,8.019641,8.019896,8.019953,8.019749,8.019563,8.01947,8.019484,8.01944,8.019126,8.01855,8.017979,8.017471,8.017075,8.016626,8.015999,8.015277,8.014666,8.014413,8.014666,8.015235,8.015822,8.016086,8.015915,8.0154915,8.015076,8.014853,8.014896,8.015153,8.015547,8.015959,8.016291,8.0165825,8.016853,8.01705,8.017071,8.016733,8.015956,8.014835,8.013532,8.0122,8.010897,8.0095825,8.008211,8.006759,8.00526,8.003829,8.002589,8.001481,8.000416,7.9993086,7.9981375,7.9969587,7.9958973,7.9950757,7.9944887,7.994069,7.9938855,7.9940405,7.9945774,7.9954796,7.9967203,7.997842,7.9985228,7.998357,7.9972544,7.995679,7.994195,7.9929504,7.991914,7.99038,7.9880157,7.9849296,7.9818087,7.979515,7.9784594,7.978255,7.9785166,7.978508,7.9779153,7.976835,7.975568,7.974318
7.893818,7.8958325,7.8970327,7.896773,7.8954706,7.8959136,7.896728,7.8992567,7.9034324,7.9091053,7.91593,7.923657,7.933735,7.945453,7.957348,7.967803,7.97647,7.98501,7.9958496,8.009835,8.026809,8.046277,8.064676,8.0823555,8.099671,8.112732,8.117089,8.117163,8.117035,8.116287,8.115102,8.113028,8.109822,8.106032,8.099821,8.091083,8.0813265,8.0716915,8.062717,8.054403,8.046661,8.040001,8.033245,8.027776,8.024912,8.023863,8.022953,8.021845,8.021601,8.020915,8.021214,8.022024,8.024502,8.029151,8.035271,8.043098,8.0541,8.068785,8.076852,8.071689,8.05965,8.049631,8.041111,8.033463,8.0240345,8.017616,8.014366,8.015817,8.022811,8.032317,8.042112,8.050402,8.057566,8.064747,8.072111,8.079417,8.086124,8.090399,8.093266,8.09436,8.093422,8.091656,8.090178,8.08993,8.092577,8.098505,8.108282,8.120298,8.132597,8.141946,8.147752,8.153567,8.1589365,8.16326,8.166725,8.17003,8.17057,8.166782,8.160757,8.151592,8.1435585,8.131716,8.117322,8.103134,8.090742,8.080131,8.070318,8.060055,8.048833,8.037361,8.026264,8.016251,8.007734,8.000323,7.9938755,7.9882665,7.9834595,7.979226,7.9764175,7.9750843,7.9734,7.9720693,7.970653,7.968793,7.9667425,7.9651175,7.964367,7.964458,7.964963,7.96523,7.9656553,7.9663343,7.9673653,7.968466,7.9691787,7.969706,7.9700503,7.9701195,7.970029,7.9695473,7.968462,7.9668217,7.964717,7.9621487,7.9595175,7.957123,7.955249,7.9537563,7.952413,7.951378,7.950632,7.950331,7.950182,7.95002,7.949695,7.949102,7.948342,7.9476423,7.946815,7.9458013,7.944747,7.943856,7.943452,7.9437714,7.944574,7.945648,7.9467907,7.9478917,7.94902,7.9503326,7.95174,7.9527826,7.9537153,7.9544487,7.955118,7.9558954,7.956808,7.9577637,7.958664,7.959543,7.960446,7.9614053,7.9623575,7.963084,7.9633927,7.963296,7.963176,7.9632874,7.9640927,7.965519,7.967293,7.969079,7.970605,7.971875,7.9731164,7.9744616,7.9758825,7.977208,7.978261,7.9790697,7.9798245,7.980744,7.9819756,7.9832335,7.9843254,7.9852057,7.985984,7.986864,7.9878883,7.988943,7.989742,7.9900827,7.9901123,7.9900856,7.990074,7.9900656,7.9898405,7.989341,7.9886265,7.987837,7.9870386,7.986127,7.9848666,7.9834146,7.98193,7.980938,7.9806957,7.9809713,7.9813056,7.9814167,7.9812164,7.9810257,7.980913,7.980888,7.9807425,7.9802237,7.979371,7.9784875,7.9776535,7.9770327,7.976472,7.9758153,7.9751096,7.974507,7.9742155,7.9743986,7.974884,7.9754224,7.975708,7.975662,7.9754434,7.9752293,7.9751625,7.975261,7.9754243,7.9756002,7.9757285,7.975768,7.9758177,7.9758663,7.975876,7.9757624,7.9753532,7.9745703,7.9734936,7.9722395,7.970936,7.9695635,7.9680767,7.9664173,7.964593,7.9626956,7.960887,7.959326,7.9579344,7.9566402,7.955389,7.9541807,7.9530706,7.9521666,7.9515657,7.9512606,7.951144,7.951272,7.951759,7.95265,7.953927,7.9555736,7.95707,7.9580574,7.958045,7.9569016,7.9551435,7.9534287,7.951949,7.9507575,7.949035,7.9464865,7.9432726,7.9400992,7.937866,7.9370356,7.937104,7.9376793,7.9379187,7.9374723,7.9364333,7.935115,7.933735
7.8519154,7.856551,7.8607235,7.8640575,7.866864,7.871126,7.875033,7.879977,7.8855896,7.8920813,7.899391,7.9071245,7.917445,7.929347,7.941143,7.9506984,7.9582396,7.965162,7.9733424,7.985547,8.001329,8.01892,8.029541,8.034129,8.036379,8.037196,8.036945,8.02675,8.012487,7.996614,7.98036,7.9638658,7.9486694,7.937624,7.9300957,7.9241643,7.9176207,7.9108324,7.904584,7.898763,7.892944,7.887375,7.8809834,7.8760114,7.8758335,7.8787107,7.8806486,7.880586,7.8800077,7.877839,7.875759,7.8726263,7.869624,7.8676534,7.8665075,7.8676023,7.875744,7.8851357,7.895915,7.9078255,7.919401,7.9294386,7.9377613,7.942897,7.9435506,7.9476824,7.953803,7.961596,7.9722404,7.9837756,7.9943376,8.0026,8.008712,8.013582,8.017401,8.01997,8.020594,8.0174,8.011622,8.004066,7.9961843,7.990361,7.986965,7.9844427,7.982473,7.982567,7.98526,7.98996,7.996312,8.004311,8.013207,8.021387,8.028678,8.036191,8.044207,8.052983,8.06432,8.079098,8.093674,8.10059,8.109467,8.109327,8.099207,8.085241,8.071125,8.056408,8.043663,8.031271,8.019088,8.007706,7.9972563,7.9881277,7.980526,7.9736776,7.967908,7.9627113,7.9585085,7.954509,7.950675,7.9479074,7.946336,7.94487,7.9430466,7.940015,7.9360733,7.9324217,7.9299746,7.9286847,7.928049,7.9279976,7.9283285,7.9290957,7.93051,7.9322777,7.9336853,7.934537,7.935232,7.93561,7.935831,7.935645,7.9348145,7.9333754,7.931343,7.928726,7.9258575,7.9231367,7.9209604,7.919192,7.9175406,7.916168,7.915059,7.9143724,7.913872,7.913417,7.9128456,7.912049,7.9111457,7.9103746,7.909483,7.9083834,7.907137,7.9059544,7.9052267,7.9052486,7.905844,7.906843,7.9080076,7.9092445,7.910603,7.9122014,7.9139013,7.915186,7.9163504,7.917304,7.9181795,7.9191637,7.920251,7.9212866,7.922164,7.9229193,7.9236174,7.9243317,7.9250455,7.925624,7.92591,7.9258547,7.925825,7.926074,7.9270535,7.9286942,7.9307437,7.932867,7.934763,7.936406,7.938079,7.939905,7.941839,7.943667,7.945163,7.946313,7.947293,7.948348,7.9496555,7.9509087,7.9519496,7.952768,7.953493,7.9543486,7.9553537,7.956416,7.957259,7.957699,7.9579115,7.95813,7.9583645,7.9585824,7.9585233,7.958101,7.9573736,7.9564886,7.9555416,7.954462,7.9530115,7.951375,7.949744,7.948664,7.948402,7.9486995,7.949044,7.9491334,7.9488673,7.9485893,7.948367,7.9481983,7.947833,7.946995,7.945755,7.9444733,7.943262,7.942423,7.9418154,7.9412374,7.9406652,7.9401565,7.9398565,7.9399457,7.9402733,7.940662,7.940873,7.940866,7.940794,7.9407415,7.9408226,7.9409885,7.941089,7.941086,7.940974,7.940776,7.94065,7.940552,7.9404564,7.9402943,7.939893,7.939168,7.9381857,7.937031,7.9358034,7.934438,7.9328794,7.931061,7.929006,7.9268365,7.9247375,7.9228783,7.9211683,7.9195614,7.9180617,7.916724,7.91562,7.914835,7.9144363,7.9143686,7.914478,7.9147844,7.9154086,7.9164276,7.91786,7.9197206,7.9214516,7.9226475,7.922729,7.921527,7.919598,7.917679,7.916027,7.9147615,7.913012,7.910455,7.9072447,7.9041033,7.901967,7.9012995,7.901515,7.9022007,7.902467,7.9019747,7.9008455,7.89939,7.897827
7.8136635,7.8223896,7.8312836,7.8398128,7.8478756,7.8568916,7.865096,7.873205,7.8804426,7.887583,7.895039,7.9022856,7.911913,7.922413,7.9323406,7.9391174,7.94427,7.946225,7.9432197,7.94374,7.945301,7.948135,7.9529705,7.949824,7.9340725,7.9129605,7.893179,7.8730536,7.8518815,7.830062,7.807559,7.783912,7.7666345,7.768303,7.783,7.807104,7.8316197,7.854404,7.8757844,7.894947,7.910411,7.921667,7.9294753,7.935774,7.940001,7.9438744,7.94704,7.9469557,7.9452233,7.940999,7.935553,7.927403,7.91741,7.906542,7.8952513,7.88503,7.874489,7.8621016,7.845456,7.823132,7.797758,7.7738028,7.7535443,7.7369123,7.7306824,7.7435703,7.7627783,7.77999,7.79579,7.809271,7.820019,7.828301,7.8334246,7.83585,7.8360014,7.8345337,7.83169,7.8260922,7.8189716,7.810282,7.800685,7.791855,7.785201,7.7814665,7.7812023,7.7835402,7.789184,7.7971144,7.8082294,7.8213596,7.833502,7.843525,7.8520126,7.8625774,7.8742466,7.8870564,7.9023666,7.9206038,7.940531,7.961973,7.9851294,8.011341,8.031157,8.042561,8.042074,8.026985,8.01376,8.001469,7.989724,7.97974,7.971374,7.9645014,7.958991,7.9535856,7.949171,7.9450474,7.941787,7.938401,7.9348316,7.9320545,7.93001,7.9276366,7.9245563,7.9200363,7.9146323,7.9091864,7.9044285,7.900927,7.898512,7.8966994,7.8952312,7.894495,7.8950453,7.89657,7.8982363,7.9000773,7.901683,7.9029045,7.903881,7.9043694,7.9041805,7.9033785,7.9019213,7.8998566,7.8971157,7.894272,7.891916,7.889949,7.8880434,7.8863387,7.884842,7.883728,7.8828278,7.8820534,7.881249,7.8802996,7.8793426,7.878594,7.877733,7.8766384,7.875277,7.8738627,7.8728495,7.872588,7.872961,7.873848,7.8749886,7.8763227,7.877887,7.8797507,7.8817286,7.883258,7.884668,7.885889,7.887041,7.8883123,7.8896527,7.8908443,7.8917522,7.8924046,7.8928976,7.8933454,7.893793,7.8941994,7.89445,7.894451,7.894535,7.894939,7.896104,7.897966,7.9002934,7.9027586,7.905046,7.907099,7.909242,7.911611,7.91412,7.9165077,7.9184904,7.920006,7.9212303,7.9224544,7.9238777,7.9252024,7.926284,7.927133,7.9278984,7.9287977,7.9298344,7.930932,7.93183,7.9323597,7.9327188,7.933138,7.933587,7.9339886,7.9340744,7.9337378,7.933018,7.932061,7.9309893,7.92977,7.928173,7.9264,7.924662,7.92351,7.9231987,7.923441,7.9237,7.923663,7.923218,7.922746,7.9223237,7.9219184,7.9212403,7.920001,7.9183216,7.9166174,7.915045,7.914049,7.913539,7.9132304,7.9129524,7.912633,7.912346,7.912305,7.9123535,7.9124393,7.9124327,7.9123297,7.9122868,7.9123373,7.912528,7.912779,7.9128785,7.9127817,7.912537,7.9122243,7.912031,7.9119096,7.9118204,7.9117007,7.9113607,7.9107094,7.909819,7.90876,7.907596,7.9062467,7.9046555,7.9027624,7.900592,7.8982677,7.895979,7.8938684,7.8918524,7.889907,7.8881135,7.8866076,7.885496,7.8848467,7.8846674,7.884837,7.8851347,7.885538,7.886187,7.887209,7.8886786,7.8906646,7.8925653,7.8939223,7.89408,7.8928375,7.890788,7.8887453,7.887018,7.885763,7.8842115,7.881817,7.878622,7.875451,7.8733377,7.8726835,7.8728495,7.873407,7.8734574,7.8727183,7.87135,7.869669,7.867899
7.7841306,7.798054,7.8127017,7.8272653,7.841029,7.854727,7.8668256,7.8784103,7.8879375,7.8968716,7.9067535,7.9156704,7.922249,7.9213824,7.917342,7.909239,7.8991528,7.8899984,7.8826904,7.8779564,7.876585,7.8588285,7.8323298,7.7995872,7.762678,7.725956,7.690995,7.665344,7.6808386,7.710268,7.7363048,7.7587986,7.781199,7.802078,7.8244076,7.8503075,7.8765545,7.9016113,7.926983,7.95286,7.9757133,7.992686,8.006509,8.017676,8.025356,8.031393,8.035531,8.03537,8.032866,8.028131,8.020651,8.010367,7.996418,7.979229,7.9601417,7.9398537,7.922157,7.905282,7.885005,7.8601055,7.83208,7.803458,7.7773767,7.7574363,7.739994,7.7269526,7.7158494,7.7074904,7.7052917,7.7093306,7.7158136,7.7204194,7.722753,7.7242403,7.726596,7.730656,7.7357187,7.739736,7.7431474,7.7467375,7.7504373,7.7544565,7.75742,7.7588263,7.7620373,7.7686315,7.7783985,7.7894244,7.799263,7.806818,7.812173,7.8153067,7.816477,7.8142614,7.809235,7.8001175,7.7853394,7.768052,7.757904,7.765671,7.800951,7.841818,7.8813744,7.917821,7.948555,7.970039,7.980873,7.9917774,7.9856186,7.9740515,7.9633856,7.9546614,7.9486046,7.943157,7.9389286,7.9348755,7.931872,7.9287357,7.92523,7.9224024,7.920162,7.9172153,7.9133196,7.907626,7.900673,7.8933992,7.8867073,7.881305,7.8770075,7.873564,7.8711433,7.8698206,7.869933,7.8712263,7.872921,7.875022,7.8768883,7.8783636,7.8796344,7.8804593,7.8806252,7.880011,7.878203,7.875418,7.8722906,7.8692455,7.866734,7.8647275,7.862892,7.861144,7.859559,7.8583465,7.857457,7.856822,7.8562565,7.8556843,7.8552666,7.8550158,7.854572,7.8536396,7.8522434,7.8506413,7.8493347,7.8487744,7.8489375,7.8497543,7.8509645,7.8525095,7.8544016,7.856637,7.858923,7.8606596,7.862236,7.863614,7.864973,7.866538,7.868211,7.8696632,7.870705,7.8713336,7.87169,7.8719273,7.8721495,7.872426,7.8727083,7.8728504,7.873158,7.873872,7.8753967,7.8776464,7.880397,7.883322,7.88609,7.88863,7.8913136,7.894392,7.8977566,7.9010167,7.90376,7.905875,7.9075484,7.909194,7.911042,7.9127574,7.9141426,7.9152184,7.916171,7.9172206,7.9183664,7.9195337,7.9204383,7.920923,7.9212456,7.9216976,7.9222336,7.922722,7.9228725,7.9225683,7.9218683,7.920949,7.919941,7.918765,7.9171433,7.915254,7.9133677,7.912051,7.911548,7.9115148,7.9113355,7.9106865,7.90953,7.908351,7.90736,7.906529,7.9054728,7.9038396,7.901782,7.8998203,7.8982897,7.89779,7.8981237,7.898715,7.8991547,7.8992653,7.899024,7.89867,7.8981643,7.8974514,7.896578,7.895811,7.8954372,7.895451,7.895832,7.896407,7.896865,7.8970613,7.897043,7.896962,7.897031,7.8972025,7.897295,7.8972077,7.89678,7.8959885,7.8949604,7.893781,7.8924813,7.8909907,7.8892903,7.8873463,7.8851953,7.8828764,7.880438,7.8780565,7.875675,7.8732862,7.8710737,7.8693066,7.8681774,7.867754,7.867984,7.8683386,7.868622,7.8689394,7.8695316,7.87058,7.872198,7.874417,7.8765316,7.877942,7.8779526,7.876405,7.8740363,7.8718247,7.8701577,7.8691406,7.8677473,7.865471,7.86238,7.8591275,7.8566437,7.8554964,7.855142,7.855051,7.854387,7.8529797,7.851075,7.849016,7.846989
7.767201,7.7881236,7.810128,7.832101,7.8531284,7.8738537,7.8928323,7.898819,7.898903,7.900384,7.902946,7.9043474,7.904595,7.898905,7.8894057,7.875977,7.855903,7.829153,7.7976184,7.7596545,7.720981,7.6683803,7.6285276,7.6221876,7.6343417,7.6410885,7.647619,7.6528254,7.6757917,7.708313,7.740898,7.778327,7.819272,7.8462887,7.8699665,7.8958645,7.922636,7.9558544,7.985755,7.9940176,7.98007,7.9677906,7.952507,7.95243,7.9668636,7.9841156,7.9954605,8.000434,8.000759,7.9984217,7.992298,7.9843254,7.97434,7.9627914,7.950021,7.933506,7.912902,7.8918133,7.873687,7.839209,7.7989445,7.772994,7.7496614,7.7354774,7.723881,7.712737,7.7034645,7.696722,7.6949205,7.7017317,7.7135115,7.7210035,7.725316,7.7292366,7.732851,7.7356815,7.7390237,7.743306,7.7449694,7.7469144,7.7487555,7.751772,7.756409,7.7615304,7.7672973,7.777172,7.790864,7.805571,7.8185787,7.8289123,7.836119,7.8387117,7.835346,7.824174,7.8106318,7.797204,7.7805176,7.7597847,7.741371,7.729555,7.7264786,7.7233963,7.7187862,7.721856,7.750934,7.806179,7.8498726,7.8923855,7.9221897,7.9450393,7.9654655,7.978915,7.978714,7.966732,7.955075,7.9428244,7.934165,7.9286327,7.9244685,7.9213896,7.9191694,7.916083,7.9119415,7.90574,7.8978343,7.889162,7.8807626,7.8735194,7.867429,7.8620615,7.857889,7.8549747,7.853758,7.854162,7.8554163,7.8573804,7.8591676,7.8605404,7.8616233,7.8622265,7.862189,7.8614645,7.859817,7.857355,7.85468,7.8521442,7.850054,7.848325,7.846689,7.845141,7.8437624,7.8427887,7.84167,7.840745,7.8401275,7.8396664,7.8394775,7.8395557,7.839462,7.8388853,7.837655,7.836023,7.8346133,7.833943,7.8340063,7.8347726,7.835974,7.8375845,7.839651,7.842185,7.84489,7.847157,7.849413,7.8516135,7.8538885,7.8563952,7.8589373,7.861093,7.862628,7.8635607,7.864064,7.864353,7.864628,7.865071,7.8656487,7.8661203,7.8667045,7.8676624,7.869359,7.871725,7.8745832,7.8776197,7.880482,7.88313,7.886002,7.889363,7.8930807,7.8967533,7.8999233,7.902417,7.90438,7.905943,7.907632,7.9092393,7.9106255,7.9117975,7.912896,7.9140844,7.915347,7.9166427,7.9177275,7.9184256,7.9189243,7.9194517,7.919956,7.9203424,7.920331,7.919794,7.918748,7.9173584,7.915807,7.914126,7.9121466,7.9100094,7.907979,7.9065557,7.9059076,7.9057007,7.90538,7.904628,7.903379,7.9020357,7.900748,7.899453,7.8978024,7.895527,7.8928633,7.8903465,7.888292,7.887398,7.887511,7.888065,7.888633,7.888958,7.888893,7.8886414,7.888171,7.8874454,7.886548,7.8858023,7.8855076,7.885603,7.886034,7.886682,7.887229,7.8875384,7.887686,7.887832,7.888138,7.888529,7.888901,7.889125,7.8889413,7.8882666,7.887253,7.8860283,7.8846145,7.8830237,7.881278,7.8793883,7.877389,7.8752956,7.873109,7.870878,7.8684697,7.86589,7.8633833,7.861345,7.860038,7.8595,7.8596315,7.860033,7.860327,7.8605175,7.860835,7.8615427,7.8628592,7.864871,7.8668923,7.868306,7.868356,7.866854,7.8644795,7.8621435,7.860275,7.8590384,7.8573627,7.854847,7.8516126,7.848232,7.845519,7.8440423,7.843319,7.8428,7.841749,7.840068,7.8379927,7.8358088,7.8336782
7.760173,7.7867455,7.8162146,7.845377,7.866375,7.8781557,7.886813,7.885436,7.8811016,7.8797464,7.875269,7.8604736,7.84509,7.8255377,7.7971067,7.7587056,7.710882,7.6569514,7.6136303,7.608186,7.5946302,7.579858,7.5758753,7.591446,7.6198435,7.6490746,7.6778955,7.7037334,7.7207794,7.732998,7.7468414,7.749401,7.756016,7.8191395,7.9145565,8.0004,8.063159,8.08777,8.036476,7.9181905,7.7978067,7.680993,7.5355515,7.3839545,7.2379284,7.1127443,7.014677,6.933941,6.8615456,6.8029747,6.764477,6.749469,6.75108,6.766328,6.798381,6.8461843,6.914014,7.008192,7.1058455,7.1908045,7.2747107,7.3668485,7.448616,7.514324,7.5744286,7.6270714,7.6566334,7.66971,7.6853223,7.7046394,7.713503,7.719469,7.721774,7.726831,7.738676,7.7573442,7.781233,7.8066034,7.815818,7.8198223,7.824441,7.828861,7.8243446,7.8102064,7.802196,7.80004,7.8006163,7.8080006,7.8142724,7.814774,7.8083143,7.79375,7.793752,7.796707,7.804304,7.80531,7.800127,7.7950144,7.78539,7.763491,7.7370744,7.7140427,7.6928563,7.6749926,7.671417,7.684883,7.693339,7.699618,7.736696,7.7908025,7.845279,7.889167,7.916816,7.9307227,7.9415426,7.9525833,7.955261,7.945156,7.9300194,7.9199495,7.9150133,7.9112077,7.906988,7.901248,7.8938556,7.8855276,7.8772526,7.869791,7.8633776,7.857337,7.852251,7.848076,7.8454547,7.844697,7.845173,7.8465977,7.847913,7.8487062,7.849022,7.8486853,7.8476477,7.8460603,7.8438807,7.841108,7.838216,7.83552,7.833323,7.8315086,7.829772,7.8281336,7.826675,7.825599,7.824511,7.8236804,7.8231716,7.822852,7.8228436,7.8231287,7.8232827,7.823018,7.8220334,7.820525,7.819109,7.818271,7.8180323,7.8184195,7.8192363,7.8205566,7.822486,7.825032,7.827875,7.830389,7.8330183,7.83575,7.8386717,7.841876,7.8451037,7.8478794,7.8499346,7.851306,7.852154,7.8526554,7.8530197,7.8535204,7.8542123,7.854846,7.855586,7.85667,7.858361,7.8605933,7.8632627,7.8661404,7.8689175,7.871525,7.874357,7.877619,7.881138,7.8845463,7.8874254,7.8896036,7.8912196,7.8924775,7.893834,7.8951464,7.896327,7.897398,7.8984823,7.8997116,7.901044,7.9024916,7.9038415,7.904907,7.905795,7.906661,7.9074373,7.908001,7.908146,7.9077215,7.9066944,7.9052086,7.9034805,7.9016256,7.8995614,7.8974085,7.895446,7.8940887,7.8934593,7.89322,7.8928423,7.892041,7.8907385,7.889268,7.887745,7.886052,7.8838444,7.8809404,7.877678,7.8746047,7.8720293,7.8707247,7.8706017,7.871109,7.871787,7.8723316,7.872507,7.8724732,7.872198,7.8716106,7.8707924,7.8701,7.8698864,7.8701177,7.870697,7.871557,7.872347,7.872886,7.87327,7.873686,7.8742237,7.8748026,7.8753633,7.8757486,7.87564,7.8749485,7.873872,7.8725686,7.871036,7.8693695,7.867628,7.865881,7.864175,7.862466,7.8606553,7.8586593,7.8562818,7.8535347,7.8507237,7.848372,7.8468413,7.8461533,7.8461876,7.8466578,7.8470516,7.8473167,7.8476696,7.8484135,7.849812,7.8519316,7.854143,7.8557873,7.8560357,7.8547144,7.8524637,7.850135,7.8482056,7.84686,7.844986,7.8422036,7.838662,7.834934,7.8318214,7.829917,7.828801,7.827884,7.826527,7.8247066,7.8226304,7.8205194,7.818508
7.7644196,7.7943125,7.8229847,7.8448644,7.8564706,7.8559723,7.8494954,7.8370132,7.8226266,7.808317,7.7878017,7.753875,7.712755,7.664182,7.6222887,7.59383,7.567846,7.5340624,7.510727,7.5352173,7.5576735,7.582716,7.605066,7.6205163,7.62486,7.624951,7.64124,7.6697865,7.729795,7.8057795,7.7581716,7.4978275,7.153984,6.9394045,6.7790375,6.651189,6.542859,6.4280157,6.2681065,6.079263,5.920658,5.7752876,5.6102734,5.42844,5.2418046,5.0773096,4.9490805,4.846234,4.7579584,4.687874,4.6443815,4.6305656,4.6384125,4.663431,4.70846,4.77458,4.870713,5.002826,5.140088,5.2775154,5.419231,5.560401,5.690339,5.7985706,5.9019785,6.0003247,6.074,6.1292143,6.1858034,6.2420354,6.282116,6.3208714,6.356351,6.3951573,6.4445357,6.5078964,6.582,6.6558566,6.717552,6.778598,6.8443727,6.9082947,6.954778,6.980818,7.004278,7.030427,7.059705,7.1042004,7.1611767,7.2253704,7.299817,7.394898,7.5353928,7.7262754,7.876788,7.8993506,7.8382607,7.770217,7.706233,7.700692,7.717719,7.728859,7.729368,7.714078,7.685233,7.6558437,7.630209,7.603323,7.612214,7.640047,7.6665955,7.694461,7.734602,7.7811203,7.827434,7.872263,7.9017773,7.91216,7.9125795,7.911036,7.905682,7.898796,7.892436,7.886943,7.8817644,7.876601,7.87156,7.866764,7.8626766,7.858426,7.8544407,7.850239,7.846573,7.844367,7.843487,7.8436604,7.8437843,7.8432007,7.8418503,7.8396416,7.836712,7.833379,7.8297076,7.825633,7.8216143,7.817918,7.8148556,7.812331,7.8099947,7.8077765,7.8057623,7.804058,7.802614,7.8015013,7.8006277,7.799947,7.799633,7.799611,7.799479,7.798918,7.797655,7.7958856,7.7941694,7.792925,7.792165,7.7919655,7.792225,7.7931204,7.794816,7.797286,7.8001356,7.802717,7.805475,7.808446,7.8117094,7.815345,7.819063,7.822367,7.8249626,7.826878,7.8282523,7.8291535,7.8297176,7.830248,7.830883,7.8314276,7.832056,7.8329678,7.834347,7.836136,7.8383064,7.8407393,7.843189,7.8455524,7.8481283,7.851001,7.854005,7.856801,7.85902,7.860509,7.861403,7.8621035,7.8628416,7.863513,7.8640847,7.864635,7.865314,7.866254,7.8673954,7.8688087,7.8702974,7.8716717,7.872983,7.8743143,7.8755665,7.876583,7.877235,7.8773527,7.8768325,7.8757763,7.874394,7.8728046,7.8709497,7.8689585,7.8671694,7.865966,7.865432,7.8652353,7.864858,7.8640165,7.8626604,7.8611097,7.8594904,7.8576174,7.8550906,7.851768,7.848075,7.844571,7.841635,7.8400917,7.8398523,7.8403397,7.841088,7.8418083,7.8422356,7.842496,7.8425345,7.8421803,7.8414707,7.8408413,7.8407593,7.841227,7.842131,7.843418,7.8446465,7.8455324,7.8461757,7.8468103,7.847487,7.848114,7.848611,7.8488164,7.848443,7.8474884,7.8462343,7.8448367,7.8432307,7.841569,7.8399715,7.8385487,7.837338,7.8361855,7.834813,7.833029,7.8306007,7.827551,7.8242397,7.8213463,7.8193808,7.8184147,7.8183475,7.8188963,7.819555,7.8202953,7.821323,7.822891,7.825182,7.828161,7.8312206,7.8336067,7.8343883,7.8334136,7.8313484,7.829062,7.8271112,7.8256407,7.823432,7.820094,7.815852,7.811408,7.807695,7.8053875,7.8040934,7.803097,7.8017907,7.8001738,7.798418,7.796698,7.7951145
7.7732124,7.8001523,7.81699,7.8178186,7.813659,7.805439,7.78871,7.759802,7.723675,7.679702,7.6299286,7.586231,7.5553403,7.514656,7.4938307,7.5090404,7.5386467,7.5563602,7.5617857,7.564756,7.55729,7.5593176,7.5861177,7.5886383,7.5520115,7.496998,7.3943195,7.1992188,7.0562987,6.972842,6.7297974,6.207446,5.57827,5.078102,4.617899,4.242524,3.9505658,3.7326884,3.579543,3.4746177,3.3956318,3.3395247,3.3026214,3.2727807,3.2471282,3.224687,3.2053041,3.1896453,3.177969,3.1683786,3.16272,3.162061,3.166214,3.1733992,3.18192,3.1923008,3.2079725,3.233333,3.267593,3.3062963,3.3485265,3.3956542,3.4461064,3.499951,3.5603123,3.6279569,3.7009532,3.7759128,3.850733,3.9245434,3.9947891,4.06254,4.127436,4.1914463,4.2582912,4.333235,4.4173074,4.5013876,4.5948076,4.6976957,4.8067627,4.9138775,5.010959,5.0931025,5.158681,5.2215414,5.2892866,5.372113,5.4792976,5.6109467,5.7759123,5.9960747,6.271142,6.639477,6.9541717,7.104102,7.160739,7.231704,7.3346176,7.545309,7.685721,7.7108727,7.6754026,7.6543536,7.6572943,7.6543074,7.656992,7.652782,7.636755,7.615327,7.5889153,7.5725217,7.585229,7.617083,7.6503377,7.688838,7.734457,7.78401,7.827814,7.8556437,7.865609,7.868474,7.871719,7.8737993,7.872385,7.8690224,7.8661327,7.8635664,7.862387,7.8610315,7.8593535,7.8561196,7.851961,7.8484,7.845975,7.8445816,7.8431396,7.840719,7.8371353,7.8325024,7.8272257,7.8217874,7.816436,7.810991,7.8058395,7.8011703,7.797208,7.79385,7.7907543,7.787793,7.785054,7.7825317,7.780033,7.7777615,7.775734,7.7739534,7.7726555,7.771716,7.770709,7.7692585,7.7671995,7.7648087,7.7626386,7.7610397,7.759926,7.7593727,7.759343,7.760065,7.761753,7.7643614,7.7674356,7.770318,7.7734394,7.776865,7.7806573,7.784875,7.7892165,7.793179,7.7964773,7.799137,7.8012886,7.802898,7.8040075,7.8048677,7.8056207,7.8061104,7.80657,7.807191,7.808156,7.8094387,7.811083,7.8130364,7.815088,7.8171463,7.819445,7.821953,7.824518,7.826812,7.8284607,7.8293095,7.829467,7.82928,7.8289304,7.8284206,7.827862,7.8274198,7.827285,7.8276153,7.8283215,7.8294363,7.830858,7.8324313,7.8341284,7.835921,7.837652,7.8391485,7.8402348,7.8408127,7.8406963,7.8399096,7.838639,7.837019,7.835056,7.832914,7.8310285,7.829808,7.8293085,7.829215,7.8290443,7.828457,7.827405,7.826165,7.8248186,7.823085,7.8204894,7.8169184,7.812882,7.808939,7.8055167,7.8034577,7.8026733,7.8026676,7.803129,7.803877,7.804677,7.8056192,7.8065376,7.807065,7.8070593,7.806942,7.80729,7.8081255,7.809379,7.8109956,7.812429,7.8133154,7.8137846,7.814152,7.8144755,7.814627,7.8145375,7.814082,7.813051,7.8115654,7.8099785,7.8083906,7.8066406,7.8049088,7.8033905,7.8022275,7.8014455,7.8007727,7.799732,7.798026,7.7954044,7.791894,7.7878685,7.784113,7.7812815,7.779559,7.7789297,7.779209,7.78,7.781261,7.7831573,7.785841,7.7893186,7.7934446,7.7976236,7.801053,7.802679,7.8023186,7.800622,7.7984595,7.796428,7.794637,7.7917824,7.787526,7.7822704,7.7769775,7.772789,7.770426,7.769417,7.7688975,7.7681723,7.7671328,7.765875,7.7645473,7.763251
7.7689514,7.7819777,7.783121,7.768609,7.746205,7.7207847,7.685733,7.6403303,7.5883684,7.530021,7.4712543,7.4401455,7.481241,7.5175543,7.53772,7.5500674,7.5582786,7.5631533,7.5659347,7.556431,7.4805365,7.423087,7.4162726,7.308856,7.129222,6.9627223,6.5917606,5.9028206,5.178432,4.5204344,4.030215,3.709828,3.507163,3.4022384,3.336837,3.2959418,3.2676518,3.2441669,3.2226858,3.2028975,3.1852536,3.171646,3.1592546,3.148045,3.1371167,3.1270928,3.1187043,3.1116335,3.1060145,3.10132,3.0993032,3.0991654,3.1002152,3.1013217,3.102175,3.1046038,3.108203,3.1129074,3.1201167,3.130805,3.1441588,3.1583257,3.1721473,3.1858182,3.1998794,3.2161317,3.2345185,3.2540941,3.2728653,3.2885623,3.3011997,3.3123415,3.3212152,3.3275075,3.3314135,3.3348649,3.3412037,3.3525963,3.3721483,3.3932152,3.4130197,3.4305294,3.4457753,3.4590507,3.4705997,3.4818978,3.4960272,3.513586,3.5368986,3.5689805,3.6175113,3.6950727,3.8108873,3.9909225,4.2510796,4.631591,5.134831,5.737423,6.4018526,7.0335464,7.340971,7.383172,7.3300858,7.3912554,7.544592,7.615782,7.637704,7.6310034,7.6336403,7.635931,7.6304398,7.617014,7.597772,7.57659,7.5427036,7.5354757,7.5662217,7.6184072,7.6706486,7.716754,7.760186,7.79758,7.8334923,7.8579297,7.865052,7.862699,7.8601637,7.857575,7.85678,7.85628,7.8559504,7.8537674,7.8498397,7.845866,7.842779,7.840583,7.8382154,7.8344893,7.82915,7.822527,7.815336,7.8083143,7.801894,7.7957354,7.790161,7.7852163,7.781024,7.7774,7.773933,7.7704983,7.767224,7.764006,7.7605963,7.757256,7.754092,7.7511854,7.7488413,7.7469444,7.745061,7.742818,7.740215,7.737611,7.735499,7.734083,7.7331305,7.732699,7.7328267,7.7337804,7.7358007,7.7388477,7.74245,7.745907,7.749639,7.7537565,7.7582803,7.763205,7.7682276,7.77289,7.776925,7.7804017,7.783459,7.7859797,7.787895,7.7893467,7.790448,7.791131,7.7916822,7.7923126,7.793206,7.794359,7.795863,7.7977123,7.799719,7.801791,7.804087,7.8065333,7.808896,7.810796,7.811856,7.8119364,7.81118,7.8098946,7.808178,7.806139,7.804101,7.8023634,7.8011723,7.800746,7.8009415,7.8015957,7.802817,7.8045096,7.806557,7.8087997,7.810979,7.8128366,7.814027,7.814517,7.8140783,7.8127317,7.810715,7.808235,7.805419,7.8024445,7.7997456,7.7978454,7.796896,7.7966166,7.7965345,7.796288,7.795726,7.795006,7.7940865,7.7925825,7.7899804,7.7862053,7.7818356,7.7773895,7.773216,7.770107,7.7680845,7.7669096,7.7665358,7.766945,7.7679753,7.7696705,7.77174,7.773626,7.77488,7.7756863,7.7765746,7.77762,7.7787848,7.780005,7.7807503,7.7807064,7.7800937,7.779331,7.778537,7.777544,7.776312,7.774783,7.772836,7.7706604,7.768586,7.7665944,7.764467,7.7623396,7.760406,7.7588434,7.7577085,7.7567625,7.7555485,7.753725,7.750936,7.7472086,7.742879,7.738677,7.7352285,7.7327404,7.731268,7.73074,7.730898,7.731843,7.733739,7.736604,7.7403135,7.744642,7.7490673,7.7528124,7.754817,7.7548532,7.7534637,7.751407,7.7492485,7.7470922,7.743677,7.738822,7.7330837,7.7275743,7.7234945,7.721485,7.7209463,7.720979,7.7207737,7.7200994,7.718992,7.717612,7.7161193
7.742469,7.7366757,7.7203403,7.6957445,7.6616507,7.6235743,7.5720196,7.4994326,7.430019,7.419493,7.4548388,7.46638,7.4887056,7.5143123,7.541057,7.5788727,7.5765953,7.5456247,7.530738,7.4396315,7.279259,6.987857,6.4928684,5.819412,5.1107616,4.515294,4.072775,3.7340114,3.4973984,3.3488474,3.2538977,3.1889234,3.1467268,3.1216784,3.1053724,3.0937684,3.0860608,3.0797653,3.0735207,3.067113,3.0609586,3.0573726,3.054396,3.0515513,3.04852,3.0456061,3.0431406,3.041042,3.0392795,3.0381365,3.0382657,3.0389805,3.039528,3.0389686,3.0371065,3.035596,3.0372446,3.0388389,3.040411,3.0422432,3.044337,3.0464544,3.0484586,3.0504167,3.0522232,3.0541615,3.056303,3.0585363,3.060769,3.0633826,3.0674872,3.0711527,3.074203,3.0768902,3.079491,3.0825849,3.0868769,3.092359,3.1003127,3.1092863,3.1176581,3.1255605,3.1335773,3.1413836,3.148377,3.1552095,3.1633358,3.172727,3.1836982,3.196466,3.211685,3.2310638,3.257143,3.2961535,3.351552,3.426803,3.5487576,3.7442837,4.014678,4.35753,4.7758293,5.3445053,6.016164,6.733989,7.34595,7.6368213,7.5666456,7.436489,7.539638,7.627081,7.6353908,7.62429,7.6033487,7.592864,7.579376,7.5604453,7.543311,7.5187693,7.5077763,7.542963,7.6117153,7.667366,7.717259,7.7598753,7.794762,7.823353,7.8446636,7.8547354,7.853389,7.8482685,7.845027,7.8422546,7.8386703,7.835103,7.8323755,7.8303857,7.8280325,7.823883,7.8176384,7.8098907,7.801753,7.7942705,7.7879744,7.7823477,7.777665,7.773719,7.770388,7.767316,7.7640295,7.7604904,7.7569118,7.75315,7.74893,7.7445574,7.7402744,7.7362967,7.7329903,7.73026,7.7276716,7.724903,7.7221713,7.7199397,7.71859,7.718094,7.7179804,7.718334,7.719292,7.7211676,7.724244,7.7284746,7.733324,7.738021,7.742785,7.747976,7.753522,7.7593536,7.7651877,7.7705493,7.7750735,7.7789426,7.782508,7.785615,7.788269,7.7903986,7.791913,7.792873,7.793626,7.7944517,7.7955456,7.796895,7.798595,7.8006396,7.80284,7.805091,7.8075,7.809841,7.811803,7.8129735,7.813001,7.8118134,7.809604,7.806627,7.8028927,7.7986255,7.7943892,7.7906694,7.787798,7.78603,7.785054,7.784853,7.7854996,7.786847,7.788698,7.790765,7.792674,7.794189,7.795148,7.7946305,7.7923317,7.7888107,7.784722,7.780301,7.775729,7.77089,7.765501,7.760523,7.7566123,7.7538238,7.7519474,7.750766,7.7498007,7.7487335,7.7472544,7.7450495,7.741912,7.7379255,7.733493,7.7287436,7.7235174,7.7182674,7.713379,7.7092752,7.706296,7.704462,7.703687,7.703841,7.704833,7.7065372,7.708472,7.710107,7.7111197,7.711252,7.710426,7.7087317,7.7062607,7.7033577,7.7004166,7.6976705,7.6952314,7.6929474,7.690829,7.6889033,7.687008,7.685041,7.682976,7.6807165,7.6782894,7.6755586,7.6725106,7.669207,7.6656485,7.662322,7.6601305,7.6589136,7.6572213,7.6551895,7.653178,7.651661,7.650711,7.6499457,7.649059,7.6478243,7.645875,7.644549,7.6440663,7.644103,7.6448097,7.64616,7.647766,7.6489086,7.6488914,7.647473,7.644847,7.6414595,7.637889,7.634442,7.6303616,7.6259155,7.6216087,7.6179695,7.6154404,7.6141963,7.613716,7.6133657,7.612685,7.611762,7.610791,7.6099873,7.609516
7.684718,7.6642227,7.6338716,7.5923443,7.5323076,7.4641,7.41263,7.4082413,7.4080725,7.415935,7.452346,7.4942384,7.533192,7.569742,7.612734,7.6247563,7.5638666,7.2514877,6.5892057,5.8936253,5.235817,4.6803646,4.2141256,3.8220668,3.513993,3.2944994,3.1444716,3.0588388,3.0137262,2.99901,2.9962597,2.9976714,3.003284,3.0090961,3.0154705,3.0214353,3.0276175,3.032472,3.0352695,3.0361133,3.0353706,3.0351,3.035036,3.0349035,3.034021,3.0323565,3.030363,3.028268,3.0260258,3.0242429,3.023206,3.022274,3.0199642,3.0147953,3.008107,3.0039206,2.9996672,2.9975104,2.998228,2.9998574,3.001235,3.002502,3.0032592,3.003652,3.0039535,3.0041573,3.004259,3.0042152,3.004125,3.0045881,3.0067337,3.0088158,3.0109234,3.013465,3.0168347,3.021245,3.0265856,3.0322893,3.0381548,3.0435858,3.048355,3.0524766,3.0559263,3.0585022,3.0600328,3.0610256,3.0624833,3.0640612,3.0650334,3.0650134,3.063988,3.0621881,3.0607986,3.0597677,3.0599108,3.0637264,3.080492,3.1186304,3.1811094,3.274887,3.4223857,3.6542587,3.9785848,4.39077,4.8541346,5.3221774,5.7964697,6.3853197,7.166581,7.7032957,7.729228,7.581959,7.632403,7.627862,7.619878,7.5941133,7.5652556,7.5371804,7.5157833,7.5088396,7.5113325,7.5050154,7.532463,7.5929513,7.6594954,7.712481,7.750153,7.7757635,7.7929716,7.8070564,7.819905,7.8208246,7.814349,7.809878,7.806945,7.804744,7.8019705,7.7980337,7.793033,7.787447,7.7818623,7.776864,7.772917,7.7696486,7.767351,7.765296,7.763385,7.761537,7.75949,7.7573185,7.755285,7.7532725,7.750828,7.7480097,7.744935,7.741769,7.7388773,7.7363505,7.7342443,7.732095,7.7295394,7.726638,7.723822,7.721348,7.718955,7.716531,7.7142234,7.7124996,7.7118306,7.7125435,7.7145057,7.716994,7.720106,7.7238083,7.7279882,7.7325993,7.7373524,7.7417936,7.7457294,7.7496037,7.753335,7.7563386,7.7557673,7.7527313,7.7499166,7.7469645,7.7441053,7.741012,7.737688,7.734023,7.7301626,7.726347,7.722711,7.7193675,7.716028,7.712472,7.70866,7.70453,7.7000346,7.6952524,7.690399,7.685451,7.680238,7.674859,7.6695175,7.664303,7.659237,7.6548057,7.6527743,7.652939,7.654376,7.6571918,7.6609955,7.664976,7.668894,7.672487,7.675808,7.678384,7.679847,7.6803665,7.680338,7.679985,7.6794124,7.67882,7.6783514,7.678404,7.678959,7.67973,7.680543,7.681404,7.6822553,7.6832585,7.6841803,7.684382,7.683235,7.6806536,7.677147,7.6731367,7.668852,7.664899,7.6614223,7.65853,7.6564484,7.655273,7.6550684,7.655671,7.6568294,7.6581645,7.6592684,7.6601458,7.6610875,7.662034,7.662839,7.663496,7.663731,7.663562,7.6633663,7.663495,7.6639295,7.66446,7.6651177,7.6656494,7.6657352,7.665413,7.664959,7.6644483,7.663941,7.6636386,7.6636105,7.6638813,7.6643972,7.6650248,7.6655693,7.66574,7.6650944,7.663725,7.6621604,7.6611004,7.660801,7.660931,7.661023,7.6609545,7.660488,7.6600657,7.660226,7.6611705,7.662813,7.6650095,7.667406,7.669202,7.669652,7.6684775,7.6658087,7.662076,7.657969,7.6538715,7.649139,7.6442204,7.6397443,7.63626,7.6341515,7.633504,7.633725,7.6342278,7.6345243,7.6346607,7.63478,7.6350346,7.6355305
7.598344,7.5540257,7.4889717,7.4305964,7.410541,7.388996,7.3668156,7.3815794,7.408242,7.427965,7.4598513,7.524563,7.602974,7.499732,7.075694,6.395171,5.6802444,5.027708,4.4047985,3.9034004,3.5027394,3.2089825,3.0293365,2.943719,2.9234629,2.935137,2.9430718,2.9454637,2.9429774,2.9411385,2.948885,2.9672408,2.9897056,3.0113626,3.031395,3.0498734,3.060683,3.0649424,3.0661983,3.0659323,3.0642529,3.0626755,3.0616083,3.0606058,3.058712,3.0557966,3.052785,3.050373,3.0481286,3.0465941,3.0460048,3.0463948,3.046329,3.0439491,3.038475,3.0306387,3.0219254,3.0150669,3.0110843,3.0083895,3.0052304,3.0022206,3.0013735,3.0026455,3.0040045,3.005473,3.0062993,3.0068254,3.0077598,3.009068,3.0109968,3.0130444,3.015442,3.0187397,3.0235014,3.0300627,3.0380902,3.0463371,3.0543232,3.0609288,3.0663195,3.0702457,3.0722752,3.0723093,3.0705981,3.0684407,3.0662117,3.0629625,3.0577602,3.0505235,3.041792,3.0323305,3.0236306,3.014563,3.0065079,3.0026436,3.003479,3.005877,3.0065737,3.0053837,2.999559,3.0021,3.040145,3.1314588,3.288931,3.5324833,3.8778753,4.348226,4.9531,5.5913706,6.187297,6.814124,7.43369,7.7029576,7.6123037,7.585759,7.5719776,7.5596313,7.5467253,7.522093,7.4997125,7.4819274,7.481513,7.495804,7.500951,7.5206194,7.5754576,7.6315336,7.6738863,7.706397,7.733655,7.751608,7.760189,7.7616506,7.758279,7.7563014,7.7535343,7.749702,7.745094,7.7401037,7.7351522,7.730792,7.727541,7.7250447,7.723522,7.722227,7.7205944,7.718348,7.7156186,7.712966,7.710773,7.7088594,7.706607,7.7038083,7.7005625,7.697113,7.6938257,7.691066,7.6856804,7.678873,7.6707144,7.661749,7.6528125,7.6442766,7.636261,7.6283636,7.620478,7.613058,7.6064663,7.601012,7.596736,7.593149,7.5902047,7.5875716,7.585372,7.583439,7.5825844,7.584192,7.5881634,7.591874,7.5964727,7.602177,7.6063375,7.608861,7.6113434,7.613557,7.615565,7.6173553,7.618734,7.6194615,7.619735,7.6200056,7.62057,7.6214476,7.6227236,7.6241875,7.6256227,7.6267548,7.6274395,7.627763,7.6278696,7.627907,7.6280007,7.6282473,7.628662,7.6290326,7.629244,7.6296945,7.631365,7.6345167,7.638736,7.6441936,7.650672,7.6575356,7.664357,7.6707506,7.676961,7.682844,7.6868114,7.688945,7.69023,7.6910543,7.692013,7.693539,7.6956415,7.6968794,7.697263,7.697549,7.6978703,7.698076,7.6981645,7.6985645,7.6991835,7.699354,7.698134,7.6952114,7.6912956,7.6870737,7.683124,7.680254,7.6783743,7.6772346,7.6769505,7.6775594,7.6784534,7.6800933,7.6823864,7.684497,7.6858525,7.686755,7.687812,7.689082,7.690425,7.691728,7.692499,7.692169,7.6910014,7.689934,7.6894016,7.689023,7.688694,7.6880364,7.6866035,7.684476,7.682092,7.6796107,7.6770043,7.674529,7.672509,7.671279,7.6709948,7.671266,7.6712914,7.6706038,7.668947,7.66626,7.6628795,7.6594152,7.656106,7.6527395,7.649292,7.6455307,7.6411476,7.636814,7.633483,7.6315136,7.63068,7.63085,7.6314855,7.631611,7.6305866,7.628459,7.625699,7.622869,7.620454,7.6181736,7.6148148,7.6101084,7.6044636,7.5989347,7.594661,7.592147,7.5908523,7.5896597,7.5875063,7.5840693,7.5797067,7.5749893,7.5703135
7.4572773,7.411285,7.3788385,7.3553467,7.3728924,7.3936615,7.4074287,7.408022,7.436633,7.469798,7.3870597,7.103035,6.7053423,6.0273256,5.1735687,4.324459,3.620605,3.1639075,2.9713373,2.902292,2.8973107,2.8960123,2.8944755,2.8938384,2.8940501,2.8967705,2.9042413,2.9157047,2.9279885,2.9455981,2.9723685,3.0001636,3.0204945,3.0373867,3.052948,3.0666776,3.0726657,3.0723753,3.0697846,3.0667582,3.0633383,3.06026,3.0582247,3.056538,3.0543752,3.051507,3.0489602,3.0476873,3.0469637,3.0474515,3.0493135,3.0531716,3.058052,3.0624194,3.0644093,3.0621781,3.0586724,3.0561423,3.0519624,3.046369,3.039554,3.0320797,3.0264194,3.022708,3.018553,3.0140524,3.011876,3.0124085,3.014051,3.0160933,3.018307,3.02069,3.0236802,3.0280511,3.0341191,3.0405102,3.0459096,3.0517144,3.0575008,3.0632038,3.0682812,3.0719872,3.0740547,3.0747151,3.0742388,3.0737107,3.073069,3.071112,3.067194,3.0614762,3.05411,3.0450525,3.0352407,3.024115,3.0087805,2.991912,2.9785702,2.9709127,2.9666393,2.962103,2.956857,2.9591904,2.9670844,2.9752812,2.9851646,3.001051,3.0204835,3.0751035,3.1999726,3.514195,4.1097493,4.888024,5.627043,6.200779,6.574079,7.0720835,7.4346533,7.5646706,7.558268,7.537547,7.540511,7.545862,7.527396,7.500954,7.464142,7.444581,7.4574704,7.473099,7.4884005,7.534107,7.5815415,7.622967,7.6526794,7.6682734,7.6754894,7.68093,7.6835155,7.683206,7.6804805,7.675859,7.669999,7.6637526,7.657734,7.6517262,7.6457024,7.639207,7.631558,7.6225243,7.6127405,7.603305,7.594494,7.5854845,7.575968,7.5659275,7.5555844,7.545194,7.5350666,7.525687,7.5153847,7.5066495,7.5019274,7.499442,7.497036,7.495189,7.493788,7.492712,7.4924564,7.493045,7.4942923,7.4959474,7.4976397,7.498914,7.5001965,7.501564,7.503211,7.5049505,7.5076566,7.5127764,7.5200973,7.527005,7.534878,7.5442114,7.554228,7.563952,7.573098,7.581725,7.5897675,7.597677,7.604707,7.6109943,7.6165967,7.6204214,7.621973,7.62375,7.626318,7.629114,7.6319485,7.6348734,7.6370907,7.637735,7.637546,7.6374836,7.637579,7.637696,7.638072,7.638691,7.6385784,7.636739,7.6349177,7.6329956,7.631997,7.6315336,7.632165,7.634061,7.6356726,7.6369905,7.637947,7.637319,7.6393976,7.6436467,7.6478243,7.652437,7.655864,7.657788,7.659505,7.6644897,7.671296,7.6774616,7.683078,7.688115,7.6930065,7.6985035,7.7040625,7.7071676,7.706477,7.70284,7.6975164,7.6920395,7.6874228,7.6849594,7.6846623,7.6859655,7.688706,7.6928177,7.697337,7.702923,7.708246,7.713151,7.717075,7.719786,7.7221365,7.724799,7.727511,7.7295628,7.7299266,7.72786,7.7240725,7.7203236,7.7176337,7.7156124,7.7140775,7.712471,7.7103224,7.7078767,7.7058043,7.7044168,7.703661,7.703699,7.7046566,7.7063313,7.7083645,7.7099123,7.7097273,7.7071953,7.70173,7.6931133,7.6826158,7.672139,7.6629906,7.655471,7.6493177,7.6438103,7.63869,7.634553,7.632326,7.6320753,7.6329174,7.634184,7.6352863,7.634921,7.632656,7.629091,7.625242,7.621978,7.619766,7.6179137,7.6149035,7.6099377,7.6031733,7.595916,7.589808,7.585779,7.583687,7.5821304,7.580065,7.576787,7.571181,7.5629435,7.5531764
