11.581065,11.586521,11.59058,11.592839,11.594336,11.595497,11.596613,11.596928,11.596084,11.59424,11.591662,11.5890665,11.587999,11.588467,11.588781,11.591791,11.5973015,11.604268,11.612319,11.62048,11.630056,11.640248,11.650898,11.6618,11.673325,11.685276,11.696295,11.706632,11.715598,11.7224865,11.728123,11.733849,11.740639,11.7486725,11.75738,11.766583,11.776514,11.786378,11.795607,11.804514,11.813749,11.823469,11.835654,11.850992,11.86624,11.878753,11.887175,11.891381,11.892706,11.893322,11.893367,11.892008,11.896099,11.906122,11.917278,11.929587,11.942286,11.957938,11.976165,11.996391,12.019837,12.047718,12.078463,12.108448,12.13882,12.168081,12.196575,12.2255745,12.256853,12.292156,12.331791,12.3782625,12.432865,12.497415,12.569881,12.646593,12.724714,12.801613,12.880213,12.965235,13.054788,13.144318,13.230599,13.310461,13.378759,13.435677,13.485114,13.526573,13.560373,13.584583,13.597332,13.599632,13.592524,13.574878,13.549103,13.518192,13.485842,13.4552,13.427784,13.40361,13.380378,13.355777,13.329357,13.301851,13.275964,13.255266,13.241495,13.231662,13.223583,13.216372,13.209071,13.201015,13.192085,13.182762,13.173615,13.16419,13.154934,13.146404,13.139286,13.133747,13.129409,13.126425,13.123768,13.121269,13.118622,13.115961,13.111875,13.105017,13.098291,13.091053,13.083862,13.075457,13.066223,13.057002,13.048231,13.040725,13.032782,13.024133,13.014374,13.003424,12.991217,12.97841,12.9666195,12.955833,12.946062,12.935976,12.925931,12.9161625,12.906612,12.897541,12.888517,12.879335,12.870108,12.861359,12.8527565,12.844063,12.835676,12.827582,12.819696,12.811652,12.803358,12.794464,12.784839,12.774633,12.763994,12.753664,12.743376,12.734106,12.725796,12.718563,12.713011,12.709349,12.7078,12.707568,12.707926,12.707396,12.704511,12.698581,12.689814,12.679138,12.667404,12.656138,12.647412,12.641711,12.636274,12.626322,12.608539,12.5799465,12.542492,12.502777,12.470418,12.450996,12.442879,12.441002,12.4404955,12.435894,12.42566,12.411215,12.396164,12.385372,12.383016,12.389416,12.403947,12.423658,12.44245,12.45519,12.460161,12.458714,12.453922,12.447692,12.442577,12.439222,12.437466,12.43668,12.43594,12.434841,12.433419,12.431171,12.42856,12.426332,12.424452,12.422209,12.419376,12.415812,12.4116535,12.407263,12.403132,12.39929,12.395249,12.390683,12.385815,12.380463,12.375461,12.371771,12.369452,12.367706,12.365669,12.362844,12.358738,12.353754,12.3487,12.343957,12.33919,12.334186,12.329863,12.325335,12.321426,12.319099,12.318249,12.318005,12.317537,12.316364,12.314306,12.312001,12.309677,12.307573,12.305775,12.304341,12.303538,12.303414,12.303849,12.304728,12.305511,12.305639,12.305056,12.304228,12.303516,12.30341,12.304152,12.305793,12.307781,12.309305,12.309956,12.309774,12.30932,12.309057,12.310124,12.313051,12.317358,12.322145,12.32676,12.330706,12.333878,12.336689,12.338779,12.340755,12.344443,12.3509655,12.360348,12.372488,12.3841715,12.390064,12.388325,12.382801,12.380121,12.386276,12.405416,12.434553,12.45806,12.456205,12.418687,12.3529,12.279959,12.2181835,12.16634,12.13008
11.495569,11.501106,11.50589,11.509197,11.511276,11.512595,11.51366,11.513813,11.512594,11.510298,11.507318,11.504425,11.503397,11.504178,11.505163,11.5094,11.516393,11.524833,11.534224,11.543288,11.553425,11.566019,11.580425,11.594723,11.607912,11.620089,11.631239,11.64197,11.651323,11.658092,11.663105,11.667995,11.67397,11.681381,11.689936,11.699215,11.709657,11.720652,11.731599,11.742788,11.7548275,11.767504,11.78322,11.802763,11.822258,11.838403,11.84949,11.855381,11.857611,11.859034,11.859797,11.859083,11.863945,11.874861,11.8870125,11.900518,11.9142475,11.930955,11.950399,11.972389,11.997496,12.02678,12.059608,12.0918255,12.123858,12.154487,12.18434,12.215273,12.249609,12.289303,12.334591,12.387821,12.450186,12.521375,12.599172,12.680504,12.76221,12.841034,12.920734,13.004576,13.0901165,13.173215,13.251701,13.321146,13.37395,13.414999,13.45113,13.482092,13.506351,13.519033,13.518478,13.509113,13.492779,13.466997,13.435066,13.399965,13.364805,13.332365,13.304151,13.280039,13.257185,13.233572,13.208675,13.182725,13.158358,13.138725,13.124152,13.113839,13.105194,13.096957,13.088095,13.078756,13.069249,13.059254,13.04944,13.039331,13.029554,13.020685,13.01345,13.008028,13.003939,13.0013275,12.999235,12.997223,12.995035,12.992872,12.98933,12.983128,12.97728,12.97114,12.965197,12.9580345,12.949825,12.941259,12.932743,12.92514,12.916927,12.90785,12.897612,12.8861685,12.873495,12.860294,12.848162,12.837118,12.827169,12.816992,12.806927,12.79719,12.787665,12.778558,12.769481,12.760181,12.750744,12.741716,12.732828,12.723909,12.715393,12.70726,12.699411,12.691448,12.683311,12.674652,12.665324,12.655489,12.645261,12.635287,12.625237,12.616018,12.607576,12.600083,12.594161,12.590019,12.587912,12.587027,12.586687,12.5856285,12.5826235,12.577117,12.569284,12.559896,12.549528,12.539551,12.531756,12.526926,12.523158,12.516527,12.504103,12.48344,12.455961,12.426844,12.403749,12.390852,12.386307,12.385645,12.384813,12.379405,12.368628,12.354502,12.340483,12.33029,12.326729,12.329677,12.33764,12.348293,12.357601,12.3625965,12.362776,12.359508,12.354784,12.349249,12.344648,12.341028,12.3381405,12.335669,12.333018,12.329859,12.32641,12.322442,12.317994,12.314119,12.31102,12.307724,12.304077,12.299892,12.29525,12.29048,12.286005,12.281786,12.277492,12.273119,12.268772,12.264,12.259461,12.255976,12.253616,12.251725,12.249563,12.246689,12.242589,12.237623,12.232579,12.227981,12.223742,12.219593,12.215879,12.212263,12.209322,12.207796,12.207512,12.207698,12.207649,12.2069435,12.205507,12.203686,12.201749,12.199924,12.198242,12.19675,12.195696,12.195181,12.195345,12.19589,12.196271,12.196018,12.195114,12.194012,12.193068,12.192694,12.193048,12.194189,12.195765,12.197211,12.19824,12.19892,12.199622,12.200478,12.202255,12.205353,12.209475,12.214045,12.218634,12.222847,12.226469,12.229586,12.23168,12.233366,12.236588,12.242683,12.252013,12.264751,12.277914,12.286348,12.287494,12.283707,12.280377,12.283015,12.295417,12.316511,12.335361,12.337642,12.315075,12.272694,12.228341,12.184942,12.146435,12.117853
11.402289,11.408663,11.414514,11.418768,11.4213295,11.422659,11.423417,11.423183,11.421552,11.419027,11.416152,11.413649,11.413294,11.414795,11.41672,11.422333,11.430636,11.43989,11.450053,11.460831,11.474436,11.489877,11.506577,11.522865,11.537491,11.550511,11.562646,11.574823,11.585846,11.593819,11.599356,11.604389,11.610481,11.618184,11.627501,11.637798,11.64975,11.662903,11.676628,11.691147,11.706904,11.723215,11.742788,11.766521,11.790007,11.809699,11.823502,11.83091,11.833848,11.836227,11.83811,11.838516,11.844658,11.856837,11.870048,11.884668,11.899219,11.916548,11.93688,11.96047,11.9878845,12.020096,12.056454,12.092202,12.127184,12.160437,12.193317,12.228094,12.26705,12.312,12.363007,12.422913,12.491627,12.568077,12.649818,12.733633,12.816189,12.893684,12.964775,13.036615,13.106891,13.172218,13.231148,13.281832,13.320553,13.34963,13.374098,13.393779,13.408133,13.413931,13.410468,13.399422,13.374334,13.342114,13.3069515,13.270653,13.235147,13.20284,13.175172,13.152075,13.130871,13.1097355,13.088083,13.065407,13.043539,13.025194,13.010618,12.999842,12.990181,12.98033,12.969265,12.956754,12.943527,12.930922,12.91972,12.908932,12.898802,12.889492,12.8818,12.876167,12.872095,12.8696785,12.868026,12.866478,12.864787,12.863176,12.860209,12.854626,12.849583,12.8443985,12.839525,12.833403,12.825981,12.817808,12.809276,12.801327,12.79264,12.783003,12.772236,12.760363,12.747395,12.7340145,12.721754,12.710627,12.70061,12.690407,12.680356,12.670656,12.661151,12.652016,12.642929,12.633583,12.6240425,12.614848,12.60577,12.596695,12.588105,12.580002,12.57228,12.564498,12.556616,12.548307,12.539394,12.529976,12.520165,12.510529,12.500754,12.49166,12.483202,12.47558,12.469411,12.4648695,12.462193,12.460617,12.459562,12.457993,12.45491,12.449867,12.442993,12.434874,12.425821,12.417053,12.410042,12.405766,12.403069,12.398802,12.390408,12.375904,12.356298,12.335583,12.319732,12.311707,12.309505,12.309288,12.307776,12.301521,12.290309,12.276552,12.2634325,12.253635,12.248886,12.248875,12.251586,12.255381,12.257927,12.257795,12.255159,12.251196,12.246944,12.242233,12.23824,12.234631,12.231133,12.227663,12.223879,12.219563,12.2150135,12.210242,12.205217,12.200483,12.196083,12.191397,12.186502,12.181593,12.176657,12.171827,12.16741,12.163368,12.159359,12.155264,12.151193,12.146863,12.1427555,12.139484,12.137056,12.134907,12.132441,12.129271,12.124901,12.119646,12.1142025,12.109184,12.104717,12.100613,12.097038,12.093903,12.091686,12.090907,12.091312,12.092147,12.092724,12.092663,12.091925,12.09071,12.089242,12.087696,12.086102,12.084539,12.08326,12.082358,12.0819,12.08172,12.081455,12.080795,12.079771,12.078745,12.0779705,12.07773,12.078085,12.0791025,12.080622,12.082279,12.083829,12.085256,12.08704,12.089043,12.091578,12.094826,12.098623,12.102673,12.106792,12.110758,12.114392,12.117657,12.119997,12.121979,12.125441,12.131697,12.141288,12.154598,12.168926,12.179397,12.182956,12.180735,12.176947,12.176382,12.182354,12.19623,12.210397,12.214891,12.204721,12.182941,12.158835,12.13105,12.104933,12.084057
11.305805,11.313101,11.319787,11.324499,11.327181,11.3282585,11.328587,11.328112,11.326502,11.324482,11.322659,11.321542,11.32277,11.325748,11.329129,11.336846,11.348534,11.361656,11.374964,11.388376,11.404549,11.421883,11.439993,11.457832,11.474234,11.489091,11.50338,11.518237,11.532307,11.54302,11.550524,11.556959,11.564396,11.573629,11.584759,11.597448,11.612637,11.629721,11.647875,11.667322,11.688422,11.70992,11.734467,11.763409,11.792086,11.814365,11.829447,11.840223,11.847137,11.85301,11.858039,11.861481,11.870781,11.885532,11.900177,11.915569,11.929569,11.945147,11.963642,11.986314,12.014828,12.050352,12.091105,12.131327,12.170013,12.206383,12.2431345,12.282925,12.327692,12.3784075,12.432969,12.490667,12.554571,12.62508,12.700276,12.776516,12.849943,12.916937,12.976307,13.033445,13.087139,13.134801,13.175554,13.210196,13.238357,13.258675,13.273531,13.282839,13.287315,13.28628,13.280074,13.269306,13.248028,13.219955,13.184212,13.146494,13.111328,13.080087,13.053066,13.030575,13.010663,12.991638,12.972979,12.953529,12.934114,12.917042,12.902996,12.891838,12.881184,12.86994,12.857201,12.842338,12.826003,12.810325,12.7960415,12.781961,12.768324,12.757181,12.749255,12.743641,12.739716,12.737513,12.736218,12.735115,12.7339525,12.732918,12.73049,12.725387,12.7209015,12.716362,12.712167,12.706658,12.699596,12.691407,12.682518,12.673975,12.664644,12.654418,12.643202,12.631109,12.618156,12.604931,12.59284,12.581875,12.572002,12.561962,12.55206,12.542462,12.533011,12.523895,12.514858,12.505567,12.496054,12.486848,12.477737,12.468668,12.4601755,12.452272,12.444864,12.437468,12.429993,12.422128,12.413686,12.404711,12.395308,12.3859825,12.376477,12.367549,12.3591385,12.351434,12.345017,12.340059,12.336796,12.334503,12.332716,12.330612,12.327404,12.322736,12.316673,12.3096485,12.301714,12.293926,12.287462,12.283403,12.28119,12.278361,12.272667,12.262514,12.248583,12.233921,12.223143,12.21824,12.217149,12.216642,12.21411,12.206853,12.1950865,12.181398,12.16865,12.158775,12.152784,12.150339,12.149223,12.148462,12.146888,12.143965,12.140084,12.136061,12.132326,12.128225,12.124526,12.1207905,12.116759,12.112494,12.107929,12.103053,12.098118,12.093222,12.088398,12.083675,12.078842,12.073566,12.068012,12.062382,12.057112,12.052113,12.047572,12.0435295,12.039652,12.035696,12.03178,12.0278015,12.024061,12.020939,12.018342,12.0158,12.012865,12.009268,12.0045395,11.9989395,11.993051,11.987497,11.982542,11.978151,11.974592,11.971756,11.9701,11.970006,11.971111,11.97262,11.973828,11.974328,11.974103,11.973351,11.972196,11.970773,11.96916,11.967502,11.966059,11.964891,11.96394,11.963219,11.962515,11.9616165,11.960596,11.959795,11.959384,11.959484,11.960079,11.961227,11.96286,11.96475,11.966747,11.968852,11.971529,11.974406,11.977463,11.980715,11.984059,11.987385,11.990725,11.994089,11.997396,12.000664,12.003389,12.00602,12.010099,12.0167465,12.026539,12.039995,12.054775,12.066443,12.071848,12.071251,12.067919,12.066641,12.069887,12.078726,12.088334,12.093113,12.090801,12.08239,12.07023,12.054818,12.039384,12.025753
11.21374,11.222197,11.229975,11.2353325,11.238194,11.239084,11.239114,11.238806,11.238027,11.237664,11.2384815,11.240773,11.24547,11.251953,11.259323,11.271751,11.288996,11.307743,11.325464,11.3415165,11.358519,11.37722,11.397203,11.417292,11.436256,11.45396,11.471405,11.490054,11.509062,11.524867,11.536782,11.546684,11.556673,11.567928,11.581829,11.595485,11.609713,11.625414,11.642464,11.660929,11.681149,11.701941,11.725151,11.752342,11.779282,11.799522,11.813563,11.825727,11.8348675,11.842993,11.850669,11.857542,11.871197,11.890659,11.909746,11.929299,11.947194,11.966702,11.989368,12.016476,12.049253,12.088367,12.131884,12.174059,12.214596,12.253046,12.2923765,12.334675,12.381207,12.432325,12.484688,12.536452,12.59262,12.6544,12.720425,12.786907,12.849721,12.9063425,12.960145,13.010803,13.050844,13.082291,13.109343,13.133,13.152451,13.16507,13.171989,13.173176,13.169247,13.160332,13.147709,13.134245,13.120989,13.102289,13.074158,13.044352,13.013187,12.980646,12.952202,12.927627,12.906422,12.886698,12.868181,12.849598,12.831173,12.814557,12.8002205,12.788138,12.776304,12.763928,12.750225,12.734646,12.7175,12.700092,12.683031,12.665282,12.647668,12.63349,12.623577,12.61645,12.61153,12.609139,12.608352,12.607936,12.607546,12.6073,12.605527,12.600864,12.596708,12.592438,12.5884075,12.582928,12.575647,12.566952,12.557358,12.548027,12.537988,12.527241,12.515774,12.503763,12.491187,12.478464,12.466839,12.456282,12.446754,12.437029,12.427378,12.4179535,12.408613,12.399567,12.390627,12.381462,12.372076,12.363012,12.354063,12.345203,12.337025,12.329529,12.3226185,12.315793,12.308889,12.301569,12.293629,12.28509,12.276047,12.266981,12.257663,12.248832,12.240422,12.23258,12.225832,12.22036,12.216456,12.213396,12.210826,12.208145,12.20476,12.200361,12.194925,12.188774,12.181708,12.174657,12.168528,12.164429,12.162264,12.160149,12.1560955,12.148817,12.138652,12.127859,12.120032,12.116532,12.115393,12.113965,12.11014,12.101725,12.089222,12.075199,12.062208,12.051724,12.044427,12.040053,12.036449,12.033148,12.0296135,12.025667,12.021551,12.017649,12.014036,12.009874,12.005739,12.001347,11.996571,11.991562,11.98639,11.981128,11.975946,11.9710245,11.966398,11.962,11.957459,11.952364,11.946903,11.941204,11.935545,11.929977,11.92477,11.920124,11.915926,11.911995,11.908283,11.904621,11.901106,11.897957,11.895115,11.892216,11.888887,11.884983,11.88006,11.874273,11.868068,11.86203,11.856512,11.851636,11.847843,11.845163,11.843885,11.844296,11.845937,11.8479395,11.849597,11.850537,11.850649,11.850129,11.84905,11.847565,11.845823,11.84403,11.842442,11.84112,11.840034,11.839163,11.8383465,11.837444,11.836573,11.8360815,11.836119,11.836706,11.837755,11.839247,11.84109,11.843147,11.84542,11.848007,11.85117,11.854465,11.857726,11.86088,11.863817,11.86651,11.869118,11.871895,11.874874,11.878214,11.8814945,11.884962,11.889764,11.896744,11.906418,11.919401,11.933773,11.945776,11.9526005,11.954153,11.952948,11.953434,11.957037,11.96348,11.969836,11.973686,11.974172,11.971253,11.9659,11.958748,11.951109,11.943413
11.131386,11.141535,11.150934,11.157362,11.160744,11.161897,11.162537,11.163757,11.165615,11.168965,11.174633,11.182671,11.192971,11.205158,11.219269,11.238621,11.261295,11.283571,11.303838,11.321945,11.340584,11.361132,11.383008,11.405455,11.426136,11.444476,11.463381,11.483799,11.503617,11.520857,11.534603,11.545898,11.556046,11.566254,11.579706,11.589759,11.596702,11.60383,11.612268,11.62178,11.632706,11.644676,11.658354,11.675009,11.691406,11.705717,11.717524,11.726136,11.731144,11.736595,11.743467,11.751395,11.767904,11.792187,11.817764,11.844749,11.872073,11.903427,11.939032,11.978577,12.020683,12.064583,12.10948,12.150997,12.191672,12.231377,12.27169,12.313198,12.356446,12.402218,12.449066,12.5012455,12.558825,12.621843,12.688494,12.754662,12.816431,12.872271,12.9251995,12.975297,13.005701,13.023901,13.039881,13.054274,13.066572,13.073502,13.075327,13.071354,13.061691,13.047413,13.031185,13.015734,13.000309,12.984308,12.969312,12.956661,12.934748,12.902887,12.874977,12.849476,12.824425,12.800637,12.778793,12.758009,12.738136,12.720064,12.703989,12.689904,12.6761,12.66221,12.64749,12.631212,12.613535,12.595692,12.578203,12.559967,12.542192,12.525912,12.512417,12.502324,12.495376,12.492259,12.491735,12.491804,12.491938,12.4921465,12.490562,12.48579,12.481445,12.47682,12.472227,12.46616,12.458214,12.448713,12.438297,12.428236,12.417646,12.406599,12.395157,12.383514,12.371561,12.359545,12.348553,12.338539,12.329449,12.32008,12.310715,12.301516,12.292339,12.283401,12.274575,12.265541,12.256309,12.247461,12.238781,12.230245,12.22249,12.215507,12.209166,12.202982,12.196752,12.190073,12.182673,12.174551,12.165818,12.15694,12.147724,12.138886,12.130401,12.122398,12.115345,12.109402,12.104893,12.101133,12.097894,12.094712,12.09111,12.086849,12.081879,12.076369,12.069912,12.06333,12.057278,12.052914,12.050545,12.0487,12.045461,12.0397,12.031687,12.02302,12.016489,12.0131035,12.011149,12.008466,12.003319,11.993832,11.980624,11.966109,11.952541,11.941126,11.932482,11.926531,11.9213505,11.916765,11.912567,11.908546,11.904572,11.900639,11.8967,11.891869,11.886733,11.881298,11.875616,11.8699045,11.864286,11.858806,11.853529,11.848696,11.844295,11.840252,11.836189,11.831562,11.826376,11.821178,11.815203,11.808943,11.80295,11.797628,11.793097,11.789158,11.785568,11.7820835,11.778595,11.775267,11.772146,11.768986,11.765442,11.761419,11.756499,11.750684,11.744247,11.737709,11.731476,11.72584,11.721515,11.7187,11.717502,11.718129,11.720049,11.722308,11.7241745,11.72536,11.725618,11.725153,11.724027,11.722436,11.720591,11.718717,11.717063,11.715719,11.714647,11.713724,11.712847,11.712034,11.711473,11.711435,11.712053,11.71332,11.715038,11.717046,11.719179,11.721379,11.723772,11.72644,11.729614,11.732996,11.7363205,11.73942,11.742156,11.7444935,11.74663,11.749027,11.751857,11.755438,11.759422,11.763817,11.769327,11.776532,11.785847,11.797953,11.811388,11.8231945,11.831171,11.835247,11.837147,11.839556,11.843408,11.849205,11.854365,11.857181,11.857838,11.8568945,11.855049,11.852536,11.849768,11.846362
11.056498,11.066805,11.076632,11.083559,11.087572,11.0898695,11.093393,11.099274,11.10719,11.117617,11.130491,11.144995,11.161373,11.179197,11.1987095,11.222891,11.24991,11.275574,11.297836,11.31727,11.336517,11.357816,11.380221,11.404342,11.422738,11.433038,11.446199,11.459839,11.463803,11.465813,11.467198,11.468324,11.469839,11.471549,11.474131,11.477392,11.481756,11.487375,11.493786,11.501091,11.509915,11.519857,11.531284,11.546093,11.561552,11.574959,11.585363,11.592476,11.595995,11.599846,11.60552,11.612831,11.6293545,11.654177,11.680679,11.708977,11.738176,11.771994,11.810797,11.854281,11.900715,11.948941,11.997848,12.042374,12.086006,12.128218,12.170729,12.214249,12.259622,12.307816,12.356703,12.410072,12.468737,12.532391,12.5991535,12.664534,12.723875,12.775465,12.822533,12.865461,12.901899,12.93099,12.952536,12.967028,12.975719,12.979278,12.980259,12.976058,12.964618,12.947794,12.930082,12.914181,12.898762,12.883329,12.868244,12.853773,12.839034,12.823714,12.808662,12.79356,12.764835,12.735268,12.708075,12.683058,12.659876,12.638821,12.619806,12.602722,12.586091,12.570078,12.553984,12.536926,12.5188875,12.500855,12.4832115,12.464833,12.446964,12.431055,12.418329,12.409109,12.402933,12.399679,12.398066,12.397019,12.396035,12.394894,12.391583,12.384913,12.379124,12.373071,12.366879,12.35972,12.351,12.340731,12.329709,12.319258,12.308491,12.297512,12.2863865,12.275272,12.263977,12.252628,12.242205,12.232681,12.223997,12.215009,12.20597,12.197035,12.188056,12.179244,12.170485,12.161516,12.152347,12.1436,12.135079,12.126797,12.119415,12.112904,12.10713,12.101643,12.09614,12.090139,12.0833235,12.075656,12.06724,12.058569,12.049455,12.040611,12.032085,12.024012,12.016812,12.010651,12.0058,12.001661,11.998194,11.994732,11.990733,11.986268,11.981529,11.976339,11.970131,11.963604,11.957193,11.952274,11.949652,11.947985,11.944937,11.9393425,11.932273,11.924931,11.919281,11.915937,11.913379,11.909779,11.90369,11.893429,11.8797,11.864708,11.850456,11.838023,11.828016,11.820528,11.813854,11.808098,11.8032,11.798901,11.794794,11.790583,11.78621,11.780754,11.77486,11.768728,11.762523,11.756458,11.750654,11.745127,11.739895,11.735211,11.730972,11.727523,11.724993,11.722358,11.718159,11.712711,11.706327,11.699623,11.693235,11.687622,11.682889,11.678829,11.67528,11.671885,11.668454,11.664982,11.661444,11.657747,11.653799,11.649565,11.6446085,11.638846,11.632457,11.625846,11.619415,11.613536,11.608883,11.605546,11.604057,11.604662,11.606711,11.609139,11.611067,11.611985,11.611942,11.611155,11.609714,11.607872,11.605892,11.603997,11.60239,11.601121,11.600105,11.599157,11.598219,11.597421,11.59704,11.597365,11.598501,11.600338,11.6025915,11.604979,11.607271,11.609474,11.611828,11.614439,11.617605,11.62109,11.624582,11.627839,11.630651,11.632931,11.634874,11.637076,11.63986,11.643684,11.648275,11.653437,11.659508,11.666848,11.675781,11.687044,11.699608,11.711158,11.720053,11.726055,11.729879,11.73314,11.737478,11.742644,11.746452,11.747976,11.748415,11.749035,11.749799,11.750774,11.751783,11.751885
10.978088,10.988473,10.999283,11.008452,11.015676,11.022335,11.030504,11.042342,11.057739,11.076813,11.098869,11.122412,11.147025,11.173056,11.201903,11.235481,11.271471,11.304229,11.325012,11.327318,11.330816,11.33571,11.340557,11.345857,11.350374,11.35265,11.353893,11.354256,11.351737,11.348385,11.344105,11.339663,11.336262,11.3340225,11.333306,11.333174,11.334394,11.336946,11.340031,11.343763,11.349094,11.35582,11.363384,11.374196,11.386271,11.397373,11.406347,11.412441,11.415205,11.418283,11.423508,11.430027,11.445322,11.468775,11.494209,11.522231,11.552294,11.58776,11.629192,11.676204,11.726636,11.779044,11.832216,11.880479,11.928082,11.974018,12.020149,12.067335,12.116464,12.168493,12.221105,12.278093,12.339371,12.404718,12.472107,12.537219,12.596201,12.64816,12.697806,12.74259,12.780364,12.807968,12.826112,12.838178,12.845394,12.848581,12.8487835,12.845227,12.837101,12.82714,12.818037,12.809043,12.799738,12.7907715,12.7829685,12.772045,12.756914,12.74006,12.722916,12.704505,12.684099,12.663061,12.645126,12.62253,12.592937,12.564175,12.539276,12.517733,12.497071,12.478032,12.459979,12.441875,12.423507,12.405527,12.388157,12.370188,12.35298,12.338157,12.326799,12.318961,12.314071,12.31182,12.310768,12.309937,12.308872,12.307289,12.303154,12.295246,12.28763,12.279699,12.271584,12.262049,12.250578,12.237473,12.2237625,12.211185,12.199546,12.188932,12.178528,12.168173,12.157659,12.147032,12.1372,12.12816,12.119846,12.111223,12.102562,12.093958,12.085228,12.076559,12.067787,12.058756,12.049526,12.040723,12.032213,12.024071,12.016964,12.01086,12.005617,12.000751,11.995811,11.990747,11.985155,11.978346,11.970465,11.962189,11.953388,11.94479,11.9365425,11.928778,11.921852,11.915983,11.91136,11.907307,11.903588,11.899798,11.89558,11.891278,11.887291,11.882505,11.87624,11.869071,11.861435,11.855209,11.851524,11.849001,11.845665,11.840525,11.833778,11.826458,11.820617,11.816875,11.813843,11.81007,11.803652,11.792637,11.778584,11.763546,11.748972,11.735718,11.724459,11.71545,11.707244,11.700144,11.694223,11.689183,11.68442,11.679473,11.674381,11.668189,11.661607,11.655002,11.648555,11.642374,11.636596,11.631441,11.626852,11.6228895,11.61997,11.618391,11.617146,11.61459,11.610493,11.604942,11.598278,11.591205,11.584429,11.578496,11.573572,11.569422,11.565792,11.562254,11.55854,11.5546465,11.550632,11.546524,11.542318,11.538004,11.53311,11.527464,11.5211735,11.514556,11.507973,11.501844,11.496912,11.493306,11.491564,11.491919,11.493666,11.49572,11.497243,11.497752,11.497369,11.496341,11.494758,11.492884,11.491008,11.4893265,11.487946,11.486913,11.486067,11.48514,11.484125,11.483263,11.482937,11.483492,11.485004,11.487297,11.489983,11.492683,11.495127,11.49737,11.499733,11.502348,11.50558,11.509289,11.513142,11.516864,11.520161,11.522808,11.524958,11.527338,11.530363,11.534643,11.539952,11.545928,11.552605,11.560125,11.56878,11.579361,11.591209,11.602553,11.612177,11.619835,11.6257105,11.630664,11.635578,11.640312,11.642893,11.643387,11.64369,11.644867,11.646981,11.650513,11.6554785,11.659954
10.897149,10.909448,10.92274,10.934744,10.9453125,10.9569645,10.971181,10.990433,11.014447,11.043177,11.076214,11.112082,11.148781,11.183033,11.205572,11.221191,11.235468,11.247561,11.252037,11.246691,11.240102,11.234402,11.227751,11.220874,11.214442,11.207849,11.200671,11.193098,11.184463,11.175451,11.163752,11.149802,11.136627,11.1258335,11.117058,11.10741,11.097867,11.089845,11.082987,11.077295,11.073866,11.0725975,11.074728,11.084877,11.0937805,11.097467,11.097551,11.096861,11.097965,11.099455,11.101841,11.110747,11.134382,11.170477,11.209844,11.247826,11.281204,11.314194,11.349205,11.390427,11.438533,11.49146,11.545685,11.593381,11.64275,11.693415,11.746805,11.802443,11.860121,11.918905,11.972627,12.025394,12.091077,12.163496,12.237858,12.311759,12.381073,12.440887,12.494729,12.543863,12.586765,12.61908,12.641222,12.657473,12.669357,12.677847,12.683457,12.68568,12.684565,12.679108,12.671927,12.667976,12.663471,12.659971,12.656715,12.652168,12.645213,12.636266,12.626423,12.615299,12.592369,12.5683155,12.548495,12.529778,12.5105,12.491947,12.470514,12.44129,12.412861,12.388168,12.366631,12.346521,12.327135,12.308817,12.291665,12.274242,12.258089,12.244873,12.235375,12.229319,12.225983,12.224897,12.224491,12.2238,12.22246,12.220102,12.214676,12.205111,12.195453,12.185393,12.175128,12.163561,12.150387,12.136015,12.1214905,12.10856,12.096573,12.085543,12.074892,12.064329,12.053431,12.042219,12.031737,12.022189,12.013616,12.004772,11.99582,11.987022,11.978308,11.969661,11.960748,11.951504,11.941998,11.933169,11.924946,11.917286,11.910831,11.905535,11.901289,11.897874,11.894754,11.891252,11.886702,11.880671,11.873256,11.865241,11.856449,11.847636,11.8391285,11.831169,11.824133,11.818257,11.81365,11.809555,11.805817,11.802212,11.798546,11.79479,11.790786,11.786025,11.77956,11.771816,11.763166,11.755318,11.749643,11.74552,11.741411,11.736229,11.729774,11.722803,11.717214,11.71367,11.710739,11.706706,11.699923,11.688557,11.67374,11.657545,11.641655,11.627195,11.615065,11.605056,11.595919,11.58799,11.581306,11.575554,11.570128,11.564495,11.558488,11.55167,11.54463,11.537767,11.531214,11.525036,11.519366,11.514317,11.50974,11.506546,11.504813,11.504095,11.503154,11.50071,11.496777,11.491314,11.484604,11.477356,11.470327,11.464136,11.458993,11.454653,11.450806,11.446942,11.442781,11.438372,11.4338875,11.429453,11.425101,11.420865,11.416214,11.410881,11.404881,11.398412,11.39177,11.385416,11.380173,11.37619,11.374008,11.373836,11.374956,11.376318,11.377155,11.377108,11.376329,11.375103,11.3735285,11.3718405,11.370293,11.369021,11.368032,11.367335,11.366679,11.365734,11.364523,11.363415,11.362942,11.36354,11.365234,11.367796,11.370756,11.37363,11.376114,11.378307,11.380602,11.3831415,11.386366,11.390245,11.39448,11.398801,11.402812,11.406111,11.408789,11.411601,11.415075,11.41992,11.425976,11.432739,11.439985,11.447666,11.456036,11.465865,11.476829,11.487633,11.497446,11.50607,11.513343,11.519646,11.525468,11.530449,11.532848,11.533014,11.533035,11.534316,11.537512,11.54303,11.550209,11.5570755
10.820017,10.83505,10.851584,10.867195,10.881898,10.899352,10.920397,10.948956,10.984509,11.023394,11.060112,11.091047,11.117006,11.137972,11.146606,11.147213,11.143837,11.136913,11.12663,11.115255,11.101257,11.0875435,11.072674,11.056653,11.038372,11.0180645,10.998718,10.978194,10.955915,10.930881,10.911314,10.902356,10.8991375,10.894726,10.892134,10.895566,10.9047165,10.914095,10.920572,10.92547,10.9311905,10.938356,10.94702,10.962453,10.976956,10.987183,10.993282,10.997297,11.003672,11.010706,11.019939,11.035052,11.063641,11.10376,11.1465,11.187204,11.22247,11.257282,11.294315,11.338747,11.390707,11.447629,11.505844,11.554262,11.602259,11.649166,11.696993,11.745586,11.795601,11.846777,11.891518,11.933256,11.98163,12.034027,12.089943,12.1443615,12.191509,12.234947,12.277124,12.312131,12.3383465,12.370134,12.405505,12.433355,12.457626,12.475054,12.490032,12.503485,12.512179,12.512801,12.509417,12.509708,12.510961,12.513039,12.514124,12.514286,12.513065,12.510199,12.506481,12.502071,12.48863,12.471951,12.449185,12.427383,12.412209,12.399639,12.384104,12.361216,12.339043,12.314844,12.288035,12.26165,12.238372,12.217985,12.200407,12.183142,12.167933,12.156267,12.148505,12.144002,12.141832,12.141397,12.141097,12.139961,12.137678,12.133782,12.126286,12.114411,12.102289,12.089701,12.07703,12.063629,12.049467,12.034951,12.020932,12.008917,11.997686,11.987051,11.976606,11.965973,11.9546795,11.942892,11.931814,11.921771,11.912783,11.903734,11.894725,11.885855,11.87694,11.867966,11.858656,11.849069,11.839401,11.830598,11.822528,11.815109,11.808995,11.804166,11.8005905,11.79804,11.795861,11.792992,11.788728,11.782892,11.77554,11.767469,11.758411,11.749122,11.740083,11.731667,11.724289,11.718208,11.713426,11.709059,11.705046,11.701226,11.697487,11.693598,11.689104,11.683989,11.677124,11.668821,11.659373,11.650251,11.642941,11.637372,11.632288,11.626501,11.619806,11.612779,11.607048,11.603296,11.600204,11.595879,11.588995,11.577967,11.563343,11.546991,11.530632,11.515398,11.502228,11.491097,11.480946,11.47224,11.465029,11.458882,11.453058,11.446974,11.440639,11.433625,11.4265375,11.419792,11.413425,11.407391,11.401791,11.396707,11.392109,11.388939,11.387186,11.386277,11.385204,11.382992,11.379419,11.3743,11.367836,11.360657,11.353531,11.347112,11.3416605,11.336973,11.332718,11.328326,11.3235655,11.318558,11.313585,11.30887,11.304495,11.300482,11.296234,11.2914095,11.285898,11.279738,11.273134,11.266586,11.260981,11.256474,11.253627,11.252638,11.25284,11.253258,11.253225,11.252529,11.251344,11.249994,11.248608,11.247372,11.246426,11.245774,11.245315,11.245014,11.244528,11.24346,11.241894,11.240345,11.239515,11.239946,11.241629,11.24426,11.247309,11.25021,11.252624,11.254688,11.256851,11.259283,11.262459,11.266474,11.271101,11.27609,11.280949,11.285114,11.288574,11.292038,11.2961235,11.3016205,11.308421,11.31596,11.323814,11.331736,11.3399315,11.34906,11.359005,11.368822,11.377994,11.386429,11.393849,11.400434,11.406626,11.411888,11.414702,11.415377,11.415791,11.41743,11.42124,11.427559,11.435389,11.443054
10.756309,10.774621,10.794638,10.814486,10.834496,10.859041,10.889288,10.92104,10.954412,10.986798,11.01079,11.022324,11.027497,11.028494,11.024683,11.018511,11.008368,10.992691,10.972609,10.949402,10.922826,10.893953,10.8624,10.833918,10.812306,10.794544,10.77771,10.770568,10.760857,10.748805,10.744207,10.754459,10.773375,10.789607,10.806175,10.83034,10.860306,10.886793,10.905417,10.918753,10.931219,10.945415,10.959585,10.97677,10.995953,11.016243,11.036228,11.0552,11.074562,11.094225,11.118304,11.144756,11.180311,11.223734,11.267826,11.311602,11.352301,11.395866,11.4438,11.50063,11.564724,11.63193,11.698027,11.750311,11.797152,11.836885,11.875778,11.915141,11.954512,11.992895,12.022127,12.047272,12.066797,12.085857,12.109923,12.134075,12.151213,12.165686,12.180027,12.184156,12.177464,12.182577,12.201153,12.214962,12.2233,12.244616,12.265033,12.276843,12.290232,12.304382,12.312695,12.319967,12.331238,12.3410425,12.349604,12.356251,12.360226,12.361921,12.362541,12.362272,12.362837,12.359978,12.346988,12.33158,12.319361,12.306053,12.290518,12.275724,12.260963,12.241797,12.217859,12.193863,12.17279,12.152416,12.132509,12.113539,12.097279,12.084812,12.076359,12.071377,12.068819,12.067628,12.06625,12.06378,12.059949,12.054236,12.044733,12.030827,12.016581,12.001778,11.987051,11.972162,11.957378,11.943106,11.929951,11.919117,11.90921,11.899736,11.889992,11.879503,11.867968,11.855796,11.844315,11.833854,11.824314,11.8148575,11.805647,11.796566,11.787261,11.777838,11.768124,11.758271,11.748624,11.739912,11.731908,11.724539,11.718427,11.7136,11.710064,11.70743,11.704937,11.701674,11.697049,11.690836,11.683077,11.674597,11.665034,11.655149,11.645542,11.636642,11.628853,11.622433,11.617274,11.612314,11.6075325,11.602825,11.59816,11.593477,11.588459,11.582956,11.57583,11.56733,11.557669,11.548206,11.5403595,11.534114,11.52838,11.522011,11.514881,11.507524,11.501345,11.49701,11.493425,11.488795,11.481894,11.471281,11.457348,11.441636,11.425558,11.410011,11.395894,11.38373,11.372589,11.363123,11.355413,11.348944,11.342859,11.33663,11.330589,11.324039,11.317604,11.311609,11.305894,11.300248,11.29478,11.2897,11.285149,11.281547,11.279173,11.277853,11.276749,11.274838,11.271799,11.267256,11.261263,11.25433,11.2472,11.240579,11.234797,11.229742,11.225067,11.22016,11.214851,11.2093315,11.2039585,11.199048,11.194744,11.191028,11.187246,11.182998,11.178049,11.172262,11.16574,11.159019,11.153027,11.147929,11.144315,11.142401,11.141602,11.14105,11.140178,11.138891,11.137383,11.1360035,11.13492,11.134257,11.1340065,11.13401,11.134069,11.134122,11.1337385,11.132475,11.130487,11.128418,11.127114,11.127247,11.128769,11.131306,11.134289,11.137077,11.139315,11.141176,11.143156,11.145449,11.148539,11.152606,11.157518,11.163039,11.168604,11.173536,11.177706,11.181763,11.186371,11.192376,11.199739,11.207868,11.21619,11.224284,11.232294,11.240745,11.249609,11.258193,11.26622,11.273725,11.280452,11.286528,11.2923975,11.297554,11.3006935,11.302084,11.30328,11.30549,11.309606,11.316039,11.324066,11.332199
10.7148075,10.738058,10.762888,10.786637,10.807637,10.833084,10.864248,10.885029,10.896265,10.902793,10.904163,10.8993845,10.894723,10.88702,10.871157,10.850463,10.824757,10.793226,10.759033,10.727171,10.696851,10.668647,10.637352,10.614379,10.610363,10.619179,10.630938,10.664551,10.695353,10.728388,10.75824,10.78653,10.8176365,10.848922,10.878141,10.904862,10.926879,10.940403,10.9453945,10.945869,10.946953,10.951948,10.959895,10.972021,10.985456,11.000835,11.020826,11.045636,11.072079,11.097593,11.126902,11.159248,11.20217,11.254126,11.307538,11.361189,11.410216,11.459102,11.511532,11.573368,11.643627,11.715854,11.783218,11.837532,11.888075,11.929302,11.970886,12.014473,12.056591,12.094332,12.119319,12.13208,12.147888,12.166417,12.18631,12.206955,12.222586,12.223095,12.215816,12.200043,12.1769085,12.15012,12.125435,12.098661,12.064325,12.065696,12.069618,12.0564995,12.053669,12.063318,12.070654,12.080591,12.090155,12.111452,12.133917,12.155225,12.173025,12.186451,12.197517,12.206633,12.212297,12.2165165,12.221111,12.225615,12.226392,12.219585,12.205408,12.191246,12.17549,12.161896,12.150011,12.138088,12.124517,12.1073475,12.086413,12.066675,12.0499735,12.037315,12.028053,12.020721,12.014576,12.010216,12.005733,12.000526,11.994602,11.987356,11.97672,11.961956,11.946815,11.930939,11.915138,11.899536,11.8846855,11.871012,11.858897,11.8492365,11.840504,11.8318405,11.822375,11.811605,11.799383,11.786342,11.773938,11.76252,11.751902,11.741214,11.730782,11.720671,11.710643,11.700813,11.690896,11.681017,11.671526,11.663107,11.655491,11.648478,11.64254,11.637737,11.634051,11.631123,11.628206,11.624403,11.619162,11.612284,11.603788,11.594625,11.584326,11.573717,11.563503,11.55411,11.545841,11.538896,11.53307,11.527129,11.521197,11.515283,11.509537,11.50406,11.498575,11.492922,11.486029,11.478101,11.4692545,11.460588,11.453274,11.447271,11.441643,11.435337,11.428362,11.421211,11.41508,11.410531,11.406559,11.401442,11.394089,11.383196,11.369091,11.353189,11.336824,11.320887,11.306322,11.293695,11.282082,11.2721405,11.263931,11.256987,11.250638,11.244532,11.238959,11.233358,11.22818,11.223456,11.21878,11.213853,11.208825,11.203974,11.199457,11.195775,11.193227,11.191782,11.190791,11.189316,11.186922,11.183069,11.177639,11.171005,11.163895,11.157093,11.151068,11.1458,11.140923,11.135763,11.130192,11.124421,11.118844,11.113859,11.109679,11.106263,11.102913,11.099188,11.094755,11.089299,11.082843,11.075958,11.069586,11.0639,11.05954,11.056776,11.05511,11.053766,11.052254,11.050545,11.048847,11.047518,11.046751,11.0465975,11.046911,11.047424,11.047863,11.048153,11.047794,11.046346,11.043998,11.041458,11.039698,11.039499,11.040781,11.043111,11.045912,11.048465,11.050412,11.051989,11.053715,11.0557995,11.058715,11.062687,11.067646,11.073381,11.079277,11.084587,11.089111,11.093435,11.0982485,11.104437,11.112028,11.120409,11.128885,11.136924,11.1446,11.152317,11.16011,11.167512,11.174435,11.1809845,11.186909,11.192333,11.197662,11.202436,11.205587,11.207341,11.209017,11.211712,11.2163315,11.223246,11.23191,11.240938
10.695429,10.723302,10.752535,10.776903,10.787685,10.79808,10.805666,10.805542,10.797153,10.784557,10.77064,10.754673,10.736034,10.7136135,10.681261,10.644201,10.602148,10.55386,10.50931,10.486555,10.485235,10.507178,10.533409,10.560383,10.588196,10.619366,10.660055,10.698856,10.734802,10.7718315,10.808111,10.842795,10.875432,10.904112,10.929586,10.953354,10.9722185,10.978531,10.975946,10.973646,10.975596,10.981119,10.986769,10.995873,11.000589,11.003353,11.009252,11.018002,11.027725,11.036326,11.04739,11.06217,11.089307,11.129135,11.175648,11.226717,11.275833,11.319377,11.366314,11.422635,11.486536,11.550707,11.609798,11.664915,11.728862,11.784765,11.835589,11.881778,11.9242,11.968321,12.012899,12.034212,12.0811825,12.137785,12.185164,12.217054,12.231834,12.228043,12.2257805,12.219564,12.209213,12.198093,12.176533,12.139941,12.10299,12.05598,12.011144,11.96666,11.920727,11.874273,11.84337,11.837798,11.813837,11.843325,11.880269,11.915422,11.948358,11.977766,12.003256,12.026262,12.046679,12.064007,12.078791,12.089148,12.095689,12.1007,12.102637,12.103161,12.100804,12.097451,12.091393,12.079378,12.062693,12.04711,12.032851,12.019579,12.009224,12.003182,11.998399,11.990002,11.977949,11.969078,11.960477,11.95195,11.943428,11.934505,11.923212,11.908381,11.893278,11.877258,11.861212,11.845521,11.831018,11.818167,11.807135,11.798597,11.790922,11.782885,11.773532,11.762357,11.749346,11.73531,11.721781,11.709126,11.696968,11.684477,11.672217,11.660505,11.649309,11.638848,11.628726,11.618986,11.609955,11.602177,11.595295,11.588953,11.58343,11.578848,11.575144,11.571964,11.568577,11.564133,11.558146,11.55045,11.54104,11.531025,11.519895,11.508566,11.497828,11.488045,11.479362,11.471862,11.465225,11.458145,11.450843,11.443556,11.436657,11.430393,11.424553,11.418945,11.412632,11.405813,11.39851,11.391512,11.385633,11.380695,11.37587,11.370256,11.363989,11.35752,11.351828,11.347271,11.342835,11.336959,11.328667,11.316815,11.301844,11.28517,11.268156,11.251723,11.236757,11.223808,11.211895,11.201611,11.192981,11.185639,11.179132,11.173265,11.168276,11.163667,11.159754,11.156313,11.152794,11.148873,11.144707,11.140585,11.136654,11.133348,11.130934,11.12953,11.128736,11.127731,11.125992,11.122826,11.117937,11.111591,11.104483,11.097532,11.091384,11.086091,11.081242,11.076107,11.070547,11.064753,11.059117,11.054123,11.050075,11.046923,11.04393,11.040665,11.036682,11.031523,11.025127,11.018082,11.01135,11.005102,11.000042,10.996516,10.994114,10.992125,10.990118,10.988106,10.986284,10.985025,10.984531,10.984776,10.985514,10.986406,10.987136,10.9876,10.987271,10.985723,10.983148,10.980276,10.978155,10.977663,10.978697,10.98077,10.98329,10.985514,10.987085,10.988282,10.989685,10.991497,10.994143,10.997879,11.002706,11.008385,11.01427,11.019617,11.024193,11.028507,11.03326,11.03941,11.0470295,11.055466,11.063937,11.071854,11.079198,11.086266,11.093147,11.099569,11.105595,11.1113405,11.116546,11.121357,11.126122,11.130453,11.133479,11.135439,11.137543,11.140875,11.146341,11.154266,11.164167,11.174631
10.686939,10.698592,10.70529,10.711576,10.712076,10.709373,10.700924,10.686785,10.664497,10.635712,10.603902,10.569508,10.530294,10.481129,10.412626,10.367646,10.369688,10.400051,10.42643,10.441222,10.468182,10.496283,10.53652,10.592583,10.6589155,10.730036,10.801989,10.860105,10.877651,10.899705,10.905657,10.893665,10.884113,10.881371,10.886972,10.9005165,10.912109,10.912142,10.903961,10.8978815,10.898481,10.902058,10.893248,10.879429,10.861702,10.839965,10.807852,10.761345,10.7099,10.660521,10.616888,10.602071,10.62565,10.676508,10.741038,10.815319,10.888506,10.957399,11.001635,11.060953,11.148111,11.24633,11.346521,11.429413,11.533958,11.62944,11.71548,11.781686,11.831545,11.884483,11.931416,11.950674,11.968042,11.9987135,12.037258,12.068866,12.088036,12.10125,12.122158,12.120282,12.122682,12.148775,12.166317,12.154655,12.148186,12.120096,12.047639,11.967668,11.888338,11.81374,11.757416,11.724758,11.694653,11.659187,11.633051,11.61073,11.634352,11.701818,11.754234,11.802274,11.839552,11.872325,11.901493,11.926205,11.94639,11.962416,11.97311,11.981271,11.985675,11.987793,11.987711,11.985426,11.981771,11.97768,11.973888,11.972067,11.967779,11.957573,11.946225,11.93853,11.932722,11.930096,11.928888,11.927087,11.916826,11.902388,11.888593,11.872554,11.856951,11.840591,11.824297,11.80861,11.794636,11.782819,11.773013,11.765689,11.759153,11.751865,11.7428,11.731465,11.717953,11.703184,11.688737,11.674974,11.661264,11.646812,11.632498,11.618982,11.606501,11.59543,11.585225,11.575832,11.567482,11.560574,11.55464,11.549158,11.544228,11.539978,11.536352,11.53303,11.529265,11.524395,11.517888,11.509345,11.498913,11.488022,11.47605,11.464094,11.453045,11.443191,11.4344635,11.426762,11.419696,11.411871,11.40366,11.395475,11.38789,11.381268,11.375388,11.370079,11.364538,11.358999,11.353426,11.348263,11.343931,11.340121,11.336097,11.331153,11.325552,11.319761,11.314453,11.309692,11.304451,11.297291,11.287511,11.274252,11.25798,11.240172,11.222252,11.205151,11.189693,11.176353,11.164047,11.153255,11.144002,11.136069,11.129272,11.123629,11.119255,11.115724,11.113195,11.111256,11.109262,11.10682,11.103961,11.100973,11.098035,11.095541,11.09368,11.092697,11.092442,11.092239,11.091458,11.089258,11.085179,11.079327,11.072432,11.065636,11.059798,11.054986,11.050724,11.046233,11.041255,11.035845,11.030378,11.025449,11.021533,11.018629,11.015997,11.01326,11.009852,11.005099,10.998823,10.991616,10.9844475,10.977503,10.971619,10.967251,10.964069,10.961413,10.958878,10.956486,10.954431,10.953112,10.95277,10.953337,10.954477,10.955801,10.956991,10.957845,10.957818,10.956449,10.953873,10.950811,10.948406,10.947658,10.948455,10.950221,10.952362,10.9540615,10.954935,10.955361,10.95606,10.957268,10.959326,10.962511,10.966907,10.972225,10.97777,10.982824,10.987143,10.991176,10.995665,11.001684,11.009405,11.018087,11.026763,11.034794,11.042048,11.048689,11.05485,11.060455,11.065701,11.070733,11.075315,11.079691,11.084106,11.088244,11.091366,11.093669,11.096309,11.100473,11.107119,11.116597,11.128416,11.141018
10.620141,10.622841,10.620396,10.613982,10.602512,10.588455,10.566679,10.537106,10.492472,10.431908,10.367318,10.314053,10.2788515,10.283382,10.287518,10.297759,10.3211,10.351271,10.382445,10.423492,10.482359,10.555401,10.664801,10.750027,10.7633705,10.756687,10.81359,10.890258,10.94593,10.850215,10.74633,10.730653,10.739027,10.681984,10.537913,10.34109,10.115488,9.861643,9.591936,9.324486,9.071327,8.848351,8.665544,8.507655,8.350603,8.2061615,8.078276,7.9509387,7.832328,7.7551312,7.6990175,7.6747856,7.680867,7.710066,7.7553897,7.81066,7.8766418,7.957344,8.072777,8.247446,8.447363,8.656442,8.908159,9.164169,9.439684,9.7723,10.092497,10.355907,10.557059,10.718782,10.909442,11.213703,11.582081,11.77931,11.830659,11.896865,12.018567,12.113721,12.116505,12.108917,12.09399,12.074663,12.063137,12.068275,12.078318,12.060429,12.025704,11.974428,11.925216,11.86491,11.77656,11.683007,11.617565,11.567015,11.5314865,11.511682,11.500347,11.490467,11.480385,11.471171,11.538223,11.605486,11.6655445,11.718699,11.762284,11.794388,11.816642,11.835257,11.84903,11.859962,11.867945,11.873045,11.876452,11.878917,11.881287,11.88349,11.884492,11.883572,11.883205,11.885517,11.887467,11.882338,11.874823,11.868547,11.860905,11.853767,11.847694,11.839298,11.83072,11.820842,11.810216,11.799481,11.788509,11.77783,11.768955,11.762674,11.75721,11.750681,11.741898,11.730393,11.716358,11.700793,11.685311,11.6702175,11.6545515,11.637398,11.620098,11.603901,11.5895195,11.5776205,11.567515,11.558939,11.55196,11.546732,11.542583,11.538751,11.535109,11.5317955,11.528841,11.52603,11.5227585,11.517028,11.509128,11.500551,11.489881,11.477604,11.464338,11.4515705,11.440364,11.430835,11.422514,11.414979,11.407761,11.399517,11.390774,11.382156,11.3744335,11.367985,11.362457,11.357782,11.353369,11.349531,11.346168,11.343344,11.341031,11.33872,11.335765,11.33185,11.326966,11.321119,11.315149,11.309418,11.303177,11.295552,11.2846985,11.26874,11.249479,11.229149,11.209369,11.191102,11.174988,11.161232,11.148462,11.13707,11.127114,11.118605,11.111701,11.106743,11.104092,11.103267,11.104128,11.105217,11.104937,11.103557,11.102478,11.101347,11.099924,11.098165,11.095884,11.093511,11.091499,11.089667,11.087492,11.08422,11.0794115,11.073434,11.066406,11.058819,11.051571,11.0451,11.038831,11.031996,11.02475,11.017582,11.011068,11.005695,11.001621,10.998499,10.995492,10.992272,10.98852,10.983976,10.978678,10.972998,10.967518,10.962189,10.957412,10.953442,10.950069,10.946954,10.943964,10.941212,10.938851,10.937147,10.936232,10.936047,10.93635,10.93689,10.937537,10.938165,10.938505,10.9382515,10.937391,10.936258,10.935434,10.93545,10.936232,10.937447,10.938898,10.940266,10.941521,10.943023,10.945164,10.94789,10.9513855,10.95567,10.960659,10.966143,10.971764,10.977142,10.982037,10.986784,10.991817,10.997776,11.004744,11.012238,11.019695,11.026805,11.033572,11.040252,11.046984,11.053695,11.060413,11.066992,11.07304,11.078837,11.084757,11.090657,11.095936,11.100588,11.105139,11.11004,11.115835,11.12261,11.130016,11.137146
10.512861,10.504632,10.492559,10.473827,10.447055,10.409855,10.358444,10.296311,10.248669,10.223821,10.210077,10.198578,10.196046,10.220972,10.258708,10.305439,10.35437,10.414646,10.487499,10.54001,10.5625305,10.639076,10.703348,10.685616,10.730507,10.817046,10.587326,10.117987,9.653479,9.147045,8.664444,8.263365,7.9451714,7.668092,7.3526564,7.0378942,6.726162,6.4341,6.163414,5.9140606,5.6921396,5.4988174,5.3412776,5.2162457,5.103485,5.00434,4.922106,4.8485875,4.784028,4.7472515,4.723483,4.7125025,4.7122936,4.7216535,4.7385263,4.7594957,4.787732,4.827835,4.899614,5.0068483,5.1251535,5.2495933,5.402536,5.564744,5.7475567,5.981474,6.219209,6.436963,6.6397266,6.8468976,7.1051645,7.4887314,7.9915533,8.428499,8.792784,9.217579,9.746425,10.269403,10.789108,11.178647,11.500404,11.794756,11.978807,12.007978,12.0092125,12.080501,12.096992,12.048048,11.994423,11.953499,11.883486,11.773954,11.69371,11.632681,11.54821,11.492155,11.452837,11.408717,11.380523,11.356213,11.382851,11.40816,11.433548,11.455549,11.483549,11.530816,11.581694,11.625063,11.6620035,11.693365,11.715854,11.730396,11.741831,11.751566,11.760105,11.7678795,11.775637,11.78389,11.791584,11.797836,11.802317,11.801928,11.800114,11.799892,11.800947,11.799198,11.793748,11.788109,11.782853,11.776476,11.769338,11.761838,11.754361,11.74757,11.742344,11.739023,11.735913,11.731438,11.724809,11.715821,11.704428,11.691118,11.677183,11.662867,11.647312,11.629683,11.611393,11.593838,11.577873,11.564261,11.552452,11.54195,11.532621,11.524704,11.517875,11.511632,11.505813,11.500415,11.495057,11.489338,11.483088,11.475352,11.4667225,11.458307,11.448818,11.438419,11.427078,11.415808,11.405558,11.396751,11.389256,11.382715,11.376722,11.370018,11.362944,11.356062,11.349993,11.344874,11.340218,11.335943,11.331678,11.32768,11.323891,11.320418,11.317106,11.313408,11.309074,11.303892,11.298009,11.291552,11.28526,11.279379,11.273239,11.266214,11.2570095,11.243937,11.227968,11.210339,11.192074,11.174154,11.157654,11.143269,11.129841,11.117796,11.107391,11.09887,11.092656,11.088444,11.083439,11.0777855,11.073002,11.068221,11.062621,11.056781,11.051622,11.046898,11.042013,11.036846,11.031146,11.025185,11.019356,11.013626,11.007765,11.001153,10.993351,10.984838,10.975868,10.966803,10.958165,10.950176,10.942259,10.933624,10.9246855,10.916204,10.908869,10.903083,10.898806,10.895444,10.892083,10.888409,10.884234,10.87959,10.874664,10.869732,10.865196,10.860863,10.856909,10.8534565,10.850318,10.84729,10.844373,10.841692,10.83943,10.837772,10.836794,10.836426,10.836468,10.836749,10.837204,10.837778,10.838388,10.838812,10.839019,10.839156,10.839487,10.84025,10.84136,10.842632,10.844057,10.845575,10.847327,10.849634,10.852714,10.856352,10.860688,10.8656025,10.870929,10.876511,10.882191,10.887759,10.892965,10.898108,10.903433,10.909349,10.915905,10.922758,10.929565,10.936198,10.942701,10.949419,10.956472,10.963779,10.971257,10.978608,10.985371,10.991805,10.998304,11.004789,11.01071,11.015952,11.020752,11.025232,11.029771,11.034302,11.038577,11.042097
10.375264,10.348729,10.313459,10.263963,10.21143,10.187374,10.163091,10.130443,10.11255,10.125463,10.155188,10.181899,10.213816,10.255581,10.316151,10.365782,10.393467,10.421789,10.44099,10.395791,10.417093,10.147623,9.603991,8.989359,8.589506,8.34165,7.8424582,7.1499214,6.5140886,5.98987,5.511285,5.06418,4.7046366,4.4437385,4.217911,4.044047,3.8999305,3.7964497,3.72534,3.6754827,3.6450207,3.6212473,3.5982628,3.5872602,3.5873513,3.5903282,3.5936537,3.5999749,3.6067333,3.6104665,3.6130157,3.6139174,3.6163404,3.6205542,3.6244862,3.6282234,3.6307216,3.63324,3.631897,3.6254785,3.6203778,3.6186132,3.6141157,3.6095634,3.6185236,3.6329277,3.6582534,3.7008748,3.771449,3.878795,4.013945,4.1816854,4.420161,4.728269,5.089671,5.512087,5.996914,6.5002613,7.0996904,7.605879,8.104147,8.658344,9.141394,9.475219,9.829018,10.281248,10.730584,11.075958,11.366264,11.59276,11.694651,11.705147,11.74165,11.689929,11.60507,11.52836,11.467829,11.414384,11.372334,11.357422,11.336979,11.315062,11.302778,11.293452,11.295249,11.324543,11.365042,11.394537,11.422418,11.451027,11.489621,11.53223,11.566101,11.592771,11.613167,11.632725,11.650773,11.666425,11.678661,11.687099,11.69309,11.6997595,11.706108,11.71316,11.719104,11.719585,11.7147045,11.709261,11.704205,11.698626,11.6925745,11.686266,11.6809635,11.677244,11.674707,11.673315,11.671635,11.668633,11.663929,11.657586,11.649321,11.639083,11.627814,11.615689,11.6022415,11.586838,11.570804,11.555237,11.54065,11.527597,11.515649,11.504093,11.492655,11.481771,11.471504,11.461689,11.452385,11.443792,11.435057,11.425583,11.415497,11.405311,11.395391,11.385616,11.375763,11.366329,11.356129,11.345926,11.336361,11.327789,11.320316,11.3138275,11.308081,11.30185,11.295198,11.288351,11.2817135,11.2755575,11.269751,11.264307,11.258635,11.252741,11.246547,11.240267,11.233971,11.227376,11.220396,11.212433,11.203768,11.19498,11.186806,11.17943,11.17236,11.165078,11.157119,11.147514,11.13583,11.121942,11.10619,11.089523,11.073428,11.059122,11.045703,11.033434,11.022252,11.012003,11.002832,10.994383,10.983873,10.971413,10.958979,10.946889,10.935389,10.924741,10.914825,10.905748,10.896783,10.887607,10.878366,10.869276,10.86039,10.851572,10.842766,10.833388,10.822924,10.811785,10.800604,10.789972,10.78017,10.771128,10.7623005,10.752712,10.7429695,10.733885,10.726097,10.719957,10.715388,10.711741,10.7081175,10.704169,10.699715,10.6948395,10.689793,10.684847,10.680429,10.676313,10.672672,10.669592,10.666869,10.664324,10.661957,10.659843,10.658208,10.657198,10.656885,10.657108,10.6576,10.658203,10.658889,10.659584,10.66027,10.660738,10.661045,10.661394,10.662024,10.663122,10.664551,10.666117,10.667805,10.66953,10.671408,10.673737,10.676706,10.680124,10.684147,10.688675,10.6936035,10.698782,10.704041,10.70917,10.713932,10.718637,10.723513,10.728994,10.735135,10.741585,10.748003,10.754297,10.760494,10.766938,10.77367,10.780645,10.787777,10.794732,10.801076,10.807009,10.812803,10.8183975,10.823271,10.827337,10.830891,10.834131,10.837488,10.840897,10.844193,10.847036
10.197049,10.145391,10.095789,10.047483,10.01232,10.032631,10.068417,10.098589,10.121958,10.149331,10.176924,10.193703,10.21133,10.233078,10.263403,10.222582,10.075124,9.790016,9.360955,8.895801,8.680252,7.957161,6.9150505,5.9248896,5.1019316,4.442337,4.067607,3.865776,3.7477531,3.6789098,3.6411548,3.639772,3.661173,3.6721663,3.684793,3.702869,3.724855,3.7435107,3.7576754,3.769054,3.7776172,3.7847762,3.7910576,3.7953186,3.798086,3.8002489,3.802033,3.803289,3.8042192,3.8048387,3.8053381,3.805233,3.807118,3.811078,3.81525,3.8197832,3.8241322,3.829257,3.8346798,3.8401222,3.8451433,3.8497992,3.8545775,3.8589065,3.8616824,3.8631017,3.8636074,3.8628488,3.8592405,3.8511343,3.8383317,3.8199267,3.7915373,3.753988,3.7293081,3.7160537,3.6952598,3.6799438,3.696334,3.8034158,4.012731,4.3466253,4.7866497,5.3161554,5.946779,6.5884037,7.3747697,8.14169,8.89821,9.592716,10.161121,10.639301,11.012648,11.20504,11.358006,11.417736,11.420952,11.403158,11.348629,11.349543,11.339453,11.327736,11.312922,11.296346,11.279182,11.263737,11.255277,11.240309,11.230841,11.233122,11.266233,11.311424,11.344558,11.384565,11.427561,11.468149,11.503066,11.531496,11.554493,11.572118,11.58396,11.593264,11.5996,11.606071,11.611345,11.615105,11.616238,11.613302,11.609518,11.605404,11.6007805,11.5958805,11.591508,11.587943,11.584997,11.582894,11.58042,11.576742,11.571455,11.56477,11.556297,11.545882,11.534698,11.52277,11.509863,11.49551,11.481163,11.467718,11.455288,11.444134,11.433706,11.4230175,11.41173,11.400265,11.388755,11.377165,11.365803,11.3552265,11.344477,11.332975,11.320858,11.308377,11.295828,11.283323,11.270815,11.258879,11.246653,11.235337,11.225374,11.216503,11.208408,11.200967,11.194014,11.186346,11.177957,11.168827,11.159361,11.150259,11.141931,11.134616,11.127244,11.119562,11.111327,11.102615,11.093702,11.084668,11.075287,11.064541,11.052463,11.039819,11.027675,11.016609,11.006466,10.99688,10.987189,10.9763365,10.963957,10.9498005,10.934054,10.917561,10.90166,10.887434,10.873794,10.860689,10.847451,10.833282,10.817846,10.801732,10.786333,10.770775,10.755428,10.74085,10.727213,10.714521,10.702853,10.6922,10.681562,10.671984,10.662542,10.652964,10.643494,10.634041,10.624523,10.614336,10.602999,10.591112,10.579365,10.568403,10.55855,10.549666,10.54122,10.53287,10.524292,10.515912,10.508436,10.502378,10.497787,10.494098,10.490463,10.486534,10.482071,10.477076,10.471773,10.466499,10.461718,10.45719,10.453236,10.44997,10.4471245,10.444459,10.441946,10.439602,10.437609,10.43618,10.435434,10.435472,10.436236,10.437424,10.438654,10.439875,10.441151,10.442279,10.443275,10.444239,10.4453125,10.446673,10.448252,10.449894,10.451627,10.453339,10.455078,10.457121,10.459708,10.4627285,10.466343,10.470506,10.475117,10.480018,10.485039,10.490026,10.494804,10.499643,10.504759,10.510546,10.517059,10.523954,10.530861,10.537645,10.544243,10.550763,10.557503,10.564276,10.570923,10.577297,10.583126,10.588659,10.594114,10.599373,10.603834,10.607361,10.610318,10.6131115,10.6163225,10.619968,10.6237,10.626962
9.992989,9.930531,9.910327,9.945923,10.006116,10.027563,10.044003,10.057156,10.099732,10.171373,10.216358,10.179951,10.0684185,9.847805,9.570793,9.206365,8.707255,7.9233656,6.848092,5.8241897,4.984294,4.372697,4.0152054,3.8432589,3.7635827,3.7274551,3.7267706,3.7383134,3.7455368,3.7504435,3.7540207,3.7560396,3.7567806,3.7574973,3.7582061,3.7585044,3.7585568,3.7585564,3.7585897,3.758644,3.7586963,3.7587504,3.7588053,3.7588897,3.7589898,3.7590973,3.7592075,3.7593179,3.7594314,3.7595448,3.7596626,3.7593772,3.7612562,3.765359,3.7697904,3.7746134,3.7792985,3.784879,3.7909117,3.797224,3.8035984,3.810125,3.81706,3.823751,3.83083,3.8382485,3.8459957,3.8539004,3.8617404,3.869372,3.8766398,3.8846092,3.8931413,3.902269,3.9109776,3.9189415,3.9266834,3.933735,3.9391067,3.9420056,3.941761,3.9360163,3.92912,3.9361558,3.9707046,4.0200906,4.1818886,4.4994297,5.0369644,5.8559713,6.9355726,8.062277,8.824366,9.533578,10.135069,10.547334,10.864243,11.113705,11.2255335,11.338896,11.3949795,11.410936,11.378622,11.327281,11.28175,11.244846,11.2246895,11.205239,11.189238,11.181906,11.176825,11.154551,11.130428,11.157589,11.219784,11.275282,11.328442,11.375816,11.414756,11.44455,11.464966,11.480961,11.494087,11.506168,11.515543,11.520899,11.521715,11.518688,11.514969,11.510891,11.506603,11.502203,11.498333,11.495094,11.492059,11.489319,11.485594,11.480104,11.472536,11.463321,11.451855,11.437933,11.423384,11.408052,11.391624,11.373865,11.356443,11.340361,11.325699,11.312609,11.300388,11.28769,11.274084,11.259922,11.24557,11.231351,11.217637,11.204689,11.191456,11.177294,11.162497,11.147459,11.132531,11.11787,11.103495,11.089866,11.076532,11.064519,11.054264,11.045475,11.037624,11.030404,11.023583,11.015997,11.007656,10.99865,10.989369,10.980345,10.971855,10.964172,10.956171,10.947503,10.937843,10.927162,10.915701,10.9037,10.89122,10.877237,10.861795,10.845753,10.830336,10.816383,10.804121,10.793514,10.783197,10.772004,10.759578,10.745655,10.730285,10.714127,10.698448,10.6842,10.67028,10.65663,10.642758,10.628075,10.612381,10.596178,10.580247,10.563642,10.5470085,10.530949,10.515804,10.501738,10.488784,10.476909,10.464799,10.457413,10.45071,10.442905,10.434636,10.42589,10.416597,10.406221,10.394535,10.382589,10.371479,10.362143,10.354782,10.348715,10.343319,10.340031,10.335905,10.330343,10.324369,10.319107,10.315029,10.31185,10.308737,10.3053875,10.301384,10.296349,10.290332,10.283852,10.277551,10.271238,10.265741,10.261372,10.257603,10.253862,10.249976,10.245868,10.241661,10.2378235,10.234716,10.233225,10.2339115,10.236111,10.238467,10.2409935,10.243729,10.246323,10.248596,10.250469,10.252087,10.253817,10.255724,10.25769,10.259733,10.261649,10.263301,10.264973,10.267191,10.269998,10.273587,10.278032,10.283185,10.288827,10.29475,10.300808,10.306904,10.313255,10.320044,10.327727,10.336479,10.345921,10.355475,10.364779,10.3734665,10.38118,10.388951,10.396164,10.402496,10.408329,10.413768,10.419317,10.425234,10.431137,10.436143,10.439899,10.442958,10.446304,10.450992,10.457182,10.463915,10.469593
9.836845,9.868113,9.915044,9.950144,9.979214,9.9864435,10.047055,10.174267,10.225002,10.184047,10.025412,9.671957,9.19475,8.40568,7.3994884,6.323444,5.364461,4.65549,4.208602,3.9466462,3.8162289,3.754232,3.725836,3.7130542,3.7084537,3.7074542,3.708838,3.7108579,3.712061,3.7128398,3.713367,3.713574,3.7135236,3.7134967,3.7135873,3.713603,3.7135868,3.7135668,3.7135673,3.7135892,3.7136111,3.7136354,3.7136602,3.7137136,3.713782,3.713858,3.713936,3.714015,3.7140956,3.7141767,3.7142622,3.7139459,3.7157822,3.7198305,3.7242067,3.7289727,3.733602,3.7391217,3.7450914,3.751337,3.7576437,3.764102,3.7709658,3.7775896,3.7845979,3.7919421,3.7996135,3.8074417,3.8152034,3.8227568,3.8299494,3.8378396,3.846292,3.855212,3.8641953,3.8730311,3.8817332,3.8899875,3.897828,3.9054866,3.9128904,3.9194756,3.9255662,3.9325743,3.9414544,3.9513557,3.9718606,4.007985,4.0585775,4.1632833,4.3734436,4.7140794,5.214408,5.9160657,6.811734,7.9109344,9.009027,9.88987,10.499923,10.823279,11.179085,11.311867,11.345421,11.386456,11.404039,11.359576,11.318289,11.244133,11.180284,11.129023,11.10469,11.099152,11.094842,11.097353,11.103857,11.081217,11.122503,11.198454,11.264323,11.311909,11.343741,11.368935,11.389767,11.408037,11.42149,11.429722,11.433071,11.431879,11.4292555,11.425894,11.421708,11.417045,11.41255,11.408237,11.403681,11.398922,11.392594,11.383808,11.372336,11.358782,11.343071,11.325332,11.307085,11.288148,11.267948,11.246464,11.225532,11.206289,11.188923,11.173574,11.159341,11.144533,11.128643,11.111983,11.0949135,11.077837,11.061258,11.045526,11.029446,11.011642,10.993172,10.974835,10.9567795,10.939068,10.922121,10.906193,10.89081,10.877089,10.86555,10.855867,10.847319,10.839417,10.831866,10.823458,10.81423,10.804303,10.794037,10.783854,10.77397,10.764719,10.754824,10.743854,10.731432,10.7175045,10.702402,10.68656,10.670244,10.652347,10.632756,10.6121855,10.592758,10.576593,10.566677,10.566586,10.566019,10.563787,10.5597105,10.554246,10.547693,10.540566,10.534185,10.529739,10.527122,10.526236,10.52649,10.527144,10.527997,10.529249,10.530176,10.530553,10.531191,10.532086,10.533028,10.533716,10.533792,10.53311,10.532032,10.5311165,10.529338,10.526321,10.522194,10.516837,10.510197,10.5019045,10.491959,10.481383,10.471249,10.462878,10.457037,10.452953,10.449059,10.44462,10.438825,10.431736,10.424383,10.417963,10.412926,10.408886,10.404964,10.400911,10.396364,10.39101,10.384979,10.378817,10.373087,10.367506,10.362885,10.359465,10.3566065,10.353682,10.350504,10.346966,10.34321,10.33976,10.337154,10.335785,10.33585,10.337214,10.339352,10.341766,10.344053,10.345146,10.345171,10.345022,10.345667,10.347591,10.350269,10.353132,10.3561945,10.359163,10.36198,10.3650055,10.3686075,10.372562,10.377058,10.382355,10.388557,10.3954115,10.40228,10.408576,10.414182,10.419642,10.42465,10.430433,10.437645,10.445847,10.454413,10.463247,10.472196,10.481459,10.491011,10.500356,10.508924,10.516382,10.522732,10.528553,10.5339985,10.538715,10.542053,10.543713,10.544241,10.544765,10.546417,10.548988,10.551939,10.553764
9.843231,9.883107,9.917313,9.950607,10.029118,10.10443,10.213214,10.126448,9.869812,9.179541,8.129796,7.141252,6.1316423,5.2727513,4.5908117,4.1163406,3.8204951,3.6637523,3.6071167,3.598637,3.6164231,3.639008,3.6544523,3.6619973,3.665774,3.6677616,3.6680303,3.6676626,3.6673112,3.6670043,3.6667202,3.6664393,3.6661692,3.6659327,3.665841,3.6657615,3.6657045,3.6656544,3.665621,3.6656094,3.6655993,3.6655927,3.6655855,3.665607,3.665641,3.6656828,3.6657286,3.6657767,3.6658278,3.6658797,3.6659348,3.6655893,3.6673799,3.6713672,3.6756816,3.6803904,3.6849651,3.6904197,3.696321,3.7024927,3.7087245,3.7151089,3.721899,3.7284515,3.7353876,3.74266,3.7502475,3.757982,3.7656538,3.7731268,3.7802446,3.7880445,3.7964,3.8051753,3.8141289,3.823101,3.831983,3.8404884,3.848914,3.8577669,3.8670855,3.8766942,3.8862214,3.8949418,3.9020605,3.9082818,3.9103756,3.9068835,3.8930879,3.8759093,3.8714278,3.90151,4.0021143,4.160079,4.4111037,4.803228,5.3459473,6.0303845,6.842262,7.732516,8.770882,10.013197,10.839832,11.196851,11.363308,11.43306,11.375653,11.344568,11.316345,11.260756,11.178812,11.104231,11.065788,11.057247,11.044758,11.0277195,11.033302,11.037979,11.046413,11.0882225,11.157319,11.209215,11.244284,11.273557,11.295591,11.309763,11.317137,11.31867,11.317638,11.314716,11.309895,11.303772,11.297102,11.289948,11.2820015,11.273377,11.262632,11.248799,11.231799,11.212389,11.190756,11.167219,11.143165,11.117815,11.091019,11.0625515,11.034887,11.008316,10.982658,10.95959,10.937952,10.915927,10.892649,10.868388,10.843534,10.818627,10.794421,10.771511,10.7480755,10.73449,10.722798,10.709974,10.700775,10.696213,10.689072,10.6818,10.675133,10.670422,10.668091,10.667484,10.66756,10.667703,10.668383,10.668518,10.668367,10.668358,10.668671,10.669308,10.670271,10.671698,10.673216,10.673967,10.673313,10.670658,10.665692,10.658732,10.650492,10.640617,10.630304,10.621219,10.614192,10.60984,10.608994,10.611515,10.613889,10.615473,10.614683,10.6103115,10.603603,10.596901,10.591177,10.587837,10.585365,10.583865,10.583224,10.582804,10.5820875,10.58127,10.580551,10.5800705,10.580364,10.58111,10.581703,10.581763,10.581196,10.579985,10.577975,10.575745,10.572842,10.5690975,10.564569,10.559221,10.553169,10.546286,10.538129,10.528887,10.519562,10.511555,10.5054455,10.500414,10.495085,10.488598,10.480827,10.472254,10.464001,10.457144,10.451891,10.447611,10.4433365,10.438844,10.433929,10.428511,10.422878,10.417561,10.412939,10.408468,10.404756,10.401838,10.399063,10.396041,10.39288,10.389586,10.3864,10.383789,10.382231,10.3819065,10.382788,10.38475,10.387463,10.390443,10.393303,10.395602,10.397416,10.399037,10.400917,10.403465,10.406187,10.408656,10.410732,10.412808,10.4154,10.418702,10.422665,10.427221,10.4325285,10.438828,10.446318,10.454601,10.462746,10.470182,10.4772,10.483984,10.49038,10.496998,10.50393,10.5107975,10.517486,10.524365,10.531736,10.539826,10.548553,10.557363,10.565535,10.572552,10.578376,10.58363,10.588741,10.593626,10.597975,10.601673,10.604822,10.607579,10.610439,10.613125,10.615169,10.616132
9.8643055,9.901743,9.954122,9.97422,9.927908,9.898741,9.359591,8.290293,7.0871463,5.9789395,5.086095,4.4744763,3.9566355,3.6518002,3.5031757,3.4834929,3.5286608,3.5776782,3.6057048,3.6180081,3.6213965,3.6212506,3.620501,3.6199057,3.6193938,3.6190233,3.618672,3.6183562,3.6180243,3.6177151,3.6174185,3.617127,3.6168485,3.616602,3.616486,3.6163821,3.6162899,3.6161985,3.6161275,3.6160815,3.6160378,3.6159997,3.6159606,3.61595,3.615951,3.6159773,3.6159577,3.6158593,3.615837,3.6158638,3.615945,3.615724,3.61757,3.6214821,3.6257086,3.630383,3.6349287,3.640252,3.646032,3.6521106,3.6582732,3.6646175,3.6713748,3.677856,3.6847453,3.6919894,3.699475,3.7070327,3.7145567,3.7219696,3.7290409,3.7367125,3.7449007,3.753532,3.7623672,3.7712302,3.7800102,3.7884188,3.7967463,3.8054986,3.814692,3.824123,3.8335567,3.842823,3.8517299,3.8603878,3.869484,3.8789325,3.8892226,3.8969083,3.897284,3.887061,3.8605132,3.8148084,3.7690206,3.7437785,3.797988,3.9796522,4.2926188,4.7301817,5.309207,6.185996,7.072108,7.9699883,8.952753,9.891941,10.608388,10.955129,11.116825,11.250544,11.259436,11.187327,11.1532345,11.071842,11.036943,11.010109,10.984042,10.948748,10.922596,10.927008,10.946505,10.940338,10.9984665,11.061518,11.108859,11.13925,11.156048,11.162622,11.164589,11.162499,11.156521,11.1476965,11.136833,11.123394,11.107154,11.089861,11.069988,11.046373,11.019479,10.988099,10.952426,10.915735,10.88235,10.854762,10.825466,10.797844,10.770271,10.750724,10.743379,10.738419,10.735272,10.728645,10.720349,10.711262,10.701828,10.692497,10.683695,10.675451,10.666601,10.663013,10.659987,10.655729,10.651932,10.6485405,10.643034,10.637211,10.632128,10.629211,10.6289215,10.630716,10.633373,10.635576,10.637234,10.638401,10.639475,10.6407795,10.642598,10.645138,10.648361,10.652329,10.656778,10.660797,10.663621,10.665078,10.664862,10.662359,10.657551,10.650624,10.643009,10.636309,10.631533,10.629158,10.628588,10.62794,10.627617,10.627869,10.627401,10.6248665,10.620465,10.615496,10.611073,10.609005,10.608605,10.609856,10.614027,10.619978,10.625708,10.631418,10.637384,10.643795,10.649488,10.651896,10.652096,10.652096,10.650895,10.646521,10.639877,10.629876,10.618355,10.606461,10.59432,10.581982,10.569681,10.556796,10.54303,10.528664,10.51423,10.500854,10.489248,10.478818,10.468495,10.457464,10.445698,10.433752,10.42264,10.413241,10.4057045,10.399465,10.393433,10.387556,10.381847,10.376261,10.371051,10.366695,10.36335,10.360329,10.358186,10.35689,10.35577,10.354544,10.353401,10.352171,10.351061,10.350498,10.350784,10.352071,10.354322,10.35733,10.360748,10.364246,10.367425,10.370266,10.372939,10.375444,10.37797,10.3808975,10.383715,10.386096,10.388055,10.389903,10.392028,10.394677,10.3979435,10.401743,10.406191,10.411448,10.417641,10.424705,10.432362,10.440277,10.448065,10.455205,10.461786,10.468248,10.474571,10.480303,10.485563,10.491165,10.496746,10.502335,10.507933,10.512948,10.516933,10.519911,10.522226,10.524599,10.529488,10.535556,10.542011,10.548412,10.554447,10.559931,10.565128,10.57031,10.575548,10.5796585
9.913786,9.83712,9.775327,9.565532,8.799795,7.867653,6.5922146,5.3409643,4.269248,3.6249704,3.4233336,3.3947911,3.4363275,3.503751,3.549928,3.5706446,3.5755196,3.5747836,3.5736465,3.5728536,3.5722723,3.5716858,3.5711064,3.570516,3.570007,3.5696352,3.5692825,3.568963,3.5686278,3.5683062,3.5679924,3.5676875,3.5674024,3.5671475,3.5670104,3.566883,3.5667572,3.5666265,3.566515,3.5664291,3.56635,3.5662794,3.5660849,3.5657625,3.5654185,3.5650811,3.565092,3.5655808,3.5658789,3.566008,3.5658946,3.5650396,3.5663717,3.5701358,3.5743299,3.5789814,3.5835314,3.5891848,3.5951805,3.601247,3.6071873,3.6132083,3.619757,3.6263065,3.6332889,3.6406322,3.6481357,3.6556582,3.6632075,3.6707,3.6777186,3.6852503,3.6932504,3.701733,3.710462,3.719224,3.7279024,3.7362132,3.7444463,3.7531028,3.7621837,3.7714882,3.7807956,3.7899413,3.798731,3.8072617,3.8162193,3.8255303,3.8351126,3.8442519,3.8525288,3.8603306,3.8675303,3.8755417,3.8802035,3.8766356,3.855579,3.8096092,3.7408624,3.6630464,3.6332622,3.6934538,3.9956284,4.63233,5.513091,6.483621,7.482024,8.311861,9.158615,10.039825,10.695679,10.979046,11.049515,11.108674,11.086882,11.072739,11.020422,10.948777,10.88817,10.845404,10.813632,10.785039,10.81287,10.8260975,10.840897,10.866822,10.893576,10.914698,10.924572,10.9262085,10.920055,10.907347,10.890401,10.874367,10.861589,10.846503,10.828383,10.805214,10.776798,10.753475,10.736211,10.718368,10.702105,10.690678,10.678784,10.669514,10.660225,10.659723,10.671233,10.681975,10.694889,10.705422,10.715428,10.725018,10.734236,10.743375,10.752523,10.761318,10.769623,10.775587,10.779549,10.782948,10.784438,10.782037,10.778086,10.775063,10.772915,10.773372,10.776928,10.781822,10.7857,10.787674,10.787774,10.7869625,10.785298,10.783409,10.780797,10.777758,10.776133,10.775587,10.774708,10.772739,10.767398,10.758772,10.7476,10.733772,10.718692,10.701689,10.684725,10.667937,10.653303,10.6435995,10.638439,10.633825,10.630045,10.626458,10.622379,10.617525,10.611521,10.604942,10.60005,10.598406,10.599939,10.60732,10.60849,10.599524,10.586489,10.571159,10.550756,10.526699,10.502358,10.477484,10.453156,10.430191,10.409975,10.399639,10.389675,10.384901,10.381958,10.37882,10.375899,10.373514,10.371388,10.369123,10.367099,10.365011,10.36237,10.359023,10.354957,10.349849,10.343173,10.334616,10.324549,10.31389,10.303974,10.295778,10.289358,10.284345,10.279865,10.27597,10.2727585,10.270094,10.267944,10.26639,10.265166,10.263597,10.261742,10.259281,10.255819,10.25149,10.246908,10.242535,10.238572,10.235513,10.233815,10.233763,10.235405,10.2385025,10.242552,10.247211,10.251884,10.256346,10.260319,10.2635975,10.266344,10.2688675,10.270667,10.271757,10.272276,10.272617,10.273285,10.274771,10.277379,10.280928,10.285496,10.29143,10.298977,10.307171,10.31325,10.3152685,10.315028,10.31587,10.317524,10.320656,10.325553,10.332083,10.338708,10.34309,10.347897,10.35206,10.35556,10.358107,10.359451,10.359156,10.356783,10.353455,10.340147,10.322933,10.304201,10.284903,10.266085,10.248806,10.234029,10.219669,10.202573,10.187408
9.679962,9.214237,8.520511,7.637207,6.290384,4.912237,3.866364,3.4728718,3.4198055,3.4563274,3.5071063,3.5274844,3.5347052,3.5335503,3.5309267,3.5292192,3.5281835,3.5272326,3.5264418,3.5256972,3.525121,3.5245357,3.5239558,3.523362,3.5228715,3.5225525,3.5222287,3.521829,3.5214057,3.5210104,3.5206127,3.520204,3.5198119,3.5194557,3.5192251,3.5189724,3.5187259,3.518486,3.518232,3.5179405,3.5176156,3.5173473,3.5175266,3.5183098,3.5192204,3.519958,3.521035,3.522604,3.5235176,3.5239663,3.5237527,3.5221705,3.5227752,3.5262604,3.5304656,3.5351908,3.5398645,3.5458183,3.5518868,3.5577152,3.563158,3.5685363,3.574452,3.5804298,3.5867963,3.5936017,3.6005213,3.6072998,3.6140277,3.620967,3.6281054,3.635697,3.6438036,3.6522563,3.6608696,3.6695294,3.6781101,3.6863298,3.694505,3.7031243,3.7120738,3.7211666,3.7302833,3.739305,3.747985,3.7564037,3.7652428,3.7744298,3.783885,3.7928934,3.801036,3.8087122,3.8158164,3.8231244,3.830541,3.838006,3.845438,3.8528092,3.8596997,3.8643682,3.8592122,3.835458,3.7722278,3.7063584,3.6916924,3.8045106,4.1673036,4.8930798,5.9491873,7.163252,8.372469,9.324873,9.988995,10.62884,10.918236,11.074852,11.062759,10.996494,10.933659,10.860746,10.800372,10.786369,10.757019,10.706519,10.672985,10.667269,10.676438,10.690702,10.696,10.695238,10.690186,10.681097,10.669703,10.664037,10.667463,10.668417,10.667463,10.663652,10.65542,10.659482,10.6771755,10.693779,10.705738,10.715424,10.727243,10.739812,10.753576,10.766169,10.775425,10.783579,10.793424,10.802567,10.807929,10.812666,10.815028,10.815208,10.818661,10.824798,10.831177,10.836923,10.843378,10.845684,10.842899,10.83893,10.83186,10.8201475,10.807411,10.79521,10.786021,10.778033,10.768084,10.757565,10.747173,10.735989,10.723543,10.712828,10.704973,10.698428,10.692161,10.686787,10.679852,10.668791,10.658859,10.649772,10.638922,10.626501,10.6102085,10.590356,10.563061,10.535299,10.5077505,10.474401,10.435448,10.401763,10.368565,10.33771,10.309425,10.281909,10.252863,10.218664,10.175658,10.126419,10.068699,10.00444,9.921058,9.820705,9.71788,9.617551,9.515871,9.412397,9.3089695,9.208729,9.11545,9.030271,8.956146,8.905973,8.860821,8.830828,8.808789,8.789243,8.771295,8.754528,8.738703,8.721981,8.703932,8.685749,8.668953,8.655123,8.644896,8.637379,8.631266,8.625404,8.619137,8.612183,8.604977,8.598322,8.592731,8.588259,8.584255,8.5807,8.577324,8.573765,8.570082,8.566679,8.563699,8.560822,8.558184,8.555588,8.552762,8.549643,8.546371,8.543177,8.540037,8.537093,8.534722,8.533205,8.532538,8.532397,8.532286,8.531701,8.529928,8.527235,8.524156,8.521244,8.518896,8.517132,8.515237,8.51292,8.510246,8.507786,8.506123,8.505407,8.505396,8.50576,8.506098,8.506323,8.50699,8.506992,8.502779,8.492552,8.480389,8.471945,8.466788,8.465514,8.468458,8.47558,8.483994,8.488922,8.49469,8.499625,8.5031595,8.504847,8.504162,8.499899,8.490952,8.478957,8.44656,8.405247,8.35994,8.313104,8.267164,8.224282,8.186352,8.149183,8.108088,8.072599
8.478714,7.4620247,5.990085,4.5423946,3.7062113,3.5143547,3.4635348,3.4801335,3.4975865,3.4997787,3.497209,3.4946957,3.4925241,3.4903116,3.4878874,3.486274,3.4852371,3.4843144,3.4835224,3.4827747,3.482191,3.4815755,3.4809527,3.4802997,3.479797,3.4795566,3.4793458,3.4790769,3.4787524,3.4784377,3.478177,3.477975,3.4778104,3.4776754,3.4776788,3.477766,3.4778624,3.477972,3.47804,3.4780993,3.478234,3.4784517,3.4802518,3.4841256,3.4884334,3.4923606,3.4955225,3.497577,3.4988198,3.4996324,3.4997973,3.4985075,3.4987957,3.5014873,3.5049686,3.5090542,3.5129743,3.5182672,3.523632,3.5287318,3.5335336,3.5383205,3.5433693,3.5477521,3.5524251,3.5577142,3.5630994,3.567987,3.5724716,3.5775223,3.5841877,3.5912633,3.59872,3.6069221,3.615526,3.624119,3.632613,3.6407504,3.648909,3.657559,3.6663651,3.675162,3.684031,3.69294,3.7015324,3.7098618,3.718607,3.7276976,3.7370546,3.7459693,3.7540252,3.761619,3.7686434,3.7758684,3.7831912,3.7905579,3.7978835,3.8050618,3.8119588,3.8183088,3.8247073,3.8313026,3.8386,3.843495,3.8430965,3.8330054,3.8093247,3.800629,3.8395653,4.1202755,4.8821635,6.145422,7.6033316,8.856774,9.82126,10.489958,10.801357,10.931833,10.97986,10.931929,10.832521,10.770566,10.737963,10.738466,10.730539,10.701512,10.668156,10.641757,10.624752,10.611689,10.608211,10.613014,10.623226,10.636755,10.652005,10.667301,10.682926,10.699096,10.71545,10.729158,10.73855,10.744108,10.746971,10.751141,10.754147,10.758165,10.764677,10.765291,10.756237,10.747133,10.740372,10.734583,10.718491,10.698711,10.68391,10.669878,10.646795,10.617962,10.587919,10.555837,10.52146,10.470533,10.40428,10.340482,10.280792,10.209248,10.13452,10.056784,9.983196,9.916934,9.856421,9.803244,9.753593,9.703122,9.653677,9.61157,9.582326,9.5613985,9.538345,9.515444,9.489344,9.453879,9.429831,9.417727,9.409287,9.404264,9.3908825,9.371648,9.331045,9.288994,9.243497,9.170956,9.072373,8.988283,8.904619,8.829906,8.766329,8.708504,8.649282,8.576294,8.474516,8.3485985,8.193756,8.004744,7.8017282,7.602072,7.412656,7.240149,7.0848885,6.9401546,6.792353,6.6412215,6.497791,6.3703265,6.256792,6.154257,6.055972,5.9627295,5.87745,5.799091,5.7240887,5.6501923,5.578377,5.503047,5.4217005,5.340205,5.2648726,5.202363,5.156488,5.125326,5.105386,5.092794,5.0843616,5.0768213,5.0679665,5.0577135,5.047608,5.0383005,5.0289793,5.019575,5.0092616,4.99743,4.9847713,4.9730434,4.9637856,4.9572754,4.954981,4.95765,4.964632,4.9745293,4.985545,4.995572,5.0040646,5.0103483,5.014012,5.0150533,5.0132704,5.0082927,5.000055,4.9880323,4.9717503,4.952819,4.934328,4.91877,4.9070554,4.898914,4.89318,4.888277,4.884306,4.8810973,4.878298,4.8751497,4.8706303,4.8641796,4.854656,4.840716,4.822943,4.8028584,4.7829914,4.7659607,4.7527704,4.742786,4.7363224,4.7336636,4.734844,4.7391076,4.7452817,4.752494,4.7589846,4.764446,4.767481,4.766818,4.7617254,4.7518783,4.73759,4.7203665,4.699798,4.676119,4.6497326,4.621512,4.5925765,4.56423,4.5383654,4.514,4.492632,4.475569
5.8190613,4.564663,3.8610277,3.6065278,3.4843702,3.4681165,3.4624262,3.4613485,3.460195,3.4582024,3.4557042,3.453046,3.4510949,3.448998,3.4472127,3.445567,3.4443288,3.4435194,3.4427733,3.4420583,3.4414992,3.4407802,3.439986,3.4391308,3.4384284,3.4380894,3.4381542,3.4392066,3.440112,3.4407578,3.4417906,3.4434094,3.4452345,3.4470024,3.4488306,3.4515378,3.454177,3.4567409,3.4594185,3.4628153,3.4671988,3.4713557,3.4753394,3.4792728,3.4832125,3.4871268,3.4905522,3.4929414,3.4942954,3.4951148,3.4952362,3.4932451,3.492102,3.49253,3.492824,3.4931056,3.4925096,3.4969883,3.5020185,3.5066102,3.5109735,3.5153966,3.5200381,3.5238304,3.5279472,3.532626,3.5374432,3.5417237,3.5451822,3.5481207,3.5510027,3.5543637,3.5568073,3.5633402,3.5724142,3.5810933,3.5895195,3.5975711,3.6056862,3.6143172,3.623005,3.6315956,3.6402857,3.649095,3.6576042,3.665841,3.6744847,3.6834798,3.6927469,3.7015696,3.709529,3.7170296,3.72397,3.7311108,3.738339,3.7456036,3.7528226,3.7598932,3.7666802,3.7729003,3.7791572,3.7856236,3.792259,3.7987418,3.8047993,3.810201,3.8147478,3.820207,3.8282003,3.8409472,3.9215755,4.1271524,4.5830755,5.4966745,6.9439535,8.708722,9.954774,10.499183,10.677164,10.775319,10.807686,10.807457,10.77272,10.72728,10.693082,10.671299,10.655033,10.64492,10.641915,10.633455,10.632717,10.639489,10.653751,10.674402,10.698092,10.722097,10.742857,10.74719,10.7409315,10.72934,10.70331,10.663005,10.630726,10.599339,10.542845,10.48284,10.427808,10.378504,10.318632,10.232694,10.158684,10.122451,10.094494,10.052883,10.066084,10.10964,10.051628,9.91741,9.769421,9.607462,9.397676,9.15065,8.890381,8.634052,8.415212,8.215615,8.021531,7.8322434,7.656968,7.5049458,7.3763285,7.2633686,7.1459723,7.0223913,6.9059744,6.801773,6.7085733,6.622951,6.54075,6.457723,6.3659773,6.2604847,6.1428003,6.017119,5.8905907,5.772508,5.6694984,5.5728045,5.480135,5.39316,5.3125286,5.238402,5.172616,5.118884,5.072762,5.0323925,4.997886,4.9669523,4.9364033,4.904462,4.8713083,4.835246,4.7917385,4.7443876,4.6963215,4.648597,4.603124,4.5631,4.526819,4.491988,4.4588213,4.4282894,4.401106,4.3773537,4.3565807,4.3382735,4.3208337,4.304306,4.2888584,4.2746105,4.2612314,4.2479973,4.2346654,4.220664,4.20609,4.1918817,4.178993,4.168187,4.1598434,4.1538553,4.1495824,4.146325,4.1437683,4.141425,4.1388855,4.1361384,4.1334515,4.1307573,4.1277914,4.1245537,4.120808,4.116571,4.112183,4.1080604,4.104623,4.10182,4.100016,4.099468,4.1000805,4.1015277,4.1033516,4.1050177,4.1063285,4.1071234,4.107358,4.1070447,4.106119,4.104584,4.1026154,4.1001062,4.097142,4.093975,4.090926,4.0881815,4.0857344,4.083537,4.0815954,4.079688,4.077998,4.0765676,4.0753613,4.0742803,4.0731893,4.071976,4.070542,4.068609,4.0662365,4.063647,4.0612545,4.05949,4.0584865,4.0581093,4.0583334,4.0589867,4.05995,4.0611515,4.0624657,4.0637093,4.06458,4.0649595,4.06474,4.063975,4.0628977,4.061593,4.0599184,4.0579443,4.0553484,4.0521407,4.0483313,4.0440345,4.0394416,4.0348277,4.0307436,4.0271263,4.024223,4.0222435
3.8966842,3.543903,3.402444,3.4057002,3.414295,3.4196358,3.4212642,3.418517,3.4151359,3.4136367,3.4177432,3.425116,3.4200025,3.4164858,3.4123306,3.4085407,3.405569,3.4032722,3.401301,3.399323,3.3975334,3.3987556,3.4014254,3.4045792,3.4079914,3.4116435,3.4154797,3.4194412,3.4236295,3.427906,3.432311,3.4370277,3.4417856,3.4459908,3.4498243,3.4541361,3.4576826,3.4601967,3.4623013,3.4648042,3.467843,3.470765,3.473304,3.4757745,3.4785423,3.4816728,3.4845629,3.4865537,3.4877014,3.4884136,3.488646,3.4868145,3.4857733,3.4860923,3.4860282,3.4858584,3.4846814,3.4846516,3.4838636,3.4819298,3.4822981,3.4865108,3.491213,3.4947276,3.498523,3.5029263,3.5073583,3.5110939,3.51396,3.516276,3.5183008,3.520641,3.522904,3.526145,3.529482,3.5343828,3.5426693,3.5511732,3.5595548,3.5684726,3.5772789,3.5859203,3.5946321,3.603376,3.6118007,3.6199107,3.6283994,3.6372848,3.6464875,3.6552181,3.6630306,3.6703815,3.6772025,3.6842244,3.6913383,3.6984925,3.7056015,3.7125616,3.7192407,3.7253556,3.7315044,3.7378585,3.74435,3.7508123,3.7571163,3.763264,3.7691073,3.773857,3.7766123,3.769968,3.7590275,3.7550073,3.808116,4.0106435,4.4158545,5.145668,6.391536,8.036123,9.498407,10.273631,10.44577,10.442336,10.535148,10.571984,10.577112,10.587122,10.594685,10.589604,10.590736,10.589716,10.593203,10.604889,10.609795,10.613979,10.619814,10.582534,10.52869,10.470006,10.3723545,10.317271,10.293285,10.181524,9.960146,9.757397,9.617822,9.487104,9.303866,9.054407,8.765396,8.462298,8.155872,7.855937,7.543458,7.1913266,6.8633804,6.602466,6.3669896,6.1551256,5.96435,5.796303,5.6453037,5.5067797,5.3784933,5.2648144,5.1789136,5.103222,5.031408,4.963296,4.9010277,4.8472757,4.802305,4.7634745,4.7253084,4.6863813,4.649955,4.6174498,4.5884924,4.561714,4.53547,4.5085106,4.4784226,4.4436617,4.403865,4.360306,4.315528,4.272661,4.234823,4.1987953,4.164684,4.1325617,4.103134,4.0779395,4.057807,4.0419807,4.02932,4.018279,4.008567,3.9994085,3.990119,3.9807324,3.9717479,3.9624672,3.9514155,3.9398599,3.9281304,3.9161813,3.9046721,3.894658,3.8858948,3.8776202,3.87053,3.8649883,3.860579,3.8567774,3.8534698,3.8505673,3.8476028,3.8446913,3.841836,3.8391404,3.836635,3.8341222,3.8314266,3.8286293,3.825779,3.8231945,3.8215094,3.8206358,3.81997,3.8193836,3.8186913,3.8177934,3.8166375,3.8152347,3.8136292,3.8119597,3.810391,3.808829,3.8071232,3.8052678,3.8030972,3.8005948,3.7981913,3.7963066,3.7946296,3.7930665,3.7917194,3.7907076,3.7900515,3.7896805,3.7894263,3.7890596,3.788455,3.787457,3.7860541,3.7844014,3.7829752,3.7821584,3.7817433,3.7812185,3.780761,3.7803326,3.7798123,3.7790885,3.7780719,3.7767518,3.7752712,3.7745924,3.774203,3.7739468,3.7738106,3.7738352,3.7740886,3.7745647,3.7752435,3.7759957,3.7767038,3.777336,3.7779994,3.7787945,3.7796435,3.7805932,3.7815695,3.7824292,3.783402,3.7844067,3.7850704,3.7853785,3.7852376,3.7846136,3.7834668,3.782712,3.7829394,3.783883,3.7850919,3.7863994,3.7878728,3.7894871,3.7910547,3.7924578,3.7936459,3.794587,3.7954612,3.7964315,3.7975917,3.7988663
3.3102636,3.342575,3.365539,3.374422,3.3760962,3.3735962,3.3712485,3.3786652,3.3824966,3.380434,3.3800087,3.3813987,3.376754,3.3733344,3.3696556,3.3671165,3.365148,3.363436,3.3634262,3.3661122,3.3690054,3.3745346,3.3813744,3.3886545,3.3957574,3.4024465,3.4090333,3.4155536,3.4224486,3.429442,3.4364586,3.4434857,3.4497983,3.4544158,3.457807,3.460904,3.4625254,3.4625077,3.46147,3.4605565,3.4604163,3.4603596,3.460228,3.4604204,3.4614317,3.4633412,3.46551,3.467188,3.4682636,3.4689965,3.4694028,3.4678712,3.4671636,3.4677324,3.4678097,3.4677377,3.4666018,3.465015,3.4618664,3.4576454,3.4548295,3.4544618,3.4553003,3.4579818,3.4618812,3.4662538,3.470649,3.4746013,3.4779918,3.4810915,3.484002,3.4872077,3.4904451,3.493272,3.4957328,3.4990735,3.5040345,3.5092041,3.514347,3.519448,3.5271564,3.5364556,3.5458555,3.5550947,3.5637414,3.5717065,3.580031,3.5888019,3.5979345,3.6065679,3.6142273,3.6214232,3.6281195,3.635017,3.6420121,3.6490521,3.6560473,3.6628947,3.6694639,3.675472,3.681513,3.6877508,3.6941185,3.70047,3.7066855,3.7127118,3.718451,3.724132,3.7299154,3.736355,3.739996,3.7360268,3.718236,3.6836843,3.6405864,3.6994076,4.1218915,4.963148,6.060189,7.2273765,8.341816,9.219009,9.746437,10.0186405,10.176973,10.261587,10.277881,10.280928,10.293274,10.300419,10.308439,10.300829,10.26951,10.1499405,9.918241,9.711601,9.572769,9.324787,8.948944,8.555055,8.212058,7.873233,7.495158,7.1663647,6.8957577,6.665787,6.440691,6.2025776,5.9613323,5.7348976,5.531843,5.3313875,5.1249456,4.906945,4.697423,4.521125,4.382341,4.2751007,4.1835246,4.1075993,4.0503745,4.0072966,3.9731593,3.9474978,3.930625,3.9162602,3.903286,3.8920636,3.8824081,3.8743184,3.867961,3.863254,3.8607507,3.8595243,3.8587997,3.858489,3.8586314,3.8587742,3.8582878,3.8573241,3.8558402,3.8537023,3.850969,3.847525,3.8436718,3.8400886,3.8367558,3.8335252,3.831172,3.8289561,3.8266335,3.8244004,3.8224416,3.8210258,3.8198733,3.8183634,3.8163967,3.8138285,3.810738,3.8075805,3.8047695,3.8018095,3.7984533,3.7947242,3.7907622,3.7867134,3.7826753,3.7788115,3.7754245,3.7720907,3.7697995,3.768518,3.767693,3.7668848,3.7659388,3.7647793,3.7631178,3.761066,3.7588053,3.7565215,3.754394,3.7525172,3.7508554,3.749458,3.748098,3.746961,3.746407,3.7463892,3.7465239,3.7466369,3.7467337,3.7465572,3.7458854,3.7447033,3.7431107,3.7413282,3.7396302,3.7380586,3.7366068,3.7351577,3.7335773,3.7318282,3.7300944,3.7285576,3.7270803,3.725595,3.7241716,3.722918,3.7218604,3.7209408,3.7200518,3.7190924,3.718001,3.716734,3.7153995,3.7141244,3.7131286,3.7125473,3.7121997,3.7117715,3.711361,3.710914,3.7103553,3.7096405,3.7087288,3.7076082,3.7063847,3.7054958,3.7047276,3.704041,3.7037692,3.7040348,3.704545,3.7052531,3.70611,3.707003,3.707806,3.7084641,3.7090244,3.7096977,3.710783,3.7121162,3.713435,3.714569,3.7156453,3.71665,3.7173724,3.717772,3.7177596,3.7173395,3.7165413,3.715908,3.7158847,3.7164764,3.717564,3.7193174,3.721304,3.723508,3.7256613,3.7275982,3.7292657,3.7306275,3.7318645,3.7331161,3.7344368,3.7358277
3.3249886,3.3307133,3.3349848,3.3415782,3.349231,3.3513849,3.345923,3.3487306,3.3493671,3.3449287,3.339225,3.3335783,3.3303585,3.3278222,3.3253546,3.323765,3.3248925,3.3285532,3.3338747,3.3418891,3.3501658,3.3598084,3.370058,3.3804536,3.3904757,3.399798,3.4085956,3.4169888,3.42561,3.434051,3.4423938,3.4500995,3.455809,3.4587984,3.4603379,3.4610724,3.4598007,3.4560275,3.4509578,3.4465218,3.4435458,3.441352,3.4396563,3.438582,3.4387362,3.4404235,3.442894,3.4449139,3.4459963,3.446425,3.446573,3.444807,3.4438453,3.4440608,3.4436834,3.443169,3.4415665,3.4396586,3.4362607,3.4321904,3.4283447,3.4251657,3.4231682,3.422599,3.423071,3.4260585,3.4304688,3.4349527,3.4391627,3.4433446,3.4475236,3.4520786,3.4565954,3.4609349,3.4651065,3.468853,3.4721014,3.4754157,3.4788065,3.4821143,3.4875941,3.494191,3.5004253,3.506646,3.5137644,3.5221453,3.5309656,3.539791,3.5487695,3.55729,3.564869,3.5719926,3.5786145,3.5854344,3.59234,3.599282,3.6061795,3.6129332,3.6194081,3.6253052,3.6312299,3.6373308,3.643548,3.649755,3.6558414,3.6617458,3.6673725,3.6729429,3.6786017,3.6843228,3.6900668,3.695962,3.7010517,3.702185,3.6950228,3.6710596,3.6031182,3.557232,3.7675133,4.404208,5.335012,6.2418146,6.917543,7.4923058,8.0075,8.40354,8.644761,8.775602,8.810561,8.780636,8.673193,8.492024,8.268507,7.964655,7.5657597,7.219038,6.965213,6.6532087,6.2862854,5.9097595,5.5809045,5.3166966,5.087539,4.891161,4.70573,4.548212,4.4217362,4.3194485,4.2343655,4.166497,4.124655,4.088731,4.057066,4.0345984,4.017537,4.0009913,3.9867706,3.974848,3.963379,3.9513245,3.9381166,3.9244485,3.9114003,3.8991365,3.887231,3.8764098,3.8660374,3.856477,3.848072,3.841208,3.8360703,3.8324304,3.8298965,3.82811,3.8271008,3.8266695,3.826587,3.8265314,3.8260872,3.8252141,3.8237922,3.8217044,3.8190632,3.815827,3.8123946,3.809558,3.8073606,3.8056626,3.8051867,3.8050764,3.8048873,3.804658,3.804507,3.8046484,3.8048115,3.8045583,3.8037763,3.8023608,3.8004198,3.7984996,3.797205,3.796114,3.7951636,3.7945461,3.7943244,3.794323,3.7943635,3.7945037,3.79488,3.7953162,3.7966452,3.7986498,3.8006487,3.802098,3.8027859,3.802712,3.8018055,3.800239,3.7982955,3.7962942,3.7945473,3.7932143,3.792206,3.791603,3.7912703,3.7913237,3.7918448,3.7927582,3.7938585,3.794943,3.7959309,3.7965302,3.7964876,3.7957442,3.7943916,3.7927015,3.7910218,3.7894526,3.7879999,3.7866042,3.7851334,3.7835479,3.7818427,3.7800002,3.7781715,3.776338,3.7745912,3.7730873,3.7718534,3.7707496,3.7695918,3.768324,3.7669034,3.7653713,3.7639985,3.7629032,3.7620227,3.7612376,3.7604551,3.7595754,3.758629,3.7576036,3.756513,3.7554173,3.7543364,3.753231,3.752131,3.7509289,3.74973,3.748652,3.7480679,3.748074,3.748339,3.7488136,3.7494369,3.7500944,3.7507472,3.7514062,3.7521129,3.7530062,3.7542748,3.7556837,3.757081,3.7583451,3.7594981,3.7606504,3.761788,3.7627177,3.7633166,3.7635598,3.7634878,3.7632084,3.7630553,3.7633455,3.7641768,3.765802,3.7678218,3.7701259,3.7724192,3.7744484,3.776165,3.777608,3.7787514,3.7798781,3.7811182,3.7825007
3.3007283,3.3062763,3.3137372,3.3227768,3.3311753,3.3328836,3.3248906,3.3155003,3.308177,3.3030381,3.2985406,3.2942848,3.2920532,3.291019,3.2905083,3.291123,3.296134,3.3050997,3.3146152,3.3244834,3.3346386,3.3461685,3.358077,3.3697953,3.3809848,3.3914204,3.4010277,3.4097428,3.4187517,3.4274983,3.4357882,3.4426098,3.446599,3.447714,3.4477544,3.4466028,3.4434233,3.4375758,3.4307845,3.425488,3.4223576,3.4204264,3.4184575,3.4172196,3.4158716,3.4149022,3.4145274,3.4139104,3.4128156,3.4127984,3.4125216,3.4111142,3.4108703,3.4117005,3.4118023,3.4115462,3.410283,3.4088233,3.406096,3.4026303,3.3994288,3.397005,3.394884,3.391387,3.3876696,3.3871217,3.3895824,3.3937602,3.398749,3.4040036,3.4089842,3.4147902,3.420794,3.426691,3.431878,3.4362636,3.440369,3.4444048,3.4483013,3.452077,3.4558227,3.4594004,3.462399,3.4653301,3.469771,3.4762783,3.4825873,3.4908106,3.5000465,3.5086675,3.5162873,3.5233822,3.5299654,3.5367415,3.5435786,3.5504355,3.5572467,3.5639215,3.570315,3.576107,3.5819197,3.5878787,3.5939307,3.599979,3.6059208,3.6116977,3.6172404,3.6227405,3.6283188,3.6339579,3.6395955,3.6451597,3.6505642,3.655703,3.6608658,3.6647437,3.6639094,3.6464095,3.6149642,3.5786912,3.5734286,3.7191274,4.0641756,4.5588408,5.0962133,5.5704527,5.920217,6.123884,6.178912,6.144226,5.994915,5.7586913,5.47847,5.1985273,4.9392366,4.6875362,4.4658647,4.3017063,4.19613,4.133731,4.100379,4.0882287,4.0885224,4.08582,4.079088,4.0670996,4.050415,4.0314684,4.0129538,3.9961247,3.9804459,3.9648976,3.9509144,3.937901,3.9257112,3.915156,3.906633,3.8995297,3.8928869,3.886459,3.8801322,3.873693,3.867293,3.8613834,3.856182,3.8516192,3.847332,3.843474,3.8402526,3.837984,3.8368812,3.8368196,3.8375282,3.8389423,3.8410702,3.8436658,3.846518,3.849314,3.8515859,3.8533695,3.854751,3.855783,3.8558288,3.854968,3.853695,3.8522773,3.851047,3.8500814,3.8487031,3.8471873,3.8459654,3.8453085,3.8453088,3.8458853,3.8466797,3.847364,3.8476672,3.8474114,3.8467202,3.8458729,3.8450215,3.8443332,3.8438785,3.8437035,3.8438468,3.8441901,3.8446245,3.8452487,3.8461752,3.8474073,3.8488808,3.850412,3.8517013,3.8524446,3.852495,3.8518953,3.8505955,3.8488162,3.846802,3.844791,3.8430228,3.8416116,3.840458,3.8395991,3.839038,3.8389077,3.8393183,3.8401623,3.8411968,3.8422284,3.8430197,3.843432,3.8433194,3.8426294,3.841414,3.839891,3.8383415,3.8368337,3.8352852,3.8338037,3.8323014,3.8307292,3.8291097,3.8274403,3.8257751,3.8240867,3.82245,3.8210113,3.8198192,3.8187556,3.8176398,3.8164158,3.81502,3.8134735,3.8120317,3.8107967,3.8097322,3.808732,3.8076491,3.8063605,3.8048935,3.8033059,3.801725,3.800313,3.799127,3.7980876,3.7971182,3.7962294,3.7953992,3.7947097,3.7942476,3.7939994,3.7939005,3.793953,3.794075,3.7941656,3.7942758,3.7944863,3.794879,3.7954478,3.7960184,3.7964916,3.7969384,3.7973988,3.7979915,3.7988665,3.8000002,3.801136,3.8021135,3.802851,3.8032835,3.803494,3.803772,3.8043337,3.8051567,3.8063097,3.807897,3.809734,3.8115888,3.813206,3.8145437,3.8156924,3.8165293,3.8173509,3.8183203,3.8194113
3.288435,3.3111358,3.3215408,3.3099172,3.294526,3.2851949,3.277719,3.2718902,3.2677584,3.2654948,3.2641668,3.262979,3.2635083,3.2652159,3.2684984,3.2744687,3.2827988,3.2923472,3.3022604,3.312112,3.3221304,3.3334894,3.3450332,3.3559446,3.365725,3.3743856,3.3823767,3.389717,3.397738,3.4057455,3.412976,3.418464,3.4214463,3.4221625,3.4220889,3.4208918,3.41812,3.4137182,3.4085345,3.405004,3.4046726,3.4053807,3.4074888,3.4104428,3.4188156,3.430831,3.4438908,3.4577703,3.4710321,3.485273,3.4982991,3.508174,3.5157452,3.5197864,3.519013,3.5155616,3.5087557,3.4996884,3.4871492,3.4728858,3.4584908,3.4445403,3.4313054,3.41826,3.4052453,3.3941824,3.3862464,3.3813906,3.3793154,3.3801286,3.3837872,3.3888736,3.3941073,3.3992672,3.403839,3.407609,3.4109452,3.4141169,3.417316,3.4197726,3.422814,3.42655,3.4302225,3.4334152,3.43627,3.4387765,3.4399638,3.4459414,3.4542413,3.4620233,3.469354,3.4764738,3.4830198,3.4897602,3.4965441,3.503344,3.5101025,3.5167096,3.523011,3.528732,3.5344796,3.540332,3.5462456,3.552168,3.5580125,3.563699,3.5691524,3.574564,3.58004,3.5855703,3.5910854,3.5965083,3.6017985,3.6068716,3.6116273,3.616757,3.6222157,3.6277838,3.6307874,3.6279178,3.624083,3.639613,3.6460567,3.6670916,3.7074318,3.7661083,3.837954,3.908848,3.9594364,3.9933634,4.006683,3.9997027,3.9736605,3.9503443,3.9478579,3.9448385,3.9400487,3.9353352,3.9316618,3.9297185,3.929418,3.9297564,3.929626,3.929282,3.9285905,3.927286,3.9245925,3.9210842,3.9179807,3.9155579,3.9136415,3.9116244,3.9089532,3.9055557,3.9019423,3.8988972,3.8968062,3.895306,3.8939443,3.8924387,3.8904839,3.8878317,3.8847528,3.8817842,3.8790543,3.8766963,3.8744898,3.8725443,3.8710067,3.8701277,3.8700962,3.8708193,3.8721137,3.8740268,3.8765512,3.8795424,3.882779,3.8859,3.8885064,3.8906503,3.892455,3.8941488,3.8939302,3.892024,3.8897638,3.8875132,3.8855538,3.88409,3.881373,3.8777962,3.8743825,3.8716536,3.8695977,3.8682456,3.8672523,3.8662229,3.8649392,3.8633008,3.8613696,3.8593123,3.8572984,3.8553848,3.8534348,3.8514366,3.8493605,3.8471513,3.8447714,3.8422642,3.8397245,3.8369613,3.834143,3.8314557,3.828981,3.8267162,3.824621,3.8225965,3.8203588,3.8179226,3.8153687,3.812788,3.8103406,3.8081822,3.806344,3.8047924,3.8034868,3.8024182,3.8015385,3.8007383,3.799932,3.79914,3.798333,3.797429,3.7964244,3.7952888,3.7939875,3.7925615,3.7911153,3.7896957,3.7882347,3.7868743,3.7856715,3.7846289,3.7837367,3.782928,3.782085,3.7811036,3.7799761,3.7787523,3.7775164,3.776339,3.7752476,3.7742639,3.7733302,3.7724628,3.7717547,3.7711706,3.7705898,3.7698736,3.7689102,3.7676764,3.7662144,3.7646432,3.7631874,3.762036,3.7612119,3.7605991,3.7600656,3.7595615,3.7590787,3.7586532,3.7583158,3.7580073,3.7576375,3.7572126,3.7566614,3.7559404,3.755124,3.7543066,3.7535603,3.7529182,3.752362,3.7517724,3.7511148,3.7505054,3.7500572,3.7499127,3.7501488,3.7506616,3.7513003,3.751972,3.7525866,3.7531056,3.7536242,3.7542162,3.7548401,3.7555604,3.7564185,3.7572665,3.757988,3.7584968,3.7587924,3.7589679,3.7592168,3.7595057,3.7598433,3.7602017
