1.0036757,1.004768,1.0056181,1.0062644,1.0068331,1.0073662,1.007901,1.0083951,1.0088501,1.0092746,1.0096626,1.0100191,1.0103693,1.0107517,1.0111653,1.0115927,1.0120245,1.0124464,1.0128193,1.0131497,1.0134445,1.0137199,1.0139825,1.0142354,1.0144787,1.0146976,1.0148935,1.0150919,1.01526,1.0153935,1.0154753,1.0155027,1.0155182,1.0155611,1.0156069,1.0156972,1.0158141,1.0159392,1.0160673,1.0162044,1.0163608,1.0165439,1.016745,1.0169604,1.017175,1.0173706,1.0175505,1.0177367,1.0179255,1.0181456,1.0184095,1.0187457,1.0191641,1.0196522,1.0201908,1.0207453,1.0213315,1.0219245,1.0225086,1.0230739,1.0236213,1.0241632,1.0246978,1.025258,1.0258441,1.0264199,1.0269532,1.0274267,1.0278379,1.0281947,1.0285242,1.0288572,1.0291984,1.0295439,1.0298858,1.0302129,1.0305102,1.0307858,1.03107,1.0313404,1.0315844,1.0317822,1.0319118,1.0319669,1.0319548,1.0318705,1.0317485,1.0316155,1.0314806,1.0313389,1.0311741,1.0309734,1.0307193,1.0304103,1.0300646,1.0297034,1.0293521,1.0290337,1.0287577,1.028499,1.028249,1.0279868,1.0276506,1.0272243,1.0267437,1.0262394,1.025759,1.0253205,1.0249753,1.0247306,1.0245526,1.0243906,1.0242181,1.0240612,1.0239328,1.0237477,1.023566,1.0234667,1.0234509,1.023473,1.0235113,1.0235758,1.0236473,1.0237731,1.0240066,1.0243349,1.0247016,1.0250833,1.0254452,1.0257385,1.0260105,1.0262997,1.026609,1.0269239,1.0272346,1.0275369,1.0278332,1.0280609,1.0281943,1.0282304,1.028166,1.0280151,1.0278301,1.0276153,1.0273876,1.0271904,1.0270457,1.0269573,1.0269167,1.0269091,1.0269202,1.0269511,1.027003,1.0270724,1.0271558,1.0272466,1.0273323,1.0274101,1.0274675,1.0274929,1.0274785,1.0274296,1.0273631,1.027302,1.027264,1.0272391,1.0272174,1.0272005,1.0271866,1.0271714,1.0271554,1.027137,1.0271261,1.0271173,1.0271237,1.0271437,1.0271548,1.0271351,1.0270755,1.0269558,1.026793,1.0265992,1.0263999,1.0262201,1.0260706,1.025952,1.0258499,1.0257442,1.0256346,1.025527,1.025424,1.0253255,1.0252309,1.0251218,1.0249779,1.0247992,1.0245581,1.0242567,1.0239334,1.0236225,1.0233407,1.0230699,1.0228083,1.0225556,1.0223219,1.0221107,1.0219126,1.0217284,1.0215497,1.0213897,1.0212312,1.0210736,1.0209117,1.0207286,1.0205331,1.0202812,1.0199794,1.0196326,1.0192628,1.0188904,1.0185306,1.0182045,1.0179031,1.0176133,1.0173213,1.0170381,1.0167801,1.0165561,1.0163711,1.0161994,1.0160415,1.0158739,1.0157318,1.0155883,1.0153933,1.0151577,1.0149026,1.0146036,1.0142593,1.0138474,1.0133226,1.0126898,1.0119972,1.0112598,1.010489,1.0097191,1.0089893,1.0083585,1.0078549,1.0074618,1.0071602,1.0068903,1.0066223,1.006366,1.006096,1.0058355,1.0056207,1.0054379,1.0053282,1.0053427,1.005367,1.0053833,1.0053825,1.0053089,1.0051337,1.0049462,1.00471,1.0044787,1.0042906,1.0041531,1.0040777,1.0040544,1.003993,1.0038736,1.0036995,1.0035394,1.0034125,1.0032997,1.003188,1.0030766,1.0029664,1.0028163,1.0025914,1.00232,1.0020299,1.0017364,1.0014706,1.0012381,1.0009685,1.000658,1.0003242,0.9999723,0.9996067,0.99923503,0.9988396,0.99844325,0.9981406,0.9978223,0.9974569,0.9970922,0.9967542,0.9964818,0.9962096,0.99600744,0.9958147,0.9955756,0.9951694,0.9945587,0.9939631,0.9933491
1.0057471,1.0069541,1.0078425,1.0085495,1.0091405,1.0096838,1.0102215,1.0107195,1.0111809,1.0116132,1.012012,1.0123826,1.0127472,1.0131481,1.0135851,1.0140359,1.0144873,1.0149252,1.0153133,1.0156573,1.0159678,1.0162623,1.0165486,1.0168309,1.0171111,1.0173738,1.0176116,1.0178457,1.0180337,1.0181692,1.0182345,1.0182266,1.0181952,1.0182068,1.0182304,1.0183028,1.0183983,1.0184824,1.0185497,1.0186206,1.0187073,1.0188316,1.0189731,1.019139,1.0193267,1.0195092,1.019675,1.0198497,1.0200307,1.0202372,1.0204842,1.020812,1.0212209,1.0216868,1.0222006,1.0227236,1.0232717,1.0238198,1.024354,1.0248666,1.0253694,1.0258906,1.0264323,1.0270209,1.0276504,1.0282733,1.0288489,1.0293553,1.0297899,1.0301635,1.0305116,1.0308686,1.0312371,1.031612,1.0319787,1.0323228,1.0326375,1.0329362,1.0332477,1.0335155,1.033751,1.033947,1.0340726,1.0341253,1.0341222,1.0340168,1.0338664,1.0337102,1.0335674,1.0334339,1.0332841,1.0331002,1.0328686,1.0325781,1.0322492,1.0319018,1.03156,1.0312564,1.0310134,1.0308095,1.0306454,1.0304697,1.03019,1.0297942,1.0293403,1.028859,1.0283904,1.0279636,1.0275984,1.0272838,1.026996,1.0266953,1.0263531,1.0260237,1.0257218,1.0253986,1.0251628,1.0250936,1.0251551,1.025267,1.0253885,1.025531,1.0256675,1.0258472,1.0261292,1.0265033,1.0269117,1.0273323,1.0277262,1.028058,1.0283753,1.0287105,1.0290594,1.029407,1.0297465,1.030068,1.0303853,1.0306556,1.030834,1.0309,1.0308522,1.0307088,1.0305245,1.0303059,1.0300772,1.029877,1.0297282,1.0296373,1.0295919,1.0295767,1.0295748,1.029587,1.0296116,1.0296487,1.0296997,1.0297613,1.0298262,1.0298932,1.0299474,1.0299773,1.0299704,1.0299261,1.0298588,1.0297935,1.0297441,1.0297018,1.0296612,1.0296288,1.0295987,1.0295613,1.0295212,1.0294774,1.0294322,1.029376,1.0293276,1.0292873,1.0292348,1.0291603,1.0290618,1.0289295,1.0287573,1.0285544,1.028343,1.0281477,1.0279818,1.027847,1.0277272,1.0276055,1.0274825,1.0273677,1.0272645,1.0271695,1.0270835,1.0269885,1.0268677,1.0267208,1.0265343,1.0263057,1.0260493,1.0257852,1.0255326,1.0252755,1.0250261,1.0247786,1.0245398,1.024317,1.0241042,1.0239093,1.0237218,1.0235467,1.0233853,1.0232339,1.0230772,1.0229042,1.0227239,1.0224881,1.0222012,1.0218639,1.0215011,1.0211358,1.0207846,1.0204719,1.0201839,1.0199134,1.0196384,1.0193639,1.0191019,1.0188605,1.0186479,1.018446,1.0182511,1.0180411,1.0178597,1.0176865,1.0174757,1.0172412,1.0169921,1.016693,1.0163386,1.0159012,1.0153303,1.014638,1.0138965,1.0131365,1.0122669,1.0113728,1.0105016,1.0097321,1.0091194,1.0086665,1.0083616,1.0081197,1.0079017,1.0077186,1.0074933,1.007256,1.007096,1.006995,1.0069715,1.0070869,1.007231,1.0073783,1.0075052,1.0075339,1.007422,1.0072784,1.007066,1.0068438,1.0066949,1.006614,1.0065778,1.0065789,1.006533,1.006426,1.0062596,1.0061002,1.0059764,1.0058749,1.0057783,1.0056818,1.0055747,1.0054188,1.0051844,1.0049067,1.0046123,1.0043178,1.0040641,1.0038599,1.0036314,1.0033741,1.0030906,1.0027719,1.0024202,1.0020512,1.0016544,1.0012612,1.0009668,1.0006571,1.0003023,0.9999525,0.9996313,0.99938226,0.9991357,0.9989577,0.9987923,0.99859,0.99822116,0.9976348,0.99705434,0.9964418
1.0101492,1.0114491,1.0124762,1.013216,1.0138133,1.0143555,1.0148761,1.0153563,1.0157986,1.0162089,1.0165899,1.0169504,1.0173092,1.0177103,1.0181532,1.0186136,1.0190742,1.0195204,1.01992,1.0202742,1.0206008,1.0209153,1.0212281,1.0215452,1.0218663,1.0221708,1.0224485,1.0227153,1.0229242,1.0230652,1.0231159,1.0230606,1.0229596,1.022937,1.0229535,1.0230243,1.0231096,1.0231395,1.0231125,1.0230865,1.023073,1.0231011,1.0231383,1.0232068,1.0233282,1.0234945,1.0236843,1.0238862,1.0240726,1.0242668,1.024482,1.0247637,1.0251405,1.0255942,1.0260788,1.0265505,1.0270175,1.0274615,1.0279007,1.0283601,1.0288503,1.0293735,1.0299243,1.0305252,1.0311766,1.0318348,1.0324414,1.0329592,1.0333886,1.0337498,1.0340858,1.0344417,1.0348206,1.0352167,1.0356,1.0359464,1.0362697,1.036582,1.0369015,1.0371808,1.037429,1.0376284,1.0377431,1.0377798,1.0377829,1.0376958,1.0375488,1.0373924,1.0372677,1.0371759,1.0370848,1.0369754,1.0368197,1.0365975,1.0363232,1.0360122,1.0356898,1.0353988,1.0351795,1.0350162,1.0349143,1.0347843,1.0345798,1.0342839,1.033891,1.0334322,1.0329585,1.0325096,1.0321071,1.0317187,1.0312972,1.030803,1.0302355,1.0296788,1.029099,1.0285898,1.0282961,1.0282695,1.0284278,1.0286485,1.0288707,1.0291051,1.0293148,1.0295503,1.0298765,1.0302851,1.0307204,1.0311637,1.0315766,1.0319325,1.0322883,1.0326605,1.0330381,1.0334201,1.0338078,1.0341789,1.0345511,1.0348668,1.0350826,1.0351819,1.0351624,1.0350411,1.0348756,1.0346718,1.0344582,1.0342734,1.0341392,1.0340601,1.0340233,1.0340106,1.034004,1.0340021,1.0340011,1.0340031,1.0340152,1.0340416,1.0340805,1.0341313,1.0341802,1.0342133,1.034215,1.0341775,1.0341103,1.0340397,1.033976,1.0339136,1.0338484,1.0337842,1.0337172,1.0336411,1.0335596,1.0334766,1.0333853,1.0332843,1.0331862,1.0330974,1.033009,1.0329096,1.032793,1.0326443,1.0324559,1.032237,1.0320064,1.0317887,1.031603,1.0314518,1.0313162,1.0311846,1.0310546,1.0309402,1.0308442,1.0307589,1.0306873,1.0306121,1.0305173,1.0304081,1.0302706,1.0300963,1.0298922,1.0296727,1.0294602,1.0292363,1.0290091,1.0287731,1.0285362,1.0283082,1.0280874,1.0278816,1.0276839,1.0274982,1.0273302,1.0271771,1.0270243,1.0268593,1.0266893,1.0264623,1.0261831,1.0258508,1.0254925,1.0251352,1.0247941,1.0244949,1.0242212,1.0239669,1.0237008,1.0234251,1.0231514,1.0228869,1.0226418,1.0224042,1.022171,1.0219264,1.0217184,1.0215299,1.0213139,1.0210803,1.0208378,1.0205352,1.0201734,1.0196792,1.019032,1.0182891,1.0175002,1.0166559,1.0157005,1.0147004,1.0136983,1.0127913,1.0120623,1.0115374,1.011215,1.0109935,1.0108266,1.0107186,1.0105839,1.0104339,1.0103495,1.0103304,1.0103974,1.0106072,1.0108616,1.0111586,1.0114576,1.0116293,1.0116053,1.0115156,1.0113304,1.0111103,1.0109603,1.0108829,1.0108596,1.0108886,1.0108715,1.0107954,1.0106529,1.0105112,1.0104094,1.0103307,1.0102503,1.010174,1.0100772,1.0099301,1.0097045,1.0094242,1.0091157,1.0088091,1.0085621,1.0083971,1.0082256,1.0080454,1.007837,1.0075781,1.0072777,1.0069572,1.0066059,1.0062616,1.0060086,1.0057379,1.0054193,1.0051026,1.0048195,1.0046129,1.0043955,1.0042462,1.0041125,1.0039494,1.0036224,1.0030696,1.0025187,1.0019192
1.0143579,1.0157576,1.0169024,1.0177819,1.0184042,1.0189431,1.0194434,1.0199006,1.0203214,1.0207138,1.0210857,1.0214458,1.021811,1.0222242,1.0226834,1.0231669,1.0236542,1.0241249,1.0245486,1.0249225,1.0252712,1.025609,1.0259466,1.0262935,1.0266497,1.0269892,1.0273004,1.0275993,1.0278329,1.0279907,1.028026,1.0279579,1.0279069,1.0279295,1.0279732,1.0280437,1.0280762,1.0280201,1.0278884,1.0277345,1.0275872,1.0273843,1.0272291,1.0272005,1.0273151,1.0275288,1.0277746,1.0280001,1.0281914,1.0283697,1.0285487,1.0287702,1.029068,1.0294392,1.02985,1.0302566,1.0306563,1.0310364,1.0314188,1.031833,1.0322921,1.0327961,1.0333369,1.0339316,1.0345802,1.0352275,1.0358102,1.0362972,1.036694,1.0370185,1.0373166,1.0376348,1.0379727,1.0383236,1.0386798,1.0390253,1.0393387,1.0396404,1.0399634,1.040267,1.0405371,1.0407405,1.0408471,1.0408729,1.0408604,1.0407847,1.0406761,1.0406005,1.0405906,1.0406291,1.0406747,1.0406973,1.040679,1.0405843,1.0404062,1.0401478,1.0398383,1.0395393,1.0393116,1.0391071,1.0389547,1.0388596,1.0387387,1.0385116,1.0381587,1.037703,1.037205,1.0367205,1.0362718,1.035804,1.0352468,1.0345622,1.0337617,1.032891,1.0320249,1.0313548,1.0310185,1.031042,1.0313079,1.0316417,1.0319605,1.0322777,1.0325422,1.0328109,1.0331535,1.0335637,1.0339906,1.0344198,1.0348179,1.035154,1.035461,1.0357792,1.0361389,1.0365539,1.0370165,1.0374978,1.037964,1.038328,1.0385728,1.0387037,1.0387164,1.0386271,1.0384921,1.0383179,1.0381242,1.0379705,1.0378696,1.0378131,1.0377982,1.0377988,1.0378016,1.0377989,1.037785,1.0377654,1.0377519,1.0377527,1.0377719,1.037809,1.0378513,1.0378852,1.0378922,1.0378568,1.0377829,1.0376997,1.0376137,1.0375236,1.0374324,1.0373456,1.0372618,1.0371742,1.0370815,1.0369887,1.0368841,1.0367566,1.0366302,1.0365193,1.036409,1.0362811,1.0361402,1.0359707,1.0357599,1.035517,1.0352585,1.0350108,1.0347977,1.0346267,1.0344727,1.0343294,1.034194,1.0340819,1.0339948,1.0339204,1.0338621,1.0338016,1.0337232,1.0336409,1.0335393,1.033406,1.0332428,1.0330591,1.0328758,1.0326738,1.0324628,1.032238,1.0320051,1.0317731,1.0315436,1.0313272,1.0311177,1.0309162,1.0307338,1.0305684,1.0304024,1.030225,1.0300469,1.0298147,1.0295295,1.0291889,1.028821,1.0284564,1.0281141,1.0278158,1.027547,1.0272994,1.0270363,1.0267572,1.0264732,1.0261899,1.0259206,1.0256582,1.0253973,1.0251286,1.0249057,1.0247141,1.0245061,1.0242879,1.0240707,1.0237834,1.02339,1.0228549,1.0221758,1.0214094,1.0205901,1.0196556,1.0186474,1.0175824,1.0164931,1.0154774,1.0146374,1.0140274,1.0136598,1.0134332,1.0133033,1.0132672,1.0132446,1.0132042,1.0131931,1.0132496,1.0133905,1.0136417,1.0139749,1.0143621,1.0147538,1.0150436,1.0151455,1.0151379,1.0150046,1.0147998,1.0146637,1.0146148,1.0146352,1.0147184,1.0147383,1.0147009,1.0146105,1.0145162,1.0144526,1.0143962,1.0143172,1.0142432,1.0141449,1.0139992,1.0137701,1.0134776,1.0131547,1.0128443,1.0126069,1.0124717,1.0123515,1.0122648,1.0121598,1.0119944,1.011783,1.011549,1.0112822,1.011028,1.0108573,1.0106534,1.0103927,1.0101265,1.0098803,1.0097063,1.0095341,1.0094298,1.0093377,1.0092199,1.0089381,1.0084248,1.0079117,1.0073314
1.0188961,1.0204401,1.0217057,1.0226921,1.0234013,1.0239582,1.0244234,1.0248126,1.0251606,1.0255035,1.0258646,1.0262444,1.0266613,1.0271537,1.0277128,1.0282621,1.028779,1.029282,1.0297343,1.0301249,1.0304881,1.0308349,1.031178,1.0315322,1.0318995,1.0322523,1.0325769,1.0328834,1.0331337,1.0333095,1.0333707,1.0333142,1.0332372,1.0332713,1.0333213,1.0334375,1.033504,1.0333922,1.0331281,1.0328048,1.0323943,1.0319347,1.0315621,1.0313998,1.0314691,1.0316982,1.0319905,1.0322695,1.0324829,1.0326502,1.0327904,1.0329614,1.0332012,1.0335069,1.0338519,1.0341951,1.0345349,1.0348605,1.0351985,1.035579,1.0360131,1.0365001,1.037032,1.0376182,1.0382539,1.0388823,1.0394366,1.039885,1.040236,1.0405078,1.0407486,1.0410061,1.041276,1.0415542,1.0418419,1.0421305,1.0424035,1.0426922,1.0430197,1.0433502,1.0436363,1.0438325,1.0439255,1.0439434,1.0439414,1.0438887,1.0438497,1.0438879,1.0440214,1.0442193,1.04443,1.0446136,1.0447145,1.0447315,1.044662,1.044508,1.0442386,1.04387,1.0435444,1.0432725,1.0431035,1.0430532,1.0430053,1.04284,1.0425154,1.042048,1.0415262,1.0409751,1.0404313,1.0398798,1.0392172,1.0383329,1.0372331,1.0360426,1.0349205,1.0340924,1.0337158,1.0338047,1.0341939,1.0346522,1.0350854,1.0354949,1.0358026,1.0360823,1.0364144,1.0367947,1.0371791,1.0375607,1.0379006,1.038162,1.0383828,1.0386143,1.038899,1.039262,1.0396984,1.0401721,1.0406871,1.0411588,1.0415184,1.0417321,1.0417871,1.0416999,1.041543,1.0413429,1.0411489,1.0410223,1.0409831,1.041024,1.0411153,1.0411977,1.0412555,1.0412743,1.041245,1.041189,1.041142,1.0411267,1.041151,1.0412166,1.041307,1.0413967,1.0414491,1.0414339,1.0413551,1.0412555,1.0411494,1.0410402,1.0409455,1.0408658,1.0407896,1.0407075,1.040617,1.0405233,1.0404165,1.040296,1.0401723,1.0400468,1.0399148,1.039777,1.0396286,1.0394537,1.0392282,1.0389577,1.0386589,1.0383661,1.0381197,1.0379329,1.0377672,1.0376165,1.0374773,1.0373641,1.037279,1.0372097,1.0371561,1.0370965,1.0370109,1.0369253,1.036829,1.0367117,1.036577,1.0364294,1.0362788,1.0361068,1.0359155,1.0357003,1.0354656,1.0352209,1.0349731,1.0347364,1.0345073,1.034289,1.0340972,1.0339288,1.0337517,1.0335447,1.0333292,1.033046,1.0327013,1.0323129,1.0319118,1.0315245,1.0311724,1.0308797,1.0306358,1.030416,1.0301621,1.0298637,1.0295312,1.0291817,1.0288483,1.0285347,1.0282247,1.0279188,1.0276837,1.0275168,1.0273731,1.0272365,1.0270565,1.0267792,1.0263898,1.0258636,1.0251925,1.0243983,1.0235012,1.0225074,1.021477,1.0203872,1.0192506,1.0181577,1.017223,1.0165253,1.0160973,1.0158477,1.0157566,1.0158147,1.0159273,1.0160451,1.0161564,1.016222,1.01629,1.016475,1.0167899,1.0172772,1.017855,1.0182991,1.0184705,1.0185295,1.0184631,1.0183133,1.0182295,1.01823,1.0183125,1.0184921,1.01861,1.0186498,1.0186366,1.0186069,1.0185938,1.0185704,1.0185068,1.0184432,1.0183342,1.018186,1.0179459,1.0176346,1.0172913,1.0169647,1.0167286,1.0166132,1.0165396,1.0165291,1.0165088,1.0164262,1.0162983,1.0161474,1.0159657,1.0158,1.0157057,1.0155892,1.0154154,1.0152211,1.0150456,1.0149407,1.014827,1.0147755,1.0147297,1.0146539,1.0144091,1.0139196,1.0134075,1.0128053
1.0231956,1.0249778,1.0264325,1.0275793,1.0284206,1.0290517,1.029534,1.0299008,1.0302112,1.0305285,1.0308907,1.0312927,1.0317487,1.0322931,1.032922,1.0335338,1.0340823,1.0345926,1.0350461,1.0354221,1.0357609,1.0360724,1.0363736,1.0366857,1.0370146,1.0373327,1.0376272,1.0379075,1.0381219,1.0382189,1.0381938,1.038093,1.0380052,1.0380341,1.0381093,1.0382512,1.0383239,1.0381365,1.0376543,1.0370109,1.0363103,1.0355383,1.0349518,1.0346928,1.0347695,1.0350714,1.0354512,1.0357981,1.0360534,1.0362439,1.0363877,1.0365454,1.0367577,1.037025,1.0373299,1.0376377,1.03795,1.0382562,1.0385785,1.0389423,1.0393544,1.0398114,1.0403064,1.0408425,1.0414143,1.0419661,1.0424368,1.0428029,1.0430801,1.0432882,1.0434723,1.0436814,1.0439055,1.0441359,1.044373,1.0446128,1.0448449,1.0451123,1.0454342,1.0457675,1.046076,1.0462985,1.0463938,1.0463936,1.0463673,1.0463197,1.0463259,1.0464438,1.0466778,1.046988,1.0473182,1.0476209,1.0478592,1.0480032,1.0480351,1.0479364,1.0476884,1.0473399,1.0470335,1.0467614,1.0466361,1.04668,1.0467477,1.0466801,1.046413,1.0459461,1.0452846,1.0446055,1.0439942,1.0434029,1.0426598,1.0416048,1.0402479,1.0387766,1.0374137,1.036438,1.036026,1.0361928,1.0367343,1.037349,1.0379074,1.038407,1.038753,1.0390246,1.0393182,1.0396411,1.0399561,1.0402639,1.0405209,1.0406847,1.0408046,1.0409381,1.0411334,1.041426,1.0418189,1.0422683,1.0427958,1.0433191,1.0437407,1.0440013,1.0440818,1.0440006,1.0438371,1.0436275,1.0434408,1.0433419,1.0433571,1.0434816,1.0436696,1.0438368,1.0439706,1.0440469,1.0440526,1.044019,1.0439943,1.0440067,1.0440654,1.0441757,1.0443146,1.0444566,1.0445595,1.0445836,1.0445282,1.0444431,1.0443497,1.0442588,1.0441976,1.0441606,1.044127,1.0440829,1.0440254,1.0439632,1.0438869,1.0438032,1.0437074,1.043587,1.0434434,1.0432935,1.0431299,1.0429412,1.0426948,1.0423975,1.0420628,1.0417298,1.0414522,1.0412445,1.0410593,1.040889,1.0407313,1.0406015,1.0405045,1.040427,1.0403612,1.0402825,1.0401728,1.0400689,1.0399635,1.0398469,1.0397227,1.0395901,1.0394514,1.0392866,1.0390973,1.0388803,1.0386386,1.0383801,1.0381148,1.0378538,1.0375916,1.0373396,1.0371184,1.0369172,1.0366929,1.0364211,1.0361328,1.0357685,1.0353329,1.0348538,1.0343688,1.0339158,1.0335248,1.0332128,1.0329661,1.0327417,1.032472,1.0321417,1.0317652,1.0313712,1.0310062,1.0306802,1.0303652,1.0300665,1.029854,1.0297253,1.0296336,1.029561,1.0294571,1.0292555,1.0289205,1.0284064,1.0276924,1.0268209,1.0258658,1.024874,1.0238678,1.0228282,1.0217228,1.0206051,1.0195898,1.0187836,1.0182543,1.0179594,1.0179067,1.0180941,1.018399,1.0187272,1.0189835,1.0190387,1.0190169,1.0190724,1.0192666,1.0197179,1.0203617,1.0209436,1.0212772,1.02142,1.0213892,1.0212388,1.0211658,1.0212168,1.0213872,1.0216792,1.0219257,1.0220895,1.0221971,1.0222896,1.0223858,1.0224483,1.022448,1.0224185,1.0223209,1.0221697,1.0219167,1.0215888,1.0212214,1.0208653,1.0206139,1.020501,1.0204525,1.0204964,1.0205551,1.0205469,1.0204799,1.0203987,1.0202712,1.0201582,1.0201151,1.0200659,1.0199606,1.019822,1.0197008,1.019649,1.0195739,1.0195558,1.0195339,1.0194703,1.0192266,1.0187247,1.018187,1.0175514
1.0268426,1.0290219,1.0307888,1.0322076,1.0332663,1.0340683,1.0346577,1.0350707,1.0353874,1.0356984,1.0360602,1.0364683,1.0369301,1.0374807,1.0381215,1.0387367,1.0392749,1.0397675,1.0401936,1.0405254,1.0408046,1.041043,1.0412631,1.0414937,1.0417459,1.0419899,1.0421945,1.042351,1.0424407,1.0424137,1.0422758,1.0421112,1.042022,1.0420485,1.0421417,1.0422614,1.042249,1.0418754,1.041091,1.0400591,1.0389411,1.0378537,1.0371037,1.0368342,1.0370085,1.0374584,1.0379844,1.03844,1.0387748,1.0390229,1.0392025,1.0393702,1.0395682,1.0398066,1.0400817,1.0403668,1.0406711,1.040979,1.0413022,1.041656,1.0420377,1.0424373,1.0428543,1.0432842,1.0437186,1.0441124,1.0444231,1.0446513,1.0448275,1.0449703,1.045114,1.0453119,1.0455405,1.045778,1.0460167,1.0462472,1.0464581,1.0467042,1.0470109,1.0473378,1.0476584,1.0478959,1.0479846,1.0479558,1.0478877,1.0478191,1.0478221,1.0479527,1.0482072,1.0485408,1.0489008,1.049242,1.0495521,1.049775,1.04988,1.0498278,1.0496235,1.0493616,1.0491687,1.0490234,1.0490582,1.0492954,1.0495496,1.0496063,1.0493722,1.0488572,1.0480992,1.0473406,1.046713,1.0461249,1.0453386,1.0441617,1.0426078,1.0408969,1.0393071,1.0381849,1.0377483,1.0380194,1.0387424,1.0395291,1.0402056,1.0407655,1.0411031,1.0413191,1.041533,1.041764,1.0419842,1.0422051,1.042372,1.0424386,1.0424662,1.0425174,1.0426435,1.0428863,1.0432526,1.0436968,1.0442334,1.0447776,1.0452254,1.0455067,1.0455953,1.045513,1.0453457,1.0451317,1.0449481,1.0448712,1.0449302,1.0451199,1.0453918,1.0456434,1.0458679,1.0460317,1.0461171,1.0461588,1.0462061,1.0462835,1.0463985,1.0465612,1.0467482,1.0469395,1.0470963,1.0471753,1.0471718,1.0471368,1.0470928,1.0470589,1.047066,1.047102,1.0471354,1.0471482,1.0471407,1.0471239,1.0470946,1.0470618,1.0470092,1.046912,1.0467703,1.0466092,1.0464292,1.0462248,1.0459628,1.0456488,1.045295,1.0449414,1.0446455,1.0444224,1.0442176,1.044013,1.0438173,1.0436506,1.0435165,1.0434017,1.0432992,1.04318,1.043015,1.0428545,1.0427043,1.0425577,1.0424142,1.0422673,1.0421178,1.0419451,1.041753,1.0415404,1.041302,1.0410366,1.0407538,1.0404708,1.0401788,1.0398893,1.0396216,1.0393591,1.0390562,1.0386958,1.0383192,1.037869,1.0373448,1.0367756,1.0362029,1.0356762,1.035233,1.0348822,1.0346034,1.0343409,1.0340235,1.033641,1.0332174,1.0327944,1.0324264,1.0321233,1.0318439,1.0315921,1.0314296,1.0313432,1.0312835,1.0312413,1.0311829,1.0310332,1.0307286,1.0302101,1.0294499,1.0285232,1.027557,1.0266027,1.0256629,1.0247347,1.0237391,1.0226648,1.0215952,1.0206609,1.0199852,1.0196052,1.019584,1.0199207,1.0204681,1.0210571,1.0214809,1.0215445,1.0214348,1.0213237,1.0213299,1.0216517,1.0222652,1.0229208,1.0233932,1.0236087,1.0235971,1.0234337,1.0233587,1.0234503,1.0236969,1.0240812,1.024441,1.0247366,1.0249853,1.0252328,1.0254719,1.0256479,1.0257379,1.0257752,1.0257337,1.0256171,1.0253758,1.0250434,1.024652,1.0242567,1.0239763,1.0238453,1.0237956,1.0238558,1.0239565,1.0239999,1.0239713,1.0239179,1.0238228,1.0237517,1.0237288,1.0237174,1.0236659,1.023574,1.0234983,1.0234901,1.0234407,1.0234467,1.0234401,1.0233854,1.0231323,1.0225916,1.022007,1.0213296
1.0295272,1.0323637,1.0346398,1.0364676,1.0378542,1.038883,1.0396276,1.0401325,1.0404904,1.0408067,1.0411528,1.0415337,1.0419631,1.0424614,1.0430257,1.0435659,1.0440496,1.0444995,1.0448747,1.0451419,1.0453417,1.0454888,1.0456119,1.045747,1.0459149,1.046078,1.0461559,1.0461571,1.0461087,1.0459876,1.045782,1.0455613,1.0454417,1.0454648,1.0455309,1.0455728,1.045391,1.0447289,1.0435803,1.0421426,1.0405385,1.0391924,1.0383521,1.0381532,1.0385027,1.0391653,1.0398895,1.0404959,1.0409374,1.0412555,1.0414761,1.0416589,1.0418472,1.0420585,1.0423007,1.0425563,1.0428425,1.0431359,1.0434356,1.0437437,1.0440443,1.0443225,1.0445898,1.0448358,1.0450492,1.0452107,1.04531,1.0453775,1.0454607,1.0455723,1.0457292,1.045986,1.0462973,1.0466208,1.046933,1.0472107,1.0474405,1.0476898,1.0479949,1.0483261,1.048645,1.0488667,1.0489286,1.048863,1.0487529,1.0486367,1.0485871,1.0486591,1.0488417,1.0490904,1.0493646,1.0496323,1.0498765,1.0500641,1.0501803,1.0501852,1.0500734,1.0499356,1.0499061,1.0499946,1.0503086,1.0508542,1.051397,1.0516622,1.051523,1.0510126,1.0503042,1.0495731,1.0489706,1.048399,1.0475836,1.046299,1.0445657,1.0426381,1.040846,1.0395917,1.0391448,1.0395296,1.0404277,1.0413659,1.042137,1.0427265,1.0430179,1.0431504,1.0432706,1.0434037,1.0435265,1.0436605,1.0437353,1.0437047,1.0436466,1.043633,1.0437164,1.043937,1.0443,1.0447628,1.0453377,1.0459398,1.0464556,1.0467975,1.046926,1.0468619,1.0467012,1.0464888,1.0463113,1.0462556,1.046355,1.0466061,1.0469571,1.0472901,1.0476031,1.0478563,1.0480237,1.048141,1.048257,1.0483896,1.0485476,1.0487459,1.0489647,1.0491909,1.0493884,1.0495139,1.0495629,1.0495837,1.0495989,1.049631,1.0497096,1.0498178,1.0499136,1.0499749,1.050009,1.0500267,1.0500357,1.0500377,1.0500085,1.0499219,1.0497804,1.0496114,1.0494194,1.0492038,1.0489343,1.0486146,1.0482568,1.0478984,1.0475914,1.0473533,1.0471287,1.0468897,1.046654,1.0464436,1.0462599,1.0460932,1.0459429,1.0457766,1.0455554,1.0453398,1.0451307,1.0449299,1.0447491,1.0445755,1.0444078,1.0442278,1.0440388,1.0438395,1.0436158,1.0433544,1.0430648,1.0427737,1.0424714,1.0421618,1.0418575,1.0415405,1.0411711,1.0407414,1.0403006,1.039794,1.0392158,1.0385973,1.0379758,1.0373995,1.0369103,1.036514,1.0361857,1.0358629,1.035471,1.0350093,1.0345174,1.0340505,1.0336709,1.0333841,1.0331345,1.0329173,1.0327833,1.0327082,1.0326422,1.0325854,1.0324993,1.0323219,1.031997,1.031466,1.0306995,1.0297773,1.0288377,1.0279384,1.0270954,1.0263107,1.0254645,1.0244672,1.0233624,1.0223043,1.0214642,1.0209683,1.0209618,1.0214446,1.022252,1.0231249,1.0237353,1.023838,1.0236554,1.0233884,1.0232193,1.023434,1.0240284,1.0247133,1.0252253,1.0254639,1.0254347,1.0252361,1.0251278,1.025202,1.0254533,1.0258656,1.0262783,1.0266578,1.0270114,1.0273824,1.027738,1.0280087,1.0281814,1.0282992,1.0283415,1.0282962,1.0280932,1.027769,1.0273589,1.0269248,1.0266113,1.0264472,1.026371,1.0264018,1.0264759,1.0265046,1.0264672,1.0264026,1.0263243,1.0262933,1.0263195,1.0263674,1.0263767,1.0263436,1.0263296,1.026382,1.026382,1.0264307,1.0264632,1.0264438,1.0262136,1.0256584,1.025001,1.0242286
1.0311632,1.0350158,1.0380051,1.040314,1.0419979,1.0431969,1.0440896,1.0447087,1.0451331,1.0454661,1.045783,1.0461053,1.0464602,1.046838,1.0472373,1.0476574,1.0480745,1.0484515,1.0487547,1.0489424,1.0490527,1.0491048,1.0491326,1.0491813,1.0492784,1.0493755,1.0493457,1.049283,1.0491792,1.0489995,1.0487268,1.048434,1.0482583,1.0482602,1.0482584,1.0481706,1.0477775,1.0468212,1.0452733,1.0433758,1.0414388,1.0399103,1.0390468,1.0389705,1.0395443,1.0404667,1.0414159,1.0421743,1.0427122,1.043089,1.0433433,1.0435412,1.0437267,1.0439181,1.044126,1.0443425,1.0445855,1.0448265,1.045052,1.0452504,1.0453957,1.0454737,1.045512,1.0454993,1.0454311,1.0453265,1.0452131,1.0451443,1.0451758,1.0453147,1.0455587,1.0459559,1.0464342,1.0469195,1.0473648,1.047737,1.0480227,1.0483015,1.0486243,1.0489612,1.0492744,1.0494806,1.0495162,1.0494127,1.0492543,1.0490797,1.0489538,1.0489242,1.0489712,1.0490496,1.0491395,1.0492297,1.0493001,1.0493525,1.0494018,1.0494244,1.0494158,1.0494547,1.049653,1.0500147,1.0506606,1.0515857,1.0525156,1.0531282,1.0532666,1.0529559,1.0523689,1.0517244,1.0511783,1.0506201,1.049752,1.0483413,1.0464315,1.0443158,1.04236,1.0410149,1.04057,1.0410414,1.0420649,1.0431063,1.0439336,1.0445324,1.0447825,1.0448482,1.0449018,1.0449708,1.045022,1.0450807,1.0450687,1.04494,1.0447965,1.0447257,1.0447828,1.0450034,1.0453882,1.0458953,1.046538,1.047236,1.0478714,1.048337,1.0485711,1.0485879,1.0484838,1.0483134,1.0481712,1.0481474,1.0482821,1.0485771,1.0489779,1.0493629,1.049736,1.0500534,1.0502777,1.0504401,1.0505854,1.0507283,1.0508845,1.051074,1.0512767,1.0514929,1.0516914,1.0518324,1.051912,1.051969,1.0520262,1.0521033,1.0522263,1.052377,1.0525091,1.052598,1.0526543,1.052683,1.0527055,1.0527065,1.0526628,1.0525594,1.0524056,1.0522258,1.052021,1.0517914,1.051512,1.0511888,1.0508351,1.0504807,1.0501666,1.0499101,1.049664,1.049406,1.0491484,1.0489073,1.0486876,1.048486,1.0482988,1.0480984,1.0478599,1.047642,1.0474136,1.0471767,1.0469671,1.0467734,1.0465922,1.0464065,1.0462183,1.046026,1.0458136,1.0455654,1.0452899,1.0450106,1.0447159,1.0444076,1.0440931,1.0437543,1.0433583,1.0429064,1.0424477,1.0419309,1.0413454,1.0407183,1.0400796,1.0394754,1.038948,1.0385033,1.0381117,1.0377095,1.037224,1.0366673,1.036095,1.0355718,1.0351641,1.034868,1.0346175,1.0343928,1.034234,1.0341084,1.0339704,1.0338376,1.0336838,1.0334522,1.0331018,1.0325651,1.0318041,1.0309038,1.0300117,1.0291891,1.0284591,1.0278296,1.0271332,1.0262024,1.0250628,1.0239019,1.0229086,1.022295,1.0222803,1.0228859,1.0239289,1.0250622,1.0258493,1.0260066,1.0257977,1.0254333,1.0251577,1.0253271,1.0259402,1.0266619,1.0271939,1.0274107,1.0272903,1.0269682,1.0267318,1.0266951,1.0268643,1.0272257,1.0276201,1.0280154,1.0284055,1.0288322,1.0292495,1.0295818,1.0298213,1.0300105,1.0301394,1.0301743,1.0300231,1.029725,1.0293158,1.0288618,1.0285239,1.0283252,1.028205,1.0281703,1.0281575,1.0280869,1.0279669,1.027864,1.027765,1.0277369,1.0278553,1.0280049,1.0280896,1.0281274,1.0281887,1.0283158,1.0284047,1.0285444,1.0286725,1.0287329,1.0285698,1.0280559,1.0273321,1.0264319
1.0321548,1.037408,1.0411706,1.0438511,1.0455012,1.0467397,1.0477948,1.0485349,1.0489902,1.0493104,1.0495901,1.0498506,1.0501051,1.0503621,1.0506454,1.0509567,1.0512745,1.0515661,1.051791,1.051901,1.0519302,1.0519011,1.0518522,1.0518382,1.0518842,1.0519296,1.0518544,1.0517619,1.0516303,1.0514222,1.0511012,1.0507412,1.0505109,1.0504769,1.0503882,1.0501549,1.0495458,1.0483277,1.0463973,1.0440359,1.0419149,1.0402913,1.0394657,1.0395558,1.0403757,1.0415535,1.0427086,1.043596,1.0442051,1.0446172,1.0448844,1.0450807,1.0452528,1.0454164,1.0455797,1.0457418,1.0459197,1.0460802,1.0462009,1.0462615,1.0462296,1.0460916,1.0458938,1.0456249,1.0452876,1.0449448,1.044658,1.044488,1.0444899,1.0446792,1.0450361,1.0455976,1.0462693,1.0469284,1.0475004,1.0479541,1.048276,1.0485635,1.0488762,1.049195,1.0494833,1.0496625,1.0496767,1.049554,1.0493755,1.0491768,1.0490103,1.0489101,1.0488421,1.0487607,1.0486636,1.0485637,1.0484228,1.0482988,1.0482445,1.0482571,1.0483315,1.0485271,1.0489366,1.0495656,1.0505401,1.0518422,1.0531654,1.0541475,1.0545988,1.0545306,1.0541216,1.053611,1.0531428,1.0525985,1.0516765,1.0501554,1.0481095,1.045855,1.0437837,1.0423825,1.0419468,1.0424782,1.0435779,1.0446677,1.0454953,1.0460578,1.0462388,1.0462264,1.0462183,1.0462396,1.0462404,1.0462484,1.0461724,1.0459671,1.0457616,1.0456543,1.0457013,1.0459346,1.0463479,1.0468998,1.0476094,1.0484011,1.0491617,1.0497656,1.0501261,1.0502495,1.0502264,1.0501173,1.0500247,1.050038,1.050202,1.0505232,1.0509479,1.0513587,1.051764,1.0521193,1.0523746,1.0525553,1.0527017,1.0528252,1.0529517,1.0531061,1.0532689,1.0534534,1.0536337,1.0537733,1.0538688,1.0539498,1.0540345,1.0541396,1.0542862,1.0544575,1.0546083,1.054712,1.054774,1.0547774,1.0547671,1.0547493,1.0547019,1.0545988,1.0544412,1.0542538,1.054042,1.0538039,1.0535126,1.0531865,1.0528456,1.0525136,1.0522213,1.0519811,1.0517445,1.0514851,1.051219,1.0509636,1.0507252,1.0505023,1.0502925,1.0500708,1.0498128,1.0495718,1.0493565,1.0491372,1.0489063,1.0486978,1.048507,1.0483153,1.0481265,1.0479381,1.047734,1.0475004,1.0472416,1.0469784,1.0467005,1.0464048,1.046093,1.0457474,1.0453453,1.0448945,1.0444412,1.0439392,1.043371,1.0427575,1.0421228,1.0415077,1.0409517,1.040463,1.0400085,1.0395273,1.0389509,1.0383058,1.0376606,1.037087,1.0366502,1.0363367,1.0360738,1.0358222,1.0356138,1.0354104,1.0351721,1.0349398,1.0347052,1.034411,1.0340397,1.0335071,1.0327644,1.0318977,1.0310578,1.0303118,1.0296876,1.0292033,1.0286512,1.0277957,1.0266323,1.0253713,1.0242352,1.0235056,1.023465,1.0241475,1.0253603,1.0266936,1.0276215,1.0278199,1.0275831,1.0271561,1.0268154,1.0269725,1.0276287,1.0283986,1.0289407,1.0291243,1.0288966,1.0284272,1.0280266,1.0278426,1.0279005,1.0281808,1.0285227,1.0288966,1.0292819,1.0297219,1.0301633,1.0305328,1.0308323,1.0310979,1.0313339,1.0314764,1.0314145,1.0311849,1.0308192,1.0303822,1.030048,1.0298264,1.0296607,1.0295415,1.0294139,1.029218,1.0289768,1.0287702,1.0285997,1.0285149,1.0286143,1.02882,1.0289956,1.0291098,1.0292401,1.0294337,1.0296233,1.029933,1.0302541,1.0304713,1.0304022,1.0299387,1.0292532,1.0283619
1.0311189,1.038049,1.0432513,1.0467517,1.0488083,1.0500474,1.0508169,1.0513983,1.0519614,1.0524249,1.0526909,1.0529017,1.0530651,1.053179,1.0533319,1.0535133,1.0536963,1.0538727,1.0539994,1.0540218,1.0539663,1.0538591,1.053742,1.053689,1.0536811,1.0536051,1.0535276,1.0534394,1.0533319,1.0531106,1.052757,1.0523875,1.0521526,1.0520935,1.0519813,1.051619,1.0508246,1.0493066,1.0469971,1.0443552,1.0421197,1.0404783,1.0397376,1.040005,1.0410393,1.0424075,1.043693,1.0446426,1.0452646,1.045664,1.0459087,1.0460807,1.0462247,1.0463452,1.0464413,1.0465176,1.0465832,1.0466051,1.046562,1.0464367,1.046205,1.0458676,1.0454912,1.0450643,1.044595,1.0441501,1.043824,1.0437081,1.0438409,1.0441833,1.0447025,1.045428,1.0462513,1.0470115,1.0476246,1.04808,1.0483747,1.0486147,1.0488673,1.0491273,1.049365,1.0495094,1.0495107,1.0493975,1.0492449,1.0490882,1.0489665,1.0488946,1.048811,1.0486559,1.0484312,1.0481553,1.0477957,1.0474544,1.04721,1.0470845,1.047101,1.0473247,1.0478159,1.0485742,1.0497193,1.051253,1.0528774,1.0542145,1.0550377,1.0553167,1.0552189,1.054978,1.0547057,1.0542705,1.0533789,1.0518365,1.0497488,1.0474477,1.045335,1.0439067,1.043453,1.0439663,1.0450335,1.046063,1.0468094,1.0472758,1.0473553,1.0472546,1.0471776,1.0471423,1.0470893,1.0470414,1.0469012,1.0466304,1.0463743,1.0462427,1.0462875,1.0465295,1.0469562,1.0475336,1.0482831,1.049146,1.0500226,1.0507727,1.0512841,1.0515499,1.0516472,1.051641,1.0516322,1.0517023,1.0518942,1.0522184,1.0526298,1.0530262,1.0534216,1.0537763,1.054033,1.0542083,1.0543344,1.0544212,1.0545032,1.05461,1.0547261,1.0548744,1.0550331,1.0551678,1.0552723,1.0553663,1.0554659,1.0555831,1.0557377,1.0559185,1.056084,1.0562077,1.0562932,1.0563254,1.0563223,1.0563046,1.0562577,1.0561559,1.0559969,1.0558052,1.0555906,1.0553544,1.0550799,1.0547745,1.0544493,1.0541296,1.0538476,1.0536132,1.0533832,1.053131,1.0528692,1.0526118,1.0523658,1.0521309,1.051904,1.0516658,1.0513942,1.0511408,1.0509229,1.0506973,1.050448,1.0502264,1.0500232,1.0498214,1.0496252,1.0494319,1.0492303,1.0490086,1.0487689,1.0485297,1.0482745,1.0479965,1.0476925,1.0473474,1.0469475,1.0465068,1.0460675,1.0455868,1.0450414,1.0444446,1.0438132,1.0431823,1.0425907,1.0420501,1.0415283,1.040971,1.0403173,1.0396041,1.0389094,1.0383043,1.0378442,1.0375102,1.0372193,1.0369167,1.0366299,1.0363215,1.0359635,1.0356209,1.0353091,1.0349705,1.0346099,1.0341263,1.0334451,1.0326419,1.0318712,1.0312059,1.0306836,1.030343,1.029942,1.0291831,1.0280342,1.0267141,1.0254604,1.0246257,1.0245361,1.0252379,1.0265467,1.0280097,1.0290303,1.0292563,1.0290043,1.0285313,1.0281372,1.0282705,1.0289297,1.0296938,1.0301985,1.0303111,1.0299579,1.0293412,1.0287961,1.0284953,1.0284729,1.0286996,1.0290096,1.0293747,1.0297602,1.030205,1.030657,1.0310514,1.0313989,1.0317392,1.0320871,1.0323558,1.0324165,1.0322956,1.0320143,1.0316306,1.0313199,1.0310793,1.0308523,1.0306208,1.0303397,1.0299771,1.0295835,1.0292525,1.0289948,1.0288503,1.0289387,1.0291731,1.0293972,1.0295665,1.0297551,1.0300139,1.0302973,1.0307531,1.0312762,1.0317216,1.0318568,1.0315411,1.0309513,1.0301198
1.0269265,1.0362821,1.0431607,1.0480313,1.0511144,1.0529985,1.0539606,1.0542555,1.0542419,1.0544082,1.0548646,1.0550199,1.0550382,1.0549686,1.0549275,1.0549672,1.055076,1.0552037,1.0552702,1.0552046,1.0550306,1.0547774,1.0545115,1.054282,1.0541117,1.0540076,1.0539789,1.0539533,1.0539042,1.0537295,1.0534405,1.0531557,1.0529759,1.0529177,1.0528502,1.052397,1.0514209,1.0496111,1.0469996,1.0442164,1.0419416,1.0403471,1.0397328,1.0401714,1.041367,1.0428417,1.0441635,1.045094,1.0456662,1.0460094,1.046209,1.0463479,1.0464604,1.0465317,1.0465429,1.0465033,1.0464106,1.0462382,1.045979,1.0456305,1.0451939,1.0446901,1.0441611,1.0436487,1.0431908,1.0428727,1.0427649,1.0429138,1.0433168,1.0439024,1.0446303,1.0455287,1.0464344,1.0472152,1.0478127,1.0482135,1.0484358,1.0485952,1.0487653,1.0489489,1.0491254,1.0492333,1.0492287,1.0491407,1.0490465,1.0489764,1.0489597,1.0489888,1.0489649,1.0487989,1.0484939,1.0480874,1.0475268,1.0469185,1.0463872,1.0459951,1.0457885,1.0458435,1.0462122,1.0469038,1.0480688,1.0497255,1.0515628,1.0532112,1.054447,1.0551751,1.0555255,1.0557072,1.0557721,1.055568,1.0548224,1.0533829,1.0513864,1.0491594,1.0471015,1.0456887,1.0451937,1.045604,1.0465194,1.0473714,1.0479388,1.0482359,1.0481791,1.0479879,1.0478587,1.04779,1.0477026,1.0476109,1.0474155,1.0470855,1.0467877,1.0466363,1.046674,1.046912,1.0473332,1.0479076,1.0486715,1.0495877,1.050577,1.05149,1.0521877,1.052644,1.0529113,1.0530559,1.05317,1.0533158,1.0535308,1.0538323,1.0541883,1.0545231,1.0548604,1.0551686,1.0553854,1.0555171,1.055587,1.0556026,1.055613,1.0556543,1.055711,1.0558193,1.0559561,1.0560822,1.0561867,1.0562799,1.0563724,1.0564759,1.0566125,1.0567801,1.0569459,1.0570829,1.057189,1.0572561,1.0572951,1.0573175,1.0572834,1.0571768,1.0570168,1.0568247,1.0566108,1.056377,1.0561141,1.0558252,1.0555172,1.0552132,1.054944,1.054719,1.054498,1.0542561,1.054003,1.0537488,1.0534998,1.053258,1.0530192,1.052772,1.0524979,1.0522332,1.0519702,1.0517035,1.0514481,1.0512154,1.0510007,1.0507882,1.050581,1.0503786,1.0501754,1.0499665,1.049753,1.0495454,1.0493262,1.0490831,1.0488058,1.0484828,1.048109,1.0477014,1.0472965,1.0468554,1.0463486,1.0457759,1.0451511,1.044503,1.0438673,1.0432711,1.0426869,1.0420647,1.041359,1.0406134,1.0399022,1.0392859,1.0388083,1.0384398,1.0380954,1.0377018,1.0372903,1.0368338,1.0363208,1.0358477,1.035459,1.0350916,1.0347825,1.0343993,1.0338327,1.0331372,1.0324602,1.0318842,1.0314672,1.031267,1.0310279,1.030396,1.029304,1.0279726,1.0266412,1.0257096,1.0255547,1.0262346,1.0275772,1.0291082,1.0301825,1.0304177,1.0301445,1.0296243,1.0291736,1.0292552,1.0298622,1.0305542,1.0309582,1.030956,1.0304543,1.0296826,1.0290077,1.028618,1.0285461,1.028752,1.0290526,1.0294154,1.0298023,1.0302341,1.0306699,1.031064,1.0314367,1.0318388,1.0322948,1.0326943,1.0329015,1.0329247,1.0327661,1.0324723,1.0322078,1.0319557,1.031653,1.0312805,1.0308065,1.0302353,1.0296524,1.029166,1.0287993,1.0285752,1.0286372,1.0288734,1.029109,1.0292956,1.0295041,1.0297914,1.0301445,1.030729,1.0314441,1.0321262,1.0325074,1.0324109,1.0319909,1.0312797
1.018929,1.0307485,1.0400655,1.0465336,1.0510988,1.0541656,1.0558944,1.0564635,1.056293,1.0560019,1.0560129,1.0561751,1.0561361,1.0559205,1.0556812,1.055546,1.0555395,1.055592,1.055598,1.0554688,1.0552222,1.054879,1.0544617,1.0540595,1.0537891,1.053679,1.0536674,1.0536742,1.0536635,1.0535402,1.0533234,1.0531135,1.0529714,1.0528911,1.0527937,1.0522683,1.0511159,1.0491118,1.0464127,1.0436709,1.0415184,1.0401063,1.0397028,1.0403284,1.0416356,1.0431242,1.0443807,1.0452033,1.0456538,1.0458839,1.0459917,1.0460587,1.0461068,1.0461015,1.0460062,1.0458349,1.0455704,1.045198,1.0447383,1.0442221,1.0436666,1.043103,1.0426166,1.0422571,1.0420759,1.0421441,1.0424758,1.0430394,1.0437696,1.0445707,1.0454389,1.0463985,1.0472965,1.0480313,1.048564,1.0488893,1.0490438,1.0491474,1.0492744,1.0494249,1.0495782,1.0496724,1.0496645,1.0495888,1.0495329,1.0495241,1.0495918,1.0497146,1.0497613,1.0496156,1.0492731,1.0487789,1.0480865,1.0472822,1.0464923,1.0457872,1.0452383,1.0449488,1.0449753,1.0453367,1.0462189,1.047688,1.0495222,1.051379,1.0529733,1.0541422,1.0549922,1.0556734,1.0561669,1.0562985,1.0558224,1.0546272,1.0528672,1.050846,1.048945,1.0476003,1.0470634,1.0473299,1.0480351,1.048659,1.0490139,1.0491166,1.0489104,1.0486188,1.0484276,1.0483197,1.0482066,1.0480962,1.0478889,1.0475636,1.0472925,1.0471771,1.047239,1.047475,1.0478674,1.0483932,1.0491023,1.0499829,1.0509832,1.051959,1.0527608,1.053349,1.0537503,1.0540253,1.0542495,1.0544567,1.0546714,1.054915,1.0551735,1.0554063,1.0556477,1.0558773,1.0560365,1.0561233,1.0561488,1.0561184,1.0560901,1.0561045,1.0561457,1.0562549,1.0564039,1.0565426,1.0566528,1.0567429,1.0568197,1.0568991,1.0570107,1.0571611,1.0573251,1.0574744,1.0575967,1.057684,1.0577505,1.0577972,1.0577842,1.057692,1.0575377,1.0573483,1.0571387,1.0569159,1.0566769,1.0564206,1.0561507,1.0558789,1.055625,1.0554106,1.0551984,1.0549664,1.0547209,1.0544693,1.0542183,1.0539675,1.05371,1.0534395,1.0531385,1.0528405,1.052541,1.052252,1.0519929,1.0517519,1.0515289,1.051308,1.0510902,1.0508734,1.0506591,1.05045,1.0502481,1.0500591,1.0498677,1.0496566,1.0494108,1.0491207,1.0487856,1.0484216,1.048058,1.0476588,1.047188,1.0466332,1.0460091,1.0453424,1.0446675,1.044029,1.0434078,1.0427531,1.0420349,1.0412991,1.0406091,1.0400125,1.0395427,1.0391597,1.0387806,1.0383146,1.0377984,1.0372131,1.0365646,1.0359836,1.0355399,1.0351658,1.034929,1.0346625,1.0342175,1.0336256,1.0330288,1.0325276,1.032203,1.0321441,1.0320901,1.0316346,1.0306646,1.02938,1.0280069,1.0269842,1.0267286,1.0273206,1.0286161,1.0301418,1.031224,1.031455,1.0311534,1.0305717,1.030031,1.029985,1.0304344,1.0309603,1.0312066,1.0310743,1.0304692,1.0296247,1.0289218,1.0285461,1.0285144,1.0287685,1.0291132,1.029516,1.0299424,1.0303885,1.0308263,1.0312293,1.0316269,1.032088,1.0326476,1.033182,1.0335515,1.0337412,1.0337296,1.0335448,1.0333362,1.0330768,1.0326982,1.0321839,1.0315152,1.030728,1.029938,1.0292687,1.0287585,1.0284171,1.0284117,1.0286075,1.028818,1.0289915,1.0291883,1.0294685,1.0298479,1.0304949,1.0313122,1.0321348,1.0326886,1.0327852,1.0325613,1.0320225
1.008848,1.0219752,1.0338688,1.042634,1.0487831,1.0532746,1.0561163,1.0575285,1.0579162,1.0576038,1.0570402,1.0568681,1.0567455,1.0564582,1.0560822,1.0557666,1.0555953,1.0555316,1.0554694,1.0553064,1.0550494,1.0546832,1.0541816,1.0537007,1.0534005,1.0532335,1.0531666,1.0531242,1.0530846,1.0529548,1.0527489,1.0525558,1.05241,1.0522761,1.0520693,1.0514493,1.0501566,1.0480883,1.0454886,1.0429457,1.0410614,1.0399433,1.0398003,1.040601,1.0419552,1.0433693,1.0444804,1.0451367,1.0454228,1.045505,1.0454856,1.0454433,1.0453906,1.0452784,1.0450624,1.0447588,1.0443362,1.0437953,1.0431967,1.0425918,1.0420227,1.0415707,1.0413532,1.0413842,1.0417111,1.0423229,1.0431608,1.0441391,1.0451527,1.0461031,1.0470215,1.0479307,1.048742,1.0493728,1.0498002,1.0500515,1.0501719,1.0502759,1.0504339,1.050627,1.0508196,1.0509343,1.05092,1.0508235,1.0507517,1.0507327,1.0508108,1.0509653,1.0510509,1.0509324,1.050591,1.0500567,1.0493016,1.0483925,1.0474265,1.0464633,1.0455861,1.0449119,1.0445089,1.0443773,1.044728,1.0457115,1.0472724,1.0491526,1.0510051,1.0525638,1.0538747,1.055042,1.05598,1.0564959,1.0563676,1.0555129,1.05409,1.0523701,1.0507064,1.049479,1.0489225,1.0490541,1.0495586,1.0499732,1.0501477,1.0500839,1.0497439,1.04935,1.0490737,1.0489011,1.0487561,1.048641,1.048459,1.048198,1.0480119,1.0479763,1.048084,1.0483147,1.0486577,1.0490985,1.049686,1.0504353,1.0513237,1.0522279,1.0530111,1.053632,1.0540936,1.0544481,1.0547447,1.054987,1.0551792,1.0553422,1.0554829,1.0555984,1.0557315,1.0558741,1.0559795,1.0560383,1.0560497,1.0560185,1.0560039,1.0560479,1.0561342,1.0562997,1.0565066,1.0566895,1.0568222,1.0569179,1.0569837,1.0570445,1.0571402,1.0572844,1.0574555,1.057621,1.0577581,1.057853,1.0579224,1.057966,1.0579662,1.0578936,1.0577463,1.0575609,1.0573574,1.0571501,1.056942,1.0567257,1.0564978,1.0562632,1.056035,1.0558352,1.0556308,1.055398,1.0551412,1.0548711,1.0545998,1.0543282,1.0540459,1.0537474,1.0534136,1.0530834,1.0527725,1.0524822,1.0522118,1.0519608,1.0517287,1.0514997,1.0512707,1.0510346,1.050797,1.0505685,1.0503533,1.0501599,1.0499759,1.0497825,1.0495648,1.049313,1.0490249,1.0487118,1.0483935,1.0480351,1.0475955,1.0470514,1.0464227,1.0457392,1.0450361,1.0443743,1.0437435,1.0430889,1.0423893,1.0416902,1.0410441,1.0404861,1.0400441,1.0396744,1.0392909,1.0387933,1.0382173,1.0375458,1.0368025,1.0361515,1.0356805,1.0353241,1.035171,1.0350261,1.0347002,1.0342014,1.0336733,1.033238,1.0329978,1.0330834,1.0332294,1.0329821,1.0321777,1.0309786,1.0295873,1.0284848,1.0281088,1.0285635,1.0297571,1.03123,1.03229,1.0325208,1.032203,1.0315495,1.0308825,1.0306258,1.0308117,1.0310912,1.0311453,1.0308897,1.0302582,1.0294588,1.0288596,1.0286218,1.0287263,1.0290934,1.0295296,1.0300106,1.0305076,1.0309947,1.0314516,1.0318646,1.0322719,1.0327697,1.0334002,1.0340407,1.034549,1.034885,1.0350021,1.0349104,1.0347418,1.034471,1.0340271,1.0333984,1.032573,1.0316024,1.0306215,1.0297675,1.0290893,1.0286014,1.0284874,1.0286026,1.0287621,1.0289104,1.0290866,1.0293493,1.0297223,1.0303631,1.0311784,1.0320249,1.0326498,1.0328801,1.0328588,1.0325391
0.99933285,1.0122201,1.0254769,1.0369794,1.0449384,1.050976,1.0551283,1.0574973,1.0584964,1.0586388,1.0582579,1.057466,1.0569851,1.0566089,1.0561758,1.0557561,1.055478,1.0553381,1.0552341,1.0550566,1.0548027,1.0544186,1.0538988,1.0533835,1.0530086,1.0527537,1.0525863,1.0524312,1.0522854,1.0520716,1.0518174,1.051605,1.0514379,1.0512452,1.0509415,1.0501988,1.0488164,1.046768,1.0443324,1.0420649,1.0404968,1.0396895,1.0397836,1.0407028,1.0420351,1.043319,1.0442576,1.0447485,1.0448849,1.0448354,1.044697,1.0445398,1.044369,1.0441352,1.043797,1.0433731,1.0428257,1.0421722,1.0415089,1.0408885,1.040411,1.0402374,1.0403955,1.0408895,1.0417421,1.0428536,1.0440991,1.0453619,1.046541,1.0475743,1.0484858,1.0493069,1.0499812,1.0504649,1.0507754,1.0509694,1.0510942,1.0512494,1.0514996,1.0517936,1.052072,1.0522306,1.0522058,1.0520599,1.0519204,1.0518173,1.0518206,1.0519273,1.0519962,1.0518875,1.0515693,1.051048,1.0502832,1.0493314,1.048286,1.0472099,1.0461637,1.0452336,1.0444965,1.0439308,1.0437517,1.04418,1.0452925,1.0469806,1.0489466,1.0508146,1.052481,1.0540419,1.0553632,1.056236,1.0564537,1.0559528,1.0548856,1.0534922,1.0520993,1.0510242,1.0504887,1.0505369,1.0509019,1.0511751,1.0512365,1.0510626,1.0506259,1.0501416,1.0497696,1.0495129,1.0493224,1.0491931,1.0490341,1.0488373,1.048731,1.0487632,1.0489025,1.0491171,1.0494053,1.0497558,1.050205,1.050788,1.0515075,1.0522718,1.0529698,1.0535644,1.0540388,1.0544347,1.0547724,1.0550293,1.0551915,1.0552771,1.0553132,1.0553322,1.0553766,1.05545,1.0555158,1.0555568,1.0555644,1.0555459,1.0555613,1.055651,1.0558,1.0560384,1.0563157,1.056551,1.0567107,1.0568142,1.05687,1.056916,1.0570025,1.057149,1.0573345,1.0575197,1.0576713,1.0577731,1.0578463,1.0578907,1.0578899,1.0578153,1.0576668,1.0574828,1.0572834,1.0570842,1.0568924,1.056699,1.0564938,1.0562856,1.0560906,1.0559087,1.0557101,1.0554659,1.0551813,1.0548737,1.0545653,1.0542645,1.053962,1.0536513,1.0533128,1.0529772,1.0526544,1.0523467,1.052058,1.0517898,1.0515431,1.0513024,1.05106,1.0508016,1.0505348,1.0502751,1.0500307,1.0498167,1.0496256,1.0494407,1.0492513,1.0490469,1.0488207,1.0485743,1.0483147,1.0480094,1.0476123,1.0470903,1.0464702,1.0457863,1.0450742,1.0444064,1.0437803,1.0431365,1.0424566,1.0417879,1.0411756,1.0406464,1.0402274,1.039876,1.0394976,1.0389868,1.0383731,1.0376364,1.0368178,1.0361156,1.035631,1.0353053,1.0352447,1.0352309,1.0350368,1.0346463,1.0342005,1.0338418,1.0336905,1.033913,1.0342429,1.0341897,1.0335433,1.0324296,1.0310292,1.0298625,1.0293758,1.0296936,1.0307851,1.032206,1.0332477,1.0334967,1.033186,1.0324607,1.0316496,1.0311424,1.0310206,1.0310364,1.0309147,1.0305763,1.0299981,1.0293427,1.028941,1.0289092,1.0291829,1.0296645,1.0301824,1.0307245,1.0312716,1.0317786,1.0322286,1.0326126,1.032978,1.0334558,1.034091,1.0347683,1.035347,1.0357645,1.0359542,1.0359132,1.0357578,1.0354729,1.0349847,1.0342875,1.033368,1.0322746,1.0311465,1.0301309,1.0292811,1.0286312,1.028375,1.0283743,1.0284605,1.0285771,1.0287404,1.0289993,1.0293677,1.0299824,1.0307486,1.0315546,1.0321869,1.0325065,1.0326815,1.0326033
0.99139285,1.0032536,1.0164636,1.029121,1.0396347,1.0473113,1.0529134,1.0563705,1.0580362,1.0585396,1.0583696,1.0577154,1.0566788,1.0560597,1.0556235,1.0552306,1.0549314,1.0547626,1.054642,1.0544642,1.0542233,1.0538857,1.0534059,1.0528789,1.0524406,1.0520936,1.0518024,1.0514903,1.0511792,1.0508137,1.0504463,1.0501633,1.0499406,1.0496695,1.0492599,1.0484047,1.0469501,1.0449483,1.0427138,1.0407526,1.0395129,1.0390046,1.03931,1.0403137,1.041605,1.0427661,1.0435644,1.0439395,1.0439801,1.0438435,1.0436131,1.0433433,1.04304,1.0426707,1.0422115,1.04169,1.0410709,1.0403926,1.0397477,1.0392424,1.0390259,1.039227,1.0398042,1.0407418,1.0419636,1.0433681,1.0448309,1.0462148,1.0474122,1.048388,1.0491927,1.0498632,1.0503738,1.0507149,1.0509361,1.0511123,1.0512836,1.0515301,1.0519059,1.0523272,1.0527072,1.0529189,1.0528837,1.0526702,1.0524275,1.0521822,1.0520272,1.0519905,1.0519593,1.0518091,1.0515035,1.0510248,1.0503237,1.0494587,1.0485128,1.0475287,1.0465314,1.0455608,1.0446626,1.0438534,1.0433037,1.0432346,1.0438678,1.0452268,1.0470724,1.0490537,1.0509216,1.0527173,1.0542966,1.0554352,1.0559309,1.0557315,1.0549741,1.0538697,1.0527303,1.0518224,1.0513624,1.0514157,1.0517492,1.0519884,1.0520258,1.0518111,1.0513184,1.0507555,1.0502794,1.0499195,1.049662,1.0495,1.0493433,1.049189,1.0491425,1.0492268,1.0493951,1.0496082,1.0498599,1.0501382,1.0504627,1.0508775,1.0514101,1.0520043,1.0525779,1.0531032,1.0535496,1.0539436,1.0542823,1.0545261,1.0546501,1.054674,1.0546417,1.054607,1.0546079,1.0546505,1.0547051,1.0547452,1.0547564,1.0547513,1.0547907,1.0549116,1.0551014,1.0553861,1.0557046,1.0559664,1.0561339,1.0562291,1.0562648,1.0562892,1.0563657,1.0565166,1.0567193,1.0569279,1.057097,1.057209,1.0572879,1.057334,1.0573323,1.0572541,1.0570993,1.0569109,1.0567098,1.0565145,1.0563362,1.0561626,1.055981,1.0557948,1.0556145,1.0554401,1.0552447,1.0549989,1.0547063,1.0543864,1.0540636,1.0537484,1.0534315,1.0531094,1.0527639,1.0524192,1.0520817,1.0517547,1.0514436,1.0511522,1.0508863,1.0506308,1.050374,1.0500948,1.0497997,1.0495064,1.0492258,1.0489813,1.0487736,1.048589,1.0484258,1.0482738,1.0481194,1.0479517,1.0477628,1.047524,1.0471847,1.0467088,1.0461291,1.045481,1.0447948,1.0441452,1.043532,1.042891,1.0422053,1.0415308,1.0409167,1.04039,1.0399827,1.0396485,1.0392861,1.0387818,1.0381556,1.0373776,1.0365019,1.0357587,1.0352634,1.0349617,1.034981,1.035084,1.0350118,1.0347257,1.0343652,1.0340793,1.0340078,1.0343438,1.034819,1.0349207,1.0344002,1.0333474,1.0319316,1.0307038,1.0301125,1.0303092,1.0313193,1.0327108,1.0337571,1.0340419,1.0337483,1.032949,1.0319879,1.0312344,1.0308253,1.0306212,1.0304058,1.030082,1.0296612,1.0292518,1.0291128,1.0293024,1.0297178,1.0302539,1.030787,1.031332,1.0318778,1.032368,1.0327771,1.0330932,1.0333743,1.033778,1.0343618,1.0350108,1.0355897,1.0360227,1.0362312,1.0362047,1.0360503,1.0357618,1.0352676,1.0345588,1.0336161,1.0324707,1.0312462,1.030093,1.0290732,1.0282369,1.0277963,1.0276353,1.0276147,1.0276871,1.0278478,1.0281276,1.0285141,1.0291189,1.0298308,1.0305598,1.0311396,1.0314815,1.031785,1.0319185
0.9840362,0.9942418,1.0064765,1.0196463,1.0322696,1.0424004,1.0497603,1.0544152,1.0569706,1.0580472,1.0581033,1.0575016,1.0564947,1.0553794,1.0547743,1.0544965,1.0542617,1.0540905,1.0539601,1.0537887,1.053575,1.0532753,1.0528672,1.0523794,1.0518924,1.0514569,1.0510228,1.0505211,1.049995,1.0494204,1.0488815,1.048475,1.0481501,1.0477631,1.0472128,1.0462248,1.0446961,1.0427699,1.0407882,1.0391848,1.0383182,1.0381444,1.0386732,1.0397711,1.041034,1.0420904,1.0427723,1.043055,1.043021,1.0428083,1.0424762,1.0420672,1.0415959,1.04106,1.0404683,1.0398567,1.0391957,1.0385379,1.0379899,1.0377209,1.0378926,1.0385537,1.0396042,1.0408967,1.0424376,1.0440671,1.0456227,1.0469822,1.0480748,1.0488989,1.0495288,1.0500041,1.0503278,1.0505245,1.0506706,1.0508511,1.0510955,1.0514573,1.0519801,1.0525477,1.0530415,1.0533166,1.0532382,1.0528381,1.0524582,1.0521209,1.051786,1.0515401,1.0513539,1.0511324,1.0508361,1.0504253,1.0498459,1.0491631,1.048451,1.0477173,1.0469327,1.046072,1.0451286,1.0441098,1.0432423,1.0427094,1.0428185,1.043745,1.0453402,1.0472524,1.0492433,1.0511875,1.0529504,1.0542929,1.0550091,1.0550587,1.0545716,1.0537252,1.0528297,1.0521089,1.0517745,1.0519128,1.0523133,1.0526153,1.0527172,1.0525262,1.0520146,1.051378,1.0507708,1.0502656,1.0499029,1.0496752,1.049501,1.0493824,1.0493926,1.0495356,1.0497578,1.050005,1.0502508,1.0504797,1.0506816,1.0509105,1.0512159,1.0515859,1.0519809,1.0523828,1.0527539,1.0531017,1.0533996,1.0536001,1.0536711,1.0536346,1.0535518,1.0534894,1.0534769,1.0535228,1.0536026,1.0536764,1.0537217,1.053757,1.0538374,1.053996,1.0542268,1.0545466,1.0548892,1.05516,1.055319,1.0553925,1.0554006,1.0554005,1.0554695,1.0556332,1.0558648,1.0561086,1.056306,1.0564365,1.0565302,1.0565853,1.0565879,1.0565083,1.0563478,1.0561526,1.0559475,1.055752,1.0555835,1.0554272,1.055268,1.0551062,1.0549457,1.0547858,1.0546021,1.0543633,1.0540712,1.0537463,1.0534174,1.053096,1.052773,1.0524476,1.0521015,1.0517526,1.0514028,1.0510552,1.0507176,1.0503963,1.0501033,1.049828,1.0495541,1.0492535,1.0489297,1.048599,1.0482734,1.0479903,1.0477524,1.0475576,1.0474123,1.0473061,1.0472188,1.0471287,1.0470098,1.046839,1.046562,1.046144,1.0456219,1.0450314,1.044396,1.0437801,1.0431811,1.0425348,1.0418184,1.0411066,1.040467,1.0399362,1.0395492,1.0392596,1.0389476,1.0384935,1.0378962,1.0371072,1.0361929,1.035415,1.0348957,1.0346043,1.0346757,1.0348636,1.0348881,1.034692,1.0344105,1.0342002,1.0342075,1.0346525,1.0352585,1.0354917,1.0350733,1.034061,1.0326097,1.0313053,1.0305967,1.0306611,1.0315925,1.0329657,1.0340302,1.0343778,1.0341189,1.0332557,1.0321535,1.0311564,1.0304661,1.0300701,1.0298121,1.0295708,1.029389,1.0293038,1.0294814,1.0299125,1.0304554,1.0310093,1.0315206,1.0320481,1.0325699,1.0330386,1.0334119,1.033655,1.033833,1.0341371,1.0346318,1.0352128,1.0357457,1.0361505,1.0363419,1.0363026,1.0361367,1.0358522,1.0353814,1.034713,1.0338128,1.032675,1.0313973,1.0301346,1.0289423,1.0279068,1.0272558,1.0269024,1.0267516,1.026773,1.0269377,1.0272543,1.0276728,1.0282642,1.0288975,1.0295036,1.0299692,1.0302756,1.0306758,1.031008
0.97840595,0.9864596,0.9970225,1.0096049,1.0224936,1.0352046,1.044985,1.0513767,1.055155,1.0570456,1.0574791,1.0570219,1.0561423,1.0549182,1.0539528,1.0535297,1.0534277,1.0533338,1.0532062,1.0530354,1.0528302,1.052551,1.0521996,1.0517566,1.051244,1.0507257,1.0501574,1.0494809,1.0487713,1.0480437,1.0474142,1.0469754,1.0466344,1.0461994,1.0455577,1.0444639,1.0428646,1.0409901,1.0392133,1.0379003,1.0373195,1.0373809,1.0380256,1.0391107,1.0402645,1.0411756,1.0417395,1.0419674,1.0419234,1.0417142,1.0413636,1.0408792,1.0402713,1.0395687,1.038824,1.0380962,1.0373858,1.0367196,1.0363199,1.0363872,1.0370156,1.0381669,1.0396314,1.0412362,1.0429735,1.0446324,1.046051,1.0471729,1.048007,1.0485892,1.0490063,1.0492952,1.0494587,1.0495269,1.0495863,1.0497272,1.0499744,1.0503652,1.0509355,1.0515536,1.0520828,1.0523627,1.0522767,1.0518744,1.0513933,1.0508559,1.050336,1.0499415,1.0496583,1.0494146,1.0491678,1.0488598,1.0484422,1.048006,1.0476241,1.0472755,1.0468731,1.0463103,1.0455061,1.0444542,1.0433731,1.0425148,1.0421643,1.0425744,1.0437641,1.0454335,1.0473787,1.0493541,1.0512422,1.052771,1.0537088,1.0540068,1.0537735,1.05316,1.0524857,1.0519397,1.0517378,1.0519855,1.0524882,1.052893,1.0530953,1.0529592,1.0524458,1.051749,1.0510249,1.0503849,1.0499247,1.0496366,1.0494375,1.0493331,1.0493453,1.0495121,1.0497973,1.0500672,1.0502264,1.0503988,1.0505091,1.0505998,1.0507381,1.0509481,1.0512196,1.0515391,1.0518527,1.0521588,1.0524173,1.0525802,1.052619,1.0525575,1.0524598,1.0523891,1.0523741,1.0524223,1.0525115,1.0525937,1.0526421,1.0526811,1.0527651,1.052921,1.0531558,1.053484,1.0538366,1.0541154,1.054275,1.0543375,1.0543259,1.054307,1.0543673,1.0545387,1.0547951,1.0550737,1.0553062,1.0554692,1.0555961,1.0556834,1.055716,1.0556622,1.0555208,1.0553391,1.055145,1.05496,1.0548048,1.0546637,1.0545201,1.0543721,1.0542214,1.0540679,1.0538902,1.0536559,1.0533664,1.0530424,1.0527129,1.0523908,1.0520666,1.0517412,1.0513988,1.0510485,1.050687,1.0503148,1.0499405,1.0495771,1.0492461,1.0489365,1.0486332,1.0483015,1.047941,1.047567,1.0471926,1.0468683,1.0465969,1.0463862,1.046251,1.04618,1.0461462,1.0461174,1.0460539,1.0459319,1.0456989,1.0453229,1.0448475,1.0443102,1.0437258,1.043144,1.0425594,1.0419029,1.0411507,1.040398,1.0397325,1.0392003,1.0388436,1.0386101,1.0383639,1.0379801,1.0374327,1.0366544,1.035722,1.0349267,1.0344,1.0341345,1.0342731,1.0345628,1.0346985,1.0345986,1.0343878,1.0342236,1.0342693,1.0347652,1.0354369,1.0357481,1.0353973,1.0344081,1.0329314,1.0315703,1.0307698,1.0307354,1.0316181,1.0329964,1.0340966,1.0345137,1.0342803,1.033351,1.0321158,1.0309194,1.0300298,1.0295436,1.0293517,1.0292863,1.0294065,1.0296757,1.0301638,1.0308002,1.0314128,1.0319135,1.0323385,1.032783,1.0332212,1.0336177,1.0339091,1.034034,1.0340631,1.0342171,1.0345783,1.0350447,1.0354912,1.035837,1.0359902,1.0359285,1.0357586,1.0354991,1.0350891,1.0345198,1.0337389,1.0326962,1.0314573,1.0301732,1.028887,1.0277147,1.0268898,1.026355,1.0260589,1.0259961,1.0261354,1.0264766,1.0269265,1.027529,1.0281271,1.0286531,1.0290265,1.0292807,1.0297129,1.0301605
0.97453135,0.9803041,0.9887347,0.9998058,1.0124418,1.02633,1.038918,1.0475166,1.0526834,1.0556332,1.05657,1.0562518,1.0554676,1.0543838,1.0532606,1.052608,1.0524521,1.0524106,1.0523355,1.05213,1.0519023,1.0516391,1.051329,1.0509368,1.0504465,1.0498743,1.0492098,1.0484016,1.0475886,1.046809,1.0461801,1.0457997,1.0455468,1.0451322,1.0444458,1.0432652,1.0415858,1.0397238,1.0380865,1.036984,1.036603,1.0368106,1.0374877,1.0384827,1.0394716,1.0402126,1.0406646,1.0408735,1.0408764,1.0407387,1.040443,1.0399387,1.0392187,1.0383462,1.0374253,1.0365536,1.0357766,1.0351361,1.0349374,1.0353837,1.0364745,1.0380495,1.0398002,1.0416052,1.0433772,1.044882,1.0459793,1.0467098,1.0471988,1.0475125,1.0477405,1.0479066,1.0479841,1.0479794,1.0479665,1.0480328,1.04821,1.0485346,1.0490406,1.0496044,1.0500917,1.0503417,1.050256,1.0498872,1.0493715,1.0487343,1.0481322,1.0476825,1.0473771,1.0471573,1.046979,1.0467764,1.0465121,1.0463133,1.0462658,1.0463314,1.046376,1.046215,1.0456771,1.0447457,1.0436211,1.0425541,1.041867,1.0418383,1.04255,1.0438423,1.045553,1.0474579,1.0494311,1.0511358,1.0522927,1.0528278,1.052813,1.0523841,1.0518806,1.0514712,1.0513871,1.05175,1.0523729,1.052905,1.0532296,1.0531621,1.0526859,1.0519428,1.0510976,1.0503303,1.0497823,1.049439,1.0492132,1.0490861,1.0491316,1.0494009,1.0497599,1.0499921,1.0500543,1.0500784,1.0500875,1.0500839,1.0501192,1.0502309,1.050423,1.0506899,1.0509973,1.0513196,1.0515935,1.0517538,1.0517608,1.051642,1.0514915,1.0514342,1.0514197,1.0514605,1.0515364,1.0515966,1.0516146,1.0516213,1.0516733,1.0517921,1.0519911,1.0522962,1.0526392,1.0529189,1.0530815,1.0531365,1.0531064,1.0530657,1.0531058,1.0532682,1.0535339,1.0538383,1.0541067,1.0543145,1.0544944,1.0546412,1.0547357,1.0547395,1.054646,1.0545008,1.0543321,1.0541675,1.0540278,1.0538993,1.0537648,1.0536213,1.0534723,1.0533195,1.0531454,1.0529195,1.0526421,1.052332,1.0520153,1.0517035,1.0513884,1.0510726,1.0507426,1.0504005,1.0500352,1.0496424,1.0492305,1.048821,1.0484464,1.0480969,1.0477583,1.0473914,1.0469913,1.0465722,1.0461497,1.0457845,1.0454799,1.0452474,1.0451095,1.0450528,1.0450444,1.0450482,1.0450158,1.0449198,1.0447106,1.0443623,1.0439222,1.0434313,1.0428973,1.0423517,1.0417854,1.041122,1.0403373,1.0395491,1.0388658,1.0383441,1.0380318,1.0378696,1.0377053,1.0374097,1.0369312,1.0361851,1.0352566,1.0344577,1.0339315,1.0336941,1.0338951,1.0342784,1.0345192,1.0345105,1.0343564,1.0342059,1.0342497,1.0347455,1.0354301,1.0357784,1.0354663,1.0344878,1.0330043,1.0316141,1.0307562,1.0306616,1.0315273,1.0329331,1.0340776,1.0345464,1.0343469,1.0333552,1.0320032,1.0306661,1.0296719,1.0291963,1.0291563,1.029316,1.0297352,1.0303118,1.0310314,1.0317812,1.0323793,1.0327632,1.0330579,1.0333872,1.0337263,1.0340493,1.0342624,1.0342712,1.0341475,1.0341392,1.0343515,1.0346814,1.0350275,1.035306,1.0354166,1.0353353,1.0351701,1.0349494,1.034625,1.0341928,1.0335846,1.0327098,1.0315971,1.0303832,1.0290977,1.027875,1.026938,1.0262566,1.0258121,1.0256284,1.0256984,1.0260229,1.0264773,1.0270891,1.0276835,1.0281715,1.0284817,1.0286784,1.0290806,1.0295534
0.9722817,0.97600126,0.98229825,0.991498,1.003216,1.0167648,1.0313247,1.0423194,1.0492791,1.0535215,1.055305,1.0553249,1.0546992,1.0537348,1.0526694,1.0518374,1.051445,1.0513654,1.0512724,1.0510683,1.0508113,1.0505452,1.0502721,1.0499567,1.049535,1.0489508,1.0482483,1.0473921,1.0465686,1.0458384,1.0453041,1.0450242,1.0448409,1.0444491,1.0437086,1.042424,1.0406427,1.0387657,1.0372332,1.0363023,1.0360788,1.0363925,1.0370734,1.0379609,1.038785,1.0393763,1.0397489,1.0399737,1.0400586,1.0400212,1.039795,1.0392692,1.0384228,1.0373642,1.0362638,1.0352616,1.0344455,1.0339295,1.033997,1.0347924,1.0362272,1.0380601,1.039993,1.041877,1.043538,1.0447166,1.0453933,1.0457363,1.0459186,1.04604,1.0461768,1.0463374,1.0464373,1.0464408,1.0463953,1.0463792,1.0464447,1.0466456,1.0470252,1.0474825,1.0478946,1.0481102,1.0480256,1.0476675,1.0471714,1.046567,1.0459906,1.045567,1.0452986,1.0451291,1.0450118,1.0448797,1.0447056,1.0446502,1.0448172,1.0451689,1.0455515,1.0457492,1.0455508,1.044898,1.0438483,1.0426615,1.0417762,1.0414591,1.0417473,1.0426192,1.043963,1.0456734,1.0476208,1.0494192,1.0507468,1.0514903,1.0516711,1.0514078,1.0510566,1.050775,1.0508143,1.0513096,1.052074,1.0527488,1.0532004,1.0532207,1.0528326,1.0520742,1.0510923,1.0501733,1.0495512,1.0491769,1.0489234,1.0488484,1.0490361,1.0494167,1.0497711,1.0499306,1.0499243,1.0498016,1.0496936,1.0496056,1.0495696,1.0496325,1.0498235,1.0501254,1.050472,1.0508337,1.0511339,1.051295,1.0512686,1.051075,1.0508258,1.0506989,1.0506182,1.050599,1.0506272,1.0506449,1.0506153,1.050567,1.0505562,1.0506034,1.0507512,1.0510314,1.0513699,1.051658,1.0518324,1.051887,1.0518417,1.0517745,1.0517776,1.0519034,1.0521445,1.0524414,1.0527215,1.0529606,1.0531859,1.0533938,1.0535576,1.0536284,1.0535913,1.0534875,1.0533444,1.0531948,1.05306,1.0529306,1.0527899,1.0526358,1.0524755,1.0523143,1.0521395,1.0519221,1.0516618,1.051374,1.0510793,1.0507847,1.0504847,1.0501857,1.0498769,1.0495563,1.0492067,1.0488162,1.0483909,1.0479589,1.0475626,1.0471933,1.0468366,1.0464482,1.0460188,1.045562,1.0450993,1.0447006,1.0443689,1.0441147,1.0439622,1.0438954,1.0438774,1.043874,1.0438445,1.0437579,1.0435688,1.0432541,1.0428576,1.0424162,1.0419337,1.0414293,1.0408924,1.0402386,1.0394459,1.0386488,1.0379729,1.0374844,1.0372365,1.0371637,1.0370978,1.0369077,1.0365179,1.0358279,1.0349268,1.0341396,1.0336218,1.033405,1.0336393,1.034099,1.034423,1.0344732,1.0343711,1.0342482,1.0343062,1.0347941,1.035446,1.0357752,1.0354729,1.0345017,1.0329993,1.0315957,1.0306993,1.0305607,1.0314114,1.0328351,1.033994,1.0344486,1.0342808,1.0332644,1.0318418,1.0304446,1.0294483,1.0290561,1.0291849,1.0295305,1.0301273,1.0308434,1.0316225,1.0323626,1.0328891,1.0331384,1.0333049,1.0335281,1.0337815,1.0340607,1.0342451,1.0341961,1.0339735,1.0338473,1.0339427,1.0341642,1.0344353,1.0346698,1.0347571,1.0346681,1.0345093,1.0343242,1.0340731,1.0337715,1.0333437,1.0326667,1.0317382,1.030674,1.0294855,1.0283157,1.0273583,1.0265961,1.0260234,1.0256891,1.025627,1.0258579,1.0262501,1.0268261,1.0274112,1.0278935,1.0281854,1.0283537,1.0287158,1.0291667
0.9716642,0.9737183,0.97805023,0.98528135,0.99489707,1.0073967,1.0222521,1.0354592,1.044714,1.0504044,1.0535333,1.0543112,1.0540588,1.0531926,1.0521767,1.051234,1.0506105,1.0503719,1.050163,1.0499799,1.0497317,1.0494612,1.0492213,1.0489882,1.0486449,1.0480903,1.047396,1.0465734,1.0458169,1.0452158,1.0448583,1.0447024,1.0445182,1.0440985,1.0432767,1.0418527,1.0399449,1.0380385,1.0365996,1.0358286,1.0357435,1.0361409,1.0368137,1.037592,1.0382648,1.0387375,1.0390682,1.0393353,1.0395188,1.039581,1.0394027,1.0388236,1.037822,1.0365689,1.0353154,1.0342408,1.033465,1.0331601,1.0335312,1.0346093,1.0362427,1.0382032,1.0402539,1.0421355,1.0435842,1.0443423,1.0445702,1.0445855,1.0445706,1.0446141,1.0447707,1.0450284,1.0452573,1.0453429,1.0452951,1.045207,1.0451502,1.0452037,1.0454276,1.0457569,1.0460889,1.046277,1.0462061,1.0458823,1.0454307,1.0448865,1.0443778,1.0440277,1.0438344,1.0437336,1.0436726,1.0435826,1.0434396,1.043419,1.0436422,1.044091,1.0446234,1.0450491,1.0451994,1.0449284,1.0441084,1.042973,1.0419539,1.0413804,1.0413477,1.0418054,1.0427125,1.0440798,1.0458311,1.0475886,1.049012,1.0499364,1.0503125,1.050235,1.0500598,1.0499341,1.0501308,1.0507925,1.0517235,1.0525575,1.0531456,1.0533075,1.052989,1.0522087,1.0511103,1.0500507,1.0493605,1.0489843,1.0487672,1.0488619,1.0492096,1.0495942,1.0498538,1.0499501,1.0498842,1.0497067,1.0494909,1.0493133,1.0492332,1.0493095,1.0495737,1.0499749,1.0503706,1.0507538,1.0510557,1.0512102,1.0511711,1.050947,1.0506208,1.0503404,1.0501163,1.0499775,1.0499177,1.0498763,1.0497968,1.0496807,1.0495821,1.0495195,1.0495994,1.0498476,1.050179,1.0504773,1.0506678,1.0507315,1.0506794,1.0505891,1.0505483,1.0506163,1.0507959,1.0510398,1.0512878,1.0515183,1.0517523,1.0519909,1.0521992,1.0523192,1.0523269,1.0522547,1.0521276,1.0519801,1.0518339,1.051684,1.0515163,1.051331,1.0511417,1.0509585,1.0507712,1.0505531,1.0503036,1.0500338,1.0497572,1.0494759,1.0491865,1.0489013,1.0486146,1.0483248,1.048013,1.047658,1.0472596,1.0468495,1.0464737,1.0461233,1.0457816,1.0453962,1.0449533,1.0444698,1.0439761,1.0435529,1.0432057,1.042939,1.0427668,1.0426685,1.0426121,1.0425754,1.0425333,1.0424566,1.042304,1.0420624,1.0417613,1.0414256,1.04105,1.0406274,1.0401506,1.039532,1.0387578,1.0379755,1.0373156,1.0368512,1.036648,1.0366403,1.0366597,1.0365701,1.0362741,1.0356581,1.0348108,1.0340581,1.0335592,1.0333562,1.0336182,1.0341432,1.0345292,1.034617,1.0345645,1.0345023,1.0346048,1.0350895,1.0356958,1.0359886,1.0356661,1.0346544,1.0330993,1.0316696,1.0307391,1.0305605,1.0313804,1.03279,1.0339139,1.034281,1.0341315,1.033118,1.0316768,1.0303047,1.0294008,1.0291412,1.0294113,1.0298494,1.0304933,1.0311835,1.0318621,1.032479,1.0328853,1.033006,1.0330708,1.0332127,1.0334097,1.0336742,1.0338624,1.0338016,1.0335401,1.0333512,1.0333762,1.0335413,1.0337894,1.0340276,1.0341251,1.0340378,1.0338712,1.0336928,1.0334733,1.0332551,1.0329645,1.0324655,1.0317363,1.0308695,1.0298564,1.0288334,1.0279533,1.0271894,1.0265259,1.0260271,1.0257795,1.0258439,1.0261035,1.0265965,1.027164,1.0276773,1.028012,1.0281999,1.0285392,1.0289485
0.9723149,0.97309226,0.9754896,0.98056406,0.9879826,0.9989661,1.0129217,1.027663,1.0391631,1.0464189,1.0511279,1.0529995,1.0533822,1.0528011,1.0518394,1.050878,1.0500896,1.0495675,1.0493006,1.049023,1.0488303,1.0486116,1.0483962,1.0481907,1.0478973,1.047411,1.0467439,1.0459738,1.0453267,1.0448943,1.0447276,1.0447063,1.0445375,1.0440423,1.0431408,1.0415595,1.0395119,1.0375733,1.0362246,1.0356061,1.0356433,1.0361028,1.0367501,1.0374086,1.037931,1.0382979,1.0386027,1.0389225,1.0392013,1.039345,1.0391855,1.0385222,1.0373503,1.035917,1.0345552,1.0334804,1.0328383,1.032786,1.0334439,1.034762,1.0365746,1.0386647,1.0407497,1.0425475,1.0437288,1.0441382,1.0439758,1.0436745,1.0435464,1.043575,1.0438099,1.0442138,1.0446413,1.0448517,1.0448067,1.0446533,1.044476,1.044375,1.0444249,1.0446087,1.0448587,1.0450233,1.0449653,1.0446794,1.0442802,1.0438051,1.0433824,1.0431296,1.0430317,1.0430083,1.0429959,1.0429273,1.042783,1.0427417,1.0429336,1.0433617,1.043916,1.0444572,1.0448644,1.044908,1.0445685,1.0437517,1.0426242,1.0417135,1.0413712,1.0413941,1.0418253,1.0427418,1.0441728,1.045794,1.047261,1.0483489,1.0489223,1.0490468,1.0490682,1.0491235,1.0495067,1.0503619,1.0514812,1.0524981,1.0532606,1.053611,1.053263,1.0523823,1.051224,1.0501099,1.0493475,1.0489768,1.0489221,1.0491588,1.0495244,1.0498576,1.0500653,1.0501071,1.0499865,1.0497686,1.0494732,1.0492201,1.0491416,1.0492799,1.0495918,1.050009,1.0504303,1.0508405,1.0511698,1.0513494,1.0513302,1.0511158,1.0507748,1.0504248,1.0500865,1.0498366,1.049678,1.0495697,1.0494435,1.0492606,1.0490718,1.0488856,1.0488471,1.0489993,1.0492668,1.049529,1.0497005,1.0497558,1.0496902,1.0495746,1.0494905,1.0494947,1.0495954,1.0497594,1.0499417,1.0501277,1.0503335,1.0505648,1.0507846,1.0509291,1.0509658,1.0509157,1.0507979,1.0506456,1.0504781,1.0502977,1.0500922,1.049864,1.0496355,1.0494214,1.049213,1.0489867,1.0487409,1.0484827,1.0482183,1.0479445,1.0476592,1.0473814,1.047113,1.0468574,1.0465972,1.0463023,1.0459622,1.0456085,1.0452859,1.0449855,1.0446866,1.0443261,1.0438874,1.0433924,1.0428797,1.0424426,1.0421007,1.0418382,1.0416477,1.0415041,1.041394,1.0413224,1.0412788,1.0412384,1.0411646,1.0410733,1.0409676,1.0408492,1.0406892,1.040416,1.0400319,1.0394574,1.0386972,1.037912,1.0372317,1.036732,1.0364975,1.0364741,1.0365189,1.0364847,1.0362561,1.0357118,1.0349336,1.0342306,1.0337515,1.0335588,1.0338755,1.0344396,1.0348699,1.035019,1.0350026,1.0349941,1.0351202,1.0355958,1.0362117,1.0365393,1.0361822,1.0350372,1.0334054,1.0319061,1.0309411,1.0307336,1.0315182,1.0328903,1.0339565,1.034236,1.0341058,1.0330541,1.031604,1.0303104,1.0295539,1.0294583,1.0298634,1.0303442,1.031024,1.031656,1.032189,1.0326052,1.0328183,1.0328121,1.0327988,1.0328852,1.0330821,1.0333652,1.0335557,1.0334897,1.0332261,1.0330107,1.0330014,1.0331497,1.0334164,1.0336859,1.0338004,1.0337026,1.0334978,1.0332817,1.0330479,1.0328476,1.0326173,1.0322347,1.0316701,1.0309894,1.0301751,1.0293353,1.0285814,1.0278673,1.0271485,1.0264969,1.0260572,1.0259342,1.0260348,1.026437,1.0270004,1.0275757,1.0279944,1.0282333,1.0285408,1.0288824
0.9732789,0.9732187,0.97436583,0.97749114,0.98296285,0.9915292,1.0039635,1.0184913,1.031693,1.0412974,1.0473735,1.0508554,1.0522852,1.0523155,1.0515772,1.0505844,1.0496293,1.0488997,1.0484805,1.0481629,1.0479612,1.0478268,1.0476317,1.0473982,1.0471559,1.0467703,1.0461987,1.0454854,1.0449307,1.044638,1.0445529,1.0445037,1.0442616,1.0436476,1.0425885,1.0408263,1.0386735,1.0367666,1.035574,1.0351601,1.0353528,1.0358951,1.0365646,1.0371603,1.037598,1.0379329,1.0382762,1.0386734,1.039036,1.0392046,1.0389447,1.0380743,1.0366523,1.0350211,1.0336132,1.0326511,1.0322789,1.0326123,1.0336144,1.0352197,1.037258,1.039403,1.0413517,1.0428505,1.0437281,1.0438757,1.0435647,1.0431843,1.0429707,1.0430284,1.0434282,1.0441945,1.044922,1.0453029,1.0452871,1.0450077,1.0446517,1.0444041,1.0443604,1.0444831,1.0446702,1.044769,1.0446901,1.0444605,1.0441109,1.0436897,1.043405,1.0433466,1.043401,1.0434088,1.0432948,1.0430226,1.0426705,1.0425396,1.0426431,1.0429373,1.0433987,1.0439713,1.044516,1.0447247,1.0446959,1.0443758,1.043658,1.0426328,1.0416826,1.0411983,1.0411403,1.0415347,1.042525,1.0438898,1.0453203,1.0465381,1.0473111,1.0476631,1.0479102,1.0481753,1.0487704,1.0498387,1.0511755,1.0524303,1.0534166,1.0537887,1.053474,1.0525293,1.0512424,1.0500513,1.0492945,1.0490029,1.0490046,1.0492618,1.049626,1.049942,1.0501282,1.0501564,1.0500255,1.0497986,1.0494952,1.0492303,1.0491416,1.049274,1.0495844,1.0500066,1.0504363,1.050854,1.051193,1.0513835,1.0513742,1.0511627,1.0508115,1.0504408,1.0500722,1.0497727,1.0495789,1.0494428,1.0492796,1.0490544,1.0488138,1.0485637,1.0483351,1.0483197,1.0484722,1.048624,1.0486817,1.0486379,1.0484815,1.048271,1.048089,1.0479894,1.0479803,1.0480397,1.0481384,1.0482643,1.0484252,1.0486305,1.048841,1.0489843,1.0490217,1.0489724,1.0488465,1.0486684,1.0484498,1.048223,1.0479769,1.0477048,1.0474389,1.0472004,1.0469794,1.0467575,1.0465306,1.0463016,1.0460688,1.0458219,1.0455568,1.0452983,1.0450554,1.044859,1.0446814,1.0444722,1.0442123,1.0439289,1.0436692,1.0434432,1.04321,1.0429206,1.0425594,1.0421343,1.0416784,1.0412855,1.0410153,1.0408005,1.0406082,1.04041,1.0402052,1.0400487,1.040021,1.0400844,1.0402253,1.0404477,1.0406845,1.0408298,1.040813,1.0406251,1.0402615,1.0396664,1.038866,1.03804,1.0373244,1.0367954,1.0365357,1.0364757,1.0364711,1.0364187,1.036193,1.0356693,1.0349238,1.0342441,1.0337845,1.0336181,1.0339009,1.0344312,1.0348713,1.0350758,1.0351336,1.035152,1.0353436,1.0359151,1.0366199,1.0369475,1.036549,1.0353723,1.0335765,1.0319242,1.0309016,1.0306531,1.0313897,1.0326732,1.0336596,1.0339966,1.0338287,1.0326802,1.0312171,1.0300503,1.0294936,1.0296099,1.0302404,1.0309019,1.0315735,1.0320338,1.0322798,1.0323987,1.032419,1.0323532,1.0323215,1.0324087,1.0326505,1.0330162,1.0333102,1.0333703,1.0332555,1.0331743,1.0332706,1.0334866,1.03375,1.0339458,1.0339468,1.03374,1.0334613,1.0331815,1.0328679,1.0326035,1.0323508,1.0319948,1.0315098,1.0309603,1.0303025,1.0296197,1.0289893,1.0283439,1.0276041,1.0268334,1.0262156,1.0258918,1.0258133,1.0260932,1.0266126,1.0272284,1.0277513,1.028085,1.0283844,1.0286505
0.97466457,0.97392416,0.9738527,0.9752648,0.9786022,0.98493797,0.9949762,1.0081096,1.0225124,1.0346986,1.0425363,1.0479617,1.0508306,1.0517867,1.0515234,1.0505681,1.0494103,1.0484529,1.0477617,1.0474021,1.0471843,1.0470614,1.0469327,1.0466886,1.0463517,1.0460173,1.0455792,1.0450597,1.0446491,1.0444019,1.0443034,1.0442109,1.0438657,1.0430806,1.0417898,1.0398141,1.0375677,1.0357332,1.0347412,1.0345567,1.0349047,1.0356023,1.036145,1.0366311,1.0370963,1.0375403,1.0380058,1.0385,1.0389199,1.0389631,1.0385782,1.0374839,1.0357585,1.0339369,1.0325506,1.0318027,1.0318112,1.0325978,1.0341145,1.0361292,1.0383177,1.0403696,1.0420026,1.043162,1.0437634,1.043741,1.0433646,1.0430052,1.0428782,1.0430715,1.04374,1.0447061,1.0455666,1.0460218,1.0460134,1.0456843,1.0452654,1.0449758,1.0449209,1.045054,1.0452589,1.0453678,1.0452693,1.0449939,1.0446682,1.0443443,1.0441611,1.0441813,1.0442791,1.0442808,1.044109,1.0437467,1.043205,1.0427117,1.0424867,1.0425712,1.0429099,1.0434477,1.0440726,1.0444608,1.0446775,1.0446672,1.0443022,1.0435307,1.0424359,1.0412333,1.0405083,1.0403004,1.0407537,1.0417619,1.0430989,1.0444386,1.0454383,1.0460676,1.046598,1.0471168,1.0479598,1.049269,1.0508457,1.0523535,1.0535177,1.0539004,1.0535576,1.0525875,1.0512474,1.0499964,1.0492423,1.0489945,1.0490294,1.0492995,1.0496614,1.0499651,1.0501428,1.0501747,1.0500474,1.0498264,1.0495255,1.0492549,1.0491565,1.0492802,1.0495842,1.0500047,1.0504379,1.0508597,1.051209,1.051414,1.0514185,1.0512137,1.050858,1.0504725,1.0500822,1.0497535,1.0495384,1.0493878,1.0492094,1.0489638,1.048686,1.048373,1.048028,1.047792,1.0477154,1.0476775,1.0475421,1.0473292,1.047029,1.0466799,1.0463796,1.0461693,1.0460453,1.045993,1.045997,1.0460474,1.0461441,1.0462995,1.0464737,1.0465919,1.0466126,1.046553,1.046418,1.0462222,1.0459743,1.0456911,1.0453861,1.0450727,1.0447724,1.0445106,1.0442784,1.0440625,1.0438559,1.0436571,1.0434568,1.0432365,1.042996,1.0427859,1.0426,1.0424637,1.0423646,1.0422571,1.042109,1.0419358,1.0417782,1.0416504,1.0415161,1.0413122,1.0410212,1.0406545,1.0402544,1.0399609,1.0397556,1.0395789,1.0393839,1.0391481,1.0388947,1.0387123,1.0387285,1.0389628,1.0393839,1.0399663,1.0405724,1.041021,1.0411642,1.0409393,1.0404835,1.0398188,1.0390075,1.0382068,1.0374949,1.036933,1.0366467,1.0365535,1.036507,1.036425,1.0362303,1.0357649,1.0350528,1.0343876,1.0339148,1.0337188,1.0339327,1.0344204,1.0348366,1.0350449,1.0351771,1.0352737,1.0355579,1.0362458,1.0369475,1.0372262,1.036844,1.0356841,1.0337863,1.0319914,1.0308037,1.0304697,1.0311384,1.0323503,1.0333018,1.0336072,1.0333931,1.0321789,1.0306914,1.029634,1.0293399,1.0298007,1.0307534,1.0316088,1.0320843,1.032265,1.0322576,1.0321306,1.0319655,1.0318687,1.0318569,1.0319645,1.0322669,1.0327622,1.0332332,1.0334873,1.0335581,1.033607,1.0337744,1.0340208,1.0342579,1.0343912,1.0343256,1.0340528,1.0336909,1.0333173,1.0329309,1.032594,1.0322747,1.0318774,1.031389,1.0308777,1.0303036,1.0297747,1.0292816,1.0287299,1.0280092,1.0271574,1.0263746,1.0258486,1.0255874,1.0257409,1.0261986,1.0268619,1.0275034,1.027916,1.0282307,1.028485
0.9757365,0.9749702,0.9740883,0.9742781,0.9756979,0.9800093,0.9874674,0.99861264,1.0125003,1.026139,1.0366471,1.0436871,1.0484723,1.0506978,1.0511606,1.0505717,1.0495048,1.0484134,1.0474744,1.0469036,1.046686,1.0465536,1.0463414,1.0460066,1.0456098,1.0452282,1.0448265,1.0444348,1.0441654,1.0440066,1.0439329,1.0438328,1.0434427,1.0424979,1.0410105,1.0388541,1.0365665,1.0348591,1.0340931,1.0341634,1.034752,1.0353951,1.0358508,1.0362129,1.0365968,1.0370657,1.0376201,1.0381737,1.0385326,1.038451,1.0380437,1.0367916,1.0347922,1.0328524,1.0315771,1.0311248,1.0315261,1.0328896,1.0349327,1.0372548,1.0394455,1.0411922,1.0424867,1.043424,1.043874,1.0438244,1.0434809,1.0431821,1.0431893,1.0435483,1.0443157,1.0452933,1.0461465,1.0465759,1.0465219,1.0461581,1.0457258,1.0454607,1.0454609,1.0456678,1.0459545,1.0461295,1.0460486,1.0457395,1.0453978,1.0450943,1.0449216,1.0449297,1.0449998,1.0449657,1.0447552,1.0443683,1.0437663,1.0431061,1.0426533,1.042515,1.0426817,1.0431123,1.0436829,1.0441754,1.0445468,1.0447493,1.0446332,1.0440636,1.0430145,1.0415974,1.0401325,1.0393093,1.0392306,1.0398575,1.0410576,1.0425001,1.0437396,1.0446403,1.045377,1.0461257,1.0472012,1.0487442,1.0505533,1.0522444,1.0535274,1.0539551,1.053583,1.0525978,1.0512297,1.0499301,1.049175,1.0489546,1.0490122,1.0492873,1.049639,1.0499254,1.0500792,1.050098,1.0500005,1.0497854,1.0494953,1.0492313,1.0491328,1.0492498,1.0495431,1.0499537,1.0503819,1.0507989,1.0511456,1.0513523,1.0513635,1.0511656,1.050807,1.0504154,1.0500159,1.0496814,1.0494747,1.0493464,1.0491983,1.0489812,1.0487016,1.0483308,1.0478535,1.0473781,1.0469658,1.0465908,1.0461922,1.0457518,1.0452795,1.0448086,1.0443931,1.0440936,1.0439034,1.0437825,1.0437282,1.043736,1.0437982,1.0439293,1.0440879,1.0441959,1.0442134,1.0441579,1.0440316,1.0438427,1.0435958,1.0432996,1.0429631,1.0426109,1.0422826,1.0420139,1.0417831,1.0415802,1.0413935,1.041215,1.0410296,1.040823,1.0406094,1.0404142,1.0402513,1.0401443,1.040093,1.0400555,1.0399886,1.0398948,1.0398074,1.0397437,1.0396714,1.0395257,1.039294,1.0390006,1.0386922,1.038493,1.0383625,1.0382347,1.0380427,1.0377744,1.0374856,1.0373052,1.0374062,1.0378516,1.0385963,1.0395908,1.0405996,1.0412588,1.0413988,1.0412085,1.0407647,1.0399942,1.0391065,1.0383016,1.037612,1.0370626,1.0367837,1.0366869,1.036618,1.036534,1.0363975,1.0360115,1.0353512,1.0347133,1.0342209,1.0339725,1.0340903,1.0344667,1.0348012,1.0349804,1.0351343,1.0352964,1.0356631,1.036453,1.0371606,1.037422,1.0370822,1.0359582,1.0339966,1.0320765,1.0307283,1.030262,1.0308424,1.0320214,1.032954,1.0331652,1.0328951,1.0316417,1.0302012,1.0293102,1.0293019,1.0301127,1.031336,1.0321714,1.0324574,1.0323973,1.0321839,1.0319242,1.0317054,1.0316288,1.0317011,1.031903,1.032332,1.0329568,1.0335627,1.0339717,1.0341928,1.0343337,1.034526,1.0347464,1.034903,1.0349358,1.0347929,1.0344745,1.0340719,1.0336528,1.0332274,1.0328349,1.0324522,1.0320134,1.0314925,1.030918,1.0303084,1.0297906,1.0294113,1.0289979,1.0283368,1.0274625,1.0266166,1.0259355,1.0255266,1.0255635,1.0259752,1.0266817,1.0274147,1.0278993,1.0282426,1.0285015
0.9762176,0.97613204,0.9752389,0.9745569,0.9747752,0.9769916,0.9819313,0.9904952,1.0024642,1.016166,1.0288615,1.0380247,1.0447419,1.0486845,1.0502768,1.0503039,1.0495296,1.0485058,1.0475192,1.0467479,1.046397,1.0461544,1.0457928,1.0453591,1.0449436,1.044492,1.0440729,1.0437193,1.0435534,1.0435174,1.0435114,1.0434017,1.0429528,1.041891,1.0402133,1.0379218,1.0356565,1.0341256,1.033672,1.0341,1.03484,1.0353615,1.0357721,1.0360236,1.0362651,1.036671,1.0372467,1.0378134,1.0380459,1.0378451,1.0373925,1.0360129,1.033819,1.031822,1.0307231,1.0306053,1.0314655,1.0334084,1.0358238,1.0382063,1.0402341,1.0416799,1.0427146,1.0435078,1.043974,1.0440292,1.0438123,1.0436296,1.0437285,1.044148,1.044846,1.0457249,1.0463996,1.0466725,1.0465612,1.0462048,1.045812,1.045599,1.0456926,1.0460212,1.0464046,1.046622,1.046557,1.0462785,1.0459695,1.0456362,1.0454159,1.0453671,1.0453739,1.0452796,1.0450286,1.0446389,1.0440731,1.0434641,1.0429828,1.042721,1.0427241,1.0429931,1.0434228,1.04392,1.0443501,1.044702,1.0447685,1.044315,1.0433289,1.0419796,1.0401354,1.0387523,1.0381418,1.0383849,1.0394306,1.0409498,1.0423841,1.0435369,1.0444101,1.0452716,1.046484,1.048214,1.0502305,1.052075,1.053421,1.0538976,1.0535322,1.0525575,1.0511711,1.0498271,1.0490704,1.0488702,1.0489415,1.0492101,1.0495381,1.0497987,1.049911,1.0498888,1.0498247,1.0496486,1.0493883,1.049151,1.0490704,1.0491934,1.0494732,1.04984,1.0502197,1.0505972,1.0509324,1.0511527,1.0511706,1.0509608,1.0505937,1.0501964,1.0497967,1.0494728,1.0493042,1.0492415,1.0491588,1.0489726,1.048682,1.0482571,1.0476806,1.046978,1.0461881,1.0453818,1.0446231,1.0439293,1.0432949,1.0427148,1.0422224,1.0418526,1.0416039,1.0414591,1.0414119,1.0414298,1.0415076,1.0416586,1.0418376,1.041965,1.0420032,1.0419723,1.0418744,1.0417166,1.0414985,1.0412309,1.040909,1.0405555,1.0402286,1.0399662,1.0397425,1.0395474,1.0393635,1.0391989,1.0390346,1.0388365,1.0386214,1.0384048,1.0382226,1.0381057,1.0380561,1.0380316,1.0379796,1.037889,1.0377961,1.0377216,1.0376372,1.037503,1.0373235,1.0371274,1.0369449,1.0368468,1.0368152,1.036758,1.036575,1.0362707,1.0359449,1.0357735,1.0359874,1.0366701,1.0377731,1.0392592,1.0405846,1.0412947,1.0414544,1.0413213,1.0408946,1.0400977,1.0391325,1.0382745,1.0376043,1.0371145,1.036881,1.0368006,1.0367272,1.0366673,1.0365905,1.0362909,1.0357146,1.0351152,1.0346065,1.0342996,1.0342978,1.0345068,1.0347044,1.0348105,1.0349271,1.0351175,1.0355444,1.0364271,1.0371902,1.0374883,1.0372027,1.0361211,1.0341421,1.032151,1.0306528,1.0300429,1.0305221,1.0316334,1.032509,1.0326496,1.0322688,1.0310185,1.0296819,1.0289879,1.0292897,1.0304346,1.031799,1.0324855,1.0326519,1.0324359,1.0320592,1.0317477,1.0316145,1.0316637,1.0318788,1.0322181,1.0327845,1.0335107,1.034199,1.0347104,1.0350459,1.0352547,1.035429,1.0355753,1.0356328,1.035548,1.0353086,1.0349557,1.034559,1.0341595,1.0337331,1.0333105,1.0328834,1.0324038,1.0318315,1.0311756,1.0305051,1.029934,1.0295737,1.0292253,1.0285985,1.0277107,1.0268404,1.0260916,1.0255635,1.0255065,1.0258846,1.0266106,1.027402,1.0279634,1.0283561,1.0286351
0.9761094,0.97684646,0.9766458,0.9756607,0.9752357,0.9758076,0.9784064,0.9841906,0.9938165,1.0064003,1.0196624,1.0312715,1.0396234,1.0456796,1.0487905,1.0495644,1.0491421,1.0483024,1.0473862,1.0465698,1.0459925,1.0456004,1.0451797,1.0446982,1.0442249,1.0437331,1.0433147,1.042994,1.0429087,1.042983,1.0430408,1.0428932,1.04234,1.0411866,1.0393488,1.0369774,1.0348217,1.0335851,1.0335352,1.0342768,1.0349454,1.035441,1.0357757,1.03592,1.036063,1.0364192,1.0369735,1.0374708,1.0376232,1.037304,1.0367131,1.0351617,1.032834,1.0308664,1.0299941,1.0302105,1.0316054,1.0339464,1.0365169,1.0387988,1.040591,1.0418384,1.0426714,1.0433198,1.0438324,1.044045,1.0440075,1.043961,1.0440998,1.0444636,1.0450528,1.0457816,1.0462093,1.0462935,1.0461336,1.0457919,1.0454422,1.0452921,1.045493,1.045962,1.0464721,1.0467446,1.0466872,1.0464575,1.0462115,1.0458612,1.0455792,1.0454473,1.0453691,1.0452075,1.0449278,1.0445614,1.0440664,1.04355,1.0431454,1.0428965,1.042824,1.042958,1.0432665,1.0437248,1.0441552,1.0445919,1.0448139,1.0445281,1.0436487,1.0423003,1.0405266,1.0387132,1.0375882,1.0374361,1.0382751,1.0397841,1.0413313,1.04267,1.0436655,1.0445427,1.0458012,1.0476499,1.0498317,1.0518552,1.0532305,1.0537338,1.0534393,1.0525161,1.0511297,1.0497656,1.049004,1.0488155,1.0488918,1.0491431,1.0494412,1.0496457,1.0496897,1.0496305,1.049577,1.049465,1.0492532,1.0490488,1.0489868,1.0491076,1.0493495,1.0496409,1.0499511,1.0502751,1.050601,1.0508618,1.0509083,1.0506856,1.0503087,1.0499039,1.0494927,1.049166,1.0490253,1.0490248,1.0489945,1.0488085,1.0484972,1.0480345,1.0474167,1.0465374,1.0454375,1.0442615,1.0431628,1.0422673,1.0415275,1.0408723,1.0403662,1.039975,1.0396823,1.03952,1.0394906,1.0395463,1.0396751,1.0398889,1.0401282,1.0403036,1.0403777,1.0403776,1.0403106,1.0401902,1.040016,1.0397937,1.0395178,1.039207,1.0389125,1.0386664,1.0384517,1.0382557,1.0380567,1.0378746,1.0376922,1.0374596,1.037189,1.0369267,1.0367072,1.0365593,1.0364804,1.0364232,1.0363246,1.0361621,1.0359888,1.0358267,1.0356622,1.0354947,1.0353503,1.0352457,1.0351815,1.0351965,1.0352678,1.0352722,1.0350964,1.0347595,1.0343978,1.0342369,1.0345551,1.0354626,1.03691,1.0388473,1.0403912,1.0411425,1.0414431,1.0413064,1.0407996,1.040015,1.0390229,1.0381212,1.0374756,1.0370666,1.036884,1.0368223,1.0367637,1.0367422,1.036717,1.0365169,1.0360653,1.0355101,1.0349958,1.0346363,1.0345125,1.0345559,1.0345985,1.0345914,1.0346425,1.0348334,1.0352969,1.0362612,1.0370827,1.0374358,1.0372177,1.0361893,1.034255,1.032253,1.0306374,1.0298961,1.0302417,1.0312059,1.0319713,1.0320818,1.0315946,1.0304097,1.0291867,1.0287042,1.0293047,1.0306585,1.032002,1.0325649,1.0326424,1.0323195,1.0318289,1.031496,1.0314896,1.0317397,1.0321269,1.0326039,1.0332636,1.0340433,1.0347673,1.0353289,1.035733,1.0359819,1.0361359,1.0362244,1.0362134,1.0360488,1.0357522,1.035406,1.0350571,1.0347238,1.0343441,1.0339314,1.0334864,1.0329652,1.032339,1.0316458,1.0309503,1.0303531,1.0299442,1.0295553,1.0289199,1.028022,1.0271033,1.0263163,1.025671,1.0255189,1.0258305,1.0265256,1.0273368,1.0279589,1.0284138,1.028741
0.9755019,0.9766562,0.9773056,0.9769466,0.9760282,0.9760431,0.97686446,0.98053336,0.98780215,0.9983261,1.0110791,1.0237887,1.0337243,1.0418583,1.0466095,1.0483557,1.0484164,1.0477245,1.0467908,1.0459667,1.0453048,1.0448979,1.0444828,1.0439491,1.0433913,1.0428547,1.0424314,1.0421581,1.0421586,1.0423546,1.0424824,1.0423061,1.0416824,1.0404396,1.0385797,1.0362308,1.0342988,1.0334945,1.0337931,1.0345509,1.035082,1.0355386,1.035788,1.0358152,1.0358678,1.0361841,1.0366752,1.0370135,1.0371532,1.0367807,1.0360681,1.0343125,1.0318952,1.0300899,1.0294924,1.0300424,1.0318866,1.0344045,1.0369669,1.0391442,1.0407376,1.0417516,1.0423889,1.0429099,1.04334,1.0436625,1.0437951,1.0438251,1.0439703,1.0442744,1.0447462,1.0452971,1.0456078,1.0456201,1.0453812,1.0449641,1.0445809,1.0444946,1.0447955,1.045389,1.0460811,1.0465157,1.0465242,1.0463157,1.0460526,1.0456839,1.0453348,1.0451087,1.0449466,1.0447373,1.0444584,1.0441434,1.0437441,1.0433507,1.043061,1.0428879,1.042834,1.0429343,1.0431869,1.0436082,1.0440282,1.0445199,1.0448781,1.0447853,1.0440879,1.0428476,1.0412033,1.039165,1.037638,1.0370885,1.0376225,1.0389795,1.0405664,1.0419633,1.043052,1.0439487,1.0452354,1.047147,1.0494455,1.05165,1.0530388,1.0535762,1.0534155,1.0525682,1.0512108,1.0498725,1.0490992,1.048917,1.0489926,1.0492225,1.0494796,1.0495791,1.049526,1.0494592,1.0493978,1.049314,1.0491562,1.0489795,1.0489123,1.0489867,1.0491465,1.0493714,1.0496502,1.0499542,1.0502732,1.0505683,1.0506625,1.0504595,1.0500822,1.0496776,1.0492456,1.048888,1.0487309,1.0487367,1.0487144,1.0485289,1.0482421,1.0477729,1.0470972,1.0461175,1.0448418,1.0434542,1.0421991,1.0412126,1.0404446,1.0398035,1.0393419,1.0390182,1.0387653,1.0385845,1.0385306,1.038621,1.0388143,1.039119,1.0394423,1.0396687,1.0397656,1.0397813,1.039731,1.0396397,1.0395113,1.0393462,1.0391306,1.0388741,1.038621,1.038404,1.0382074,1.0380132,1.0377958,1.03754,1.0372393,1.0368955,1.0365336,1.036201,1.0359365,1.0357568,1.0356433,1.0355322,1.0353458,1.0350602,1.034754,1.034452,1.0341654,1.0339346,1.0337967,1.0337486,1.0337676,1.0338635,1.0339947,1.0340104,1.0338392,1.0334938,1.0331056,1.0329493,1.0333412,1.0344079,1.0361197,1.0383089,1.0400923,1.0410411,1.0414206,1.0412815,1.0407078,1.0398247,1.0387913,1.0378847,1.037278,1.0369489,1.0367969,1.0367552,1.0367298,1.036759,1.0367882,1.036699,1.036396,1.0359063,1.0354068,1.0350192,1.034801,1.0347142,1.0346255,1.0345105,1.0344963,1.0346725,1.0351496,1.0361475,1.0369928,1.0373964,1.0372531,1.0362924,1.0344496,1.0324577,1.03082,1.0299559,1.030122,1.030912,1.0315453,1.0316055,1.0311207,1.0300539,1.0289735,1.0287355,1.0295281,1.0308263,1.0319798,1.0324357,1.0324428,1.0320427,1.0314965,1.03117,1.0312593,1.0316792,1.0322287,1.0328356,1.0335629,1.034338,1.0350237,1.0355569,1.0359502,1.0361915,1.0363581,1.0364487,1.0364001,1.0362103,1.0359466,1.0356824,1.0354406,1.0352182,1.0349436,1.0345899,1.0341612,1.0336239,1.0329657,1.0322461,1.0315137,1.0308745,1.0304402,1.0300186,1.0293903,1.0285282,1.027577,1.0267055,1.0259553,1.0256684,1.0258522,1.0264626,1.0272434,1.0278832,1.0283903,1.0287781
0.97492975,0.9762713,0.9774945,0.9779334,0.97734636,0.97650015,0.97638553,0.9782567,0.9832319,0.99188805,1.0035572,1.0161173,1.0279803,1.0374445,1.0438837,1.046953,1.0475289,1.0470694,1.0461804,1.0453672,1.0446839,1.0442281,1.0437852,1.0432231,1.0426118,1.0420494,1.0416327,1.0414102,1.0414982,1.0418091,1.0420257,1.0418434,1.0411208,1.0397964,1.037962,1.0357807,1.0341445,1.0336359,1.034019,1.0346665,1.0352488,1.0356637,1.0358365,1.0357704,1.0357685,1.0360036,1.0363593,1.0366648,1.0367775,1.0363548,1.0354645,1.0335715,1.0311861,1.029553,1.0292273,1.0301824,1.032259,1.034853,1.0373623,1.0393882,1.0407705,1.0415702,1.0420347,1.0424336,1.0427926,1.0431037,1.0433395,1.0434861,1.0436139,1.0438702,1.0442464,1.0446678,1.0449188,1.0448472,1.0444801,1.0440037,1.0436511,1.0436175,1.0439937,1.0446929,1.0455012,1.0460906,1.0462484,1.0460663,1.045817,1.0454239,1.0450387,1.0447654,1.0445583,1.0443283,1.0440607,1.0437857,1.043462,1.0431664,1.0429709,1.0428731,1.0428655,1.0429779,1.0432193,1.0435798,1.0439718,1.0444919,1.0449789,1.0451066,1.0446339,1.0435307,1.0419176,1.0399218,1.0381129,1.0371522,1.037358,1.0385145,1.0400648,1.0414679,1.0425992,1.0435009,1.0447932,1.0467424,1.0491585,1.0515399,1.0528919,1.0534984,1.053416,1.0526674,1.0514196,1.0501351,1.0493382,1.0491552,1.0492225,1.0494401,1.0495877,1.0495706,1.0494676,1.0493801,1.0493098,1.0492196,1.0491252,1.0490143,1.0489476,1.0489452,1.0490148,1.0492,1.0494411,1.0497208,1.0500319,1.050308,1.0503933,1.0502018,1.0498247,1.0494303,1.049048,1.0486894,1.0485079,1.0484982,1.0484817,1.0483215,1.0480579,1.0475907,1.0468822,1.0458357,1.0444506,1.0429178,1.041534,1.0404996,1.0397325,1.0391424,1.0387659,1.0385323,1.0383462,1.0382097,1.038206,1.0383433,1.0386038,1.038974,1.0393106,1.039489,1.039526,1.0395172,1.0394719,1.0394087,1.0393317,1.039237,1.0391059,1.038934,1.038744,1.0385629,1.0383817,1.0381854,1.037929,1.0376074,1.0372287,1.0368034,1.0363728,1.0359845,1.0356836,1.0354699,1.0353072,1.035118,1.0348139,1.0343727,1.033906,1.033442,1.0330216,1.0327218,1.0325829,1.0325794,1.0326636,1.0328201,1.0329207,1.0329059,1.0327599,1.0324605,1.032086,1.0319327,1.0323842,1.033571,1.0354869,1.0378783,1.039858,1.0409708,1.0414209,1.0412805,1.0406486,1.0396965,1.0386114,1.0376825,1.0370885,1.0367961,1.0366764,1.0366584,1.0366563,1.0367277,1.0368125,1.0368035,1.0366173,1.0362437,1.0357625,1.0353587,1.0350685,1.0348804,1.0346936,1.0345025,1.0344439,1.0346153,1.0351155,1.0360746,1.0369437,1.0374279,1.0373592,1.0364833,1.0347722,1.0328026,1.0311248,1.0301633,1.0301774,1.0308039,1.0313069,1.0312757,1.0307882,1.0298588,1.0290368,1.0289611,1.0297894,1.0309961,1.0318745,1.0322438,1.0321901,1.031744,1.0311837,1.0308987,1.0310855,1.0316284,1.0322802,1.0329654,1.0337296,1.0344825,1.0351131,1.0355974,1.0359648,1.0361993,1.036339,1.0363779,1.0362858,1.0361197,1.0359697,1.0358748,1.0358088,1.0357594,1.0356224,1.0353434,1.0349343,1.034354,1.0336015,1.032796,1.0320201,1.0313373,1.0308425,1.0304046,1.0298018,1.0289603,1.0280032,1.0270936,1.0263164,1.0258557,1.0258915,1.0264235,1.0271629,1.0278108,1.028373,1.0288379
0.9742631,0.9755845,0.9770502,0.9781023,0.9782697,0.97726,0.9762584,0.97677124,0.9799875,0.9866985,0.99688685,1.0090927,1.0214198,1.0321432,1.0403798,1.0449265,1.0462852,1.0461835,1.0454135,1.0446391,1.0439644,1.0434868,1.0430524,1.0425088,1.0418929,1.0413449,1.0409572,1.0407901,1.0409532,1.0413523,1.0416298,1.0414442,1.0406699,1.0392983,1.0375588,1.035526,1.0341101,1.03373,1.0341306,1.0348008,1.0353055,1.0356526,1.0357817,1.0356741,1.0356004,1.0357707,1.0361083,1.0363983,1.0364854,1.0360125,1.0350316,1.0330734,1.030749,1.0292971,1.0292015,1.0305848,1.032779,1.0353703,1.0377884,1.039614,1.04075,1.0413558,1.0416503,1.0419192,1.0421877,1.0424615,1.0427386,1.0429809,1.0431814,1.0434357,1.0437781,1.0441154,1.0442886,1.0441679,1.0437708,1.043288,1.0429697,1.0429814,1.0434332,1.0441351,1.0449624,1.0456195,1.0458596,1.0457824,1.0455848,1.0453224,1.0449443,1.0446138,1.0443885,1.0441974,1.0439982,1.0438113,1.0435227,1.0432553,1.0430813,1.0430012,1.0430198,1.0431433,1.0433074,1.0435407,1.0439186,1.0444732,1.0450277,1.0452917,1.0450598,1.044281,1.042817,1.0409236,1.0388947,1.0375425,1.0374452,1.0384192,1.0398093,1.0411577,1.0422723,1.0431763,1.0444293,1.0464077,1.0489383,1.0513576,1.0527296,1.0534246,1.053398,1.0528014,1.0517259,1.0505178,1.0497377,1.0495572,1.0496387,1.0497715,1.0497745,1.0496806,1.0495638,1.049444,1.0493639,1.0492756,1.0492064,1.0490937,1.048974,1.048907,1.0489287,1.049057,1.0492502,1.0495052,1.0498073,1.0500818,1.0502331,1.0501459,1.0497873,1.049384,1.04898,1.0486426,1.048483,1.0484365,1.0483782,1.048245,1.0479859,1.0475228,1.0467749,1.0457802,1.0443645,1.042709,1.041291,1.0402497,1.0394884,1.0389059,1.0385356,1.0383036,1.0381525,1.0381119,1.038219,1.0384338,1.0386326,1.0388913,1.0391378,1.0392791,1.0393121,1.0392962,1.0392443,1.0391786,1.0390978,1.0389991,1.0388647,1.0386887,1.0384893,1.0382919,1.0380838,1.0378503,1.0375726,1.0372468,1.0368772,1.0364757,1.0360795,1.0357258,1.0354278,1.0352104,1.0350436,1.0348375,1.0344776,1.0339216,1.0332967,1.0326898,1.0321599,1.0318197,1.0317106,1.0317569,1.0318563,1.0319937,1.0319898,1.0319326,1.0317807,1.0315684,1.0313298,1.0312247,1.0317317,1.0330157,1.0351174,1.0375617,1.039624,1.0409082,1.0414412,1.0413272,1.0406735,1.0396826,1.0386145,1.0377007,1.037101,1.0368159,1.036692,1.0366577,1.0366393,1.036715,1.0368258,1.0368595,1.036768,1.0365422,1.0360893,1.0356867,1.0353509,1.0351001,1.0348617,1.0346369,1.0345623,1.034735,1.0352534,1.03613,1.0369855,1.0375336,1.0375283,1.036735,1.035181,1.0332546,1.0315485,1.0304854,1.0303366,1.030775,1.0311241,1.03104,1.0306631,1.0298826,1.029213,1.0292208,1.0299536,1.0309359,1.0316675,1.0319643,1.0318571,1.0314173,1.0309162,1.0307295,1.0310359,1.031687,1.0324093,1.0331321,1.0338898,1.0345669,1.035119,1.0355555,1.0358689,1.0360453,1.0361618,1.0362183,1.0361689,1.0360855,1.0360689,1.0361409,1.0362318,1.0362278,1.036104,1.0358379,1.0354567,1.0349356,1.0342486,1.0334442,1.0325804,1.031833,1.0312971,1.0308368,1.0302324,1.0294051,1.0284586,1.027543,1.0267408,1.0262834,1.0261846,1.0265255,1.0271553,1.0277796,1.0283952,1.0289396
0.9734247,0.97484267,0.9764272,0.9778693,0.97874266,0.9784802,0.9771267,0.97660947,0.9782208,0.9829806,0.99145466,1.0024182,1.0145645,1.026386,1.036085,1.042186,1.0447291,1.0450621,1.0445037,1.0438349,1.0432059,1.04273,1.042339,1.041847,1.0412529,1.040767,1.0404289,1.0403224,1.0405539,1.0410199,1.041338,1.0411484,1.0403411,1.0389488,1.0372313,1.035465,1.0342405,1.0339003,1.0342796,1.0348992,1.0353644,1.0356506,1.0357275,1.0355761,1.0354662,1.035631,1.0359913,1.0362805,1.0363554,1.0358657,1.0347658,1.0327833,1.0305661,1.0293359,1.0296556,1.0313313,1.0334978,1.03603,1.038229,1.0397564,1.0406985,1.0411757,1.0412943,1.0414181,1.0415668,1.0417745,1.0420427,1.042337,1.0426297,1.0429356,1.043277,1.043571,1.0437117,1.0435913,1.0432111,1.0427539,1.0424883,1.0425643,1.0429893,1.0436718,1.0445225,1.0451865,1.0454216,1.0454185,1.0452847,1.0451146,1.0448971,1.0446746,1.0444885,1.0443271,1.0441511,1.0439737,1.0437164,1.0434616,1.0432827,1.0432043,1.0432018,1.0432522,1.0433669,1.0435921,1.0439982,1.0445943,1.0452099,1.045577,1.045502,1.0449328,1.0437737,1.0421063,1.0401174,1.0385065,1.0380198,1.0386899,1.03984,1.0410643,1.0421038,1.0429673,1.0441836,1.0461757,1.0487612,1.0511932,1.0526073,1.0533957,1.0534395,1.0529414,1.0520043,1.0509304,1.0502355,1.0500677,1.0501227,1.0500731,1.0499561,1.049825,1.0496962,1.0495852,1.0495143,1.0494212,1.0493078,1.0491605,1.0490112,1.048912,1.0489002,1.0489867,1.0491478,1.0493884,1.0496945,1.0499928,1.0501947,1.0502076,1.0499802,1.0496066,1.0491712,1.0488069,1.0486238,1.0485225,1.0484061,1.0482678,1.0480124,1.0475578,1.0468057,1.0458398,1.0445297,1.0429711,1.0415661,1.0405531,1.0398077,1.039218,1.0388157,1.0385563,1.0383961,1.0383173,1.0383108,1.0384358,1.0385984,1.03881,1.039007,1.0391145,1.0391268,1.0390937,1.0390316,1.0389621,1.0388848,1.0387903,1.0386608,1.0384877,1.0382824,1.0380679,1.0378344,1.0375617,1.0372447,1.0368809,1.0364764,1.036053,1.0356472,1.0352932,1.0350138,1.034811,1.0346551,1.0344547,1.0341002,1.0335593,1.0329051,1.0322515,1.0317092,1.0313592,1.0311935,1.0311546,1.0311902,1.0312452,1.0312941,1.0312712,1.0311174,1.0309415,1.0308466,1.0309321,1.0314956,1.0328482,1.0349681,1.0373884,1.0395122,1.0409285,1.0415361,1.041458,1.0408096,1.0398147,1.0387781,1.037917,1.037337,1.0370206,1.0368519,1.0367601,1.0366901,1.0367409,1.0368595,1.0369084,1.036827,1.0366465,1.0363228,1.0359672,1.035692,1.0354772,1.0352398,1.0350101,1.0349348,1.0351005,1.0355921,1.0363511,1.0371485,1.0376754,1.0376792,1.0370147,1.0356715,1.0337929,1.0320766,1.0309174,1.0306077,1.030834,1.0309992,1.0309067,1.0306082,1.030062,1.0295365,1.0295789,1.0301409,1.0308189,1.0314243,1.0316694,1.0315375,1.0311573,1.0307803,1.0307369,1.0311683,1.0319057,1.0326669,1.033357,1.0339899,1.0345337,1.034993,1.0353727,1.0356393,1.0357624,1.0358794,1.0359777,1.0360076,1.0360354,1.0361686,1.0363834,1.0365264,1.0365891,1.0365095,1.0362673,1.035904,1.0354024,1.0347505,1.0340056,1.0331771,1.0323783,1.0318029,1.0313215,1.0307183,1.0299178,1.029007,1.0281236,1.0273417,1.0269158,1.0267942,1.0269985,1.0274475,1.0279694,1.0285674,1.0291265
