33.380142,33.3807,33.38169,33.384304,33.388153,33.392853,33.395935,33.392967,33.385098,33.37014,33.347942,33.326065,33.303402,33.284008,33.27348,33.268784,33.2684,33.27095,33.274292,33.27847,33.28268,33.286385,33.292374,33.300514,33.30845,33.31817,33.327087,33.332634,33.33716,33.34487,33.35933,33.38111,33.414356,33.4564,33.49801,33.5521,33.612453,33.663,33.717117,33.769966,33.80771,33.838345,33.866455,33.88666,33.902603,33.922073,33.94053,33.954384,33.972534,33.993614,34.012123,34.03102,34.050934,34.066406,34.07826,34.088757,34.096222,34.10253,34.108635,34.113438,34.11699,34.1209,34.122425,34.120483,34.115295,34.10511,34.092815,34.079803,34.062107,34.043198,34.025993,34.003365,33.977837,33.95491,33.927708,33.898693,33.875076,33.850925,33.824043,33.800484,33.779434,33.753197,33.72783,33.70719,33.68165,33.655605,33.634552,33.610336,33.585766,33.566757,33.547913,33.52861,33.51355,33.50142,33.4876,33.473602,33.460537,33.442284,33.418842,33.395893,33.3678,33.333755,33.30269,33.271698,33.23591,33.20453,33.178734,33.14859,33.11966,33.09549,33.065033,33.031654,33.00312,32.970566,32.93464,32.903225,32.86992,32.831352,32.7963,32.765236,32.72708,32.687645,32.65307,32.612507,32.56949,32.533722,32.4991,32.45964,32.42158,32.382927,32.33242,32.279568,32.22903,32.17249,32.118423,32.072647,32.012947,31.94788,31.896004,31.845715,31.797035,31.75933,31.725267,31.682962,31.637463,31.593422,31.52914,31.448347,31.370537,31.265915,31.129189,30.994114,30.837257,30.63596,30.437286,30.24546,29.999512,29.768398,29.59629,29.364712,29.121925,28.93106,28.732883,28.554874,28.433002,28.32501,28.220661,28.13493,28.058506,27.93393,27.799177,27.699348,27.593468,27.472015,27.34077,27.117832,26.731628,26.26862,25.693764,24.938354,24.210476,23.556618,22.794136,22.237133,21.965034,21.91853,24.248247,28.579556,33.71894,37.287243,37.946846,38.118797,38.16964,38.238197,38.18557,38.032784,37.812767,37.6188,37.299286,36.515896,35.434196,34.33615,32.308517,30.111511,28.887728,28.021753,27.686829,27.643587,27.743042,27.90996,28.012653,28.042046,27.981789,27.890732,27.795696,27.720354,27.700005,27.717583,27.775774,27.86039,27.94447,28.05897,28.194832,28.322792,28.506176,28.662079,28.700165,28.59046,28.21987,27.690578,27.103882,26.42664,25.83428,25.341637,24.892193,24.573395,24.361786,24.125034,23.832478,23.5315,23.190422,22.769379,22.384783,22.051554,21.68516,21.376894,21.144524,20.886003,20.645346,20.457691,20.241632,20.016119,19.834213,19.657873,19.45205,19.261238,19.090672,18.890495,18.710457,18.57277,18.425482,18.302118,18.220863,18.141819,18.073837,18.026108,17.980042,17.925081,17.873047,17.827263,17.774473,17.72872,17.696102,17.662008,17.629702,17.602932,17.571848,17.535828,17.503128,17.470324,17.431583,17.39492,17.361515,17.319153,17.277218,17.244167,17.199837,17.151276,17.112375,17.074837,17.033775,16.9971,16.963093,16.923063,16.886726,16.856995,16.822998,16.79121,16.766039,16.734964,16.704012,16.680946,16.654852,16.630274,16.616962,16.612278,16.62204
33.098892,33.09548,33.096325,33.104866,33.11968,33.13784,33.161037,33.18003,33.191036,33.19716,33.194855,33.18832,33.179604,33.171944,33.168694,33.167336,33.16694,33.166733,33.166313,33.165302,33.16491,33.16574,33.16954,33.17773,33.187565,33.200714,33.21782,33.233994,33.249702,33.269875,33.292683,33.317646,33.35264,33.39288,33.430084,33.475662,33.525,33.566437,33.610634,33.656315,33.69168,33.720825,33.74871,33.770554,33.789345,33.814644,33.840446,33.860397,33.884914,33.91047,33.930756,33.951477,33.972195,33.987144,33.99781,34.005882,34.0102,34.013214,34.016785,34.020367,34.023342,34.02678,34.02813,34.02633,34.021782,34.012794,34.00196,33.990738,33.974953,33.957542,33.94149,33.920097,33.89648,33.876022,33.851185,33.82386,33.80087,33.776848,33.74933,33.724625,33.702385,33.67431,33.646984,33.624763,33.59769,33.569916,33.546967,33.521072,33.494175,33.47263,33.45163,33.430412,33.414318,33.40175,33.38845,33.375565,33.363243,33.346233,33.32421,33.302345,33.275337,33.2418,33.210434,33.1786,33.1416,33.109035,33.08211,33.050613,33.02036,32.995106,32.96325,32.927933,32.897335,32.862404,32.82398,32.790512,32.754604,32.71418,32.678886,32.648495,32.61026,32.570488,32.536163,32.49549,32.45132,32.413887,32.37894,32.339966,32.30241,32.263664,32.212334,32.15782,32.10474,32.04962,31.996727,31.94776,31.883352,31.809742,31.747812,31.686548,31.62442,31.574154,31.527992,31.473032,31.418392,31.36847,31.300358,31.220081,31.145468,31.047104,30.923382,30.804573,30.667034,30.49254,30.321156,30.154882,29.939959,29.73516,29.57875,29.383648,29.178822,29.007435,28.829693,28.668707,28.557352,28.457428,28.358353,28.27481,28.199453,28.080322,27.949371,27.846008,27.735033,27.604307,27.461803,27.225872,26.83382,26.377563,25.818232,25.110306,24.433537,23.794195,23.058434,22.531872,22.272236,22.348501,25.145721,30.06931,34.6642,37.506393,37.953266,38.156723,38.23295,38.26821,38.21528,38.069443,37.857826,37.667397,37.34319,36.544106,35.443855,34.332428,32.274147,30.047592,28.83871,27.997126,27.679146,27.644531,27.74578,27.910145,28.01252,28.04237,27.982014,27.890186,27.79718,27.726202,27.709057,27.724758,27.782267,27.867222,27.950348,28.061167,28.189083,28.307192,28.467102,28.597256,28.621727,28.507303,28.147194,27.63887,27.07706,26.417336,25.82602,25.325779,24.867348,24.537775,24.315075,24.054644,23.736761,23.421688,23.071411,22.654392,22.284878,21.968143,21.617287,21.32034,21.097664,20.850683,20.620796,20.44103,20.235497,20.021622,19.84869,19.677992,19.484472,19.307209,19.14146,18.947323,18.772686,18.6381,18.49321,18.369858,18.28669,18.204208,18.130531,18.076937,18.025434,17.964924,17.908829,17.860157,17.804657,17.756786,17.722458,17.686409,17.652296,17.624256,17.592068,17.555294,17.522385,17.489777,17.451794,17.416065,17.38338,17.341385,17.298784,17.264278,17.219347,17.172966,17.137913,17.101906,17.061739,17.025974,16.993114,16.954647,16.919956,16.891788,16.859535,16.829205,16.805008,16.774982,16.745222,16.723454,16.699589,16.678303,16.668167,16.666456,16.678036
32.837677,32.82936,32.82837,32.840614,32.864273,32.893715,32.934494,32.97348,33.002186,33.029037,33.04581,33.052742,33.056313,33.060856,33.06714,33.071083,33.070347,33.064804,33.057922,33.049393,33.043175,33.040565,33.041786,33.049812,33.061325,33.077988,33.101467,33.125328,33.151066,33.184517,33.217377,33.246246,33.281693,33.31733,33.347603,33.38491,33.425446,33.459908,33.498314,33.539608,33.57317,33.60292,33.63497,33.662186,33.68471,33.710938,33.73613,33.756744,33.782303,33.809196,33.830578,33.85219,33.873096,33.88743,33.897114,33.903553,33.90587,33.906883,33.90748,33.908237,33.90954,33.91184,33.912544,33.910374,33.90599,33.897682,33.887703,33.877262,33.862717,33.847015,33.83296,33.814163,33.793144,33.77467,33.752113,33.72676,33.704857,33.681526,33.65419,33.629196,33.606533,33.577705,33.549355,33.52607,33.497444,33.467724,33.44297,33.414783,33.3853,33.361626,33.33863,33.3154,33.29782,33.284164,33.269978,33.257988,33.24852,33.23548,33.21785,33.19942,33.176003,33.145355,33.11534,33.083855,33.046654,33.013504,32.98572,32.952843,32.920895,32.894035,32.860092,32.82224,32.789177,32.75059,32.70734,32.670166,32.633633,32.59221,32.555763,32.525257,32.488186,32.450897,32.41921,32.382336,32.34321,32.309837,32.27311,32.22889,32.18625,32.143333,32.08718,32.028557,31.97321,31.908989,31.846375,31.793964,31.724094,31.64082,31.56746,31.494972,31.419926,31.359016,31.305737,31.243399,31.183388,31.13049,31.06105,30.982296,30.910648,30.817879,30.703484,30.595224,30.471336,30.316483,30.166128,30.020977,29.83313,29.655663,29.523365,29.354794,29.174984,29.023632,28.865932,28.721508,28.619987,28.527397,28.433058,28.351381,28.275871,28.166267,28.04168,27.928474,27.809362,27.669613,27.517284,27.273062,26.880898,26.437141,25.912483,25.242775,24.592466,23.974844,23.255814,22.76918,22.578953,22.872541,26.00766,31.18755,35.36099,37.65763,37.909275,38.16951,38.283257,38.284615,38.22978,38.08773,37.88125,37.692238,37.37146,36.55637,35.423798,34.302917,32.231792,29.9931,28.803135,27.982655,27.67611,27.648766,27.750404,27.911062,28.012337,28.041698,27.981466,27.890123,27.799427,27.73202,27.716856,27.730118,27.786385,27.871344,27.95345,28.061058,28.181993,28.291237,28.433563,28.543322,28.554678,28.433502,28.078238,27.584126,27.042181,26.386465,25.788319,25.291893,24.826065,24.484097,24.253883,23.970955,23.626184,23.293964,22.929472,22.518452,22.17182,21.876493,21.542694,21.255503,21.041443,20.804749,20.583305,20.408415,20.212242,20.0097,19.846083,19.684965,19.50343,19.3367,19.178116,18.992193,18.824339,18.694042,18.552769,18.430506,18.346283,18.261467,18.183498,18.125387,18.069818,18.005299,17.946377,17.89573,17.838284,17.788702,17.752823,17.714806,17.67868,17.64914,17.615606,17.577892,17.544714,17.512321,17.475166,17.440208,17.407703,17.364979,17.320488,17.283619,17.242542,17.200241,17.16492,17.12921,17.089672,17.054852,17.023073,16.986273,16.953487,16.927128,16.896984,16.868576,16.845808,16.817436,16.789469,16.769356,16.747784,16.72945,16.721878,16.722332,16.735075
32.572407,32.576004,32.586666,32.610313,32.642998,32.680683,32.73223,32.78357,32.824463,32.870316,32.90885,32.93311,32.955223,32.972992,32.983727,32.989723,32.98848,32.980743,32.97149,32.958324,32.946785,32.940266,32.937416,32.94281,32.953575,32.970284,32.9957,33.022575,33.051414,33.088753,33.12449,33.154533,33.19005,33.223934,33.25151,33.2843,33.318916,33.348083,33.380623,33.416122,33.445824,33.473167,33.50399,33.53144,33.554802,33.582447,33.60981,33.632904,33.661537,33.69149,33.714977,33.738346,33.75992,33.773617,33.782005,33.78604,33.78557,33.784336,33.78086,33.77672,33.774033,33.772137,33.7698,33.766434,33.761505,33.753727,33.745003,33.735947,33.723473,33.710114,33.698177,33.682243,33.66433,33.648438,33.628983,33.606625,33.58674,33.5651,33.538925,33.51425,33.491417,33.46192,33.432487,33.408096,33.377914,33.345547,33.317497,33.28486,33.250034,33.221985,33.19532,33.168793,33.14923,33.13451,33.120373,33.109993,33.10282,33.09288,33.079018,33.06404,33.044228,33.017326,32.990345,32.961487,32.927685,32.8976,32.872147,32.839134,32.803375,32.771137,32.730057,32.685852,32.649258,32.60621,32.557777,32.516876,32.47974,32.438896,32.40294,32.371986,32.333504,32.295776,32.265717,32.23256,32.19859,32.169502,32.136242,32.09585,32.0559,32.013084,31.952816,31.888313,31.830332,31.75535,31.675325,31.606476,31.519476,31.422974,31.342865,31.265106,31.181286,31.107574,31.038277,30.95465,30.877934,30.81748,30.744476,30.666027,30.594936,30.503834,30.393602,30.291813,30.17986,30.046167,29.92287,29.810005,29.668644,29.526648,29.402617,29.246807,29.087637,28.960743,28.829842,28.706636,28.614407,28.526941,28.434305,28.352947,28.278168,28.176876,28.061031,27.94925,27.81374,27.655102,27.49785,27.24653,26.86987,26.470207,26.043,25.39489,24.714766,24.158096,23.477175,23.071749,23.047497,23.695398,27.172485,32.445335,35.995815,37.737423,37.95125,38.218136,38.32646,38.29763,38.238926,38.098255,37.898193,37.7179,37.357834,36.50687,35.375397,34.20413,32.12643,29.937654,28.776157,27.979942,27.685791,27.662823,27.761654,27.916206,28.015034,28.042328,27.9817,27.891502,27.803457,27.738605,27.723885,27.73487,27.78998,27.874851,27.956085,28.060738,28.17479,28.274994,28.400494,28.48922,28.484613,28.3509,27.996313,27.514975,26.989616,26.332361,25.722881,25.229208,24.758404,24.401817,24.1539,23.837357,23.462873,23.121048,22.755419,22.352673,22.022247,21.75201,21.442055,21.1695,20.96415,20.738104,20.524193,20.352116,20.166142,19.977379,19.825394,19.676395,19.510086,19.357605,19.211037,19.037148,18.87831,18.754417,18.618614,18.49857,18.413784,18.32704,18.245106,18.182789,18.12362,18.05577,17.994696,17.942642,17.883728,17.83257,17.795036,17.75467,17.715961,17.684452,17.649185,17.610344,17.577042,17.545502,17.51036,17.475517,17.438114,17.394289,17.352596,17.318676,17.279142,17.2372,17.201885,17.166157,17.126846,17.092648,17.061813,17.026714,16.996061,16.971783,16.94422,16.918343,16.897556,16.871517,16.846054,16.82811,16.80921,16.793945,16.788822,16.791252,16.805296
32.47767,32.488297,32.506157,32.536644,32.574272,32.615723,32.67359,32.733593,32.783382,32.842834,32.896328,32.931824,32.964767,32.987755,32.997253,33.000885,32.995552,32.98272,32.96717,32.94519,32.92525,32.912914,32.904045,32.905132,32.91387,32.929504,32.954956,32.982292,33.011414,33.048904,33.08422,33.11321,33.146133,33.176197,33.200092,33.22724,33.254677,33.27729,33.302307,33.32976,33.35324,33.375534,33.40149,33.42563,33.44691,33.47364,33.501656,33.52593,33.556232,33.588028,33.612846,33.63726,33.659058,33.67176,33.67811,33.678215,33.672546,33.665894,33.656044,33.64573,33.638046,33.630688,33.624054,33.618584,33.612144,33.603897,33.595703,33.587563,33.57682,33.565666,33.555794,33.542885,33.528534,33.515766,33.50014,33.48168,33.46463,33.445507,33.42128,33.39747,33.37491,33.345173,33.314857,33.28932,33.25686,33.223373,33.196526,33.16665,33.13543,33.10974,33.08345,33.05628,33.036263,33.021988,33.009735,33.00258,32.998756,32.993813,32.98609,32.976578,32.962563,32.94128,32.91845,32.893642,32.863106,32.834343,32.809147,32.775288,32.7374,32.702652,32.658127,32.609795,32.569523,32.522545,32.46994,32.42564,32.385223,32.34194,32.305565,32.275337,32.239574,32.206814,32.182236,32.15709,32.13132,32.107628,32.078777,32.042362,32.005108,31.963642,31.902695,31.835115,31.773449,31.68954,31.597683,31.519087,31.425196,31.327606,31.250242,31.17403,31.089966,31.013268,30.9387,30.84481,30.755035,30.6823,30.59345,30.50071,30.42073,30.323975,30.213785,30.116268,30.01173,29.892948,29.788198,29.693539,29.579582,29.463963,29.35617,29.224018,29.092773,28.990387,28.882647,28.778046,28.69638,28.615183,28.525074,28.44365,28.36858,28.269352,28.157894,28.051777,27.904703,27.725739,27.556313,27.313652,26.96976,26.609165,26.221077,25.589363,24.9139,24.38203,23.77232,23.561844,23.819511,25.37068,29.228489,33.83187,36.510315,37.74959,38.055336,38.300537,38.370407,38.304886,38.23403,38.090218,37.88259,37.680748,37.268875,36.384926,35.258095,33.997902,31.934185,29.868929,28.751303,27.984959,27.70466,27.685522,27.779709,27.925732,28.020245,28.044008,27.982918,27.89481,27.810234,27.746702,27.73053,27.740974,27.795925,27.88053,27.961048,28.062775,28.16954,28.259972,28.37003,28.438,28.415138,28.265873,27.905306,27.43116,26.925144,26.266678,25.644268,25.153927,24.680706,24.307775,24.034578,23.687992,23.291203,22.943766,22.58054,22.186207,21.867514,21.613739,21.32396,21.066807,20.869274,20.647732,20.438385,20.273895,20.099712,19.925974,19.787481,19.653019,19.504343,19.368462,19.237482,19.079964,18.933615,18.818111,18.689804,18.573612,18.48938,18.401913,18.317358,18.252102,18.190655,18.121119,18.059378,18.00713,17.947918,17.895966,17.857195,17.814648,17.773247,17.739595,17.702316,17.66244,17.629223,17.598488,17.560612,17.521557,17.482746,17.440857,17.402721,17.370731,17.331379,17.288706,17.253082,17.217016,17.17781,17.144352,17.114666,17.081772,17.053883,17.032215,17.007872,16.98517,16.966908,16.943848,16.921501,16.906115,16.89001,16.87759,16.874426,16.878109,16.892971
32.625732,32.633057,32.648468,32.67691,32.713135,32.752983,32.81152,32.87458,32.92772,32.99012,33.045635,33.082214,33.113533,33.131233,33.133896,33.129826,33.114426,33.091026,33.0642,33.029396,32.998993,32.97963,32.96363,32.95942,32.965256,32.97895,33.003063,33.029373,33.05787,33.094376,33.127827,33.15412,33.18204,33.205505,33.22326,33.24228,33.26033,33.274784,33.290775,33.308365,33.323708,33.33873,33.357094,33.37538,33.392365,33.415424,33.441498,33.46501,33.495003,33.526962,33.551994,33.576534,33.59791,33.60932,33.613434,33.609566,33.598656,33.586178,33.570473,33.55616,33.54649,33.536842,33.52797,33.52079,33.513184,33.504356,33.49623,33.488483,33.478527,33.468452,33.45969,33.448547,33.43651,33.42594,33.413094,33.39745,33.38236,33.3648,33.34153,33.3179,33.295242,33.265312,33.234703,33.208755,33.17519,33.142494,33.11905,33.094654,33.070107,33.049248,33.02549,32.999783,32.98082,32.968025,32.958454,32.954918,32.954647,32.95514,32.953915,32.949898,32.941643,32.92556,32.906147,32.884655,32.855534,32.825817,32.79891,32.76425,32.72732,32.694435,32.65213,32.604233,32.56228,32.513935,32.460155,32.414604,32.370903,32.324585,32.288025,32.260178,32.23081,32.20666,32.1892,32.172546,32.15468,32.136208,32.11178,32.07772,32.041115,32.001175,31.943161,31.877172,31.81335,31.726883,31.634363,31.557503,31.468555,31.378256,31.306927,31.234127,31.154732,31.084389,31.01771,30.931446,30.842655,30.76373,30.661804,30.554564,30.465582,30.361689,30.251667,30.160244,30.06173,29.952,29.85553,29.764648,29.654776,29.551445,29.466953,29.365536,29.262703,29.177948,29.086535,28.995625,28.92329,28.848923,28.76279,28.682098,28.606674,28.505903,28.395554,28.29561,28.151386,27.963764,27.778849,27.548225,27.233784,26.891167,26.46462,25.84622,25.234085,24.716248,24.24919,24.329292,24.895971,27.464535,31.531311,35.001213,36.84957,37.725895,38.131012,38.358795,38.39879,38.305473,38.220055,38.066414,37.82892,37.567177,37.124012,36.227005,35.08391,33.730286,31.702978,29.793716,28.726856,27.99168,27.724787,27.709423,27.799126,27.936295,28.02539,28.045252,27.983866,27.898096,27.817066,27.754387,27.736546,27.748299,27.804226,27.888668,27.968794,28.068104,28.168316,28.24982,28.348282,28.399946,28.361229,28.199015,27.829697,27.357075,26.86866,26.213902,25.58485,25.097706,24.622238,24.235863,23.943016,23.580044,23.17286,22.822453,22.460083,22.071009,21.758484,21.508118,21.225464,20.975128,20.779858,20.557335,20.3513,20.197174,20.033436,19.872036,19.745262,19.623621,19.4905,19.369503,19.253082,19.111464,18.977547,18.87017,18.749485,18.637974,18.5555,18.468945,18.384039,18.318016,18.25632,18.187265,18.12661,18.075533,18.017464,17.965942,17.926907,17.883202,17.839994,17.80479,17.766106,17.72495,17.690498,17.658249,17.61446,17.57065,17.535236,17.496727,17.459673,17.426514,17.38638,17.34307,17.306967,17.270523,17.231606,17.19916,17.170845,17.140408,17.115433,17.09636,17.07508,17.055294,17.03932,17.018902,16.999222,16.985907,16.971806,16.961105,16.958801,16.96259,16.977325
32.865776,32.873642,32.888397,32.913963,32.946144,32.981842,33.03605,33.095,33.143944,33.200043,33.25191,33.289337,33.318375,33.32804,33.319393,33.30311,33.271927,33.233856,33.194916,33.147743,33.107666,33.081215,33.057556,33.04686,33.048363,33.057846,33.07824,33.10198,33.12857,33.16243,33.192463,33.214985,33.237373,33.25376,33.264275,33.27366,33.280895,33.28624,33.291824,33.297523,33.302433,33.307472,33.31486,33.324722,33.336243,33.354477,33.37795,33.40061,33.43058,33.463192,33.48874,33.513725,33.534492,33.544296,33.546535,33.54035,33.52758,33.514,33.496033,33.482162,33.477013,33.471916,33.465786,33.45897,33.45249,33.44527,33.43862,33.431984,33.42282,33.412975,33.404167,33.3929,33.380936,33.370758,33.358555,33.343307,33.32799,33.309578,33.284695,33.259396,33.235306,33.204853,33.17492,33.149956,33.119022,33.087006,33.060577,33.029755,32.996468,32.96901,32.941948,32.915077,32.896523,32.88422,32.876144,32.87497,32.877068,32.880783,32.883156,32.882095,32.87667,32.86335,32.84608,32.826275,32.79886,32.77062,32.745052,32.71205,32.676666,32.64495,32.60387,32.557148,32.516216,32.469048,32.416714,32.37272,32.331024,32.28776,32.254597,32.22992,32.204437,32.184055,32.16962,32.155567,32.141018,32.12682,32.11037,32.083076,32.049255,32.012295,31.957993,31.895355,31.833973,31.749916,31.657867,31.57943,31.486385,31.390545,31.315056,31.239326,31.1591,31.090672,31.027908,30.949348,30.870972,30.802816,30.715183,30.620218,30.537647,30.43216,30.32521,30.246067,30.160309,30.064579,29.981358,29.907701,29.814575,29.724068,29.650845,29.564503,29.477264,29.404854,29.33613,29.263994,29.197649,29.128433,29.045279,28.96617,28.892881,28.797476,28.695889,28.605568,28.477375,28.296093,28.101652,27.854465,27.541883,27.21545,26.763704,26.1386,25.58107,25.162323,24.95775,25.356724,26.136105,29.213924,33.227337,35.883484,37.128365,37.686752,38.08895,38.343132,38.40885,38.31369,38.225418,38.05797,37.77043,37.42483,36.988075,36.091347,34.883324,33.452797,31.477835,29.716965,28.701073,27.997297,27.743431,27.73154,27.817097,27.945679,28.028885,28.044899,27.9832,27.899408,27.821535,27.760702,27.742844,27.755922,27.812963,27.897614,27.9776,28.074968,28.169285,28.242489,28.331974,28.371094,28.3196,28.147556,27.772358,27.301147,26.822678,26.175236,25.54853,25.064259,24.582455,24.186623,23.889626,23.514936,23.097784,22.74524,22.382856,21.995964,21.686176,21.438837,21.154713,20.89838,20.69622,20.475567,20.277218,20.129045,19.973156,19.821625,19.704224,19.592674,19.472809,19.365334,19.262161,19.1339,19.010086,18.910063,18.796494,18.689878,18.609852,18.52525,18.441483,18.376118,18.315414,18.248081,18.18945,18.140324,18.084246,18.033962,17.995377,17.951313,17.907333,17.871664,17.832973,17.78944,17.750294,17.711693,17.665577,17.623966,17.590366,17.551893,17.513496,17.479374,17.438105,17.393814,17.357178,17.320408,17.281954,17.250713,17.223866,17.195896,17.173672,17.156921,17.138268,17.12085,17.106674,17.088243,17.070465,17.058521,17.045544,17.035513,17.033157,17.036217,17.050043
33.32157,33.326416,33.336555,33.351753,33.36876,33.389404,33.423508,33.470215,33.521973,33.573605,33.60945,33.626022,33.638817,33.64094,33.63022,33.600407,33.54889,33.49373,33.445656,33.38816,33.338287,33.303936,33.268913,33.247147,33.241608,33.244373,33.259052,33.27893,33.30237,33.332687,33.358547,33.37571,33.391327,33.400856,33.405533,33.40721,33.405155,33.40178,33.396397,33.38953,33.384018,33.379616,33.378048,33.381226,33.386795,33.399017,33.418877,33.44049,33.470757,33.50493,33.532005,33.55853,33.579918,33.58896,33.58953,33.580997,33.565792,33.549934,33.529392,33.51276,33.504944,33.495224,33.483414,33.472042,33.461407,33.450623,33.441772,33.433487,33.42277,33.411766,33.402084,33.38996,33.37756,33.3674,33.3556,33.340965,33.326035,33.307808,33.28205,33.254562,33.227127,33.192135,33.159966,33.136677,33.10824,33.07805,33.051735,33.019592,32.983902,32.954506,32.926712,32.90002,32.882385,32.87139,32.86455,32.86448,32.867798,32.87327,32.877808,32.878677,32.87509,32.86362,32.84794,32.83005,32.803547,32.77544,32.75084,32.719612,32.68651,32.656906,32.618164,32.57382,32.53473,32.488136,32.43636,32.393738,32.35444,32.31515,32.286488,32.266056,32.245365,32.22827,32.21501,32.199955,32.18865,32.182777,32.172382,32.148846,32.11589,32.078316,32.024635,31.964523,31.906265,31.826593,31.7383,31.661709,31.570704,31.475075,31.39801,31.320234,31.241356,31.179647,31.127571,31.069363,31.011871,30.955822,30.883797,30.804615,30.734453,30.645588,30.553936,30.48447,30.410503,30.3308,30.264524,30.205671,30.143639,30.0921,30.051609,29.994467,29.93126,29.879276,29.826841,29.767097,29.709396,29.64811,29.57388,29.50161,29.431915,29.335945,29.229557,29.133667,28.999521,28.822073,28.641811,28.408295,28.132519,27.858646,27.447643,26.916584,26.52256,26.316616,26.387072,27.331978,29.00428,32.018917,35.108547,36.81086,37.53422,37.831734,38.11848,38.27585,38.33135,38.269196,38.15267,37.934555,37.585693,37.187378,36.64503,35.730667,34.61737,33.11142,31.189175,29.618855,28.669306,28.005331,27.7667,27.758568,27.83926,27.957397,28.032547,28.044056,27.982525,27.901348,27.827265,27.769674,27.753414,27.768742,27.827648,27.912949,27.993105,28.08826,28.176483,28.241817,28.31976,28.343033,28.277048,28.09365,27.711887,27.241941,26.772354,26.13181,25.508583,25.029585,24.543919,24.135689,23.826164,23.438347,23.01334,22.660496,22.299843,21.917416,21.610138,21.359144,21.067886,20.806126,20.603432,20.386292,20.194675,20.052645,19.904675,19.763817,19.657345,19.558186,19.453533,19.36028,19.270239,19.156277,19.044243,18.952854,18.847895,18.74773,18.67149,18.590313,18.509321,18.446014,18.387642,18.323483,18.268091,18.221897,18.16874,18.120628,18.083557,18.041018,17.9953,17.954988,17.913338,17.865938,17.822754,17.781212,17.734003,17.693193,17.660671,17.621273,17.580677,17.545063,17.502209,17.45681,17.419823,17.383091,17.345871,17.31675,17.292273,17.26788,17.249357,17.23559,17.220081,17.205276,17.192982,17.176537,17.160545,17.14982,17.137691,17.127884,17.125025,17.126934,17.139603
34.25846,34.26632,34.276436,34.286255,34.294,34.306194,34.323753,34.35354,34.396465,34.43785,34.45913,34.458748,34.456345,34.439873,34.407402,34.34609,34.251854,34.156395,34.074806,33.977055,33.89125,33.83069,33.774815,33.73876,33.72254,33.71545,33.722637,33.73835,33.758842,33.784653,33.80545,33.81974,33.826145,33.819374,33.80619,33.786446,33.7636,33.745514,33.72771,33.707855,33.69033,33.67475,33.661797,33.656204,33.654755,33.66001,33.67524,33.694595,33.723366,33.756706,33.782993,33.808403,33.82785,33.834366,33.831825,33.81933,33.8004,33.78132,33.758263,33.738266,33.72543,33.710403,33.695,33.68254,33.670513,33.658607,33.64913,33.640366,33.629154,33.61776,33.60782,33.59533,33.582504,33.571953,33.559654,33.544456,33.529007,33.51009,33.483124,33.454002,33.424675,33.386555,33.351303,33.326088,33.295624,33.26422,33.23769,33.205605,33.170017,33.140434,33.111862,33.083824,33.065018,33.052895,33.049133,33.055832,33.06566,33.07888,33.090614,33.09642,33.097095,33.088867,33.07529,33.059628,33.03527,33.009075,32.98677,32.958492,32.927933,32.899918,32.86228,32.818127,32.77912,32.7375,32.69228,32.654476,32.619858,32.586655,32.564163,32.548958,32.536343,32.53021,32.528458,32.52532,32.52609,32.530014,32.52594,32.50602,32.473843,32.434593,32.377525,32.313354,32.250923,32.166862,32.076565,32.00073,31.912422,31.823877,31.756264,31.690727,31.628847,31.584034,31.547697,31.507622,31.468761,31.431858,31.384415,31.332699,31.287468,31.235142,31.178947,31.131992,31.083675,31.03497,30.996063,30.956566,30.925554,30.90651,30.888485,30.851685,30.806047,30.769693,30.726236,30.675776,30.6293,30.577812,30.513153,30.446602,30.378428,30.280975,30.170666,30.07022,29.935835,29.779469,29.637218,29.44357,29.218143,29.00688,28.699545,28.35891,28.20147,28.216764,28.704197,30.164772,32.329376,34.76838,36.63578,37.445595,37.859425,38.030975,38.15094,38.2031,38.16249,38.028,37.857563,37.592716,37.222336,36.824333,36.17761,35.271103,34.32738,32.760124,30.889797,29.515062,28.635818,28.012667,27.78767,27.782162,27.857517,27.965038,28.031528,28.039145,27.978996,27.901272,27.831284,27.778387,27.765762,27.784046,27.845327,27.931581,28.012089,28.104925,28.187569,28.246447,28.311626,28.317575,28.23705,28.04189,27.653278,27.18396,26.720657,26.086674,25.467964,24.993946,24.498531,24.0708,23.745943,23.34798,22.920334,22.57034,22.214848,21.840763,21.53791,21.280846,20.982311,20.718601,20.520418,20.307743,20.121334,19.984848,19.844515,19.714031,19.617868,19.529957,19.43784,19.355553,19.275915,19.17424,19.073185,18.990055,18.893757,18.80075,18.729246,18.652714,18.575949,18.515888,18.4608,18.400576,18.348866,18.305954,18.256405,18.210178,18.172821,18.128819,18.080835,18.038506,17.992819,17.941328,17.896013,17.853477,17.806194,17.765322,17.731705,17.689924,17.64663,17.609228,17.564732,17.518642,17.482002,17.446274,17.411587,17.385813,17.3648,17.345074,17.330963,17.320559,17.3083,17.295906,17.285244,17.270393,17.255768,17.245987,17.234491,17.2248,17.221533,17.222633,17.234795
35.52986,35.55243,35.572514,35.590073,35.605507,35.62632,35.646896,35.663857,35.679573,35.70303,35.722973,35.730377,35.726604,35.678978,35.59552,35.48591,35.331726,35.1763,35.034924,34.86642,34.720062,34.61692,34.534668,34.485413,34.4575,34.440033,34.440285,34.4532,34.472633,34.494255,34.510025,34.52525,34.52085,34.487785,34.443066,34.385246,34.3267,34.28544,34.25172,34.216164,34.18257,34.151363,34.12007,34.099976,34.089874,34.08792,34.098644,34.114937,34.140316,34.16973,34.1921,34.212845,34.226727,34.22824,34.22101,34.20302,34.179573,34.15742,34.13202,34.110886,34.09754,34.085377,34.076557,34.071117,34.065487,34.05986,34.054962,34.04963,34.04152,34.032192,34.0237,34.012413,33.999947,33.98908,33.97567,33.958435,33.940773,33.919094,33.88962,33.85977,33.831757,33.795746,33.75928,33.727776,33.690765,33.653687,33.6231,33.586796,33.547005,33.513973,33.48192,33.44982,33.42762,33.411568,33.413345,33.433884,33.45678,33.485237,33.510567,33.525166,33.533226,33.53015,33.519356,33.50557,33.48503,33.463757,33.44551,33.421402,33.39321,33.3656,33.32707,33.280235,33.239258,33.20776,33.176193,33.14732,33.120117,33.09559,33.081543,33.07318,33.07337,33.08869,33.11231,33.139565,33.16301,33.175133,33.180305,33.167072,33.137344,33.09881,33.03743,32.96363,32.889423,32.79062,32.689323,32.609406,32.517723,32.436504,32.386055,32.345474,32.313847,32.29178,32.27025,32.234787,32.202972,32.191364,32.17682,32.161285,32.1477,32.13348,32.120247,32.11078,32.1026,32.097446,32.092506,32.079742,32.065926,32.04738,32.02067,31.982513,31.9417,31.910383,31.877668,31.842243,31.808418,31.766724,31.706518,31.638943,31.5685,31.474693,31.37583,31.288492,31.184668,31.072742,30.971148,30.816952,30.623722,30.451073,30.249031,30.09878,30.14481,30.282906,31.296768,32.97429,34.51469,36.357376,37.53724,37.699085,37.96427,38.1009,38.108192,38.16172,37.970673,37.624565,37.39993,37.12895,36.788918,36.415287,35.780785,34.927063,34.067387,32.457714,30.642817,29.426384,28.606709,28.017231,27.8018,27.797255,27.86736,27.965788,28.025024,28.03004,27.972134,27.898148,27.832012,27.784092,27.775795,27.796944,27.860435,27.947563,28.028316,28.119007,28.196804,28.25028,28.303978,28.294357,28.200953,27.995136,27.600056,27.130709,26.67155,26.044693,25.43113,24.958977,24.444662,23.993011,23.65902,23.255875,22.829197,22.483723,22.135338,21.771275,21.474895,21.216,20.915379,20.65229,20.457321,20.248653,20.066988,19.935057,19.801826,19.680351,19.592056,19.511711,19.427135,19.351482,19.279358,19.186722,19.093983,19.0174,18.928316,18.84171,18.774708,18.702742,18.630262,18.573444,18.521435,18.464622,18.41589,18.375555,18.329205,18.28359,18.24327,18.193214,18.14352,18.105822,18.057972,18.003643,17.957458,17.91261,17.865257,17.824936,17.78858,17.74366,17.697851,17.65887,17.613125,17.566957,17.531263,17.497246,17.465797,17.44382,17.426607,17.411648,17.401775,17.39449,17.385052,17.374573,17.365143,17.351421,17.337769,17.328737,17.31786,17.308552,17.305408,17.306477,17.319092
37.19703,37.266132,37.315506,37.33919,37.341946,37.342377,37.36139,37.390076,37.409676,37.41932,37.410156,37.38909,37.34452,37.252426,37.13685,36.998352,36.827114,36.6681,36.521423,36.351513,36.210167,36.116486,36.022247,35.94993,35.906937,35.881462,35.88135,35.89853,35.92424,35.951878,35.96782,35.976543,35.96145,35.91574,35.860573,35.770393,35.65705,35.559418,35.457428,35.345493,35.24935,35.161045,35.063713,34.992676,34.95433,34.939938,34.95469,34.97677,35.00869,35.045998,35.07557,35.10354,35.12268,35.12584,35.118965,35.098656,35.070194,35.042137,35.00837,34.977974,34.95682,34.935417,34.91717,34.90455,34.89192,34.88092,34.87434,34.869774,34.866165,34.863922,34.862236,34.859024,34.852997,34.845375,34.8333,34.814575,34.79396,34.768257,34.733593,34.698975,34.666622,34.625618,34.58464,34.549587,34.50711,34.46334,34.42686,34.384632,34.34043,34.306023,34.27491,34.248962,34.237305,34.23439,34.24936,34.280052,34.31102,34.349014,34.38213,34.40083,34.411118,34.407005,34.39302,34.374916,34.350357,34.327667,34.30986,34.289165,34.26718,34.246017,34.21532,34.177353,34.143646,34.11242,34.082756,34.062492,34.049667,34.052807,34.07628,34.108364,34.168037,34.24446,34.31283,34.3922,34.4607,34.499428,34.524235,34.51634,34.481537,34.440437,34.380375,34.312897,34.24705,34.15896,34.064957,33.986355,33.89447,33.810936,33.75765,33.710876,33.68357,33.67948,33.682755,33.68071,33.67521,33.67502,33.674034,33.66986,33.663113,33.653423,33.64551,33.64351,33.645836,33.65373,33.663265,33.6707,33.680458,33.689537,33.693893,33.720608,33.770576,33.822567,33.88247,33.933525,33.95506,33.951103,33.90555,33.833916,33.75946,33.671734,33.603104,33.563118,33.54588,33.52155,33.471878,33.422207,33.34216,33.253532,33.156063,33.163414,33.378063,33.74292,34.4933,35.507614,36.47667,37.379242,37.86773,37.938625,38.072884,38.13246,38.07593,37.926994,37.582897,37.198997,36.954323,36.67184,36.33213,35.96341,35.366302,34.532524,33.657555,32.08998,30.40704,29.33812,28.583033,28.029514,27.82237,27.816998,27.879572,27.966919,28.017614,28.019606,27.964329,27.894686,27.833462,27.791512,27.788067,27.812561,27.87861,27.966637,28.047482,28.135595,28.207489,28.254116,28.294247,28.266272,28.15741,27.938457,27.534557,27.064207,26.609873,25.995228,25.389332,24.912136,24.376474,23.902885,23.562286,23.152275,22.724691,22.384136,22.043388,21.688087,21.397827,21.143307,20.844238,20.582218,20.391438,20.187878,20.01186,19.884968,19.758629,19.64459,19.56242,19.4903,19.413773,19.344742,19.280842,19.197395,19.11281,19.042969,18.961401,18.8815,18.819206,18.752037,18.684204,18.6311,18.582932,18.530766,18.48452,18.442747,18.392475,18.345242,18.308443,18.263771,18.214962,18.172165,18.121733,18.065273,18.018097,17.975863,17.92878,17.885698,17.846745,17.798738,17.750477,17.710154,17.663544,17.617847,17.583654,17.55201,17.52457,17.507023,17.494152,17.484509,17.479256,17.475315,17.468805,17.460182,17.45187,17.439087,17.426197,17.41779,17.407482,17.398645,17.395927,17.397518,17.411434
39.021393,39.133324,39.224464,39.294613,39.338154,39.374107,39.430508,39.491867,39.537766,39.61213,39.671967,39.687332,39.67354,39.61856,39.54624,39.45755,39.352997,39.26293,39.18522,39.091766,39.00546,38.938637,38.871223,38.82555,38.807922,38.810665,38.837425,38.872208,38.91012,38.951263,38.96775,38.952766,38.90235,38.817696,38.72938,38.591095,38.41577,38.258804,38.084106,37.888405,37.72345,37.578278,37.424496,37.31337,37.24943,37.214954,37.2209,37.24076,37.270363,37.302376,37.323883,37.342155,37.35464,37.35505,37.34275,37.31138,37.26751,37.22348,37.167496,37.113552,37.07367,37.03682,37.00781,36.98884,36.97116,36.958107,36.953056,36.951775,36.955414,36.96316,36.97139,36.981155,36.987923,36.989628,36.986313,36.97377,36.955994,36.932114,36.89795,36.86261,36.828934,36.78566,36.742603,36.706696,36.66119,36.611473,36.56819,36.517883,36.46499,36.42399,36.387337,36.358772,36.349037,36.351448,36.370316,36.402397,36.4343,36.47255,36.50341,36.517822,36.52076,36.505512,36.48049,36.451385,36.41659,36.388996,36.37059,36.354614,36.34273,36.33248,36.31668,36.297913,36.282017,36.262062,36.245407,36.242153,36.250954,36.288696,36.35457,36.43052,36.55114,36.695442,36.823677,36.972317,37.103745,37.183327,37.241096,37.25595,37.232346,37.199177,37.145615,37.077938,37.00492,36.89637,36.766804,36.649445,36.512604,36.388283,36.310745,36.248573,36.224342,36.24025,36.27131,36.310154,36.321365,36.292816,36.251354,36.19985,36.151314,36.091614,36.03299,35.993713,35.96273,35.94465,35.946346,35.961838,35.995583,36.04361,36.094734,36.149727,36.212852,36.277504,36.34744,36.40081,36.416874,36.40177,36.337837,36.248505,36.161118,36.061745,35.98941,35.95332,35.942047,35.928802,35.89541,35.911125,35.90789,35.86514,35.806984,35.820526,35.98517,36.299202,36.66056,37.082527,37.58355,37.866116,37.988083,38.088203,38.119625,38.06746,37.920208,37.575157,37.12874,36.76149,36.504562,36.206375,35.858482,35.492302,34.942913,34.13388,33.23607,31.7337,30.193504,29.260551,28.570587,28.052404,27.850525,27.841217,27.893017,27.96685,28.00753,28.005095,27.952326,27.888092,27.83271,27.797733,27.79992,27.828392,27.897583,27.986809,28.06784,28.153198,28.218258,28.256569,28.280754,28.231018,28.103422,27.86737,27.454678,26.9859,26.533674,25.934555,25.339458,24.850277,24.29499,23.802963,23.453365,23.038021,22.610699,22.273739,21.938488,21.589697,21.305828,21.060352,20.767698,20.509739,20.324661,20.127985,19.958889,19.837503,19.717787,19.610542,19.533798,19.46798,19.39785,19.3347,19.277985,19.20462,19.129568,19.066093,18.991873,18.918674,18.861168,18.799208,18.73601,18.6856,18.6385,18.586971,18.541782,18.502142,18.454033,18.408298,18.37239,18.329231,18.279266,18.232763,18.182636,18.128021,18.082235,18.041412,17.993023,17.946625,17.90527,17.854626,17.804596,17.763653,17.717054,17.672709,17.640669,17.612053,17.589138,17.57626,17.567848,17.563477,17.562637,17.561808,17.557842,17.550625,17.543068,17.530811,17.518295,17.510284,17.50052,17.492416,17.490736,17.493887,17.510899
40.34536,40.479233,40.607185,40.74535,40.868744,40.985054,41.112316,41.22496,41.31537,41.498257,41.68976,41.798317,41.882965,41.93246,41.95121,41.957066,41.95318,41.95093,41.962204,41.968155,41.95665,41.92951,41.93095,41.96646,42.013264,42.077003,42.15612,42.22562,42.293182,42.36862,42.40857,42.3964,42.343998,42.25241,42.15522,42.016052,41.846176,41.694435,41.52256,41.32344,41.152115,41.005272,40.856213,40.749718,40.682747,40.634087,40.621555,40.629433,40.646248,40.662006,40.666443,40.666702,40.667896,40.66575,40.649567,40.61082,40.55547,40.498,40.420906,40.342773,40.28312,40.231636,40.195328,40.17463,40.157494,40.148094,40.14836,40.15309,40.165718,40.184486,40.204014,40.23043,40.256844,40.275795,40.293236,40.302742,40.302166,40.293575,40.272957,40.24616,40.218224,40.178352,40.13479,40.09627,40.047485,39.99449,39.94867,39.894363,39.83484,39.785904,39.73906,39.696213,39.672203,39.66179,39.66712,39.688496,39.712776,39.74199,39.76274,39.767597,39.758118,39.726788,39.686466,39.641914,39.591286,39.553093,39.52868,39.51027,39.500927,39.495068,39.48606,39.477333,39.47191,39.46454,39.462147,39.4709,39.49108,39.541508,39.61787,39.701767,39.829205,39.98451,40.130077,40.29648,40.441658,40.528008,40.58847,40.606537,40.58564,40.54991,40.483974,40.38999,40.281944,40.11278,39.903324,39.710476,39.48403,39.27268,39.13572,39.031372,38.97831,38.97841,38.997307,39.028877,39.021473,38.95008,38.85129,38.73757,38.63681,38.517334,38.39565,38.30488,38.222637,38.15815,38.132446,38.132267,38.161404,38.21634,38.28074,38.300987,38.29312,38.294506,38.289192,38.262558,38.216667,38.146656,38.036026,37.916832,37.806057,37.673798,37.55751,37.473385,37.380764,37.298996,37.24308,37.23604,37.213867,37.151047,37.065575,36.979195,36.958084,36.996872,37.231014,37.57389,37.845818,38.051598,38.137802,38.140125,38.106674,37.938072,37.655693,37.24745,36.777546,36.409836,36.13726,35.823486,35.4714,35.112442,34.59662,33.820557,32.93634,31.480465,30.03962,29.209673,28.571423,28.081093,27.88132,27.865673,27.905544,27.966091,27.997234,27.989605,27.938475,27.879505,27.829554,27.801079,27.808582,27.840893,27.913239,28.003822,28.08519,28.168228,28.226896,28.257084,28.266148,28.195618,28.049917,27.797195,27.378399,26.913778,26.460762,25.876202,25.294527,24.79692,24.231476,23.727463,23.36665,22.947437,22.520435,22.184105,21.850235,21.504242,21.225044,20.987383,20.702412,20.450583,20.27129,20.081589,19.91904,19.802364,19.687813,19.585896,19.513285,19.45028,19.38363,19.324642,19.272255,19.206963,19.14051,19.082512,19.014515,18.94667,18.892641,18.83427,18.7737,18.724173,18.676632,18.623837,18.57932,18.544443,18.503391,18.46109,18.42234,18.374659,18.32269,18.27855,18.231236,18.180462,18.13707,18.094494,18.043674,17.995533,17.952642,17.90059,17.850079,17.809502,17.763903,17.721535,17.691803,17.666145,17.647118,17.63792,17.632927,17.632374,17.634554,17.635788,17.633316,17.626707,17.61937,17.607098,17.594467,17.58648,17.577005,17.569572,17.569145,17.57433,17.59533
41.07708,41.240982,41.396782,41.567123,41.723015,41.86916,42.06448,42.266113,42.43518,42.655518,42.8679,43.013863,43.14521,43.250847,43.317017,43.360943,43.39175,43.41716,43.452396,43.51007,43.58336,43.653465,43.76217,43.89465,44.009773,44.140152,44.2865,44.4188,44.567165,44.73799,44.876778,44.978107,45.079174,45.149956,45.190273,45.21746,45.217808,45.200325,45.167877,45.109444,45.043297,44.97573,44.892544,44.819916,44.765507,44.718697,44.69437,44.685867,44.687256,44.697754,44.708694,44.723526,44.742046,44.754368,44.756947,44.743614,44.708527,44.660995,44.581394,44.48816,44.41224,44.333374,44.26541,44.221863,44.187515,44.164665,44.158936,44.164543,44.18702,44.224197,44.264023,44.322666,44.389244,44.444572,44.50936,44.575592,44.623604,44.656654,44.671806,44.665573,44.648975,44.6118,44.559044,44.50512,44.44301,44.388298,44.351334,44.30734,44.258442,44.215416,44.16947,44.117226,44.07598,44.04693,44.029366,44.032303,44.045982,44.06922,44.091156,44.100235,44.094383,44.060608,44.01053,43.95045,43.876747,43.814713,43.768303,43.725372,43.69613,43.677227,43.651,43.62136,43.59648,43.570496,43.550278,43.54425,43.54863,43.57385,43.61563,43.66017,43.72465,43.791077,43.841232,43.886757,43.90612,43.89633,43.85735,43.775185,43.67614,43.572876,43.432,43.273712,43.116795,42.883644,42.59647,42.32599,41.990604,41.63421,41.35833,41.115288,40.917572,40.79928,40.706596,40.62109,40.55011,40.481544,40.39394,40.295906,40.206642,40.09558,39.971256,39.866737,39.75895,39.654358,39.581917,39.52694,39.480453,39.458588,39.454937,39.450443,39.46078,39.48586,39.512142,39.512196,39.474583,39.399788,39.262596,39.104088,38.953266,38.774864,38.62123,38.512505,38.39598,38.299316,38.23524,38.174294,38.093613,38.00318,37.902447,37.805912,37.762054,37.76084,37.848446,37.996876,38.128365,38.20375,38.1957,38.14345,38.108505,37.83657,37.384514,36.956516,36.48996,36.11759,35.833492,35.508232,35.154,34.80221,34.32296,33.572235,32.684273,31.280117,29.92866,29.175549,28.578823,28.112036,27.914085,27.890823,27.918503,27.966412,27.988632,27.975878,27.925838,27.871433,27.826344,27.80383,27.816275,27.85218,27.927538,28.019478,28.101206,28.182192,28.234804,28.25703,28.252104,28.162262,27.999695,27.73328,27.30968,26.848503,26.394943,25.826084,25.263597,24.769737,24.200602,23.686136,23.315334,22.888893,22.457943,22.120419,21.786232,21.441109,21.164106,20.930096,20.650795,20.40512,20.230947,20.047436,19.890442,19.777418,19.667042,19.568863,19.49855,19.43687,19.37254,19.316502,19.26635,19.204548,19.143627,19.09261,19.031609,18.968449,18.91609,18.857697,18.795847,18.746271,18.703259,18.657467,18.616835,18.57963,18.533863,18.488861,18.451881,18.407429,18.359795,18.319113,18.273598,18.223034,18.178894,18.135456,18.083378,18.034073,17.990345,17.937767,17.887594,17.847986,17.803951,17.76392,17.73659,17.713829,17.69822,17.691978,17.689636,17.691833,17.696018,17.698574,17.696909,17.690407,17.682938,17.670301,17.657187,17.648891,17.639315,17.632187,17.63279,17.639862,17.664684
41.79155,41.989204,42.183304,42.39869,42.596867,42.782608,43.041336,43.317726,43.55432,43.83559,44.122475,44.35747,44.587303,44.786697,44.91722,45.019047,45.11057,45.19156,45.279232,45.42234,45.60186,45.773468,45.96801,46.17002,46.34359,46.536743,46.74652,46.92816,47.119484,47.336594,47.525124,47.685608,47.87406,48.046795,48.179855,48.32085,48.43754,48.509888,48.566963,48.59729,48.60273,48.604515,48.5979,48.590675,48.59111,48.597794,48.62439,48.666958,48.717064,48.769608,48.810375,48.84391,48.88734,48.930145,48.961433,48.97947,48.971283,48.9443,48.911423,48.875664,48.842655,48.83004,48.849068,48.883656,48.914913,48.95425,48.994133,49.034782,49.078636,49.118343,49.155266,49.207397,49.26551,49.314003,49.37095,49.4284,49.469482,49.499115,49.514183,49.510452,49.497055,49.464165,49.415695,49.3658,49.304443,49.243706,49.196777,49.141914,49.074463,49.00885,48.93764,48.857513,48.790936,48.736282,48.678474,48.628586,48.58809,48.537743,48.46599,48.38479,48.28611,48.16198,48.04433,47.922234,47.78872,47.685673,47.61299,47.545116,47.49315,47.45192,47.39679,47.333656,47.27897,47.221268,47.163807,47.12058,47.08255,47.046246,47.019398,46.99776,46.97612,46.951824,46.923973,46.885292,46.835407,46.78431,46.701584,46.58687,46.470306,46.347862,46.168724,45.957596,45.747826,45.437614,45.07177,44.744766,44.345673,43.91922,43.577297,43.247585,42.929646,42.69843,42.518097,42.346592,42.22384,42.13939,42.03722,41.925426,41.821793,41.686584,41.53174,41.40039,41.26284,41.120377,41.012054,40.925804,40.84455,40.79467,40.770027,40.77038,40.794594,40.817146,40.785927,40.70665,40.612907,40.482353,40.29842,40.1199,39.97416,39.777985,39.585213,39.439987,39.284378,39.154312,39.06549,38.94427,38.800735,38.676994,38.558456,38.448112,38.382507,38.34855,38.338898,38.356148,38.381813,38.364258,38.287247,38.17965,37.98932,37.571877,37.06658,36.62526,36.15699,35.78151,35.490017,35.15969,34.81438,34.485664,34.003567,33.236595,32.349716,31.05608,29.833519,29.148647,28.595726,28.153175,27.95472,27.919664,27.931028,27.963375,27.974842,27.955608,27.906551,27.857594,27.819197,27.804722,27.823503,27.864119,27.94343,28.037136,28.1193,28.197712,28.243103,28.256092,28.233643,28.120739,27.939564,27.659378,27.230911,26.773064,26.321377,25.761354,25.218193,24.752052,24.199783,23.68184,23.29633,22.862026,22.42601,22.084297,21.745468,21.395935,21.116787,20.882622,20.606869,20.3672,20.19814,20.020794,19.869434,19.760185,19.653088,19.55691,19.487171,19.424994,19.361694,19.308434,19.261116,19.2025,19.144594,19.096317,19.038513,18.978107,18.927494,18.871334,18.812344,18.765572,18.725964,18.681234,18.639694,18.602947,18.557878,18.514305,18.479462,18.43729,18.391838,18.352728,18.307943,18.257097,18.212118,18.167858,18.114807,18.064909,18.021072,17.969166,17.920788,17.883432,17.842407,17.805986,17.781843,17.762604,17.750603,17.747034,17.746902,17.75106,17.756382,17.759567,17.757994,17.751026,17.743034,17.729534,17.715326,17.70615,17.695812,17.688417,17.689808,17.698738,17.727615
42.37293,42.599846,42.825886,43.080032,43.31539,43.536827,43.837704,44.160652,44.44519,44.804253,45.192554,45.521183,45.85266,46.145332,46.336937,46.490463,46.626297,46.741226,46.8636,47.063957,47.306374,47.526253,47.769203,48.002926,48.18844,48.390976,48.613823,48.80855,48.99775,49.214832,49.41001,49.578484,49.78356,49.980907,50.139244,50.31155,50.460194,50.55687,50.637978,50.69456,50.726963,50.763725,50.80731,50.85456,50.90713,50.974274,51.062622,51.161526,51.269768,51.37275,51.447037,51.504677,51.572563,51.63875,51.689697,51.729374,51.745056,51.744102,51.7641,51.79592,51.819504,51.88331,51.991116,52.099327,52.19507,52.293846,52.373524,52.440273,52.494453,52.52491,52.546707,52.573265,52.59928,52.619537,52.641792,52.658737,52.665665,52.668304,52.66263,52.649113,52.631676,52.60118,52.562702,52.52638,52.475487,52.413643,52.356144,52.288895,52.203827,52.12072,52.03325,51.93866,51.860794,51.794174,51.71351,51.62779,51.546684,51.43783,51.29316,51.14548,50.979286,50.795296,50.639393,50.486744,50.326725,50.206036,50.12143,50.03631,49.961143,49.895103,49.80832,49.710182,49.6258,49.534912,49.43737,49.354286,49.272026,49.17518,49.085358,49.00624,48.913555,48.82434,48.750313,48.667923,48.58873,48.52485,48.434357,48.323887,48.218132,48.104004,47.924026,47.699955,47.472004,47.146637,46.752083,46.37816,45.934402,45.474297,45.111916,44.74572,44.372337,44.089653,43.87715,43.67677,43.530754,43.42398,43.29724,43.165756,43.050125,42.906906,42.735443,42.57904,42.416943,42.248104,42.12213,42.029007,41.948994,41.908684,41.897163,41.90514,41.90584,41.876984,41.753605,41.56865,41.40275,41.21656,40.996212,40.80064,40.63755,40.407448,40.170086,39.98391,39.782845,39.609596,39.487137,39.33284,39.159977,39.01582,38.8811,38.745407,38.64657,38.576187,38.52305,38.490326,38.46174,38.39348,38.25783,38.0809,37.720417,37.209984,36.741398,36.297142,35.830334,35.46319,35.179756,34.85872,34.528366,34.221848,33.713615,32.90908,32.02407,30.858555,29.76762,29.133837,28.618618,28.19619,27.995075,27.946693,27.94114,27.958202,27.95922,27.933777,27.885761,27.842154,27.810818,27.804676,27.829767,27.875122,27.95832,28.053654,28.13611,28.21188,28.250313,28.254604,28.215717,28.082424,27.885849,27.59358,27.161385,26.707859,26.260666,25.704449,25.174568,24.738491,24.213375,23.70763,23.32047,22.883257,22.440989,22.092373,21.745556,21.387993,21.10316,20.863316,20.587301,20.352238,20.187046,20.014326,19.867035,19.760262,19.654057,19.556974,19.485641,19.421707,19.357977,19.306145,19.261051,19.2048,19.148031,19.099476,19.041626,18.981796,18.93232,18.878555,18.823368,18.77962,18.740276,18.692997,18.649338,18.614563,18.573055,18.53254,18.498787,18.456993,18.411276,18.371904,18.326973,18.275875,18.230576,18.186,18.132835,18.083393,18.040482,17.99059,17.94526,17.911032,17.873863,17.841568,17.820732,17.804855,17.795788,17.793938,17.79496,17.799664,17.80479,17.807571,17.805138,17.797026,17.788038,17.77314,17.757242,17.746616,17.734793,17.7263,17.727678,17.737545,17.769054
42.779438,43.02786,43.26719,43.536972,43.790405,44.02961,44.356045,44.7157,45.044197,45.47071,45.92487,46.29344,46.67198,47.015198,47.24418,47.41741,47.546013,47.635384,47.736366,47.92256,48.15856,48.36919,48.64849,48.905857,49.063675,49.221474,49.407402,49.592896,49.776794,50.00309,50.219482,50.41074,50.643005,50.863205,51.036278,51.2237,51.387745,51.4992,51.601974,51.68896,51.74871,51.803047,51.86412,51.923996,51.98224,52.06388,52.1588,52.24587,52.352757,52.465427,52.55468,52.6419,52.728878,52.79491,52.847015,52.89466,52.927284,52.94983,52.97802,53.010582,53.04212,53.090145,53.15631,53.220238,53.28682,53.35749,53.412766,53.45755,53.497093,53.523136,53.542404,53.565964,53.588776,53.60612,53.626846,53.643196,53.649612,53.651024,53.64318,53.627213,53.607185,53.57528,53.53763,53.503075,53.4572,53.40483,53.358063,53.30153,53.233818,53.171696,53.107986,53.03468,52.969585,52.912956,52.84665,52.78077,52.721584,52.645416,52.5564,52.474323,52.37671,52.26527,52.168297,52.071682,51.962273,51.867508,51.789825,51.693554,51.594536,51.508392,51.396168,51.270786,51.164154,51.0487,50.92486,50.819717,50.716454,50.59446,50.478928,50.374836,50.243664,50.10754,49.990288,49.852676,49.71015,49.592957,49.462006,49.311077,49.172417,49.03714,48.850945,48.641483,48.43657,48.179153,47.811863,47.375618,46.853165,46.30793,45.88518,45.469307,45.07244,44.78939,44.568783,44.35639,44.200104,44.087955,43.959583,43.84116,43.75059,43.659737,43.52327,43.360893,43.18609,43.000603,42.862427,42.75898,42.667473,42.61593,42.594975,42.58024,42.525993,42.425026,42.275745,42.079124,41.897987,41.71476,41.491318,41.25777,40.99864,40.68141,40.39344,40.17434,39.939575,39.73462,39.586258,39.43057,39.26413,39.117577,38.970375,38.80569,38.671013,38.568726,38.47779,38.411583,38.35956,38.249916,38.038185,37.777225,37.403873,36.905304,36.441856,36.006134,35.554886,35.207527,34.945908,34.64411,34.323814,34.02112,33.50403,32.6828,31.794064,30.716389,29.719706,29.126095,28.639435,28.23199,28.028193,27.968678,27.949352,27.954151,27.94674,27.91665,27.869858,27.83067,27.805021,27.805477,27.835526,27.884567,27.970676,28.067085,28.14959,28.223148,28.255968,28.253246,28.202549,28.055422,27.848537,27.545982,27.111488,26.663746,26.221485,25.671406,25.14896,24.721073,24.213558,23.730759,23.362137,22.92814,22.479074,22.123398,21.769087,21.404642,21.114395,20.866215,20.587812,20.356174,20.193563,20.023857,19.878819,19.772873,19.665741,19.566135,19.492386,19.427021,19.362408,19.310558,19.266134,19.211239,19.156017,19.108644,19.051395,18.991758,18.94247,18.88844,18.833176,18.789465,18.74854,18.701965,18.660423,18.625631,18.583912,18.543184,18.509342,18.467484,18.421734,18.382355,18.33743,18.28635,18.241138,18.196812,18.144283,18.095974,18.054497,18.007004,17.96476,17.933437,17.899715,17.870943,17.852825,17.839561,17.832527,17.831593,17.833021,17.837425,17.841671,17.84354,17.839832,17.830318,17.820147,17.80368,17.78598,17.7738,17.760286,17.750286,17.750996,17.760803,17.79316
43.209633,43.469566,43.72128,44.00441,44.273357,44.533806,44.897594,45.298683,45.658607,46.1208,46.607834,47.000782,47.40498,47.77414,48.021767,48.19787,48.345886,48.472095,48.612595,48.82991,49.068775,49.25972,49.535896,49.804024,49.97469,50.15581,50.357224,50.544315,50.736145,50.978302,51.21359,51.4224,51.66597,51.885437,52.05156,52.22374,52.3805,52.50022,52.6132,52.71604,52.79289,52.864944,52.95143,53.038754,53.121216,53.239243,53.371323,53.484447,53.621475,53.761635,53.86954,53.975716,54.074596,54.142673,54.19428,54.24096,54.27415,54.299095,54.329037,54.365784,54.404762,54.459076,54.526566,54.587433,54.653324,54.722023,54.773685,54.814194,54.848976,54.870865,54.886513,54.905453,54.92319,54.936058,54.952133,54.963448,54.965347,54.962112,54.949135,54.928978,54.905487,54.87126,54.833305,54.79927,54.755035,54.70545,54.66146,54.607475,54.543518,54.48602,54.428043,54.36121,54.301937,54.251114,54.193672,54.13872,54.09015,54.02765,53.95567,53.889973,53.807228,53.70788,53.61785,53.52619,53.417248,53.317165,53.23147,53.119976,53.001244,52.89714,52.761536,52.609787,52.480442,52.33937,52.187454,52.058037,51.929916,51.777824,51.634552,51.50721,51.349457,51.18656,51.04495,50.879475,50.7107,50.575462,50.431984,50.273666,50.131813,49.99443,49.802826,49.591805,49.395103,49.162315,48.8144,48.37552,47.79445,47.16864,46.69554,46.245686,45.857346,45.60068,45.36148,45.128757,44.960865,44.840363,44.705482,44.580585,44.481537,44.356506,44.18907,44.019367,43.839523,43.648537,43.503227,43.392506,43.290054,43.224045,43.187294,43.147865,43.07212,42.961815,42.802414,42.583122,42.36333,42.108475,41.787155,41.47695,41.18212,40.835163,40.524258,40.284775,40.015594,39.77598,39.60662,39.427017,39.237076,39.07429,38.91964,38.74372,38.59113,38.46765,38.34125,38.228523,38.130257,37.96225,37.69214,37.39058,37.001694,36.508125,36.063133,35.66911,35.262848,34.942284,34.693726,34.40133,34.070694,33.7369,33.242447,32.43772,31.533108,30.557167,29.666182,29.11236,28.656292,28.266155,28.06098,27.990234,27.955818,27.9475,27.932556,27.898476,27.853899,27.82025,27.800587,27.807852,27.84314,27.895958,27.984898,28.082153,28.164461,28.23542,28.262094,28.251833,28.189552,28.028606,27.810974,27.498737,27.063583,26.623438,26.187351,25.644928,25.131071,24.712288,24.218184,23.748528,23.38853,22.972221,22.536762,22.181923,21.820335,21.44386,21.143238,20.8861,20.605099,20.376743,20.216581,20.049534,19.906242,19.80061,19.690197,19.586477,19.510437,19.442604,19.375862,19.323036,19.278473,19.223738,19.168667,19.121155,19.064327,19.004856,18.95504,18.900402,18.844675,18.800713,18.75904,18.71213,18.67061,18.635443,18.59316,18.551834,18.517508,18.475075,18.428871,18.389286,18.344307,18.293468,18.24878,18.205261,18.154202,18.107883,18.068583,18.024387,17.98606,17.958261,17.928635,17.903946,17.8889,17.87849,17.873547,17.873417,17.875055,17.878834,17.881844,17.882504,17.877228,17.866068,17.854519,17.836277,17.81658,17.802708,17.787247,17.775349,17.774794,17.783638,17.81525
43.573524,43.837082,44.0935,44.393578,44.686787,44.966736,45.355965,45.77722,46.14615,46.610157,47.091873,47.478737,47.87346,48.231163,48.473423,48.65709,48.838963,49.012177,49.19407,49.44438,49.704636,49.9161,50.211308,50.515724,50.737076,50.96218,51.190704,51.383987,51.579586,51.82201,52.054977,52.261116,52.497253,52.70751,52.866837,53.04467,53.214485,53.344032,53.465454,53.57795,53.666397,53.75483,53.869003,53.989723,54.107124,54.250008,54.395615,54.521286,54.670235,54.82167,54.939064,55.05345,55.16039,55.234898,55.291916,55.342678,55.377163,55.401825,55.431915,55.466343,55.499916,55.543293,55.606174,55.672756,55.74308,55.81493,55.867134,55.907288,55.939316,55.95694,55.968834,55.98345,55.997116,56.006813,56.0197,56.027832,56.027008,56.020824,56.004463,55.981422,55.9554,55.91916,55.88032,55.84597,55.801582,55.752037,55.70813,55.654015,55.589787,55.53222,55.474648,55.410355,55.35578,55.310547,55.262024,55.21775,55.17904,55.12854,55.066544,55.005936,54.925995,54.82424,54.72766,54.62684,54.503696,54.388603,54.289932,54.162086,54.0257,53.905334,53.74872,53.572952,53.422318,53.25638,53.075195,52.92268,52.78203,52.624058,52.481697,52.35815,52.19748,52.03563,51.907135,51.75598,51.597183,51.46369,51.31549,51.140156,50.977684,50.826157,50.624428,50.400604,50.18059,49.90069,49.50791,49.05034,48.46706,47.833904,47.336105,46.851353,46.420406,46.126606,45.848545,45.58504,45.402466,45.272377,45.12923,44.991875,44.874706,44.715263,44.527473,44.36456,44.19229,44.00708,43.860817,43.74563,43.631264,43.545456,43.486042,43.411636,43.30745,43.18715,43.001343,42.736137,42.464096,42.143295,41.7464,41.389557,41.092205,40.745857,40.42993,40.179756,39.891315,39.62422,39.428352,39.22087,39.008312,38.82914,38.638657,38.433678,38.273003,38.15274,38.016487,37.87171,37.729767,37.511944,37.206448,36.89506,36.516895,36.05336,35.63115,35.21807,34.814507,34.52992,34.323433,34.0804,33.773987,33.430115,32.911247,32.115303,31.26865,30.404236,29.612541,29.097775,28.672209,28.30024,28.09507,28.014252,27.964825,27.943684,27.92289,27.885605,27.843498,27.815502,27.801403,27.81464,27.854292,27.910103,28.000874,28.098083,28.179546,28.247509,28.268057,28.250483,28.178215,28.005829,27.779684,27.462444,27.028933,26.595703,26.16676,25.63338,25.128323,24.716915,24.234997,23.776241,23.421253,23.019321,22.595997,22.24327,21.880098,21.495237,21.185844,20.927189,20.646542,20.41996,20.261902,20.096844,19.954472,19.848515,19.735222,19.626514,19.54604,19.475227,19.405838,19.351185,19.305473,19.249882,19.194359,19.146555,19.08894,19.02814,18.976944,18.921017,18.864347,18.81982,18.777079,18.729038,18.68663,18.650614,18.607132,18.564539,18.52919,18.485598,18.438454,18.3984,18.353247,18.302847,18.25916,18.217117,18.168434,18.124966,18.088554,18.048351,18.014317,17.990128,17.964603,17.943853,17.931664,17.923796,17.920452,17.920586,17.921936,17.924417,17.925507,17.924358,17.916824,17.903343,17.88985,17.86919,17.846954,17.83107,17.813438,17.799332,17.796926,17.803852,17.832859
43.81415,44.0782,44.33847,44.65931,44.978893,45.271557,45.66697,46.08539,46.44812,46.897644,47.355732,47.71823,48.08454,48.412193,48.637993,48.83693,49.043888,49.235497,49.42723,49.692772,49.98819,50.255077,50.59594,50.94601,51.212997,51.458855,51.69629,51.893314,52.082375,52.31173,52.53305,52.73181,52.970894,53.195892,53.371796,53.590424,53.79396,53.92865,54.055878,54.17482,54.272392,54.374294,54.511414,54.65918,54.805214,54.957138,55.093964,55.212227,55.352097,55.498253,55.61651,55.733856,55.847004,55.929024,55.994923,56.055676,56.09793,56.128365,56.161858,56.19254,56.21702,56.239674,56.287174,56.352356,56.4132,56.473366,56.517082,56.55141,56.57984,56.597187,56.610203,56.626945,56.642975,56.654266,56.66887,56.67892,56.679893,56.675526,56.661636,56.641087,56.61725,56.583557,56.5467,56.513565,56.46953,56.41916,56.37401,56.318035,56.252415,56.194824,56.138123,56.076668,56.026527,55.986286,55.945625,55.911156,55.881996,55.844193,55.795998,55.74655,55.677773,55.585022,55.49286,55.394054,55.268234,55.145912,55.0385,54.897255,54.74527,54.610977,54.437386,54.243156,54.076622,53.89225,53.68851,53.518307,53.370552,53.21672,53.08586,52.97322,52.809875,52.64734,52.53546,52.40278,52.256927,52.12581,51.973316,51.777176,51.588135,51.41918,51.209965,50.972992,50.71795,50.35652,49.872177,49.358418,48.794403,48.19823,47.69382,47.163857,46.636414,46.249626,45.932106,45.641663,45.445915,45.308746,45.160255,45.017822,44.894524,44.74601,44.57955,44.43394,44.27436,44.097103,43.951347,43.831863,43.704548,43.597454,43.51497,43.403114,43.253654,43.094765,42.8621,42.54216,42.227684,41.891747,41.496502,41.14749,40.852608,40.50767,40.189224,39.932564,39.639072,39.356117,39.133507,38.897324,38.657715,38.454094,38.21045,37.960754,37.78837,37.676365,37.544533,37.39218,37.234543,37.00225,36.69267,36.388634,36.03013,35.59178,35.175117,34.70672,34.281624,34.036983,33.88919,33.71763,33.46608,33.1504,32.577682,31.785763,31.056461,30.288857,29.570036,29.087927,28.688702,28.332844,28.128416,28.040312,27.979076,27.947803,27.922958,27.883215,27.842804,27.81894,27.808336,27.825184,27.867373,27.924492,28.015392,28.111435,28.19144,28.25653,28.272165,28.248903,28.169876,27.9906,27.760153,27.443642,27.013592,26.584929,26.162521,25.637276,25.139324,24.732708,24.261837,23.813599,23.462433,23.06191,22.637644,22.284132,21.924126,21.538553,21.226753,20.97346,20.696861,20.471848,20.31533,20.151588,20.009598,19.90319,19.789143,19.676905,19.59158,19.518337,19.446955,19.390837,19.344086,19.287697,19.23175,19.183731,19.124203,19.060833,19.00798,18.950642,18.892689,18.847042,18.802933,18.753716,18.710503,18.673546,18.628727,18.584702,18.548185,18.503262,18.455027,18.414398,18.369015,18.31913,18.27663,18.236332,18.190285,18.14975,18.116175,18.079576,18.04906,18.02758,18.005056,17.987053,17.976768,17.970505,17.967884,17.967693,17.968304,17.969074,17.967901,17.964626,17.954395,17.938076,17.922176,17.898582,17.873432,17.855413,17.835758,17.819653,17.815426,17.82028,17.846043
44.02093,44.282387,44.568462,44.91236,45.239273,45.53846,45.942696,46.366127,46.727226,47.164955,47.601448,47.942444,48.28461,48.590416,48.80384,48.996574,49.201653,49.398285,49.601074,49.89859,50.22975,50.516342,50.852757,51.182278,51.43476,51.68164,51.921875,52.116062,52.30008,52.535736,52.78309,53.020267,53.3368,53.645126,53.873306,54.12608,54.320442,54.419373,54.52356,54.631413,54.731743,54.844223,55.000076,55.166473,55.32261,55.51088,55.694527,55.844242,56.016983,56.187836,56.31852,56.44638,56.565628,56.648808,56.713333,56.77249,56.813805,56.84297,56.878197,56.916645,56.952374,56.99894,57.06678,57.13041,57.14298,57.143692,57.15248,57.16742,57.193695,57.22735,57.261147,57.30517,57.346283,57.373352,57.401638,57.42269,57.432285,57.438118,57.43892,57.434326,57.426292,57.41037,57.386543,57.360474,57.31888,57.263294,57.20938,57.141483,57.063416,56.99786,56.936028,56.872852,56.82479,56.78826,56.754032,56.727715,56.706383,56.678326,56.641273,56.602097,56.546284,56.468895,56.38984,56.303413,56.186172,56.063744,55.95048,55.795433,55.62493,55.474197,55.282356,55.07119,54.8924,54.697754,54.48603,54.30245,54.113735,53.910316,53.733887,53.574364,53.350723,53.121254,52.946526,52.75264,52.569626,52.432343,52.295155,52.14687,52.012203,51.883377,51.69268,51.45345,51.204536,50.808693,50.266,49.709103,49.06531,48.40441,47.876236,47.275352,46.677704,46.25959,45.939053,45.64685,45.44764,45.309013,45.16208,45.025154,44.90863,44.770645,44.61682,44.48087,44.32835,44.15336,44.00334,43.875504,43.731316,43.60081,43.494583,43.34887,43.16031,42.967827,42.6994,42.3487,42.01674,41.671074,41.27407,40.926823,40.629982,40.277225,39.94845,39.685017,39.374554,39.08001,38.85662,38.56022,38.215645,37.92522,37.65771,37.387665,37.18518,37.036964,36.875854,36.723328,36.589706,36.38853,36.123314,35.860588,35.4897,34.980453,34.50715,34.1111,33.779037,33.5888,33.46524,33.313873,33.07987,32.78191,32.257492,31.541157,30.88416,30.19661,29.538757,29.082573,28.710041,28.370384,28.166113,28.071857,28.001019,27.961235,27.932297,27.889809,27.850485,27.829906,27.819862,27.837883,27.881687,27.93856,28.027975,28.121826,28.199839,28.262127,28.273712,28.245903,28.162537,27.979773,27.747948,27.434555,27.009583,26.585892,26.1698,25.651445,25.158726,24.75533,24.292542,23.851334,23.501461,23.102444,22.678562,22.324541,21.9641,21.578608,21.267725,21.015404,20.744268,20.525177,20.369946,20.207504,20.06614,19.959698,19.845034,19.731716,19.645206,19.569727,19.496593,19.440163,19.393902,19.337635,19.2807,19.23086,19.169094,19.103462,19.048944,18.990705,18.930134,18.88099,18.836075,18.78626,18.74218,18.704315,18.658165,18.61267,18.57491,18.528555,18.479141,18.437927,18.392374,18.343233,18.30225,18.264036,18.221066,18.18377,18.153137,18.120016,18.092594,18.073305,18.05309,18.037052,18.028038,18.022753,18.020275,18.019333,18.018824,18.01746,18.013607,18.007824,17.994259,17.974289,17.955208,17.927822,17.898972,17.87835,17.856422,17.83822,17.832136,17.834852,17.857147
44.239643,44.509888,44.810406,45.16435,45.494717,45.802254,46.21593,46.644554,47.006203,47.435215,47.850197,48.166027,48.481636,48.764965,48.966827,49.153458,49.358555,49.560333,49.76951,50.077324,50.41844,50.71096,51.057198,51.384865,51.621178,51.853947,52.081436,52.26774,52.445606,52.682953,52.942085,53.195385,53.53849,53.884422,54.15396,54.436394,54.65217,54.76972,54.89341,55.021347,55.137997,55.265617,55.437897,55.620033,55.790787,56.012024,56.234615,56.41138,56.609642,56.793205,56.92269,57.04374,57.149582,57.218697,57.26937,57.31526,57.34862,57.373405,57.408646,57.453842,57.49917,57.562416,57.643326,57.71186,57.74292,57.76497,57.786694,57.80819,57.833298,57.858337,57.882458,57.913734,57.943924,57.96528,57.990025,58.009964,58.019238,58.02385,58.021347,58.01155,57.99685,57.972717,57.942276,57.91214,57.868137,57.81423,57.764664,57.70244,57.63143,57.571716,57.514244,57.454124,57.407204,57.37094,57.33641,57.31024,57.290115,57.264908,57.232746,57.1987,57.147827,57.07405,56.995934,56.908115,56.786285,56.65803,56.53988,56.37931,56.204132,56.05018,55.853874,55.636475,55.450676,55.24444,55.015007,54.81083,54.596428,54.349678,54.1257,53.92637,53.668762,53.411293,53.207497,52.985004,52.78357,52.641415,52.507675,52.37517,52.25781,52.137653,51.944195,51.69403,51.44075,51.001053,50.417137,49.862072,49.210938,48.50577,47.911594,47.27542,46.659393,46.236664,45.917664,45.625126,45.4237,45.28437,45.140266,45.01055,44.902367,44.775574,44.63342,44.50499,44.356358,44.17901,44.01986,43.878746,43.71161,43.552258,43.41824,43.23487,43.005146,42.77881,42.47799,42.09877,41.746967,41.38479,40.97432,40.618942,40.316307,39.956818,39.62172,39.35385,39.035816,38.705204,38.42115,38.046318,37.630096,37.303093,37.01865,36.725983,36.49279,36.312164,36.119286,35.951496,35.818417,35.641876,35.37832,35.07702,34.682716,34.197784,33.79548,33.504234,33.266693,33.12063,33.0165,32.875824,32.654907,32.380928,31.915623,31.283176,30.699482,30.092876,29.499722,29.075169,28.733017,28.4139,28.212841,28.112896,28.033234,27.984898,27.950533,27.906195,27.867645,27.847889,27.838715,27.858,27.902393,27.957901,28.04438,28.134737,28.209782,28.268415,28.27506,28.241684,28.154377,27.969704,27.738281,27.430542,27.013424,26.596664,26.18835,25.677748,25.190186,24.789455,24.33527,23.900711,23.549883,23.1511,22.72739,22.373388,22.013268,21.629416,21.32106,21.070341,20.80687,20.595512,20.44091,20.279217,20.138035,20.03128,19.915983,19.802067,19.715263,19.639202,19.565937,19.50994,19.464231,19.40828,19.350796,19.299744,19.234789,19.165432,19.10857,19.047955,18.985092,18.934402,18.88903,18.838753,18.793957,18.755283,18.707869,18.660904,18.621859,18.573952,18.523182,18.481218,18.43534,18.386837,18.34736,18.311367,18.271572,18.237484,18.209702,18.179718,18.154755,18.136963,18.118237,18.103357,18.095024,18.090214,18.087387,18.085302,18.083366,18.079458,18.072456,18.063694,18.046106,18.021675,17.998709,17.966787,17.9337,17.910309,17.886387,17.866669,17.859283,17.860397,17.879574
44.42231,44.705,45.00173,45.351734,45.684715,46.000374,46.422012,46.854706,47.21772,47.64417,48.04645,48.343533,48.63961,48.907608,49.1037,49.29046,49.50294,49.71324,49.92641,50.227867,50.557774,50.844208,51.19906,51.53466,51.765625,51.988083,52.203445,52.38223,52.55633,52.79165,53.047188,53.293022,53.61449,53.94526,54.222,54.51301,54.759182,54.922184,55.08242,55.239464,55.373535,55.515205,55.702904,55.90014,56.08588,56.32326,56.558178,56.742355,56.944195,57.12255,57.241104,57.34726,57.435547,57.490967,57.53057,57.567345,57.596703,57.62078,57.657753,57.705956,57.753227,57.815727,57.892662,57.962685,58.03678,58.111687,58.164856,58.203453,58.22892,58.237038,58.240704,58.244907,58.25089,58.25817,58.272255,58.28546,58.29001,58.28802,58.27434,58.250603,58.220318,58.177628,58.13262,58.093826,58.04509,57.994846,57.953987,57.903618,57.84655,57.797417,57.747475,57.691666,57.644806,57.606606,57.567898,57.53707,57.51365,57.48625,57.45409,57.421257,57.370758,57.29574,57.214645,57.12146,56.99272,56.859734,56.739983,56.580864,56.410065,56.260826,56.06846,55.85179,55.663185,55.447235,55.19908,54.97692,54.75682,54.492294,54.245487,54.032913,53.77597,53.530334,53.336197,53.122757,52.92515,52.780476,52.63787,52.485886,52.345184,52.201103,51.98575,51.71544,51.434837,50.96023,50.369553,49.845825,49.227547,48.51056,47.8664,47.23494,46.636353,46.221035,45.901108,45.606354,45.404686,45.267467,45.12836,45.006462,44.906155,44.7882,44.653576,44.528503,44.378803,44.193634,44.021297,43.86403,43.672226,43.484543,43.324463,43.10718,42.842216,42.58796,42.257908,41.851456,41.480064,41.100105,40.67334,40.3071,39.99655,39.63418,39.2976,39.024162,38.70026,38.31701,37.939915,37.51231,37.08589,36.772354,36.484642,36.18094,35.93239,35.73728,35.508614,35.292645,35.11798,34.91038,34.61033,34.26899,33.89283,33.51792,33.253193,33.04265,32.858074,32.73195,32.63894,32.50255,32.29042,32.037083,31.616903,31.052387,30.533102,29.99379,29.457169,29.064,28.748936,28.450785,28.256535,28.153242,28.066994,28.011929,27.973652,27.92947,27.89149,27.870232,27.8623,27.882862,27.926815,27.980383,28.063332,28.149662,28.221272,28.275627,28.277323,28.239174,28.147549,27.961012,27.73114,27.430454,27.022858,26.614162,26.214066,25.71112,25.228102,24.829393,24.381512,23.95148,23.599333,23.199871,22.776093,22.422857,22.064308,21.683311,21.378193,21.129963,20.873405,20.668339,20.514177,20.352125,20.209726,20.10182,19.985466,19.870945,19.784279,19.709236,19.637579,19.583023,19.538464,19.483053,19.425022,19.372883,19.30576,19.234001,19.175589,19.112984,19.04929,18.999084,18.953674,18.903278,18.85828,18.819302,18.771324,18.723625,18.68391,18.635092,18.583424,18.540892,18.494675,18.446444,18.407875,18.37339,18.335634,18.303432,18.277206,18.248608,18.224268,18.206463,18.187603,18.172535,18.164093,18.15918,18.155846,18.152836,18.149857,18.144032,18.134539,18.12334,18.102272,18.073849,18.047367,18.011362,17.97456,17.948925,17.923874,17.903917,17.896627,17.897682,17.915756
44.552097,44.83777,45.12644,45.472317,45.80904,46.12969,46.557262,46.99332,47.356133,47.783096,48.18168,48.470467,48.75676,49.01805,49.21403,49.404987,49.627274,49.847748,50.067627,50.371933,50.697384,50.975296,51.311806,51.63302,51.863464,52.095192,52.316666,52.492714,52.66688,52.90413,53.16134,53.40644,53.72371,54.04464,54.308197,54.588615,54.83317,55.00169,55.16291,55.3194,55.45504,55.604214,55.809685,56.024837,56.21823,56.461098,56.69583,56.875732,57.07055,57.24131,57.355244,57.45866,57.54782,57.607384,57.652832,57.698048,57.735687,57.766518,57.809532,57.859627,57.905037,57.961906,58.028725,58.08763,58.145687,58.204144,58.24784,58.28209,58.30874,58.32325,58.33415,58.34732,58.361095,58.37303,58.39117,58.407494,58.414307,58.414825,58.404755,58.38484,58.358078,58.318665,58.275284,58.23679,58.18662,58.133118,58.088837,58.03454,57.974056,57.92311,57.871994,57.815514,57.768272,57.72947,57.689926,57.65821,57.633934,57.606388,57.575928,57.546173,57.501343,57.43543,57.363647,57.279457,57.159363,57.03121,56.912956,56.7532,56.57985,56.42798,56.23224,56.011467,55.818905,55.597916,55.343254,55.11483,54.887787,54.618393,54.370285,54.157227,53.899906,53.654686,53.461807,53.24919,53.05067,52.90318,52.754524,52.59101,52.43634,52.276382,52.045563,51.754803,51.436012,50.952812,50.37877,49.86857,49.225986,48.49372,47.866924,47.239,46.639122,46.220795,45.897133,45.6002,45.400772,45.26928,45.13786,45.025078,44.933273,44.822464,44.692066,44.56746,44.41398,44.218822,44.03273,43.86003,43.64641,43.435024,43.25364,43.0093,42.716354,42.43939,42.07801,41.64402,41.259026,40.86927,40.438187,40.070328,39.753036,39.389633,39.05119,38.767338,38.42627,37.99813,37.56037,37.12458,36.706215,36.39321,36.114532,35.820145,35.57181,35.37124,35.09618,34.807472,34.57251,34.278214,33.954964,33.677986,33.382397,33.094433,32.886623,32.713722,32.553085,32.434975,32.345005,32.20999,32.002693,31.75909,31.373417,30.86498,30.398384,29.911463,29.418869,29.050932,28.756649,28.476267,28.289795,28.18539,28.094067,28.034224,27.99531,27.952612,27.915289,27.892471,27.885395,27.90675,27.950083,28.00193,28.081814,28.164585,28.233019,28.283058,28.28069,28.23988,28.143074,27.953236,27.72477,27.430878,27.032455,26.631363,26.238773,25.742682,25.263557,24.86659,24.421604,23.993814,23.642101,23.242043,22.818024,22.465824,22.109116,21.731102,21.429073,21.18333,20.93099,20.729462,20.57626,20.413158,20.268364,20.158634,20.04076,19.925457,19.838959,19.764952,19.695187,19.642689,19.600311,19.545668,19.48634,19.432037,19.364887,19.294,19.235695,19.173363,19.109863,19.059711,19.014416,18.964203,18.919392,18.880558,18.832699,18.785057,18.74537,18.696442,18.644547,18.601795,18.555393,18.507195,18.468967,18.435171,18.39824,18.36659,18.340668,18.311905,18.286753,18.267887,18.247843,18.231823,18.22293,18.217754,18.214159,18.210812,18.207472,18.200752,18.18985,18.17714,18.153671,18.122301,18.093166,18.05399,18.014267,17.986921,17.96125,17.941786,17.93554,17.937674,17.956438
44.69853,44.97409,45.251358,45.591,45.92902,46.25251,46.68416,47.12336,47.487583,47.913345,48.30804,48.59257,48.870644,49.126545,49.32431,49.521927,49.75728,49.99118,50.2209,50.531593,50.856308,51.12948,51.45581,51.765617,51.989235,52.215668,52.443016,52.63154,52.809402,53.047497,53.303482,53.546955,53.858,54.168167,54.42038,54.688118,54.92399,55.090202,55.251038,55.411587,55.55471,55.713505,55.936905,56.16961,56.372143,56.619644,56.85196,57.02634,57.211998,57.372086,57.47824,57.57496,57.66021,57.71972,57.767204,57.81666,57.859253,57.89451,57.941513,57.992676,58.036453,58.08851,58.146774,58.19681,58.245125,58.294777,58.334267,58.36763,58.39756,58.41861,58.436104,58.45694,58.47722,58.493187,58.51483,58.53385,58.54261,58.54519,58.537918,58.52083,58.496586,58.459282,58.41662,58.377907,58.32611,58.269615,58.22235,58.16446,58.10032,58.046646,57.99294,57.933296,57.88281,57.840744,57.797005,57.76123,57.733723,57.70332,57.672314,57.644344,57.604103,57.546974,57.48506,57.411034,57.30237,57.183113,57.070793,56.916813,56.747784,56.59896,56.40599,56.18627,55.992966,55.768948,55.50827,55.27301,55.038635,54.761402,54.50775,54.291313,54.031593,53.785957,53.59387,53.38215,53.18295,53.03263,52.877853,52.702446,52.533405,52.356842,52.113815,51.808758,51.457535,50.965065,50.406525,49.914856,49.257317,48.51277,47.897427,47.273907,46.67314,46.249332,45.917473,45.616684,45.421356,45.297695,45.176598,45.07404,44.989723,44.8872,44.761024,44.634415,44.473625,44.263496,44.058926,43.866714,43.626892,43.388023,43.182236,42.90793,42.581238,42.27341,41.8854,41.429283,41.02964,40.63156,40.19391,39.82156,39.50265,39.136635,38.794163,38.508606,38.116768,37.62829,37.165623,36.711647,36.281593,35.958397,35.663155,35.34133,35.059143,34.81857,34.51325,34.21231,33.971535,33.67893,33.385223,33.157158,32.91748,32.68392,32.510593,32.362408,32.219017,32.1071,32.017975,31.876652,31.67205,31.448605,31.101875,30.654667,30.248898,29.81709,29.371073,29.031319,28.757484,28.49644,28.320564,28.215939,28.122765,28.06106,28.021723,27.97961,27.942965,27.920221,27.914352,27.936234,27.97852,28.028416,28.104881,28.18361,28.24835,28.29316,28.2858,28.241802,28.139858,27.948208,27.72319,27.43581,27.048063,26.658089,26.276329,25.789473,25.315125,24.920704,24.476128,24.049282,23.700924,23.300108,22.87502,22.523956,22.169472,21.795118,21.496803,21.254257,21.004696,20.805952,20.656967,20.491783,20.341526,20.228512,20.107449,19.989777,19.902308,19.828346,19.75966,19.70893,19.668983,19.614914,19.55523,19.501842,19.436182,19.366669,19.30901,19.247435,19.184647,19.135025,19.090265,19.04082,18.996832,18.958735,18.911812,18.865105,18.82616,18.77792,18.726482,18.683964,18.637691,18.589602,18.551517,18.517998,18.481062,18.44884,18.421976,18.391367,18.363617,18.342205,18.319384,18.301064,18.290874,18.284756,18.280636,18.277088,18.273617,18.266546,18.25494,18.241325,18.21632,18.182976,18.152035,18.110798,18.069408,18.041447,18.016457,17.999193,17.995682,18.000542,18.021942
44.841805,45.10057,45.365837,45.696365,46.030853,46.35558,46.78754,47.22522,47.58778,48.00673,48.39354,48.67376,48.943115,49.192657,49.390892,49.59362,49.840416,50.08701,50.326794,50.645607,50.973106,51.24556,51.56827,51.871254,52.087963,52.30629,52.53319,52.730133,52.919044,53.1687,53.427902,53.66388,53.964073,54.262005,54.502853,54.75727,54.981857,55.14218,55.301773,55.467476,55.619125,55.786873,56.021896,56.2682,56.488686,56.743385,56.970062,57.136276,57.31066,57.458458,57.555542,57.643818,57.722717,57.779602,57.826466,57.876694,57.920963,57.958084,58.0067,58.057907,58.10029,58.149025,58.2015,58.245537,58.287807,58.332344,58.369793,58.403343,58.436943,58.464127,58.487484,58.515022,58.540947,58.560432,58.584812,58.605675,58.615723,58.619797,58.614647,58.59986,58.57798,58.543106,58.50202,58.46412,58.412422,58.355034,58.306488,58.246822,58.180367,58.12446,58.068222,58.004894,57.95027,57.904015,57.85485,57.813797,57.78201,57.74735,57.714172,57.686523,57.6493,57.59939,57.546417,57.48243,57.38655,57.279022,57.176205,57.033478,56.875084,56.734886,56.55108,56.338394,56.148575,55.925323,55.661236,55.420036,55.178406,54.89164,54.629585,54.407055,54.141678,53.892715,53.699306,53.486732,53.285957,53.13272,52.972557,52.787296,52.60714,52.42254,52.156414,51.825638,51.46238,50.97399,50.42549,49.933975,49.278553,48.53958,47.931175,47.31304,46.710743,46.280067,45.942726,45.640976,45.451363,45.336296,45.226677,45.13516,45.058395,44.96418,44.841072,44.710358,44.539658,44.31176,44.086334,43.87183,43.602135,43.33334,43.103165,42.79575,42.433853,42.098225,41.686897,41.213257,40.80324,40.39965,39.956924,39.58115,39.265957,38.887383,38.521698,38.22299,37.74984,37.19551,36.742714,36.28602,35.855927,35.533657,35.228203,34.887302,34.582756,34.315544,34.00222,33.714005,33.48713,33.2241,32.96766,32.768578,32.558846,32.350906,32.192215,32.054394,31.913692,31.795269,31.694729,31.542496,31.342897,31.141102,30.83525,30.447111,30.096167,29.716013,29.315285,29.004044,28.750519,28.509878,28.346786,28.244223,28.152138,28.091076,28.052702,28.010353,27.973969,27.952635,27.9479,27.969597,28.01024,28.05812,28.13119,28.205757,28.266497,28.305382,28.291927,28.24359,28.13707,27.94555,27.72585,27.445805,27.070929,26.694973,26.324802,25.852772,25.389324,24.998089,24.552734,24.126343,23.783237,23.380804,22.95332,22.603277,22.251179,21.88091,21.58666,21.347534,21.100033,20.902298,20.755224,20.589485,20.434387,20.31453,20.18665,20.062544,19.970676,19.893291,19.822056,19.770557,19.731327,19.678522,19.620932,19.570288,19.507936,19.441544,19.386055,19.326729,19.266052,19.21802,19.174793,19.127293,19.085278,19.048964,19.00441,18.960155,18.923252,18.877201,18.827658,18.786362,18.740974,18.693253,18.654968,18.62092,18.58244,18.547653,18.5178,18.482662,18.44963,18.42356,18.395689,18.373112,18.360382,18.352255,18.347042,18.343315,18.339901,18.333279,18.322346,18.309328,18.285172,18.252884,18.22297,18.18327,18.14426,18.119064,18.098148,18.086597,18.088669,18.09877,18.125864
44.957058,45.202824,45.459038,45.780323,46.108765,46.433792,46.863945,47.296566,47.65341,48.061493,48.43647,48.709053,48.969658,49.21227,49.40801,49.61184,49.864647,50.11936,50.366196,50.691772,51.023438,51.297913,51.621223,51.922825,52.137466,52.354057,52.574444,52.765594,52.964508,53.23092,53.49939,53.730175,54.01985,54.30552,54.536644,54.781322,54.99928,55.15717,55.317158,55.486988,55.644257,55.817947,56.05677,56.309822,56.54881,56.81418,57.039032,57.198452,57.363274,57.500748,57.59056,57.67193,57.745296,57.799362,57.84484,57.89431,57.938538,57.976036,58.025063,58.07624,58.118088,58.165703,58.215813,58.257034,58.29651,58.33847,58.37467,58.40804,58.4436,58.47438,58.501205,58.532845,58.56233,58.584114,58.610058,58.6318,58.64245,58.647415,58.6436,58.63041,58.610428,58.578014,58.539253,58.50315,58.453423,58.39758,58.349915,58.291046,58.224808,58.168453,58.111305,58.045998,57.988644,57.939392,57.88626,57.841183,57.805977,57.76771,57.732086,57.703674,57.667496,57.621513,57.57406,57.516953,57.430767,57.33319,57.239246,57.10798,56.961384,56.831177,56.65854,56.455307,56.271057,56.051064,55.78602,55.540466,55.29273,54.99688,54.725822,54.495995,54.223083,53.968567,53.771862,53.55646,53.353043,53.19705,53.03297,52.841995,52.655342,52.46682,52.168972,51.806442,51.450195,50.974827,50.427784,49.919388,49.27764,48.557266,47.95166,47.338028,46.73348,46.29683,45.959778,45.66069,45.476135,45.367622,45.26729,45.185364,45.115654,45.028076,44.906563,44.771484,44.59134,44.347603,44.10366,43.868248,43.570312,43.27391,43.022507,42.68451,42.294144,41.941795,41.511703,41.025307,40.610893,40.20158,39.753258,39.37406,39.06098,38.6669,38.266876,37.931847,37.389023,36.793774,36.360073,35.92119,35.5125,35.206512,34.912262,34.582886,34.28837,34.02967,33.721832,33.435425,33.209694,32.951286,32.703667,32.514282,32.315643,32.119476,31.968414,31.833626,31.686184,31.552883,31.43468,31.274738,31.083427,30.896206,30.62389,30.28105,29.967806,29.627733,29.264008,28.976776,28.741558,28.51909,28.367699,28.268936,28.178991,28.11903,28.08227,28.039448,28.002937,27.983017,27.978859,27.999676,28.038364,28.084455,28.154697,28.22574,28.282957,28.316544,28.29719,28.244127,28.134268,27.944153,27.7301,27.45885,27.098194,26.736305,26.375473,25.91988,25.471153,25.084438,24.639376,24.21321,23.874107,23.469976,23.040014,22.690376,22.34021,21.973549,21.682919,21.446672,21.201332,21.003439,20.854088,20.688995,20.531847,20.404877,20.268837,20.135643,20.03653,19.95258,19.875145,19.819897,19.778862,19.727207,19.672789,19.624454,19.56567,19.503242,19.450768,19.394535,19.336805,19.29102,19.249966,19.205105,19.16568,19.131697,19.090248,19.049225,19.01501,18.971973,18.925175,18.885757,18.841805,18.794708,18.756092,18.721058,18.680174,18.641802,18.60795,18.56709,18.52771,18.496212,18.462437,18.434767,18.418835,18.408031,18.401176,18.397038,18.393559,18.387737,18.378447,18.367249,18.346085,18.317719,18.291563,18.256868,18.224066,18.204702,18.190632,18.187199,18.196423,18.213154,18.246506
45.064445,45.298737,45.54478,45.85752,46.181427,46.50406,46.93434,47.365158,47.714798,48.111755,48.47336,48.73499,48.991127,49.2307,49.42314,49.627586,49.8851,50.14661,50.399902,50.73253,51.069893,51.34845,51.675385,51.97892,52.193947,52.4104,52.627945,52.813965,53.003433,53.269333,53.55224,53.810936,54.098297,54.36203,54.583508,54.81967,55.03267,55.18895,55.349808,55.52363,55.68577,55.864033,56.10702,56.361145,56.595398,56.877365,57.121067,57.279434,57.434685,57.559418,57.64201,57.71777,57.787376,57.839886,57.885033,57.935085,57.98091,58.020718,58.072342,58.125416,58.168114,58.216003,58.264767,58.303596,58.33999,58.379112,58.413906,58.44645,58.482674,58.515656,58.544983,58.579926,58.612732,58.637,58.665077,58.688538,58.700512,58.707077,58.705303,58.69424,58.676582,58.647095,58.611046,58.577026,58.529655,58.475723,58.429184,58.371395,58.305504,58.248672,58.190712,58.123512,58.063602,58.011646,57.954933,57.906166,57.86783,57.825928,57.7872,57.757008,57.720352,57.676147,57.63216,57.58,57.50152,57.41249,57.32663,57.206394,57.07141,56.95093,56.78962,56.596275,56.417957,56.20175,55.93647,55.68722,55.433918,55.12921,54.849,54.611702,54.330338,54.070747,53.873646,53.657143,53.451424,53.292343,53.124218,52.931313,52.73826,52.518623,52.19257,51.82267,51.47534,51.0008,50.448814,49.937714,49.301517,48.590584,47.991096,47.38137,46.773056,46.329044,45.991028,45.693405,45.512863,45.409714,45.317673,45.2445,45.18105,45.099922,44.97941,44.838715,44.648087,44.387913,44.124763,43.866043,43.538445,43.21263,42.93509,42.568848,42.1548,41.786674,41.342052,40.850815,40.437424,40.013374,39.54184,39.14273,38.81522,38.428856,38.01469,37.604515,37.04142,36.461388,36.03621,35.6202,35.23195,34.93322,34.647415,34.32592,34.036438,33.780693,33.47524,33.19109,32.968006,32.715313,32.476017,32.294376,32.103848,31.913876,31.764221,31.626045,31.47058,31.329,31.204916,31.04499,30.862791,30.688463,30.43924,30.131369,29.852955,29.546818,29.215527,28.951189,28.733425,28.528223,28.388279,28.294426,28.207275,28.148033,28.111835,28.069069,28.03281,28.013569,28.009594,28.029057,28.065372,28.109539,28.176956,28.244606,28.298458,28.32711,28.302198,28.244543,28.131847,27.943356,27.73531,27.477264,27.136257,26.791065,26.43907,25.99489,25.557995,25.181507,24.739052,24.311798,23.974644,23.570206,23.138985,22.788912,22.440216,22.076843,21.789747,21.556347,21.31319,21.115463,20.964855,20.795818,20.635746,20.50904,20.366713,20.22261,20.113512,20.021246,19.93562,19.874802,19.830624,19.778072,19.72514,19.678608,19.622879,19.564125,19.514599,19.46145,19.406784,19.363438,19.324757,19.28283,19.246286,19.214901,19.176912,19.13948,19.108234,19.068563,19.02489,18.987663,18.945425,18.899178,18.860296,18.824177,18.780676,18.738405,18.700161,18.653124,18.606953,18.569658,18.529518,18.496166,18.476458,18.462345,18.453259,18.448345,18.444504,18.439531,18.432373,18.423635,18.406685,18.383904,18.363066,18.335419,18.31108,18.299335,18.293571,18.300274,18.318851,18.345133,18.382175
45.186428,45.409325,45.64592,45.952164,46.273617,46.59441,47.02462,47.453766,47.797684,48.182735,48.52848,48.77702,49.02656,49.26234,49.451885,49.655884,49.916824,50.184624,50.444546,50.785675,51.131344,51.416607,51.750687,52.05944,52.276768,52.494125,52.708378,52.887115,53.064064,53.316315,53.59417,53.85756,54.165268,54.44368,54.656837,54.8831,55.08926,55.24518,55.40806,55.586975,55.75445,55.93705,56.183243,56.43615,56.663273,56.94388,57.192932,57.357796,57.518654,57.64681,57.73001,57.8015,57.86694,57.91884,57.965263,58.016563,58.0618,58.09899,58.148224,58.20073,58.244568,58.29528,58.34847,58.391537,58.43379,58.474495,58.506065,58.53607,58.57068,58.603752,58.633823,58.67041,58.705536,58.73188,58.761856,58.786964,58.800247,58.80861,58.80934,58.80113,58.78666,58.76185,58.73059,58.700294,58.65726,58.607246,58.563416,58.508476,58.44461,58.388493,58.33087,58.26306,58.201683,58.14801,58.08871,58.03679,57.995377,57.94934,57.905987,57.87198,57.832092,57.785835,57.74155,57.69063,57.61566,57.531708,57.451054,57.34044,57.217422,57.1073,56.95862,56.777065,56.606445,56.395966,56.13234,55.880615,55.62254,55.3085,55.01938,54.778294,54.49482,54.223564,54.001762,53.76687,53.551468,53.389244,53.2192,53.019745,52.814823,52.579136,52.241173,51.867043,51.51658,51.03707,50.48639,49.98529,49.357193,48.654167,48.06077,47.450756,46.83718,46.38765,46.047462,45.74942,45.571022,45.47148,45.386402,45.32087,45.262375,45.18593,45.06597,44.92044,44.718296,44.435562,44.144814,43.857323,43.493454,43.132755,42.825993,42.428684,41.989727,41.606125,41.1568,40.650963,40.210426,39.760303,39.280533,38.888012,38.556583,38.163597,37.72145,37.25301,36.68129,36.12664,35.72023,35.322624,34.94899,34.65856,34.382122,34.069984,33.787186,33.53619,33.236286,32.955795,32.73329,32.48306,32.247574,32.069374,31.881775,31.692982,31.542133,31.40067,31.24012,31.093912,30.96629,30.804008,30.627392,30.466228,30.2403,29.969128,29.728495,29.45924,29.164875,28.92815,28.731964,28.545544,28.417122,28.330767,28.24797,28.188648,28.150734,28.107649,28.07138,28.051586,28.046732,28.063192,28.095465,28.136694,28.200336,28.26393,28.313984,28.33754,28.307198,28.245106,28.129704,27.945396,27.748043,27.508766,27.192421,26.868313,26.533573,26.106834,25.684471,25.321892,24.880325,24.445992,24.105738,23.704975,23.275883,22.923178,22.576279,22.217619,21.9357,21.706436,21.467056,21.270897,21.120018,20.947552,20.782639,20.652584,20.505276,20.353966,20.236435,20.130781,20.030144,19.958675,19.907389,19.8483,19.792645,19.74712,19.693565,19.638119,19.59166,19.541851,19.490795,19.450527,19.414925,19.376747,19.343779,19.315502,19.281498,19.247982,19.219824,19.183636,19.143318,19.108595,19.068449,19.023584,18.98494,18.948067,18.902119,18.855818,18.812838,18.758991,18.705046,18.66086,18.612839,18.571806,18.546387,18.52684,18.513287,18.505928,18.500423,18.49562,18.491032,18.485718,18.475492,18.462233,18.45063,18.435379,18.426132,18.427973,18.43758,18.457294,18.482601,18.513874,18.554893
45.30516,45.52089,45.752335,46.05705,46.380066,46.702248,47.1334,47.56186,47.90416,48.28069,48.613552,48.85159,49.09233,49.323402,49.512257,49.71476,49.97738,50.250374,50.51671,50.866154,51.220474,51.513485,51.856636,52.172806,52.393898,52.613106,52.82437,52.995975,53.163292,53.397232,53.65474,53.89834,54.220863,54.527428,54.745472,54.976574,55.185112,55.34188,55.50807,55.69239,55.864777,56.050705,56.298374,56.548958,56.771324,57.03635,57.2733,57.44099,57.60859,57.74402,57.83016,57.90097,57.965572,58.01848,58.066826,58.119682,58.164543,58.19943,58.246674,58.299225,58.345,58.399704,58.458897,58.507706,58.557003,58.601593,58.632793,58.662586,58.698067,58.733284,58.765724,58.805794,58.84504,58.87499,58.908985,58.93827,58.955013,58.967285,58.971832,58.966263,58.95405,58.93061,58.899837,58.87016,58.827747,58.778122,58.734398,58.67976,58.61618,58.560284,58.503323,58.436165,58.3749,58.320824,58.260223,58.206,58.161983,58.11211,58.06398,58.02571,57.98185,57.932316,57.88648,57.83566,57.763554,57.685097,57.611614,57.508293,57.392265,57.289272,57.150192,56.97855,56.815025,56.610413,56.3497,56.09732,55.836575,55.51773,55.21848,54.959244,54.655,54.35932,54.110252,53.8552,53.63066,53.467037,53.29754,53.092392,52.879272,52.64809,52.314606,51.939507,51.58264,51.102108,50.560402,50.073612,49.453487,48.755253,48.165062,47.549923,46.93003,46.47718,46.13327,45.832024,45.65258,45.553566,45.471954,45.410603,45.35408,45.278725,45.15782,45.00817,44.793198,44.484077,44.161972,43.845264,43.444824,43.050323,42.717613,42.292854,41.83389,41.440056,40.97972,40.446903,39.973488,39.512558,39.046413,38.67604,38.355007,37.931107,37.44564,36.96601,36.395233,35.858448,35.47416,35.085655,34.718044,34.43513,34.16598,33.8616,33.58495,33.338966,33.043552,32.765102,32.54253,32.29271,32.05767,31.879555,31.691113,31.50042,31.347515,31.204424,31.041992,30.89363,30.76308,30.598043,30.425367,30.275335,30.070684,29.831316,29.621574,29.384407,29.123415,28.912262,28.73656,28.566952,28.44815,28.3688,28.290504,28.231255,28.191135,28.147339,28.110262,28.088818,28.081842,28.094383,28.122265,28.16018,28.219833,28.279518,28.326134,28.345518,28.311346,28.246567,28.12947,27.951262,27.767231,27.547903,27.25595,26.953293,26.640717,26.235416,25.828735,25.47993,25.039907,24.596252,24.247267,23.851604,23.427227,23.071632,22.726505,22.372808,22.096596,21.871876,21.637262,21.44416,21.29449,21.121262,20.95206,20.816185,20.664385,20.507824,20.383402,20.265125,20.14859,20.063831,20.001877,19.932434,19.871168,19.824749,19.7711,19.717064,19.672573,19.625113,19.576973,19.539423,19.506609,19.471764,19.4418,19.416027,19.385052,19.35427,19.328072,19.294096,19.256025,19.22314,19.184628,19.141123,19.10309,19.066032,19.01863,18.969503,18.922993,18.863873,18.803524,18.753336,18.698067,18.64927,18.617512,18.591614,18.57225,18.561207,18.553024,18.547623,18.545452,18.543789,18.541422,18.53976,18.539597,18.540228,18.54887,18.565048,18.59008,18.62254,18.653976,18.68802,18.733753
45.411865,45.62536,45.855392,46.161972,46.48916,46.815468,47.24946,47.67878,48.02189,48.393814,48.718613,48.950096,49.18195,49.408493,49.59857,49.79901,50.062393,50.34025,50.613274,50.969833,51.331043,51.631145,51.983112,52.30699,52.53237,52.754074,52.963654,53.12992,53.28944,53.511185,53.755272,53.986465,54.28701,54.587433,54.82788,55.088024,55.31546,55.47267,55.642513,55.831326,56.007404,56.195137,56.44309,56.691162,56.908745,57.165184,57.39057,57.54706,57.701595,57.826126,57.907288,57.980682,58.04991,58.104935,58.15391,58.20793,58.25594,58.29614,58.34932,58.406776,58.45575,58.513237,58.57335,58.62124,58.66705,58.712868,58.75051,58.785812,58.82894,58.872375,58.91223,58.961166,59.00911,59.046005,59.088196,59.12641,59.150627,59.170547,59.18103,59.177395,59.165375,59.13629,59.09677,59.060944,59.011093,58.954018,58.90441,58.843903,58.775627,58.717422,58.65999,58.5935,58.53286,58.47869,58.41691,58.360416,58.313953,58.260754,58.209023,58.16799,58.12224,58.072407,58.028214,57.981094,57.917385,57.851044,57.793175,57.696968,57.581043,57.48052,57.346603,57.181458,57.022953,56.822716,56.564575,56.312347,56.05047,55.734596,55.422943,55.116592,54.751633,54.41913,54.17181,53.917034,53.69369,53.53082,53.36226,53.160027,52.951046,52.72363,52.393963,52.02388,51.674854,51.2044,50.672005,50.191574,49.575157,48.878765,48.28914,47.667564,47.040695,46.584023,46.23554,45.929596,45.747227,45.64691,45.56631,45.506573,45.45004,45.373745,45.250473,45.09601,44.866264,44.531265,44.181038,43.838203,43.40535,42.98156,42.62708,42.18048,41.708893,41.31151,40.81685,40.25219,39.77546,39.33671,38.888435,38.521217,38.214222,37.748913,37.216064,36.750202,36.18921,35.663803,35.29253,34.911087,34.548252,34.269714,34.005142,33.70585,33.433407,33.1914,32.895103,32.61453,32.394188,32.14648,31.912846,31.735096,31.546297,31.354153,31.199322,31.054207,30.888662,30.737041,30.603075,30.439878,30.275042,30.133766,29.947327,29.73177,29.542072,29.328537,29.092636,28.900496,28.740337,28.584751,28.474253,28.398857,28.323902,28.266113,28.225992,28.181534,28.142954,28.119772,28.110134,28.119194,28.14391,28.178963,28.235172,28.291613,28.335487,28.351646,28.315123,28.24943,28.131647,27.959171,27.787043,27.585052,27.314594,27.031055,26.737576,26.351803,25.959963,25.623045,25.188278,24.738895,24.379416,23.986647,23.566517,23.209572,22.865822,22.516075,22.244682,22.023804,21.7936,21.60387,21.456099,21.283482,21.112646,20.973875,20.815865,20.649677,20.516209,20.391476,20.264977,20.168352,20.094711,20.016155,19.950638,19.901844,19.846428,19.792156,19.748451,19.702137,19.65577,19.620052,19.58919,19.556583,19.528484,19.504185,19.474884,19.44542,19.419968,19.386875,19.3498,19.317842,19.280195,19.237553,19.200035,19.162998,19.114876,19.064133,19.015472,18.953009,18.888332,18.833858,18.77312,18.718027,18.680817,18.649343,18.624666,18.6101,18.599337,18.593233,18.593147,18.594751,18.599552,18.608692,18.619362,18.635902,18.659883,18.685123,18.71782,18.760849,18.803143,18.845028,18.896387
45.517746,45.730293,45.960403,46.271553,46.606182,46.93982,47.380966,47.814182,48.15827,48.529552,48.85109,49.078262,49.303753,49.526237,49.71675,49.919254,50.18393,50.462883,50.73931,51.10495,51.47706,51.78428,52.14646,52.47986,52.710613,52.935425,53.14325,53.303696,53.454906,53.664207,53.895294,54.114563,54.401283,54.69483,54.937916,55.20228,55.44036,55.611595,55.793804,55.99619,56.18443,56.385635,56.636578,56.876232,57.085556,57.33052,57.543232,57.68867,57.830986,57.945923,58.02276,58.095764,58.168114,58.227726,58.282085,58.343735,58.39988,58.447598,58.50918,58.57364,58.627224,58.68891,58.75129,58.799362,58.843792,58.8889,58.92719,58.962624,59.006413,59.051147,59.092484,59.144173,59.1961,59.236946,59.28148,59.319084,59.340748,59.35814,59.366135,59.361004,59.347824,59.320316,59.28414,59.250553,59.20352,59.1492,59.10166,59.04397,58.978878,58.922947,58.86622,58.800728,58.74146,58.688354,58.627327,58.57052,58.522873,58.467224,58.411438,58.36608,58.315536,58.260803,58.213142,58.163586,58.099052,58.03395,57.97693,57.892754,57.79505,57.708282,57.58026,57.417435,57.263268,57.06723,56.813828,56.563698,56.301735,55.954037,55.59874,55.274094,54.89136,54.549965,54.303307,54.04929,53.826847,53.664127,53.495193,53.291744,53.08139,52.85292,52.523125,52.155148,51.81019,51.346405,50.821312,50.34631,49.7341,49.039993,48.4504,47.82286,47.188896,46.727425,46.373512,46.06154,45.87477,45.771904,45.69063,45.630997,45.573505,45.494312,45.36363,45.19751,44.945675,44.575344,44.18768,43.80963,43.335213,42.876087,42.49659,42.02822,41.539627,41.12744,40.599007,40.019184,39.5601,39.14923,38.73179,38.366634,38.01055,37.509457,36.973583,36.519413,35.977005,35.468742,35.10532,34.73078,34.373276,34.098564,33.837852,33.543896,33.274696,33.030083,32.733383,32.45452,32.235374,31.98845,31.754635,31.576015,31.38565,31.191202,31.034004,30.886341,30.71606,30.560719,30.426788,30.267471,30.111593,29.981075,29.812574,29.621284,29.454247,29.266462,29.057703,28.886023,28.7424,28.601074,28.498543,28.427052,28.354956,28.29786,28.257095,28.211548,28.171242,28.146217,28.133705,28.13932,28.161102,28.1933,28.246017,28.29922,28.340443,28.353905,28.31498,28.247316,28.13098,27.96756,27.809647,27.628105,27.383484,27.123466,26.853283,26.491917,26.117298,25.789875,25.372066,24.925816,24.548637,24.1473,23.732058,23.386852,23.043333,22.694855,22.428013,22.210917,21.985634,21.800438,21.655909,21.486305,21.316902,21.17786,21.016518,20.842888,20.700577,20.565845,20.42606,20.316628,20.23179,20.142014,20.06847,20.014614,19.95426,19.896881,19.852032,19.805119,19.759144,19.724371,19.694603,19.66318,19.635887,19.61203,19.58305,19.553558,19.527805,19.494324,19.456974,19.424973,19.387268,19.344627,19.307089,19.269869,19.221169,19.169365,19.119362,19.054762,18.98696,18.929024,18.863482,18.802204,18.759209,18.721682,18.691072,18.672544,18.658964,18.652317,18.655014,18.660742,18.674885,18.69704,18.71946,18.748219,18.786678,18.825935,18.87166,18.928251,18.980946,19.0313,19.083523
