2.9059024,2.912746,2.9192138,2.9247093,2.9286408,2.9317002,2.935585,2.9395213,2.9438567,2.9479947,2.9510722,2.9528265,2.9533112,2.9527469,2.9522982,2.9518692,2.9506192,2.9488354,2.9477181,2.9476912,2.9481578,2.9490538,2.950402,2.9527316,2.9566667,2.963696,2.9746685,2.9877996,2.9995103,3.0097907,3.0194278,3.0264559,3.0315495,3.0343904,3.0345335,3.0335577,3.030515,3.0248275,3.0155,3.0044308,2.9929764,2.9815762,2.970776,2.9601293,2.949935,2.9404535,2.9316335,2.9233985,2.916541,2.912025,2.9094772,2.908491,2.9080462,2.9079967,2.9074519,2.9063573,2.9054508,2.904565,2.9034128,2.9018183,2.8998961,2.89777,2.8955786,2.893527,2.8917043,2.8896813,2.8867984,2.8829126,2.8785167,2.8740077,2.8696487,2.8657355,2.862156,2.859223,2.8568249,2.8549814,2.853672,2.853158,2.8539205,2.8560853,2.8598437,2.8653102,2.8715625,2.8780005,2.884585,2.8913314,2.8980534,2.90548,2.914237,2.924386,2.9368334,2.9513788,2.9667168,2.9771624,2.9579766,2.9411097,2.9268441,2.9190383,2.9236336,2.9438677,2.9757442,3.0086346,3.0430236,3.0812058,3.1218631,3.1712713,3.2248802,3.267952,3.3039093,3.3350425,3.3590205,3.3738124,3.377291,3.3744516,3.3723443,3.369021,3.366045,3.3631816,3.362338,3.363209,3.3653634,3.3688846,3.3730683,3.3773851,3.381792,3.384967,3.386086,3.3859935,3.385725,3.3851347,3.3841314,3.3825989,3.380127,3.376679,3.3724337,3.3679578,3.3638763,3.3601542,3.3565152,3.3529139,3.3495955,3.3467135,3.3444934,3.3431184,3.342424,3.3425717,3.3426113,3.3433566,3.3449693,3.3472295,3.3495975,3.35114,3.3516216,3.3520627,3.3524137,3.3526,3.3525667,3.3522868,3.3517752,3.3512082,3.3505726,3.3499236,3.3491993,3.3483691,3.3474755,3.346649,3.3460917,3.3457558,3.3456154,3.3456516,3.3457923,3.3459334,3.3460073,3.345983,3.3457863,3.3452425,3.344254,3.3429923,3.3417056,3.340566,3.3396754,3.3389952,3.3385057,3.338188,3.3380303,3.338017,3.338088,3.33817,3.3382483,3.3384051,3.3386045,3.3387713,3.3388186,3.3386693,3.3382878,3.3376994,3.336935,3.3360991,3.3354468,3.33511,3.3351388,3.3355017,3.3360057,3.3364472,3.3367891,3.3369794,3.3370414,3.3370514,3.3370748,3.3371072,3.3370514,3.3368168,3.3363829,3.335679,3.3347554,3.3338165,3.3330612,3.332594,3.3324065,3.332414,3.3324606,3.3323972,3.3321922,3.3318944,3.3315353,3.3311195,3.3306808,3.3302493,3.3298554,3.3295019,3.3291519,3.3287752,3.3283257,3.32788,3.3275828,3.3275368,3.3277483,3.328093,3.3283505,3.3284237,3.328236,3.3277674,3.3271432,3.3265707,3.3261557,3.325862,3.325686,3.3255634,3.32542,3.325275,3.3251696,3.325141,3.3252537,3.3255668,3.32608,3.3269196,3.3279672,3.3290434,3.3299875,3.3306966,3.3311648,3.3314404,3.33152,3.331459,3.331305,3.3311076,3.3308916,3.330635,3.3303194,3.3298554,3.3292837,3.3286986,3.3282413,3.3280153,3.3280323,3.3282456,3.328659,3.329111,3.329533,3.3298757,3.3301172,3.3302581,3.3303187,3.3302684,3.3301423,3.3298714,3.3294463,3.3289042,3.3283076,3.3277993,3.3274088,3.3272839,3.327502,3.3280427,3.3288336,3.3297522,3.330661,3.331574,3.3324943,3.3333678,3.334102,3.3346264,3.3349395,3.3350887,3.335143,3.335164,3.3351498,3.3350928,3.3350568,3.3351703,3.3355384,3.3361518,3.336963,3.3378792
2.8996816,2.9061856,2.9113197,2.9148626,2.9176707,2.9205542,2.9238791,2.9274864,2.9319167,2.9365535,2.9406805,2.9439397,2.9458957,2.9465475,2.947859,2.9496818,2.9516535,2.9540267,2.9577773,2.9643402,2.9739182,2.9842992,2.9945126,3.009886,3.0305266,3.0637996,3.115683,3.1773481,3.2296867,3.273328,3.314648,3.346623,3.3691373,3.3810303,3.382203,3.3777876,3.3649487,3.343596,3.3104167,3.2695968,3.2254817,3.181274,3.1402206,3.1022272,3.0694985,3.0409746,3.0139923,2.9865034,2.9640393,2.9518633,2.9415512,2.9332142,2.9255762,2.9205074,2.9171824,2.9140887,2.9111505,2.9086049,2.9060087,2.9028387,2.8993006,2.8954923,2.891751,2.8885336,2.8859096,2.883532,2.8805234,2.8769143,2.8728106,2.8682861,2.8637342,2.8597407,2.8561826,2.8531024,2.85042,2.8481255,2.8460145,2.8442712,2.8434687,2.8437204,2.8451428,2.8476644,2.851356,2.8555484,2.8597245,2.864007,2.868591,2.874096,2.8813848,2.892553,2.9063582,2.920376,2.9327455,2.9423718,2.9506903,2.9625328,2.9581826,2.9376068,2.9171731,2.908936,2.911163,2.9211478,2.9382288,2.9614305,2.9875746,3.0149083,3.0420568,3.067546,3.092023,3.1162841,3.140655,3.1627445,3.1810532,3.1953979,3.206503,3.2155719,3.223831,3.2323987,3.2416282,3.2522705,3.2647076,3.2784517,3.2924957,3.3064103,3.3207514,3.3350618,3.3440406,3.3489766,3.3530831,3.3539371,3.3512714,3.3484921,3.3452067,3.3413107,3.336906,3.332418,3.3283114,3.32464,3.320992,3.3172002,3.3134727,3.3099976,3.3070703,3.304885,3.3032174,3.3021784,3.3016777,3.3018026,3.30246,3.3034883,3.3047209,3.3059583,3.307074,3.3080792,3.308909,3.309505,3.3098395,3.3099127,3.3097568,3.3095758,3.309394,3.3093064,3.3092449,3.3091483,3.309023,3.3089442,3.3090396,3.3093235,3.3097558,3.310333,3.3109717,3.3115406,3.3119721,3.3122706,3.3123863,3.312203,3.3116274,3.3108273,3.3100395,3.3094218,3.309052,3.3088748,3.3088856,3.3090532,3.309359,3.3097956,3.3102937,3.310753,3.3111773,3.3115716,3.3119538,3.3123066,3.312551,3.3125904,3.3123937,3.3119965,3.3114598,3.3108997,3.3105392,3.3104784,3.3107183,3.3111923,3.3117402,3.3122153,3.3125863,3.3127875,3.3128226,3.3127642,3.3127022,3.312669,3.3125982,3.312412,3.3120263,3.3113916,3.3105817,3.309784,3.3091702,3.3088126,3.3086648,3.308649,3.3086421,3.3085244,3.3082728,3.3079352,3.3075476,3.3070993,3.3065872,3.3060389,3.3054898,3.3049686,3.3044777,3.3040051,3.30348,3.3029752,3.3026004,3.302444,3.302535,3.3027763,3.302956,3.3029795,3.3027744,3.3023398,3.3018255,3.3014042,3.3011408,3.3010101,3.3009782,3.3009844,3.300961,3.3009481,3.300993,3.3011143,3.3013473,3.3017347,3.3022957,3.3030753,3.3039782,3.304891,3.305697,3.3063052,3.3067145,3.3069706,3.307072,3.3070579,3.3069746,3.3068624,3.306725,3.3065355,3.3062704,3.305835,3.305265,3.3046482,3.3041222,3.30379,3.3036652,3.3037233,3.3039699,3.304277,3.3046,3.304879,3.305059,3.3051133,3.3050513,3.3048506,3.3045492,3.30415,3.30369,3.3032236,3.3027987,3.3024745,3.3022847,3.3023777,3.3027914,3.3034902,3.3044145,3.3054667,3.3065238,3.3076115,3.3087404,3.3098297,3.3107677,3.3114824,3.311965,3.312245,3.3123865,3.31247,3.3125029,3.3124957,3.31251,3.3126523,3.3130112,3.3135712,3.3143182,3.3151898
2.8887095,2.8934789,2.897898,2.9011998,2.9032154,2.9048843,2.9076343,2.9112515,2.9160652,2.9213452,2.9264832,2.9314053,2.935166,2.9368186,2.938858,2.9404635,2.9459496,2.9571881,2.98669,3.0446625,3.1254835,3.214755,3.309289,3.4161007,3.5305054,3.6538396,3.7807493,3.8992727,4.0026293,4.075939,4.1385365,4.1741076,4.1870127,4.181524,4.1593513,4.1273446,4.073723,4.004125,3.917914,3.8226492,3.725803,3.633944,3.552455,3.4789793,3.4087803,3.3422909,3.2804952,3.2223344,3.1684296,3.121255,3.080902,3.0450006,3.011332,2.9783125,2.9530606,2.938161,2.9274492,2.9175212,2.9083614,2.90028,2.8925326,2.8862824,2.8816404,2.8777928,2.8749363,2.8721251,2.8687768,2.8654153,2.8619852,2.8586483,2.8558512,2.8536184,2.8512402,2.849268,2.8476105,2.8459358,2.8441572,2.842461,2.8411076,2.84036,2.840269,2.8408155,2.8421638,2.8438478,2.8455815,2.847426,2.8492513,2.8521404,2.8568273,2.8650508,2.875506,2.8867533,2.8981369,2.908483,2.917787,2.92624,2.9309278,2.9337893,2.9330468,2.9236312,2.907392,2.8981743,2.8953428,2.8998046,2.9090147,2.9214225,2.9366217,2.9541135,2.973985,2.996107,3.02109,3.046795,3.0716088,3.0942307,3.1139529,3.1315193,3.1484327,3.1654868,3.1827254,3.2011876,3.220415,3.2375765,3.250764,3.2649534,3.2784061,3.2856827,3.2887053,3.290442,3.2915134,3.2919188,3.291783,3.2911825,3.2899356,3.2878811,3.2850952,3.2820125,3.2790923,3.2763586,3.2735417,3.2705135,3.2674108,3.2644196,3.26189,3.2600455,3.258645,3.2578094,3.2575011,3.2577884,3.2585583,3.2596118,3.260796,3.2619972,3.2630963,3.2640057,3.2646878,3.2651227,3.2653108,3.2652688,3.2650423,3.264834,3.2646682,3.264655,3.2647388,3.2648382,3.2649252,3.2650602,3.2653742,3.2658815,3.2665677,3.2673748,3.268197,3.2689152,3.269475,3.2698927,3.270135,3.2701416,3.269847,3.2694325,3.269114,3.2690086,3.2691693,3.2695348,3.2701316,3.2709193,3.2718616,3.2729247,3.2740116,3.2750068,3.2759323,3.276799,3.2776203,3.278371,3.278974,3.2793403,3.2794476,3.279347,3.2791383,3.2789383,3.2789464,3.2792377,3.2797914,3.2805328,3.281314,3.2820206,3.2826295,3.283061,3.2833042,3.2834187,3.2834892,3.2835612,3.2835882,3.2835107,3.283249,3.2827487,3.2820764,3.2814097,3.2809043,3.2806315,3.2805495,3.2805812,3.280613,3.2805336,3.2803235,3.2800283,3.2796686,3.279223,3.2786694,3.2780244,3.277331,3.2766342,3.2759588,3.27531,3.2746162,3.2739425,3.2734005,3.273089,3.2730517,3.2731981,3.2733195,3.2733233,3.2731338,3.2727664,3.2723851,3.272153,3.2720995,3.2721553,3.272268,3.2723806,3.2724314,3.2724771,3.2725816,3.2727585,3.273025,3.2734194,3.2739701,3.274709,3.275566,3.2764564,3.2772777,3.2779417,3.2784414,3.2788138,3.279054,3.2791872,3.2792501,3.2792768,3.2792668,3.2791924,3.2790399,3.2787166,3.2782512,3.277721,3.277254,3.276948,3.2768216,3.2768555,3.2770658,3.2773478,3.2776728,3.2779822,3.278211,3.2783098,3.2782736,3.2780867,3.2778044,3.2774591,3.2771068,3.2768054,3.2765832,3.2764618,3.2764676,3.2767339,3.2772725,3.2780437,3.2790008,3.2800646,3.281138,3.2822561,3.283428,3.2845683,3.2855587,3.2863212,3.2868433,3.2871463,3.287292,3.2873821,3.2874296,3.2874465,3.2874823,3.287616,3.2879105,3.2883596,3.2889624,3.289669
2.877997,2.8813267,2.8852458,2.8886838,2.891271,2.894127,2.8982692,2.9016476,2.907289,2.9171863,2.9286003,2.9431531,2.9726877,3.025259,3.08536,3.1697488,3.283931,3.4280105,3.6106927,3.8176491,4.007392,4.1558094,4.2865224,4.397779,4.4978743,4.5935183,4.678733,4.7439666,4.788333,4.805027,4.808713,4.7893867,4.7560835,4.713228,4.6609964,4.6080284,4.549812,4.483658,4.4013767,4.305128,4.1945286,4.072741,3.9535072,3.8477535,3.74441,3.6448646,3.552526,3.467946,3.3905568,3.3217711,3.2648792,3.2150137,3.1691055,3.1249828,3.0842505,3.047486,3.0131817,2.9823275,2.9541574,2.9258194,2.9077015,2.8956413,2.8840427,2.873495,2.86518,2.8600452,2.8566623,2.853923,2.8512917,2.8489695,2.8475637,2.8472557,2.8471298,2.8474767,2.8473911,2.8468118,2.845748,2.8444414,2.8432662,2.8420477,2.8408048,2.8395035,2.8384404,2.837339,2.8359144,2.8342075,2.832377,2.8316226,2.8326917,2.8374834,2.8455596,2.8556857,2.8666742,2.8770902,2.8867028,2.89614,2.9058356,2.9162488,2.9245787,2.9277077,2.9272485,2.9288912,2.9325924,2.931641,2.927744,2.92658,2.9310846,2.9406054,2.9552414,2.9741812,2.9983978,3.0259876,3.0551789,3.0839062,3.11064,3.1352448,3.1531134,3.1703286,3.1872125,3.2026236,3.2144728,3.2225208,3.2293472,3.2366123,3.2440746,3.2493954,3.252762,3.2544827,3.2547016,3.2543154,3.2538195,3.2527454,3.25099,3.2485094,3.2454214,3.2421386,3.2390945,3.2362752,3.2334275,3.2304132,3.2273378,3.2243714,3.221837,3.2199347,3.218444,3.2174888,3.2169876,3.2170224,3.2174993,3.218275,3.2192183,3.2201567,3.2209773,3.221611,3.2220056,3.2221527,3.2220821,3.221829,3.2214408,3.221114,3.2208734,3.2208395,3.2209587,3.2211347,3.2213063,3.221503,3.2218368,3.22231,3.222919,3.2236023,3.2242587,3.224792,3.225183,3.2254748,3.225652,3.2257009,3.2255745,3.2254457,3.2255118,3.2258627,3.2265134,3.2273927,3.228557,3.2299547,3.2315245,3.2332063,3.2348835,3.2364235,3.237827,3.2391658,3.2404404,3.241619,3.2426293,3.2433863,3.2438674,3.2441382,3.2443256,3.24455,3.2449908,3.2456973,3.2466269,3.2476945,3.2487583,3.2497392,3.2506316,3.2513566,3.251896,3.252293,3.2526164,3.252901,3.253118,3.2532275,3.2531471,3.2528217,3.2523072,3.251769,3.2513576,3.2511542,3.2511272,3.2512093,3.2512941,3.2512784,3.2511415,3.250916,3.2506022,3.2501729,3.249589,3.248856,3.2480216,3.2471437,3.2462635,3.2454014,3.2444851,3.2435744,3.242786,3.2422416,3.2420068,3.2419994,3.2420135,3.2419531,3.2417698,3.2414834,3.24126,3.2412486,3.2414365,3.2416997,3.2419686,3.2421908,3.2423055,3.242387,3.2425194,3.2427201,3.2429938,3.2433712,3.2438884,3.2445672,3.2453694,3.2462473,3.2471232,3.247913,3.248581,3.249147,3.2496016,3.2499442,3.2502038,3.2504237,3.2506046,3.250711,3.250743,3.2506108,3.2503314,3.2499623,3.2496154,3.2493832,3.249291,3.2493286,3.249522,3.2497926,3.250131,3.2504983,3.2508307,3.2510583,3.2511444,3.2510808,3.2509377,3.250771,3.250653,3.250638,3.2507262,3.2508888,3.251136,3.2515802,3.2522075,3.2529795,3.253873,3.2548442,3.2558289,3.2568722,3.2579865,3.2590933,3.2600708,3.260835,3.261363,3.2616715,3.2618232,3.2619367,3.2620277,3.2621038,3.262182,3.2622962,3.2624865,3.2627645,3.2631288,3.2635489
2.86923,2.8741317,2.8802624,2.8872743,2.8955889,2.9066844,2.9237695,2.9542773,2.9970722,3.0508208,3.1146767,3.1957514,3.308906,3.4645467,3.6570768,3.8775954,4.1086984,4.324925,4.537023,4.7436094,4.9110804,5.0269055,5.11456,5.1714554,5.2018805,5.217192,5.2098765,5.172577,5.1273165,5.069852,5.004773,4.930995,4.8452787,4.752345,4.6620913,4.579197,4.5012126,4.426794,4.3379917,4.240405,4.138074,4.032378,3.931685,3.841882,3.7525465,3.664991,3.5823646,3.5063205,3.4373436,3.3768296,3.3278818,3.2860484,3.2487206,3.2138429,3.1779046,3.1397185,3.1014047,3.0656147,3.031612,2.9957366,2.965754,2.9372203,2.9101806,2.8889523,2.8713992,2.8605776,2.8519914,2.8449202,2.840723,2.8387349,2.8376434,2.8378196,2.8387675,2.8405213,2.842235,2.8437443,2.844153,2.8434243,2.8427162,2.8420744,2.84097,2.839375,2.8375163,2.8352678,2.832566,2.8294957,2.8260648,2.8231928,2.8216627,2.8232415,2.8283727,2.836297,2.8455324,2.8545628,2.8634708,2.873186,2.8824673,2.8908267,2.899126,2.9085193,2.9188423,2.9283662,2.937461,2.9414434,2.9423141,2.9445393,2.9503818,2.959694,2.9726045,2.9888113,3.0092542,3.032593,3.0574398,3.0827086,3.1072345,3.1293292,3.145642,3.160244,3.1732574,3.1836934,3.190598,3.1952276,3.2003303,3.205307,3.2108145,3.2167323,3.2213175,3.2237067,3.2243767,3.2239482,3.2229629,3.2215044,3.2195058,3.2169967,3.2140965,3.2111418,3.2084894,3.2061105,3.2037563,3.201294,3.1987634,3.1963,3.1941843,3.1925764,3.1912847,3.190455,3.1900096,3.1900234,3.190424,3.1911316,3.1920524,3.192981,3.1938252,3.194522,3.1949966,3.1952357,3.1952772,3.1951613,3.1949227,3.1947365,3.1946468,3.1947627,3.1950288,3.1953437,3.1956327,3.1959,3.1962314,3.196623,3.1970923,3.1976013,3.198079,3.1984599,3.198746,3.1989918,3.199192,3.1993656,3.199475,3.1996555,3.2000647,3.2007642,3.2017426,3.2029314,3.2044039,3.2061043,3.2079554,3.2098913,3.211812,3.2136023,3.215248,3.2168674,3.2184477,3.2199492,3.2213004,3.2224207,3.2232866,3.2239556,3.2245734,3.2252545,3.2261453,3.2272706,3.2285633,3.2299266,3.2312355,3.2324328,3.2335424,3.2344983,3.235282,3.235925,3.236476,3.2369523,3.237337,3.2376037,3.2376761,3.2374983,3.2371213,3.2366943,3.2363605,3.2362058,3.236208,3.2363076,3.2364068,3.2364094,3.2362933,3.236082,3.2357726,3.23533,3.2347193,3.2339435,3.2330456,3.2320805,3.2310822,3.2300625,3.2289457,3.2277718,3.2266655,3.2257745,3.2251873,3.224848,3.2245889,3.224312,3.223971,3.223614,3.223412,3.2235017,3.22383,3.2242208,3.2245898,3.2248812,3.2250364,3.2251382,3.2252798,3.2254777,3.2257237,3.2260394,3.2264607,3.226997,3.2276506,3.2284162,3.22925,3.230085,3.2308712,3.231597,3.2322571,3.2328148,3.2332802,3.2336888,3.234047,3.234341,3.2345774,3.2346635,3.2346058,3.234442,3.2342575,3.2341335,3.234098,3.2341495,3.2343154,3.2345343,3.2348115,3.2351377,3.2354674,3.2357254,3.235861,3.235865,3.2358098,3.2357726,3.235837,3.236054,3.2363982,3.236798,3.2372584,3.2378626,3.2385814,3.239375,3.240233,3.241132,3.242032,3.242988,3.2440171,3.245047,3.2459645,3.2466817,3.24717,3.2474487,3.2475774,3.2476897,3.247795,3.2478971,3.2479887,3.2480676,3.2481592,3.2482955,3.2484632,3.2486458
2.8723674,2.8855205,2.9006872,2.9266639,2.9668097,3.0164986,3.0758634,3.156249,3.2582006,3.379591,3.5310178,3.7123747,3.91642,4.143493,4.3968573,4.6403394,4.8677692,5.0430174,5.172523,5.2683973,5.323843,5.3504143,5.339525,5.307177,5.25053,5.182901,5.0962753,4.9778614,4.8546505,4.728863,4.6001606,4.4777975,4.354787,4.234145,4.1264644,4.0303774,3.9418252,3.86348,3.7832346,3.7058887,3.6386232,3.5834925,3.5386784,3.4986043,3.4581306,3.4165304,3.3749845,3.3344874,3.2957711,3.2606027,3.232103,3.2083943,3.1877766,3.1684852,3.1482801,3.126791,3.1052897,3.0846417,3.0642877,3.0424829,3.0163157,2.9848392,2.9547026,2.9304178,2.907426,2.8882685,2.8682528,2.8520088,2.8416722,2.835385,2.8313406,2.8298564,2.8295403,2.8303509,2.8322406,2.8347173,2.8365521,2.837278,2.8375823,2.8377614,2.8377924,2.8373466,2.8364477,2.834826,2.8326004,2.830079,2.827031,2.8239398,2.8213482,2.8203034,2.821723,2.825697,2.831427,2.8378725,2.8445969,2.852058,2.859536,2.8668919,2.8745406,2.8824487,2.889864,2.896465,2.9028597,2.9110036,2.9202523,2.9298546,2.9398694,2.9506998,2.962553,2.975849,2.9915156,3.009399,3.0287962,3.0491786,3.0695338,3.087731,3.1049333,3.1201184,3.132737,3.1430674,3.151713,3.1591954,3.1658487,3.1720772,3.178328,3.1837957,3.18764,3.189752,3.1905603,3.1904967,3.1900046,3.1892505,3.1882033,3.186865,3.185302,3.183743,3.182425,3.1813104,3.1802115,3.179039,3.1777396,3.1764069,3.175284,3.1744947,3.173872,3.1735997,3.173647,3.174079,3.1748395,3.1758838,3.1771414,3.1784124,3.1796288,3.180736,3.181642,3.182325,3.182817,3.183148,3.1833334,3.1835208,3.1837864,3.1842227,3.184763,3.1853194,3.1858196,3.1862414,3.186658,3.1870785,3.1875517,3.1880558,3.1885486,3.188988,3.1893766,3.1897538,3.1901166,3.19051,3.190899,3.1913714,3.192033,3.192926,3.1940362,3.1953044,3.1968193,3.1985261,3.200345,3.2022243,3.2041054,3.2059116,3.2076273,3.2093852,3.2111568,3.2128859,3.2144985,3.2159197,3.217125,3.2181568,3.21917,3.2202673,3.2215552,3.2230344,3.2246213,3.2262151,3.227706,3.229057,3.2303152,3.2314377,3.2324128,3.2332582,3.2340012,3.234637,3.2351513,3.2355309,3.2357116,3.2356436,3.23537,3.235026,3.2347422,3.2346015,3.2345943,3.2346597,3.2347157,3.2346718,3.2345028,3.2342312,3.2338629,3.2333589,3.2326994,3.2318997,3.230994,3.2300186,3.228981,3.2278666,3.226587,3.225163,3.223712,3.2224169,3.221394,3.2206163,3.2199748,3.21937,3.2187357,3.2181654,3.2178373,3.2178764,3.218203,3.2186027,3.2189765,3.2192643,3.2194133,3.2195091,3.2196512,3.219849,3.2200737,3.220335,3.2206573,3.2210312,3.221496,3.2220883,3.2228036,3.2236018,3.2244315,3.2252486,3.226043,3.2267501,3.2273664,3.2279143,3.228397,3.2288227,3.229212,3.2294917,3.2296467,3.2296891,3.2296782,3.2296758,3.229712,3.2297888,3.2299283,3.2300732,3.2302415,3.2304506,3.2306848,3.2308795,3.2309866,3.2309895,3.2309585,3.230982,3.2311497,3.2315063,3.23201,3.2325602,3.2331607,3.233873,3.2346578,3.2354743,3.2363122,3.2371566,3.2379794,3.238846,3.239779,3.2407064,3.2415295,3.2421634,3.2425766,3.2427945,3.2428832,3.2429757,3.243072,3.2431645,3.2432337,3.2432637,3.24327,3.2432976,3.2433217,3.2433314
2.900144,2.9323566,2.9711435,3.031145,3.1176198,3.2197714,3.3305752,3.4507828,3.5933816,3.76326,3.962906,4.1803327,4.3990326,4.606524,4.784816,4.9171553,5.0394545,5.1367135,5.2023916,5.228257,5.204133,5.1464252,5.02077,4.876142,4.7262983,4.585686,4.451334,4.3080072,4.1575885,4.0120773,3.86653,3.736215,3.6272688,3.5372963,3.4617114,3.3981652,3.3465543,3.3044002,3.2749186,3.2518854,3.2325249,3.217948,3.2069683,3.1983988,3.1906157,3.1811132,3.169654,3.1560721,3.1407504,3.1254592,3.1123571,3.1011796,3.090459,3.0797725,3.0687704,3.057665,3.047574,3.0397716,3.0329514,3.0264359,3.0166788,3.0046425,2.9921155,2.977801,2.9592717,2.9372277,2.9105825,2.8876662,2.8681087,2.8515182,2.8399515,2.833301,2.828074,2.8251538,2.8240476,2.8243375,2.8258314,2.8278947,2.8295178,2.8304856,2.831498,2.8323112,2.8328648,2.8325553,2.8312273,2.829277,2.8267708,2.824018,2.8211749,2.8188157,2.817903,2.8188381,2.8213625,2.8251586,2.8299127,2.8359828,2.8427167,2.8496404,2.8566198,2.8635755,2.8701558,2.875821,2.8813074,2.8872442,2.8928933,2.8982613,2.9039998,2.9106445,2.9186819,2.9283755,2.9410634,2.9575438,2.977602,2.9996912,3.021972,3.0433898,3.063819,3.0830173,3.0999398,3.1140084,3.1250212,3.1334229,3.1401827,3.1457565,3.1512628,3.1562939,3.160055,3.1622791,3.1633387,3.163732,3.1638594,3.163947,3.1639507,3.163821,3.163573,3.163336,3.1632376,3.1632354,3.1632366,3.163188,3.1629915,3.1627088,3.1625385,3.162566,3.1626372,3.1629643,3.1635613,3.164478,3.1656694,3.167118,3.1687684,3.170414,3.1720052,3.1735103,3.17482,3.175908,3.1768022,3.1775246,3.178079,3.1785898,3.179163,3.1798759,3.180643,3.1813684,3.1820042,3.1825614,3.183091,3.1836157,3.184196,3.18481,3.185421,3.1859996,3.1865478,3.187087,3.1876225,3.1881943,3.1887472,3.1893425,3.1900663,3.19096,3.192025,3.1932068,3.1946068,3.1961782,3.1978488,3.199585,3.2013607,3.203125,3.204853,3.2066677,3.2085342,3.2103815,3.2121396,3.2137442,3.2151728,3.2164617,3.217761,3.219164,3.2207408,3.2224665,3.2242527,3.2260027,3.227612,3.2290702,3.2304344,3.2316837,3.2328134,3.2338305,3.2347386,3.2355127,3.2361333,3.236606,3.2368736,3.236893,3.2367005,3.2364125,3.2361474,3.2359836,3.2359228,3.2359037,3.235864,3.2357268,3.2354639,3.235095,3.234633,3.2340345,3.2332947,3.232445,3.2315168,3.2305255,3.229454,3.2282631,3.2268486,3.2252207,3.2234778,3.2218318,3.2204354,3.2192879,3.2183075,3.2173998,3.2164943,3.2157114,3.2152262,3.2151487,3.215382,3.2156954,3.2159781,3.2161794,3.2162535,3.2163,3.216432,3.2166538,3.216906,3.21718,3.2174735,3.217751,3.2180738,3.218512,3.2191017,3.2198346,3.2206502,3.2214875,3.222323,3.2230783,3.2237546,3.2243743,3.2249298,3.2254233,3.2258973,3.2263188,3.226643,3.2268543,3.2269864,3.2270842,3.2271755,3.22727,3.2273817,3.2274609,3.2275305,3.227633,3.22778,3.2279208,3.2280073,3.2280207,3.2280278,3.2281253,3.2283957,3.2288737,3.229504,3.2301664,3.230855,3.231625,3.2324228,3.2332087,3.2339792,3.2347288,3.2354476,3.236208,3.2370348,3.2378612,3.2385962,3.2391605,3.2395225,3.2397046,3.2397873,3.239891,3.2400143,3.2401295,3.240203,3.2402084,3.2401533,3.2400856,3.2399795,3.239822
2.956812,3.0156136,3.0909266,3.1769357,3.274033,3.3824255,3.5006688,3.6299057,3.782991,3.9646578,4.1213207,4.259188,4.407669,4.546897,4.658494,4.7351723,4.7804346,4.7800875,4.7431602,4.6817083,4.589944,4.4605722,4.2546415,4.043898,3.8569527,3.7008576,3.5726652,3.475005,3.4161549,3.3801188,3.3528616,3.3331883,3.3176048,3.3029363,3.2884817,3.274579,3.258998,3.2425892,3.2265496,3.2113929,3.1975589,3.1854103,3.1746984,3.1646018,3.1536894,3.1421375,3.1303823,3.1194174,3.1100469,3.1020184,3.09438,3.0864334,3.077003,3.0664942,3.055274,3.0438094,3.0332565,3.0249438,3.0174496,3.0108852,3.0029426,2.9992914,2.9999616,2.9980626,2.9906735,2.9790955,2.9623404,2.9419413,2.9165592,2.8908987,2.8704655,2.8539855,2.839003,2.8294578,2.8224769,2.8182263,2.8167553,2.8172958,2.8190477,2.8216076,2.8230383,2.8247242,2.8264718,2.827752,2.8281236,2.8273726,2.8255863,2.8233974,2.820923,2.8189611,2.817957,2.8181505,2.8194447,2.8213735,2.8241084,2.8278866,2.8324063,2.8372035,2.8421545,2.847278,2.852274,2.8566236,2.8605156,2.8640761,2.8677006,2.871131,2.8743854,2.8784332,2.8840718,2.891498,2.9021056,2.916306,2.9342945,2.9552708,2.9777226,3.0005126,3.0232859,3.0459747,3.067213,3.0855222,3.1002502,3.111647,3.1202257,3.127042,3.133313,3.1387248,3.1428733,3.1457272,3.147677,3.1491811,3.1504917,3.1518567,3.153173,3.1543007,3.1552167,3.1560054,3.1567383,3.1574152,3.1580472,3.1586347,3.1590958,3.1594868,3.1599736,3.1605992,3.161193,3.1619787,3.163003,3.164298,3.1658213,3.1675649,3.1694803,3.1713662,3.1731756,3.1748972,3.176422,3.1777227,3.178826,3.1797504,3.1804876,3.1811464,3.1818426,3.1826375,3.1834269,3.1840582,3.1845546,3.1850786,3.1856308,3.186215,3.1868844,3.1875935,3.1882997,3.188983,3.1896548,3.1903296,3.191033,3.191742,3.1923494,3.1929255,3.1935716,3.1943347,3.1952367,3.1962242,3.1974015,3.1987338,3.200172,3.201701,3.2033122,3.2049682,3.2066298,3.208382,3.2101927,3.2120032,3.2137594,3.2154145,3.2169523,3.2183986,3.219891,3.2215014,3.2232718,3.225151,3.2270422,3.2288604,3.2305167,3.2320113,3.2334104,3.2347035,3.2358906,3.2369714,3.2379427,3.2387748,3.2394447,3.2399588,3.2402701,3.2403502,3.240222,3.2399757,3.2397099,3.239501,3.2393517,3.2392118,3.2390347,3.2387652,3.2383826,3.2379003,3.237334,3.23663,3.2357898,3.2348642,3.233883,3.2328515,3.231738,3.230485,3.2289767,3.2272205,3.225298,3.223409,3.2217486,3.220355,3.219131,3.2180147,3.216926,3.2159972,3.2153893,3.2151868,3.2152824,3.2154427,3.2155623,3.2156043,3.21554,3.2154946,3.2156043,3.2158601,3.2161674,3.2164984,3.2168074,3.217029,3.217237,3.2175202,3.2179523,3.2185578,3.2192767,3.2200408,3.2208362,3.2215729,3.222249,3.2228832,3.2234638,3.2240062,3.224547,3.2250576,3.2254925,3.225819,3.2260432,3.226191,3.2262833,3.2263505,3.2263918,3.2263734,3.2263298,3.2263227,3.2263842,3.2264738,3.2265427,3.2265754,3.226634,3.2268157,3.2271924,3.2277803,3.228516,3.2292671,3.2300258,3.2308412,3.2316408,3.232388,3.2330866,3.233746,3.234383,3.2350664,3.2358255,3.2366,3.2373028,3.2378616,3.2382445,3.2384648,3.2385907,3.2387514,3.2389517,3.2391539,3.2393064,3.239362,3.239315,3.239215,3.2390394,3.2387695
3.0592985,3.1192007,3.1875267,3.263904,3.3489404,3.4416137,3.5378556,3.6387472,3.7471647,3.8618455,3.9649582,4.055351,4.129195,4.1679153,4.176902,4.140878,4.0698686,3.9661136,3.8492866,3.7334027,3.6223164,3.5365825,3.4884186,3.4464283,3.4018316,3.3590064,3.324391,3.2989798,3.2815218,3.2684512,3.2565408,3.2440515,3.2330444,3.2235348,3.2137995,3.2043853,3.194923,3.1853454,3.1759825,3.1673174,3.1596613,3.1530414,3.1471405,3.1412387,3.1346948,3.1274297,3.1196613,3.1117454,3.1039693,3.0963464,3.0887332,3.0809913,3.0731924,3.06467,3.0553215,3.0459604,3.0376682,3.0309305,3.0244746,3.0179472,3.0106058,3.0054626,3.002167,2.997302,2.990613,2.9844158,2.978304,2.971703,2.9611917,2.945744,2.9243555,2.8965707,2.8710399,2.851745,2.8340006,2.8219023,2.8154945,2.8121746,2.8114758,2.8130546,2.815144,2.8180485,2.8206925,2.8228784,2.8245883,2.8253417,2.8249154,2.823855,2.822258,2.8207064,2.8194637,2.8187542,2.818724,2.8192115,2.8202107,2.8212373,2.822494,2.8239493,2.825894,2.8285668,2.831602,2.8344343,2.8371606,2.839819,2.8424854,2.8448718,2.8470442,2.849708,2.853299,2.8584118,2.8663778,2.877829,2.8933787,2.9126358,2.934408,2.9577856,2.9822412,3.0079994,3.033451,3.0565004,3.075533,3.090176,3.1011345,3.109735,3.1172154,3.1234298,3.128372,3.1322474,3.135478,3.1384838,3.1413212,3.1442661,3.1471505,3.1497412,3.151998,3.1539712,3.1556334,3.1569347,3.1578567,3.158702,3.1594992,3.1603076,3.1612341,3.162264,3.1631937,3.1642575,3.1655152,3.1669927,3.1686516,3.170472,3.1723995,3.1742702,3.1760652,3.1777954,3.179388,3.180803,3.1820316,3.1830497,3.1838098,3.1844115,3.1849403,3.1854844,3.1859968,3.186481,3.186966,3.1874464,3.187922,3.1884322,3.1890557,3.1897566,3.190506,3.191286,3.192078,3.1928616,3.1936483,3.1944666,3.1952477,3.1960053,3.1967788,3.1976006,3.198492,3.199397,3.2004285,3.2015567,3.2027736,3.2041209,3.205625,3.207254,3.208963,3.2108576,3.2128801,3.2149394,3.2169895,3.2189908,3.220898,3.2227178,3.2245295,3.2263947,3.228354,3.2303567,3.2323124,3.2341604,3.2358415,3.2373576,3.2387898,3.240139,3.2414002,3.242568,3.2436466,3.2446191,3.2454417,3.2459676,3.2462726,3.246382,3.246306,3.2460957,3.2458231,3.2455585,3.2453043,3.2450194,3.2446775,3.2442465,3.2437139,3.2430863,3.242373,3.241508,3.2404945,3.2394133,3.2383032,3.2371702,3.2359822,3.234661,3.2330487,3.2311952,3.2291412,3.2270668,3.2251894,3.2235842,3.2221723,3.220891,3.2196546,3.2186074,3.2178986,3.2175984,3.2175906,3.2176306,3.2175891,3.217461,3.2172465,3.2170954,3.217177,3.2174728,3.217839,3.2182446,3.2185698,3.2187352,3.2188258,3.218957,3.2192366,3.219725,3.2203653,3.221093,3.221868,3.2226014,3.223308,3.2239985,3.2246413,3.2252603,3.2258866,3.2264616,3.2269928,3.2274244,3.2277188,3.2278802,3.2279358,3.2279391,3.2278204,3.2275858,3.2273335,3.227165,3.2271276,3.22718,3.2272608,3.2273726,3.2275095,3.2277665,3.2282267,3.2289057,3.2297263,3.2305446,3.231357,3.232207,3.2330055,3.2337174,3.2343597,3.234956,3.2355447,3.236199,3.236942,3.2377143,3.2384303,3.239016,3.2394352,3.2396986,3.2398798,3.2401006,3.2403827,3.2406902,3.2409563,3.2411141,3.2411385,3.2410703,3.240897,3.2405894
3.1184893,3.1598248,3.20322,3.2501798,3.300519,3.3513546,3.3993964,3.4465077,3.4893687,3.5268161,3.5521557,3.5659053,3.5664694,3.546959,3.5142446,3.4642725,3.4281483,3.3966858,3.358283,3.3136754,3.2713127,3.240644,3.228885,3.2190533,3.2075763,3.1966372,3.188794,3.1834254,3.1785111,3.173814,3.1686127,3.162487,3.157663,3.1540892,3.1500363,3.1457932,3.1413393,3.1367307,3.1321063,3.1279206,3.1243222,3.1210942,3.11796,3.114636,3.1107774,3.1060057,3.1003878,3.0942817,3.0880084,3.081675,3.0753462,3.068697,3.0616865,3.0548081,3.0489256,3.0439386,3.0392518,3.0352387,3.0315394,3.0278025,3.0237255,3.0202603,3.017028,3.0124848,3.0066345,3.0016391,2.9977732,2.9930773,2.9856248,2.9788399,2.971099,2.9543943,2.9335465,2.9047818,2.870026,2.8428998,2.825188,2.8135781,2.8087144,2.8070283,2.8075733,2.8102114,2.8132124,2.816265,2.8188424,2.820035,2.8204577,2.820332,2.8196692,2.8188214,2.8178542,2.8170075,2.8165464,2.8163345,2.8163157,2.8163304,2.816887,2.8173263,2.8176994,2.8187628,2.8205993,2.8224669,2.8245041,2.8266354,2.8287392,2.8303952,2.831588,2.8330045,2.835211,2.8383565,2.843846,2.8524013,2.8649096,2.8813562,2.900982,2.9232903,2.9477394,2.9750404,3.0036042,3.0308418,3.05436,3.0730224,3.0870552,3.0978987,3.1068711,3.113867,3.1191926,3.1233754,3.1270695,3.1307993,3.1344442,3.1382847,3.1421618,3.145615,3.1481829,3.1498919,3.1511688,3.1521873,3.153027,3.1538467,3.1546898,3.1556468,3.1568263,3.1581805,3.1594553,3.1608741,3.162506,3.1643524,3.1663525,3.1684566,3.1705923,3.1726055,3.17449,3.176274,3.1779065,3.17935,3.1805882,3.1815932,3.1823225,3.1828744,3.1833348,3.183807,3.1842718,3.1847782,3.1853719,3.1860309,3.1867528,3.1875215,3.1883898,3.1892939,3.1901846,3.1910417,3.1918588,3.1926193,3.1933575,3.1940966,3.1947937,3.1954618,3.196133,3.1968515,3.1976576,3.1984816,3.1994343,3.2004957,3.2016768,3.2030354,3.204599,3.2063236,3.2081494,3.210197,3.2123952,3.2146668,3.2169633,3.2192266,3.2214017,3.2234945,3.2256265,3.227824,3.230083,3.2323146,3.2344239,3.2363768,3.2381454,3.2397635,3.241214,3.2425737,3.243871,3.2450917,3.2462392,3.247316,3.2482958,3.2491174,3.2497654,3.2501416,3.2501886,3.2499883,3.2496758,3.2493083,3.2488935,3.2484121,3.247868,3.2472558,3.2465138,3.2456007,3.2446632,3.243587,3.2423677,3.2410967,3.2398405,3.2385721,3.237205,3.235708,3.233992,3.2320752,3.230027,3.228029,3.2262344,3.2246227,3.2230992,3.2218342,3.220694,3.2197332,3.2189665,3.2184062,3.2180057,3.2176595,3.2173576,3.2171135,3.2168465,3.2167363,3.2169294,3.2173796,3.2179565,3.2185674,3.2190762,3.2192974,3.2193599,3.2194037,3.2195597,3.2199292,3.2204628,3.221105,3.2218251,3.22255,3.223301,3.2240765,3.2248302,3.2255802,3.226378,3.2271636,3.2278228,3.2282643,3.2285008,3.2285662,3.2284653,3.2282643,3.227933,3.2275028,3.227067,3.2267404,3.2265992,3.2266073,3.2266955,3.2268682,3.2271445,3.2275999,3.2282648,3.2291164,3.2300687,3.230987,3.2318842,3.2327948,3.2336302,3.234357,3.234983,3.2355294,3.2360575,3.2366362,3.237311,3.2380567,3.2388067,3.2395039,3.2401075,3.240589,3.241004,3.2414205,3.241886,3.2423806,3.242832,3.2431452,3.2432678,3.2432284,3.2430367,3.2426586
3.0986223,3.1093035,3.1266937,3.147455,3.16651,3.1819282,3.1924505,3.2017884,3.210627,3.2147582,3.2098174,3.2000823,3.1903176,3.178557,3.1647868,3.1506107,3.1525123,3.162108,3.1668525,3.1652277,3.1623297,3.157318,3.1474082,3.1363552,3.1271043,3.1205702,3.11639,3.1138377,3.111988,3.1111712,3.1103601,3.110044,3.111432,3.1136374,3.1150124,3.1157026,3.1154525,3.1146908,3.113223,3.1113038,3.1093292,3.1073418,3.1050465,3.1022892,3.0988858,3.0944984,3.0891497,3.0831573,3.0768266,3.070365,3.064125,3.058082,3.0520358,3.0466318,3.043017,3.040914,3.039208,3.0380826,3.037425,3.0371506,3.0369987,3.0366607,3.0356717,3.0332046,3.028758,3.023727,3.0191045,3.0126693,3.0047908,2.9988453,2.995974,2.9927735,2.9866643,2.9649608,2.9338307,2.899353,2.8651967,2.8382092,2.823676,2.8134053,2.8091068,2.8081045,2.808926,2.8112745,2.8138623,2.8151402,2.8158903,2.815864,2.8156254,2.8155377,2.8154993,2.8152285,2.814786,2.8145342,2.814434,2.814508,2.8148916,2.815205,2.8155518,2.816122,2.8167272,2.8177137,2.819096,2.8207731,2.8225284,2.8238058,2.8244839,2.8252144,2.8265905,2.8288183,2.8323708,2.8382478,2.847557,2.8605053,2.876837,2.8966103,2.9194598,2.9467564,2.9771323,3.0077884,3.0357778,3.0590587,3.076929,3.0908856,3.1019473,3.1100426,3.1157537,3.1199913,3.123766,3.1277752,3.1317482,3.136006,3.139986,3.1431065,3.1452641,3.1466947,3.1476557,3.1483808,3.1490293,3.1497045,3.1504824,3.1514661,3.1527646,3.1543245,3.1558568,3.1575584,3.1595159,3.161697,3.1640096,3.1663775,3.1687124,3.1708632,3.1728349,3.1746697,3.1763341,3.1777983,3.1790395,3.1800346,3.1807506,3.181282,3.1817212,3.1821792,3.1826465,3.1831832,3.1838534,3.1846483,3.1855564,3.1865182,3.187554,3.1885705,3.189505,3.1903408,3.1910906,3.19176,3.1924121,3.1930566,3.1936636,3.1942658,3.1949008,3.1956105,3.196437,3.1972785,3.1982455,3.1993315,3.2005656,3.2020159,3.2037084,3.205586,3.2075684,3.209785,3.2121663,3.2146502,3.2171755,3.2196536,3.2220206,3.224286,3.2266018,3.2289982,3.2314384,3.233818,3.236045,3.2380881,3.2399209,3.2416124,3.2431965,3.2447257,3.2461562,3.2474825,3.2487576,3.2499561,3.2510238,3.2520301,3.2529047,3.2535353,3.253829,3.253805,3.2535596,3.2531552,3.252582,3.2518535,3.251018,3.250119,3.2491388,3.2480433,3.2469254,3.2456484,3.2441928,3.2426734,3.2411835,3.2397437,3.2382827,3.2366912,3.2349477,3.233074,3.2311246,3.2292929,3.2276168,3.226023,3.2246032,3.2234552,3.222445,3.2215981,3.220827,3.2200716,3.2193232,3.2185588,3.2177122,3.2170057,3.2164865,3.2163668,3.2167094,3.2173643,3.2181575,3.219009,3.219804,3.220271,3.2204409,3.220496,3.2206433,3.2209992,3.2215207,3.2221737,3.222891,3.223647,3.2245035,3.2254472,3.2263942,3.227335,3.2282367,3.2291021,3.2298367,3.2303567,3.2306218,3.2306306,3.230425,3.2300777,3.2295847,3.2289987,3.2284164,3.2279658,3.2277422,3.2277184,3.2278156,3.2280395,3.2284255,3.2290318,3.2298436,3.2308104,3.2318532,3.2328444,3.2338088,3.2347775,3.2356586,3.2364151,3.2370372,3.2375422,3.2380161,3.2385292,3.2391405,3.2398477,3.2406025,3.2413604,3.2420757,3.242695,3.2432623,3.2438507,3.2444925,3.2451653,3.245796,3.2462716,3.246509,3.2465138,3.2463055,3.245833
3.042293,3.040188,3.0443766,3.0510383,3.055964,3.0587401,3.0590596,3.0594313,3.0635796,3.0676465,3.070114,3.0733545,3.0795221,3.0872076,3.0940857,3.099874,3.1006608,3.0973845,3.0930464,3.089606,3.0872452,3.0856512,3.083873,3.081772,3.0799146,3.0789952,3.0792785,3.080336,3.0814705,3.0829616,3.084445,3.086229,3.0893238,3.0931134,3.0963016,3.0988226,3.0999167,3.1003757,3.0998774,3.0986772,3.0971074,3.0951114,3.0924835,3.089399,3.0857038,3.081182,3.0759015,3.0699487,3.0634825,3.0568776,3.0506983,3.0453172,3.0406764,3.0369093,3.034769,3.0341532,3.034248,3.0350592,3.0363402,3.0382385,3.0405338,3.042512,3.0436144,3.043438,3.0416608,3.0389323,3.0359228,3.030818,3.0235586,3.015116,3.0087838,3.0074315,3.006544,3.0015426,2.988131,2.9612026,2.9254303,2.8913336,2.864428,2.842627,2.82867,2.818474,2.813003,2.811348,2.8112779,2.8114653,2.8118367,2.8119698,2.8123202,2.8127115,2.813295,2.8138592,2.8141065,2.814284,2.814401,2.8146083,2.814837,2.815192,2.8158069,2.8164356,2.8166862,2.8169088,2.8175893,2.81876,2.820188,2.8212616,2.8218,2.822328,2.8232787,2.825022,2.8275566,2.8315997,2.8381262,2.8476036,2.8602653,2.8765082,2.8962522,2.9214644,2.9512286,2.983256,3.0144343,3.0418544,3.0639086,3.0813591,3.0954156,3.1060295,3.1136765,3.1191626,3.123559,3.1278028,3.1318955,3.1363332,3.1402779,3.1430926,3.1451316,3.1467845,3.1479049,3.1486735,3.1492643,3.14987,3.1506097,3.1515822,3.1528976,3.1545238,3.156163,3.1579924,3.1601143,3.1624718,3.164946,3.1674414,3.1698656,3.1720755,3.1740923,3.17597,3.1777,3.1792498,3.1805835,3.1816702,3.182475,3.1830764,3.1835694,3.1840596,3.184537,3.185081,3.185779,3.1866207,3.1875625,3.188526,3.1895049,3.1903844,3.191112,3.1917043,3.1922145,3.1926885,3.1932082,3.193791,3.1944263,3.1951427,3.195952,3.1968489,3.1978192,3.198794,3.1998549,3.200974,3.202219,3.2036955,3.205445,3.2074118,3.2094984,3.2118487,3.214353,3.2169466,3.2196028,3.2222486,3.2247915,3.2272203,3.2296696,3.232151,3.234636,3.237051,3.2393198,3.2413964,3.243239,3.244938,3.2466335,3.2483187,3.2499099,3.2513828,3.2527728,3.2540402,3.2551517,3.256197,3.2571182,3.2578611,3.2583323,3.2584739,3.2583227,3.2579584,3.2573714,3.256578,3.25564,3.2546413,3.2536254,3.2525568,3.2514029,3.250027,3.2483845,3.246612,3.2448332,3.243143,3.2415323,3.2398353,3.238062,3.2362657,3.2345176,3.232892,3.231331,3.2298222,3.2285624,3.2274923,3.2264948,3.225615,3.2247252,3.2237067,3.2225566,3.221316,3.2199488,3.2186856,3.2178302,3.217517,3.2177887,3.2185323,3.219511,3.220602,3.2216659,3.222328,3.2226431,3.2228208,3.2230783,3.223546,3.2241864,3.22499,3.2258654,3.2267866,3.227847,3.229046,3.2302666,3.231454,3.2325084,3.2334628,3.2342753,3.23487,3.2351747,3.2351704,3.2349153,3.2345011,3.2339103,3.233212,3.2325249,3.2319903,3.2317133,3.23167,3.2317696,3.232014,3.2324328,3.233072,3.233902,3.2348704,3.2359133,3.2369146,3.237904,3.2389174,3.2398562,3.240675,3.241347,3.2418778,3.2423556,3.2428646,3.243463,3.2441578,3.2449088,3.2456698,3.246389,3.247014,3.2475853,3.2482028,3.2488852,3.2496085,3.2503057,3.2508607,3.251171,3.2512195,3.2510233,3.2505171
3.007765,3.0115798,3.013585,3.0148206,3.0170412,3.0201602,3.0242133,3.0286927,3.0333512,3.0393503,3.0460575,3.05201,3.056853,3.0612156,3.0646143,3.066951,3.0675073,3.0674524,3.0681388,3.0695858,3.0708852,3.0716624,3.0719376,3.0716038,3.0709682,3.0709329,3.071717,3.0728738,3.074244,3.0748396,3.0751076,3.0750265,3.0753846,3.0762618,3.077186,3.0779889,3.0775523,3.0766878,3.0752745,3.0737631,3.0721157,3.0699039,3.0671334,3.064279,3.0611334,3.0575118,3.0533369,3.0486906,3.0437913,3.0389185,3.0344255,3.030666,3.0279083,3.026247,3.0260272,3.0269337,3.0282342,3.029932,3.031989,3.034751,3.0380316,3.0411444,3.0435328,3.045135,3.046154,3.0468407,3.0470445,3.0455794,3.0406709,3.0337331,3.0272675,3.0212076,3.014077,3.0154295,3.0107746,2.9961205,2.975759,2.951151,2.921243,2.8936698,2.8692656,2.8487153,2.8340533,2.824337,2.8181682,2.8148656,2.8130543,2.8124092,2.8125513,2.8129249,2.81384,2.815349,2.816833,2.817841,2.818516,2.818922,2.8193955,2.8199353,2.8204637,2.8211339,2.8219647,2.8221416,2.8226442,2.8234022,2.824294,2.824953,2.8252892,2.825691,2.8264642,2.8277063,2.8298128,2.8328726,2.837438,2.8440585,2.8531513,2.8651953,2.880613,2.9016988,2.9282126,2.9590201,2.9913535,3.0217342,3.0478294,3.0691342,3.087017,3.1015768,3.1127164,3.1207578,3.126677,3.1315567,3.1358616,3.140378,3.144604,3.1480353,3.150652,3.1526146,3.153975,3.1548953,3.1555376,3.1561365,3.1568317,3.1577268,3.1589546,3.1605191,3.1621351,3.16397,3.1661305,3.1685448,3.1710703,3.1735978,3.1760387,3.1782613,3.1803021,3.182229,3.1840541,3.1857426,3.187243,3.1885114,3.1895037,3.1902704,3.190912,3.191511,3.1920612,3.1926312,3.193294,3.194064,3.1949558,3.1958528,3.1966891,3.1973262,3.1977265,3.1979527,3.198109,3.1982827,3.1985645,3.199001,3.199582,3.2003675,3.2013671,3.2024975,3.2036653,3.2048268,3.206005,3.2071443,3.20835,3.209764,3.211441,3.2133417,3.2153778,3.2177012,3.2201805,3.2227697,3.2254815,3.2282481,3.230942,3.2335272,3.2361307,3.238742,3.241297,3.2437472,3.2460408,3.2481174,3.249937,3.251599,3.2532508,3.2549057,3.2565465,3.2581205,3.2595756,3.2608764,3.262029,3.2631125,3.2640755,3.264853,3.2653408,3.2654934,3.2653666,3.2650092,3.264495,3.2638574,3.2631538,3.2624335,3.261684,3.2608285,3.259836,3.2585604,3.2569156,3.255025,3.2530406,3.251079,3.2491875,3.2473497,3.2455585,3.2438874,3.2424107,3.2410078,3.2396069,3.2382715,3.2370555,3.235959,3.234853,3.2337828,3.2325768,3.231069,3.2292747,3.2273684,3.225523,3.2238605,3.2226636,3.2220166,3.2221103,3.222937,3.2241268,3.2254317,3.22666,3.227417,3.2278929,3.2282693,3.2287004,3.229341,3.2301502,3.2311387,3.2322454,3.233399,3.2346911,3.2361424,3.2376385,3.2391057,3.240477,3.2417536,3.2427368,3.2433534,3.24364,3.2436314,3.2433515,3.2429085,3.2422729,3.2415242,3.2407887,3.2402174,3.239923,3.2398782,3.2399795,3.2402177,3.2406173,3.2412176,3.2419887,3.2428868,3.2438602,3.2448142,3.24579,3.2468262,3.2478316,3.2487383,3.2494874,3.2500696,3.2505941,3.2511597,3.2518203,3.2525482,3.253316,3.2540865,3.2547998,3.2554066,3.255944,3.2565055,3.2571175,3.2577739,3.258419,3.2589417,3.2592397,3.2592905,3.2591023,3.2586093
3.0009656,3.00066,3.0010548,3.0021896,3.0040548,3.0070567,3.0120444,3.019418,3.0271804,3.03505,3.042204,3.048801,3.0551443,3.0608015,3.0658286,3.0707972,3.0752478,3.079155,3.0827765,3.0861802,3.089122,3.0913694,3.0927746,3.093152,3.092215,3.0907893,3.08925,3.0872798,3.085022,3.0816665,3.0776694,3.0734062,3.069539,3.066132,3.063086,3.060701,3.058357,3.056109,3.053645,3.0511842,3.0489097,3.0468817,3.0451424,3.0434551,3.0417554,3.039967,3.0375729,3.0349083,3.0323844,3.029862,3.0275013,3.025713,3.0252783,3.0259066,3.0272906,3.0291958,3.0313215,3.0334573,3.035782,3.0388832,3.0426602,3.0461798,3.0488782,3.0509148,3.052521,3.0539389,3.0555196,3.0567641,3.0567207,3.055369,3.0522857,3.0465207,3.039629,3.0332599,3.024907,3.0140185,3.003233,2.991168,2.9730134,2.950551,2.9233184,2.8989367,2.8762045,2.8565893,2.8424551,2.8331277,2.8264017,2.821845,2.8189878,2.8185043,2.8199818,2.8223724,2.82484,2.827066,2.829123,2.8303218,2.8311458,2.8317628,2.8322945,2.8329024,2.8336372,2.8344193,2.8353732,2.8359518,2.8360486,2.835879,2.835744,2.8359046,2.8365622,2.8377237,2.8393664,2.8417895,2.845329,2.8500223,2.8559756,2.8638005,2.8745744,2.8907485,2.9128013,2.9407346,2.9725044,3.00457,3.034065,3.0599031,3.0822577,3.1010976,3.1157992,3.1266463,3.134781,3.1411095,3.1461103,3.150851,3.1553292,3.1595495,3.1629221,3.165185,3.1667948,3.1678534,3.1685324,3.16909,3.1696677,3.170397,3.1714573,3.1728914,3.1744332,3.1762366,3.1783814,3.1807864,3.1832988,3.1858048,3.1882212,3.1904292,3.1924753,3.1944385,3.1963444,3.198163,3.1998343,3.201301,3.202502,3.2034636,3.2042847,3.2050364,3.2057042,3.2062953,3.2068264,3.2073796,3.2081704,3.2090683,3.2098556,3.2103283,3.2104406,3.2102962,3.2100582,3.2098498,3.2097669,3.2098408,3.2100925,3.2107189,3.2117743,3.2130947,3.2145104,3.2158551,3.2171094,3.2182333,3.2193608,3.2206397,3.2221284,3.2238152,3.2256432,3.2277527,3.230101,3.2327075,3.2355247,3.2383838,3.2411299,3.2437527,3.2464004,3.2491457,3.251807,3.2543025,3.2565875,3.258596,3.2603211,3.2618635,3.26338,3.2649312,3.2665238,3.2681208,3.2696664,3.2710767,3.2722607,3.2733736,3.27437,3.2751732,3.2756622,3.2758117,3.275702,3.2753007,3.2748134,3.2743645,3.274053,3.2738194,3.2735314,3.2730951,3.2724624,3.2715049,3.2701035,3.2683406,3.266354,3.2642531,3.2621765,3.2603474,3.258664,3.2572405,3.2559981,3.2547755,3.2535403,3.252327,3.2510958,3.2499013,3.248619,3.2472894,3.2456846,3.2435765,3.2410135,3.2382894,3.2356217,3.233424,3.2316625,3.2306824,3.230877,3.2320452,3.2335086,3.2349892,3.2363179,3.2373035,3.2380195,3.238593,3.2392023,3.2399998,3.2409337,3.2420297,3.2432408,3.2445147,3.2459426,3.2475407,3.2492192,3.2509413,3.2526398,3.2543187,3.255553,3.2562933,3.256661,3.256711,3.2564797,3.256065,3.2554407,3.254702,3.2539806,3.25344,3.253198,3.253213,3.253358,3.2536056,3.2539713,3.2544923,3.2551522,3.2559247,3.2567768,3.257638,3.2585654,3.2595954,3.2606554,3.2616353,3.2624164,3.2629976,3.2635567,3.264196,3.2649693,3.2657633,3.2665699,3.267375,3.2681074,3.2687182,3.2692447,3.269779,3.2703393,3.270922,3.2714784,3.2719083,3.2721252,3.2721214,3.2718904,3.2713594
2.9907038,2.98927,2.9887285,2.9910946,2.9963713,3.0027394,3.0097551,3.0171857,3.0251365,3.0332162,3.0411167,3.0489683,3.056956,3.0647078,3.071382,3.0780485,3.0845294,3.0890799,3.0918825,3.0939794,3.0954494,3.0960517,3.0952308,3.0935302,3.090795,3.087511,3.0839524,3.0797546,3.074735,3.0693665,3.0635393,3.0573668,3.0524302,3.0489166,3.0459714,3.0436893,3.0415163,3.0395827,3.037578,3.035709,3.0341463,3.0329666,3.032217,3.0315976,3.0311441,3.0307446,3.0302684,3.0297036,3.0290842,3.0285323,3.0283968,3.0286803,3.0295572,3.031012,3.032917,3.0350916,3.0372984,3.0392911,3.041143,3.0434961,3.0462997,3.0489988,3.0511274,3.0527172,3.054087,3.0555034,3.0579872,3.060266,3.0620794,3.0637274,3.0653453,3.0665996,3.066846,3.0619206,3.0537972,3.0432513,3.0323513,3.0214205,3.0084143,2.9931197,2.9747834,2.9507308,2.9252343,2.9003325,2.8774323,2.858817,2.8452582,2.8362403,2.829743,2.8264556,2.8259282,2.8277068,2.8312683,2.8351593,2.8377995,2.8400006,2.841591,2.8423178,2.8425984,2.842929,2.843206,2.8433356,2.8435159,2.8439488,2.8434668,2.8423877,2.8416839,2.8415437,2.8421018,2.8432941,2.8450968,2.8476458,2.8510416,2.8549953,2.8593404,2.8646562,2.871592,2.8830378,2.8999946,2.9234252,2.9521983,2.983457,3.0146518,3.04402,3.0723143,3.0962818,3.1154609,3.1305327,3.1420288,3.15057,3.1569462,3.16254,3.1675305,3.1721168,3.1761346,3.1792068,3.181233,3.1825202,3.1833806,3.1840749,3.1845932,3.185124,3.1860063,3.1873512,3.1888814,3.190742,3.1928358,3.1951375,3.1975455,3.1999636,3.202313,3.2044823,3.206524,3.2085228,3.2105165,3.2124755,3.2143364,3.216033,3.217485,3.218696,3.21977,3.22077,3.2215953,3.2222102,3.2227545,3.2234395,3.224341,3.2255692,3.226564,3.2268791,3.2263725,3.2253072,3.224142,3.2231784,3.222561,3.2219515,3.2218657,3.2225714,3.2239654,3.2257233,3.2274673,3.2289872,3.2302122,3.2310991,3.2318513,3.232711,3.2338257,3.2352405,3.236857,3.2388153,3.2410707,3.2436266,3.2464123,3.249222,3.251865,3.2543302,3.2567618,3.2592425,3.261717,3.2640305,3.2660317,3.2676806,3.2690332,3.2702332,3.2714887,3.272902,3.2744694,3.2760956,3.2776632,3.2790742,3.2803242,3.2814631,3.282436,3.2831945,3.2836514,3.28378,3.2836866,3.283512,3.2833667,3.2833729,3.2836227,3.28408,3.284603,3.2849493,3.2848115,3.2842507,3.2832477,3.2818828,3.2801125,3.2780213,3.2759457,3.274174,3.272548,3.271192,3.2701302,3.2692018,3.2682505,3.2671833,3.265937,3.2646217,3.2631216,3.2614784,3.2593997,3.2566085,3.2531962,3.2495728,3.2460394,3.242875,3.2403345,3.23913,3.2395651,3.2411137,3.2429497,3.244732,3.2463315,3.2475266,3.2484035,3.2491112,3.2498338,3.2507224,3.2517307,3.2528806,3.2541356,3.2554598,3.2569404,3.2585988,3.2603664,3.2622108,3.264028,3.2658095,3.267321,3.268389,3.269004,3.2692094,3.2690306,3.2686162,3.267966,3.267201,3.266518,3.2661057,3.2660584,3.2662873,3.2665823,3.2668583,3.2671714,3.267509,3.2678995,3.268394,3.268999,3.2696838,3.2705255,3.271552,3.2726798,3.2737784,3.2747216,3.2754707,3.2761343,3.2768247,3.2776124,3.2784936,3.279425,3.2803168,3.2810793,3.2816818,3.2821767,3.2826686,3.2831678,3.283661,3.2840948,3.2843835,3.2844758,3.2843924,3.2841187,3.2835777
2.983753,2.983969,2.986407,2.9916332,2.9990375,3.0072002,3.0155525,3.0239007,3.0327806,3.0416694,3.0496016,3.0568767,3.0638385,3.0698586,3.0750728,3.0798326,3.0840082,3.0869284,3.0886211,3.089346,3.089125,3.0881653,3.0860858,3.0832195,3.07942,3.075056,3.070295,3.065032,3.059588,3.0540519,3.0481863,3.0421004,3.0374107,3.034314,3.0318675,3.0300555,3.0284147,3.0271232,3.0259023,3.024884,3.024239,3.0240893,3.024467,3.025031,3.0258837,3.0269318,3.0280447,3.0292535,3.0305505,3.0318499,3.0332499,3.0349715,3.0370622,3.0393662,3.04178,3.0441976,3.0464196,3.048278,3.050096,3.0521946,3.054533,3.0567484,3.0585575,3.0599751,3.0611644,3.0623417,3.0642877,3.0666137,3.0692306,3.0723677,3.0762627,3.0806646,3.0846393,3.086165,3.0840034,3.0770879,3.0663128,3.053728,3.040879,3.0283153,3.0142622,2.9958115,2.975727,2.9511569,2.9236228,2.8997245,2.8800688,2.863616,2.8500724,2.8419957,2.8381686,2.837263,2.8390822,2.8425126,2.8461752,2.84934,2.8511658,2.8522224,2.852706,2.8526974,2.8527834,2.8526313,2.852333,2.8521962,2.850755,2.8485804,2.8470144,2.8462377,2.8464234,2.847487,2.849493,2.8524466,2.8561425,2.8600519,2.863585,2.8666563,2.870493,2.8770823,2.8883018,2.906043,2.9301057,2.9586816,2.9899335,3.0218253,3.0548468,3.0863233,3.112255,3.1322906,3.1480522,3.1597447,3.168192,3.1751387,3.1809893,3.1862235,3.1908693,3.1946254,3.1973379,3.1990867,3.2002268,3.2009997,3.201469,3.2018967,3.2026732,3.203951,3.205476,3.207374,3.2096357,3.2120833,3.2145119,3.2168727,3.2191732,3.2213037,3.2233133,3.2253053,3.2273216,3.2293406,3.2313087,3.2331645,3.2348146,3.2362337,3.2375245,3.2388184,3.2397037,3.2401664,3.2407005,3.241717,3.2431564,3.244886,3.2461467,3.2461152,3.244832,3.2428398,3.2406883,3.238867,3.2370825,3.2356114,3.2350454,3.2356715,3.2373042,3.2394087,3.2414017,3.2430363,3.244203,3.2448578,3.2452688,3.2457557,3.2465355,3.2477102,3.2491755,3.2510505,3.2532802,3.2558303,3.2585921,3.2613206,3.2638009,3.2660336,3.268152,3.2702518,3.2723227,3.2742195,3.2757854,3.2769833,3.277876,3.2786243,3.279458,3.2805405,3.281898,3.2834148,3.2849278,3.2863102,3.287541,3.2886572,3.2896187,3.2903824,3.2908854,3.291132,3.2912393,3.291378,3.2916808,3.2922723,3.2932298,3.294494,3.295865,3.2969646,3.2972875,3.297224,3.2966888,3.2957087,3.2943344,3.2926328,3.290754,3.2889538,3.287369,3.2861595,3.2853718,3.2847548,3.2840314,3.2830422,3.281723,3.2802668,3.2785213,3.2765522,3.2740912,3.2706764,3.266329,3.2617178,3.2571783,3.2526603,3.249506,3.248319,3.2491565,3.2513409,3.2537796,3.2560368,3.2580066,3.2594259,3.26041,3.2611327,3.2617948,3.2625823,3.2634895,3.2645526,3.2657113,3.2669587,3.2683864,3.270018,3.2718072,3.2737327,3.2756505,3.2775648,3.2792559,3.2805052,3.2812736,3.2816045,3.281515,3.2811527,3.2805297,3.2797909,3.2791724,3.2788744,3.2789807,3.279377,3.2797937,3.2801466,3.2804232,3.2806501,3.2809057,3.281269,3.2817721,3.282411,3.283279,3.284402,3.2857125,3.2870452,3.288212,3.2891314,3.2898932,3.2906241,3.2914295,3.2923398,3.2933173,3.2942557,3.2950568,3.2956915,3.296215,3.296734,3.2972445,3.2977166,3.2980862,3.298286,3.298305,3.2981846,3.2978988,3.2973523
2.9767199,2.9781384,2.9818974,2.9879186,2.9954116,3.0033796,3.0113149,3.0192246,3.0267487,3.0339913,3.0406446,3.0464778,3.0516052,3.0562346,3.060311,3.0638433,3.066759,3.0689182,3.0702996,3.0707583,3.0702186,3.069103,3.0671568,3.064608,3.0613165,3.0575876,3.0535188,3.0490923,3.044809,3.0405414,3.036056,3.0314593,3.0282025,3.0264475,3.0252836,3.0246034,3.0240178,3.0237865,3.0236447,3.023643,3.0239408,3.0247006,3.0259533,3.0273514,3.0290534,3.0309935,3.0330074,3.035128,3.037335,3.0394166,3.041286,3.043447,3.0459085,3.0485663,3.0513973,3.0542765,3.0569713,3.059336,3.061191,3.0631533,3.0653558,3.0675335,3.069428,3.0709753,3.0721822,3.0732553,3.0747027,3.07659,3.07892,3.0819528,3.0859294,3.0906,3.0953183,3.0997348,3.1022773,3.101219,3.0957394,3.0860214,3.073363,3.0601678,3.046206,3.0327787,3.017302,2.9971406,2.9740071,2.9511194,2.9283235,2.9070387,2.887114,2.870129,2.858017,2.8515491,2.8496253,2.850347,2.852672,2.8557394,2.8584073,2.8602207,2.8614337,2.8621976,2.8623462,2.8621945,2.861784,2.8612874,2.8592372,2.8561797,2.8535466,2.8517456,2.8510814,2.8514824,2.8531919,2.8561769,2.8600762,2.8641558,2.8675146,2.869681,2.8716578,2.8750763,2.88169,2.8940325,2.9127135,2.9367723,2.965289,2.9963117,3.0308156,3.0668063,3.0998425,3.1268513,3.1477768,3.1639404,3.176111,3.185955,3.1939692,3.20076,3.2065027,3.2110763,3.2144854,3.2167914,3.2182302,3.2191648,3.2196717,3.2201018,3.2209158,3.222273,3.2239265,3.2259784,3.2285182,3.2310987,3.2335653,3.235958,3.2382593,3.2403755,3.2423396,3.244273,3.2462234,3.2481852,3.2501364,3.2520378,3.2537909,3.2553499,3.2568314,3.2582264,3.2589998,3.259399,3.2601864,3.2617054,3.2637513,3.2657607,3.2672267,3.266893,3.2647943,3.2617624,3.2584233,3.2551808,3.252119,3.2496517,3.248594,3.2491999,3.2510786,3.2534616,3.2555876,3.2572126,3.2582364,3.2586508,3.2587967,3.2590468,3.2596526,3.2607408,3.262187,3.2640648,3.2662868,3.268742,3.2712674,3.2736192,3.275615,3.277289,3.2787666,3.280147,3.2814505,3.2825856,3.2834518,3.2840364,3.284401,3.28471,3.285201,3.286087,3.287422,3.2890556,3.290756,3.2923393,3.2937303,3.2949772,3.2960489,3.2969036,3.297512,3.2979202,3.2982497,3.2986622,3.299327,3.3003564,3.3018126,3.303609,3.3055406,3.3072784,3.3083901,3.3086822,3.3085308,3.3079767,3.307112,3.3058553,3.3041978,3.3026743,3.3013902,3.3005748,3.3002553,3.300105,3.2997544,3.2989936,3.2977777,3.2963784,3.2943406,3.292228,3.2897837,3.2861094,3.280971,3.2751932,3.2690346,3.2632601,3.2594903,3.2583122,3.259694,3.2627401,3.2659984,3.2688737,3.2712767,3.2728872,3.2738705,3.2744646,3.2749,3.2753897,3.275988,3.276748,3.2775867,3.2785764,3.2798467,3.2814264,3.2832727,3.2853646,3.287496,3.289696,3.291717,3.2933044,3.2943888,3.294989,3.295115,3.294906,3.2943904,3.2937484,3.2932258,3.2930355,3.293268,3.2937899,3.2943091,3.2947502,3.2950616,3.2952852,3.2955117,3.295819,3.296249,3.296833,3.2976863,3.2988398,3.30026,3.3017535,3.3030648,3.3040664,3.3048456,3.3055363,3.3062832,3.30715,3.3081217,3.3090973,3.30997,3.3107035,3.3113415,3.3119812,3.3125997,3.3131337,3.3134995,3.3136506,3.313622,3.3134682,3.3131628,3.312591
2.9709806,2.9723277,2.97516,2.9795747,2.9850826,2.990865,2.9963844,3.0017679,3.0066268,3.0111127,3.0155458,3.0197773,3.0239134,3.028235,3.031635,3.03475,3.0375533,3.0397983,3.0414834,3.0425177,3.0427737,3.0426135,3.041844,3.040761,3.0392594,3.0375457,3.035633,3.0334387,3.0313246,3.0292783,3.027117,3.0248752,3.023861,3.024191,3.024948,3.0259438,3.0268254,3.0279713,3.029104,3.03021,3.0314288,3.0329404,3.0347867,3.036643,3.038731,3.0410013,3.0433102,3.045626,3.0478983,3.0499601,3.051723,3.0537868,3.056116,3.058724,3.061565,3.064476,3.0672798,3.0698686,3.0719936,3.0743742,3.0768294,3.079258,3.0815516,3.0835252,3.0850692,3.0864062,3.0878696,3.0894303,3.0910363,3.0930037,3.095742,3.0992308,3.1030612,3.1069336,3.1105947,3.1129217,3.1126668,3.1085014,3.1001172,3.089483,3.0762978,3.0634022,3.04889,3.0331702,3.0164006,2.9973285,2.9766717,2.9564323,2.9340112,2.9111867,2.8913107,2.876595,2.8673491,2.8629968,2.8618417,2.8624277,2.864227,2.8662143,2.8680224,2.869506,2.8702376,2.8705034,2.8703938,2.8696263,2.8672233,2.863805,2.860528,2.857807,2.8561363,2.8555002,2.8564255,2.8589978,2.8629332,2.8673625,2.8710818,2.8734052,2.8750598,2.8770375,2.880364,2.8875637,2.9000664,2.9179735,2.941144,2.968123,3.0008733,3.037783,3.0758743,3.1110864,3.1400342,3.162013,3.1791847,3.1933675,3.2048864,3.2142673,3.221846,3.2277508,3.232138,3.235101,3.2369428,3.2381783,3.2389698,3.2395768,3.2404356,3.2418382,3.243604,3.2458246,3.2483935,3.2509692,3.2534819,3.255935,3.2582502,3.2603474,3.262234,3.2640543,3.2658682,3.2676935,3.2695541,3.2714434,3.2732525,3.2749214,3.276586,3.2779365,3.278688,3.279208,3.2802792,3.2822347,3.2845216,3.2867002,3.2882204,3.287446,3.2843733,3.27992,3.2747588,3.2695713,3.265029,3.261623,3.260387,3.261366,3.2638078,3.2666678,3.2690153,3.2706494,3.2715425,3.2717552,3.2717214,3.2718596,3.2724242,3.2735357,3.2750416,3.2769475,3.2791188,3.281345,3.283403,3.285079,3.2862659,3.2870529,3.2875535,3.2878704,3.2880826,3.2881908,3.2881951,3.288134,3.288055,3.2880983,3.2884946,3.2894683,3.291069,3.293094,3.2952251,3.2972126,3.2989244,3.3004186,3.3016703,3.3026452,3.3033595,3.303909,3.304419,3.3050256,3.3059206,3.3071895,3.3088694,3.3108573,3.3129668,3.3149726,3.316626,3.317447,3.317634,3.3173304,3.3166537,3.315582,3.3142567,3.3132312,3.3124642,3.31226,3.312625,3.3131793,3.313472,3.313232,3.312374,3.3109267,3.3089707,3.307137,3.3049393,3.3011293,3.2952292,3.288075,3.2801895,3.27314,3.2686286,3.267416,3.2694776,3.2736115,3.277924,3.2815948,3.2845168,3.2862916,3.287147,3.2874255,3.2874308,3.287437,3.287567,3.2879038,3.2883549,3.2890918,3.290279,3.2919092,3.2939086,3.296248,3.2986627,3.301212,3.3036332,3.305626,3.3070588,3.307922,3.3082314,3.3081417,3.3077106,3.3071709,3.3067665,3.306717,3.3071146,3.3077993,3.308466,3.3090568,3.3095026,3.3098326,3.3101296,3.3104515,3.310837,3.3113613,3.312159,3.3132763,3.3147254,3.3163033,3.3177078,3.3187737,3.3195705,3.3202305,3.3209314,3.321772,3.322755,3.3237858,3.3247554,3.3256168,3.3263993,3.3271856,3.3279362,3.3285494,3.328921,3.329032,3.328961,3.3287797,3.328473,3.3279097
2.9674215,2.9682899,2.9699445,2.9724658,2.9754987,2.9785128,2.981286,2.9839025,2.9866903,2.9893365,2.991942,2.9949594,2.9987216,3.0027676,3.0057254,3.0084846,3.0111668,3.0135698,3.0156937,3.0174394,3.0186338,3.0195436,3.02007,3.0205379,3.0208495,3.021121,3.0212855,3.0212195,3.0211937,3.021228,3.0212212,3.021134,3.0221412,3.0243263,3.0267892,3.0292857,3.031468,3.033812,3.036028,3.0380607,3.0400362,3.042139,3.044414,3.046565,3.0488672,3.0512733,3.053659,3.055954,3.0581002,3.0600052,3.0616298,3.0635731,3.06578,3.0682576,3.0708523,3.0734053,3.0758514,3.0781598,3.0805917,3.0835571,3.0866027,3.0895696,3.0924642,3.09514,3.0973692,3.0993621,3.101263,3.1029687,3.104153,3.1050649,3.1062536,3.1079135,3.1100311,3.1125073,3.115079,3.1171622,3.1182406,3.1176925,3.1149647,3.110125,3.1015563,3.08992,3.076362,3.062583,3.0480442,3.0318592,3.0162115,2.9997892,2.979471,2.9576077,2.9351416,2.9135463,2.8958323,2.8840842,2.8765483,2.872205,2.870475,2.8708026,2.872127,2.8736386,2.8751612,2.8759632,2.876451,2.8758159,2.8736663,2.870638,2.8674002,2.8641973,2.86167,2.8598819,2.8596501,2.8612661,2.864704,2.8691444,2.8732023,2.8760478,2.878446,2.8804774,2.882565,2.886167,2.8931026,2.9048066,2.9216857,2.9429898,2.9713216,3.0058727,3.0447943,3.085163,3.1221945,3.1516218,3.174964,3.1945543,3.2110348,3.224544,3.2352273,3.2433627,3.2492747,3.2531064,3.2556124,3.2572548,3.25838,3.2592115,3.2601385,3.26155,3.263309,3.2655058,3.2678914,3.2704062,3.2729542,3.275417,3.2777033,3.279734,3.281495,3.2831523,3.2847915,3.286464,3.288243,3.2901525,3.2920656,3.2938972,3.2957668,3.2973738,3.2983913,3.2991588,3.300459,3.3025746,3.3048215,3.3071573,3.3081222,3.3064475,3.3022356,3.296052,3.2886689,3.2816858,3.2755337,3.2714996,3.2705271,3.2722564,3.275519,3.278981,3.28158,3.2831988,3.2839324,3.2839344,3.2837443,3.2838168,3.2843723,3.285492,3.2869997,3.2888107,3.2907386,3.292481,3.2937737,3.2944684,3.2945733,3.2942486,3.2935927,3.2927165,3.291773,3.2908714,3.2901258,3.2896354,3.2894073,3.289525,3.2901983,3.2915945,3.2937133,3.296292,3.2989473,3.3013873,3.3034484,3.3052025,3.3066359,3.3077166,3.3084977,3.3091216,3.3097124,3.3103654,3.3112814,3.3125226,3.314103,3.315916,3.3177886,3.3195395,3.3210187,3.3221416,3.322565,3.322442,3.3219197,3.3211493,3.3204207,3.320023,3.3199415,3.3205252,3.3217766,3.3232753,3.3245037,3.3250914,3.3248434,3.3236883,3.3224638,3.3213828,3.3195548,3.315506,3.308693,3.300089,3.2906852,3.2822413,3.276916,3.27567,3.2784517,3.2837527,3.2892203,3.2938023,3.2973452,3.2993593,3.3000817,3.2999697,3.2994251,3.2987905,3.2983017,3.2981062,3.298123,3.2986302,3.2998219,3.3016126,3.303843,3.3064675,3.3091936,3.3121145,3.3149753,3.3174398,3.3193011,3.3204951,3.3210459,3.3211217,3.3208227,3.320424,3.320157,3.320247,3.3207932,3.3216197,3.3224354,3.323216,3.3238616,3.3243828,3.3248243,3.3251977,3.3255262,3.3259366,3.3265772,3.327526,3.3288565,3.3303769,3.3317685,3.3328407,3.3336318,3.3342607,3.3349204,3.3357375,3.3367367,3.337835,3.3389027,3.3398538,3.3407254,3.3415954,3.3424168,3.3430707,3.343448,3.3435454,3.343464,3.343276,3.3429835,3.3424613
2.9649453,2.965404,2.9662929,2.9677973,2.9694204,2.9707756,2.972235,2.9737234,2.9753323,2.977013,2.9788792,2.9812064,2.9842353,2.9877427,2.9908843,2.9937372,2.9966602,2.999453,3.0020933,3.0044594,3.0063381,3.0079741,3.0092998,3.0106819,3.0119905,3.0133066,3.0145502,3.0155902,3.016653,3.0177488,3.0188367,3.0198421,3.0218463,3.0249305,3.0282416,3.0315027,3.0343575,3.037323,3.0401115,3.042656,3.0450811,3.0475693,3.0501547,3.0525541,3.0550716,3.0576491,3.060168,3.0625155,3.064624,3.0664558,3.068003,3.069882,3.0720274,3.074438,3.07697,3.079468,3.0818753,3.0841794,3.0865655,3.0895002,3.0930936,3.0968094,3.1004171,3.1039307,3.107038,3.1099048,3.1125784,3.114884,3.1162179,3.116722,3.116828,3.1166582,3.116819,3.1174324,3.1183963,3.1195464,3.1206014,3.1211455,3.1207542,3.1192105,3.1164365,3.1113653,3.1018033,3.0891237,3.0750844,3.0606096,3.0475955,3.032714,3.0164773,2.9978676,2.9766319,2.95405,2.9320905,2.9124458,2.896453,2.8859334,2.8793125,2.8759966,2.8753853,2.8764524,2.8780406,2.8789506,2.88,2.8802276,2.8793023,2.877345,2.874572,2.871297,2.8681417,2.8652525,2.8635945,2.8636236,2.865646,2.8691359,2.8729243,2.876351,2.8797278,2.8831115,2.8864684,2.8896332,2.8937936,2.901009,2.9122286,2.927424,2.9493523,2.9781563,3.013566,3.0533042,3.093628,3.1308155,3.1615758,3.1877165,3.2107491,3.230201,3.245556,3.256896,3.2647452,3.2697406,3.2730947,3.2752068,3.2764792,3.2773938,3.2784529,3.2799215,3.2815847,3.2835255,3.2857716,3.2881985,3.290667,3.29304,3.2952132,3.2971113,3.298697,3.3001575,3.3016157,3.3031607,3.304914,3.3069224,3.309033,3.3111234,3.3132558,3.315533,3.3170328,3.3181372,3.3197284,3.3217878,3.3240218,3.3260865,3.3257513,3.322803,3.3174205,3.3095732,3.3002403,3.291976,3.284608,3.2804236,3.2800698,3.2827127,3.2867918,3.2907307,3.2934234,3.294869,3.2953148,3.2950356,3.2946615,3.2946513,3.2951577,3.2961876,3.2975416,3.29903,3.3004227,3.301353,3.3015504,3.3009763,3.2998009,3.2982624,3.2964492,3.2944784,3.2925658,3.2909012,3.2896934,3.2890925,3.2890568,3.2895923,3.2908807,3.2929642,3.295741,3.2988966,3.302027,3.3048425,3.307188,3.3091593,3.310755,3.3119311,3.3127484,3.313369,3.3139024,3.3144045,3.3150747,3.3159695,3.317102,3.3183825,3.3196664,3.3208046,3.321673,3.3222446,3.3225718,3.3226948,3.3227253,3.3227544,3.3229015,3.3234026,3.324287,3.3259249,3.3282542,3.3308625,3.3332407,3.3349001,3.335526,3.3356185,3.335527,3.3353443,3.3339386,3.3296552,3.3219497,3.311975,3.3010406,3.2912943,3.2852235,3.2839317,3.287323,3.2936206,3.300095,3.3055127,3.309621,3.3119195,3.3126063,3.3122275,3.3112411,3.3099792,3.3087726,3.3079338,3.3074172,3.3076186,3.3087907,3.3107622,3.3132415,3.316157,3.3192103,3.3225393,3.325922,3.3290246,3.331553,3.3333445,3.3344018,3.3348718,3.3349037,3.3347707,3.33467,3.3348396,3.3354125,3.336237,3.3370962,3.3380058,3.3388524,3.3396015,3.3402128,3.3406138,3.3408103,3.3409743,3.3412795,3.341848,3.3428273,3.3440638,3.3452458,3.3461707,3.3468409,3.3473544,3.3478985,3.34863,3.3495784,3.3506813,3.3518038,3.352794,3.3537018,3.3546004,3.3554409,3.3561127,3.3565135,3.3566408,3.3565865,3.3564029,3.3561075,3.3555756
2.9646277,2.9643412,2.964201,2.9644828,2.9651284,2.9659228,2.9668818,2.9679322,2.969181,2.9704099,2.9715073,2.9729834,2.975384,2.9783857,2.9809642,2.9837618,2.9867976,2.9899044,2.9929981,2.995798,2.9980545,3.000121,3.0019407,3.0039005,3.0058544,3.007855,3.0098076,3.0115747,3.0133564,3.0151281,3.0169172,3.0185964,3.0211837,3.0247717,3.028552,3.03224,3.035472,3.0387921,3.041918,3.0447955,3.0475492,3.0503407,3.0531847,3.0557995,3.058521,3.0612874,3.0639756,3.0664372,3.0685885,3.0704288,3.0719914,3.0738926,3.0760722,3.0785112,3.0810604,3.08357,3.0859928,3.0883284,3.0907516,3.0938025,3.0974488,3.1014717,3.1056747,3.1098483,3.1137087,3.1173766,3.1209126,3.1240258,3.1259513,3.1267195,3.1267385,3.1261911,3.1258128,3.1255798,3.125432,3.1255696,3.1261225,3.126936,3.1275847,3.127584,3.1267085,3.1244535,3.1198335,3.1113427,3.09953,3.0862856,3.0719519,3.0563812,3.0413122,3.024741,3.0071998,2.9886544,2.9671535,2.9430876,2.9241319,2.9070919,2.8937156,2.8857782,2.882236,2.881028,2.881362,2.882007,2.8832016,2.883892,2.8839958,2.8832314,2.881307,2.8784382,2.875064,2.8714347,2.8685238,2.8669007,2.8671997,2.8693223,2.8725133,2.8763494,2.8806467,2.885269,2.889842,2.8939042,2.8974242,2.901432,2.9076176,2.917057,2.9324331,2.9547012,2.9851136,3.0224228,3.063265,3.104227,3.142435,3.176413,3.2067368,3.2327127,3.2535362,3.2686763,3.278615,3.285077,3.289054,3.291697,3.293312,3.2942786,3.29518,3.2964087,3.2978034,3.29945,3.3013594,3.3034449,3.3056092,3.307725,3.3096685,3.3113508,3.3127174,3.3139665,3.3152661,3.316736,3.3185346,3.3207178,3.3230882,3.3254902,3.3279767,3.3305314,3.332631,3.3342345,3.33589,3.3379579,3.3400116,3.340729,3.3393722,3.335331,3.32867,3.3193479,3.3082812,3.2985086,3.2905743,3.2867243,3.287366,3.2912102,3.2962961,3.3008444,3.3037264,3.3050678,3.3052788,3.3047614,3.3042216,3.304103,3.3044815,3.3052945,3.306337,3.3073363,3.308037,3.3080535,3.3071206,3.3052957,3.302902,3.300243,3.2973971,3.2944894,3.2917895,3.2895527,3.2880597,3.287499,3.2877834,3.2888174,3.2907562,3.2934866,3.296793,3.300331,3.303721,3.3067021,3.3091652,3.311228,3.312911,3.3141513,3.3149948,3.315596,3.3160377,3.31633,3.3166788,3.317155,3.3177843,3.3185039,3.3191957,3.3197243,3.3199775,3.3199053,3.3196938,3.3195505,3.319688,3.320313,3.321536,3.3232632,3.3254583,3.3285246,3.332099,3.3358603,3.3394685,3.3423705,3.344136,3.3455634,3.3465486,3.3468478,3.3453918,3.3409739,3.3328686,3.3215313,3.3091645,3.2982638,3.291542,3.290179,3.2940214,3.3010669,3.3082852,3.31433,3.3186088,3.3209136,3.3215384,3.3210459,3.3199062,3.3183732,3.3165774,3.3152485,3.3143528,3.3143692,3.3155985,3.3177836,3.320493,3.3236225,3.3269043,3.3305082,3.3342774,3.3379078,3.3410344,3.343403,3.344983,3.3458915,3.3463185,3.346509,3.3466082,3.3468547,3.347405,3.3481488,3.3489764,3.3499491,3.3509607,3.3519185,3.3526926,3.3531318,3.3532043,3.353103,3.3530407,3.3531916,3.3537734,3.3546786,3.3556223,3.356396,3.3569598,3.3573904,3.3578582,3.358563,3.359394,3.3603182,3.361374,3.3624258,3.363428,3.3644197,3.3653274,3.3660307,3.366438,3.3665538,3.3664756,3.3662758,3.3659916,3.3653522
2.9641092,2.9638467,2.9636467,2.9637947,2.9643197,2.9650877,2.9661374,2.9673462,2.9687285,2.9700127,2.9710226,2.972033,2.9735491,2.9756584,2.9778078,2.980271,2.9829705,2.9857259,2.9885788,2.991465,2.9941516,2.9966452,2.9989023,3.001247,3.0035167,3.005837,3.0081728,3.0103755,3.0126047,3.0147972,3.0170221,3.0191236,3.0220606,3.0259287,3.0299659,3.033899,3.037365,3.0409403,3.0443394,3.0475178,3.0505862,3.0536785,3.056795,3.059647,3.062595,3.0655603,3.068422,3.0710058,3.0732145,3.0750802,3.0766635,3.0785825,3.0807705,3.083205,3.0857298,3.0882,3.0905747,3.0928488,3.0952249,3.098035,3.1014075,3.1053822,3.1097455,3.1141517,3.1183734,3.1224902,3.1266122,3.1304178,3.133056,3.1344514,3.1349554,3.1347575,3.1346107,3.1343737,3.1340103,3.133679,3.1336336,3.1339726,3.1344523,3.1345916,3.1341372,3.1327238,3.1297781,3.124785,3.1172056,3.1068592,3.0944352,3.0801148,3.0642009,3.04719,3.031248,3.0152814,2.9965038,2.9759603,2.9571595,2.9366727,2.9183192,2.9035032,2.893988,2.8894756,2.886655,2.885394,2.885494,2.886155,2.8872366,2.887981,2.8876214,2.8860536,2.883294,2.8797107,2.8760734,2.8729844,2.8712955,2.8713355,2.872932,2.876089,2.880284,2.8854065,2.8909316,2.8957438,2.899551,2.9031053,2.907215,2.9126391,2.9229183,2.9394875,2.964163,2.9964933,3.034192,3.0746691,3.1148798,3.1553962,3.192774,3.2255142,3.2529817,3.2739973,3.2882142,3.297945,3.3043237,3.3080652,3.309721,3.3104916,3.3113353,3.3123899,3.3133829,3.314514,3.315802,3.3172188,3.3187375,3.3202786,3.3217306,3.3230011,3.3240228,3.3249936,3.3261244,3.3275619,3.3294759,3.3319025,3.3345876,3.3373265,3.34017,3.3430302,3.3455102,3.3473701,3.3489833,3.3506815,3.3516738,3.351457,3.3489957,3.343717,3.3356812,3.325073,3.3128471,3.30158,3.293937,3.2909923,3.2929368,3.2980707,3.3040743,3.3090656,3.3119783,3.3130722,3.312911,3.3119981,3.311099,3.3106422,3.310639,3.3109803,3.3114662,3.3117504,3.3115869,3.3106296,3.3086696,3.305864,3.3026466,3.2993507,3.2960417,3.2928467,3.290079,3.2880154,3.286952,3.2870593,3.2881565,3.2900336,3.292791,3.2961142,3.2996788,3.3031855,3.3063712,3.309078,3.3113,3.3131742,3.3147604,3.3159807,3.31684,3.3174489,3.3178458,3.317996,3.3181133,3.318305,3.3186278,3.3190308,3.3193846,3.3195202,3.3192883,3.318599,3.3177128,3.3169484,3.3166447,3.3170927,3.3183966,3.3203845,3.3230026,3.3266735,3.331241,3.336277,3.341166,3.345331,3.3485658,3.351532,3.3535717,3.354684,3.3536787,3.349207,3.3406525,3.3286104,3.3150473,3.3031645,3.2958145,3.2942605,3.2983482,3.3059275,3.3137374,3.3203516,3.3251634,3.327711,3.328341,3.3276258,3.3258872,3.3234825,3.3211384,3.3194363,3.3184347,3.318591,3.3201647,3.3227208,3.3256202,3.3287573,3.3319817,3.3354726,3.339212,3.3429704,3.3463407,3.349002,3.3509092,3.3521457,3.3529334,3.3534663,3.353809,3.354151,3.3546453,3.355236,3.3559484,3.3569088,3.3580503,3.3592892,3.3603802,3.3610196,3.3611138,3.360897,3.360578,3.360394,3.360624,3.361228,3.3619673,3.3626359,3.3631544,3.3635921,3.36409,3.364849,3.3658743,3.367013,3.3681645,3.3693323,3.3704348,3.3715134,3.3724756,3.373209,3.373631,3.3737526,3.3736796,3.3734975,3.3732252,3.372752
2.96347,2.9634962,2.9636202,2.9641588,2.9650793,2.9662256,2.9677093,2.9693599,2.971175,2.9728928,2.974431,2.9758854,2.9775271,2.9795318,2.981629,2.983951,2.986333,2.9886274,2.990995,2.9935231,2.9960053,2.998258,3.0003223,3.0025668,3.0048342,3.0072098,3.0096486,3.012017,3.0144405,3.016808,3.0192063,3.0214655,3.0244966,3.0284023,3.032478,3.0364757,3.040035,3.0437355,3.0473032,3.0507069,3.05403,3.057373,3.0607262,3.063775,3.066908,3.0700235,3.0730112,3.0756812,3.0779257,3.0797982,3.0813925,3.083311,3.0854897,3.087902,3.0903993,3.0928416,3.0951838,3.0973814,3.09937,3.1018255,3.104951,3.108769,3.113019,3.1173625,3.1216214,3.1258547,3.1302435,3.1344645,3.1376743,3.1397476,3.1409795,3.1415396,3.1421118,3.1424823,3.1425886,3.142363,3.1420407,3.1418478,3.1416607,3.1411622,3.1400592,3.138163,3.135217,3.1312973,3.1260705,3.1189713,3.1101713,3.0995283,3.085659,3.0691366,3.0527046,3.0368602,3.0204487,3.0038958,2.986166,2.966845,2.9469488,2.927853,2.9125323,2.9026744,2.8966258,2.89256,2.890356,2.8899145,2.8909988,2.8925264,2.893457,2.8933015,2.8915482,2.8885598,2.8846726,2.8803802,2.876609,2.8740954,2.8733869,2.8751035,2.878611,2.8840184,2.8907409,2.897153,2.9024034,2.9067378,2.9104753,2.9142637,2.9199998,2.9297457,2.9465322,2.9710407,3.0022001,3.0386598,3.077571,3.1210117,3.1663954,3.2082746,3.2439826,3.272348,3.2925582,3.3067305,3.3165154,3.3223534,3.3253288,3.3266335,3.3271708,3.3276122,3.328247,3.3287983,3.3292365,3.329662,3.3301911,3.3308463,3.3315582,3.3322263,3.332769,3.333357,3.3342414,3.3355904,3.3375752,3.3402028,3.3431716,3.3462534,3.3495145,3.3526068,3.355095,3.356953,3.3585355,3.359846,3.3600159,3.3587966,3.3551216,3.3486779,3.3392768,3.3269353,3.3132546,3.3018117,3.2949343,3.293171,3.296493,3.3027897,3.309434,3.3145385,3.3172119,3.3178692,3.3172307,3.3158717,3.314563,3.3136773,3.3131456,3.3128104,3.3124993,3.3118248,3.3105805,3.308527,3.3055582,3.3019426,3.2982135,3.2947128,3.2914896,3.288677,3.2865796,3.2854156,3.2854106,3.2866697,3.2889218,3.291849,3.2955086,3.2993817,3.3030465,3.3062882,3.3090177,3.3112128,3.3130052,3.3145452,3.3159466,3.317118,3.3180015,3.3186374,3.3190024,3.3190107,3.3188882,3.3187945,3.3188324,3.318971,3.3190603,3.3188715,3.31818,3.3168712,3.3152351,3.3136888,3.3127089,3.3126597,3.3136406,3.315465,3.3180547,3.3218732,3.326922,3.3328183,3.338891,3.3445196,3.3494527,3.3541965,3.3579042,3.3601365,3.3597717,3.355517,3.3468208,3.3345008,3.320257,3.307833,3.3000956,3.298326,3.3023882,3.310082,3.3180478,3.3248665,3.330009,3.3327916,3.3333511,3.3321602,3.3297858,3.3268785,3.3240361,3.321991,3.320899,3.3211663,3.3230171,3.3258595,3.3288498,3.3318691,3.3349104,3.3381472,3.341727,3.3455296,3.3491282,3.3521428,3.354497,3.3562007,3.3575053,3.3584929,3.3591022,3.3594418,3.3596678,3.3598313,3.3601546,3.360852,3.3619316,3.363321,3.3646457,3.3654435,3.36555,3.3652072,3.3646379,3.3641443,3.3640504,3.3643746,3.3649182,3.3654718,3.3659334,3.366361,3.366879,3.3676982,3.3688948,3.3703485,3.3718824,3.3733633,3.3746176,3.3757837,3.376791,3.3775573,3.378024,3.378184,3.3780897,3.377808,3.3774943,3.3770843
2.962836,2.963171,2.9636726,2.9646425,2.9659934,2.9675674,2.969537,2.9716296,2.9738817,2.9760337,2.9780517,2.9799693,2.9819183,2.9840221,2.9861026,2.9883416,2.9905794,2.9926584,2.9947283,2.996948,2.9992065,3.0013094,3.0032578,3.0055125,3.007873,3.0103834,3.0130024,3.0156002,3.018262,3.0208325,3.0234256,3.0258474,3.0289698,3.0328922,3.0369484,3.0409303,3.0444999,3.048241,3.0518851,3.0554094,3.0588598,3.062302,3.0657272,3.0687976,3.071926,3.0750017,3.0779338,3.080546,3.0827284,3.0845413,3.0861015,3.0879788,3.090108,3.0924666,3.0949135,3.0973117,3.0995996,3.1017027,3.103563,3.1059008,3.1088233,3.1123006,3.1161306,3.1200807,3.1240292,3.1280265,3.132345,3.1366606,3.1402178,3.1428876,3.1448956,3.1463628,3.1478815,3.1491845,3.150145,3.150395,3.1500797,3.1494298,3.148345,3.146765,3.1443615,3.1410918,3.137012,3.1323206,3.127326,3.1220694,3.1161575,3.1091704,3.0998816,3.0877528,3.0736942,3.0585818,3.0432415,3.0286224,3.0123954,2.9951744,2.9765735,2.9578695,2.9397907,2.9239166,2.9127326,2.9050636,2.8993597,2.8963804,2.8960695,2.8973527,2.899045,2.9002042,2.8997588,2.8979924,2.8945653,2.8897977,2.8845012,2.8796334,2.8763747,2.8759246,2.8777235,2.882167,2.8888304,2.8961654,2.9029193,2.908682,2.9133935,2.9174848,2.921613,2.927369,2.9375217,2.9537396,2.9767199,3.0063865,3.0403004,3.0813625,3.1290078,3.1779885,3.222915,3.260067,3.2879899,3.3080862,3.3229856,3.3327408,3.3380752,3.3403928,3.341179,3.3414428,3.3413627,3.3409605,3.340441,3.339764,3.3391132,3.3386722,3.3384547,3.3383806,3.3383603,3.3385167,3.3391328,3.340363,3.342342,3.3450396,3.3480887,3.3510914,3.3540835,3.356865,3.3590112,3.3604994,3.3615665,3.3621087,3.3615108,3.3593822,3.3545308,3.346717,3.3356543,3.3216782,3.3074622,3.2974644,3.2923322,3.2924097,3.2974017,3.304823,3.3118825,3.3168633,3.319151,3.3193197,3.3181877,3.316365,3.3146038,3.3132246,3.3120997,3.3110402,3.3099182,3.3083527,3.3062077,3.303419,3.3000078,3.2962985,3.2928321,3.2898922,3.2874765,3.285708,3.2848582,3.2850704,3.2864954,3.289176,3.292751,3.2968075,3.3013735,3.3057294,3.3094034,3.3123202,3.314588,3.3163166,3.3177624,3.319088,3.32044,3.321703,3.3227243,3.3234453,3.3238027,3.323689,3.3233337,3.3229594,3.3227148,3.3225825,3.3223934,3.3218603,3.3206787,3.3187022,3.3161745,3.31355,3.311401,3.3101614,3.3099787,3.3107715,3.3124356,3.3154984,3.3200965,3.3260098,3.3326664,3.3393896,3.345732,3.3520522,3.3578224,3.3615592,3.3620918,3.3583972,3.3500507,3.3379607,3.323722,3.3112664,3.3033786,3.3013904,3.305266,3.3128376,3.3207302,3.3275616,3.332712,3.3354087,3.3360028,3.3344598,3.3311586,3.3274448,3.3244085,3.3223674,3.321617,3.3224125,3.3248482,3.3281286,3.3311875,3.333901,3.336494,3.3390913,3.3420281,3.3453207,3.3485906,3.351464,3.353862,3.3557386,3.3573472,3.3586411,3.359417,3.3596568,3.3594882,3.3590822,3.3588772,3.3591866,3.3601213,3.3616633,3.363316,3.3644497,3.3648143,3.3646054,3.3640578,3.363532,3.3633611,3.3636034,3.364091,3.3646147,3.3650746,3.3655298,3.3661046,3.3670287,3.368382,3.3700805,3.3719232,3.3736515,3.3750937,3.376406,3.377501,3.3782911,3.3787262,3.3788242,3.3786745,3.378374,3.3780823,3.3777366
2.9626932,2.9632792,2.9640603,2.9652886,2.9668775,2.968689,2.9709313,2.9733367,2.9758997,2.9783354,2.9805756,2.9826226,2.9845853,2.9865997,2.988559,2.990669,2.9928422,2.994894,2.9968038,2.9987812,3.0009778,3.0031996,3.0053396,3.0079138,3.0106573,3.0135837,3.0166159,3.0195906,3.0226111,3.0255065,3.0283866,3.0310388,3.034299,3.0382836,3.042384,3.046424,3.0500457,3.053811,3.0574708,3.061017,3.0644596,3.0678349,3.0711517,3.0740662,3.0770006,3.0798478,3.0825477,3.08496,3.086985,3.0886776,3.090164,3.0919688,3.0940194,3.0963087,3.0986996,3.101054,3.1032853,3.1052945,3.1072292,3.109496,3.112164,3.1152563,3.118657,3.1222084,3.125822,3.1295042,3.1335616,3.137744,3.1414232,3.1445184,3.147197,3.1494734,3.1518338,3.154014,3.1558847,3.1569057,3.1569524,3.1560993,3.1543398,3.1518443,3.1482718,3.1436887,3.1382666,3.1324272,3.1268337,3.121849,3.1171732,3.1124454,3.1071935,3.1006112,3.0917463,3.0800369,3.0664268,3.052751,3.037626,3.0214052,3.003939,2.9861925,2.9680912,2.9499269,2.933967,2.922181,2.912756,2.9065773,2.9038014,2.903763,2.9053774,2.907277,2.9079773,2.907508,2.9050503,2.900551,2.8944967,2.887878,2.8822837,2.879334,2.878655,2.8809085,2.8860173,2.8930326,2.9007645,2.9082644,2.914897,2.9205031,2.9255145,2.9306302,2.937107,2.9466143,2.9611955,2.98212,3.0082123,3.0429711,3.0864482,3.1370027,3.1895297,3.2367816,3.273911,3.3014705,3.3226473,3.338064,3.3470984,3.3513093,3.3530214,3.3533854,3.3524802,3.3511658,3.349456,3.3474128,3.3454013,3.3437922,3.3426712,3.3419037,3.3413744,3.3411334,3.341441,3.3424497,3.3442726,3.3468432,3.3497217,3.3523393,3.3545842,3.3566475,3.3581896,3.3589768,3.3590584,3.3584056,3.3566341,3.3533425,3.3473418,3.337784,3.3249702,3.3105402,3.297678,3.2901201,3.2875953,3.290026,3.2967496,3.3051221,3.3123984,3.3170655,3.3187816,3.3182495,3.3165722,3.3142772,3.3120246,3.3100915,3.3083367,3.3065724,3.3047233,3.3024611,3.2997231,3.2966604,3.2934346,3.290368,3.2879095,3.2862236,3.2852063,3.284945,3.2856584,3.2874277,3.2903652,3.2944899,3.2993674,3.3044999,3.3098867,3.3147805,3.3186328,3.3214023,3.3233654,3.3247964,3.3261337,3.3275194,3.3290582,3.3305972,3.331882,3.3327532,3.33314,3.3329477,3.3324037,3.3317752,3.3312304,3.3307457,3.3301406,3.3291135,3.3273332,3.3246136,3.3211026,3.3172429,3.3136377,3.3107443,3.3087773,3.3078346,3.307805,3.3092809,3.3125901,3.3177278,3.324245,3.3314276,3.338679,3.346202,3.3536725,3.3593447,3.3611875,3.3582623,3.3507764,3.339572,3.3259916,3.3139763,3.306202,3.304113,3.3078437,3.3153186,3.3231635,3.329947,3.334797,3.3374686,3.338079,3.336016,3.3315609,3.3267875,3.3236594,3.321909,3.321885,3.3235993,3.3268847,3.3307166,3.3339286,3.336475,3.3385005,3.3401031,3.3418627,3.3439758,3.346191,3.3482745,3.3502388,3.351914,3.3535252,3.354905,3.355708,3.3557663,3.3551497,3.354144,3.3533912,3.353292,3.3540735,3.3558135,3.3579066,3.3595572,3.3604202,3.3606117,3.3603685,3.3600993,3.360117,3.3605022,3.3611016,3.3617013,3.3622248,3.3627472,3.363411,3.3644648,3.3659787,3.3678317,3.3697853,3.371585,3.3731282,3.3745337,3.3756824,3.376475,3.3768563,3.3768804,3.3767164,3.376505,3.3763041,3.3760858
2.9639359,2.9647245,2.9656668,2.9670048,2.968686,2.97059,2.9729114,2.9754813,2.978232,2.9808502,2.9832587,2.985424,2.9874043,2.9893358,2.9911857,2.9931679,2.9952307,2.997157,2.9987936,3.0004058,3.0023685,3.0045052,3.006671,3.0094128,3.0124629,3.0157669,3.019168,3.022472,3.0258,3.0289688,3.0320392,3.0348182,3.0381174,3.0420933,3.0462224,3.0503368,3.0540137,3.057763,3.061377,3.0648642,3.068222,3.0714755,3.0746346,3.0773396,3.0800366,3.0826275,3.0850816,3.0872934,3.0891714,3.0907602,3.0921867,3.0939283,3.0959134,3.0981534,3.1005242,3.1028824,3.1051133,3.1070745,3.108869,3.1108568,3.1132233,3.1160421,3.1191955,3.1225252,3.1259365,3.129366,3.13309,3.1369748,3.1405284,3.1437612,3.1468115,3.1495657,3.1524043,3.1551547,3.1577444,3.1596508,3.1604567,3.1600125,3.1583724,3.1557233,3.1518612,3.1469398,3.1410017,3.1345778,3.1285143,3.1233404,3.119031,3.115559,3.112132,3.108258,3.103208,3.0958476,3.085731,3.0736926,3.0593567,3.0439577,3.0261652,3.0072281,2.9896245,2.9733174,2.956627,2.9420314,2.9298317,2.9207132,2.914909,2.9124231,2.9126363,2.9140282,2.9150472,2.9153152,2.9137864,2.9099555,2.903841,2.8962953,2.8890915,2.884087,2.8811374,2.881093,2.884222,2.890274,2.898315,2.9070792,2.9155192,2.922903,2.9288158,2.9338174,2.938446,2.943623,2.951292,2.963739,2.9818254,3.0093427,3.0469432,3.0943964,3.149469,3.2048268,3.2515469,3.2874856,3.3151855,3.3370457,3.35145,3.3591578,3.3623984,3.3628693,3.361631,3.3596106,3.3563702,3.3526316,3.3491924,3.3465214,3.3446393,3.3432868,3.3423345,3.3417604,3.3417518,3.3424659,3.3440194,3.3462906,3.348782,3.350985,3.3527088,3.3541222,3.354888,3.3547812,3.3538413,3.3520021,3.3488376,3.3439608,3.3366103,3.3253708,3.311604,3.2981915,3.287847,3.2828598,3.282911,3.2874012,3.2954035,3.3042667,3.311374,3.3154445,3.3164291,3.3150942,3.3128304,3.3101778,3.3075643,3.3051345,3.3027663,3.3003025,3.297751,3.2948794,3.291696,3.2885818,3.2858434,3.2837539,3.2826047,3.282411,3.282919,3.2841473,3.2862446,3.2892456,3.2932787,3.2984118,3.3041968,3.310164,3.3162775,3.3217754,3.3259883,3.3288348,3.330718,3.3320768,3.3335438,3.335218,3.3371015,3.338982,3.3405035,3.3414302,3.3417392,3.3414354,3.3406897,3.3397913,3.3389173,3.3380134,3.3368683,3.3351936,3.332699,3.3292453,3.3249755,3.3203077,3.3157887,3.3117943,3.3085036,3.3061,3.3044825,3.3042722,3.3059702,3.3098593,3.315689,3.322772,3.3304448,3.3387861,3.3472023,3.354765,3.3582978,3.3564558,3.3501651,3.3403625,3.3279371,3.3167615,3.309391,3.3074045,3.3111124,3.318605,3.326518,3.333024,3.3374114,3.3402905,3.3405933,3.3375764,3.3322024,3.32685,3.323547,3.3221114,3.3227692,3.3252573,3.3292336,3.3335962,3.3370805,3.3395152,3.340908,3.3415031,3.3420463,3.3428974,3.3439472,3.3451493,3.3466556,3.348113,3.3496773,3.35107,3.351829,3.3516607,3.3505902,3.3490124,3.3477468,3.3472462,3.3478394,3.3496861,3.3520923,3.3541303,3.355383,3.3558981,3.3559186,3.3558898,3.3561125,3.3566785,3.3574252,3.3581243,3.3587098,3.3592694,3.3599777,3.3610935,3.3626914,3.3646312,3.3666415,3.3684478,3.3699622,3.3713229,3.3724356,3.3732271,3.373641,3.373716,3.3736129,3.3734622,3.3733325,3.3732104
2.9672794,2.968232,2.9692507,2.970571,2.9722369,2.974235,2.9767146,2.9792752,2.9820478,2.9846854,2.9870944,2.9892147,2.991074,2.9928136,2.9944685,2.9962478,2.9981525,2.9997377,3.0010855,3.0025535,3.0042682,3.0062194,3.0081272,3.0105886,3.0133843,3.016482,3.0198507,3.0233452,3.026853,3.0301142,3.033191,3.0359473,3.039198,3.043076,3.0470529,3.0509782,3.05446,3.058044,3.061521,3.064871,3.0681229,3.0713134,3.0743825,3.0769162,3.0794504,3.0818915,3.084226,3.0863662,3.0882168,3.0897985,3.091228,3.0929527,3.0949163,3.0971408,3.0995216,3.1019173,3.104182,3.1061373,3.107883,3.1097193,3.1118236,3.114277,3.1169977,3.1198654,3.1227927,3.1257253,3.1289864,3.1323922,3.1355805,3.138627,3.1416261,3.1444268,3.1473885,3.1504302,3.1534247,3.1558008,3.1573706,3.1580052,3.1573422,3.1552699,3.1520429,3.147743,3.1423113,3.1361918,3.1301928,3.124939,3.120635,3.1174219,3.1146371,3.111993,3.1088343,3.1040196,3.0967336,3.087172,3.0753589,3.060712,3.0434384,3.02556,3.0081387,2.9914932,2.9763732,2.9626374,2.94882,2.9369855,2.9278498,2.9220533,2.9195678,2.9191456,2.919517,2.9201212,2.919166,2.9162302,2.9108737,2.903501,2.8958473,2.8897583,2.885274,2.8832679,2.8842785,2.888629,2.8957372,2.9043317,2.9132266,2.9213824,2.92808,2.93333,2.9373507,2.9409456,2.945584,2.953051,2.964956,2.9858973,3.0166776,3.0588026,3.110095,3.1661391,3.2209392,3.2654169,3.300572,3.3288994,3.3491387,3.3614905,3.3676014,3.3693743,3.368183,3.364708,3.3599076,3.354718,3.3502219,3.3467913,3.3441515,3.3421216,3.3406763,3.3397937,3.339632,3.340258,3.3416712,3.343604,3.3454814,3.346951,3.348148,3.348944,3.3488765,3.3477743,3.3458388,3.343073,3.3388977,3.332828,3.323823,3.3116515,3.2983303,3.2865243,3.278378,3.2756143,3.2776396,3.283398,3.2922034,3.301108,3.3074808,3.3106675,3.3111448,3.309659,3.307013,3.3043265,3.301708,3.299004,3.2961426,3.2930224,3.2897878,3.2863736,3.2828825,3.2799532,3.2780068,3.2771692,3.2774715,3.2787313,3.2804906,3.282657,3.2853298,3.2885742,3.2926583,3.2978177,3.3036752,3.310046,3.3168411,3.322713,3.3269882,3.3298814,3.3319325,3.333572,3.3353653,3.3374496,3.3397417,3.3419256,3.3435001,3.3441663,3.344054,3.3434715,3.342392,3.3411539,3.339977,3.3387508,3.3371654,3.334906,3.331729,3.327715,3.3232453,3.3186634,3.3143415,3.3104568,3.3069983,3.3040698,3.3015714,3.3000793,3.3002105,3.30257,3.307195,3.31354,3.321004,3.3295586,3.338531,3.3470912,3.352417,3.3523898,3.3473437,3.3389795,3.328,3.3178933,3.3110666,3.3092632,3.312975,3.3205752,3.3287134,3.3345795,3.3386903,3.3411865,3.3408937,3.3372228,3.331344,3.32577,3.3226216,3.3216171,3.3228817,3.3258486,3.3303657,3.3354645,3.3392494,3.3407288,3.3410258,3.3407574,3.3404765,3.3405495,3.3409433,3.3416386,3.3428092,3.3441617,3.3457017,3.3470817,3.3477767,3.3474207,3.3460183,3.3440423,3.3424306,3.3416286,3.3420327,3.343851,3.3463216,3.3484416,3.349773,3.3503296,3.3503518,3.3503237,3.350562,3.3511705,3.3519852,3.3527503,3.3533695,3.3539305,3.354615,3.3556957,3.3572621,3.3591805,3.3611703,3.3629513,3.3644485,3.3657994,3.3669252,3.3677516,3.3682103,3.3683329,3.368279,3.3681822,3.3681054,3.3680408
2.9726324,2.9737055,2.9747696,2.9762015,2.97795,2.979845,2.9821305,2.9845438,2.9871829,2.9896665,2.9918945,2.9937856,2.9953544,2.996776,2.998144,2.999691,3.0012684,3.0025263,3.0035932,3.0047789,3.0061908,3.007865,3.0094185,3.0114684,3.0138526,3.016594,3.0197067,3.0230398,3.0264225,3.0296335,3.0327344,3.035599,3.0389729,3.0428624,3.0466542,3.0502467,3.053422,3.0566792,3.0598443,3.0629134,3.0659065,3.0688777,3.0718138,3.0743165,3.0767941,3.079185,3.0815184,3.0837035,3.0856133,3.0872552,3.0887618,3.090538,3.0926194,3.0949392,3.0973198,3.0996585,3.1018755,3.1037698,3.1054077,3.107041,3.108869,3.110985,3.1133227,3.115772,3.1182451,3.120691,3.123433,3.1263297,3.1291027,3.1318717,3.1347256,3.137481,3.1404424,3.1435523,3.1467938,3.14954,3.1515894,3.1528122,3.1528385,3.1516361,3.1493523,3.1461303,3.1417837,3.1366315,3.1313066,3.1263506,3.1221488,3.118983,3.116343,3.114058,3.111795,3.1085305,3.1032023,3.0957365,3.0864,3.0740795,3.0586114,3.0410554,3.0239754,3.0086572,2.9942148,2.9809856,2.9679704,2.9548326,2.9430382,2.934327,2.9291043,2.9264674,2.9256375,2.925784,2.9250274,2.922822,2.9182591,2.9113145,2.9035068,2.8965318,2.8905678,2.88644,2.8849568,2.8870215,2.8925352,2.90045,2.9096146,2.918754,2.9270034,2.933846,2.938666,2.9418182,2.9444227,2.94781,2.953785,2.9666505,2.9887738,3.0231295,3.0688934,3.122706,3.1802626,3.235074,3.2801285,3.3159685,3.3425674,3.3600454,3.3693902,3.3725438,3.3709452,3.3671281,3.3614798,3.355421,3.3503656,3.3465502,3.343461,3.340956,3.339003,3.3376381,3.337048,3.3374712,3.33881,3.3404007,3.3414702,3.3420668,3.3421903,3.341825,3.3406224,3.3384464,3.335455,3.331563,3.3260963,3.318634,3.3084984,3.295909,3.2833242,3.2734542,3.2679179,3.2676878,3.27185,3.279129,3.2885022,3.296973,3.3023884,3.3047535,3.3048272,3.3032458,3.3008232,3.2982612,3.2954555,3.2922769,3.2887669,3.284937,3.2810583,3.2772403,3.273686,3.2712498,3.2704208,3.27115,3.2731624,3.276016,3.2790172,3.281927,3.2847981,3.2877805,3.2913814,3.2960901,3.3016205,3.308008,3.314682,3.3204112,3.3246193,3.327566,3.329819,3.3318012,3.3340917,3.336802,3.3396888,3.3423102,3.3440242,3.344501,3.3440542,3.343194,3.341847,3.3403835,3.3389032,3.3371677,3.3349872,3.3322883,3.3287857,3.3244936,3.3200493,3.315843,3.3120775,3.3086658,3.305358,3.3020945,3.2987857,3.2959397,3.2942672,3.2947426,3.2977533,3.302966,3.3099136,3.3184729,3.3279076,3.3373327,3.3441868,3.3461084,3.3427505,3.335595,3.326054,3.3170228,3.310764,3.309206,3.313074,3.3209739,3.3295293,3.3352566,3.3395414,3.3415585,3.3404708,3.336061,3.3296056,3.3237205,3.3206937,3.3200817,3.32192,3.3256087,3.3312132,3.3369608,3.3402457,3.341055,3.340405,3.3393316,3.3381915,3.3373904,3.3370013,3.3370423,3.3377137,3.3387747,3.3402014,3.3415465,3.3421257,3.3414562,3.3396974,3.3375573,3.3357983,3.3348956,3.3353014,3.3372471,3.3398955,3.3421717,3.3436167,3.344211,3.3441806,3.344066,3.344214,3.3447652,3.345572,3.346357,3.3469813,3.3475242,3.3481765,3.3492136,3.35075,3.3526547,3.3546329,3.3564062,3.357905,3.3592706,3.360438,3.3613257,3.3618453,3.3620162,3.3620052,3.3619463,3.3619018,3.3618672
2.9801753,2.9816198,2.9828904,2.9842486,2.9857228,2.9873052,2.9892702,2.9914112,2.993784,2.9959757,2.9978738,2.9993858,3.0005307,3.001523,3.0025086,3.0037434,3.0049455,3.0058312,3.0064962,3.0072222,3.0081463,3.0092528,3.0102859,3.0117593,3.0135818,3.0158234,3.0185127,3.0214872,3.024541,3.02743,3.0302026,3.0327413,3.0357602,3.039292,3.0427527,3.0459876,3.0487728,3.0516212,3.054438,3.0572445,3.060064,3.0629454,3.0658665,3.068446,3.0710635,3.0736823,3.076178,3.0784707,3.0805001,3.0822458,3.0838199,3.0856104,3.0876856,3.0900545,3.092637,3.0952756,3.0976782,3.0995092,3.1011014,3.102631,3.1042006,3.10587,3.107738,3.109819,3.1119204,3.1139805,3.1163027,3.1186068,3.12076,3.1230392,3.1255765,3.12816,3.1310086,3.13418,3.1375868,3.1406522,3.1431212,3.144857,3.1456118,3.145388,3.144392,3.142654,3.1398323,3.136105,3.1318698,3.1274877,3.1234486,3.1200526,3.1169033,3.1141734,3.1116796,3.108689,3.104331,3.098278,3.0907907,3.0806704,3.0677571,3.0529432,3.0379403,3.0239859,3.011188,2.9993203,2.987259,2.974793,2.9619436,2.9504604,2.941905,2.9362469,2.933351,2.9321427,2.9309454,2.929112,2.9252915,2.919022,2.9115016,2.9041686,2.897358,2.8917778,2.888379,2.8883128,2.891782,2.8980265,2.906083,2.9147372,2.9233534,2.9311614,2.937137,2.9409878,2.943234,2.9450066,2.9482486,2.9553647,2.9695675,2.9951267,3.0326762,3.0804508,3.1357577,3.1931763,3.248465,3.2940655,3.329544,3.3543684,3.3683598,3.3735116,3.3723376,3.3684447,3.3625574,3.3561237,3.350299,3.3458397,3.342527,3.3393164,3.3367147,3.3348355,3.3338146,3.3338668,3.3349705,3.3363137,3.3367996,3.3366966,3.3360226,3.3349495,3.33323,3.3306143,3.327077,3.3225389,3.3165588,3.3082438,3.29736,3.2845325,3.272575,3.2642171,3.2606053,3.26201,3.2672524,3.275036,3.2837248,3.2907596,3.2947705,3.2962472,3.296185,3.2949977,3.2935133,3.2916927,3.289124,3.2856658,3.2814713,3.2767682,3.2720356,3.2676535,3.2638776,3.2618566,3.262251,3.2647386,3.2684846,3.2727215,3.2765806,3.279666,3.2820277,3.283973,3.2863379,3.289944,3.2945848,3.3002582,3.3063293,3.311565,3.315396,3.3181076,3.3202806,3.322329,3.3248663,3.327958,3.331195,3.3340554,3.3358614,3.3362415,3.3354955,3.3342066,3.3324723,3.3307114,3.328979,3.3269491,3.3243535,3.321206,3.317596,3.3136106,3.3098269,3.3067937,3.3045807,3.3027701,3.3007646,3.2981746,3.294912,3.2913637,3.2882457,3.2868843,3.28805,3.2917032,3.2976456,3.3057067,3.3152025,3.3253088,3.333499,3.3373306,3.3360882,3.330783,3.322845,3.3149478,3.309198,3.3077638,3.3117495,3.3199074,3.328754,3.3347275,3.3392587,3.3408356,3.3390517,3.3340137,3.327158,3.3212495,3.3184779,3.3183208,3.3204632,3.3253107,3.3314958,3.3365612,3.3389313,3.3388684,3.337473,3.3357372,3.3341265,3.3330212,3.332431,3.3323615,3.333024,3.3341498,3.3356671,3.337113,3.3377748,3.3370895,3.3350384,3.3324065,3.3306813,3.3296804,3.3299403,3.33173,3.3341937,3.336238,3.337412,3.3376884,3.3372703,3.33676,3.3365974,3.3369813,3.3377886,3.338698,3.339456,3.3401065,3.3408208,3.3418527,3.3433447,3.3451924,3.3471227,3.348886,3.350421,3.3518724,3.3531828,3.3542452,3.3549316,3.3552353,3.3553183,3.355314,3.3552876,3.3552349
2.9888482,2.9904995,2.9918003,2.992912,2.9939578,2.9951134,2.996678,2.9984553,3.0004687,3.0022779,3.0037634,3.0048318,3.0055194,3.0060863,3.0067115,3.0077136,3.0086408,3.0092373,3.0095398,3.009745,3.0100193,3.0104566,3.0109217,3.0117664,3.0129776,3.0146525,3.01682,3.0193286,3.0219517,3.0243988,3.0267112,3.0287788,3.0313044,3.0343504,3.0373514,3.0401218,3.0424395,3.044815,3.0472293,3.0497353,3.052382,3.0552201,3.0582018,3.0609663,3.063869,3.066864,3.0698125,3.0725486,3.0749345,3.0769367,3.0786548,3.0805192,3.0825992,3.0849605,3.0876145,3.0904155,3.0929942,3.0949318,3.0964043,3.0976017,3.0986812,3.0998263,3.1012435,3.1029406,3.1046293,3.106231,3.1079636,3.1096554,3.1112995,3.1130886,3.1151328,3.1174264,3.1202347,3.1235209,3.127249,3.130818,3.13383,3.1360989,3.1375504,3.1384015,3.138679,3.1383934,3.1371498,3.1350238,3.1321454,3.1286333,3.1249971,3.1214912,3.1178513,3.1145802,3.111709,3.1086786,3.1047301,3.0994654,3.0929828,3.0844646,3.073783,3.0619807,3.0498796,3.037949,3.0266304,3.0155873,3.0045567,2.993124,2.980734,2.9680786,2.9568481,2.9484491,2.9433851,2.9404798,2.9384098,2.9364753,2.9329734,2.9271188,2.9198756,2.9124377,2.905111,2.8985245,2.8936553,2.891644,2.8928447,2.8968067,2.9028506,2.9099798,2.9180758,2.9263856,2.9338765,2.9398632,2.943816,2.945786,2.9477663,2.9516175,2.9592264,2.975299,3.0024066,3.041284,3.0910053,3.1465309,3.2077842,3.2647886,3.3109574,3.344135,3.3641448,3.372261,3.3723361,3.36869,3.3628218,3.3564062,3.3503823,3.3452964,3.3412232,3.3375874,3.3343105,3.3317962,3.330389,3.330169,3.3308804,3.3316894,3.3316555,3.3310876,3.3300104,3.3287616,3.327394,3.325498,3.322526,3.3179326,3.3110495,3.3020482,3.2906168,3.2775788,3.2660236,3.2587178,3.256391,3.2586927,3.2642596,3.2717063,3.2789297,3.2840338,3.286498,3.287208,3.2873259,3.287016,3.286763,3.286008,3.2839384,3.2802758,3.2753258,3.2696428,3.263951,3.2589474,3.255003,3.2535696,3.2553673,3.259594,3.2647882,3.2700768,3.2742996,3.276971,3.2782285,3.2785864,3.2792373,3.2813697,3.2848911,3.2896264,3.2949317,3.299511,3.302764,3.304986,3.3067865,3.3086166,3.3111465,3.3144798,3.3179827,3.3210354,3.322832,3.322905,3.3216414,3.3197565,3.3174512,3.3152533,3.313261,3.311104,3.3084002,3.3051534,3.3017094,3.298275,3.2954814,3.2940257,3.293848,3.294219,3.294175,3.292924,3.290358,3.2867212,3.2826517,3.2797294,3.2790804,3.2810166,3.2856817,3.2929134,3.3021784,3.3128233,3.3222716,3.3279762,3.328904,3.3255086,3.318994,3.3120537,3.306602,3.3050947,3.3090672,3.3174188,3.3266256,3.3333185,3.3382297,3.339407,3.3370805,3.331545,3.3243718,3.318583,3.316022,3.3162966,3.31959,3.3252797,3.3311367,3.3350902,3.3363996,3.33539,3.3333564,3.3309803,3.3291368,3.3280904,3.3276212,3.327698,3.328555,3.329875,3.3316574,3.333348,3.3342116,3.333632,3.331559,3.3287673,3.3266318,3.3253102,3.3253093,3.3267686,3.3287973,3.3303459,3.3309894,3.3307076,3.32968,3.328566,3.3279076,3.3280044,3.3287835,3.3298569,3.3308141,3.3316474,3.3324785,3.3335214,3.3349543,3.336719,3.3385856,3.3403664,3.3420057,3.3436437,3.3452327,3.3466153,3.3476048,3.3481557,3.3484066,3.3484926,3.348492,3.3483968
2.9970045,2.9985914,2.9996939,3.000472,3.0010872,3.0017958,3.002943,3.0043416,3.0059981,3.0074472,3.0085711,3.0092793,3.009633,3.0099244,3.0102959,3.011012,3.0117452,3.0123,3.0125701,3.012531,3.012325,3.0122724,3.012285,3.0126228,3.0133958,3.0147007,3.0165286,3.0187266,3.0210438,3.023149,3.025113,3.0268345,3.0290117,3.0316896,3.0342832,3.036611,3.0385141,3.040475,3.0425143,3.0447168,3.0471706,3.0499382,3.0529575,3.055892,3.059042,3.0623326,3.0656886,3.0688367,3.0715194,3.0737143,3.0755346,3.077448,3.0795484,3.0819008,3.084539,3.0873609,3.0900064,3.0919938,3.0933838,3.0942473,3.09483,3.0955079,3.0965533,3.0978994,3.099202,3.100356,3.1014786,3.1025867,3.1037693,3.105061,3.106587,3.1086378,3.1114166,3.1147745,3.1187751,3.122758,3.126182,3.1288002,3.1306674,3.1322074,3.133343,3.1340911,3.1339688,3.1330128,3.13127,3.1286902,3.1256523,3.1223726,3.1187115,3.1153698,3.1126375,3.1100006,3.1065917,3.1019325,3.0958784,3.0882163,3.078958,3.069028,3.0591521,3.0493412,3.039372,3.0292497,3.019003,3.007833,2.996458,2.9848104,2.973065,2.9628782,2.9560316,2.9513233,2.9478688,2.9450128,2.9409542,2.934802,2.9273758,2.9196734,2.9119463,2.9047127,2.8989184,2.8955538,2.8949728,2.8969202,2.9009526,2.9063387,2.913436,2.921658,2.930138,2.9381478,2.9443398,2.9475067,2.9493508,2.9514852,2.9547243,2.963021,2.9801648,3.0093818,3.0516229,3.1024137,3.1632838,3.2283435,3.2839544,3.3258529,3.353633,3.3667853,3.3698807,3.3676984,3.3623962,3.3561225,3.350047,3.3443737,3.3392515,3.33502,3.331194,3.328227,3.326562,3.3261557,3.3264756,3.3266504,3.326045,3.32516,3.3239486,3.3230405,3.3225393,3.3217046,3.3195047,3.314945,3.3069916,3.2967834,3.2845187,3.2712305,3.260079,3.253743,3.252564,3.2556214,3.2615461,3.2685068,3.2743979,3.2779818,3.2794242,3.2799165,3.2806258,3.2814362,3.2822104,3.2821739,3.2801483,3.2757652,3.2697043,3.2630386,3.256693,3.2516196,3.2483873,3.2483315,3.2518249,3.2575736,3.2637613,3.2696242,3.2738457,3.2756479,3.2753506,3.2738633,3.2728724,3.2739131,3.2768095,3.2809305,3.2857735,3.2898562,3.2924838,3.2940564,3.2953253,3.296781,3.299209,3.3027782,3.3066201,3.3099966,3.3118908,3.3116815,3.309889,3.3073988,3.304409,3.301588,3.2991438,3.2967486,3.2939963,3.290855,3.287675,3.2847157,3.282799,3.282714,3.2842765,3.286528,3.2882197,3.2882147,3.2864106,3.282941,3.2783532,3.2743044,3.2721448,3.2724926,3.2757764,3.2818832,3.2905161,3.3012607,3.3116074,3.3189218,3.3218012,3.3201523,3.3150415,3.3087113,3.3032002,3.3014193,3.305317,3.313902,3.3236842,3.3315654,3.336943,3.337975,3.3351567,3.3291616,3.321802,3.3160954,3.3137548,3.3146586,3.319144,3.3250217,3.330184,3.3332705,3.3337216,3.332015,3.3295503,3.3267486,3.3247018,3.3236747,3.3234074,3.3237991,3.324925,3.3264256,3.328332,3.3301,3.3310313,3.330525,3.328537,3.3257327,3.3231318,3.3214326,3.3210592,3.3221498,3.3238244,3.3250031,3.3251894,3.3243244,3.3225656,3.3206782,3.3194458,3.3192244,3.3199267,3.321124,3.3222668,3.3233013,3.324277,3.3253427,3.3266997,3.3283267,3.330049,3.3317714,3.3334546,3.3352334,3.3370728,3.3387613,3.3400464,3.3408318,3.3412237,3.3413591,3.3413308,3.3411322
