30.313686,30.186497,30.126083,30.142735,30.201279,30.275978,30.30397,30.268635,30.169062,30.062561,30.006714,30.046562,30.368412,30.908392,31.80928,33.16121,34.518963,35.927544,37.00402,37.412415,37.604797,37.644997,37.60959,37.641262,37.91552,38.416946,38.928688,39.53854,40.30571,41.08332,42.011597,42.94039,43.67183,44.36605,45.03035,45.570374,46.005905,46.5115,47.012543,47.405663,47.84738,48.433765,48.99511,49.43165,49.963238,50.472183,50.89157,51.33915,51.767433,52.13887,52.627922,53.142265,53.54315,54.006943,54.529045,54.95862,55.30535,55.681633,55.978283,56.172226,56.36964,56.536972,56.66381,56.800167,56.9776,57.165947,57.36939,57.62413,57.856888,58.0497,58.241913,58.38575,58.489403,58.56322,58.583218,58.566895,58.4881,58.33792,58.174683,58.00385,57.794052,57.614758,57.493908,57.351265,57.162346,56.937492,56.64754,56.27932,55.906647,55.385666,54.622932,53.86039,53.17539,52.505634,52.07203,51.827488,51.705044,51.732857,51.797405,51.997787,52.444275,52.985577,53.615868,54.14572,54.250694,53.892925,53.046577,52.11217,51.41461,51.149124,51.562843,52.2714,54.178707,57.061096,59.5709,61.386574,62.40831,62.578575,62.52299,62.253418,61.922897,61.66306,61.571003,61.685593,61.85679,62.064224,62.24891,62.30861,62.182537,61.713425,61.113823,60.591564,60.303623,60.709564,61.691177,63.20057,64.792435,65.9017,67.09179,67.74045,67.71675,67.7088,67.55157,67.34163,67.16078,67.21806,67.60079,68.09461,68.8748,69.82931,70.63713,71.37739,71.90295,72.13338,72.27849,72.440155,72.52788,72.43857,72.22171,71.96466,71.77875,71.58732,71.42463,71.309235,71.19257,71.03374,70.84888,70.630264,70.34198,70.05551,69.7926,69.50061,69.2469,69.05658,68.8013,68.50899,68.25543,67.97475,67.66142,67.39105,67.142426,66.84048,66.532425,66.23888,65.83627,65.3804,64.97209,64.465836,63.931297,63.508026,63.073288,62.640846,62.310608,62.027946,61.705418,61.402046,61.138023,60.785736,60.386887,60.027973,59.57341,59.041275,58.563736,58.035866,57.40649,56.830418,56.304832,55.67952,55.099037,54.623196,54.059364,53.511265,53.078926,52.59118,52.08866,51.680832,51.266743,50.79093,50.36253,49.98607,49.53247,49.099827,48.7427,48.314835,47.87164,47.49736,47.05225,46.564213,46.15455,45.745087,45.277946,44.862007,44.500828,44.071053,43.66618,43.341034,42.922462,42.490753,42.154762,41.79255,41.411987,41.09321,40.781837,40.416565,40.079575,39.78441,39.432854,39.104523,38.84742,38.558414,38.289024,38.09105,37.889347,37.692932,37.541847,37.406425,37.257248,37.125168,37.0126,36.872875,36.731285,36.612865,36.46913,36.31434,36.184105,36.042374,35.880013,35.733624,35.594692,35.42626,35.26613,35.12857,34.964,34.80568,34.68103,34.54235,34.406807,34.301544,34.192825,34.071,33.95904,33.85025,33.705498,33.5483,33.401573,33.200214,32.969704,32.765396,32.51699,32.2416,32.010353,31.7777,31.529266,31.325722,31.153645,30.966755,30.80931,30.688763,30.550655,30.417221,30.309727,30.182674,30.036953,29.904827,29.766243,29.57911,29.397442,29.251183
30.324604,30.18915,30.133347,30.16246,30.239254,30.330019,30.360493,30.316587,30.193882,30.057095,29.976982,29.987797,30.299023,30.855371,31.797491,33.259132,34.769733,36.390526,37.52835,37.88038,38.112007,38.25276,38.320366,38.3966,38.72148,39.289703,39.88502,40.66555,41.63135,42.54399,43.5709,44.50919,45.15066,45.72235,46.348564,46.857605,47.18567,47.55612,47.91814,48.207745,48.52779,48.9421,49.36756,49.791924,50.33467,50.866768,51.317875,51.802544,52.2536,52.625072,53.040836,53.484283,53.871147,54.32116,54.829567,55.245094,55.577953,55.934677,56.20594,56.371334,56.535873,56.668716,56.765396,56.868484,57.018417,57.19288,57.387093,57.64187,57.883377,58.087482,58.293137,58.446877,58.55564,58.625828,58.63499,58.608475,58.517216,58.354164,58.182808,58.009014,57.801052,57.627426,57.512974,57.38231,57.207607,56.997063,56.650757,56.18125,55.722134,55.07759,54.19574,53.370064,52.658092,51.99408,51.613335,51.46632,51.441772,51.533745,51.63171,51.751762,52.067986,52.5315,53.12767,53.667053,53.80324,53.469894,52.662464,51.780815,51.150055,50.917076,51.311966,51.98136,53.82772,56.6985,59.265198,61.15342,62.255215,62.478683,62.456875,62.19931,61.862198,61.599846,61.491756,61.587433,61.74987,61.9461,62.11824,62.166283,62.02399,61.536076,60.926563,60.411102,60.122612,60.5316,61.533936,63.07016,64.70453,65.86415,67.10244,67.78693,67.782425,67.7955,67.69561,67.552864,67.404495,67.49145,67.88948,68.385605,69.145325,70.05315,70.8106,71.5001,71.98862,72.208565,72.36525,72.53302,72.63313,72.59816,72.42466,72.18696,72.01143,71.82224,71.650665,71.52229,71.38796,71.20409,70.99406,70.75014,70.43261,70.121956,69.840576,69.53903,69.27742,69.06993,68.82541,68.56252,68.33432,68.079216,67.7898,67.534645,67.29561,66.998695,66.68871,66.38934,65.97336,65.49941,65.075386,64.55118,63.999344,63.563507,63.117046,62.672203,62.331047,62.03814,61.704556,61.392513,61.122223,60.765057,60.363785,60.00373,59.547276,59.012165,58.53154,58.001465,57.37021,56.79187,56.26203,55.63128,55.04634,54.567787,54.001938,53.453094,53.020744,52.53358,52.03358,51.62806,51.208187,50.73223,50.310898,49.9395,49.49283,49.06719,48.715588,48.29244,47.86035,47.50316,47.065575,46.58257,46.17864,45.774536,45.31232,44.89878,44.53774,44.105347,43.696342,43.36821,42.944653,42.505707,42.16256,41.79444,41.410065,41.09031,40.779724,40.416946,40.083004,39.79048,39.442265,39.116966,38.861904,38.57657,38.31082,38.11487,37.914955,37.719933,37.56939,37.43345,37.28223,37.14675,37.03038,36.88474,36.73581,36.610527,36.45805,36.294037,36.15672,36.00814,35.840057,35.690563,35.54996,35.380836,35.221012,35.08409,34.920605,34.76375,34.640553,34.503826,34.370758,34.267822,34.16167,34.04262,33.932854,33.825798,33.682777,33.527378,33.382637,33.184906,32.959732,32.760845,32.518982,32.249664,32.02211,31.792133,31.545324,31.342487,31.170988,30.985905,30.831394,30.713844,30.579456,30.449821,30.34532,30.220982,30.076925,29.946478,29.814583,29.638645,29.463776,29.312622
30.32993,30.184605,30.133942,30.17759,30.27515,30.385176,30.419971,30.367199,30.218767,30.047152,29.937523,29.94194,30.255653,30.812853,31.795815,33.404903,35.107616,36.863197,38.17286,38.655777,38.916515,39.10379,39.23331,39.368416,39.800316,40.506287,41.228386,42.227512,43.36761,44.314102,45.28344,46.2244,46.86904,47.318985,47.809593,48.1874,48.40267,48.639534,48.850784,49.00543,49.163605,49.441383,49.80787,50.2101,50.766552,51.35208,51.876823,52.43033,52.876736,53.171364,53.530544,53.938683,54.311317,54.74518,55.23613,55.634933,55.950485,56.284103,56.528282,56.66535,56.799255,56.89817,56.96169,57.028,57.146152,57.302742,57.48294,57.732185,57.97783,58.189697,58.405937,58.564514,58.669243,58.728092,58.71863,58.674145,58.56686,58.39175,58.21579,58.04397,57.846252,57.68468,57.578423,57.444317,57.25862,57.04286,56.658863,56.0979,55.52626,54.751762,53.757683,52.880646,52.150185,51.503983,51.176067,51.10325,51.129707,51.2535,51.390465,51.54919,51.809586,52.14,52.673645,53.19501,53.34709,53.04765,52.29216,51.47739,50.94084,50.696373,51.042034,51.72941,53.518448,56.345066,58.93626,60.882534,62.06588,62.352997,62.372353,62.134003,61.794884,61.53271,61.40858,61.48654,61.645195,61.833733,61.99079,62.021385,61.865852,61.369232,60.762,60.266018,59.97688,60.386173,61.423347,62.97007,64.63002,65.84842,67.10148,67.80966,67.85153,67.8917,67.850876,67.77666,67.66322,67.78432,68.201324,68.7005,69.44133,70.2888,70.96881,71.60733,72.058,72.25726,72.42557,72.607544,72.73093,72.75818,72.63217,72.41597,72.255615,72.069916,71.88647,71.74067,71.58231,71.36693,71.127235,70.853004,70.50011,70.16018,69.8584,69.53038,69.25513,69.05439,68.83277,68.60651,68.41169,68.19148,67.936356,67.70505,67.48343,67.19993,66.89416,66.59256,66.16657,65.67471,65.23183,64.68373,64.106346,63.650436,63.183853,62.716557,62.355335,62.043785,61.689507,61.36062,61.077908,60.71027,60.30379,59.94229,59.484535,58.948486,58.466988,57.935173,57.305115,56.72887,56.195824,55.561268,54.973297,54.492012,53.924744,53.376076,52.944366,52.45996,51.960155,51.551605,51.13056,50.657722,50.242844,49.877518,49.439465,49.02284,48.678635,48.263885,47.8407,47.4922,47.07984,46.61531,46.21249,45.813995,45.35704,44.945892,44.585045,44.15061,43.73739,43.404514,42.977882,42.53473,42.18548,41.812218,41.423664,41.101692,40.790546,40.42864,40.096527,39.80595,39.46048,39.137733,38.88423,38.601803,38.339424,38.145947,37.948334,37.755287,37.60569,37.46957,37.316498,37.17763,37.057434,36.90571,36.749077,36.616474,36.454758,36.2811,36.136467,35.980858,35.807137,35.654835,35.512886,35.34327,35.1838,35.04755,34.885002,34.729218,34.60699,34.471657,34.340576,34.239693,34.13593,34.01951,33.91175,33.806217,33.664543,33.510494,33.367393,33.173042,32.953117,32.759727,32.524776,32.262062,32.03858,31.811562,31.566538,31.364397,31.193356,31.009956,30.858295,30.743683,30.612984,30.486984,30.385143,30.262997,30.120378,29.990812,29.857819,29.695423,29.538666,29.38928
30.32766,30.170248,30.125235,30.18563,30.307354,30.440237,30.48087,30.418453,30.241707,30.033487,29.894976,29.903812,30.239075,30.812471,31.81446,33.604836,35.599075,37.59964,39.172184,39.833687,40.168716,40.413414,40.60369,40.820488,41.327076,42.12535,42.95352,44.1157,45.40458,46.384857,47.24342,48.063225,48.600983,48.916008,49.235306,49.44218,49.5235,49.613663,49.685814,49.739677,49.808395,50.023796,50.370815,50.767204,51.383347,52.050446,52.60919,53.18515,53.62353,53.8898,54.224525,54.60804,54.959053,55.36789,55.830063,56.204453,56.500313,56.808685,57.02202,57.124924,57.221397,57.279877,57.30526,57.329514,57.408836,57.539764,57.69689,57.928646,58.167137,58.37786,58.59297,58.74308,58.830853,58.863712,58.828117,58.767113,58.639893,58.451157,58.27387,58.108437,57.928413,57.783897,57.68474,57.53984,57.321,57.06433,56.66189,56.0223,55.30751,54.41024,53.32447,52.411415,51.677666,51.050453,50.75088,50.70209,50.76732,50.9399,51.122604,51.352703,51.59237,51.802143,52.262447,52.74372,52.897476,52.63147,51.93118,51.182625,50.732746,50.44818,50.74942,51.517124,53.238144,55.97981,58.573936,60.561268,61.828552,62.19693,62.27073,62.065376,61.73442,61.4795,61.343193,61.401833,61.55246,61.729782,61.870518,61.88476,61.7136,61.223457,60.643414,60.178093,59.89654,60.307472,61.375652,62.918106,64.59395,65.87572,67.11203,67.826996,67.93155,68.003265,68.03021,68.033356,67.954544,68.11112,68.55005,69.05494,69.77271,70.53941,71.113144,71.68527,72.100945,72.292336,72.47674,72.67706,72.83017,72.93019,72.86714,72.67717,72.51897,72.32242,72.1227,71.967255,71.793015,71.5462,71.268875,70.96014,70.565895,70.1903,69.86239,69.506714,69.22186,69.032814,68.839096,68.65599,68.50177,68.32503,68.11354,67.913666,67.71669,67.45444,67.159,66.85955,66.42735,65.918396,65.45488,64.878265,64.2673,63.782837,63.28592,62.783768,62.39138,62.051025,61.66511,61.310883,61.00984,60.626526,60.211617,59.846886,59.38803,58.853294,58.373528,57.842392,57.216496,56.645435,56.11277,55.47754,54.888283,54.405327,53.837997,53.29067,52.860313,52.37953,51.87782,51.46258,51.042656,50.574486,50.16512,49.805122,49.375027,48.96723,48.630646,48.2252,47.810585,47.468742,47.078255,46.63955,46.252155,45.86012,45.40833,45.00144,44.6426,44.208702,43.793766,43.45788,43.031662,42.587273,42.23274,41.854454,41.46102,41.13595,40.823456,40.462257,40.131905,39.84207,39.498306,39.177353,38.924683,38.64371,38.383324,38.1917,37.995712,37.803764,37.654152,37.516907,37.360832,37.21752,37.092613,36.933907,36.768883,36.6285,36.457237,36.274036,36.122498,35.9605,35.782173,35.628136,35.48584,35.31659,35.15789,35.02252,34.86087,34.705704,34.58377,34.449043,34.31903,34.2194,34.11718,34.002342,33.895576,33.790558,33.649006,33.4953,33.35318,33.161713,32.946983,32.759308,32.531948,32.276825,32.058228,31.834879,31.592142,31.390797,31.220016,31.037933,30.88865,30.776505,30.64893,30.525936,30.426193,30.305481,30.16379,30.034714,29.899857,29.743036,29.598192,29.460379
30.319471,30.149616,30.109032,30.184471,30.328245,30.481886,30.527622,30.456055,30.253393,30.017288,29.864662,29.87645,30.237053,30.843105,31.840977,33.816376,36.14817,38.456795,40.27946,41.072525,41.51628,41.83442,42.0773,42.362564,42.904,43.761635,44.678837,45.87314,47.18357,48.155952,48.92145,49.555115,49.907036,50.12077,50.320076,50.402763,50.374474,50.34015,50.308838,50.311058,50.36467,50.582127,50.939796,51.35743,52.048447,52.78718,53.350407,53.920685,54.373,54.682396,55.01954,55.37564,55.69462,56.070225,56.495995,56.83667,57.0942,57.3552,57.525597,57.59562,57.66281,57.696003,57.697792,57.68376,57.721558,57.82305,57.95159,58.155952,58.37619,58.57778,58.77269,58.88943,58.93879,58.94035,58.89435,58.83875,58.700104,58.500374,58.32332,58.16535,58.003445,57.875458,57.781982,57.628098,57.370346,57.05326,56.62833,55.925728,55.09217,54.111893,52.97421,52.04621,51.321194,50.71264,50.41649,50.3349,50.424908,50.660194,50.885807,51.16284,51.404884,51.56775,51.956436,52.38141,52.528122,52.281723,51.623383,50.919033,50.505478,50.204205,50.50557,51.345818,52.988937,55.638786,58.23475,60.244934,61.583458,62.035046,62.16735,62.004578,61.691475,61.448257,61.306606,61.348244,61.486145,61.648773,61.774628,61.777657,61.5889,61.117065,60.58286,60.149048,59.88862,60.30574,61.376663,62.909782,64.60312,65.93678,67.133736,67.8375,68.00135,68.104675,68.18646,68.252014,68.21734,68.41086,68.864746,69.37106,70.049545,70.73625,71.22984,71.73151,72.11873,72.326096,72.53075,72.754944,72.93846,73.08978,73.095764,72.94897,72.78885,72.5746,72.352295,72.1848,71.98755,71.712105,71.40878,71.0692,70.63617,70.22612,69.87004,69.4976,69.21149,69.02523,68.8513,68.70442,68.586334,68.44876,68.277084,68.10629,67.93289,67.69214,67.40903,67.11479,66.68097,66.15999,65.679955,65.078575,64.436066,63.923107,63.394722,62.855583,62.429985,62.05902,61.639793,61.259315,60.939693,60.54068,60.117348,59.749207,59.289654,58.757336,58.28076,57.7529,57.131805,56.56565,56.03744,55.40444,54.814877,54.33144,53.764725,53.21888,52.78983,52.309326,51.804295,51.384518,50.966034,50.501022,50.094337,49.736767,49.310715,48.90798,48.57615,48.176758,47.76877,47.4328,47.05006,46.631638,46.269165,45.889046,45.445667,45.04435,44.68999,44.260162,43.847572,43.51264,43.08763,42.642918,42.2863,41.904953,41.507698,41.179802,40.865723,40.50476,40.175827,39.886765,39.544136,39.22407,38.971672,38.690655,38.43033,38.23906,38.042934,37.849937,37.69841,37.558422,37.397808,37.249146,37.119057,36.953415,36.78083,36.63385,36.454857,36.264496,36.108215,35.942055,35.76142,35.60739,35.466103,35.298477,35.141327,35.007202,34.846626,34.69188,34.56983,34.43509,34.30519,34.20576,34.103813,33.988953,33.88172,33.77591,33.633118,33.4787,33.33682,33.147392,32.937065,32.754475,32.53414,32.28635,32.072704,31.85327,31.61311,31.412632,31.241941,31.060549,30.91265,30.80194,30.676228,30.55505,30.456583,30.336525,30.195171,30.066448,29.932518,29.773127,29.627981,29.502121
30.307781,30.125685,30.088453,30.176998,30.34024,30.51181,30.561325,30.480915,30.253735,29.998734,29.849804,29.856852,30.225735,30.858227,31.852566,34.019386,36.67433,39.19355,41.20646,42.131184,42.67946,43.048565,43.30088,43.605827,44.229725,45.28293,46.405815,47.566948,48.68676,49.46462,50.12401,50.644794,50.907497,51.07093,51.22721,51.263702,51.17862,51.04535,50.90593,50.836266,50.817387,51.01998,51.42235,51.888966,52.60579,53.37413,54.017067,54.667236,55.174713,55.5095,55.83612,56.156242,56.442307,56.78488,57.18264,57.48533,57.65654,57.808605,57.90187,57.944016,58.010147,58.059647,58.067978,58.0126,57.997993,58.07006,58.167664,58.33989,58.536793,58.728523,58.88839,58.940075,58.911316,58.88562,58.87033,58.85944,58.725166,58.517345,58.34038,58.189484,58.043686,57.931084,57.845352,57.685356,57.39586,57.03186,56.54297,55.767235,54.8743,53.841064,52.67237,51.742348,51.027695,50.454357,50.17122,50.0258,50.117043,50.40684,50.674274,50.9861,51.25403,51.423954,51.7181,52.06235,52.203743,51.965267,51.340473,50.66358,50.235035,49.972805,50.3272,51.180588,52.73302,55.307564,57.922073,59.945656,61.34206,61.87228,62.061985,61.94481,61.653065,61.42074,61.27642,61.305077,61.43233,61.58104,61.691936,61.6836,61.475254,61.026432,60.544693,60.13607,59.90511,60.329765,61.370464,62.900616,64.62707,66.003334,67.14699,67.827866,68.04747,68.18457,68.29076,68.38736,68.431755,68.67757,69.13559,69.633156,70.23456,70.85153,71.34126,71.76876,72.1192,72.36096,72.58842,72.842514,73.05141,73.20784,73.28969,73.23223,73.09892,72.88658,72.63518,72.42963,72.1629,71.85057,71.55344,71.17838,70.70451,70.26445,69.88013,69.4982,69.21384,69.020355,68.857285,68.738365,68.649796,68.54442,68.40593,68.2597,68.106346,67.88433,67.613525,67.32741,66.89554,66.36575,65.87146,65.24959,64.58051,64.04281,63.48658,62.914017,62.45804,62.059113,61.609398,61.20495,60.868484,60.45575,60.026352,59.65731,59.1977,58.667732,58.194702,57.671104,57.05391,56.49134,55.97046,55.341072,54.750847,54.26719,53.700672,53.1558,52.72796,52.24165,51.73288,51.315483,50.897636,50.433323,50.027344,49.670113,49.245132,48.844414,48.514927,48.118828,47.71531,47.38395,47.006203,46.598045,46.250717,45.895767,45.46897,45.070976,44.722824,44.29935,43.89217,43.562325,43.13487,42.687073,42.332672,41.95102,41.551575,41.220978,40.904488,40.541306,40.21232,39.92654,39.585644,39.26561,39.01333,38.73178,38.470703,38.2789,38.081337,37.88568,37.730885,37.58692,37.420624,37.26596,37.130493,36.958206,36.778954,36.62646,36.441383,36.245834,36.086403,35.91758,35.736115,35.583237,35.443832,35.278866,35.124115,34.991695,34.83254,34.678326,34.556145,34.42122,34.29103,34.19129,34.088886,33.973152,33.864758,33.757553,33.612946,33.457394,33.3154,33.12757,32.921112,32.743095,32.529224,32.288353,32.07952,31.864056,31.62668,31.42723,31.256643,31.07566,30.9286,30.818764,30.694237,30.57434,30.47688,30.357323,30.216267,30.08791,29.954506,29.795883,29.65126,29.525383
30.293789,30.096748,30.061958,30.164234,30.34785,30.537346,30.58891,30.49668,30.24059,29.966736,29.828285,29.830172,30.208996,30.877647,31.879015,34.319874,37.398262,40.105167,42.275696,43.319405,43.95601,44.437485,44.80648,45.209774,45.962093,47.0336,48.042175,49.069542,50.088985,50.806683,51.307205,51.715015,51.941437,52.069073,52.171448,52.149002,52.0177,51.82731,51.604057,51.448242,51.36241,51.54949,51.992294,52.51278,53.32115,54.178764,54.87761,55.55246,56.071735,56.433434,56.79354,57.099964,57.317535,57.563984,57.8263,58.011047,58.107254,58.190083,58.242107,58.268417,58.31655,58.3639,58.387573,58.360283,58.331367,58.345657,58.402744,58.53137,58.694283,58.875275,58.95314,58.91047,58.854263,58.814514,58.803146,58.801773,58.688316,58.490967,58.309235,58.164013,58.033028,57.93349,57.84999,57.681076,57.357693,56.94198,56.37883,55.52324,54.573917,53.503757,52.326298,51.409946,50.714035,50.177925,49.922333,49.771523,49.82396,50.099937,50.416702,50.76265,51.051945,51.224335,51.431915,51.693806,51.815166,51.571926,50.968643,50.321594,49.89719,49.747818,50.132805,50.817047,52.28559,54.832096,57.444748,59.5047,60.985237,61.60884,61.877625,61.828827,61.57319,61.358414,61.221462,61.242004,61.354855,61.486782,61.58094,61.56182,61.342003,60.914238,60.48021,60.111282,59.95616,60.42392,61.419907,62.931026,64.67895,66.0932,67.15755,67.80185,68.088295,68.26677,68.406555,68.54152,68.67064,68.9675,69.413864,69.872955,70.43074,70.9895,71.41847,71.80534,72.16261,72.44769,72.71579,73.02588,73.285095,73.47182,73.598434,73.57768,73.45789,73.22589,72.91709,72.649414,72.33105,71.98334,71.67853,71.33561,70.8501,70.35758,69.93858,69.5336,69.24214,69.04587,68.88927,68.79219,68.73143,68.65669,68.54985,68.42685,68.291756,68.09256,67.835434,67.543686,67.11016,66.58118,66.086044,65.44695,64.7497,64.186844,63.60084,62.991615,62.50196,62.071922,61.587894,61.156425,60.80142,60.37321,59.936577,59.566177,59.107258,58.57996,58.109665,57.590225,56.97705,56.418232,55.904915,55.27877,54.68698,54.202312,53.63488,53.089626,52.661644,52.167137,51.65249,51.236458,50.81781,50.35209,49.944416,49.585037,49.15783,48.75585,48.42605,48.03043,47.62922,47.301308,46.92858,46.528587,46.19234,45.85765,45.45708,45.078537,44.73835,44.326508,43.92584,43.59102,43.168793,42.73055,42.381584,42.003136,41.60382,41.271454,40.95304,40.587883,40.258278,39.973305,39.635956,39.31946,39.0679,38.78578,38.522514,38.328075,38.126488,37.9246,37.76317,37.61258,37.437847,37.27507,37.13272,36.95253,36.76608,36.608025,36.417267,36.217453,36.055927,35.885895,35.704823,35.553787,35.41729,35.256226,35.104874,34.97486,34.817806,34.664574,34.542458,34.407295,34.276344,34.175552,34.07148,33.95295,33.841385,33.73096,33.58251,33.424316,33.28135,33.094536,32.891983,32.718975,32.512383,32.279697,32.07696,31.866858,31.633553,31.435848,31.265747,31.08523,30.938616,30.829044,30.704933,30.58557,30.488575,30.369122,30.228325,30.100592,29.968098,29.811062,29.667973,29.542961
30.274336,30.063078,30.029064,30.141628,30.340082,30.540482,30.589264,30.483395,30.198236,29.915936,29.809649,29.817482,30.202797,30.899908,31.927643,34.688316,38.22744,41.122475,43.374687,44.425354,45.061863,45.694683,46.23862,46.6857,47.469345,48.437263,49.25181,50.19525,51.164524,51.81572,52.15912,52.454456,52.646637,52.743835,52.8014,52.75171,52.626396,52.456066,52.2167,52.00499,51.880974,52.06911,52.55789,53.146553,54.047783,54.959854,55.64512,56.29522,56.76069,57.0521,57.3711,57.63469,57.794937,57.957973,58.102776,58.19469,58.260765,58.330105,58.380203,58.404617,58.439095,58.483315,58.526615,58.564877,58.578438,58.57579,58.599594,58.686325,58.80701,58.93403,58.925713,58.82234,58.7693,58.717422,58.6808,58.656326,58.579712,58.407898,58.211304,58.064156,57.937447,57.84028,57.74827,57.56505,57.212162,56.75393,56.133568,55.215622,54.221455,53.143845,51.989697,51.104507,50.435387,49.92257,49.687176,49.57464,49.573784,49.78923,50.13651,50.503418,50.801437,50.96637,51.128105,51.33033,51.41298,51.14706,50.548782,49.936012,49.546585,49.544594,49.971508,50.46968,51.7744,54.21625,56.814552,58.958794,60.557404,61.270332,61.633575,61.671017,61.463013,61.269775,61.149597,61.16877,61.26589,61.379055,61.45562,61.4281,61.208565,60.797043,60.399254,60.088726,60.03199,60.549255,61.485966,62.98162,64.7184,66.09117,67.10512,67.75009,68.091354,68.31084,68.49195,68.66646,68.85214,69.183655,69.62039,70.046005,70.57909,71.09073,71.45294,71.85356,72.27252,72.621735,72.96452,73.37955,73.733536,73.985596,74.14094,74.09991,73.94609,73.63553,73.22287,72.87416,72.50573,72.11482,71.78529,71.48979,71.02359,70.50137,70.048615,69.61017,69.30176,69.10502,68.94631,68.8575,68.81458,68.75949,68.67291,68.56454,68.443794,68.24797,67.98416,67.68734,67.253235,66.7334,66.25357,65.61284,64.90004,64.319786,63.7123,63.0753,62.559486,62.105133,61.59379,61.140568,60.77086,60.32955,59.885582,59.512478,59.05263,58.525414,58.054993,57.53662,56.925133,56.368645,55.860237,55.235626,54.641754,54.155457,53.5867,53.037613,52.603054,52.101818,51.58288,51.165657,50.74422,50.274193,49.861557,49.496742,49.062828,48.65505,48.32126,47.922012,47.519497,47.192566,46.82318,46.428535,46.098618,45.773514,45.39748,45.046574,44.720757,44.323463,43.930458,43.5941,43.18677,42.767593,42.427605,42.056324,41.660236,41.32769,41.008377,40.64189,40.311386,40.0256,39.69068,39.37805,39.12857,38.847153,38.58074,38.380493,38.171368,37.959152,37.78775,37.627953,37.442833,37.27115,37.121635,36.933895,36.741394,36.57918,36.384655,36.18268,36.02071,35.851315,35.67227,35.523994,35.390976,35.23424,35.086582,34.959198,34.804688,34.653,34.531425,34.396317,34.264336,34.16175,34.05469,33.931213,33.814224,33.69854,33.543957,33.381203,33.23584,33.048454,32.848442,32.679497,32.47934,32.254654,32.058502,31.854603,31.626509,31.431442,31.26241,31.082315,30.935371,30.825111,30.700188,30.580183,30.482891,30.363178,30.22282,30.096226,29.96534,29.810917,29.670567,29.547922
30.251095,30.029186,29.99498,30.113266,30.319176,30.522472,30.564812,30.446169,30.13705,29.85888,29.80225,29.828339,30.21485,30.923367,31.989933,35.034046,38.96801,42.07878,44.357124,45.297356,45.861458,46.61724,47.28324,47.645836,48.319275,49.23606,50.090706,51.08628,51.951202,52.390564,52.635635,52.82778,52.94245,53.003708,53.039665,53.010704,52.93716,52.83058,52.62739,52.409508,52.274555,52.484924,53.03152,53.695656,54.620724,55.488693,56.113647,56.73829,57.121857,57.24423,57.402657,57.570724,57.71914,57.873573,58.025967,58.130943,58.20208,58.27597,58.328964,58.354004,58.3965,58.455814,58.51532,58.58834,58.664948,58.716858,58.72738,58.786423,58.866005,58.895863,58.84427,58.744064,58.67494,58.601048,58.53746,58.49195,58.450768,58.30275,58.089767,57.93579,57.80355,57.69878,57.59189,57.39027,57.01394,56.528427,55.877457,54.92359,53.899216,52.832977,51.717873,50.869896,50.228287,49.722153,49.483803,49.39426,49.364834,49.537846,49.882988,50.252953,50.55155,50.70842,50.861088,51.02917,51.067192,50.770866,50.173676,49.599854,49.258568,49.361732,49.860485,50.337456,51.38784,53.59702,56.187244,58.441742,60.1675,60.951084,61.400955,61.52054,61.36023,61.18937,61.086803,61.10621,61.18998,61.28489,61.344604,61.310783,61.096382,60.698803,60.33036,60.08329,60.101303,60.638405,61.515244,63.01532,64.716675,65.96575,66.984604,67.68269,68.054535,68.307465,68.52797,68.734985,68.94351,69.294365,69.73872,70.16469,70.65818,71.12572,71.47908,71.92189,72.4214,72.85193,73.28981,73.83478,74.302124,74.626335,74.822845,74.756996,74.53675,74.10921,73.56966,73.13933,72.700134,72.253654,71.89491,71.593704,71.15072,70.646835,70.167496,69.69818,69.3709,69.17066,69.004135,68.914444,68.8799,68.83377,68.75595,68.65294,68.541336,68.32275,68.02967,67.742424,67.31427,66.804474,66.34384,65.716,65.00399,64.415375,63.79762,63.146,62.615818,62.148003,61.62115,61.155247,60.776928,60.327087,59.876923,59.500114,59.036716,58.506237,58.033203,57.512543,56.899895,56.343845,55.83726,55.21268,54.617004,54.12922,53.559666,53.00422,52.557503,52.053146,51.533638,51.11376,50.688736,50.21315,49.794174,49.422657,48.9802,48.56471,48.225418,47.820717,47.41499,47.08738,46.71917,46.328354,46.003254,45.68177,45.318882,44.987896,44.68196,44.29744,43.91265,43.589016,43.1994,42.796974,42.46694,42.10389,41.712242,41.380413,41.060833,40.69341,40.36222,40.07646,39.741028,39.429054,39.18237,38.9029,38.633636,38.426304,38.208397,37.984818,37.80304,37.633774,37.438766,37.259377,37.10395,36.91035,36.71369,36.548996,36.352524,36.14991,35.988335,35.820225,35.643852,35.4987,35.36877,35.215637,35.071007,34.945824,34.793663,34.643696,34.523014,34.388306,34.255455,34.15094,34.040592,33.91164,33.788666,33.667236,33.505974,33.338013,33.189495,33.00033,32.801292,32.634907,32.439423,32.221256,32.03097,31.832832,31.609953,31.417826,31.250154,31.070396,30.922659,30.811266,30.68492,30.563707,30.465794,30.345816,30.206158,30.08102,29.952164,29.800758,29.663433,29.54339
30.229145,29.996674,29.96204,30.08501,30.2933,30.49579,30.530787,30.396744,30.072784,29.809393,29.801693,29.849068,30.249207,30.98659,32.119854,35.374947,39.61687,43.16411,45.404633,46.029716,46.68444,47.388176,48.043476,48.602726,49.3499,50.26394,51.080788,51.81491,52.39332,52.70602,52.946907,53.157764,53.269875,53.299995,53.272964,53.194916,53.119377,53.10352,53.002388,52.825478,52.747154,53.034256,53.626785,54.242992,55.148773,56.01836,56.62215,57.080223,57.31669,57.450058,57.568287,57.67012,57.758453,57.857567,57.970646,58.067642,58.152283,58.24115,58.29419,58.302734,58.324272,58.372353,58.43585,58.51168,58.60813,58.6933,58.751324,58.807053,58.8355,58.826656,58.756516,58.65306,58.57177,58.501694,58.43701,58.372887,58.29423,58.17502,58.046936,57.92855,57.798523,57.66896,57.538765,57.287895,56.852943,56.323555,55.632545,54.65349,53.622833,52.59077,51.553093,50.779472,50.175964,49.672802,49.4085,49.291077,49.26867,49.417046,49.66181,49.95719,50.24914,50.4517,50.630333,50.77894,50.76922,50.439445,49.893196,49.424896,49.17024,49.196217,49.6074,50.152344,51.008743,53.00568,55.569008,57.904984,59.773224,60.66644,61.17095,61.36672,61.290302,61.194603,61.09665,61.072247,61.12902,61.198174,61.24019,61.201862,60.997375,60.62604,60.294724,60.10219,60.148315,60.68068,61.551888,63.057137,64.70362,65.833694,66.83586,67.56955,67.97481,68.26575,68.53393,68.78343,69.02826,69.40779,69.8567,70.27005,70.70915,71.15373,71.556046,72.089874,72.74837,73.34463,73.937035,74.59126,75.08792,75.40889,75.614685,75.56928,75.37111,74.84863,74.1278,73.53975,72.98018,72.45024,72.048454,71.70705,71.2817,70.8138,70.306046,69.804,69.4532,69.240814,69.061905,68.96948,68.94241,68.91252,68.84631,68.734116,68.5804,68.31963,68.01364,67.73863,67.34549,66.86723,66.41153,65.80623,65.10779,64.51184,63.886078,63.2228,62.681458,62.20343,61.66483,61.189518,60.80542,60.348503,59.891525,59.509468,59.040066,58.502647,58.023445,57.497574,56.881096,56.32337,55.81611,55.189724,54.59131,54.101078,53.52871,52.965546,52.5069,51.997902,51.47611,51.05278,50.62321,50.140694,49.713898,49.33439,48.881905,48.45752,48.111942,47.70113,47.29168,46.96295,46.59539,46.207764,45.886997,45.57051,45.214806,44.89697,44.61715,44.24889,43.874367,43.568657,43.199806,42.815983,42.49787,42.145046,41.75962,41.42964,41.110466,40.742695,40.41125,40.125786,39.790833,39.479202,39.23256,38.951775,38.67918,38.467472,38.241455,38.00554,37.81172,37.63183,37.425835,37.238327,37.07743,36.878475,36.678173,36.511574,36.31382,36.111046,35.9501,35.783493,35.60993,35.467873,35.34079,35.190903,35.04905,34.926037,34.77633,34.628372,34.508965,34.374893,34.241104,34.134346,34.02005,33.884544,33.754486,33.626305,33.457256,33.283207,33.130913,32.93945,32.741047,32.57704,32.386177,32.17483,31.990934,31.799202,31.582378,31.39394,31.228313,31.049435,30.901188,30.788803,30.661068,30.538568,30.439964,30.319893,30.18135,30.058174,29.931969,29.784515,29.651134,29.534416
30.20921,29.971571,29.937458,30.060719,30.267323,30.464546,30.489561,30.33572,30.030441,29.80819,29.824574,29.89447,30.333336,31.131973,32.417828,35.84751,40.22632,44.000084,46.240234,46.73168,47.462753,48.104645,48.694042,49.334217,50.09487,50.932808,51.62443,52.15857,52.606205,52.922348,53.188927,53.42767,53.543198,53.554787,53.492348,53.354347,53.209877,53.168686,53.134132,53.07263,53.068245,53.430218,54.082275,54.749306,55.58366,56.33032,56.904995,57.275917,57.44827,57.59532,57.69886,57.760582,57.80304,57.863777,57.945435,58.02552,58.100433,58.1793,58.215527,58.197487,58.19635,58.22288,58.263332,58.286255,58.351837,58.45128,58.541313,58.599365,58.601715,58.5845,58.515335,58.414146,58.325966,58.246387,58.176743,58.115147,58.030067,57.948513,57.888607,57.803577,57.68958,57.558212,57.420517,57.1484,56.71042,56.216415,55.49299,54.512703,53.55442,52.525352,51.542313,50.86043,50.250034,49.737965,49.477325,49.355312,49.347668,49.470978,49.623055,49.859375,50.141403,50.36423,50.558937,50.67382,50.60038,50.22747,49.760635,49.43489,49.264503,49.200874,49.49618,50.073235,50.812866,52.666668,55.174263,57.49987,59.38469,60.274742,60.692562,60.886955,60.926247,60.981644,60.998055,61.032887,61.122482,61.172188,61.173843,61.11944,60.930725,60.58868,60.288246,60.143112,60.20735,60.73038,61.60344,63.088562,64.65397,65.66699,66.63623,67.39158,67.83032,68.16497,68.49227,68.79613,69.087364,69.5063,69.95656,70.33145,70.75586,71.2732,71.81619,72.54452,73.33139,73.92912,74.502045,75.1175,75.58355,75.88898,76.10025,76.10292,75.98158,75.572334,74.87392,74.18262,73.4918,72.80569,72.28989,71.87831,71.44882,71.00249,70.45645,69.91824,69.53853,69.29874,69.10424,69.01441,68.997345,68.96274,68.8674,68.71156,68.505585,68.2139,67.91179,67.64673,67.30209,66.87888,66.44623,65.88028,65.20253,64.59708,63.964016,63.29145,62.74239,62.25811,61.713253,61.233788,60.848038,60.386795,59.92297,59.534042,59.055756,58.50718,58.017998,57.483986,56.86097,56.29936,55.789146,55.159668,54.558273,54.065506,53.485695,52.913063,52.447727,51.934433,51.408928,50.981407,50.54651,50.05615,49.62082,49.232864,48.770058,48.336624,47.98465,47.567734,47.154366,46.824036,46.456413,46.07063,45.752556,45.4397,45.08767,44.776432,44.510674,44.161854,43.80767,43.519405,43.17087,42.805626,42.50023,42.15883,41.781197,41.45439,41.136765,40.76994,40.439377,40.15506,39.821667,39.511047,39.26448,38.98175,38.70494,38.488445,38.25529,38.008892,37.804733,37.6156,37.399998,37.20555,37.040276,36.838074,36.636276,36.46889,36.27095,36.068558,35.908134,35.742584,35.57082,35.430607,35.30494,35.156704,35.01645,34.894855,34.74717,34.601227,34.483215,34.349777,34.214867,34.10555,33.98683,33.844078,33.706314,33.570965,33.393875,33.213737,33.057755,32.864212,32.666725,32.505276,32.31906,32.11455,31.93715,31.752048,31.541782,31.357765,31.195045,31.018047,30.870104,30.757324,30.62867,30.5051,30.405857,30.285873,30.148796,30.028023,29.90501,29.762358,29.63385,29.52127
30.198568,29.963236,29.931011,30.049725,30.251987,30.441528,30.45694,30.285965,30.023046,29.85328,29.866976,29.95522,30.446878,31.322918,32.793842,36.3497,40.71209,44.400856,46.689384,47.29299,47.99208,48.64564,49.209076,49.7312,50.402626,51.12194,51.687847,52.23144,52.759148,53.137794,53.400288,53.617897,53.71676,53.725204,53.672997,53.51057,53.291313,53.12144,53.071693,53.135517,53.19331,53.591927,54.27916,55.065155,55.837257,56.42032,56.94731,57.35717,57.56691,57.668037,57.744766,57.79157,57.828514,57.889,57.96698,58.033344,58.0819,58.133186,58.150093,58.11924,58.111675,58.122765,58.132874,58.10006,58.12461,58.217903,58.293808,58.348442,58.35757,58.343246,58.281998,58.18569,58.094234,57.98069,57.87751,57.81196,57.7497,57.678833,57.60424,57.51371,57.40635,57.28776,57.152184,56.895576,56.512787,56.10943,55.40796,54.49495,53.67822,52.662437,51.702553,51.077682,50.447914,49.935883,49.70306,49.602882,49.5916,49.689354,49.818275,50.049908,50.323265,50.52269,50.702644,50.771904,50.63994,50.234177,49.78443,49.500923,49.34388,49.273926,49.527412,50.043774,50.81868,52.678726,55.097984,57.28852,59.019802,59.791504,60.07395,60.23054,60.360523,60.54064,60.71454,60.890114,61.06669,61.14099,61.13354,61.08011,60.908962,60.589973,60.3125,60.202835,60.293755,60.814842,61.66729,63.09708,64.571304,65.49423,66.421936,67.18196,67.64882,68.02498,68.411804,68.77154,69.10982,69.56972,70.0331,70.390205,70.89422,71.567894,72.25086,73.083466,73.821655,74.248985,74.65698,75.147354,75.57831,75.88858,76.1109,76.15359,76.09949,75.92737,75.460495,74.831436,74.102844,73.26225,72.58479,72.094864,71.63136,71.17073,70.57869,70.007904,69.60105,69.32152,69.11423,69.03849,69.03697,68.97156,68.80951,68.59372,68.36049,68.063965,67.77327,67.51329,67.20131,66.8346,66.456795,65.935196,65.27371,64.66046,64.018486,63.335697,62.78025,62.2918,61.74459,61.26523,60.88101,60.41825,59.94887,59.5531,59.065125,58.50391,58.00348,57.46048,56.829773,56.263214,55.749634,55.117348,54.51394,54.019722,53.43228,52.852764,52.38711,51.87147,51.34241,50.911186,50.47164,49.97471,49.53257,49.138145,48.667793,48.228004,47.87165,47.450645,47.03464,46.703094,46.3351,45.949654,45.632164,45.320305,44.970276,44.660873,44.39304,44.059586,43.727654,43.449707,43.11512,42.763893,42.46873,42.137115,41.76705,41.44423,41.129265,40.764767,40.43616,40.15367,39.822502,39.51378,39.26848,38.985184,38.704895,38.483715,38.245834,37.99347,37.783607,37.589294,37.368317,37.17009,37.002495,36.799545,36.59826,36.43111,36.233856,36.03208,35.871803,35.70639,35.534645,35.39424,35.268066,35.119366,34.979034,34.857635,34.71083,34.566063,34.448837,34.315475,34.179184,34.06744,33.944923,33.796265,33.652443,33.511658,33.328796,33.14468,32.98662,32.792603,32.597054,32.43853,32.256744,32.058033,31.88583,31.705894,31.500832,31.320564,31.160587,30.985836,30.838972,30.726574,30.597849,30.473839,30.37424,30.25448,30.118732,30.000057,29.879854,29.741514,29.617502,29.50884
30.198328,29.970331,29.941044,30.05185,30.246645,30.427132,30.435051,30.253262,30.024475,29.897476,29.913727,30.019188,30.561123,31.50972,33.106712,36.73497,41.078735,44.75001,47.02758,47.605125,48.22104,48.874405,49.478737,49.99768,50.6644,51.38455,51.956703,52.490143,52.981525,53.314674,53.54038,53.735714,53.832573,53.844017,53.79258,53.6344,53.424973,53.18389,53.10405,53.234974,53.400063,53.829044,54.441116,55.12153,55.915718,56.572067,57.049793,57.429317,57.621506,57.703453,57.767815,57.808647,57.84335,57.901817,57.98027,58.04978,58.1026,58.159027,58.188198,58.181087,58.174957,58.17599,58.184616,58.18037,58.215702,58.28711,58.351013,58.401825,58.417145,58.413574,58.362396,58.26625,58.16696,58.01303,57.832844,57.68682,57.55201,57.41488,57.291534,57.157238,57.005962,56.854767,56.6921,56.436295,56.08582,55.715637,55.171288,54.492966,53.86554,53.000854,52.078026,51.41666,50.86357,50.39643,50.142,50.00268,49.965195,50.05269,50.173294,50.393074,50.66244,50.865746,51.031197,51.066093,50.89523,50.48564,49.866573,49.3546,49.100212,49.050373,49.31997,49.728985,50.7564,52.836094,55.169994,57.113335,58.583603,59.253754,59.56675,59.782364,59.93698,60.08551,60.26774,60.50654,60.76629,60.969093,61.09134,61.107616,60.938187,60.627552,60.38427,60.303467,60.419193,60.935158,61.753086,63.104958,64.48076,65.32961,66.20993,66.96356,67.4551,67.87399,68.32588,68.74548,69.12894,69.605316,70.08955,70.503296,71.22543,72.12973,72.8834,73.417786,73.82521,74.15746,74.54578,75.049774,75.49365,75.80609,76.03006,76.083664,76.04891,75.94909,75.67874,75.29678,74.690956,73.77841,72.9226,72.33449,71.81288,71.32336,70.67702,70.08329,69.6564,69.3213,69.10269,69.053055,69.07541,68.96898,68.73662,68.47215,68.22609,67.92653,67.63915,67.38583,67.07893,66.757416,66.47168,65.984634,65.32695,64.71782,64.06469,63.367634,62.804848,62.31205,61.763462,61.285843,60.90451,60.441418,59.96704,59.56447,59.066154,58.491283,57.978798,57.4259,56.786316,56.214092,55.69764,55.06304,54.458313,53.96365,53.374474,52.793144,52.32678,51.809956,51.278496,50.844112,50.400528,49.898014,49.450325,49.050797,48.57487,48.130863,47.771973,47.348503,46.931053,46.59906,46.23073,45.844845,45.526825,45.214516,44.86431,44.555668,44.289024,43.96309,43.6417,43.37097,43.04635,42.705795,42.418983,42.09582,41.733093,41.414818,41.103313,40.74192,40.41565,40.13514,39.80631,39.499573,39.255608,38.97268,38.690994,38.46743,38.226257,37.96942,37.75555,37.558083,37.334393,37.13468,36.966393,36.763268,36.562492,36.396084,36.20012,35.999317,35.83911,35.67355,35.50093,35.359203,35.231598,35.081413,34.940155,34.818348,34.671597,34.527126,34.410015,34.276054,34.13801,34.02392,33.8982,33.74505,33.59691,33.45234,33.265762,33.07956,32.920876,32.72793,32.535408,32.38031,32.203163,32.009735,31.841717,31.665638,31.464354,31.286858,31.128906,30.956112,30.810558,30.6989,30.570602,30.44659,30.346882,30.2275,30.09292,29.975924,29.858067,29.723412,29.60334,29.498222
30.215958,29.991951,29.964607,30.069784,30.250465,30.416662,30.421528,30.246227,30.052223,29.960812,29.983067,30.108208,30.707655,31.74089,33.49607,37.16412,41.41821,45.096817,47.3814,47.939354,48.503296,49.186646,49.85862,50.40014,51.073074,51.78075,52.333504,52.83185,53.2589,53.529106,53.722324,53.8983,53.99298,54.011036,53.963108,53.812065,53.616524,53.360065,53.252724,53.37137,53.556267,54.03818,54.69284,55.357323,56.142475,56.780975,57.20559,57.506367,57.66568,57.787254,57.861275,57.90159,57.937546,57.99789,58.080647,58.15651,58.21663,58.28236,58.324898,58.336365,58.340935,58.348877,58.367153,58.388084,58.4393,58.50773,58.57319,58.631443,58.658096,58.665554,58.62437,58.53162,58.43138,58.25049,58.01744,57.81661,57.610214,57.392883,57.209354,57.033157,56.845264,56.660664,56.457287,56.152004,55.747047,55.320503,54.74873,54.109352,53.575043,52.937103,52.30069,51.837074,51.384487,50.96316,50.709175,50.566772,50.51467,50.577007,50.672146,50.851402,51.072716,51.238712,51.37118,51.409126,51.266136,50.865234,50.225914,49.64936,49.29799,49.098488,49.324173,49.85611,51.21618,53.27865,55.13481,56.74039,58.017593,58.704235,59.166107,59.49752,59.653374,59.73659,59.88732,60.11418,60.35274,60.572372,60.78585,60.927456,60.87396,60.655487,60.45448,60.399178,60.534615,61.036552,61.805424,63.028545,64.268524,65.05287,65.86934,66.612625,67.14378,67.599495,68.08597,68.5466,68.99786,69.62062,70.325485,70.987076,71.878845,72.66931,73.096634,73.37953,73.633,73.92488,74.29726,74.78827,75.21689,75.52019,75.744965,75.81461,75.80142,75.74823,75.60812,75.40909,75.03509,74.231766,73.3109,72.639145,72.02548,71.46678,70.75624,70.10574,69.63507,69.25881,69.04407,69.03017,69.076996,68.92994,68.642204,68.349915,68.091576,67.7872,67.50342,67.25867,66.96332,66.67054,66.42969,66.020294,65.41376,64.79742,64.12018,63.3927,62.81131,62.305645,61.74939,61.271244,60.892654,60.429237,59.949574,59.53938,59.028625,58.436195,57.9075,57.341255,56.688335,56.106964,55.587315,54.951042,54.346146,53.851692,53.267654,52.69162,52.22602,51.709988,51.17756,50.740685,50.29377,49.786903,49.335373,48.932632,48.454105,48.009136,47.65031,47.22719,46.81043,46.479134,46.110924,45.723984,45.40419,45.09002,44.738014,44.427094,44.15509,43.831306,43.51738,43.251247,42.934227,42.603786,42.32646,42.014107,41.66252,41.352585,41.048096,40.693115,40.371178,40.093746,39.76792,39.463505,39.22126,38.939644,38.65827,38.43428,38.192303,37.934006,37.718704,37.520336,37.296204,37.09658,36.928482,36.725975,36.525917,36.3599,36.16429,35.96376,35.803535,35.636482,35.46128,35.316895,35.186405,35.032913,34.88903,34.765472,34.61711,34.471237,34.35279,34.216507,34.075138,33.95777,33.82827,33.6709,33.519608,33.372955,33.18519,32.999702,32.843056,32.654697,32.468666,32.319454,32.149315,31.96241,31.798496,31.625496,31.426594,31.250637,31.09393,30.922749,30.778831,30.66856,30.541416,30.417908,30.318222,30.199036,30.065172,29.949444,29.833563,29.702297,29.58608,29.484566
30.246439,30.02185,29.99476,30.094868,30.259275,30.41045,30.416098,30.258436,30.091604,30.020859,30.047295,30.186344,30.825356,31.91864,33.831444,37.47325,41.544174,45.25393,47.552757,48.077232,48.605164,49.32744,50.070206,50.639435,51.31654,51.993202,52.50078,52.948997,53.31682,53.541775,53.712822,53.869225,53.951332,53.964787,53.912346,53.763527,53.57746,53.35547,53.259975,53.355545,53.543415,54.058617,54.76162,55.48196,56.24762,56.81772,57.212273,57.47451,57.615646,57.748314,57.82793,57.873386,57.91413,57.97908,58.067787,58.14975,58.21531,58.288727,58.340282,58.36036,58.379128,58.40387,58.43563,58.467552,58.527195,58.60129,58.67161,58.73761,58.77162,58.782665,58.739456,58.639023,58.530746,58.335217,58.08068,57.858128,57.624397,57.37034,57.151184,56.943157,56.715767,56.494022,56.26319,55.91094,55.44375,54.957146,54.29294,53.576958,53.027855,52.505383,52.08146,51.7968,51.420937,51.07411,50.88615,50.792625,50.750015,50.780586,50.839977,50.97148,51.138367,51.26094,51.350563,51.388012,51.30117,50.98913,50.537003,50.115547,49.771935,49.469143,49.66751,50.366,51.760406,53.48313,54.797455,56.143032,57.37825,58.17372,58.766834,59.18561,59.341454,59.390324,59.51048,59.688408,59.85721,60.019257,60.23318,60.44379,60.559307,60.510117,60.39837,60.408195,60.59254,61.085136,61.793182,62.870827,63.966743,64.69209,65.44803,66.150696,66.66546,67.10326,67.60322,68.12277,68.642075,69.53375,70.602936,71.55435,72.37665,72.791985,72.87182,73.06021,73.32274,73.601425,73.93977,74.37517,74.75564,75.03682,75.25946,75.348854,75.35954,75.33559,75.24329,75.1116,74.932205,74.346344,73.53762,72.892944,72.19716,71.521454,70.773834,70.03605,69.49411,69.11945,68.92401,68.95383,69.04152,68.885216,68.57402,68.26987,68.003006,67.69777,67.41998,67.17985,66.89833,66.61724,66.37572,66.04613,65.49962,64.862526,64.15387,63.38794,62.78009,62.254738,61.68428,61.20156,60.82361,60.359123,59.87508,59.458664,58.936943,58.32914,57.7865,57.207993,56.5428,55.95361,55.432014,54.798126,54.198196,53.707165,53.134747,52.57061,52.109276,51.59734,51.06633,50.62832,50.179337,49.66989,49.216545,48.812508,48.33417,47.891045,47.534393,47.113853,46.69945,46.369682,46.001846,45.61327,45.290688,44.97402,44.616287,44.29786,44.018234,43.692253,43.381195,43.117165,42.80445,42.481915,42.21383,41.91307,41.57501,41.27626,40.981693,40.635628,40.319138,40.04509,39.72176,39.418655,39.177338,38.896885,38.616932,38.394356,38.15433,37.898247,37.68479,37.48835,37.266396,37.06847,36.90145,36.700214,36.500923,36.334927,36.138866,35.93764,35.776695,35.607384,35.428288,35.279655,35.14483,34.98636,34.83829,34.711548,34.559708,34.410324,34.288624,34.147896,34.00158,33.880302,33.74695,33.586365,33.433746,33.28717,33.100956,32.919025,32.767075,32.58677,32.410686,32.269978,32.109528,31.930687,31.770815,31.599937,31.40139,31.224762,31.067371,30.896057,30.752846,30.643625,30.51756,30.394604,30.294842,30.17537,30.041317,29.925846,29.810757,29.68134,29.567589,29.468584
30.27417,30.047897,30.020166,30.112541,30.26462,30.405071,30.411198,30.265797,30.117582,30.058727,30.08332,30.227396,30.878815,31.992046,34.02526,37.59224,41.440544,45.18164,47.481983,47.944054,48.410065,49.147408,49.942863,50.525078,51.198227,51.847366,52.32016,52.728977,53.064987,53.27329,53.424576,53.556297,53.615078,53.608276,53.540413,53.38967,53.211456,53.019268,52.971283,53.1134,53.38861,53.89438,54.515285,55.2511,56.025414,56.590866,56.983795,57.3014,57.454338,57.502068,57.559616,57.612213,57.659103,57.728165,57.82173,57.90806,57.976547,58.054436,58.11245,58.139984,58.16809,58.202637,58.242264,58.280563,58.33863,58.40462,58.467205,58.528244,58.559715,58.566544,58.507713,58.382782,58.250664,58.039078,57.76779,57.525475,57.30493,57.070404,56.850487,56.614746,56.33037,56.062912,55.83104,55.48889,55.045235,54.58834,53.976402,53.2882,52.71624,52.116394,51.54969,51.156204,50.815178,50.580803,50.50528,50.474434,50.452736,50.46103,50.49391,50.60025,50.75329,50.87178,50.926117,50.917915,50.848022,50.707397,50.49658,50.271927,50.043095,49.88147,50.144875,50.79959,51.8276,53.125305,54.24714,55.499886,56.772057,57.65093,58.241425,58.663845,58.837738,58.906,59.023663,59.185066,59.343575,59.49752,59.666832,59.83063,60.051407,60.170883,60.199432,60.32579,60.600906,61.099846,61.74647,62.707108,63.68353,64.344604,65.05861,65.686966,66.10331,66.46738,66.9929,67.61601,68.18108,69.343216,70.73017,71.82181,72.37111,72.498146,72.633545,72.80811,73.03431,73.27197,73.56095,73.93122,74.26001,74.51596,74.732864,74.83824,74.86931,74.87161,74.81119,74.71218,74.58722,74.155136,73.53577,73.02834,72.29338,71.48323,70.73743,69.91348,69.29419,68.95189,68.77725,68.85204,69.00101,68.87007,68.55399,68.23326,67.963104,67.6641,67.394424,67.152664,66.87796,66.60711,66.370575,66.076324,65.54683,64.88638,64.15102,63.353752,62.722015,62.17797,61.592514,61.10318,60.723877,60.257572,59.770454,59.350067,58.82096,58.203976,57.653946,57.06774,56.39592,55.804016,55.282364,54.654995,54.06501,53.580677,53.020638,52.468987,52.01461,51.508682,50.98044,50.5421,50.091663,49.580257,49.125523,48.72036,48.24225,47.800816,47.446114,47.02784,46.615494,46.287045,45.919365,45.529022,45.20362,44.88494,44.51837,44.189384,43.90661,43.578533,43.267624,43.00551,42.695683,42.379128,42.118935,41.828426,41.50289,41.214912,40.93015,40.592663,40.28095,40.009525,39.687485,39.38423,39.142532,38.86213,38.58316,38.362194,38.124733,37.87201,37.66159,37.468117,37.24922,37.05346,36.887783,36.687828,36.48921,36.323273,36.12698,35.924767,35.762367,35.591316,35.408424,35.254906,35.115395,34.951706,34.799232,34.668945,34.513046,34.359352,34.23359,34.087616,33.93597,33.81094,33.674183,33.511272,33.35823,33.21248,33.028458,32.850525,32.70369,32.532013,32.366577,32.23504,32.085197,31.91513,31.759415,31.590397,31.391293,31.2127,31.05318,30.880068,30.736164,30.62696,30.50117,30.378319,30.27823,30.158144,30.023338,29.907389,29.792137,29.66313,29.550362,29.452627
30.319054,30.072273,30.028412,30.109695,30.249346,30.387524,30.402916,30.268177,30.135323,30.081657,30.09453,30.251186,30.89733,31.970896,33.99733,37.3341,40.903557,44.802696,47.490517,48.213264,48.558792,49.148544,49.863243,50.45548,51.134567,51.771362,52.21031,52.568096,52.84664,53.020317,53.16475,53.294697,53.372337,53.405426,53.50864,53.513947,53.34382,52.94178,52.642048,52.70815,53.09247,54.063877,55.08821,55.548103,55.97535,56.340572,56.66034,56.962875,57.141953,57.202408,57.27076,57.331917,57.384506,57.45703,57.559685,57.65823,57.734528,57.82448,57.89881,57.945953,57.976967,57.979485,57.966553,57.936054,57.92335,57.93911,57.95117,57.942837,57.91469,57.898247,57.798126,57.652115,57.541252,57.4374,57.37495,57.352303,57.3208,57.233406,57.08321,56.84754,56.523216,56.193623,55.878555,55.48584,55.00891,54.494507,53.83634,53.131393,52.566986,51.97602,51.410866,51.01198,50.685123,50.422234,50.28595,50.20996,50.145275,50.140594,50.191437,50.296906,50.424812,50.509903,50.548965,50.515472,50.41942,50.281013,50.07989,49.901146,49.7755,49.745316,50.071297,50.686607,51.77667,53.12228,54.215755,55.442802,56.715332,57.634468,58.265285,58.929745,59.323196,59.33335,59.250717,59.124287,59.04644,58.942307,58.938416,59.06417,59.2675,59.575928,59.885414,60.13899,60.53572,61.096863,61.744907,62.527554,63.289497,63.868748,64.50186,65.03723,65.374756,65.73024,66.314766,67.02835,67.651566,69.02533,70.61307,71.71994,72.18974,72.22632,72.349014,72.4863,72.66232,72.85159,73.084,73.38193,73.65153,73.87256,74.071266,74.183685,74.23264,74.25885,74.23122,74.16769,74.078415,73.817894,73.44766,73.15547,72.36868,71.33938,70.54326,69.66269,69.02214,68.70931,68.555244,68.65732,68.84645,68.82495,68.598434,68.2939,68.0157,67.70708,67.439026,67.20727,66.94162,66.67645,66.44324,66.14934,65.58548,64.867065,64.10182,63.277874,62.621643,62.057476,61.45455,60.956284,60.574173,60.105953,59.616814,59.193398,58.660503,58.037308,57.480553,56.889076,56.21421,55.623726,55.107872,54.491264,53.91488,53.443962,52.89918,52.36131,51.91684,51.420166,50.897102,50.459164,50.007095,49.492847,49.035667,48.628235,48.14906,47.70836,47.35505,46.938263,46.527325,46.19989,45.831863,45.439045,45.11013,44.788185,44.41497,44.078472,43.790638,43.457405,43.14599,42.88906,42.583893,42.27486,42.024715,41.747,41.436985,41.16227,40.889397,40.56183,40.25494,39.985523,39.663246,39.35773,39.11374,38.83154,38.55227,38.332367,38.09726,37.848297,37.641586,37.451656,37.236515,37.043495,36.87953,36.6812,36.483543,36.31799,36.121635,35.918377,35.75441,35.581993,35.395477,35.236744,35.092136,34.922127,34.76346,34.627655,34.464516,34.303062,34.17069,34.0168,33.85746,33.727165,33.586266,33.42199,33.27032,33.12623,32.944763,32.77137,32.630993,32.47042,32.319057,32.199966,32.064938,31.907438,31.757753,31.590794,31.389734,31.207088,31.043457,30.866262,30.719978,30.60989,30.483713,30.360695,30.260185,30.139256,30.003166,29.885992,29.769585,29.639748,29.526894,29.42955
30.392342,30.10524,30.029947,30.101166,30.228256,30.358032,30.377537,30.262291,30.138828,30.078167,30.077278,30.24391,30.869871,31.862432,33.656567,36.685654,39.940353,43.201073,45.88198,47.09146,47.580315,48.18392,48.82525,49.38021,50.017136,50.61323,51.020607,51.34092,51.575554,51.711403,51.82483,51.92164,51.961666,51.951744,51.971664,51.844025,51.52739,50.8031,50.19231,50.1368,50.487717,51.668644,53.02304,53.682693,54.452293,55.122047,55.54138,55.800613,55.88683,55.939995,55.992172,56.030952,56.0635,56.132812,56.249268,56.37133,56.47106,56.59217,56.6926,56.75426,56.79366,56.78768,56.753063,56.660324,56.573772,56.543404,56.51654,56.53205,56.535217,56.43587,56.292713,56.21189,56.244427,56.248848,56.16423,56.011414,55.836773,55.558834,55.293938,55.21521,55.15717,55.053154,54.882156,54.67982,54.401733,54.05188,53.57693,53.03473,52.578266,52.06951,51.543594,51.143017,50.806534,50.48945,50.26535,50.096367,49.95125,49.89241,49.901276,49.967094,50.073997,50.161453,50.23984,50.260414,50.18969,50.03016,49.770157,49.535164,49.39621,49.312317,49.551872,50.086113,51.258087,52.79873,54.05523,55.377487,56.646248,57.421318,57.78372,57.85421,57.50022,56.83409,56.28868,56.22019,56.54917,57.04744,57.65728,58.11257,58.34217,58.67984,59.13272,59.55565,60.144314,60.825577,61.509495,62.205246,62.830246,63.338505,63.917683,64.381454,64.64877,65.01335,65.65315,66.43274,67.108475,68.579575,70.24662,71.36168,71.84916,71.885506,71.98373,72.084015,72.210464,72.3528,72.53073,72.76193,72.9767,73.160614,73.33255,73.44016,73.49759,73.537735,73.5343,73.499306,73.433365,73.294235,73.11841,73.06882,72.2366,70.966194,70.107605,69.23569,68.64526,68.3568,68.21179,68.30168,68.48415,68.59088,68.493484,68.23811,68.00517,67.735565,67.49401,67.28568,67.03544,66.765945,66.51601,66.09338,65.41966,64.698235,63.925976,63.091026,62.417973,61.83837,61.220203,60.713215,60.328514,59.860046,59.37327,58.95263,58.42305,57.80312,57.24922,56.663002,55.998222,55.420517,54.918236,54.320255,53.76475,53.315147,52.784447,52.257828,51.827507,51.342392,50.825195,50.38712,49.93219,49.41289,48.950836,48.538902,48.05587,47.613293,47.259407,46.842148,46.431248,46.10413,45.73548,45.340446,45.008533,44.68319,44.307648,43.969162,43.676323,43.337494,43.02644,42.77739,42.479507,42.180405,41.942223,41.679504,41.38746,41.12805,40.868813,40.552376,40.250404,39.982437,39.65836,39.348316,39.09988,38.8134,38.531654,38.311478,38.07753,37.83154,37.628227,37.441525,37.229904,37.039547,36.87731,36.680687,36.48433,36.319664,36.12381,35.919937,35.754547,35.580406,35.390495,35.227093,35.07676,34.89875,34.731438,34.587532,34.413498,34.24032,34.09813,33.93289,33.763283,33.62658,33.480778,33.31407,33.16298,33.021408,32.843094,32.674286,32.54024,32.39221,32.258575,32.15635,32.0408,31.900387,31.76027,31.600172,31.400278,31.213228,31.043287,30.858948,30.707645,30.59497,30.467113,30.34338,30.24229,30.120281,29.982248,29.86282,29.743887,29.611368,29.496744,29.398468
30.480776,30.15031,30.039803,30.101795,30.216213,30.32806,30.34111,30.248543,30.129265,30.056252,30.046547,30.212051,30.808922,31.717812,33.183968,35.90493,38.830547,40.93623,43.05474,44.544334,45.32952,46.102577,46.72355,47.190582,47.72448,48.229713,48.59084,48.89195,49.110832,49.215492,49.27285,49.30357,49.245842,49.10337,48.74742,48.172695,47.57592,46.5795,45.778248,45.61998,45.80238,46.705616,48.0002,49.260353,50.84577,52.086754,52.70288,52.94365,52.887405,52.877747,52.883514,52.899803,52.9349,53.047516,53.248558,53.46026,53.635605,53.835167,53.98752,54.070312,54.14526,54.197327,54.22799,54.181107,54.13492,54.139668,54.125095,54.245598,54.36575,54.219402,54.14276,54.215866,54.37922,54.319054,53.762947,52.925133,52.089733,51.167,50.544006,50.60864,50.996216,51.40664,51.69207,51.959587,52.098896,52.124092,52.041664,51.802917,51.51036,51.128014,50.668472,50.287926,49.975643,49.685673,49.463043,49.250885,49.056824,48.92905,48.84791,48.842293,48.9295,49.044834,49.178116,49.303684,49.34153,49.26151,49.060608,48.81159,48.59017,48.326653,48.354576,48.73918,49.692184,51.10987,52.384224,53.68541,54.707153,54.967133,54.652767,53.371582,51.60889,50.078457,49.17229,49.625397,50.92156,52.85041,54.98964,56.424397,57.225807,57.752506,58.19158,58.77211,59.539898,60.32478,61.02033,61.757256,62.40938,62.905735,63.48715,63.933266,64.168144,64.52774,65.18581,65.99372,66.69569,68.15276,69.808754,70.970345,71.47573,71.50365,71.58785,71.66703,71.76366,71.87567,72.01733,72.20458,72.38257,72.53901,72.686966,72.78349,72.839874,72.8833,72.89261,72.87558,72.832306,72.74043,72.620605,72.62926,71.76703,70.42209,69.555405,68.751434,68.2407,67.966324,67.81398,67.85799,67.9906,68.14332,68.12439,67.930214,67.771225,67.5681,67.36224,67.173996,66.93555,66.65189,66.36839,65.79027,65.02884,64.373535,63.62562,62.800743,62.126026,61.54223,60.91773,60.40667,60.021763,59.556107,59.07627,58.663994,58.144547,57.53833,56.99884,56.429497,55.788414,55.233406,54.74713,54.17121,53.63845,53.20758,52.687958,52.170456,51.75363,51.277924,50.76406,50.324112,49.864754,49.338516,48.86976,48.451828,47.96282,47.516197,47.15999,46.74083,46.3292,46.002213,45.633667,45.23827,44.905544,44.578682,44.205624,43.87072,43.575676,43.23474,42.926003,42.68396,42.39512,42.108017,41.882027,41.633408,41.357666,41.112095,40.865204,40.55893,40.261433,39.99462,39.668358,39.35319,39.0996,38.80755,38.52163,38.299706,38.06514,37.820152,37.618626,37.433716,37.224113,37.03534,36.874252,36.678864,36.48372,36.320164,36.12525,35.921436,35.75515,35.57904,35.386234,35.219215,35.0633,34.876892,34.700108,34.547195,34.36122,34.175446,34.02289,33.84598,33.666424,33.52398,33.37357,33.203003,33.050095,32.90961,32.73314,32.56726,32.436996,32.29933,32.183067,32.09892,32.00467,31.884247,31.756897,31.608267,31.414375,31.225605,31.0498,30.857521,30.699734,30.583286,30.452768,30.327888,30.226213,30.103176,29.96314,29.841154,29.719206,29.583168,29.465878,29.36593
30.585182,30.215847,30.067265,30.111168,30.209053,30.303518,30.30967,30.22945,30.11258,30.030197,30.010223,30.161987,30.707886,31.520184,32.7592,35.040676,37.500744,39.307465,40.94683,42.01502,42.70439,43.36506,43.863846,44.21984,44.615532,44.971146,45.221546,45.503975,45.716805,45.78759,45.79419,45.776997,45.656425,45.425377,44.78539,43.82206,42.919964,41.573975,40.477303,40.15636,40.229965,41.010918,42.193687,43.4618,44.720814,45.54521,46.052216,46.362442,46.406075,46.357582,46.34632,46.443356,46.654045,47.015133,47.575737,48.11509,48.518898,48.910797,49.175392,49.325813,49.484104,49.6467,49.801247,49.952858,50.19557,50.44393,50.488804,50.569847,50.70868,50.781456,51.149742,51.474453,51.434814,50.99447,49.60856,47.717667,45.77024,43.878906,42.74182,42.484116,43.104027,44.22754,45.305084,46.226883,46.75599,47.079224,47.279823,47.23333,47.045506,46.843483,46.629875,46.471863,46.340652,46.183464,46.02646,45.878235,45.724495,45.609955,45.5388,45.51358,45.55188,45.62229,45.740574,45.946167,46.15586,46.31668,46.424416,46.389915,46.231186,45.970684,45.81964,45.887306,46.20323,46.77465,47.333916,48.029846,47.89952,46.724205,45.141777,42.640327,40.308346,38.85411,38.272232,39.33073,41.290062,44.698696,49.12458,52.71544,55.484604,57.10491,57.588623,58.20149,59.001953,59.792953,60.414345,61.182594,61.9537,62.559296,63.149895,63.58993,63.85049,64.20666,64.86519,65.6796,66.38406,67.80254,69.40252,70.53211,71.02748,71.05853,71.14021,71.21193,71.29465,71.38988,71.50958,71.66482,71.812454,71.94677,72.07483,72.16501,72.226654,72.30012,72.360466,72.390144,72.38526,72.36191,72.23099,71.7807,70.83034,69.77286,68.99204,68.28017,67.8259,67.56076,67.39085,67.376144,67.43915,67.512985,67.50949,67.40222,67.25452,67.0411,66.81855,66.62126,66.36601,66.048645,65.71973,65.199776,64.53318,63.928238,63.221626,62.42469,61.76169,61.18374,60.561317,60.05098,59.668594,59.209328,58.73945,58.33712,57.83356,57.249817,56.732887,56.189415,55.585,55.062187,54.589184,54.036957,53.52574,53.098343,52.595066,52.09665,51.689545,51.220352,50.70688,50.262833,49.796703,49.2609,48.783188,48.357372,47.860233,47.407825,47.048187,46.626297,46.21386,45.887444,45.52002,45.126038,44.79441,44.467575,44.101734,43.776367,43.482742,43.143124,42.836304,42.59616,42.31822,42.048454,41.837597,41.60273,41.341217,41.10784,40.87217,40.57518,40.281647,40.01558,39.68644,39.365093,39.10516,38.80585,38.513847,38.288597,38.051834,37.806286,37.60537,37.421345,37.212788,37.024857,36.864414,36.669765,36.475533,36.313038,36.11917,35.91573,35.748943,35.571346,35.375584,35.204407,35.042618,34.84715,34.66002,34.497246,34.298435,34.09971,33.937065,33.749397,33.561104,33.41365,33.258923,33.084362,32.92824,32.78441,32.606625,32.442104,32.313152,32.183872,32.084766,32.02003,31.95137,31.857065,31.746998,31.610481,31.424591,31.237381,31.057167,30.856989,30.691647,30.570553,30.436642,30.310268,30.207985,30.083992,29.942059,29.81757,29.692608,29.55297,29.432877,29.331112
30.689297,30.293144,30.114101,30.126152,30.202917,30.279133,30.273643,30.184643,30.076195,30.002821,29.974092,30.108227,30.587263,31.28428,32.34209,34.04211,35.81971,37.47626,38.850914,39.56887,40.032448,40.494675,40.810333,40.967422,41.14496,41.30281,41.41693,41.55435,41.639145,41.63427,41.594864,41.530743,41.384003,41.152386,40.611015,39.670837,38.61398,37.33151,36.332577,35.98736,35.949497,36.404175,37.140484,37.959732,38.66181,39.044216,39.311436,39.47725,39.479885,39.40995,39.399063,39.531075,39.796913,40.24082,40.93555,41.635612,42.214928,42.869667,43.40022,43.746292,44.088593,44.45969,44.852684,45.429573,45.938133,46.157337,46.221428,46.279995,46.4113,46.60347,46.989212,47.220413,47.108746,46.28246,44.091248,41.30946,38.73487,36.31528,34.7759,34.237694,34.6668,35.758682,36.90456,38.142097,39.04309,39.54777,39.89839,39.988415,39.94151,39.91208,39.89028,39.881767,39.868187,39.81272,39.722984,39.630898,39.516678,39.415894,39.349052,39.300285,39.272102,39.2641,39.31385,39.48774,39.723625,39.954437,40.18852,40.29337,40.25681,40.10427,39.887367,39.715897,39.59601,39.499508,39.378452,39.257996,38.219765,36.466156,34.730705,32.60598,30.977707,30.126163,29.890615,30.814009,32.38115,35.38844,40.524704,45.95102,51.348957,55.327026,56.788708,57.5965,58.466095,59.281254,59.896473,60.6706,61.438652,62.026398,62.66433,63.295258,63.76755,64.07475,64.64748,65.42413,66.10936,67.388885,68.83621,69.93614,70.40911,70.43008,70.505486,70.57675,70.65729,70.74481,70.84863,71.007706,71.176575,71.32571,71.463776,71.53834,71.56492,71.47687,71.29649,71.133156,71.002975,70.87296,70.66574,70.163895,69.455475,68.7849,68.21088,67.65063,67.250916,66.993195,66.79482,66.7021,66.67418,66.62956,66.54386,66.41722,66.24173,66.00351,65.771484,65.57881,65.337265,65.04297,64.73799,64.30668,63.74327,63.198803,62.552567,61.806686,61.173584,60.61567,60.00995,59.509686,59.132484,58.68302,58.227856,57.840942,57.361473,56.812965,56.33166,55.826572,55.260582,54.76481,54.31185,53.781086,53.288055,52.87445,52.38867,51.90395,51.502556,51.034775,50.51712,50.06662,49.59247,49.046967,48.56137,48.129665,47.62723,47.172314,46.81247,46.391853,45.984344,45.66503,45.306602,44.924145,44.60302,44.287777,43.922226,43.59037,43.299683,42.970078,42.67765,42.450237,42.187027,41.933037,41.736206,41.51893,41.277927,41.061462,40.839317,40.554737,40.268883,40.006844,39.678635,39.354286,39.090088,38.785004,38.487602,38.25927,38.01998,37.772934,37.571564,37.38736,37.178432,36.990112,36.829605,36.635197,36.441803,36.280525,36.08803,35.885185,35.717754,35.538177,35.337997,35.160675,34.991127,34.783768,34.583138,34.407692,34.19269,33.978226,33.803833,33.604263,33.406837,33.25436,33.09481,32.914856,32.753307,32.60337,32.41916,32.25109,32.120956,31.99907,31.919846,31.879723,31.847446,31.79162,31.707321,31.591982,31.422462,31.242231,31.062212,30.854944,30.679756,30.552593,30.414108,30.285755,30.182924,30.058062,29.914211,29.786983,29.658573,29.514645,29.391087,29.286982
30.77975,30.358492,30.155375,30.136822,30.189528,30.247597,30.23146,30.127638,30.026865,29.972952,29.953007,30.079815,30.505486,31.111122,32.04179,33.286423,34.497875,35.937572,37.176582,37.779037,38.073997,38.37288,38.544777,38.56837,38.610123,38.651123,38.677742,38.666134,38.613426,38.54486,38.481857,38.392982,38.25818,38.089928,37.7853,37.11354,36.187374,35.287277,34.634407,34.366974,34.2499,34.359356,34.615273,34.917503,35.21663,35.388508,35.460487,35.440685,35.37302,35.34607,35.380787,35.518723,35.73015,36.06749,36.624878,37.24443,37.825768,38.586422,39.298805,39.81662,40.353653,40.917423,41.471123,42.316345,42.880287,42.917152,42.9677,43.019264,43.118896,43.311954,43.417576,43.34497,43.249207,42.06604,39.37284,36.278027,33.46039,31.078194,29.736553,29.182377,29.264666,29.81969,30.47022,31.470839,32.36304,32.808655,33.114,33.23149,33.26949,33.30751,33.33326,33.34452,33.3428,33.316444,33.26291,33.194134,33.096157,32.995792,32.91961,32.849873,32.782425,32.728172,32.71567,32.79438,32.931694,33.069496,33.22244,33.322693,33.36731,33.32113,33.159405,32.963764,32.797607,32.561424,32.237446,31.742798,30.692402,29.462765,28.486948,27.584461,27.037151,26.732378,26.602062,26.937452,27.612898,29.068005,33.075657,38.6475,45.520668,52.058685,55.59209,57.080574,58.1623,58.925117,59.611362,60.393738,61.091835,61.591354,62.238358,63.020927,63.677956,64.02925,64.55875,65.244934,65.86153,66.87514,68.03032,69.01712,69.5625,69.7103,69.80145,69.889244,69.97688,70.06156,70.16098,70.22989,70.25839,70.30276,70.34747,70.34023,70.28179,70.0208,69.629715,69.310905,69.07759,68.85123,68.63279,68.42265,68.09595,67.71686,67.35643,66.943436,66.58892,66.337585,66.10994,65.94316,65.831696,65.68495,65.47826,65.25919,65.034744,64.76378,64.52286,64.336105,64.11796,63.873207,63.6293,63.26335,62.769337,62.285004,61.70631,61.026703,60.438637,59.913956,59.338036,58.855633,58.486046,58.048065,57.608814,57.238697,56.785934,56.272614,55.82325,55.352184,54.814903,54.336693,53.90338,53.388924,52.90812,52.509537,52.031616,51.546684,51.142975,50.669,50.143154,49.6866,49.207504,48.659317,48.174515,47.745636,47.248436,46.80063,46.448128,46.038822,45.641388,45.32693,44.975456,44.59886,44.28116,43.97235,43.60697,43.275253,42.99804,42.691654,42.4255,42.21978,41.97764,41.741043,41.557076,41.355957,41.1334,40.932472,40.72401,40.454758,40.18184,39.92971,39.610847,39.292313,39.030903,38.72715,38.42977,38.201294,37.96122,37.71286,37.510128,37.324463,37.11343,36.923306,36.7619,36.567085,36.374214,36.213966,36.022797,35.8205,35.652233,35.470306,35.264397,35.0793,34.901287,34.68152,34.467236,34.27935,34.048992,33.82025,33.635662,33.426323,33.22197,33.065857,32.902245,32.71659,32.548306,32.390774,32.195427,32.01833,31.884193,31.766579,31.705402,31.689817,31.697697,31.686802,31.634249,31.547737,31.4017,31.23339,31.059624,30.850128,30.666864,30.533615,30.39038,30.259953,30.15675,30.031368,29.886198,29.756836,29.62554,29.477837,29.351074,29.244724
30.865582,30.40409,30.172161,30.138178,30.16621,30.20544,30.18454,30.082447,29.980484,29.937107,29.946405,30.08035,30.48033,31.036556,31.847757,32.90823,33.897396,34.9488,35.91427,36.4618,36.74962,36.979786,37.103672,37.16865,37.258926,37.32289,37.335327,37.320026,37.265823,37.196236,37.128864,37.040947,36.922764,36.79354,36.42669,35.81573,35.181953,34.548515,34.058327,33.812527,33.65612,33.6363,33.733658,33.88793,34.054344,34.154167,34.186775,34.20572,34.24839,34.32956,34.453022,34.639374,34.842335,35.079422,35.491966,35.984745,36.45079,37.064045,37.684746,38.204514,38.84816,39.489227,39.98873,40.67234,41.114517,41.15366,41.21041,41.229416,41.284595,41.506966,41.559685,41.363598,41.17193,39.589043,36.614323,33.59166,30.237177,27.941061,27.383133,27.002094,27.027895,27.379631,27.798553,28.337059,28.774857,29.003635,29.17961,29.251554,29.259102,29.262762,29.265255,29.268848,29.259779,29.23647,29.195658,29.141663,29.049484,28.945126,28.864006,28.78642,28.726582,28.69283,28.67751,28.715435,28.79267,28.879168,28.96905,29.023705,29.051712,29.010128,28.912006,28.8228,28.744104,28.641485,28.509182,28.320137,27.883362,27.308624,26.730474,26.137754,25.712627,25.410397,25.190002,25.312199,25.729622,26.53562,29.246187,33.545994,40.032837,48.167366,54.12123,56.705116,58.114235,58.68673,59.442387,60.27214,60.99036,61.493984,62.056946,62.70632,63.304646,63.882965,64.52812,65.101845,65.60549,66.290794,67.0666,67.812996,68.57505,69.05769,69.20102,69.322296,69.41876,69.499466,69.60599,69.41193,69.01268,68.74118,68.512436,68.34303,68.18018,67.96677,67.76647,67.64,67.536514,67.44606,67.36486,67.27655,67.105064,66.867676,66.61139,66.28397,65.96712,65.722466,65.4732,65.25134,65.07974,64.8683,64.59535,64.32759,64.06445,63.754616,63.486916,63.28582,63.06105,62.826378,62.602882,62.275776,61.83701,61.404747,60.888084,60.27346,59.73237,59.243843,58.69926,58.23471,57.873474,57.44639,57.020588,56.66415,56.234856,55.745575,55.31153,54.858288,54.34111,53.879253,53.4579,52.958435,52.48819,52.091785,51.610157,51.116684,50.705193,50.22122,49.68672,49.226486,48.746765,48.204205,47.72974,47.312256,46.830135,46.39769,46.058273,45.66853,45.28088,44.960083,44.603214,44.21256,43.877323,43.55381,43.19791,42.896225,42.645355,42.369907,42.13089,41.94496,41.72902,41.516487,41.34712,41.156845,40.94336,40.75126,40.554718,40.30145,40.044044,39.80542,39.501698,39.195686,38.942764,38.646606,38.354313,38.12847,37.889656,37.640823,37.436573,37.24889,37.035038,36.842598,36.680016,36.48452,36.291862,36.1323,35.942123,35.740177,35.57108,35.386917,35.17504,34.981987,34.79629,34.565853,34.340366,34.142593,33.900597,33.66154,33.469814,33.25403,33.045494,32.887314,32.72087,32.53034,32.35562,32.19072,31.98345,31.79582,31.656528,31.540627,31.493385,31.498081,31.54136,31.57257,31.55175,31.494534,31.372347,31.216625,31.051285,30.844112,30.6568,30.518494,30.371216,30.238937,30.135466,30.009834,29.86396,29.733276,29.600037,29.449635,29.320477,29.212393
30.965538,30.454613,30.182438,30.120728,30.124332,30.144434,30.12157,30.035805,29.950668,29.923714,29.95118,30.09161,30.475182,30.993393,31.690565,32.576508,33.387566,34.213318,34.994377,35.466362,35.72016,35.946613,36.11238,36.240673,36.30861,36.314938,36.2958,36.239326,36.145447,36.05328,35.977516,35.880688,35.76367,35.648033,35.3519,34.872982,34.379585,33.88216,33.48116,33.259235,33.099464,33.03166,33.050953,33.10651,33.155632,33.177567,33.188797,33.194157,33.23508,33.318787,33.44065,33.628635,33.83293,34.051193,34.40917,34.82935,35.228485,35.746025,36.297264,36.804165,37.511604,38.19133,38.63033,39.153534,39.486313,39.54591,39.64527,39.6384,39.6532,39.992626,40.042,39.64095,39.172005,36.793694,33.27009,30.432915,27.58654,25.794865,25.436539,25.262068,25.352184,25.568424,25.749245,25.986977,26.193892,26.316921,26.411644,26.44514,26.4375,26.425121,26.413517,26.409718,26.404745,26.394794,26.372284,26.33572,26.274563,26.206808,26.155064,26.113087,26.086145,26.072647,26.06865,26.099083,26.152908,26.205921,26.263618,26.308853,26.346401,26.351645,26.330776,26.314468,26.30122,26.27958,26.245285,26.184517,26.057598,25.88259,25.67596,25.37294,25.03236,24.70042,24.359846,24.2398,24.373274,24.730177,26.239319,29.077974,34.826393,43.843422,51.76558,56.09851,58.143894,58.4171,59.254585,60.1432,60.879845,61.374672,61.908318,62.473938,62.968407,63.467834,64.05142,64.56669,64.98349,65.46359,65.933044,66.35675,66.866104,67.255356,67.418304,67.53874,67.56403,67.52145,67.48538,67.313576,67.0764,66.91078,66.75912,66.63426,66.51536,66.37486,66.255066,66.18532,66.11878,66.07068,66.043144,66.0184,65.94429,65.80969,65.64201,65.397285,65.12627,64.89607,64.63449,64.36689,64.14187,63.870636,63.53292,63.214733,62.910156,62.55699,62.25605,62.032074,61.788834,61.5531,61.342873,61.049103,60.665268,60.28911,59.840622,59.300964,58.817368,58.37503,57.871235,57.43026,57.08032,56.6684,56.255295,55.90509,55.48149,55.008884,54.598446,54.156494,53.652107,53.20411,52.794167,52.302277,51.831104,51.428474,50.9348,50.430397,50.015213,49.53238,49.00666,48.55751,48.09111,47.536903,47.029972,46.585876,46.078934,45.63375,45.29171,44.90116,44.52356,44.221504,43.88589,43.522617,43.21387,42.91586,42.59456,42.328384,42.108627,41.869774,41.663395,41.501854,41.31342,41.124416,40.970078,40.79314,40.592842,40.41341,40.231438,39.999916,39.76669,39.550903,39.275314,38.995487,38.76229,38.485733,38.208664,37.991867,37.75943,37.51345,37.309082,37.119965,36.90338,36.708603,36.545113,36.349125,36.156662,35.997654,35.808403,35.606613,35.436066,35.246655,35.026268,34.8243,34.629173,34.3862,34.148182,33.93964,33.685257,33.435448,33.236355,33.01398,32.801178,32.64081,32.471237,32.27526,32.093445,31.920887,31.69754,31.49947,31.366665,31.266605,31.234596,31.24514,31.319422,31.400248,31.42419,31.406525,31.318415,31.182865,31.031433,30.831482,30.642506,30.499264,30.34791,30.213608,30.109787,29.984165,29.838245,29.706966,29.572433,29.419954,29.28878,29.179111
31.056225,30.50351,30.19142,30.097351,30.07579,30.075474,30.048218,29.974182,29.916012,29.915733,29.954977,30.104702,30.470524,30.94335,31.550453,32.309845,33.002434,33.70353,34.363796,34.76232,34.974964,35.203835,35.395866,35.53183,35.593266,35.58191,35.54486,35.45893,35.33136,35.214985,35.12111,35.0104,34.89477,34.78923,34.573975,34.214977,33.812466,33.387615,33.04036,32.854538,32.719986,32.660683,32.666992,32.690086,32.69364,32.679977,32.677513,32.65797,32.657887,32.695305,32.775333,32.92991,33.11698,33.344894,33.69006,34.070206,34.43354,34.906708,35.430088,35.93813,36.628822,37.27308,37.668827,38.020065,38.23809,38.318497,38.395786,38.381912,38.413265,38.784706,38.85985,38.253204,37.293564,34.25004,30.366344,27.707447,25.76056,24.715263,24.446949,24.429136,24.57162,24.714687,24.77864,24.885511,24.995228,25.063467,25.103752,25.103804,25.085278,25.063467,25.040737,25.026638,25.019573,25.011732,24.997204,24.972809,24.942463,24.916077,24.898787,24.896328,24.90543,24.915754,24.933327,24.973528,25.022545,25.06247,25.108063,25.150843,25.190926,25.225979,25.250847,25.27007,25.29374,25.312685,25.318146,25.301737,25.27024,25.23248,25.197979,25.063873,24.836685,24.592855,24.28923,24.052013,23.95452,24.055847,24.74961,26.405209,30.869389,39.58531,48.59224,54.89081,57.972057,58.184105,59.087074,60.03306,60.77644,61.234894,61.72637,62.208862,62.594822,62.953964,63.38859,63.790314,64.11042,64.46445,64.747925,64.93254,65.117966,65.27745,65.396904,65.48105,65.45351,65.34035,65.21611,65.13701,65.1295,65.13235,65.11697,65.07271,65.016754,64.920166,64.81023,64.7307,64.65427,64.60361,64.587814,64.58699,64.562416,64.49214,64.390656,64.21813,63.998905,63.79471,63.542114,63.258812,63.008194,62.70739,62.33587,61.98977,61.660683,61.278088,60.949074,60.700512,60.4299,60.177185,59.963707,59.68318,59.33577,59.004368,58.614765,58.146782,57.723366,57.330803,56.874245,56.463455,56.130466,55.72647,55.314217,54.966137,54.541794,54.07557,53.678577,53.245564,52.75154,52.312634,51.908783,51.416588,50.939415,50.53243,50.023285,49.486008,49.03074,48.4906,47.91151,47.434654,46.9506,46.38528,45.875862,45.436844,44.945225,44.521782,44.19951,43.83133,43.483776,43.21552,42.916405,42.597164,42.329636,42.071335,41.791397,41.55889,41.368576,41.164,40.98845,40.850555,40.687378,40.51926,40.378365,40.214108,40.02746,39.862015,39.69632,39.492004,39.292118,39.1097,38.878113,38.642464,38.444534,38.20574,37.960426,37.76356,37.546852,37.31044,37.109245,36.92064,36.702606,36.50624,36.34254,36.147026,35.95571,35.797943,35.609116,35.405327,35.2307,35.034096,34.803066,34.59024,34.383987,34.127148,33.876022,33.65646,33.389557,33.128944,32.9224,32.693275,32.47577,32.31272,32.14,31.939903,31.7533,31.574846,31.346024,31.1322,30.965576,30.821068,30.803234,30.898403,31.028435,31.16269,31.238297,31.266907,31.222162,31.115637,30.983059,30.799286,30.616554,30.470192,30.316257,30.180725,30.077042,29.952381,29.808033,29.677963,29.544006,29.391354,29.259441,29.148975
31.10455,30.533482,30.196598,30.077385,30.033783,30.014982,29.980038,29.903936,29.865814,29.89156,29.940443,30.096725,30.438934,30.86216,31.409744,32.0849,32.68895,33.29064,33.856247,34.198856,34.382927,34.581413,34.730057,34.808594,34.90139,34.939922,34.906742,34.82379,34.69316,34.567963,34.45515,34.32994,34.21588,34.12279,33.923763,33.626663,33.330788,32.98995,32.707985,32.56574,32.459476,32.40866,32.40902,32.426018,32.436626,32.42799,32.407875,32.3789,32.3644,32.375473,32.431564,32.55076,32.700974,32.916977,33.2415,33.59421,33.939983,34.40553,34.93889,35.473663,36.10347,36.666397,37.034847,37.25889,37.37954,37.444786,37.423473,37.42537,37.526802,37.801353,37.859356,37.033424,35.444885,32.194733,28.471474,26.037592,24.641174,24.155678,24.13493,24.167038,24.270702,24.372461,24.448343,24.528465,24.581493,24.602573,24.603401,24.580904,24.5539,24.525192,24.495514,24.473358,24.455761,24.436642,24.417686,24.39729,24.377548,24.365707,24.361,24.369396,24.393915,24.422726,24.456219,24.501026,24.544365,24.583282,24.62334,24.655823,24.683743,24.710407,24.735512,24.760403,24.789864,24.81601,24.83019,24.836857,24.820509,24.782618,24.73334,24.665897,24.600157,24.554049,24.435722,24.239628,24.039654,23.993515,24.355394,25.46403,28.521912,36.17602,45.403404,53.098347,57.397297,58.0375,58.92459,59.898994,60.64167,61.04399,61.45902,61.852486,62.172493,62.505737,62.83142,63.074295,63.288414,63.538708,63.738617,63.8542,63.95823,64.030075,64.074455,64.11232,64.089485,64.01466,63.93364,63.840958,63.777695,63.755688,63.723824,63.6711,63.6063,63.49918,63.37861,63.29074,63.204823,63.152042,63.145325,63.161514,63.171303,63.145874,63.09104,62.97371,62.801266,62.6279,62.40171,62.13337,61.888283,61.59326,61.227165,60.884727,60.557365,60.1712,59.831448,59.568054,59.27477,58.999893,58.77234,58.48636,58.150745,57.84268,57.48919,57.071835,56.695335,56.34296,55.92606,55.54123,55.223145,54.817085,54.396477,54.05002,53.629612,53.165806,52.76907,52.346275,51.863487,51.428734,51.02295,50.52282,50.031937,49.610466,49.07077,48.47764,47.956303,47.32117,46.648567,46.117916,45.595436,45.039642,44.58221,44.19874,43.778786,43.420143,43.143963,42.826767,42.522312,42.28249,42.01284,41.722107,41.477425,41.242287,40.98754,40.776894,40.60654,40.42585,40.272003,40.15052,40.005203,39.851875,39.720284,39.56466,39.387604,39.232883,39.080765,38.90141,38.73424,38.58593,38.40172,38.21625,38.059982,37.866432,37.660294,37.488983,37.293564,37.071587,36.876694,36.69107,36.474007,36.277733,36.11477,35.920773,35.73146,35.57551,35.386642,35.17916,34.99872,34.79533,34.554054,34.330223,34.113457,33.844208,33.581818,33.35287,33.075356,32.805225,32.591553,32.3559,32.133797,31.968372,31.793644,31.592197,31.404404,31.22468,30.996092,30.750935,30.500664,30.271004,30.27246,30.496998,30.71838,30.916725,31.031668,31.101917,31.099455,31.023705,30.910873,30.747503,30.576874,30.431705,30.278154,30.1427,30.039871,29.917118,29.775743,29.648472,29.51694,29.36621,29.235193,29.125116
31.113176,30.537485,30.185701,30.045525,29.982712,29.947056,29.90575,29.832535,29.800182,29.835197,29.89596,30.039593,30.359581,30.766401,31.258976,31.846952,32.361736,32.86251,33.32344,33.61136,33.80081,33.991035,34.124847,34.197327,34.268578,34.28917,34.255318,34.18155,34.068817,33.957752,33.852257,33.701794,33.5457,33.42229,33.243492,33.023712,32.815796,32.575897,32.377502,32.27688,32.203125,32.169193,32.17086,32.18374,32.190506,32.180748,32.16098,32.13023,32.108818,32.109543,32.147903,32.24186,32.368393,32.56181,32.86176,33.199703,33.551212,34.000595,34.51425,35.05945,35.64946,36.113853,36.374054,36.54895,36.59909,36.566597,36.468773,36.512497,36.69462,36.923367,36.88896,35.534454,32.82714,29.358383,26.39349,24.92171,23.981194,23.701292,23.782572,23.831966,23.942303,24.056011,24.130108,24.179026,24.191141,24.191113,24.167469,24.125721,24.088848,24.051825,24.017176,23.993376,23.97555,23.954124,23.932606,23.912878,23.894634,23.88533,23.883545,23.897896,23.930546,23.966343,24.00595,24.05575,24.102497,24.145214,24.189758,24.226534,24.258282,24.291008,24.32344,24.354795,24.384705,24.40879,24.424202,24.441175,24.448421,24.441418,24.425592,24.412016,24.397045,24.375973,24.297626,24.202827,24.148273,24.072208,24.207455,24.851984,26.285824,32.634193,41.862305,50.35851,56.213833,57.961605,58.655922,59.63566,60.406662,60.718765,61.061314,61.375076,61.620922,61.875984,62.15087,62.353653,62.466015,62.600216,62.710815,62.769863,62.810184,62.82744,62.835342,62.837444,62.762794,62.630966,62.50016,62.37053,62.29213,62.260426,62.22453,62.173866,62.112152,62.009666,61.89126,61.80137,61.71027,61.65388,61.649384,61.672073,61.70167,61.70766,61.68844,61.617573,61.49022,61.350986,61.161324,60.92575,60.704693,60.436905,60.100357,59.781223,59.471985,59.100407,58.763996,58.494225,58.184727,57.88933,57.646175,57.348274,57.013443,56.718147,56.389698,56.0118,55.675316,55.36334,54.978157,54.603302,54.28238,53.875256,53.45337,53.103867,52.687664,52.234432,51.849052,51.44023,50.97207,50.542274,50.128147,49.609177,49.062473,48.540924,47.87784,47.189064,46.628044,45.977264,45.315094,44.80449,44.310947,43.801662,43.39421,43.05629,42.68802,42.375015,42.135483,41.856697,41.58412,41.36589,41.116234,40.84166,40.608017,40.38385,40.144447,39.95151,39.799374,39.644283,39.51303,39.40399,39.27199,39.129387,39.004562,38.854935,38.683945,38.536114,38.39347,38.23479,38.09801,37.98342,37.849953,37.721943,37.615406,37.469917,37.303726,37.160355,36.989464,36.78572,36.600166,36.419975,36.206985,36.01328,35.85199,35.659676,35.4719,35.31735,35.12865,34.918083,34.732216,34.52119,34.26886,34.03396,33.80679,33.525642,33.252857,33.015488,32.729053,32.450283,32.228806,31.985321,31.758102,31.591345,31.417149,31.217136,31.030924,30.861778,30.60786,30.277807,29.890352,29.666588,29.727394,29.937954,30.334656,30.680138,30.794247,30.904865,30.94782,30.905005,30.816814,30.673477,30.514961,30.37968,30.23014,30.094915,29.993614,29.873562,29.736229,29.612926,29.485191,29.338085,29.209463,29.101006
31.026205,30.477299,30.12782,29.975288,29.899632,29.8522,29.808643,29.744827,29.711231,29.74067,29.803837,29.94701,30.245956,30.61184,31.03542,31.518198,31.923223,32.304276,32.645164,32.859543,33.01626,33.178143,33.303535,33.385727,33.451904,33.47193,33.44901,33.37773,33.251953,33.119694,32.99881,32.837097,32.682148,32.566406,32.43664,32.305946,32.188637,32.054077,31.940521,31.879383,31.836826,31.819523,31.823553,31.833763,31.83889,31.83189,31.818256,31.79195,31.771244,31.77003,31.799553,31.879253,31.992264,32.169884,32.45215,32.776737,33.119583,33.56092,34.067497,34.608276,35.168106,35.536484,35.663116,35.744377,35.734207,35.6715,35.54426,35.63144,35.85972,36.055504,35.662075,33.67334,30.292873,26.927221,24.731497,24.004074,23.498547,23.406979,23.522366,23.588352,23.6694,23.734592,23.776056,23.798256,23.797832,23.793669,23.771484,23.735748,23.704048,23.671665,23.639957,23.616583,23.596561,23.578339,23.564362,23.550488,23.535519,23.525888,23.52265,23.533157,23.561935,23.597006,23.643944,23.702774,23.753225,23.793535,23.835594,23.8708,23.900234,23.93008,23.956867,23.980122,24.001507,24.019024,24.031187,24.042622,24.050709,24.05514,24.058662,24.078974,24.105581,24.121082,24.127262,24.12344,24.118214,24.07022,24.165997,24.566017,24.877089,29.56703,37.920757,47.188225,54.852737,57.870834,58.14465,58.954044,59.77605,60.181458,60.459465,60.643112,60.794273,60.94969,61.136375,61.276352,61.320984,61.351475,61.368546,61.38166,61.3639,61.32485,61.290264,61.240902,61.094498,60.895325,60.725826,60.571045,60.482265,60.445053,60.410954,60.371178,60.32351,60.237385,60.12956,60.040962,59.947968,59.885223,59.87397,59.89039,59.92246,59.94359,59.94579,59.91072,59.826927,59.7263,59.58611,59.405533,59.23125,59.016724,58.740173,58.470757,58.20328,57.870644,57.555763,57.292423,56.978146,56.668,56.410378,56.097767,55.7574,55.468346,55.156044,54.80432,54.49051,54.189964,53.816444,53.450035,53.13178,52.73384,52.32272,51.97927,51.575302,51.141205,50.77163,50.356983,49.879356,49.434784,48.982933,48.397274,47.77967,47.20655,46.48397,45.75717,45.189896,44.559853,43.9397,43.468967,43.019737,42.562622,42.200645,41.901527,41.575188,41.296665,41.0828,40.829666,40.576416,40.36981,40.12935,39.861,39.63125,39.410713,39.17682,38.991035,38.846985,38.702698,38.5836,38.486286,38.36728,38.23507,38.115944,37.970993,37.804585,37.662544,37.528633,37.390392,37.284107,37.203163,37.11908,37.047504,36.991142,36.906876,36.798088,36.69291,36.5548,36.377106,36.207706,36.039597,35.834812,35.6452,35.488087,35.30074,35.116898,34.964462,34.775707,34.56084,34.36823,34.14808,33.88318,33.63618,33.397938,33.104343,32.822163,32.579845,32.28731,31.997025,31.759445,31.5078,31.28019,31.11602,30.942772,30.742554,30.551022,30.376427,30.042084,29.626251,29.238754,29.04587,29.143963,29.368755,29.820599,30.264343,30.472992,30.635777,30.72541,30.72305,30.667994,30.55245,30.411331,30.290102,30.150997,30.020538,29.921227,29.805431,29.674576,29.5579,29.436966,29.297142,29.174187,29.07013
30.822063,30.331512,30.005867,29.856613,29.780712,29.732773,29.693943,29.643208,29.611376,29.633066,29.690783,29.836483,30.109272,30.416077,30.76881,31.152798,31.456673,31.72992,31.967346,32.110725,32.209404,32.326374,32.43497,32.516945,32.586327,32.61783,32.607773,32.538773,32.401516,32.25381,32.12339,31.97938,31.866024,31.790052,31.715595,31.651865,31.598389,31.535316,31.478401,31.44403,31.421238,31.413666,31.4188,31.4275,31.434689,31.433971,31.427124,31.408081,31.394539,31.399633,31.434965,31.517912,31.630966,31.80717,32.08497,32.399498,32.719036,33.161842,33.673424,34.1886,34.722702,35.026035,35.05345,35.047634,35.008385,34.977097,34.896965,34.99694,35.156853,35.289474,34.15846,31.481049,28.228683,25.44389,23.89264,23.427244,23.210754,23.262016,23.358562,23.421806,23.461283,23.472486,23.48637,23.497643,23.498741,23.491388,23.479416,23.459576,23.437813,23.414358,23.38929,23.36906,23.34906,23.336552,23.332077,23.324978,23.314997,23.30661,23.302559,23.3068,23.326149,23.354301,23.399246,23.456554,23.503216,23.53656,23.570602,23.598305,23.619904,23.640306,23.655863,23.667503,23.682652,23.697842,23.707668,23.709385,23.708183,23.711033,23.719948,23.749866,23.796593,23.843224,23.918165,23.95866,23.936047,23.923012,24.065094,24.415123,24.503387,27.5192,34.074898,43.722008,53.02056,57.380753,57.377556,58.010307,58.83809,59.382023,59.659607,59.751842,59.802914,59.871574,59.955654,60.013313,60.02015,59.984,59.932938,59.91021,59.852757,59.77552,59.708008,59.599724,59.39447,59.165283,58.98838,58.830025,58.73797,58.701195,58.67256,58.64524,58.61332,58.54828,58.458935,58.379665,58.29389,58.231014,58.213226,58.220634,58.24264,58.259766,58.264565,58.244354,58.1886,58.118347,58.023407,57.900517,57.779392,57.626587,57.421597,57.21352,57.000107,56.722496,56.445694,56.204308,55.9043,55.593994,55.32827,55.00357,54.653076,54.360657,54.04526,53.693123,53.379147,53.070923,52.697594,52.34092,52.03292,51.650436,51.256565,50.92697,50.5343,50.10924,49.742844,49.310463,48.801414,48.3238,47.837044,47.200794,46.555374,45.999836,45.30533,44.610943,44.069176,43.476475,42.899696,42.464375,42.050236,41.628487,41.293114,41.01514,40.710384,40.447014,40.24148,39.99529,39.74478,39.53774,39.294792,39.02365,38.79251,38.570328,38.33351,38.144257,37.997154,37.847855,37.72715,37.634514,37.521065,37.39331,37.27607,37.13265,36.96788,36.82869,36.700138,36.574547,36.48761,36.42908,36.377266,36.343143,36.321022,36.28769,36.231735,36.162613,36.057327,35.90779,35.757233,35.604065,35.41158,35.23011,35.08043,34.90139,34.723564,34.5739,34.385452,34.1668,33.968395,33.740463,33.465603,33.209763,32.96374,32.66435,32.37336,32.11306,31.799023,31.489487,31.238583,30.982622,30.761173,30.606281,30.440708,30.24334,30.04171,29.838886,29.442005,29.016785,28.743038,28.578,28.669125,28.92672,29.314907,29.780941,30.128365,30.338715,30.465895,30.501293,30.47874,30.394526,30.27504,30.167976,30.043385,29.922558,29.827303,29.717388,29.594585,29.486269,29.374252,29.244549,29.130125,29.033192
30.567707,30.14407,29.85162,29.715054,29.646673,29.605623,29.575132,29.534925,29.515015,29.542118,29.59737,29.72675,29.961273,30.22118,30.514032,30.821861,31.05336,31.248127,31.410494,31.50439,31.568031,31.644882,31.717373,31.772297,31.819145,31.838856,31.828535,31.774641,31.679512,31.581703,31.489117,31.380945,31.294193,31.239388,31.192642,31.160137,31.13506,31.10647,31.079985,31.0625,31.050758,31.048515,31.054773,31.063614,31.074986,31.08099,31.078968,31.065239,31.059784,31.075256,31.125847,31.22179,31.34008,31.520258,31.799656,32.10937,32.41079,32.85528,33.363728,33.839348,34.341476,34.6023,34.57611,34.567657,34.53074,34.49553,34.505257,34.584457,34.57711,34.61831,32.504993,29.003689,26.142572,24.215435,23.424767,23.133018,23.049335,23.129795,23.199436,23.216263,23.250416,23.299255,23.338959,23.359009,23.346752,23.319443,23.298023,23.27417,23.247484,23.220438,23.197058,23.183205,23.171898,23.16328,23.157509,23.150696,23.143051,23.138313,23.137314,23.143143,23.15898,23.178675,23.20358,23.238403,23.272516,23.303032,23.334005,23.357466,23.375397,23.391659,23.405857,23.419601,23.441477,23.462568,23.47353,23.476099,23.479664,23.490433,23.509617,23.536852,23.56252,23.579014,23.614864,23.687191,23.776794,23.764069,23.851469,24.139154,24.374,25.81799,30.238018,39.790947,50.537727,56.454033,56.494446,57.14656,57.92068,58.397545,58.752815,58.872253,58.82937,58.838005,58.857765,58.85891,58.813606,58.73211,58.64794,58.592697,58.519554,58.438393,58.363182,58.201485,57.961643,57.742165,57.562862,57.40091,57.30616,57.267647,57.238533,57.213715,57.186005,57.135345,57.067192,57.005775,56.936638,56.885384,56.871437,56.880344,56.894108,56.899307,56.89821,56.87909,56.836124,56.784355,56.720467,56.64147,56.563408,56.46245,56.318966,56.164814,56.000843,55.77794,55.5443,55.332207,55.058533,54.75836,54.48831,54.153816,53.790314,53.486893,53.15053,52.77717,52.455276,52.155304,51.794403,51.448776,51.149895,50.778603,50.39776,50.08081,49.688385,49.24979,48.8667,48.428383,47.888363,47.374733,46.89164,46.285446,45.67598,45.13736,44.471798,43.811703,43.29789,42.735664,42.189552,41.77813,41.38628,40.985245,40.664032,40.396637,40.101433,39.84319,39.639107,39.392723,39.139305,38.928246,38.67958,38.40422,38.17198,37.948647,37.708084,37.51306,37.360184,37.20511,37.079567,36.982574,36.864555,36.733135,36.613758,36.46903,36.30338,36.164223,36.03834,35.918144,35.839916,35.793568,35.75944,35.74582,35.742405,35.735962,35.71051,35.666183,35.58808,35.46354,35.328983,35.187492,35.009155,34.840744,34.700363,34.530396,34.358463,34.211594,34.024246,33.803635,33.601578,33.368195,33.08701,32.826485,32.576244,32.281815,31.982006,31.676662,31.310627,30.970829,30.719784,30.465382,30.254631,30.114887,29.967825,29.780754,29.570774,29.329311,28.958113,28.611525,28.403072,28.250675,28.317648,28.56188,28.91908,29.405045,29.822021,30.062168,30.218407,30.283249,30.28574,30.230564,30.133804,30.03926,29.928215,29.818203,29.72972,29.62651,29.511665,29.411594,29.308512,29.189186,29.08385,28.994827
30.169449,29.82983,29.588388,29.477734,29.428265,29.40605,29.393747,29.372349,29.37099,29.406511,29.460245,29.573565,29.767097,29.975483,30.204283,30.43489,30.598843,30.72909,30.829609,30.88208,30.917921,30.965012,31.01352,31.052471,31.08962,31.110912,31.110353,31.078835,31.015461,30.946224,30.879293,30.799389,30.737549,30.703867,30.684631,30.681957,30.68275,30.684357,30.683254,30.679066,30.676012,30.679264,30.68938,30.70221,30.723652,30.741522,30.746597,30.74392,30.750914,30.776382,30.83933,30.953701,31.089802,31.277,31.556723,31.862179,32.15429,32.612217,33.128944,33.579185,33.99395,34.17562,34.137966,34.12954,34.077606,34.020927,34.10276,34.223427,33.994408,33.41506,30.16815,26.284327,24.523884,23.344852,22.967064,22.912292,22.910894,22.961239,23.000013,23.057129,23.139036,23.207539,23.243385,23.252552,23.228456,23.194202,23.156746,23.122227,23.097937,23.073689,23.051846,23.036743,23.023996,23.010921,22.99932,22.98789,22.976292,22.969326,22.967209,22.971624,22.984993,23.001314,23.020094,23.048424,23.078571,23.106634,23.135315,23.154957,23.166733,23.170238,23.173521,23.184967,23.196959,23.208488,23.217434,23.227629,23.24527,23.268185,23.29466,23.330273,23.355717,23.359348,23.364899,23.404652,23.478024,23.545122,23.640854,23.804008,24.11739,24.644089,27.154785,33.955757,44.989803,53.744938,55.990036,56.704216,56.658688,57.31494,57.681118,57.741547,57.624123,57.555298,57.482506,57.404594,57.296947,57.155994,57.04221,56.98693,56.920193,56.842266,56.75875,56.556725,56.301826,56.10833,55.942986,55.79344,55.70675,55.67341,55.650566,55.634262,55.616535,55.584774,55.53508,55.482777,55.422237,55.374214,55.357033,55.35743,55.36435,55.368378,55.36766,55.3554,55.328285,55.295807,55.261337,55.221703,55.18187,55.129288,55.047394,54.94986,54.835785,54.67202,54.4896,54.31494,54.075813,53.79631,53.53512,53.2007,52.824986,52.505966,52.157494,51.774418,51.44811,51.147926,50.791794,50.45487,50.166237,49.79828,49.41251,49.08864,48.696716,48.23683,47.814896,47.36294,46.82636,46.32972,45.871967,45.30365,44.73419,44.22911,43.606155,42.987713,42.504726,41.97519,41.45941,41.069866,40.698486,40.316025,40.006863,39.747757,39.45922,39.203648,38.999443,38.75186,38.496067,38.2826,38.034916,37.749035,37.49575,37.24874,37.0074,36.83483,36.704605,36.554413,36.418716,36.31578,36.190845,36.053192,35.92965,35.78128,35.613068,35.46843,35.324387,35.165245,35.051,34.990864,34.974552,35.009117,35.057133,35.06622,35.046413,35.0223,34.965996,34.865646,34.750965,34.62706,34.468727,34.317314,34.189575,34.032192,33.86884,33.72644,33.541428,33.320488,33.11728,32.882927,32.603035,32.346844,32.112835,31.783836,31.431267,31.119583,30.76233,30.443989,30.212822,29.931805,29.685719,29.53809,29.39716,29.228306,29.039253,28.81405,28.490915,28.203625,28.034824,27.908295,27.961226,28.163532,28.497303,28.979809,29.410511,29.69144,29.890152,29.983025,30.0167,29.99713,29.92863,29.852074,29.758278,29.662083,29.58395,29.490566,29.386604,29.297268,29.205872,29.100475,29.007854,28.930235
