8.855865,8.851806,8.847828,8.843967,8.839848,8.837491,8.836827,8.836374,8.836533,8.837025,8.838338,8.839601,8.840545,8.84087,8.840773,8.840843,8.840398,8.839446,8.837574,8.835125,8.832564,8.830236,8.828292,8.826693,8.8256855,8.824686,8.823749,8.8230095,8.822535,8.822171,8.821615,8.820854,8.819653,8.818266,8.816774,8.815208,8.813647,8.812107,8.810629,8.80904,8.807469,8.805868,8.804067,8.802057,8.800026,8.798046,8.796074,8.793983,8.791868,8.789801,8.787849,8.786118,8.784593,8.78317,8.781698,8.780072,8.778288,8.776364,8.774333,8.772291,8.770202,8.768089,8.765952,8.763744,8.761528,8.759424,8.757504,8.755825,8.754282,8.7529125,8.751816,8.751031,8.7505,8.7501545,8.749987,8.749829,8.749597,8.749332,8.748987,8.748131,8.746498,8.744745,8.742714,8.740751,8.738667,8.736676,8.735048,8.733767,8.732777,8.731671,8.730466,8.729023,8.7274685,8.725882,8.724199,8.722421,8.720537,8.718357,8.7156925,8.71285,8.710135,8.707781,8.706026,8.704704,8.703761,8.703161,8.70285,8.702621,8.702367,8.702128,8.701847,8.701584,8.701182,8.700594,8.699857,8.698948,8.697859,8.696686,8.695448,8.694059,8.692664,8.691362,8.690116,8.688816,8.687362,8.685688,8.683539,8.680979,8.678129,8.675154,8.672266,8.669579,8.667105,8.664605,8.662052,8.659395,8.656806,8.654545,8.652765,8.651512,8.650498,8.649445,8.648143,8.646456,8.64445,8.642382,8.640425,8.63846,8.636339,8.633921,8.631245,8.628521,8.6260195,8.623932,8.622217,8.620668,8.619102,8.617406,8.615547,8.613562,8.611599,8.609806,8.608055,8.60631,8.604588,8.602846,8.601057,8.599297,8.597633,8.595961,8.59431,8.59269,8.591056,8.58938,8.587669,8.58594,8.584201,8.5824375,8.580746,8.579197,8.57778,8.576431,8.5751095,8.573795,8.572386,8.570953,8.569543,8.568133,8.566719,8.565325,8.563921,8.562439,8.560884,8.559228,8.557512,8.555853,8.554317,8.553005,8.551874,8.550901,8.550057,8.549314,8.548668,8.548117,8.547674,8.547276,8.54685,8.546387,8.545851,8.54525,8.544634,8.544004,8.543264,8.542377,8.541385,8.540352,8.539396,8.538581,8.537859,8.537167,8.536526,8.536011,8.535804,8.536055,8.536686,8.537498,8.538393,8.539307,8.540263,8.541293,8.542372,8.54346,8.544515,8.545469,8.546392,8.547398,8.5485115,8.549665,8.550827,8.551929,8.552871,8.553763,8.554624,8.555378,8.555946,8.556297,8.556326,8.555976,8.555584,8.555265,8.555344,8.555969,8.556984,8.5581665,8.5593815,8.560594,8.561941,8.563679,8.565757,8.568001,8.570105,8.571808,8.573193,8.574537,8.576284,8.578243,8.580282,8.582237,8.583906,8.585308,8.5865345,8.587799,8.589186,8.590668,8.592138,8.593521,8.5948105,8.595973,8.5974045,8.599149,8.601155,8.603418,8.6059265,8.6085615,8.611092,8.613768,8.6166115,8.619633,8.622921,8.6265545,8.630463,8.634426,8.638442,8.642396,8.646255,8.649956,8.653612,8.657227,8.660416,8.663464,8.66667,8.670628,8.675274,8.680246,8.685185,8.689751,8.693939,8.698303,8.703051,8.708286
8.817343,8.813143,8.809097,8.805279,8.801279,8.799128,8.798677,8.798375,8.798661,8.799236,8.800639,8.80194,8.802847,8.803045,8.80275,8.802605,8.801917,8.800688,8.79851,8.795727,8.792876,8.790354,8.788303,8.786673,8.7856865,8.784741,8.783888,8.78324,8.782838,8.782513,8.781935,8.781114,8.7798195,8.778349,8.77678,8.775128,8.773452,8.771756,8.77012,8.768427,8.766836,8.765332,8.763717,8.761882,8.759963,8.758032,8.756056,8.753937,8.7518015,8.749733,8.747797,8.746094,8.744608,8.743244,8.741861,8.740368,8.738768,8.737071,8.735281,8.733471,8.731583,8.729666,8.727727,8.725701,8.723663,8.721746,8.719992,8.718464,8.717072,8.715826,8.714832,8.714104,8.713569,8.713186,8.712938,8.71266,8.712332,8.712023,8.711697,8.710926,8.709406,8.70775,8.705809,8.703899,8.701801,8.699762,8.6980915,8.696804,8.695868,8.694866,8.693763,8.692385,8.690825,8.689167,8.687384,8.685504,8.6835375,8.681288,8.678575,8.675709,8.6729965,8.670682,8.669001,8.667761,8.666911,8.666393,8.666157,8.666028,8.665894,8.66577,8.665594,8.665378,8.664953,8.664286,8.66345,8.662485,8.661407,8.660299,8.659126,8.657774,8.656347,8.654926,8.653473,8.651918,8.650225,8.648315,8.645958,8.643228,8.640252,8.637173,8.634185,8.631405,8.62886,8.626338,8.623831,8.621281,8.61885,8.616779,8.6152,8.614162,8.613396,8.612593,8.611505,8.609947,8.607969,8.60585,8.603826,8.601799,8.599617,8.597126,8.594362,8.591543,8.588953,8.586824,8.585114,8.583582,8.582029,8.580305,8.578361,8.576262,8.574188,8.57231,8.570515,8.568766,8.567072,8.565382,8.563654,8.561951,8.560345,8.558742,8.557177,8.55567,8.554173,8.552643,8.551067,8.549479,8.547857,8.546209,8.54463,8.54319,8.541868,8.540597,8.539343,8.538079,8.536708,8.535282,8.533854,8.532402,8.53093,8.5294895,8.528053,8.5265465,8.52499,8.523351,8.521675,8.520079,8.518623,8.517391,8.516322,8.515394,8.514566,8.513824,8.513169,8.512596,8.512125,8.511686,8.511204,8.5106945,8.510145,8.509571,8.509013,8.50845,8.507761,8.506881,8.505839,8.504707,8.5036125,8.502623,8.501709,8.500826,8.499971,8.499246,8.498854,8.498968,8.49952,8.500298,8.5011835,8.5021,8.503062,8.504101,8.505203,8.506334,8.507461,8.508505,8.509535,8.510665,8.511888,8.51313,8.514364,8.5155325,8.516534,8.517471,8.518354,8.5191145,8.519672,8.520014,8.520067,8.519779,8.519463,8.519233,8.519382,8.520042,8.521052,8.522212,8.523405,8.524612,8.525986,8.527744,8.529849,8.532112,8.534212,8.535902,8.537273,8.538603,8.540349,8.542313,8.544356,8.546324,8.548013,8.549438,8.550701,8.5519905,8.553389,8.554861,8.556304,8.557663,8.55892,8.560062,8.561459,8.563147,8.565071,8.567238,8.569658,8.572233,8.5747385,8.577412,8.580248,8.583248,8.586478,8.590021,8.593843,8.597734,8.601699,8.605619,8.609451,8.613127,8.616732,8.620258,8.623316,8.6262045,8.629219,8.632999,8.637493,8.642341,8.647182,8.651684,8.655854,8.660265,8.665137,8.670553
8.778599,8.774281,8.770196,8.766405,8.762524,8.760576,8.760355,8.760245,8.760691,8.761391,8.762947,8.764339,8.765242,8.765303,8.764767,8.76436,8.763383,8.761799,8.759233,8.7560425,8.752834,8.750063,8.7478695,8.746183,8.745197,8.744297,8.743521,8.742966,8.742658,8.742395,8.741812,8.740924,8.739529,8.737971,8.736341,8.734613,8.732813,8.730966,8.729185,8.7274,8.725803,8.724414,8.722994,8.721357,8.71958,8.717724,8.715786,8.713678,8.711561,8.709534,8.707663,8.7060375,8.704624,8.703339,8.702059,8.700722,8.699329,8.697889,8.696394,8.69488,8.693277,8.69166,8.690008,8.688267,8.686515,8.684868,8.683361,8.682054,8.680849,8.67975,8.678841,8.678133,8.677568,8.677125,8.676794,8.676422,8.676029,8.675688,8.675382,8.674681,8.673241,8.671663,8.669794,8.667912,8.665798,8.66371,8.66198,8.660659,8.659744,8.658789,8.657731,8.656372,8.654767,8.653015,8.651146,8.64921,8.647201,8.644946,8.642239,8.639399,8.636738,8.6345005,8.632911,8.631754,8.630982,8.630516,8.630313,8.630209,8.630096,8.62999,8.629827,8.629581,8.629066,8.628266,8.6273,8.62625,8.625169,8.624112,8.622994,8.621668,8.620199,8.6186285,8.616951,8.61515,8.613213,8.611103,8.60859,8.605776,8.602781,8.599724,8.596779,8.594049,8.591576,8.589149,8.586802,8.584464,8.582262,8.580417,8.57906,8.578236,8.577696,8.577118,8.57621,8.574736,8.572727,8.570505,8.568352,8.566222,8.563961,8.561396,8.55855,8.555639,8.552954,8.550753,8.548998,8.547438,8.54586,8.544083,8.542058,8.539869,8.537708,8.53576,8.533913,8.532133,8.530437,8.52877,8.52709,8.525448,8.523901,8.522373,8.520897,8.519485,8.518095,8.516682,8.515228,8.513774,8.5123,8.510826,8.509436,8.508173,8.507011,8.505875,8.504721,8.50354,8.502238,8.500846,8.499416,8.497934,8.496416,8.494917,8.493422,8.491868,8.490268,8.488594,8.486915,8.48535,8.483946,8.482756,8.481718,8.480791,8.479942,8.479151,8.478443,8.4778385,8.477327,8.476851,8.476336,8.47579,8.475223,8.47466,8.474134,8.473598,8.472908,8.472002,8.470885,8.469631,8.468378,8.467203,8.466087,8.464991,8.463919,8.462976,8.4624,8.462384,8.46287,8.4636345,8.464534,8.465463,8.466449,8.467511,8.468636,8.4698105,8.471017,8.472158,8.473307,8.474561,8.4758835,8.477199,8.478485,8.4797,8.480755,8.481754,8.482704,8.483519,8.484119,8.484501,8.484608,8.484384,8.484144,8.483994,8.484212,8.484905,8.485917,8.487064,8.488244,8.489452,8.490839,8.492615,8.494729,8.496981,8.499054,8.500709,8.502052,8.503344,8.505062,8.506991,8.508995,8.510933,8.5126095,8.514023,8.515281,8.516567,8.517944,8.51937,8.520754,8.522057,8.523283,8.524402,8.525791,8.52746,8.52936,8.531505,8.533918,8.536509,8.539055,8.541773,8.544654,8.547663,8.550845,8.554302,8.558029,8.561822,8.565704,8.569562,8.573326,8.576912,8.580406,8.583792,8.586665,8.589367,8.592175,8.595754,8.600084,8.604809,8.609577,8.614064,8.618277,8.62281,8.62789,8.633572
8.738328,8.733848,8.729644,8.725788,8.7219305,8.720103,8.720054,8.72011,8.720716,8.721558,8.723314,8.724842,8.725773,8.7257185,8.724941,8.724264,8.722952,8.720991,8.718025,8.714397,8.710794,8.7077465,8.70538,8.703606,8.7025795,8.701692,8.7009735,8.700506,8.700291,8.700081,8.699476,8.698498,8.696962,8.69528,8.693553,8.691727,8.689793,8.6877775,8.685852,8.683978,8.682384,8.681116,8.6799,8.6784725,8.676859,8.675106,8.673238,8.67119,8.669157,8.667255,8.665531,8.664047,8.66275,8.661567,8.660395,8.65921,8.658028,8.656846,8.655653,8.654449,8.653149,8.651844,8.650507,8.649088,8.647667,8.646349,8.645139,8.644075,8.643076,8.642097,8.641228,8.6404915,8.639858,8.639333,8.63891,8.638456,8.6380005,8.637615,8.637294,8.636612,8.63521,8.633675,8.631854,8.630009,8.62788,8.625755,8.623987,8.622641,8.621742,8.620825,8.619783,8.618404,8.616737,8.6149025,8.612969,8.6110115,8.6090145,8.606799,8.604142,8.601357,8.59877,8.596623,8.595133,8.59407,8.593377,8.592954,8.592741,8.59259,8.592419,8.592241,8.592009,8.591673,8.59103,8.590086,8.588989,8.587866,8.586788,8.5857725,8.584688,8.583357,8.5818,8.580034,8.578098,8.576046,8.573883,8.571599,8.568974,8.566124,8.563164,8.560192,8.557363,8.554751,8.552416,8.550165,8.548033,8.545946,8.544003,8.542397,8.54126,8.540646,8.540331,8.539978,8.539257,8.537867,8.535818,8.533471,8.531157,8.528887,8.526524,8.523888,8.52099,8.518011,8.515241,8.512966,8.511143,8.509527,8.507897,8.50606,8.503966,8.501711,8.499496,8.497503,8.495623,8.493829,8.492124,8.490465,8.488826,8.487253,8.485782,8.4843445,8.482956,8.481626,8.480307,8.478968,8.477613,8.47628,8.4749775,8.473723,8.472586,8.471573,8.470624,8.469654,8.468623,8.467527,8.466287,8.46493,8.463505,8.461998,8.460432,8.458878,8.457321,8.455692,8.454016,8.452284,8.450571,8.449001,8.447632,8.446486,8.445469,8.4445305,8.4436245,8.442749,8.441959,8.441286,8.440729,8.440215,8.439665,8.4390955,8.438513,8.4379425,8.437414,8.436863,8.436155,8.435198,8.433994,8.432629,8.431238,8.429901,8.428613,8.427317,8.426033,8.424885,8.424137,8.424013,8.424456,8.4252205,8.426147,8.427104,8.428123,8.429205,8.430349,8.43157,8.43285,8.43409,8.435352,8.43672,8.438131,8.439493,8.440797,8.44203,8.443117,8.444169,8.445192,8.446089,8.446758,8.447197,8.447351,8.447169,8.44697,8.446876,8.447132,8.447842,8.448849,8.449983,8.451153,8.452367,8.453773,8.455563,8.457668,8.459896,8.461933,8.463543,8.464848,8.466099,8.467775,8.469658,8.471613,8.473517,8.475193,8.476622,8.4779005,8.479204,8.480572,8.4819565,8.483284,8.484537,8.485735,8.486851,8.488251,8.489943,8.491867,8.494032,8.49647,8.499094,8.501694,8.504471,8.507404,8.510433,8.513596,8.516995,8.520654,8.524389,8.528225,8.53204,8.535746,8.539234,8.542601,8.545832,8.548521,8.551054,8.553688,8.557112,8.561323,8.56597,8.570712,8.575243,8.579538,8.584244,8.589565,8.595531
8.698822,8.69407,8.689579,8.685463,8.681419,8.679525,8.679501,8.679621,8.680328,8.681282,8.683226,8.684908,8.685906,8.685769,8.684782,8.683866,8.68226,8.679998,8.676719,8.672737,8.6688,8.66551,8.662978,8.661104,8.659983,8.65904,8.658309,8.65786,8.657669,8.657448,8.656743,8.655594,8.653818,8.65192,8.65003,8.648054,8.645949,8.643759,8.6416645,8.639686,8.638072,8.636906,8.635872,8.634633,8.633183,8.631561,8.629793,8.627881,8.626031,8.624365,8.622911,8.621672,8.620565,8.619527,8.618473,8.617433,8.616425,8.615454,8.614504,8.613549,8.612495,8.611445,8.6103735,8.60924,8.608119,8.607104,8.60618,8.605331,8.60449,8.603571,8.602672,8.601843,8.601088,8.600452,8.599932,8.599388,8.598856,8.598391,8.598,8.597264,8.595831,8.594289,8.59248,8.590645,8.588518,8.58639,8.584621,8.583286,8.582424,8.581558,8.580545,8.579151,8.57744,8.575563,8.573612,8.571692,8.569774,8.567658,8.565102,8.562399,8.559891,8.557835,8.556442,8.555477,8.554856,8.554464,8.55421,8.553953,8.553637,8.553293,8.552904,8.552421,8.551624,8.550543,8.549349,8.548189,8.547134,8.54616,8.545094,8.543711,8.542011,8.540009,8.537793,8.535492,8.533136,8.530716,8.528025,8.525177,8.52228,8.51943,8.516755,8.514301,8.51213,8.510072,8.50817,8.506331,8.504627,8.503232,8.502276,8.501833,8.501718,8.501583,8.501055,8.499773,8.497713,8.495259,8.4928055,8.490397,8.487951,8.485285,8.482384,8.479395,8.476593,8.474265,8.4723835,8.470698,8.469004,8.4671,8.464947,8.462656,8.460424,8.4584255,8.456546,8.454753,8.453052,8.45141,8.44982,8.448326,8.446947,8.445612,8.444315,8.443049,8.441765,8.440451,8.439147,8.437913,8.436768,8.4357395,8.434877,8.434139,8.433418,8.432613,8.431697,8.430664,8.429469,8.428141,8.426712,8.425179,8.423576,8.421974,8.4203615,8.41865,8.416878,8.415063,8.413294,8.411709,8.410358,8.409243,8.408235,8.407261,8.406271,8.405283,8.404373,8.403609,8.403003,8.402456,8.401884,8.4013,8.4007,8.400106,8.399548,8.398951,8.398192,8.397163,8.395882,8.394435,8.392957,8.391523,8.390123,8.388699,8.387262,8.385959,8.385096,8.3849125,8.385351,8.386152,8.387134,8.388136,8.389198,8.390316,8.391489,8.39275,8.394098,8.395429,8.39679,8.398247,8.399717,8.401087,8.402357,8.403553,8.404623,8.405695,8.406766,8.407727,8.408461,8.408937,8.409107,8.408924,8.40872,8.408625,8.408869,8.409555,8.410538,8.411651,8.412815,8.414043,8.415475,8.4172735,8.419369,8.421566,8.423563,8.425133,8.426409,8.427631,8.429272,8.431107,8.433022,8.434915,8.436615,8.438087,8.439434,8.440794,8.442188,8.443573,8.444883,8.446121,8.447333,8.4484825,8.449931,8.451685,8.453667,8.455879,8.458353,8.461008,8.463654,8.466477,8.469458,8.472522,8.475695,8.479091,8.482752,8.486502,8.490368,8.494211,8.497913,8.5013485,8.504615,8.507719,8.510267,8.512683,8.515223,8.518562,8.522718,8.527344,8.532091,8.53668,8.541051,8.545906,8.551426,8.557615
8.662472,8.6573105,8.652388,8.647846,8.643452,8.641344,8.641232,8.641332,8.642061,8.643066,8.645138,8.646938,8.647983,8.647764,8.646593,8.645472,8.643608,8.641108,8.637581,8.633312,8.629106,8.62562,8.622965,8.621024,8.619822,8.618837,8.618095,8.617668,8.617506,8.617258,8.616415,8.615038,8.612942,8.610733,8.608563,8.606306,8.603912,8.601431,8.599064,8.596841,8.595052,8.593812,8.5927725,8.591554,8.5901375,8.588547,8.5868025,8.584964,8.583243,8.581768,8.580547,8.579525,8.578578,8.577642,8.576656,8.5757065,8.574806,8.573957,8.573174,8.572398,8.571548,8.570718,8.569899,8.569059,8.568266,8.567593,8.567001,8.566406,8.565771,8.564945,8.564035,8.563139,8.562288,8.561567,8.560987,8.56039,8.559803,8.559262,8.558782,8.557968,8.556476,8.554916,8.553114,8.551287,8.549185,8.547079,8.545334,8.544035,8.5432205,8.542405,8.54142,8.54001,8.538261,8.5363455,8.534382,8.532506,8.530666,8.528656,8.526196,8.523573,8.521138,8.519163,8.517862,8.516997,8.516453,8.516094,8.515778,8.515371,8.514853,8.514282,8.513682,8.513024,8.512076,8.510897,8.509661,8.50852,8.507529,8.506611,8.505563,8.504129,8.502295,8.50008,8.497635,8.49515,8.492665,8.490166,8.487459,8.484644,8.481821,8.479092,8.476563,8.47426,8.472235,8.470345,8.46863,8.4669895,8.465471,8.464233,8.4634075,8.46308,8.463115,8.463157,8.462803,8.46163,8.459576,8.457032,8.454453,8.451925,8.449422,8.446774,8.443941,8.44104,8.438306,8.436012,8.434139,8.43244,8.430725,8.428793,8.4266205,8.424339,8.422135,8.42017,8.4183235,8.416556,8.414869,8.413245,8.411692,8.410261,8.408955,8.40769,8.406452,8.405207,8.403899,8.402548,8.401237,8.400047,8.399012,8.398174,8.397546,8.397044,8.396515,8.395838,8.395,8.394013,8.392843,8.391531,8.390109,8.388575,8.386963,8.385335,8.383685,8.381908,8.380055,8.378162,8.376346,8.374762,8.373444,8.372357,8.371361,8.370342,8.369255,8.368131,8.367079,8.366201,8.365526,8.364938,8.364343,8.36375,8.363131,8.362506,8.361908,8.361265,8.360455,8.359369,8.358044,8.356569,8.355072,8.353618,8.3521805,8.3507,8.349184,8.34779,8.346861,8.346653,8.3471,8.347929,8.348944,8.349962,8.351015,8.352116,8.353263,8.354503,8.355852,8.357203,8.358597,8.360081,8.361547,8.362867,8.364058,8.365168,8.366177,8.367226,8.368316,8.369322,8.370106,8.37062,8.370798,8.370611,8.370394,8.370285,8.3705,8.371147,8.372089,8.373167,8.374311,8.375542,8.376981,8.378782,8.380863,8.383045,8.385038,8.386623,8.387936,8.389204,8.390876,8.392735,8.394675,8.396622,8.398413,8.4,8.401479,8.4029665,8.404453,8.405907,8.407269,8.408546,8.409813,8.41103,8.412553,8.414378,8.416414,8.418664,8.421158,8.423824,8.426477,8.429312,8.432307,8.435385,8.438564,8.441965,8.445644,8.449421,8.453339,8.45723,8.4609375,8.464323,8.467504,8.470512,8.472981,8.475361,8.477914,8.481289,8.485521,8.490251,8.495121,8.499874,8.504412,8.509486,8.51525,8.521675
8.630917,8.625246,8.619814,8.614782,8.609983,8.607602,8.607334,8.607351,8.608017,8.608976,8.611073,8.61289,8.613907,8.613572,8.612217,8.610906,8.608804,8.606058,8.6022835,8.59774,8.593282,8.589636,8.586912,8.584946,8.583732,8.582785,8.582111,8.5817795,8.581705,8.581461,8.580488,8.578882,8.576427,8.573835,8.571262,8.568571,8.5657215,8.562776,8.559971,8.557307,8.555107,8.553518,8.552187,8.550724,8.549128,8.547384,8.545502,8.54356,8.541782,8.540314,8.539152,8.538196,8.53729,8.536364,8.535356,8.534422,8.53356,8.532766,8.53209,8.531456,8.530789,8.53018,8.529645,8.529156,8.528766,8.5285225,8.528355,8.528116,8.527793,8.527172,8.52636,8.525489,8.5246315,8.523901,8.523337,8.522753,8.522163,8.521587,8.521044,8.520167,8.5186405,8.517088,8.515319,8.513519,8.511445,8.509367,8.507648,8.50639,8.505619,8.5048485,8.50388,8.502445,8.500646,8.498669,8.496656,8.494779,8.492968,8.491009,8.488601,8.486029,8.483651,8.481745,8.48053,8.479765,8.479303,8.478983,8.478603,8.478037,8.477303,8.476503,8.47569,8.474873,8.473815,8.472601,8.471401,8.4703455,8.469466,8.468628,8.467612,8.466163,8.464245,8.46189,8.459302,8.456717,8.454176,8.451651,8.448957,8.446186,8.443422,8.440771,8.438341,8.436138,8.434221,8.432446,8.430849,8.429331,8.427927,8.426786,8.426035,8.425763,8.425884,8.426035,8.425801,8.424718,8.422672,8.420057,8.417372,8.414748,8.412217,8.409639,8.406963,8.404261,8.401716,8.399574,8.397804,8.396187,8.394533,8.392632,8.390488,8.388254,8.386105,8.384188,8.382395,8.380667,8.378996,8.377373,8.375828,8.374422,8.37314,8.371899,8.370666,8.369386,8.367998,8.366552,8.365177,8.363973,8.362989,8.362278,8.361811,8.3614645,8.361052,8.360445,8.35964,8.35868,8.357518,8.35622,8.354826,8.353323,8.35174,8.350131,8.348476,8.346672,8.344776,8.342845,8.341022,8.339473,8.3382225,8.337185,8.336212,8.335159,8.33397,8.3327055,8.331505,8.330494,8.329731,8.329079,8.328447,8.327841,8.327206,8.326555,8.325928,8.32526,8.324427,8.323324,8.322007,8.320561,8.319107,8.317698,8.316289,8.314814,8.313282,8.3118515,8.310887,8.3106575,8.311089,8.31189,8.312869,8.313823,8.314771,8.315739,8.316749,8.317856,8.319088,8.320353,8.321669,8.323082,8.324463,8.325676,8.326746,8.327747,8.328668,8.329664,8.330753,8.331793,8.332627,8.333191,8.333406,8.333243,8.333048,8.332956,8.333168,8.33379,8.33469,8.335718,8.336812,8.338017,8.339438,8.341228,8.3433,8.345491,8.34754,8.349227,8.350669,8.352088,8.353901,8.35589,8.357952,8.360035,8.3619995,8.363783,8.365459,8.367148,8.368801,8.370392,8.371876,8.373256,8.374613,8.375922,8.377516,8.3793955,8.38146,8.383709,8.386181,8.388816,8.39142,8.394215,8.397167,8.400202,8.403342,8.40671,8.410359,8.414124,8.418055,8.4219475,8.425628,8.428945,8.432038,8.434988,8.43745,8.439886,8.442574,8.446119,8.450571,8.455557,8.460707,8.465778,8.470629,8.476056,8.482176,8.488899
8.603914,8.597733,8.591799,8.586275,8.581062,8.578386,8.577945,8.577873,8.578465,8.579346,8.581405,8.583196,8.584124,8.583626,8.582072,8.580572,8.5782585,8.575262,8.571234,8.566433,8.56175,8.557974,8.555222,8.553252,8.552071,8.551202,8.550636,8.5504265,8.550452,8.550215,8.549115,8.547283,8.5444565,8.541441,8.538404,8.535194,8.531795,8.528301,8.524952,8.521732,8.518978,8.516855,8.515034,8.513151,8.511211,8.50919,8.50705,8.504869,8.502892,8.501278,8.500027,8.499012,8.498062,8.497085,8.496006,8.495041,8.494175,8.493398,8.492786,8.492256,8.491739,8.491322,8.491053,8.490908,8.490921,8.491115,8.491383,8.491522,8.491535,8.491175,8.49052,8.489724,8.488913,8.488222,8.487708,8.487179,8.486622,8.486036,8.485449,8.484528,8.482988,8.481456,8.479728,8.477959,8.475904,8.473841,8.472143,8.470924,8.470211,8.469484,8.46854,8.467098,8.465263,8.463232,8.461163,8.459242,8.457428,8.4554825,8.4530945,8.450546,8.448205,8.446357,8.445223,8.44454,8.444149,8.443855,8.4434185,8.442705,8.441771,8.440759,8.439756,8.438822,8.437706,8.436518,8.435411,8.434483,8.433732,8.432983,8.432005,8.430553,8.428581,8.426134,8.423458,8.420814,8.418243,8.415711,8.413032,8.410284,8.407544,8.404931,8.402557,8.400419,8.398575,8.396873,8.395346,8.393896,8.39256,8.391468,8.390743,8.39048,8.390626,8.390817,8.390648,8.389637,8.387619,8.384962,8.382227,8.379547,8.377037,8.374592,8.372139,8.369707,8.367432,8.365503,8.363894,8.362402,8.360842,8.358998,8.356895,8.354713,8.352615,8.350744,8.348995,8.3473,8.345639,8.344013,8.342463,8.341057,8.339773,8.338521,8.337268,8.3359375,8.334455,8.332891,8.331427,8.330177,8.329212,8.328569,8.3281975,8.327928,8.3275585,8.326962,8.326154,8.325184,8.324023,8.322744,8.321384,8.319931,8.318411,8.316866,8.315239,8.313438,8.311535,8.309612,8.307827,8.306345,8.305179,8.304207,8.303263,8.302179,8.300901,8.299508,8.298164,8.29702,8.296161,8.295438,8.29476,8.294128,8.293482,8.292814,8.2921715,8.291496,8.290661,8.289572,8.28829,8.286903,8.28553,8.284206,8.282871,8.281452,8.279958,8.278537,8.277563,8.2773075,8.277693,8.278433,8.279324,8.280149,8.280924,8.281691,8.282484,8.283377,8.28441,8.285511,8.286667,8.28793,8.289176,8.290251,8.291183,8.2920685,8.292894,8.293825,8.294896,8.295952,8.296833,8.297456,8.297727,8.297608,8.297455,8.297401,8.29763,8.298237,8.299097,8.300067,8.3011,8.302264,8.303656,8.305418,8.307486,8.309706,8.311832,8.31367,8.315296,8.316922,8.318939,8.3211,8.323324,8.325584,8.327748,8.329745,8.331651,8.333559,8.335407,8.337177,8.338823,8.340345,8.341831,8.343245,8.344902,8.346809,8.348873,8.35109,8.353502,8.356061,8.358587,8.361296,8.364159,8.367102,8.370159,8.373461,8.377047,8.380777,8.384688,8.388563,8.392202,8.395458,8.398499,8.4014435,8.403973,8.406548,8.409462,8.413256,8.417986,8.4232855,8.428763,8.434177,8.439367,8.445169,8.451644,8.458651
8.578231,8.571604,8.565371,8.559412,8.553767,8.550861,8.550509,8.550764,8.551729,8.552942,8.55533,8.557418,8.558274,8.557432,8.555563,8.553757,8.551119,8.547758,8.543356,8.538221,8.533297,8.529415,8.526667,8.524721,8.523592,8.522827,8.522394,8.522327,8.522487,8.522314,8.521128,8.519102,8.515938,8.512495,8.508965,8.505215,8.501249,8.497191,8.493283,8.489468,8.486095,8.48335,8.480926,8.4785,8.4761095,8.473717,8.471205,8.468667,8.466351,8.464434,8.462928,8.46171,8.460597,8.459471,8.458252,8.457201,8.456282,8.455468,8.454859,8.454376,8.453946,8.453672,8.453624,8.453779,8.454144,8.454718,8.455361,8.455844,8.456166,8.456033,8.455519,8.454792,8.454007,8.453346,8.452862,8.452389,8.451866,8.451281,8.450665,8.449711,8.44817,8.446676,8.444998,8.443275,8.44125,8.439201,8.437518,8.436325,8.435655,8.434963,8.434034,8.43259,8.43073,8.42865,8.426521,8.42455,8.422701,8.42074,8.418354,8.415821,8.413509,8.411711,8.410634,8.410013,8.409664,8.409367,8.40884,8.407944,8.4067745,8.405528,8.404329,8.403263,8.402086,8.4009075,8.39986,8.399011,8.39833,8.397623,8.396662,8.395208,8.39321,8.390716,8.387985,8.385305,8.382725,8.380195,8.377548,8.37484,8.372151,8.369615,8.36735,8.365327,8.363592,8.362003,8.360577,8.359226,8.357985,8.356965,8.356279,8.356022,8.35616,8.356347,8.356194,8.355206,8.353188,8.3505,8.347725,8.345036,8.342579,8.340284,8.3380575,8.335877,8.3338375,8.33209,8.330622,8.329234,8.327755,8.325976,8.323927,8.3217945,8.319744,8.317907,8.316189,8.314521,8.31287,8.311235,8.309672,8.308252,8.306952,8.305695,8.304422,8.30304,8.301476,8.299825,8.298285,8.297005,8.296052,8.295462,8.295146,8.294915,8.294546,8.293922,8.293086,8.292099,8.290934,8.289676,8.288365,8.2869835,8.285548,8.284075,8.282491,8.28071,8.278817,8.276918,8.275187,8.27379,8.272711,8.271797,8.270871,8.2697525,8.268389,8.266872,8.265385,8.264111,8.263149,8.262342,8.2616005,8.260931,8.260265,8.259584,8.258926,8.258243,8.257412,8.256344,8.255109,8.253792,8.252495,8.251251,8.249994,8.248635,8.24719,8.2458,8.244831,8.244556,8.2449,8.245571,8.2463665,8.247058,8.247657,8.248215,8.248782,8.249444,8.250271,8.251186,8.252171,8.253287,8.254407,8.255374,8.256209,8.257005,8.257763,8.258642,8.259691,8.260759,8.261688,8.262373,8.262703,8.262644,8.262543,8.262533,8.262786,8.263382,8.264198,8.265106,8.266069,8.267187,8.268529,8.270256,8.272299,8.274523,8.276714,8.278679,8.280472,8.282279,8.284475,8.286781,8.2891245,8.291512,8.293823,8.295987,8.298079,8.300174,8.302187,8.30412,8.305923,8.307588,8.309193,8.310689,8.312395,8.314306,8.316351,8.318526,8.320881,8.323382,8.325837,8.32846,8.331222,8.33407,8.33704,8.340254,8.343767,8.347445,8.351316,8.3551445,8.358723,8.361902,8.364889,8.367843,8.370462,8.373214,8.376387,8.380467,8.385484,8.391066,8.396824,8.402515,8.407969,8.414069,8.420828,8.428043
8.542355,8.535364,8.528803,8.522568,8.516703,8.513717,8.51348,8.513975,8.515137,8.516399,8.518717,8.520748,8.521898,8.521752,8.520786,8.519981,8.5184,8.516127,8.513011,8.508852,8.504372,8.500531,8.497639,8.495628,8.494424,8.493588,8.493105,8.49311,8.493461,8.493469,8.492343,8.490223,8.486778,8.482939,8.478906,8.47459,8.470066,8.465455,8.460986,8.456551,8.452511,8.449087,8.445976,8.442888,8.439934,8.4370365,8.434015,8.430946,8.4280815,8.425636,8.423653,8.422022,8.420578,8.4191675,8.417714,8.41651,8.415483,8.414579,8.41391,8.413398,8.412987,8.412792,8.412914,8.41332,8.413996,8.414912,8.415882,8.416664,8.417253,8.417318,8.416912,8.416203,8.415382,8.414675,8.414164,8.413698,8.413191,8.412594,8.411951,8.410977,8.409449,8.408011,8.4064045,8.404743,8.402752,8.400713,8.399031,8.3978405,8.397178,8.396492,8.395561,8.394091,8.392179,8.390031,8.387825,8.385778,8.383867,8.381844,8.379432,8.376911,8.374634,8.372885,8.371872,8.371305,8.370988,8.370669,8.370037,8.368938,8.367505,8.365995,8.364571,8.363343,8.362079,8.36088,8.359842,8.359003,8.3583145,8.357585,8.356596,8.355121,8.353107,8.3505945,8.347847,8.345165,8.342596,8.340097,8.337509,8.33487,8.3322735,8.329866,8.327769,8.325938,8.324394,8.323004,8.321768,8.320604,8.31954,8.318671,8.318085,8.317884,8.3180275,8.318186,8.318008,8.317013,8.314978,8.31226,8.309465,8.30677,8.3043785,8.302231,8.300213,8.298254,8.296406,8.294799,8.293434,8.292145,8.290766,8.28908,8.287108,8.285036,8.283031,8.281223,8.279524,8.2778635,8.276208,8.27455,8.272949,8.271491,8.270161,8.268875,8.267578,8.266162,8.264544,8.2628355,8.2612705,8.26,8.2591,8.258581,8.258321,8.258102,8.257703,8.257027,8.256142,8.255121,8.253943,8.2527,8.251442,8.250145,8.2488,8.247409,8.245883,8.24413,8.242263,8.24041,8.238762,8.237478,8.236502,8.235655,8.234745,8.233589,8.232136,8.230495,8.22887,8.227447,8.226355,8.225437,8.224613,8.223888,8.223187,8.222483,8.221809,8.221133,8.220317,8.219294,8.218122,8.216873,8.215644,8.214464,8.213268,8.211964,8.210564,8.209193,8.20821,8.207887,8.208149,8.208723,8.209398,8.209941,8.210352,8.210689,8.211016,8.211439,8.212048,8.212772,8.21359,8.21456,8.215575,8.2164755,8.217262,8.21802,8.218744,8.219595,8.220637,8.221731,8.222712,8.223471,8.223885,8.2239,8.223871,8.223926,8.224209,8.224802,8.225573,8.226405,8.227291,8.228341,8.229618,8.231278,8.233259,8.235441,8.237641,8.239686,8.241598,8.24355,8.24587,8.248264,8.25067,8.253121,8.255529,8.257823,8.260058,8.2623005,8.264452,8.266509,8.268435,8.270209,8.2719,8.273451,8.275162,8.277039,8.279037,8.28117,8.283487,8.28596,8.28837,8.290937,8.293627,8.296392,8.299282,8.302416,8.305849,8.309452,8.313261,8.31702,8.320511,8.323601,8.3265295,8.329506,8.332258,8.335226,8.338711,8.343131,8.348454,8.354313,8.360319,8.366226,8.371894,8.378212,8.385166,8.392495
8.505013,8.4978485,8.490955,8.484419,8.478284,8.475063,8.474625,8.474979,8.47611,8.477254,8.479382,8.481273,8.482498,8.482676,8.482191,8.481935,8.480896,8.479248,8.476733,8.473323,8.469761,8.466867,8.4648485,8.463648,8.463432,8.463946,8.464968,8.465966,8.466717,8.466906,8.465651,8.463318,8.459608,8.455442,8.45103,8.446304,8.441352,8.436298,8.431345,8.426355,8.421705,8.417618,8.413807,8.410021,8.406422,8.402907,8.3992405,8.395487,8.391901,8.388737,8.386076,8.383829,8.381851,8.379938,8.37802,8.376411,8.375028,8.373789,8.372807,8.372034,8.371403,8.371029,8.3710575,8.371443,8.372158,8.37315,8.374191,8.3750515,8.37571,8.375833,8.375435,8.37469,8.373819,8.3730755,8.372557,8.372141,8.371706,8.3711605,8.370545,8.3695965,8.368099,8.366726,8.365187,8.363571,8.361591,8.359528,8.357803,8.356577,8.355894,8.355188,8.354249,8.352764,8.350824,8.348637,8.346394,8.344303,8.342346,8.340291,8.337879,8.335375,8.333118,8.331389,8.330373,8.329779,8.329405,8.328983,8.328184,8.326832,8.325085,8.323285,8.321613,8.320208,8.318838,8.317576,8.316481,8.3155575,8.314758,8.313908,8.312817,8.311274,8.309233,8.306724,8.3040085,8.301382,8.29888,8.296472,8.293989,8.291477,8.289032,8.286814,8.284942,8.283361,8.282062,8.280914,8.2799015,8.278945,8.278071,8.277355,8.276858,8.276685,8.276802,8.276901,8.276666,8.275652,8.273639,8.2709465,8.2682,8.265564,8.263268,8.261274,8.259433,8.257629,8.255884,8.254326,8.252982,8.251712,8.250364,8.248732,8.246819,8.244793,8.24283,8.241058,8.2394085,8.237804,8.23621,8.234608,8.233046,8.231613,8.230317,8.229065,8.227802,8.226407,8.224789,8.223075,8.221523,8.220288,8.219446,8.218992,8.218763,8.218529,8.218084,8.217352,8.216431,8.215403,8.2142315,8.213018,8.211811,8.210585,8.209318,8.207984,8.206491,8.204742,8.202871,8.201031,8.199434,8.198223,8.197304,8.196487,8.195577,8.194382,8.192869,8.191156,8.189447,8.187925,8.186733,8.185722,8.184811,8.184021,8.183273,8.182539,8.181852,8.181178,8.18039,8.179419,8.178318,8.177135,8.175964,8.174843,8.173704,8.172457,8.171113,8.169779,8.168793,8.168423,8.168612,8.169095,8.16967,8.170105,8.1703825,8.170568,8.170727,8.170974,8.17141,8.171977,8.172646,8.173494,8.174433,8.175294,8.176065,8.176811,8.17752,8.178352,8.179377,8.180477,8.181482,8.182288,8.182762,8.182835,8.182854,8.182945,8.183243,8.183809,8.184525,8.185287,8.186107,8.187104,8.188345,8.189965,8.191908,8.194056,8.196247,8.198334,8.20032,8.202353,8.204727,8.207133,8.20952,8.211956,8.214375,8.216719,8.219014,8.2213125,8.223513,8.225626,8.227623,8.229483,8.231253,8.232865,8.234591,8.236457,8.238443,8.240574,8.242901,8.24539,8.247799,8.250345,8.252989,8.255697,8.258524,8.261583,8.264938,8.268478,8.272234,8.2759495,8.2794,8.282467,8.285416,8.288498,8.2914715,8.294738,8.298603,8.303407,8.309019,8.315054,8.321152,8.327071,8.332758,8.339081,8.346005,8.353232
8.472887,8.465948,8.459195,8.452837,8.446827,8.443647,8.443113,8.443228,8.444048,8.4447975,8.446461,8.4478035,8.448328,8.447683,8.446381,8.445362,8.4435425,8.441008,8.437905,8.434601,8.431644,8.429528,8.42836,8.427906,8.428543,8.430128,8.432314,8.434559,8.4366665,8.438309,8.438547,8.4375515,8.434591,8.430805,8.426304,8.421238,8.41603,8.410665,8.405357,8.399979,8.394857,8.390198,8.385736,8.381263,8.376959,8.372738,8.368284,8.363716,8.359282,8.355243,8.351732,8.348681,8.345943,8.343266,8.340571,8.338211,8.336119,8.334218,8.3326235,8.33131,8.330175,8.329309,8.328911,8.328934,8.329346,8.330084,8.330887,8.331551,8.332036,8.332037,8.331556,8.330756,8.329864,8.329134,8.328674,8.328393,8.328119,8.327733,8.327244,8.326382,8.324946,8.32363,8.322145,8.320548,8.318541,8.316404,8.314579,8.313253,8.312494,8.311734,8.310766,8.309275,8.307333,8.305141,8.302898,8.300808,8.298846,8.2968025,8.294424,8.291948,8.28969,8.287911,8.286796,8.286074,8.28554,8.28491,8.283865,8.282206,8.280116,8.27801,8.276089,8.274491,8.272995,8.271622,8.270379,8.269258,8.268223,8.26714,8.26586,8.264191,8.262096,8.259615,8.25699,8.25449,8.252135,8.249897,8.247603,8.245304,8.243097,8.241153,8.23959,8.238327,8.237326,8.236457,8.235691,8.234938,8.23423,8.233635,8.233192,8.233005,8.233053,8.233057,8.23275,8.231739,8.229792,8.227198,8.224567,8.222061,8.2198925,8.218041,8.216325,8.21459,8.212851,8.211241,8.209818,8.208471,8.207071,8.205423,8.203525,8.201529,8.199607,8.197897,8.196344,8.194876,8.193438,8.192001,8.190596,8.189295,8.188119,8.186981,8.185824,8.184506,8.182943,8.181276,8.179764,8.178579,8.177798,8.177385,8.177164,8.176903,8.176416,8.175661,8.174744,8.173746,8.1726265,8.171465,8.170312,8.169136,8.167906,8.166586,8.165077,8.163282,8.161348,8.159449,8.157814,8.156585,8.15564,8.154793,8.153848,8.152621,8.151102,8.1494,8.147699,8.14617,8.144939,8.143881,8.142909,8.142059,8.141268,8.140501,8.139795,8.13913,8.138368,8.137442,8.136393,8.135258,8.134121,8.13303,8.1319275,8.130729,8.129439,8.128153,8.12718,8.126783,8.126917,8.127335,8.127857,8.12825,8.12849,8.1286335,8.128738,8.128915,8.129264,8.129741,8.1303215,8.1311035,8.132005,8.132865,8.133656,8.1344185,8.135135,8.13595,8.13695,8.138027,8.139016,8.139818,8.140303,8.140386,8.140402,8.140484,8.140753,8.141264,8.141909,8.142607,8.143381,8.144362,8.145615,8.14725,8.149208,8.151363,8.153559,8.155667,8.157684,8.159729,8.1620865,8.16442,8.166705,8.169041,8.171382,8.17368,8.175929,8.178169,8.18031,8.182383,8.184385,8.186296,8.188141,8.189833,8.191622,8.193539,8.195581,8.197781,8.200182,8.202737,8.205189,8.20775,8.210377,8.213053,8.215836,8.218836,8.222124,8.225615,8.229332,8.233042,8.236519,8.239653,8.242724,8.24601,8.249285,8.252918,8.2572155,8.262417,8.268272,8.274357,8.280359,8.286084,8.291594,8.297703,8.304381,8.311296
8.445187,8.438763,8.432589,8.426855,8.421359,8.418556,8.418215,8.418253,8.418751,8.419029,8.420105,8.420689,8.420279,8.418579,8.416224,8.414244,8.411488,8.407844,8.403816,8.399806,8.396264,8.393665,8.392122,8.391228,8.391343,8.392319,8.394222,8.39707,8.400591,8.404018,8.406347,8.407414,8.406258,8.404062,8.40082,8.396509,8.39166,8.386576,8.381299,8.375664,8.370176,8.36505,8.360053,8.354994,8.350005,8.345061,8.339746,8.334275,8.328884,8.323841,8.319326,8.315308,8.311619,8.307978,8.304281,8.300924,8.29789,8.295124,8.292754,8.290747,8.288956,8.287433,8.286417,8.285873,8.28578,8.286061,8.286432,8.286734,8.2869005,8.286684,8.286087,8.285252,8.284386,8.283725,8.283395,8.283318,8.283295,8.283161,8.282885,8.282169,8.280819,8.27955,8.278091,8.27648,8.274408,8.272163,8.270199,8.268738,8.267868,8.267039,8.266045,8.264559,8.262641,8.260479,8.258257,8.256182,8.254245,8.252228,8.249889,8.247442,8.245153,8.243265,8.241974,8.241046,8.240269,8.239365,8.238025,8.236038,8.233607,8.231203,8.229042,8.227243,8.225595,8.224056,8.222593,8.221193,8.219852,8.218483,8.216988,8.215179,8.213056,8.210653,8.208187,8.205885,8.203754,8.201753,8.199713,8.197685,8.19578,8.194166,8.192956,8.192038,8.191351,8.190767,8.190235,8.189659,8.189075,8.188553,8.188128,8.187895,8.187849,8.187744,8.187374,8.18639,8.184561,8.182125,8.179658,8.17731,8.17527,8.173537,8.171906,8.170198,8.168433,8.166755,8.165228,8.163789,8.16231,8.160621,8.158717,8.15674,8.15486,8.153225,8.1517935,8.150493,8.1492605,8.148042,8.146849,8.145738,8.144715,8.1437235,8.142691,8.141466,8.1399765,8.138372,8.136914,8.1357765,8.135046,8.134649,8.13442,8.134132,8.133626,8.132891,8.132028,8.131109,8.130081,8.128996,8.127903,8.1267605,8.125528,8.124187,8.122625,8.120751,8.118719,8.116712,8.114975,8.113653,8.112619,8.111695,8.110694,8.109457,8.107981,8.106368,8.10476,8.103296,8.102084,8.101011,8.100006,8.099111,8.098275,8.097477,8.096757,8.096102,8.095362,8.094467,8.093452,8.092339,8.091211,8.090125,8.089041,8.087884,8.086647,8.085413,8.084471,8.084063,8.084156,8.084532,8.0850315,8.085434,8.085709,8.085893,8.086027,8.086206,8.086531,8.086961,8.087496,8.088236,8.089115,8.089981,8.0908,8.091594,8.092323,8.093124,8.094087,8.095112,8.096048,8.096804,8.097258,8.097319,8.097307,8.097351,8.0975685,8.098009,8.098579,8.099219,8.099971,8.100969,8.102268,8.103964,8.105984,8.108183,8.110405,8.112534,8.114562,8.116589,8.118895,8.121138,8.123301,8.125515,8.127754,8.129961,8.1321125,8.134235,8.136257,8.138237,8.140208,8.142159,8.144085,8.145884,8.147783,8.149811,8.151964,8.154276,8.15678,8.159416,8.161922,8.164505,8.167116,8.169756,8.172482,8.175402,8.178602,8.182014,8.185673,8.189369,8.192892,8.196128,8.199355,8.20286,8.206436,8.210412,8.215099,8.220638,8.226646,8.2326765,8.238481,8.243934,8.249228,8.255098,8.261508,8.268088
8.4177475,8.411833,8.4061985,8.400967,8.395859,8.393345,8.39316,8.393209,8.393663,8.393751,8.394531,8.394745,8.393982,8.392046,8.389602,8.387646,8.384953,8.381426,8.3767805,8.371426,8.366444,8.362711,8.360133,8.358092,8.356958,8.356657,8.357867,8.360331,8.36348,8.366693,8.368948,8.3703,8.370552,8.370287,8.369532,8.367435,8.36388,8.360033,8.355558,8.350162,8.344715,8.339516,8.33428,8.328799,8.3232565,8.317671,8.311546,8.3051605,8.298752,8.29262,8.287006,8.281923,8.277215,8.272562,8.267828,8.263441,8.259452,8.255839,8.252722,8.250076,8.247683,8.245543,8.243931,8.242831,8.242221,8.242021,8.24194,8.241856,8.24169,8.241257,8.240569,8.239742,8.238954,8.238419,8.238268,8.238432,8.238712,8.238886,8.238865,8.238318,8.23705,8.2358055,8.234333,8.232666,8.230505,8.228138,8.226043,8.224468,8.223522,8.22266,8.221689,8.220266,8.218422,8.216331,8.214163,8.212113,8.210204,8.208222,8.205921,8.203478,8.201129,8.199102,8.197596,8.196414,8.195349,8.1941395,8.192503,8.190206,8.18746,8.184789,8.182417,8.180429,8.178612,8.176883,8.175174,8.173489,8.17187,8.170259,8.168612,8.1667385,8.164665,8.162418,8.160173,8.158131,8.156258,8.154514,8.152737,8.150984,8.149375,8.148074,8.147182,8.146567,8.146141,8.145777,8.145409,8.144943,8.144421,8.143913,8.143461,8.143154,8.143,8.142794,8.142374,8.141447,8.139778,8.137548,8.135273,8.133087,8.131174,8.129545,8.128002,8.126365,8.124638,8.122968,8.12142,8.119955,8.118443,8.116741,8.114839,8.112867,8.111019,8.109444,8.10811,8.106949,8.105896,8.104874,8.103867,8.102923,8.102039,8.101162,8.100223,8.099063,8.097622,8.096061,8.094641,8.093529,8.092813,8.092409,8.092154,8.091844,8.091347,8.090664,8.0899,8.089106,8.0882015,8.087219,8.086191,8.085074,8.083832,8.082461,8.0808525,8.078905,8.076786,8.074677,8.072833,8.071397,8.070251,8.069235,8.06818,8.066953,8.06556,8.06408,8.062613,8.061254,8.060092,8.059017,8.057978,8.05703,8.056145,8.055321,8.054598,8.053943,8.053225,8.052355,8.051361,8.050253,8.049123,8.04805,8.046993,8.045888,8.0447235,8.04357,8.042679,8.042278,8.042351,8.0427065,8.043196,8.04362,8.043949,8.044203,8.044388,8.044579,8.044877,8.045249,8.045717,8.046382,8.047197,8.048026,8.048832,8.049619,8.050337,8.051109,8.05201,8.052957,8.053813,8.054501,8.054907,8.054941,8.054909,8.054924,8.055098,8.055483,8.055997,8.056601,8.057348,8.05838,8.059748,8.061528,8.063635,8.065905,8.068174,8.070339,8.0723915,8.074426,8.076719,8.078924,8.081044,8.083212,8.085402,8.087559,8.089642,8.091672,8.0935955,8.095507,8.097476,8.099499,8.1015415,8.103491,8.105538,8.107708,8.109989,8.112406,8.114981,8.117654,8.120166,8.122728,8.125273,8.127822,8.130426,8.133192,8.136232,8.139498,8.143039,8.1466675,8.150194,8.153495,8.156828,8.160483,8.16427,8.168466,8.173403,8.179131,8.185164,8.191061,8.196659,8.201906,8.207091,8.212889,8.219217,8.225653
8.38952,8.384254,8.379319,8.374767,8.370218,8.368145,8.368233,8.36836,8.368778,8.368689,8.369143,8.368937,8.367746,8.365472,8.362828,8.360804,8.358092,8.354517,8.349779,8.344292,8.339138,8.335167,8.332286,8.329874,8.328015,8.326594,8.325786,8.325988,8.327318,8.329343,8.331379,8.332735,8.332956,8.332649,8.331755,8.330187,8.32814,8.325727,8.323101,8.319735,8.315815,8.311775,8.306929,8.300995,8.294996,8.2888775,8.282072,8.274824,8.267412,8.260199,8.253487,8.247346,8.241665,8.236079,8.23037,8.22502,8.220167,8.215828,8.212108,8.208986,8.206171,8.203569,8.201487,8.199939,8.198901,8.198288,8.197819,8.1973915,8.196931,8.196308,8.19556,8.194794,8.194141,8.193785,8.193864,8.194292,8.194885,8.195374,8.195608,8.195217,8.194,8.192728,8.191194,8.18944,8.187175,8.184694,8.182486,8.18083,8.179861,8.179026,8.178144,8.176859,8.175163,8.173197,8.17112,8.169132,8.167259,8.165329,8.163059,8.1606045,8.158178,8.155985,8.154238,8.152782,8.151413,8.149897,8.147963,8.145385,8.142384,8.13949,8.136942,8.134796,8.132826,8.130922,8.128992,8.127063,8.125229,8.123472,8.121763,8.119913,8.117964,8.115923,8.113931,8.112155,8.110551,8.109055,8.1075325,8.106049,8.104719,8.103716,8.103117,8.102752,8.102528,8.102325,8.102054,8.101627,8.101106,8.100563,8.100039,8.099631,8.0993595,8.099052,8.0986,8.09775,8.096263,8.094255,8.092188,8.090185,8.088421,8.086928,8.085518,8.084013,8.082409,8.080835,8.079363,8.077942,8.076451,8.074753,8.072851,8.070881,8.069039,8.067497,8.066219,8.065155,8.064237,8.063372,8.062526,8.061722,8.060949,8.060153,8.059273,8.05815,8.056732,8.055185,8.053768,8.05265,8.051911,8.051473,8.051173,8.05084,8.050375,8.049782,8.049144,8.048496,8.04775,8.046898,8.045954,8.044874,8.043638,8.04225,8.040613,8.038627,8.036444,8.034255,8.032302,8.030732,8.029456,8.028339,8.027232,8.026021,8.024736,8.023417,8.022114,8.020886,8.019787,8.018728,8.017658,8.016651,8.01571,8.014849,8.014114,8.013465,8.012758,8.0119,8.0109005,8.009778,8.008639,8.007575,8.006557,8.005518,8.004452,8.003407,8.002603,8.002249,8.002329,8.002679,8.003176,8.003621,8.004007,8.004322,8.004545,8.004732,8.004979,8.005271,8.005641,8.006194,8.006907,8.007649,8.008386,8.009124,8.009798,8.010511,8.01133,8.012173,8.012925,8.013529,8.013879,8.0138855,8.013842,8.013834,8.013988,8.014341,8.014826,8.015423,8.01619,8.01727,8.018714,8.020589,8.0228,8.0251665,8.027515,8.029751,8.031864,8.033946,8.036287,8.038536,8.040697,8.042908,8.045128,8.047295,8.049353,8.051338,8.0532055,8.05509,8.057099,8.059235,8.06144,8.063576,8.06582,8.068161,8.070571,8.07307,8.075664,8.078289,8.080732,8.083187,8.085587,8.087961,8.090356,8.092892,8.095705,8.098759,8.102126,8.10564,8.109122,8.112442,8.115831,8.119567,8.123461,8.127752,8.132793,8.138565,8.144522,8.15024,8.155649,8.160784,8.16597,8.171848,8.1782875,8.184782
8.36054,8.356005,8.351814,8.347954,8.343973,8.342363,8.34276,8.343012,8.343457,8.343237,8.343399,8.342779,8.341166,8.338549,8.335699,8.333603,8.330923,8.32739,8.322618,8.317028,8.311739,8.307594,8.304478,8.301796,8.299576,8.297681,8.296274,8.295859,8.29657,8.297657,8.298037,8.297501,8.295597,8.293938,8.292381,8.290432,8.288088,8.285392,8.282991,8.28042,8.277935,8.275659,8.272778,8.268608,8.263332,8.256682,8.248824,8.240495,8.23204,8.223764,8.216001,8.20892,8.202446,8.196165,8.189785,8.183802,8.1783905,8.173595,8.1695175,8.166119,8.163033,8.160112,8.157661,8.155712,8.154259,8.153212,8.152307,8.151469,8.150606,8.149642,8.148657,8.147747,8.14702,8.146637,8.146725,8.147188,8.147865,8.148461,8.14877,8.148378,8.147081,8.145678,8.144005,8.142107,8.139717,8.137124,8.134813,8.133088,8.132103,8.1313,8.130525,8.129387,8.127851,8.126019,8.12402,8.12206,8.120198,8.118273,8.115999,8.11352,8.111023,8.108686,8.106735,8.105057,8.103434,8.10167,8.099517,8.096746,8.093578,8.090561,8.087915,8.085657,8.083567,8.081511,8.079396,8.077282,8.075306,8.0734825,8.071795,8.07004,8.068261,8.066444,8.06469,8.063136,8.061747,8.060457,8.059139,8.057867,8.056761,8.055994,8.055634,8.05548,8.055425,8.055363,8.055185,8.054817,8.054322,8.053785,8.0532465,8.05279,8.052446,8.052082,8.051634,8.050898,8.049627,8.04789,8.046072,8.044293,8.042723,8.041388,8.040138,8.038815,8.037394,8.035988,8.034662,8.033361,8.031953,8.030303,8.028418,8.026442,8.024586,8.023043,8.021767,8.020725,8.019857,8.019061,8.018289,8.0175495,8.016829,8.016063,8.015204,8.014097,8.012701,8.011195,8.00982,8.008725,8.007991,8.00754,8.007224,8.006895,8.00647,8.005972,8.005465,8.004959,8.004359,8.00363,8.002762,8.001714,8.000486,7.999107,7.9974866,7.995516,7.99335,7.9911513,7.989151,7.987502,7.9861374,7.9849453,7.9838076,7.9826317,7.9814644,7.9803114,7.979169,7.978052,7.976997,7.975919,7.974803,7.973732,7.972737,7.9718533,7.9711227,7.9704905,7.969801,7.9689465,7.967941,7.9667997,7.9656353,7.9645596,7.9635634,7.9625645,7.961578,7.960617,7.959873,7.959532,7.959587,7.959896,7.960375,7.9608226,7.9612494,7.9616165,7.9618764,7.9620657,7.9622793,7.9625196,7.9628215,7.963294,7.9639273,7.964602,7.9652863,7.965975,7.9665956,7.9672446,7.967971,7.968699,7.969334,7.969846,7.9701486,7.9701557,7.9701314,7.9701524,7.970333,7.970705,7.9712048,7.9718304,7.9726477,7.9737835,7.9752874,7.9772177,7.979473,7.9818697,7.9842367,7.986483,7.9886246,7.9907436,7.993147,7.995497,7.9977837,8.000128,8.002478,8.004732,8.006839,8.008827,8.010678,8.012564,8.014614,8.0168495,8.019199,8.0215,8.023903,8.026377,8.028872,8.031395,8.033962,8.03651,8.038856,8.041195,8.043446,8.045649,8.047836,8.050135,8.052705,8.055524,8.058687,8.062031,8.065409,8.068677,8.072033,8.075737,8.079611,8.083851,8.088833,8.094482,8.100229,8.105686,8.110863,8.115864,8.121014,8.126916,8.133392,8.139878
8.33234,8.328587,8.325142,8.321938,8.318476,8.317314,8.318073,8.318535,8.31909,8.318846,8.318787,8.317811,8.315823,8.312907,8.309883,8.307741,8.3051605,8.301758,8.297058,8.291485,8.286179,8.281967,8.278723,8.275892,8.273502,8.271339,8.269613,8.268726,8.268696,8.268671,8.267479,8.265242,8.261559,8.257747,8.253927,8.2498865,8.246054,8.242912,8.239763,8.236537,8.233423,8.23044,8.227775,8.225067,8.221369,8.216637,8.209852,8.2011795,8.191437,8.181736,8.17291,8.165191,8.158304,8.151811,8.145294,8.139244,8.133789,8.128951,8.1248455,8.121406,8.118218,8.115121,8.112376,8.110076,8.108235,8.106739,8.105349,8.104011,8.102599,8.101086,8.099613,8.098286,8.097189,8.096485,8.096306,8.096502,8.096956,8.097382,8.09753,8.096941,8.095404,8.093758,8.091857,8.089775,8.087246,8.084555,8.082179,8.08041,8.079436,8.078703,8.078058,8.077122,8.075802,8.074147,8.072254,8.07033,8.068459,8.066514,8.064217,8.061712,8.059164,8.0567255,8.054633,8.052781,8.0509815,8.049053,8.046764,8.043899,8.040684,8.037644,8.034987,8.032702,8.030546,8.0283985,8.026172,8.023968,8.021978,8.02021,8.01865,8.017086,8.015539,8.013962,8.012413,8.011026,8.009785,8.008631,8.007434,8.006293,8.005328,8.004709,8.004496,8.004478,8.004541,8.004577,8.004478,8.004177,8.003747,8.003263,8.002754,8.0023,8.001944,8.001574,8.001173,8.000584,7.9995737,7.99815,7.9966393,7.995136,7.9938116,7.9926896,7.991653,7.9905596,7.9893937,7.988241,7.987153,7.986059,7.9848127,7.983266,7.9814243,7.9794426,7.977559,7.975977,7.974657,7.9735675,7.972655,7.9718323,7.9710517,7.970315,7.9695816,7.968805,7.9679303,7.966824,7.965466,7.964032,7.9627466,7.9617248,7.9610357,7.960614,7.960307,7.9599943,7.9596214,7.9592094,7.95882,7.9584494,7.957986,7.95737,7.956582,7.9555845,7.9543943,7.9530654,7.951521,7.949659,7.947609,7.945509,7.9435625,7.9419146,7.9405174,7.939295,7.9381475,7.9370236,7.9359665,7.9349575,7.933943,7.9328957,7.931838,7.9307065,7.9295106,7.928359,7.927313,7.9264226,7.925711,7.925107,7.9244394,7.9235954,7.9225836,7.92142,7.920232,7.9191437,7.918154,7.917192,7.9162703,7.9153776,7.914673,7.9143257,7.9143305,7.9145765,7.915013,7.9154444,7.915886,7.916278,7.9165525,7.9167337,7.9169083,7.917103,7.917351,7.9177613,7.9183292,7.9189334,7.9195437,7.920161,7.9207087,7.921273,7.921888,7.9224863,7.9229913,7.92341,7.923683,7.923725,7.923771,7.9238777,7.9241486,7.9246035,7.9251804,7.9258823,7.926775,7.9279747,7.929515,7.9314566,7.933689,7.936035,7.9383426,7.940537,7.9426594,7.9447994,7.947287,7.949808,7.9523287,7.954936,7.9575458,7.9600086,7.9622602,7.9643517,7.9662604,7.9681892,7.9703035,7.9726343,7.9751015,7.977525,7.9800415,7.982582,7.9850836,7.9875503,7.9900074,7.9924183,7.994626,7.9968247,7.998916,8.000935,8.002914,8.004974,8.007292,8.009869,8.012812,8.015955,8.0191765,8.02232,8.025547,8.029102,8.032799,8.036809,8.041512,8.046832,8.052208,8.057294,8.06217,8.066985,8.072018,8.077852,8.084255,8.090642
8.313232,8.310051,8.307068,8.304217,8.300964,8.300001,8.300946,8.301501,8.3020935,8.3017845,8.301487,8.300169,8.297827,8.294643,8.291477,8.28933,8.286917,8.283786,8.2793255,8.273968,8.268852,8.264803,8.261698,8.259003,8.256783,8.254648,8.252796,8.251435,8.250439,8.249016,8.246157,8.242153,8.236582,8.230379,8.223991,8.217674,8.211938,8.207073,8.202072,8.196843,8.1922,8.187914,8.1839695,8.1801605,8.175724,8.1708145,8.16497,8.157503,8.149146,8.140394,8.131243,8.122196,8.114574,8.107706,8.101081,8.095145,8.089867,8.085182,8.081232,8.077897,8.07473,8.071562,8.068562,8.065881,8.063572,8.061508,8.059504,8.057503,8.055346,8.053043,8.050812,8.048796,8.047079,8.045832,8.045174,8.044888,8.044911,8.044979,8.0448065,8.043894,8.042021,8.0400505,8.037857,8.035544,8.032843,8.0300255,8.02755,8.025707,8.024701,8.023999,8.02345,8.022682,8.021559,8.020066,8.018261,8.016342,8.014431,8.012424,8.010056,8.007489,8.004862,8.002304,8.000076,7.998081,7.996137,7.994096,7.9917374,7.988867,7.9857016,7.982733,7.9801474,7.9779162,7.975775,7.973626,7.971408,7.969262,7.9674153,7.965847,7.96453,7.9632425,7.9619694,7.9606276,7.959256,7.9579964,7.956875,7.955834,7.95474,7.9537163,7.9528723,7.9523687,7.9522643,7.9523373,7.952487,7.9525967,7.9525714,7.9523525,7.952016,7.9516263,7.951188,7.950778,7.9504366,7.9500895,7.94975,7.9493113,7.9485555,7.9474564,7.9462705,7.945079,7.944042,7.943176,7.942389,7.9415655,7.9406867,7.939827,7.939027,7.9381876,7.937144,7.935725,7.93393,7.9319386,7.9300194,7.9283895,7.9270144,7.9258614,7.9248924,7.9240313,7.923232,7.922492,7.921752,7.920967,7.920085,7.918996,7.917702,7.9163656,7.915186,7.914257,7.9136314,7.9132447,7.912947,7.9126472,7.9123135,7.9119663,7.9116635,7.9113984,7.911041,7.910515,7.9097877,7.908826,7.9076724,7.9064045,7.904964,7.90325,7.9013753,7.8994417,7.897613,7.896024,7.894639,7.8934135,7.8922796,7.8912187,7.8902683,7.8893857,7.888475,7.887474,7.8863993,7.885207,7.8839283,7.882702,7.8816204,7.880742,7.880068,7.8794975,7.8788595,7.878036,7.8770146,7.87582,7.8745933,7.8734684,7.8724585,7.871518,7.870627,7.869768,7.869067,7.8686748,7.8685894,7.868731,7.8690796,7.8694577,7.869871,7.8702574,7.870528,7.8706937,7.870839,7.8710117,7.8712378,7.871618,7.8721485,7.8727007,7.8732433,7.8737893,7.8742647,7.874744,7.875249,7.8757105,7.876085,7.8764215,7.8766904,7.876796,7.8769445,7.8771763,7.877579,7.878167,7.8788652,7.879678,7.8806744,7.881942,7.883505,7.8854284,7.8875914,7.8898363,7.8920383,7.894146,7.896222,7.8983746,7.90096,7.9036956,7.906519,7.909464,7.9124002,7.9151196,7.91755,7.919768,7.9217453,7.9237146,7.9258833,7.9282894,7.93085,7.9333706,7.935972,7.93855,7.9410276,7.9434032,7.9457207,7.947979,7.950054,7.952125,7.954088,7.9559584,7.957761,7.959613,7.9616966,7.9640336,7.966737,7.9696426,7.9726534,7.97561,7.9786415,7.981954,7.9853415,7.9889793,7.993208,7.998001,8.00284,8.007417,8.011854,8.016324,8.021044,8.026566,8.032644,8.038729
8.312563,8.309683,8.306778,8.303913,8.300524,8.299451,8.300289,8.3006525,8.30105,8.300415,8.29958,8.297556,8.294463,8.290581,8.286816,8.284244,8.281672,8.278692,8.274462,8.269384,8.264567,8.260896,8.258341,8.256229,8.254698,8.253122,8.251597,8.2500515,8.24815,8.245145,8.2402115,8.233903,8.225737,8.216919,8.208164,8.19989,8.192283,8.185102,8.17808,8.170807,8.164404,8.158527,8.15237,8.145485,8.137833,8.129587,8.122009,8.114199,8.106459,8.098404,8.089605,8.080883,8.073813,8.067506,8.06102,8.054919,8.049444,8.0447,8.040795,8.037519,8.034376,8.031149,8.02788,8.024694,8.021677,8.018787,8.015934,8.013039,8.009912,8.006585,8.003358,8.000427,7.997905,7.9959726,7.9947085,7.9938374,7.9933414,7.992979,7.9924393,7.9911776,7.988965,7.986672,7.984183,7.9816227,7.97871,7.975701,7.9730372,7.971015,7.9698634,7.969075,7.9685006,7.967779,7.966744,7.9653254,7.9635415,7.9615755,7.9595766,7.9574594,7.9549613,7.952263,7.9494886,7.9467545,7.944337,7.942174,7.9400673,7.9379086,7.935505,7.9326715,7.929608,7.926775,7.924329,7.92222,7.920184,7.91815,7.916089,7.914168,7.9126215,7.9113975,7.9104366,7.9095087,7.908556,7.9074697,7.9062862,7.9051743,7.9042034,7.9033265,7.902399,7.9015527,7.9008837,7.9005375,7.900562,7.9007277,7.9009542,7.9011297,7.901171,7.901046,7.9008265,7.9005623,7.9002438,7.8999195,7.89963,7.8993206,7.899044,7.898738,7.898213,7.897423,7.896571,7.895711,7.894986,7.8943915,7.893859,7.893301,7.8926926,7.892105,7.8915834,7.890994,7.8901467,7.8888535,7.8871126,7.8851233,7.883193,7.8815546,7.880176,7.8790274,7.8780813,7.87726,7.8765106,7.875822,7.8751326,7.8743906,7.8735495,7.872522,7.8713193,7.870097,7.8690214,7.868175,7.8676043,7.867237,7.8669424,7.8666425,7.8663225,7.866013,7.8657613,7.865554,7.8652534,7.864768,7.864048,7.8630757,7.8619256,7.860692,7.859336,7.857756,7.8560553,7.8543,7.852616,7.851116,7.8497744,7.8485727,7.847476,7.8464847,7.845641,7.8448772,7.844062,7.8431077,7.8420258,7.8407946,7.839463,7.8381953,7.8371077,7.8362656,7.835645,7.83512,7.834524,7.833729,7.8327045,7.831477,7.830194,7.8289986,7.8279324,7.82696,7.826048,7.8251615,7.824401,7.82389,7.8236446,7.8236227,7.823823,7.8240976,7.824442,7.824789,7.8250446,7.8252068,7.8253593,7.825555,7.8258095,7.826211,7.8267508,7.8272924,7.8278046,7.828304,7.8287253,7.8291388,7.8295484,7.829895,7.8301616,7.8304386,7.830721,7.8309107,7.831176,7.8315444,7.8320875,7.8328137,7.8336425,7.8345804,7.835695,7.837039,7.8386316,7.8405333,7.842621,7.8447638,7.8468633,7.8488884,7.8509164,7.8530855,7.855776,7.8587346,7.861867,7.865146,7.868385,7.8713255,7.8738894,7.8761816,7.8781724,7.880137,7.8823137,7.884754,7.887373,7.889968,7.8926353,7.895247,7.897706,7.900012,7.9022264,7.9043875,7.906394,7.908408,7.910321,7.9121246,7.9138193,7.915514,7.917394,7.91949,7.9219084,7.924512,7.927231,7.929924,7.9326906,7.935686,7.9386854,7.9418693,7.9455237,7.949686,7.953882,7.9578333,7.9616776,7.9655848,7.9697285,7.974614,7.9800344,7.9855385
8.3118105,8.308175,8.304363,8.300516,8.296069,8.294113,8.294334,8.294268,8.294434,8.293759,8.293024,8.29138,8.288982,8.286034,8.28329,8.281717,8.280216,8.278254,8.274989,8.270987,8.2673855,8.264788,8.263018,8.261798,8.261305,8.260624,8.259691,8.258097,8.255283,8.250612,8.243544,8.234861,8.2241535,8.212768,8.201717,8.191597,8.182638,8.17462,8.166791,8.158761,8.150597,8.142298,8.133598,8.124086,8.113617,8.102489,8.091322,8.079655,8.06797,8.056808,8.0473385,8.040498,8.035124,8.030216,8.024345,8.01823,8.012727,8.008116,8.004295,8.00113,7.9980593,7.9946423,7.990959,7.987112,7.983197,7.979308,7.9754963,7.9716153,7.9674554,7.9630384,7.9587383,7.9548197,7.951421,7.9487333,7.9468093,7.9453077,7.9442444,7.94342,7.942505,7.9409122,7.9383926,7.9358225,7.933071,7.930277,7.927124,7.9238615,7.920931,7.918627,7.9172316,7.91625,7.9155273,7.914736,7.9136806,7.912244,7.9104147,7.908366,7.9062424,7.903984,7.9013295,7.89845,7.8954654,7.8924913,7.8898063,7.887385,7.885043,7.8826933,7.8801775,7.877328,7.874333,7.8716307,7.869339,7.867396,7.8655314,7.8637104,7.861932,7.8603687,7.8592424,7.85847,7.8579435,7.8574457,7.85686,7.856063,7.8551035,7.8541827,7.8534093,7.8527575,7.852063,7.8514624,7.851036,7.8509064,7.851097,7.8513784,7.8516903,7.851936,7.852044,7.8520193,7.8519297,7.851799,7.8516216,7.851407,7.8511963,7.850943,7.850727,7.85054,7.8502293,7.8497276,7.849203,7.848671,7.8482594,7.847927,7.847621,7.8472805,7.8468885,7.846514,7.8462124,7.84582,7.845125,7.843941,7.8422604,7.840293,7.8383865,7.8367863,7.8354692,7.834408,7.8335724,7.8328753,7.8322515,7.8316817,7.8310947,7.830453,7.829713,7.8287945,7.827717,7.826624,7.8256626,7.824888,7.82436,7.8240085,7.823715,7.823412,7.8230953,7.8228087,7.822592,7.822419,7.822151,7.8216677,7.820921,7.819916,7.8187447,7.8175116,7.816203,7.8147173,7.8131447,7.811537,7.8099833,7.8085656,7.807266,7.8060913,7.8050213,7.804084,7.803327,7.802657,7.801918,7.80101,7.7999315,7.7986846,7.7973366,7.7960577,7.794982,7.7941723,7.7935915,7.793095,7.792524,7.7917466,7.790719,7.7894616,7.7881207,7.78685,7.7857056,7.784667,7.7837033,7.7827578,7.7818966,7.78123,7.780793,7.7805786,7.780611,7.780753,7.781005,7.781288,7.7815113,7.7816725,7.781845,7.78207,7.782365,7.7828007,7.7833543,7.7838936,7.78438,7.7848353,7.7852125,7.785575,7.785912,7.786179,7.786387,7.7866364,7.7869477,7.787232,7.7876186,7.7881155,7.7887826,7.7896147,7.790551,7.791608,7.7928247,7.794258,7.7958922,7.797795,7.799843,7.8019247,7.8039722,7.8059635,7.8079815,7.8101916,7.8129897,7.8161426,7.8195314,7.8230734,7.8265257,7.8296022,7.83222,7.8345146,7.836463,7.8383765,7.840525,7.842968,7.8456187,7.848278,7.8510017,7.853649,7.85611,7.8583775,7.8605356,7.8626556,7.8646393,7.8666563,7.8685703,7.8703585,7.8720026,7.873591,7.8753023,7.8771734,7.879298,7.88157,7.8839564,7.8863387,7.8888054,7.891468,7.894079,7.896814,7.899911,7.903459,7.9070263,7.9103413,7.9135423,7.9167886,7.920211,7.9242916,7.928864,7.933625
8.263296,8.256275,8.249426,8.242434,8.234819,8.230254,8.228926,8.228321,8.228703,8.229486,8.231587,8.234641,8.238449,8.242638,8.247203,8.252293,8.2567005,8.259057,8.259386,8.25902,8.259399,8.259693,8.258668,8.258416,8.258968,8.25914,8.258726,8.257053,8.253448,8.247465,8.238878,8.228592,8.216357,8.203613,8.1916275,8.181102,8.172222,8.164648,8.157272,8.149651,8.141638,8.13307,8.12363,8.112987,8.101157,8.088511,8.074661,8.060129,8.045721,8.031738,8.018779,8.008032,8.000175,7.9934773,7.98749,7.982435,7.9786453,7.975527,7.972393,7.9698133,7.9670877,7.963297,7.959016,7.9544687,7.949748,7.9450555,7.940543,7.93596,7.931026,7.9257593,7.9206014,7.915869,7.911725,7.9083724,7.9058285,7.903708,7.9020596,7.9007387,7.899416,7.897476,7.8946543,7.891818,7.888805,7.885759,7.8823314,7.8787756,7.875543,7.8729386,7.871277,7.87008,7.8691893,7.8682966,7.8671784,7.865679,7.863765,7.8616023,7.8593407,7.8569417,7.8541393,7.851079,7.8478546,7.8445673,7.8415127,7.8387127,7.8359976,7.8333015,7.8305078,7.8274775,7.82441,7.821722,7.819511,7.8177176,7.81604,7.8144693,7.8130193,7.8118663,7.81121,7.81092,7.810846,7.8107786,7.810556,7.8100376,7.8092957,7.808569,7.807992,7.807562,7.8071237,7.8067985,7.8066406,7.806754,7.807144,7.8075714,7.808005,7.808365,7.80858,7.8086624,7.8086796,7.808649,7.8085523,7.8084073,7.808235,7.8080244,7.8078594,7.8077707,7.8076377,7.8073816,7.8071256,7.806881,7.806734,7.806628,7.806506,7.806319,7.8060703,7.805838,7.805663,7.8053846,7.804782,7.80365,7.8019857,7.8000193,7.7981205,7.796544,7.795284,7.7943115,7.7935953,7.793042,7.792571,7.7921515,7.7917004,7.791195,7.790598,7.7898345,7.788918,7.787973,7.7871275,7.786438,7.7859583,7.785614,7.7853203,7.7850194,7.784719,7.7844687,7.7843037,7.784199,7.783994,7.7835536,7.7828264,7.7818227,7.78064,7.7793994,7.778099,7.7766523,7.775141,7.773601,7.7720966,7.770686,7.769356,7.768133,7.767022,7.766077,7.765338,7.7647076,7.7640133,7.76313,7.762066,7.76082,7.759472,7.7581863,7.757097,7.756261,7.7556353,7.755088,7.7544727,7.7536545,7.7525826,7.751281,7.7498946,7.7485695,7.7473707,7.7463093,7.7453337,7.744384,7.7434855,7.7427363,7.7421837,7.7418375,7.741742,7.7417793,7.7419443,7.7421565,7.742319,7.742429,7.7425594,7.742736,7.7429867,7.7433667,7.743851,7.7443037,7.7447,7.7450776,7.7453885,7.745701,7.745988,7.746219,7.746405,7.746664,7.747032,7.747411,7.7479043,7.7485113,7.7492723,7.750178,7.7511864,7.752322,7.753623,7.755131,7.756816,7.7587442,7.7608013,7.7629027,7.7649913,7.7670403,7.7691336,7.7714386,7.7743416,7.7776303,7.7811675,7.7848387,7.7883763,7.791472,7.7940617,7.796298,7.7981677,7.8000107,7.802133,7.8046026,7.8073173,7.810063,7.8128867,7.815612,7.8181114,7.820365,7.8224645,7.824524,7.826447,7.828412,7.8302846,7.8320255,7.8336086,7.8351197,7.836724,7.8384523,7.8403797,7.842414,7.844553,7.846714,7.848976,7.8513966,7.853717,7.8561115,7.8587475,7.861794,7.864846,7.867647,7.870325,7.8730216,7.875849,7.879242,7.8830853,7.8871984
8.164129,8.155905,8.147837,8.139711,8.130929,8.125307,8.123102,8.121803,8.121815,8.122478,8.124733,8.128312,8.133041,8.138449,8.144478,8.151292,8.157625,8.163893,8.169438,8.174686,8.179895,8.185005,8.190021,8.19504,8.201082,8.207706,8.214842,8.222238,8.229397,8.233789,8.231409,8.225883,8.212877,8.1979265,8.184565,8.173676,8.165268,8.159029,8.153629,8.147833,8.140924,8.132648,8.122938,8.111612,8.098671,8.084698,8.069298,8.052987,8.036575,8.02036,8.004925,7.9913545,7.9801407,7.970187,7.960785,7.952173,7.9453263,7.9405203,7.936958,7.9340076,7.9313517,7.929291,7.928009,7.9241347,7.917925,7.912357,7.907264,7.9021435,7.896639,7.890669,7.8847766,7.879349,7.8745375,7.870551,7.867388,7.864585,7.8622622,7.860358,7.8585663,7.856244,7.8531094,7.8499994,7.8467093,7.8433657,7.839609,7.8356886,7.8320785,7.8291116,7.8271217,7.8256564,7.824537,7.8234677,7.822221,7.8205833,7.8184834,7.816124,7.8136578,7.8110685,7.8080983,7.804847,7.8013563,7.797699,7.7941837,7.790901,7.787688,7.7844906,7.781251,7.7778783,7.774591,7.7718163,7.769632,7.7679787,7.766515,7.765236,7.7641764,7.7635,7.7633667,7.76362,7.7640595,7.764472,7.76466,7.764475,7.76401,7.7635384,7.763212,7.7630534,7.762932,7.7629566,7.763134,7.763529,7.764142,7.764747,7.76534,7.7658463,7.7662067,7.7664204,7.7665396,7.7665877,7.766562,7.766476,7.7663574,7.766199,7.766103,7.766122,7.7661576,7.7661285,7.7661138,7.7661085,7.7661777,7.7662315,7.7662277,7.7661257,7.765937,7.765768,7.76565,7.765419,7.7648454,7.763732,7.7620645,7.7600794,7.758177,7.7566175,7.7554026,7.7545204,7.753933,7.7535334,7.7532225,7.7529607,7.7526703,7.752329,7.751911,7.7513437,7.750628,7.7498674,7.7491684,7.748581,7.748158,7.747841,7.747551,7.7472534,7.746977,7.7467804,7.746683,7.7466507,7.746517,7.746127,7.7454247,7.74442,7.7432146,7.7419405,7.740614,7.73916,7.7376556,7.7361345,7.7346306,7.733182,7.7317715,7.7304525,7.729246,7.7282267,7.7274466,7.726802,7.7261047,7.7252207,7.7241483,7.722905,7.721555,7.7202578,7.7191353,7.718238,7.7175264,7.716874,7.71617,7.7152815,7.714163,7.7128363,7.7114315,7.710082,7.708852,7.707785,7.706824,7.705886,7.7049713,7.7041554,7.703493,7.7030253,7.7028084,7.702743,7.702817,7.7029433,7.703022,7.703044,7.7030764,7.7031612,7.703306,7.7035646,7.703911,7.7042165,7.7044773,7.7047462,7.704978,7.705245,7.705512,7.70574,7.7059436,7.7062454,7.706684,7.7071767,7.7077847,7.7085,7.709352,7.7103205,7.711377,7.7125654,7.713931,7.7155075,7.7172384,7.719198,7.721286,7.7234373,7.7256155,7.7277865,7.7299933,7.7324147,7.735415,7.738771,7.742345,7.746018,7.749512,7.7525234,7.7549934,7.757087,7.7588167,7.760545,7.7626104,7.765092,7.767866,7.7707167,7.7736607,7.7764955,7.7790594,7.781321,7.7833877,7.785394,7.787264,7.789172,7.7909956,7.7926846,7.7942266,7.795702,7.7972517,7.7988987,7.800709,7.802573,7.8045206,7.806507,7.808609,7.810858,7.8129735,7.8151093,7.8174086,7.820072,7.8227425,7.825175,7.8274784,7.829756,7.8321075,7.834913,7.8381095,7.8416142
8.023363,8.013294,8.002964,7.9924064,7.9811735,7.9733667,7.969369,7.9667177,7.9659247,7.9661736,7.9683914,7.9724035,7.9780865,7.9849944,7.993085,8.002474,8.011692,8.021082,8.029844,8.038473,8.046892,8.055178,8.063764,8.072029,8.081472,8.091953,8.103437,8.115686,8.128206,8.139631,8.1479845,8.154932,8.159056,8.16234,8.165527,8.168662,8.171379,8.171899,8.166172,8.160607,8.155056,8.147659,8.135704,8.1196575,8.102877,8.08528,8.06776,8.049681,8.031479,8.013324,7.9957485,7.9798164,7.9659905,7.953169,7.940636,7.9288187,7.9182615,7.9095936,7.902968,7.8977003,7.893364,7.88997,7.887664,7.884924,7.8814077,7.8775945,7.872979,7.868333,7.8623104,7.855528,7.848814,7.8426933,7.837323,7.832736,7.8289285,7.8253927,7.8222895,7.8196726,7.817294,7.8145227,7.811056,7.807683,7.804147,7.8005342,7.7964816,7.792234,7.7882767,7.784972,7.7826624,7.780905,7.779503,7.77818,7.7767043,7.7748127,7.7724156,7.7697773,7.7670527,7.764244,7.7611313,7.757736,7.754019,7.750018,7.74605,7.7422743,7.738544,7.734832,7.7311196,7.7273626,7.7238197,7.720932,7.718768,7.7172775,7.716058,7.71511,7.7144623,7.71425,7.7146077,7.7153482,7.7162447,7.7170725,7.717606,7.7176933,7.717452,7.717181,7.7170553,7.7171125,7.7172623,7.717583,7.718046,7.718688,7.7194996,7.720276,7.7210407,7.721734,7.7222967,7.7227,7.7229853,7.723179,7.7232885,7.7233343,7.7233405,7.7233086,7.7233257,7.723466,7.7236547,7.72381,7.7239876,7.724162,7.724375,7.7245245,7.724565,7.7244806,7.724304,7.7241383,7.7240295,7.72381,7.7232566,7.7221622,7.7205014,7.7185087,7.7165956,7.715028,7.7138157,7.71297,7.7124453,7.7121253,7.7119045,7.7117367,7.711564,7.7113748,7.7111425,7.7108026,7.7103424,7.709836,7.709364,7.708964,7.7086864,7.708478,7.708264,7.7080355,7.7078333,7.7077103,7.7076945,7.70773,7.7076616,7.707304,7.706607,7.705588,7.704342,7.7030053,7.701626,7.7001395,7.6986303,7.6971207,7.695629,7.694158,7.692684,7.691284,7.689994,7.6889095,7.68808,7.687398,7.686673,7.6857624,7.684661,7.683403,7.6820416,7.680709,7.6795177,7.6784983,7.6776123,7.6767855,7.6759224,7.6749053,7.6737027,7.672327,7.6708813,7.6694775,7.668188,7.667078,7.6660895,7.6651263,7.6641717,7.6632805,7.662511,7.6619253,7.6615996,7.661441,7.661437,7.661476,7.661456,7.661371,7.6612816,7.661227,7.661223,7.6613064,7.661466,7.6615844,7.6616693,7.6617985,7.6619463,7.6621737,7.6624393,7.6626964,7.6629553,7.663327,7.663851,7.6644526,7.66516,7.665962,7.6668615,7.6678386,7.6688795,7.670068,7.671462,7.673074,7.674844,7.676848,7.6789956,7.6812534,7.683608,7.685996,7.688407,7.6910143,7.694147,7.6975436,7.7010794,7.704652,7.7079954,7.71085,7.713157,7.71509,7.7166853,7.7183194,7.72034,7.7228365,7.7256756,7.72862,7.731675,7.7346134,7.73724,7.7395034,7.74152,7.743447,7.745225,7.747039,7.7487836,7.7504053,7.751912,7.7533913,7.7549453,7.756585,7.758362,7.7601457,7.76198,7.763868,7.765894,7.7680645,7.7701006,7.7721376,7.7742653,7.7767296,7.779191,7.7814164,7.7834954,7.7854834,7.7874694,7.789777,7.7923884,7.7952967
7.8114977,7.8003364,7.7918644,7.785202,7.778088,7.7737923,7.7722206,7.770859,7.7708263,7.7709856,7.772624,7.7751904,7.778879,7.7829533,7.787054,7.791793,7.796095,7.805204,7.817562,7.8309364,7.844063,7.857109,7.8704357,7.8836184,7.898303,7.914651,7.9325123,7.951691,7.9714956,7.991218,8.010495,8.027821,8.044984,8.06195,8.0777,8.091635,8.10354,8.1122465,8.115267,8.11852,8.121769,8.124035,8.123434,8.117699,8.106424,8.093189,8.071652,8.048784,8.027156,8.006992,7.988039,7.970504,7.954937,7.939918,7.924769,7.909998,7.8959727,7.883561,7.873554,7.8655286,7.8590207,7.853076,7.847841,7.8433514,7.8393517,7.8356576,7.832386,7.829206,7.824169,7.8181925,7.8123207,7.806339,7.8002214,7.7950115,7.790536,7.7862625,7.782355,7.7789345,7.7758493,7.772541,7.76871,7.765093,7.7613497,7.757535,7.7532787,7.748815,7.7446375,7.7411175,7.738577,7.736578,7.7348933,7.7332687,7.731472,7.729207,7.72639,7.723363,7.720306,7.717248,7.7140236,7.710576,7.7067547,7.702532,7.698225,7.6940794,7.689954,7.6858644,7.6818166,7.6777782,7.6740465,7.6710887,7.6689672,7.667661,7.666692,7.666048,7.665743,7.665882,7.6665783,7.667639,7.668809,7.6698666,7.670556,7.670743,7.6705728,7.6703625,7.670294,7.6704283,7.670699,7.6711674,7.6717954,7.6726055,7.6735873,7.674554,7.675545,7.6765213,7.677413,7.6781464,7.6787386,7.679219,7.6795983,7.679908,7.6801605,7.6803555,7.680558,7.6808357,7.681141,7.681413,7.6816874,7.681941,7.682193,7.682335,7.682335,7.6822042,7.682,7.681823,7.681715,7.681511,7.6809907,7.6799364,7.678301,7.676301,7.6743455,7.672716,7.671423,7.6704936,7.669901,7.669525,7.6692657,7.6691,7.668972,7.668886,7.6688313,7.6687574,7.668634,7.6684875,7.668362,7.668274,7.6682615,7.6682844,7.6682634,7.6682014,7.668143,7.6681385,7.6682158,7.6683235,7.668308,7.667979,7.667279,7.666227,7.664921,7.6635075,7.6620636,7.6605453,7.659046,7.6575823,7.656144,7.654704,7.653225,7.6517982,7.6504807,7.649379,7.6485357,7.647834,7.647077,7.6461287,7.644998,7.643715,7.6423225,7.640927,7.639607,7.638385,7.637238,7.636134,7.6350155,7.633769,7.6323905,7.6308827,7.629323,7.6278048,7.626396,7.625188,7.6241198,7.6230955,7.622088,7.621131,7.620277,7.619608,7.6192093,7.618995,7.618943,7.6189203,7.6188116,7.6186047,7.6183567,7.6181316,7.617937,7.617804,7.6177387,7.61764,7.6175346,7.617521,7.6175923,7.617799,7.618088,7.618413,7.618763,7.619228,7.6198416,7.6205273,7.621294,7.622115,7.6229844,7.6238756,7.624819,7.6259365,7.6272984,7.628913,7.6307106,7.632759,7.634989,7.637398,7.639983,7.6426563,7.6453424,7.648187,7.6514606,7.6548586,7.658274,7.661642,7.6647406,7.667372,7.6694975,7.6712832,7.672789,7.6743846,7.676417,7.6789722,7.6818933,7.6849313,7.6881065,7.691141,7.6938114,7.696044,7.697956,7.699729,7.701343,7.702983,7.7045794,7.7060914,7.707555,7.7090635,7.7106905,7.712412,7.7142835,7.7161264,7.717991,7.719907,7.721975,7.724201,7.7263007,7.728388,7.730526,7.732959,7.7353725,7.7375574,7.7395806,7.741441,7.7432356,7.745218,7.7473965,7.749798
7.707176,7.7001815,7.6960363,7.6944475,7.6923146,7.6922874,7.6936765,7.6939154,7.694769,7.6948595,7.695772,7.696534,7.6976576,7.6980686,7.6971145,7.6960664,7.694355,7.698871,7.7076454,7.7175956,7.726947,7.735901,7.744728,7.752516,7.7611256,7.770417,7.7806473,7.790648,7.8001547,7.809762,7.819563,7.836938,7.860559,7.885316,7.908821,7.9306498,7.9508533,7.96957,7.9864697,8.002333,8.016914,8.031218,8.045969,8.057867,8.062806,8.065123,8.056755,8.039846,8.019812,7.9982004,7.9761133,7.9567337,7.9402103,7.923977,7.907189,7.890361,7.8741045,7.8595686,7.847601,7.8376904,7.8296967,7.822158,7.815135,7.8080664,7.8011875,7.7957425,7.7923193,7.789108,7.7847323,7.7797384,7.775098,7.7698336,7.763673,7.758472,7.7537217,7.7486796,7.7439184,7.73969,7.7359457,7.732207,7.728157,7.7244773,7.720709,7.7168856,7.712652,7.7082176,7.704058,7.700526,7.697901,7.695734,7.693783,7.6918035,7.6895885,7.686837,7.6834903,7.67999,7.676541,7.673213,7.6699133,7.666525,7.662772,7.658537,7.6541204,7.649837,7.64554,7.641287,7.6370625,7.6328306,7.628928,7.625881,7.623758,7.6225853,7.6218038,7.621378,7.6212997,7.6216497,7.6225233,7.6237297,7.6250057,7.626123,7.626814,7.626987,7.6268206,7.626623,7.6265793,7.626753,7.6270976,7.6276655,7.6284246,7.629382,7.630523,7.6316843,7.632908,7.634187,7.6354523,7.6365795,7.6375704,7.638459,7.63925,7.6399746,7.640631,7.6411886,7.641675,7.642126,7.642519,7.6428347,7.6430893,7.643284,7.64342,7.6434,7.6432323,7.6429663,7.6426764,7.6424723,7.642369,7.642213,7.641781,7.640852,7.63935,7.6374483,7.635536,7.633911,7.632573,7.631565,7.630878,7.630397,7.630041,7.629815,7.6296673,7.62962,7.6296816,7.6298237,7.63,7.6302023,7.630436,7.6306953,7.6310005,7.6313257,7.6315794,7.631757,7.631899,7.632047,7.632227,7.6324005,7.63241,7.63209,7.6313725,7.630267,7.628888,7.627397,7.625888,7.6243496,7.6228886,7.621515,7.62018,7.618822,7.617393,7.6159945,7.6146965,7.613607,7.612772,7.6120567,7.611258,7.6102533,7.6090803,7.607752,7.606306,7.604829,7.603368,7.6019325,7.6005163,7.5991216,7.5977297,7.5962276,7.594653,7.5930014,7.5913277,7.5897017,7.5881815,7.5868692,7.5857096,7.5845985,7.5835133,7.5824623,7.5814962,7.580722,7.580227,7.5799303,7.579796,7.5796824,7.579462,7.5791163,7.578706,7.5783224,7.5779624,7.5776486,7.5773983,7.5771246,7.5768704,7.576754,7.5767736,7.576981,7.5773077,7.577704,7.578146,7.5786963,7.5793734,7.580096,7.580864,7.581629,7.582384,7.5830994,7.5838413,7.5847816,7.586007,7.587539,7.5893,7.591343,7.5936165,7.5961466,7.598942,7.6018887,7.60485,7.6079435,7.6113653,7.6147456,7.6179953,7.6211042,7.6239166,7.626319,7.6283007,7.630018,7.6315327,7.6331825,7.6352873,7.63792,7.640916,7.6440167,7.647287,7.6503983,7.653105,7.655327,7.6571712,7.658821,7.6603074,7.661803,7.663267,7.6646843,7.666107,7.667636,7.6693277,7.671119,7.67309,7.6750007,7.676908,7.6788645,7.680994,7.683319,7.685563,7.687794,7.690096,7.6926556,7.6951723,7.6974697,7.699594,7.701494,7.7032924,7.705165,7.707132,7.7092113
7.7791967,7.779019,7.776923,7.775205,7.772459,7.7718196,7.772548,7.772195,7.7726636,7.7726116,7.7734222,7.7741327,7.7752814,7.7757607,7.7749844,7.7744026,7.7733927,7.77281,7.7714233,7.76968,7.766953,7.76313,7.758479,7.7511616,7.7426877,7.732651,7.7220993,7.7089458,7.6938124,7.6794195,7.6669235,7.673546,7.6948757,7.718821,7.740794,7.7612104,7.7799463,7.7967224,7.8148146,7.8366704,7.860018,7.8831873,7.905989,7.928319,7.9492583,7.9684443,7.988025,7.9939365,7.9887204,7.973177,7.9523945,7.9353123,7.918213,7.9018707,7.88484,7.8679833,7.8516912,7.836911,7.8245206,7.813817,7.8051605,7.797016,7.789441,7.7817125,7.773988,7.767208,7.761542,7.7560873,7.750345,7.7444534,7.739121,7.733773,7.7282166,7.723584,7.7192125,7.7136946,7.708354,7.7035155,7.6992683,7.6953335,7.6913958,7.687978,7.684496,7.6809583,7.677058,7.6729794,7.669139,7.665841,7.6632967,7.6610365,7.658828,7.6564455,7.6537313,7.650413,7.646482,7.642476,7.6386166,7.635023,7.6316814,7.62844,7.624918,7.6208963,7.6166344,7.6124697,7.6082478,7.6040277,7.599737,7.5953293,7.5912027,7.587963,7.585736,7.584578,7.583868,7.5835514,7.5835857,7.5840263,7.584962,7.5861893,7.5874653,7.588537,7.58916,7.5893087,7.5891867,7.58908,7.5891576,7.5894623,7.5899706,7.590722,7.5916734,7.592816,7.594123,7.5954456,7.59684,7.5983496,7.5999165,7.6013823,7.602769,7.6041217,7.6054163,7.6066833,7.6078777,7.608926,7.609785,7.610451,7.610921,7.6112146,7.6113434,7.6113434,7.6111984,7.610853,7.6103783,7.6098747,7.6094394,7.6091757,7.609067,7.6089935,7.6087313,7.608054,7.6068563,7.605256,7.6035895,7.602148,7.600931,7.599991,7.599311,7.598789,7.5983667,7.598072,7.597868,7.5977983,7.5978775,7.5981026,7.5984287,7.5988383,7.5993285,7.599864,7.6004505,7.601078,7.601631,7.6020837,7.6024556,7.602771,7.6030507,7.603267,7.6032763,7.6029367,7.6021795,7.601013,7.5995626,7.598005,7.59644,7.5949,7.593504,7.5922546,7.5910606,7.589818,7.5884743,7.587132,7.5858707,7.584807,7.58398,7.5832458,7.5823956,7.5813227,7.5800815,7.5786934,7.5771875,7.5756435,7.574086,7.5724993,7.570884,7.5692816,7.567686,7.565998,7.564295,7.5625744,7.5608664,7.5592155,7.5576687,7.556312,7.5550923,7.553891,7.552692,7.551494,7.5503464,7.5493913,7.548727,7.548255,7.5479503,7.547662,7.5472755,7.5467806,7.5462418,7.545762,7.545326,7.54494,7.5446205,7.5442796,7.5439634,7.543803,7.5438046,7.544018,7.5443654,7.544792,7.5452757,7.5458584,7.5465355,7.5472293,7.547924,7.54856,7.5491257,7.5496063,7.550096,7.5507946,7.5518074,7.55317,7.5548134,7.5567713,7.5589952,7.561539,7.564438,7.5675735,7.5707674,7.5741234,7.5777516,7.5811777,7.584307,7.587183,7.589735,7.5919495,7.5938663,7.595623,7.5972633,7.5990644,7.6012917,7.6040154,7.6070867,7.610239,7.613578,7.6167564,7.6195154,7.621786,7.623662,7.625308,7.6267805,7.6282444,7.6296587,7.6310053,7.632355,7.633825,7.635461,7.6371922,7.6391115,7.640933,7.6427164,7.644554,7.6466255,7.648988,7.6513586,7.6537676,7.6563168,7.659121,7.6618586,7.6643667,7.666691,7.66875,7.670691,7.6726413,7.674612,7.6766024
7.786086,7.7843885,7.7812676,7.778431,7.774477,7.7725267,7.7720323,7.7707453,7.7705464,7.7702665,7.7708864,7.771657,7.773029,7.7739606,7.7740316,7.7746687,7.775154,7.7767315,7.778159,7.7789307,7.778281,7.7763557,7.7735615,7.7685213,7.761285,7.752818,7.7440953,7.7354794,7.727586,7.7208004,7.7140913,7.705609,7.697907,7.6887484,7.6765537,7.6629925,7.648079,7.6316533,7.6319036,7.6521006,7.6827354,7.714918,7.746105,7.7768493,7.8061843,7.8338385,7.8600893,7.886655,7.906028,7.911662,7.9098463,7.90732,7.8913174,7.877131,7.8622656,7.847329,7.8325543,7.8188953,7.8071375,7.7963657,7.787525,7.7790117,7.770878,7.7621965,7.7530746,7.7447033,7.7375255,7.730629,7.7235327,7.716034,7.7086926,7.701763,7.69554,7.6906147,7.6866093,7.681285,7.676089,7.6710234,7.6664,7.6624146,7.658811,7.6558733,7.6528926,7.6498623,7.64653,7.643064,7.6398067,7.6369824,7.6347017,7.63248,7.63008,7.6273165,7.6240897,7.620197,7.6157017,7.6112127,7.606962,7.6031256,7.5997643,7.59671,7.593507,7.5898438,7.5859137,7.5820436,7.57806,7.574004,7.569725,7.5651655,7.560789,7.5572906,7.5548706,7.553631,7.5528874,7.5525684,7.5526066,7.5530357,7.553927,7.555069,7.556256,7.5572023,7.557706,7.5578194,7.5577774,7.557829,7.5580907,7.5586042,7.5593443,7.5603333,7.561516,7.56287,7.564353,7.565819,7.567347,7.569037,7.57084,7.5725994,7.574354,7.576172,7.5780144,7.5798807,7.581669,7.5832577,7.5845213,7.5854187,7.5859537,7.586173,7.586121,7.58584,7.58533,7.5845757,7.583725,7.58294,7.5823317,7.581996,7.581889,7.581917,7.5818768,7.5815315,7.580744,7.5795746,7.578291,7.5771656,7.576201,7.575447,7.574874,7.574383,7.57394,7.5736065,7.573352,7.5732327,7.5732794,7.573512,7.5738897,7.5744066,7.5750694,7.575815,7.576635,7.5775447,7.5784035,7.5791597,7.5798035,7.580332,7.580749,7.581036,7.581078,7.5807533,7.5799837,7.5787764,7.5772667,7.5756435,7.574029,7.572493,7.571171,7.5700507,7.569002,7.5678854,7.5666275,7.565341,7.5641203,7.5631075,7.562314,7.561583,7.5607033,7.5595765,7.558275,7.556836,7.5552845,7.5536985,7.5520782,7.5503883,7.5486326,7.5468645,7.545104,7.543259,7.541447,7.539689,7.5379972,7.536395,7.5348988,7.533574,7.532343,7.531089,7.5297832,7.5284247,7.527082,7.5259204,7.5250616,7.524387,7.5238647,7.523365,7.522793,7.522148,7.521513,7.521,7.5205736,7.5202036,7.5199127,7.5196,7.519305,7.5191603,7.5191755,7.5194073,7.519762,7.5201836,7.5206566,7.521207,7.521811,7.5223904,7.522936,7.523369,7.5236816,7.5239058,7.5241747,7.524679,7.5254946,7.5266886,7.528188,7.530022,7.5321217,7.534558,7.537422,7.540642,7.544016,7.5476418,7.5515347,7.5551004,7.558182,7.5608654,7.5631886,7.565244,7.5671377,7.5689864,7.5708094,7.57281,7.575204,7.578061,7.5812426,7.5844874,7.5879316,7.591203,7.594042,7.5963917,7.5983467,7.600048,7.6015587,7.603034,7.6044083,7.605647,7.606844,7.60814,7.6095924,7.6111436,7.6128917,7.6144924,7.6159983,7.6175566,7.619446,7.6217766,7.6242256,7.62679,7.629571,7.632607,7.6355524,7.63826,7.6407776,7.643015,7.645156,7.6473,7.649423,7.651497
7.7370176,7.721046,7.700364,7.6754265,7.647044,7.622529,7.6044207,7.590518,7.58124,7.5756545,7.5725164,7.5738463,7.578662,7.5874557,7.6016865,7.6211033,7.64489,7.673278,7.7029486,7.7251673,7.7418747,7.7570972,7.7693872,7.7800093,7.7926807,7.7987766,7.7996783,7.79379,7.782962,7.771529,7.7577887,7.7403355,7.723695,7.70881,7.694951,7.6816497,7.668311,7.6539116,7.6404343,7.6209946,7.6034837,7.5868664,7.568164,7.566429,7.604142,7.6498904,7.6936836,7.7380133,7.77423,7.8019342,7.8262835,7.8449855,7.8483114,7.852102,7.855255,7.8453593,7.8269286,7.8097754,7.7955856,7.783451,7.7738714,7.764819,7.756377,7.7473574,7.7376394,7.728469,7.7204247,7.712515,7.7044077,7.695864,7.687371,7.679314,7.671902,7.6653185,7.659253,7.652978,7.6471753,7.6420627,7.6380243,7.634576,7.6309724,7.628374,7.625862,7.6235,7.620964,7.6183796,7.6160727,7.6141615,7.6125736,7.6109276,7.6087685,7.6057577,7.6020284,7.5976157,7.5926347,7.5877323,7.583165,7.5791283,7.575777,7.572948,7.5700994,7.566826,7.5632567,7.559677,7.555898,7.5519376,7.547552,7.5426908,7.537913,7.534011,7.53126,7.529776,7.528859,7.5284038,7.5283217,7.52864,7.5294185,7.5304527,7.5315666,7.532448,7.5329566,7.5331926,7.5333962,7.533764,7.5343504,7.535182,7.5362616,7.5375824,7.539073,7.5406885,7.5423784,7.54399,7.5456214,7.5474286,7.5493712,7.551285,7.5532475,7.555421,7.5578113,7.560261,7.5626497,7.56478,7.5664444,7.567557,7.568138,7.568279,7.5680513,7.567546,7.5667267,7.5656157,7.5644293,7.5633745,7.562582,7.5621586,7.562086,7.5622916,7.562544,7.56258,7.5622435,7.561554,7.560731,7.5600295,7.5594625,7.5590725,7.558789,7.5584974,7.5581827,7.557927,7.557722,7.557666,7.5578003,7.558139,7.558639,7.559289,7.5600853,7.5609665,7.561948,7.563074,7.5642047,7.565369,7.566558,7.567662,7.56859,7.5693035,7.569731,7.569719,7.5691366,7.5679626,7.566352,7.5645466,7.562729,7.5610323,7.5596657,7.5585976,7.5576324,7.55657,7.555318,7.554019,7.552807,7.5518484,7.551159,7.550514,7.5496445,7.548456,7.5470552,7.5455112,7.543868,7.5422287,7.540552,7.5387387,7.536768,7.534713,7.532618,7.530446,7.5283813,7.526494,7.5247965,7.5232706,7.521898,7.5206966,7.519545,7.5183105,7.516946,7.5154386,7.5138907,7.5125475,7.5115604,7.510774,7.510137,7.5095,7.508765,7.507969,7.507249,7.5067434,7.5063906,7.5061274,7.5059614,7.5057898,7.5056458,7.5056677,7.5058913,7.506347,7.5069256,7.50754,7.5081844,7.508729,7.5090995,7.509461,7.5097857,7.509965,7.5100203,7.50992,7.5097914,7.5099,7.510391,7.511338,7.512662,7.5143223,7.516247,7.5185175,7.52125,7.5243855,7.527737,7.5313663,7.5351925,7.538518,7.541211,7.5434537,7.54539,7.5472317,7.549135,7.5511436,7.5532036,7.555402,7.557856,7.5606203,7.5636225,7.5666747,7.570016,7.5733104,7.576335,7.579016,7.5813594,7.583407,7.585194,7.586891,7.5884104,7.5897493,7.591009,7.5923166,7.593709,7.5951157,7.5966825,7.598078,7.599394,7.600812,7.6025963,7.604867,7.6073723,7.6100464,7.6129594,7.616062,7.6190004,7.621703,7.624282,7.6266594,7.6290255,7.631501,7.6338277,7.635936
7.71747,7.695376,7.663517,7.5926576,7.517561,7.454289,7.4010763,7.3529882,7.3099213,7.2809687,7.266622,7.2729683,7.2974777,7.3340893,7.3812895,7.4407363,7.5085726,7.558997,7.6129255,7.667937,7.7150393,7.747068,7.762848,7.7671537,7.7517176,7.7249193,7.690194,7.6419783,7.595785,7.5786524,7.5921183,7.6452646,7.676961,7.7015705,7.7140694,7.7110014,7.7013907,7.6887097,7.6592355,7.623314,7.594551,7.5743523,7.5580444,7.54683,7.5449533,7.5447407,7.5395093,7.524261,7.5557156,7.616145,7.6659274,7.7090874,7.7414737,7.766582,7.789191,7.806271,7.8132143,7.8129387,7.8075566,7.7891574,7.771243,7.756978,7.7471733,7.7384176,7.7290187,7.7202344,7.71254,7.7047043,7.6965237,7.687652,7.678278,7.6688247,7.6597004,7.651166,7.6431565,7.635232,7.6279707,7.621666,7.6168175,7.6132956,7.6105213,7.6089344,7.607494,7.606226,7.60484,7.60338,7.6020617,7.6009417,7.5998616,7.5979414,7.5952315,7.5916333,7.587264,7.582143,7.57648,7.5710173,7.566244,7.562497,7.559676,7.5575376,7.555505,7.553104,7.550381,7.5475383,7.5442715,7.5405126,7.536004,7.5307293,7.5253544,7.5208416,7.517604,7.5157332,7.5145,7.5137434,7.5133533,7.5133495,7.513804,7.5145407,7.5154095,7.516078,7.5165243,7.516939,7.5175886,7.518608,7.5199184,7.521494,7.5233374,7.525385,7.527502,7.5296288,7.531739,7.5337243,7.5357165,7.5379443,7.540291,7.5428,7.5455256,7.548498,7.551739,7.5551105,7.5584717,7.561512,7.5639224,7.565543,7.5663857,7.5665646,7.5661616,7.565278,7.563922,7.5622168,7.5605135,7.5591154,7.5581694,7.5577374,7.5577183,7.558072,7.558614,7.5591173,7.559414,7.5594673,7.5594287,7.559535,7.559782,7.560161,7.5605307,7.560753,7.56083,7.56086,7.5608425,7.5608892,7.5610514,7.5613422,7.5617485,7.5623198,7.5630984,7.5640364,7.565193,7.566655,7.568309,7.5699873,7.5716195,7.573164,7.5744762,7.575506,7.5762386,7.5765066,7.5761375,7.5750437,7.5733414,7.5712953,7.569132,7.567042,7.5652847,7.563835,7.5624666,7.5609636,7.559251,7.557501,7.555843,7.5544696,7.5534053,7.5524063,7.5511913,7.5496626,7.5479183,7.54603,7.5440245,7.5420074,7.5399513,7.53778,7.5355086,7.533252,7.5310326,7.528855,7.526965,7.525465,7.5243526,7.5235367,7.5228767,7.522294,7.521621,7.520644,7.519244,7.5174975,7.515621,7.5138745,7.5124226,7.5110874,7.509823,7.5085926,7.5073786,7.506249,7.505339,7.5047317,7.5042915,7.503916,7.503602,7.5032654,7.5029316,7.502719,7.5026884,7.502847,7.503088,7.5033684,7.5037174,7.5041065,7.5044546,7.5047483,7.504992,7.5050573,7.504998,7.504742,7.5043697,7.5041337,7.5042133,7.5047493,7.5056887,7.507001,7.5086174,7.5106106,7.5131326,7.5161934,7.519615,7.5234785,7.5276165,7.5311613,7.5338674,7.5359097,7.5375385,7.5391455,7.541006,7.543149,7.5454836,7.5479536,7.550555,7.553314,7.5562086,7.559103,7.5622854,7.5654993,7.5685673,7.5714455,7.574105,7.5764937,7.5786104,7.5806274,7.582437,7.5840006,7.585392,7.5867047,7.5879593,7.589113,7.590375,7.591435,7.5924,7.5934486,7.594839,7.5967207,7.598911,7.601354,7.604131,7.6071205,7.609952,7.6125636,7.615084,7.617466,7.6199327,7.6225758,7.625246,7.627799
5.4371853,5.377803,5.323743,5.2513733,5.183865,5.130088,5.0872407,5.0506926,5.018841,4.99805,4.9895296,4.998178,5.0227103,5.0594845,5.107235,5.1658897,5.2321286,5.2898893,5.3554015,5.430597,5.5087867,5.5826645,5.651969,5.722685,5.7979364,5.8980865,6.025779,6.191852,6.393312,6.619918,6.8802586,7.1978865,7.587887,7.806363,7.812314,7.725443,7.6365023,7.557556,7.56312,7.5802865,7.6023154,7.61258,7.6057034,7.586772,7.561038,7.5366607,7.5118694,7.481828,7.4808054,7.4965115,7.503998,7.511652,7.5308723,7.579899,7.628887,7.675747,7.7114925,7.7352366,7.7530165,7.7596483,7.765573,7.76175,7.747102,7.7299128,7.717189,7.708847,7.7021008,7.695418,7.6884613,7.6808014,7.6720304,7.662442,7.6526423,7.642972,7.6337795,7.62463,7.6161633,7.6086946,7.602869,7.5989046,7.596341,7.595092,7.5939293,7.592839,7.5915656,7.5901737,7.5888553,7.58766,7.586473,7.584479,7.5817175,7.578136,7.5738287,7.5688305,7.5634036,7.5582466,7.55377,7.549678,7.5465236,7.5442343,7.5421457,7.539735,7.5370436,7.5342155,7.53098,7.5271454,7.522395,7.516771,7.5110373,7.506216,7.5027523,7.500708,7.49938,7.4985495,7.4981117,7.4981265,7.4986954,7.4996843,7.500977,7.5022216,7.503411,7.504718,7.5063434,7.5083294,7.5105114,7.5128927,7.5154552,7.518112,7.5207033,7.5231314,7.525347,7.5272713,7.529093,7.5311303,7.53333,7.5357475,7.538528,7.5417633,7.5454216,7.549359,7.553385,7.557146,7.5602636,7.562524,7.5638638,7.5643115,7.5639067,7.562865,7.5610995,7.558854,7.556586,7.554655,7.5532446,7.552428,7.5520716,7.5522013,7.552704,7.55343,7.554225,7.5549917,7.5557146,7.5562496,7.5568714,7.5575266,7.5580482,7.5583215,7.558383,7.5583544,7.5582457,7.558142,7.5581074,7.5581455,7.558276,7.5586014,7.559209,7.560044,7.5611844,7.5627184,7.5645556,7.566484,7.568349,7.5700593,7.5714684,7.572521,7.573253,7.5735254,7.573183,7.5721416,7.5705156,7.568568,7.566496,7.5644884,7.5627694,7.5612707,7.5597568,7.558004,7.5559416,7.5538197,7.5517197,7.5498447,7.548251,7.5467396,7.5450754,7.5431833,7.5411377,7.538998,7.5367584,7.5345526,7.5323935,7.5302143,7.528014,7.5258846,7.523804,7.521797,7.5201163,7.518889,7.5181227,7.5176964,7.5174074,7.5171204,7.516604,7.515658,7.5141625,7.5122094,7.5100584,7.507998,7.5061903,7.5044518,7.502743,7.5011263,7.499654,7.498419,7.4975376,7.4970303,7.49671,7.4964323,7.496169,7.495841,7.495463,7.4951363,7.4949274,7.4948397,7.494744,7.494649,7.4946356,7.49477,7.4949894,7.4951777,7.49535,7.4953575,7.495294,7.4950695,7.4947166,7.4944515,7.494462,7.494904,7.495779,7.4970207,7.498538,7.500392,7.502758,7.505722,7.509181,7.513239,7.5176525,7.5213966,7.524118,7.525964,7.527275,7.528622,7.5303917,7.5325994,7.5351067,7.537734,7.5403976,7.5431232,7.545906,7.5486755,7.551779,7.5549726,7.5581045,7.561148,7.564069,7.5667686,7.5691648,7.571458,7.57348,7.5751667,7.5765905,7.5778284,7.5788765,7.579728,7.5806274,7.5812654,7.581767,7.5823107,7.583149,7.5844364,7.586025,7.5879054,7.590132,7.592562,7.594858,7.597002,7.599161,7.6013203,7.603733,7.6064754,7.6094484,7.61242
3.1465755,3.0912037,3.0482407,3.0159788,2.9915636,2.9746456,2.9645424,2.959218,2.957268,2.9574513,2.9604638,2.9673262,2.9784718,2.995296,3.0181642,3.0451856,3.0752394,3.1125727,3.1562507,3.207353,3.2665834,3.3331852,3.4073582,3.492089,3.600122,3.7438369,3.9238586,4.156061,4.4296093,4.7172375,5.0254784,5.386465,5.8711405,6.2228193,6.41103,6.5730686,6.7772017,6.9857564,7.3062763,7.570588,7.6576014,7.6062803,7.546399,7.5387316,7.5449734,7.5543056,7.5435753,7.5273857,7.500148,7.4658184,7.433573,7.4092073,7.4022684,7.427414,7.449954,7.4686184,7.5046353,7.556988,7.6045566,7.6466494,7.682461,7.704607,7.7111797,7.7113748,7.705722,7.6934037,7.685533,7.6795793,7.6744137,7.6699777,7.664386,7.657098,7.6486855,7.639378,7.6301584,7.620881,7.612106,7.604062,7.5974784,7.5926943,7.5892925,7.587247,7.5852804,7.5832067,7.580724,7.5780153,7.5754204,7.573057,7.5708895,7.5684304,7.5653834,7.5615544,7.5570526,7.55199,7.546673,7.5417757,7.5375195,7.5334234,7.5301666,7.5276747,7.5252495,7.5224023,7.519253,7.5159516,7.512395,7.508378,7.5035706,7.497917,7.4921803,7.4874463,7.4840183,7.4819365,7.480567,7.4796953,7.4792824,7.4794683,7.4803867,7.481913,7.483951,7.4861403,7.488427,7.4908667,7.493529,7.4963684,7.4991636,7.5018415,7.504495,7.5070868,7.5094533,7.511463,7.513076,7.51429,7.515355,7.516614,7.5180717,7.5196733,7.5216208,7.524143,7.527232,7.5307417,7.5344152,7.537917,7.540881,7.5430946,7.544447,7.544878,7.5444045,7.543215,7.541155,7.53852,7.535801,7.533395,7.531503,7.5302043,7.529359,7.5290365,7.529167,7.529688,7.53049,7.531442,7.5324335,7.5331783,7.53397,7.534711,7.535225,7.5354295,7.535397,7.5352516,7.535023,7.534771,7.5345945,7.5344825,7.534463,7.534666,7.5351896,7.535983,7.5371275,7.5387335,7.540724,7.5429173,7.545084,7.5470057,7.548524,7.5495796,7.5502777,7.550507,7.55014,7.5491176,7.5475855,7.5458164,7.5439854,7.5422745,7.540861,7.539609,7.538252,7.536566,7.5344925,7.532306,7.530039,7.527875,7.5258923,7.5239525,7.5218916,7.5196667,7.517334,7.5149403,7.5124626,7.510105,7.50795,7.5059547,7.5040693,7.502296,7.500537,7.4988346,7.497415,7.4964256,7.495888,7.4956636,7.4955254,7.4952955,7.4946885,7.493574,7.4918647,7.4896574,7.487233,7.484928,7.4829063,7.48098,7.4791307,7.477483,7.4761147,7.4751205,7.474597,7.4745083,7.474634,7.4748,7.474922,7.4748993,7.474735,7.474516,7.474322,7.474141,7.4737988,7.473339,7.472904,7.4726324,7.4725237,7.4725065,7.4725933,7.472607,7.4726915,7.4727497,7.47276,7.4729013,7.473341,7.474184,7.4754915,7.4771333,7.4789524,7.4809585,7.4833136,7.48617,7.489562,7.4936237,7.498081,7.501812,7.5043945,7.505948,7.506878,7.5079174,7.509536,7.511739,7.514349,7.5170765,7.519771,7.5224495,7.525133,7.527842,7.5309453,7.5341673,7.537367,7.540537,7.5436516,7.546587,7.549177,7.551649,7.553765,7.555455,7.5568256,7.5579586,7.5588274,7.55943,7.5600276,7.56032,7.5604286,7.5605097,7.5607634,7.5613184,7.5620537,7.563032,7.5642486,7.565612,7.5668774,7.5681257,7.5695877,7.571293,7.5734954,7.5763083,7.579586,7.582947
2.850207,2.8475027,2.8451633,2.8428404,2.8405228,2.8397372,2.8403451,2.8414636,2.8436732,2.846115,2.8495226,2.8537583,2.858992,2.8653288,2.8726926,2.8806872,2.8883471,2.8967118,2.9052558,2.9145305,2.9240026,2.933263,2.9426322,2.9515524,2.9618535,2.9736881,2.986987,3.0014648,3.02657,3.0717652,3.1335905,3.2355597,3.3797321,3.6173608,3.9684834,4.4361405,4.9850655,5.541937,6.122803,6.6142054,6.8613763,6.9531612,7.101009,7.322793,7.4500237,7.5108175,7.4977236,7.4767313,7.4628115,7.456005,7.4499903,7.43783,7.4244137,7.39775,7.3645287,7.3289843,7.335658,7.380508,7.4180546,7.4558325,7.501408,7.5507646,7.599424,7.6406007,7.6596317,7.6575913,7.659401,7.6626205,7.664771,7.6642113,7.660577,7.6547217,7.647207,7.6382403,7.629464,7.620722,7.612415,7.6044745,7.5974984,7.591941,7.5875483,7.584339,7.5812054,7.577655,7.573305,7.568556,7.5640073,7.559928,7.5563946,7.5527987,7.5487633,7.543992,7.53858,7.532679,7.526678,7.5213737,7.5169706,7.513564,7.5108986,7.5085745,7.5059547,7.50268,7.499014,7.4951744,7.491207,7.4869947,7.4823647,7.4771814,7.472049,7.4679346,7.4649267,7.463017,7.4617014,7.46085,7.460541,7.4609747,7.46226,7.4642143,7.4667253,7.469475,7.4723897,7.4754333,7.478582,7.4817514,7.484713,7.4873276,7.48979,7.4920845,7.49399,7.4953313,7.4961443,7.4965696,7.496924,7.4975166,7.4982934,7.4991875,7.500331,7.5019445,7.5041294,7.5067925,7.5096183,7.512268,7.5144267,7.5159388,7.5167093,7.51667,7.515829,7.514175,7.511591,7.508375,7.5050697,7.5021276,7.4997687,7.4980445,7.4967666,7.496002,7.495703,7.495892,7.4965186,7.4974375,7.4985385,7.4997625,7.501058,7.5022726,7.503126,7.503538,7.503623,7.503521,7.5033026,7.503033,7.5028496,7.502746,7.502756,7.5030084,7.503606,7.5045123,7.505832,7.5077333,7.510131,7.5127673,7.515332,7.517565,7.5192747,7.520423,7.521144,7.5213575,7.520934,7.519826,7.518206,7.516384,7.514582,7.513007,7.5118237,7.510826,7.509695,7.5082016,7.506308,7.5042453,7.501998,7.4997015,7.497429,7.495099,7.4926224,7.489994,7.487277,7.4844723,7.4815483,7.4787955,7.47641,7.474428,7.4727774,7.4713373,7.4699135,7.468547,7.4674397,7.4667587,7.4665346,7.4665966,7.466667,7.46655,7.4658957,7.4646072,7.4626245,7.4601126,7.457418,7.454892,7.4526997,7.4506683,7.4488316,7.4473805,7.4464087,7.4459896,7.4461765,7.4468594,7.44779,7.448782,7.449664,7.4502754,7.450586,7.4506683,7.450609,7.4503784,7.4497466,7.448797,7.4477596,7.4469137,7.4463825,7.446125,7.446145,7.4462385,7.446595,7.447131,7.4477673,7.44862,7.449821,7.4513903,7.4534416,7.455808,7.4582267,7.4606056,7.4630566,7.46579,7.4690003,7.4728765,7.4771833,7.480757,7.483107,7.4842978,7.4847755,7.485425,7.486779,7.4888678,7.491503,7.4942923,7.4969945,7.4996066,7.5021825,7.5048437,7.5079236,7.5111437,7.514384,7.5176888,7.5210595,7.524336,7.5272937,7.530162,7.5326443,7.5346456,7.536292,7.5376635,7.5386896,7.5393457,7.539916,7.5401225,7.540066,7.5398273,7.5395184,7.5392303,7.538902,7.5387034,7.538598,7.5386124,7.53866,7.538904,7.539605,7.540823,7.54278,7.54564,7.5492506,7.5530114
