3.6221623,3.6315327,3.6414037,3.6510034,3.6603937,3.6700048,3.6802235,3.6913147,3.7022116,3.7130618,3.7226934,3.731244,3.740016,3.7486258,3.7568355,3.7640862,3.770453,3.7768087,3.784151,3.792821,3.8021886,3.81105,3.819962,3.8293326,3.8399997,3.8526483,3.867271,3.8829384,3.8981216,3.91225,3.9254951,3.9375305,3.9494624,3.9623737,3.9762602,3.991107,4.0094337,4.0324783,4.0622096,4.0971184,4.1346445,4.17387,4.2145176,4.2573824,4.306644,4.360318,4.41284,4.4578023,4.494899,4.530222,4.56588,4.605073,4.649602,4.6981316,4.7461143,4.788001,4.8201375,4.8419914,4.861489,4.8823996,4.905009,4.92521,4.9371,4.938677,4.9348845,4.937193,4.947253,4.9693565,5.0221834,5.112231,5.2324276,5.384995,5.5710306,5.889341,6.382701,6.750024,6.9168153,7.0298176,7.0715885,7.089099,7.0774755,7.0538864,7.0208116,6.965987,6.872857,6.7373047,6.5773125,6.3369083,6.088258,5.883609,5.7429905,5.661063,5.6208515,5.601614,5.599228,5.6088448,5.625309,5.6455545,5.668482,5.694451,5.725704,5.7680287,5.8245473,5.896743,5.9773216,6.0513344,6.1063814,6.1419163,6.1694655,6.192958,6.2355723,6.306828,6.413826,6.545727,6.6718984,6.783087,6.883773,6.954837,6.9897685,7.0044374,7.014162,7.020342,7.024734,7.0274305,7.0292225,7.0317025,7.0339108,7.034081,7.0327425,7.0322094,7.0320487,7.032107,7.032156,7.032032,7.0317464,7.0314445,7.031278,7.031457,7.0318723,7.0317984,7.0310545,7.02969,7.027055,7.021902,7.013579,7.003413,6.991184,6.977791,6.9651127,6.955246,6.9491386,6.945983,6.9457684,6.948099,6.9505014,6.9505596,6.9472284,6.941289,6.9349585,6.930826,6.930463,6.9339957,6.9395905,6.944139,6.9452753,6.943059,6.93983,6.9370127,6.937046,6.9367533,6.933257,6.9251213,6.9065657,6.8641887,6.770086,6.673025,6.5988865,6.5581903,6.548872,6.5576687,6.5676146,6.5722,6.5651016,6.544367,6.509552,6.4661865,6.424572,6.3910294,6.3639765,6.344536,6.333019,6.3270745,6.323675,6.3203773,6.3156834,6.309907,6.3018312,6.2920074,6.282772,6.2770443,6.277172,6.283271,6.2913895,6.2984896,6.303277,6.307686,6.3216,6.3587303,6.42579,6.51739,6.674993,6.8241506,6.924193,6.976102,7.0004067,7.010294,7.010166,7.0080805,7.0085225,7.01109,7.0135255,7.014781,7.01565,7.017,7.019121,7.022086,7.025642,7.029443,7.0332804,7.0372925,7.0416193,7.045832,7.0487747,7.0492687,7.0464287,7.039753,7.030826,7.0217686,7.0110426,6.9990396,6.989749,6.9872723,6.988484,6.9890785,6.986297,6.973488,6.9343486,6.8630333,6.748846,6.5914893,6.428337,6.3070354,6.23777,6.211666,6.2076426,6.227543,6.24935,6.2467785,6.2142334,6.1694283,6.1344376,6.133692,6.191004,6.36621,6.640267,6.88536,7.0005555,7.055572,7.077442,7.0851355,7.0968647,7.10975,7.11806,7.1257515,7.1321044,7.134358,7.1333675,7.129791,7.123189,7.114684,7.106106,7.0965805,7.0833635,7.0598283,6.9986286,6.886977,6.7249584,6.5408883,6.3889704,6.2983723,6.244994,6.2214804,6.213191,6.203352,6.187357,6.1754045,6.1777635,6.209876,6.276031,6.4096537,6.5925913,6.780639,6.942395,7.051037,7.12249,7.1570263,7.168028,7.1714997,7.171303,7.163846
3.6278403,3.6370695,3.6468399,3.656434,3.6659002,3.6755912,3.6858544,3.696952,3.7079873,3.7190943,3.7289584,3.7375345,3.7459762,3.7538705,3.7611904,3.7674463,3.7728806,3.7785375,3.7854939,3.7940814,3.8036084,3.8127372,3.8219314,3.831498,3.8421912,3.8547459,3.8692837,3.884997,3.900464,3.915163,3.9295025,3.9431195,3.9566674,3.9712462,3.987258,4.0043583,4.0249887,4.0504246,4.0823708,4.119158,4.158366,4.1992035,4.2412663,4.2859116,4.337073,4.3956575,4.449771,4.4966564,4.5416455,4.5835414,4.625211,4.6723557,4.7239466,4.7785482,4.8308268,4.8741727,4.905258,4.923658,4.9399366,4.9553003,4.9693093,4.978221,4.978445,4.971407,4.9632044,4.953488,4.9560204,4.987855,5.064716,5.188058,5.348333,5.5410557,5.7857404,6.1889453,6.614002,6.865897,6.9921846,7.1051655,7.128823,7.1338205,7.1149406,7.087107,7.050783,6.9941845,6.902806,6.7694635,6.5983334,6.358192,6.106819,5.898436,5.7560415,5.6742516,5.635029,5.615962,5.6122804,5.6192436,5.632156,5.648669,5.6687226,5.6935654,5.725519,5.77034,5.8309307,5.9068823,5.9891953,6.062597,6.115665,6.149814,6.180411,6.2162895,6.277722,6.3728094,6.496341,6.630247,6.7502775,6.841199,6.9234104,6.97764,7.003507,7.015089,7.0230765,7.02835,7.0319057,7.0348797,7.03859,7.0411024,7.0418096,7.0415525,7.0411005,7.040676,7.0403147,7.040002,7.039622,7.0390296,7.0382223,7.0373106,7.0364113,7.0358195,7.035486,7.034872,7.034234,7.03249,7.0284834,7.0227947,7.0159144,7.007099,6.9962826,6.98419,6.972562,6.963538,6.9581842,6.9556723,6.9560194,6.958665,6.9607506,6.9596786,6.9545717,6.9466476,6.9386435,6.933393,6.9324694,6.9358873,6.9415207,6.9460115,6.9469786,6.944663,6.9415293,6.9388933,6.939223,6.9395432,6.935646,6.9254823,6.9037,6.8528757,6.752905,6.6586304,6.5894766,6.5510416,6.542922,6.5541058,6.565734,6.571842,6.5668135,6.5480433,6.515857,6.4763613,6.4383507,6.406226,6.3822517,6.36481,6.3539314,6.347316,6.341918,6.3353987,6.326729,6.316617,6.304044,6.289709,6.2761436,6.2663946,6.2629857,6.2663326,6.272666,6.2796574,6.2865753,6.2955303,6.317116,6.36084,6.4325495,6.544231,6.723755,6.882956,6.9829745,7.02877,7.0425844,7.043558,7.046985,7.045368,7.0457687,7.049565,7.055267,7.05937,7.0606675,7.0619674,7.063588,7.0654135,7.0670867,7.068939,7.071089,7.0735707,7.0766077,7.0798035,7.0822744,7.083009,7.0813074,7.0737,7.05982,7.045085,7.0331755,7.017477,7.004221,6.9988356,6.999368,7.0007396,6.99944,6.9910336,6.957197,6.8868237,6.7745256,6.6105433,6.43723,6.313841,6.2416983,6.2222967,6.223933,6.2430067,6.258853,6.2475204,6.2059975,6.156569,6.12317,6.1241674,6.2026753,6.41952,6.718754,6.955491,7.0554037,7.095001,7.107974,7.108939,7.1147184,7.1241064,7.1311493,7.1381187,7.1464944,7.1511335,7.1523104,7.1506743,7.1458397,7.1384096,7.1303663,7.1227307,7.114999,7.0960007,7.0547676,6.9577007,6.799392,6.612157,6.4382343,6.3256273,6.254438,6.21639,6.199523,6.187115,6.173094,6.167601,6.1802077,6.224869,6.309493,6.46834,6.657877,6.839467,7.001504,7.0772,7.135194,7.1573467,7.162314,7.1642485,7.163027,7.154949
3.6341355,3.6432042,3.6528358,3.6623878,3.6718984,3.6816416,3.6919246,3.703013,3.714237,3.7257094,3.7359977,3.7448559,3.7532592,3.760783,3.767571,3.77327,3.7782528,3.7836397,3.7905595,3.7993155,3.8090909,3.818542,3.8279386,3.8374715,3.8478131,3.8598762,3.8741398,3.8899975,3.9058993,3.9215336,3.9369621,3.9522116,3.9678817,3.9849222,4.003779,4.023801,4.047181,4.0753193,4.1094394,4.1478806,4.188421,4.2305107,4.2738924,4.3178267,4.370344,4.428976,4.485857,4.5392017,4.5912,4.640534,4.690623,4.7481008,4.8126397,4.8719444,4.921275,4.961088,4.987957,5.001877,5.0136385,5.0229263,5.0290823,5.0293036,5.019868,5.0007596,4.9783854,4.958974,4.9718056,5.027653,5.144706,5.3214493,5.543953,5.817198,6.158231,6.547291,6.8140125,6.9893613,7.1130743,7.1705813,7.192433,7.185401,7.157303,7.123337,7.0836935,7.0201397,6.9249935,6.8016257,6.619955,6.376643,6.1215477,5.910566,5.7682095,5.6881495,5.6508045,5.6326084,5.62802,5.6324,5.6415977,5.654174,5.671403,5.695655,5.7292905,5.777875,5.843917,5.9245024,6.0075636,6.077243,6.125596,6.158846,6.1928463,6.243829,6.3293767,6.4525824,6.595808,6.727515,6.8267317,6.907857,6.9698486,7.0046496,7.020728,7.0288334,7.0343285,7.0388403,7.0423985,7.045847,7.048768,7.051343,7.052944,7.053422,7.053406,7.0530195,7.052316,7.051399,7.05031,7.048979,7.0474095,7.045677,7.043861,7.0423174,7.0411005,7.039919,7.0376754,7.0343666,7.0304394,7.0255947,7.0197916,7.012096,7.0024147,6.991292,6.98036,6.971853,6.9669724,6.96488,6.965616,6.9684153,6.9700327,6.9677086,6.9607167,6.9506855,6.940877,6.934362,6.932725,6.935856,6.941412,6.9458423,6.9467387,6.9445286,6.941958,6.9398756,6.940154,6.9409,6.936733,6.924799,6.9003057,6.84,6.740623,6.6512156,6.586825,6.550274,6.5414724,6.5518885,6.564159,6.57032,6.5667276,6.549405,6.5198593,6.4844337,6.450017,6.4208975,6.3993053,6.385249,6.377554,6.3722067,6.366107,6.3578444,6.3465214,6.333289,6.3173256,6.2995367,6.282706,6.2699757,6.2638183,6.264756,6.2695017,6.2761745,6.2844715,6.2975483,6.325753,6.3761396,6.455764,6.586684,6.784607,6.940303,7.0331206,7.075856,7.0870824,7.083482,7.078761,7.077371,7.079092,7.0827417,7.086893,7.090971,7.0942497,7.095463,7.096324,7.0977407,7.0991755,7.1006765,7.1025014,7.104993,7.108348,7.1120224,7.1149015,7.116061,7.1135864,7.105462,7.0918717,7.0749626,7.055912,7.040364,7.0239825,7.0155067,7.0136323,7.014571,7.0168104,7.01157,6.9847784,6.9170475,6.81018,6.649435,6.4764185,6.3562174,6.2874556,6.2660165,6.2717094,6.288086,6.293347,6.2667303,6.2101545,6.152418,6.1149983,6.115101,6.2255516,6.491061,6.808955,7.030802,7.12112,7.146063,7.146332,7.1356506,7.1323805,7.1356726,7.1394663,7.1459436,7.1555357,7.1634016,7.167986,7.1694846,7.167067,7.161098,7.1546335,7.150263,7.144038,7.129548,7.093745,7.022203,6.8814664,6.6787825,6.4895277,6.351515,6.2582207,6.2021694,6.1741037,6.15915,6.150095,6.154624,6.182456,6.2439137,6.356757,6.5353975,6.7305145,6.902278,7.04029,7.1002417,7.1440926,7.1553526,7.1556854,7.1566777,7.1551237,7.147003
3.6414418,3.6503873,3.6598864,3.6693892,3.6789145,3.6886582,3.6988955,3.7099276,3.721311,3.7331378,3.7438798,3.7530956,3.7615876,3.768958,3.775486,3.7810202,3.7859998,3.7915416,3.7988043,3.8080354,3.818234,3.8280716,3.8375926,3.8473659,3.857705,3.869352,3.8830934,3.8987145,3.914885,3.9315007,3.948422,3.96595,3.9844384,4.0045576,4.026745,4.049982,4.0760508,4.1065683,4.1423397,4.1819696,4.22369,4.266314,4.3083296,4.350917,4.4052963,4.463869,4.5242186,4.5861263,4.6481743,4.7093434,4.7722893,4.8367686,4.906048,4.970108,5.022231,5.060958,5.084363,5.0932264,5.098811,5.1017766,5.0994225,5.087886,5.0643015,5.030962,4.9983644,4.98571,5.0216365,5.1205316,5.3087225,5.6044226,5.9712534,6.3185363,6.596281,6.8234205,6.994264,7.1254983,7.2162485,7.257535,7.263323,7.24461,7.2060156,7.1630383,7.1170816,7.041193,6.9390864,6.8321605,6.639606,6.3903475,6.1297407,5.917273,5.77802,5.702426,5.668432,5.6523333,5.647707,5.6500483,5.6558094,5.664632,5.6793575,5.703636,5.739825,5.793062,5.865222,5.9501963,6.0316725,6.0950727,6.138138,6.171007,6.211957,6.2770686,6.391674,6.551594,6.7091527,6.8291287,6.9204206,6.9838886,7.017384,7.034952,7.0433993,7.0476685,7.05071,7.053386,7.0562553,7.059203,7.062477,7.066124,7.068759,7.0696487,7.069353,7.0681295,7.0667715,7.064953,7.0629253,7.0607305,7.0583835,7.0558906,7.053235,7.05095,7.0486746,7.045369,7.0415096,7.0379105,7.0345488,7.0307527,7.026023,7.019307,7.010461,6.999867,6.989111,6.9805894,6.975718,6.973678,6.9745617,6.977371,6.978489,6.9749594,6.966099,6.953841,6.9420033,6.934227,6.931307,6.933798,6.9389586,6.943104,6.944268,6.942545,6.938616,6.936492,6.9387646,6.9411798,6.936478,6.9230976,6.897336,6.8304176,6.7355137,6.6518,6.591385,6.555176,6.543478,6.551173,6.562608,6.568598,6.5648146,6.548708,6.522232,6.4904914,6.4593625,6.4336953,6.4148006,6.404086,6.400295,6.3985524,6.394845,6.3876143,6.3765187,6.362901,6.3462677,6.3277516,6.310387,6.2974052,6.2911873,6.292059,6.296438,6.3024054,6.31019,6.324706,6.3545933,6.408493,6.499115,6.646516,6.8438425,6.9903436,7.0754795,7.115603,7.125617,7.118704,7.109725,7.104782,7.104987,7.1096926,7.1165504,7.123109,7.127604,7.1292763,7.129672,7.129632,7.129318,7.129739,7.1310883,7.1332164,7.136441,7.1402116,7.1432037,7.1441765,7.141527,7.1341667,7.1208153,7.101305,7.0795374,7.062088,7.0449004,7.033534,7.029259,7.031376,7.0366373,7.0340242,7.014568,6.951382,6.855643,6.712714,6.555398,6.4451184,6.3857255,6.367442,6.371567,6.3808155,6.369118,6.3167677,6.233767,6.155339,6.098563,6.1068707,6.257025,6.5892496,6.9328766,7.1215277,7.1901646,7.2121925,7.193392,7.1668506,7.1515055,7.146043,7.143685,7.146639,7.159787,7.170148,7.178891,7.1850157,7.186854,7.1842155,7.180462,7.1794996,7.1755285,7.1664133,7.1358786,7.07603,6.952382,6.756441,6.5499067,6.377784,6.2564836,6.1783476,6.136799,6.1185966,6.1161838,6.135665,6.184288,6.2680492,6.4138002,6.607861,6.8112335,6.975252,7.0737023,7.1251297,7.147907,7.1502247,7.148573,7.1493597,7.14825,7.140877
3.6487203,3.6575994,3.6670008,3.676466,3.6859722,3.69565,3.705757,3.716649,3.7280846,3.7401595,3.7512498,3.7607284,3.7692826,3.7765934,3.783031,3.7886972,3.7940173,3.8000588,3.8079665,3.8178673,3.8286138,3.839339,3.849541,3.8595872,3.8697314,3.8807921,3.8938813,3.9092479,3.9257362,3.943502,3.9623415,3.9826088,4.0043206,4.027747,4.053133,4.0792007,4.107137,4.1387444,4.17533,4.2154484,4.2573385,4.299266,4.3387365,4.3821115,4.4372945,4.498228,4.5640965,4.635869,4.709715,4.779903,4.8525486,4.9279375,5.004044,5.075021,5.1328115,5.172435,5.194354,5.200386,5.199194,5.1928577,5.1808114,5.1567097,5.1185246,5.0772495,5.051144,5.058919,5.1395674,5.3287086,5.69599,6.15812,6.5303783,6.7691517,6.9203377,7.043935,7.162219,7.2578773,7.3188057,7.3467164,7.337226,7.30447,7.254196,7.199994,7.1430683,7.059039,6.9558487,6.8514843,6.6443253,6.3891873,6.124607,5.912639,5.7799315,5.7127066,5.684008,5.671629,5.6683083,5.669738,5.6729474,5.678735,5.6915984,5.7165194,5.7558584,5.813989,5.8917723,5.979675,6.0563536,6.110858,6.148962,6.1829586,6.233262,6.3159413,6.4683595,6.6596494,6.8250203,6.935144,7.0064774,7.0425434,7.0577126,7.0648785,7.0677147,7.0683775,7.0687447,7.069457,7.0711136,7.073609,7.077882,7.0829616,7.086584,7.087701,7.086806,7.0842085,7.0809813,7.0771627,7.073428,7.070253,7.067545,7.0648975,7.0619617,7.0582447,7.0538845,7.04871,7.0442276,7.0410986,7.03865,7.036078,7.0325556,7.026792,7.0185585,7.0080795,6.9969816,6.9879293,6.9826117,6.980297,6.9811745,6.9839926,6.9847755,6.9802995,6.969735,6.9552345,6.94116,6.9300413,6.925449,6.9269104,6.9319606,6.936076,6.9359736,6.93264,6.9279156,6.9259768,6.929287,6.934385,6.9327846,6.919714,6.890787,6.822798,6.735429,6.6582108,6.6007385,6.5639715,6.5489416,6.5522966,6.5606976,6.5656576,6.561528,6.5469017,6.523189,6.494195,6.4655504,6.4424887,6.4260206,6.418418,6.418792,6.4221306,6.423719,6.421382,6.4146967,6.404903,6.391989,6.3773813,6.364229,6.3557553,6.3538723,6.357982,6.364031,6.3695836,6.374611,6.385495,6.4092236,6.4600754,6.5591054,6.7150884,6.8915234,7.0241423,7.1032906,7.1408086,7.149461,7.1415887,7.13181,7.124629,7.123653,7.129396,7.1388273,7.1475487,7.153016,7.1555862,7.156328,7.155772,7.1545,7.153696,7.154082,7.1557903,7.1587105,7.1624155,7.165718,7.16732,7.164522,7.1565576,7.1421695,7.1206737,7.0982,7.078701,7.0617843,7.049269,7.044447,7.047987,7.0536013,7.050696,7.0370197,6.981781,6.9005947,6.7946014,6.6765714,6.5835342,6.541868,6.5316477,6.537237,6.542399,6.506796,6.411869,6.280978,6.1589603,6.087502,6.1074386,6.3071127,6.6961007,7.0501976,7.203268,7.246248,7.2684026,7.244179,7.201718,7.1705017,7.1544404,7.144233,7.1419287,7.157188,7.1700993,7.183001,7.1944942,7.202365,7.206305,7.208357,7.2101355,7.2103653,7.205348,7.1799183,7.123743,7.0188603,6.8442793,6.613119,6.405059,6.2517943,6.1482887,6.0914845,6.069456,6.074627,6.11222,6.185981,6.29739,6.4767723,6.6843147,6.8863163,7.0370607,7.105139,7.140771,7.1465435,7.142966,7.1408114,7.142089,7.142008,7.135992
3.6555395,3.6643882,3.6737168,3.6831393,3.692584,3.7021282,3.7120209,3.7226925,3.7340555,3.7462316,3.7574956,3.7670753,3.7756166,3.7829175,3.78939,3.7953992,3.801273,3.8079896,3.8166142,3.827285,3.838949,3.8507051,3.8616867,3.8718572,3.8816462,3.8921323,3.90476,3.920178,3.9372172,3.95634,3.9773078,4.000368,4.0252266,4.051696,4.079668,4.107762,4.136497,4.168255,4.2049875,4.2457237,4.2869205,4.3262963,4.365519,4.412946,4.4683743,4.534048,4.607305,4.68647,4.769017,4.849397,4.932372,5.021125,5.109391,5.1896772,5.253313,5.295844,5.3193865,5.326253,5.323567,5.3117924,5.290216,5.255522,5.210082,5.1711864,5.1659594,5.2112203,5.3782005,5.7613173,6.287118,6.7225647,6.9322686,7.035546,7.124489,7.2315497,7.305666,7.3577833,7.3946323,7.403875,7.3928413,7.3541107,7.29202,7.2295856,7.159109,7.0709496,6.9732237,6.853142,6.6242533,6.366692,6.1063766,5.8994427,5.7750735,5.7184896,5.6964507,5.6887913,5.6876698,5.689061,5.690562,5.694129,5.705868,5.7320156,5.7748814,5.8377085,5.920564,6.0089297,6.078855,6.12467,6.1594954,6.1972375,6.2589645,6.368371,6.5687685,6.7774167,6.9312086,7.025097,7.065181,7.081482,7.0894413,7.0916977,7.0899,7.086788,7.0846844,7.0840883,7.085082,7.0875845,7.092566,7.098812,7.103359,7.1044807,7.102665,7.098823,7.0937343,7.0882845,7.083191,7.079327,7.0764265,7.073157,7.068636,7.0630198,7.056802,7.0507555,7.0460978,7.0433283,7.0418715,7.0406036,7.0383086,7.0334415,7.025655,7.01505,7.0033674,6.9935713,6.9876223,6.9849167,6.985756,6.9886417,6.989277,6.984105,6.972017,6.9552016,6.938258,6.921132,6.911071,6.910955,6.916963,6.9216223,6.9206834,6.916176,6.9123797,6.9108343,6.9129653,6.9190235,6.921154,6.9099007,6.8791113,6.815109,6.7368727,6.6667275,6.612006,6.574639,6.5564976,6.554846,6.5591164,6.562256,6.5583177,6.545294,6.5235686,6.496455,6.469635,6.448225,6.4339385,6.4296284,6.4346504,6.444298,6.4536247,6.4596806,6.461315,6.4594626,6.454503,6.447568,6.442612,6.443162,6.450079,6.460982,6.4701796,6.4741096,6.472581,6.4723916,6.484497,6.527505,6.622533,6.7742567,6.9239187,7.0421677,7.1164293,7.151491,7.15944,7.152889,7.142887,7.135953,7.1360445,7.1418133,7.1510725,7.16044,7.1669216,7.1704445,7.1720076,7.172082,7.1711454,7.1701264,7.170021,7.1713834,7.174096,7.177784,7.1814365,7.18435,7.181795,7.1723003,7.156025,7.133355,7.109597,7.0898585,7.0735326,7.0617466,7.058156,7.061926,7.0650625,7.0600953,7.048879,7.002801,6.936942,6.8682256,6.7998238,6.743369,6.7268524,6.731003,6.745759,6.7499275,6.6904826,6.5457954,6.350466,6.171829,6.0921335,6.121809,6.3735075,6.8015203,7.14349,7.264824,7.299814,7.313208,7.294224,7.236906,7.188031,7.161827,7.144822,7.1366825,7.149808,7.1654787,7.181796,7.1983557,7.2131557,7.2260723,7.2372856,7.243981,7.248633,7.2473116,7.2269144,7.173505,7.082926,6.92793,6.6826925,6.443036,6.256368,6.124963,6.0511928,6.0245442,6.03724,6.093333,6.1920485,6.33476,6.539092,6.7638416,6.9570403,7.0814085,7.133049,7.146893,7.144575,7.1378407,7.1354365,7.137477,7.138629,7.134116
3.6620255,3.6708403,3.6800861,3.6894403,3.6987772,3.7081275,3.7177496,3.7281575,3.7393675,3.751522,3.762818,3.7723894,3.780904,3.7882924,3.7949576,3.8014762,3.8080258,3.8154216,3.8247113,3.8362207,3.8489432,3.8612084,3.872383,3.8825889,3.8923004,3.9026198,3.9151998,3.930972,3.9487453,3.969254,3.9922647,4.0178246,4.045348,4.074234,4.1040215,4.133311,4.1621885,4.194007,4.230812,4.2714067,4.31115,4.3493147,4.3924994,4.4448853,4.502898,4.5749273,4.6546173,4.7373705,4.8267403,4.923018,5.020312,5.120535,5.220881,5.31084,5.3811903,5.429995,5.4603887,5.47462,5.4820676,5.477271,5.4541306,5.414208,5.3678417,5.3383718,5.3620377,5.4653654,5.780138,6.3417006,6.817978,7.019468,7.1069107,7.21274,7.2873573,7.3532734,7.3928614,7.4086695,7.4177814,7.42584,7.418861,7.3848667,7.317497,7.24654,7.1640673,7.074236,6.9785137,6.835818,6.5830355,6.325291,6.0769043,5.882244,5.7686214,5.722089,5.7068033,5.703706,5.7046986,5.706136,5.7062807,5.708211,5.719488,5.7473917,5.794008,5.8616323,5.9494686,6.0360317,6.099494,6.14015,6.175222,6.2208557,6.2984176,6.4456635,6.684376,6.8958635,7.0198526,7.081479,7.1023636,7.1142426,7.114881,7.112923,7.1070075,7.100316,7.096777,7.0955644,7.0967073,7.099436,7.104962,7.1118617,7.1169167,7.117869,7.115101,7.1105003,7.1048613,7.0993395,7.094493,7.0908384,7.087949,7.0839233,7.077157,7.0698442,7.062067,7.054567,7.0489764,7.0460596,7.045143,7.0448036,7.0434046,7.03915,7.0315866,7.020771,7.008588,6.9982176,6.9917917,6.9888244,6.989682,6.99265,6.993171,6.987372,6.973867,6.9545345,6.93349,6.9087896,6.889633,6.886484,6.893057,6.898857,6.900074,6.8974066,6.8947,6.893261,6.8943644,6.8992214,6.901728,6.89256,6.864596,6.8068714,6.737852,6.6743555,6.62297,6.5855145,6.5641108,6.557906,6.5585823,6.559949,6.5562315,6.5444217,6.5241585,6.4986925,6.473668,6.4539022,6.442358,6.4420853,6.4526587,6.4701138,6.489457,6.5064135,6.518263,6.525342,6.529312,6.5309954,6.535471,6.546703,6.563861,6.581872,6.59354,6.594281,6.58349,6.5682983,6.5668297,6.598819,6.678522,6.813882,6.9443564,7.052042,7.121643,7.1549835,7.163596,7.15872,7.148915,7.142785,7.14392,7.1492515,7.1579237,7.167512,7.174415,7.178614,7.1808996,7.1814632,7.1806173,7.1797,7.179327,7.1798987,7.1822896,7.1861787,7.1903577,7.1940107,7.1924343,7.1828537,7.1650677,7.140964,7.116247,7.097268,7.081662,7.071466,7.0694995,7.072468,7.0725327,7.066388,7.053317,7.0130663,6.9612017,6.915589,6.886545,6.877246,6.8862457,6.9108543,6.937377,6.9412556,6.874268,6.6954236,6.434492,6.2019205,6.109376,6.147537,6.442748,6.896097,7.219475,7.3147774,7.3495474,7.3533707,7.336799,7.2674465,7.2035847,7.169186,7.1476173,7.133754,7.142896,7.160167,7.1787095,7.199396,7.2208333,7.243047,7.2645187,7.278202,7.2858806,7.2891407,7.275399,7.228082,7.142989,6.9989204,6.7670727,6.501733,6.276243,6.1161623,6.02744,5.996991,6.0169244,6.0899878,6.209483,6.3842263,6.603252,6.8439045,7.0284157,7.11953,7.1538887,7.1534524,7.1469984,7.138357,7.135744,7.138562,7.140932,7.137664
3.6679666,3.6767154,3.6858587,3.6951237,3.7043242,3.7134504,3.7227945,3.7329314,3.7439666,3.756048,3.7673216,3.7768724,3.7854195,3.7930217,3.8000343,3.807169,3.814433,3.8223968,3.832375,3.8447003,3.8576946,3.870011,3.881236,3.891429,3.9011993,3.9116793,3.9245582,3.9409132,3.9595027,3.9812706,4.0060306,4.033581,4.063117,4.093749,4.124708,4.1546097,4.1834407,4.2151995,4.2523,4.289625,4.327242,4.371252,4.421256,4.4763117,4.5409875,4.6205854,4.7031956,4.7906423,4.892638,5.000996,5.106365,5.2210197,5.333267,5.430744,5.507253,5.564469,5.6075997,5.6397133,5.668874,5.681282,5.6733284,5.6383605,5.5895033,5.572254,5.6348314,5.8080573,6.3036957,6.7675157,7.030904,7.1831026,7.306123,7.3593187,7.3793693,7.397514,7.4116783,7.4228277,7.4347367,7.4428973,7.432975,7.3967104,7.3351116,7.2440476,7.1535473,7.071145,6.966853,6.799885,6.534069,6.273901,6.0354667,5.859709,5.7622323,5.7241163,5.7147,5.715291,5.7177124,5.7187767,5.717573,5.718238,5.7295456,5.759552,5.810008,5.883116,5.975662,6.0599546,6.118663,6.1580257,6.19783,6.2566857,6.3568707,6.549124,6.787836,6.9854374,7.0879164,7.118524,7.1328344,7.138797,7.133435,7.1258316,7.1164246,7.1083894,7.1045146,7.103352,7.1045084,7.1079817,7.1142597,7.120995,7.125882,7.127227,7.124654,7.1197863,7.113805,7.108054,7.104086,7.101467,7.099615,7.0974083,7.09231,7.083279,7.0715127,7.0606775,7.053196,7.04947,7.0484757,7.048517,7.047511,7.0434465,7.035812,7.024734,7.012252,7.0016594,6.995119,6.99214,6.993111,6.996152,6.996496,6.990011,6.9751453,6.9531217,6.926796,6.893818,6.8689275,6.860488,6.8643923,6.871666,6.875895,6.874693,6.8722124,6.8711243,6.873414,6.8785806,6.8815846,6.8745203,6.8494077,6.798071,6.737879,6.6797414,6.631884,6.5952616,6.570977,6.5609717,6.558712,6.55861,6.554956,6.5438724,6.52493,6.501438,6.4786196,6.4612217,6.4534388,6.4583263,6.475541,6.501845,6.5324345,6.561123,6.5820446,6.594878,6.604719,6.613945,6.626956,6.6472015,6.6717644,6.692274,6.704158,6.703128,6.685311,6.659651,6.643055,6.6588984,6.726351,6.841563,6.960194,7.0597353,7.125203,7.158208,7.167944,7.1635523,7.1545653,7.150695,7.150551,7.1557007,7.164649,7.173641,7.180192,7.184642,7.187528,7.1885242,7.1874695,7.1851263,7.1827974,7.1820145,7.183956,7.188715,7.1947236,7.1987114,7.1975574,7.1890497,7.17126,7.145608,7.120901,7.1024265,7.0868025,7.078416,7.077737,7.079605,7.0782833,7.0712614,7.0525413,7.0132103,6.9719744,6.948552,6.945569,6.9571176,6.9842253,7.0266085,7.0614753,7.0700216,7.021302,6.837151,6.521555,6.2377014,6.132122,6.178606,6.5067453,6.9615293,7.271515,7.357119,7.3617067,7.3748045,7.3635645,7.290086,7.2167473,7.1753826,7.150054,7.132083,7.1395416,7.1564503,7.175951,7.1996727,7.226524,7.2571874,7.287471,7.3041267,7.3141665,7.3204956,7.3138046,7.2821617,7.205323,7.0665765,6.8631544,6.5802383,6.3044863,6.116541,6.019997,5.9895544,6.0170383,6.1050134,6.241559,6.4450808,6.6818523,6.9212217,7.0897646,7.15613,7.16702,7.164364,7.154375,7.143879,7.1411405,7.14499,7.1486235,7.146185
3.6739173,3.6825943,3.6916587,3.7008545,3.7099376,3.718868,3.727954,3.7378411,3.7487183,3.7607183,3.7719674,3.7815385,3.7902107,3.798153,3.8056293,3.8134398,3.821382,3.8297973,3.8402796,3.8531213,3.8659768,3.8781643,3.889381,3.8996396,3.9097304,3.9207888,3.9344022,3.9516354,3.9711757,3.9941566,4.0204134,4.049512,4.080575,4.1127176,4.1451025,4.176154,4.203554,4.235329,4.2695804,4.3074694,4.352533,4.4051485,4.461067,4.5199356,4.5953155,4.6773715,4.76332,4.8598795,4.970479,5.08697,5.2022095,5.3318415,5.451569,5.5502014,5.627897,5.6904607,5.745576,5.7996993,5.858221,5.8980875,5.908662,5.893065,5.864314,5.8634553,5.9675446,6.2571764,6.691996,6.9922576,7.170715,7.3074684,7.372895,7.388707,7.4030876,7.417839,7.4300647,7.4402227,7.4524527,7.4579735,7.4379363,7.409016,7.319565,7.22413,7.130865,7.046804,6.936755,6.7353806,6.481136,6.2240686,5.9975677,5.840069,5.757099,5.726366,5.7214284,5.724325,5.7269597,5.7267637,5.723814,5.723203,5.7346983,5.7671614,5.822245,5.901143,5.9987164,6.083291,6.1410036,6.1836677,6.233294,6.3096027,6.443203,6.677253,6.917102,7.06755,7.1269064,7.147441,7.1545515,7.1589794,7.1469135,7.133423,7.1214895,7.1132975,7.109898,7.109341,7.1108847,7.115088,7.1224155,7.128213,7.132069,7.1345363,7.133847,7.1291904,7.1230526,7.116887,7.1113586,7.1084695,7.107834,7.1062975,7.101451,7.0926995,7.078788,7.064208,7.0545444,7.050875,7.050723,7.0517635,7.0514894,7.047538,7.039488,7.027792,7.0147943,7.0041456,6.998023,6.9950686,6.99623,6.999427,6.99961,6.992413,6.976142,6.9513984,6.919876,6.8786173,6.8474817,6.8342676,6.8359694,6.8425817,6.8462048,6.8462276,6.846303,6.8468456,6.8503532,6.8556185,6.8586373,6.852834,6.830856,6.7888865,6.737028,6.684291,6.6392746,6.6036844,6.5781703,6.5647836,6.5599174,6.558366,6.554249,6.5436077,6.5260067,6.5045304,6.4843473,6.470782,6.4680433,6.479473,6.5048323,6.5417204,6.5812483,6.6132097,6.6356516,6.653714,6.6694694,6.6850767,6.704254,6.729788,6.760018,6.787815,6.8038282,6.7999363,6.7748003,6.7361593,6.705134,6.708293,6.7626476,6.8656015,6.976083,7.068038,7.129821,7.1629047,7.1735287,7.169623,7.1616354,7.1568623,7.1564445,7.1612463,7.1695585,7.178219,7.184948,7.189383,7.1918983,7.192373,7.1906753,7.1874475,7.1840677,7.1823196,7.1835675,7.1880646,7.1948547,7.200639,7.200638,7.1924257,7.1747513,7.1491604,7.124917,7.107192,7.0917006,7.0844693,7.0848613,7.0860224,7.0827293,7.0733676,7.0468645,7.008218,6.9756584,6.9703884,6.9874907,7.014985,7.0614977,7.1108837,7.1556673,7.166242,7.1200943,6.943866,6.6144557,6.2759647,6.1585827,6.214657,6.5687084,7.024926,7.3096323,7.3743596,7.3753943,7.388613,7.3835464,7.3089614,7.2285376,7.1813984,7.1531935,7.1320915,7.138099,7.1562614,7.175112,7.200281,7.2315316,7.2693186,7.3066626,7.3243923,7.337309,7.3454146,7.3420544,7.318535,7.2601004,7.148883,6.9684677,6.690008,6.369416,6.1391783,6.026101,5.9948483,6.0272856,6.1305056,6.2849503,6.5062,6.775606,7.00006,7.131422,7.180681,7.1823893,7.1769667,7.166342,7.1550117,7.152046,7.1574364,7.162881,7.1605997
3.6799855,3.6885958,3.6976159,3.7067928,3.715816,3.724588,3.733428,3.7430634,3.7537622,3.7656257,3.7767932,3.7863688,3.795193,3.8035305,3.811572,3.8201027,3.8285232,3.8376083,3.848587,3.8612218,3.8737497,3.885634,3.8968377,3.907394,3.9182615,3.9305139,3.9454794,3.9640317,3.9848068,4.009041,4.036604,4.0669346,4.099436,4.1330457,4.166088,4.1967683,4.2257237,4.256798,4.2947197,4.343135,4.399259,4.458255,4.520669,4.5921144,4.6727457,4.759633,4.852329,4.9557705,5.0715046,5.1922274,5.317819,5.4512753,5.5697756,5.662069,5.735956,5.8054767,5.8772416,5.952384,6.0464535,6.1261377,6.168461,6.1752787,6.170212,6.204852,6.352584,6.625592,6.924426,7.1479006,7.2957015,7.377326,7.3941913,7.4071894,7.4208345,7.4349275,7.4466867,7.456458,7.4689837,7.472427,7.440879,7.3908505,7.278951,7.1831856,7.088887,6.9929886,6.8718843,6.666295,6.417621,6.172746,5.963626,5.8240433,5.7536,5.7288046,5.726502,5.729786,5.7309055,5.728051,5.722508,5.72025,5.731879,5.767209,5.827936,5.9122324,6.0155287,6.1054955,6.168713,6.220747,6.2871037,6.3895655,6.576113,6.8034153,7.0102158,7.1242733,7.1605806,7.1723704,7.1719656,7.1719418,7.1558237,7.136983,7.122758,7.1152287,7.1129985,7.1134686,7.1143546,7.1186423,7.1261864,7.1321955,7.1357927,7.1377673,7.137332,7.1337786,7.126894,7.1170855,7.108712,7.1042476,7.1026278,7.100415,7.0943527,7.083047,7.067113,7.0529428,7.0451727,7.044387,7.047988,7.0523877,7.054366,7.05116,7.0425944,7.0298777,7.0159607,7.0053573,7.000456,6.997808,6.9984508,7.0018463,7.0020523,6.994155,6.976694,6.949441,6.9118724,6.8623114,6.8245153,6.8077116,6.80751,6.813141,6.8170586,6.8179603,6.8185024,6.8210435,6.8254166,6.8317623,6.8361893,6.8318205,6.8136854,6.780191,6.73549,6.68818,6.645855,6.61135,6.585705,6.5701227,6.5630655,6.5597973,6.554634,6.543816,6.5273447,6.5081015,6.4911604,6.4829874,6.4868383,6.506769,6.5424757,6.586946,6.6290183,6.662916,6.6917067,6.714719,6.7337627,6.751738,6.774751,6.807831,6.8464527,6.8776283,6.894191,6.892168,6.8571978,6.8040156,6.7582073,6.7473097,6.791327,6.886176,6.9919376,7.077894,7.137086,7.170324,7.180888,7.1770983,7.170455,7.164608,7.1637626,7.168043,7.1755915,7.183651,7.190091,7.194326,7.196543,7.19658,7.194193,7.1900244,7.1855755,7.182788,7.18318,7.1871967,7.1940455,7.201122,7.203247,7.1957006,7.1773767,7.1524014,7.1287355,7.1117983,7.096467,7.090008,7.0912776,7.092173,7.0871315,7.074544,7.042301,7.0039835,6.9781046,6.984048,7.016021,7.059329,7.117322,7.178768,7.234085,7.242606,7.190552,7.0185614,6.6865726,6.313558,6.187357,6.256353,6.628297,7.0828547,7.344666,7.388503,7.3868065,7.4001713,7.3985095,7.325123,7.2399106,7.187816,7.1575675,7.1339045,7.138568,7.157419,7.175451,7.2014933,7.236279,7.2792044,7.32193,7.34391,7.3596263,7.366103,7.362362,7.3461313,7.3041086,7.217514,7.069606,6.82944,6.4770794,6.20825,6.0722756,6.035491,6.075262,6.19285,6.3670325,6.593438,6.8748,7.084534,7.179283,7.2029533,7.1997786,7.192415,7.18196,7.1706114,7.1685514,7.175831,7.1824927,7.179164
3.686121,3.6946764,3.7036974,3.7129092,3.7219296,3.730587,3.7392068,3.7486029,3.7591178,3.7707932,3.781807,3.7913198,3.8002267,3.8088782,3.8174124,3.826339,3.835552,3.8452516,3.8561993,3.8684828,3.8808315,3.8926735,3.9043164,3.915814,3.9282517,3.9425943,3.959806,3.9804516,4.0031304,4.029188,4.058481,4.090697,4.124628,4.159304,4.19394,4.2264295,4.2585034,4.2965384,4.34699,4.4063845,4.471406,4.543325,4.6198916,4.698472,4.7835894,4.8772507,4.9750037,5.079033,5.1936736,5.31405,5.4399843,5.5655537,5.6756635,5.760153,5.8304,5.903878,5.9878473,6.0896764,6.2175417,6.3227797,6.390072,6.4224644,6.443816,6.501616,6.642042,6.854989,7.0704727,7.250252,7.362097,7.4022303,7.407815,7.4242563,7.437407,7.450784,7.46207,7.471586,7.4846554,7.4854107,7.4373436,7.345248,7.2335243,7.126375,7.023719,6.9238977,6.7904873,6.5776463,6.343805,6.1247244,5.9354105,5.811443,5.752019,5.731965,5.7308316,5.733097,5.7316227,5.7254686,5.7170515,5.713069,5.7244005,5.760701,5.8237033,5.916878,6.0275707,6.1272874,6.203809,6.2728963,6.3648996,6.503026,6.7077446,6.928657,7.087969,7.1616945,7.1849556,7.192112,7.185974,7.1780357,7.154535,7.132329,7.12048,7.1162643,7.114314,7.1136265,7.1133103,7.1168275,7.1240597,7.1312423,7.1361523,7.1376657,7.134321,7.1254506,7.111434,7.0955076,7.0819855,7.0729685,7.067004,7.0606074,7.051442,7.04068,7.028282,7.0190706,7.016367,7.021512,7.0328794,7.045543,7.053591,7.0536523,7.0457697,7.032113,7.017296,7.0067387,7.002397,7.0001554,7.0005627,7.0040417,7.004305,6.995989,6.977239,6.947281,6.905035,6.847595,6.8045745,6.7845135,6.7819834,6.786616,6.791243,6.793322,6.7945013,6.797618,6.8026476,6.809642,6.8149414,6.812563,6.7985964,6.771941,6.733289,6.6912804,6.6520395,6.6188183,6.5938873,6.5782166,6.5692315,6.564041,6.557338,6.5458136,6.5297523,6.512416,6.4993362,6.4969854,6.5080643,6.536039,6.579981,6.6280828,6.6721106,6.711685,6.745455,6.7700357,6.7890787,6.806755,6.8321333,6.8692565,6.9076843,6.932125,6.9464464,6.948386,6.9174385,6.857684,6.797843,6.7749023,6.811225,6.901935,7.006459,7.088603,7.1464624,7.1794834,7.188942,7.1851006,7.178813,7.172378,7.1709814,7.1745934,7.181374,7.1887655,7.1947575,7.1987324,7.2007103,7.2004294,7.197506,7.1925955,7.187294,7.1836224,7.18318,7.18661,7.1931677,7.2006884,7.204077,7.1974444,7.179424,7.1552153,7.132251,7.115829,7.1005034,7.0943327,7.0963697,7.0975986,7.091667,7.077355,7.041365,7.002993,6.980754,6.992993,7.0348096,7.0895624,7.1547074,7.229006,7.291317,7.2961683,7.2385883,7.0689898,6.7365084,6.344432,6.213669,6.295258,6.6780615,7.1302643,7.3738914,7.40026,7.3990297,7.4106455,7.4084387,7.3377028,7.2502694,7.1945314,7.1627355,7.136617,7.1407595,7.159358,7.1766763,7.203101,7.2401114,7.286253,7.3330755,7.3605843,7.37463,7.381322,7.377943,7.364501,7.335053,7.272451,7.155555,6.9684544,6.6349154,6.341792,6.1751328,6.1284785,6.173294,6.299317,6.494768,6.7243595,6.973766,7.145894,7.214164,7.224275,7.218992,7.2094164,7.1985,7.1874986,7.187359,7.1957498,7.201138,7.1950717
3.6922843,3.700808,3.7098727,3.719162,3.7282162,3.7367923,3.7452166,3.754386,3.7647002,3.7761204,3.7868629,3.7961452,3.804905,3.8135736,3.822174,3.8316083,3.8415265,3.8513348,3.8619351,3.8741646,3.8868685,3.8993812,3.9123712,3.9258645,3.9409814,3.9585452,3.9791377,4.002962,4.028594,4.057434,4.089501,4.124549,4.1611786,4.1993523,4.2391167,4.2767153,4.318326,4.3674965,4.430254,4.5033817,4.584342,4.6731043,4.762681,4.846696,4.9380116,5.034465,5.128334,5.223272,5.3277035,5.4381084,5.5495815,5.6611395,5.762249,5.840868,5.905694,5.9766674,6.0688753,6.1983137,6.342775,6.4613094,6.540097,6.587949,6.626964,6.689047,6.8067565,6.985812,7.1748285,7.318351,7.3895683,7.4115896,7.4244475,7.4395466,7.452209,7.4651756,7.476186,7.4857244,7.4989223,7.4931736,7.4226966,7.3008633,7.189659,7.054571,6.936227,6.8337154,6.6861773,6.4715753,6.267071,6.076097,5.9086356,5.8006883,5.751418,5.735692,5.7352457,5.736171,5.732177,5.7232285,5.712476,5.707161,5.717306,5.751875,5.8150215,5.918747,6.0378647,6.1486964,6.24398,6.337522,6.460397,6.633507,6.8207464,7.0256567,7.1438313,7.1867375,7.202358,7.206954,7.1968184,7.1807985,7.146859,7.1238866,7.1164007,7.1159477,7.1140203,7.109437,7.107229,7.1091423,7.114567,7.1208878,7.124934,7.122949,7.1119986,7.092779,7.068913,7.044299,7.022913,7.0067296,6.9935412,6.979674,6.964881,6.953381,6.945369,6.943331,6.9534807,6.976021,7.0032334,7.027197,7.046485,7.053853,7.0492954,7.035717,7.019994,7.0089874,7.004456,7.0024204,7.003082,7.006491,7.0068197,6.9984274,6.9785547,6.9460907,6.9004593,6.8365927,6.789297,6.7647557,6.7596054,6.7642508,6.7696314,6.772908,6.7752504,6.778308,6.783641,6.7907114,6.7961874,6.795463,6.7850027,6.7633634,6.7300873,6.6933174,6.6578875,6.626911,6.603559,6.588917,6.578986,6.5719805,6.5632343,6.5501857,6.533803,6.5180016,6.508486,6.510954,6.527712,6.5616226,6.610011,6.6596613,6.7067256,6.7521234,6.78637,6.8092594,6.826022,6.8422666,6.8681707,6.905341,6.940073,6.958392,6.970561,6.9744205,6.954587,6.8943825,6.8236,6.792428,6.8237867,6.91235,7.0177174,7.098368,7.1558166,7.188284,7.196237,7.1918964,7.1845217,7.177559,7.175496,7.1783957,7.1844945,7.1913285,7.19697,7.200734,7.2025223,7.202069,7.198913,7.1936955,7.1880126,7.183845,7.182791,7.1856585,7.1917973,7.1992173,7.2029133,7.19715,7.180288,7.157008,7.1349926,7.11899,7.1033335,7.09695,7.0993996,7.101312,7.0958004,7.0815573,7.0440826,7.0058165,6.9848614,7.000338,7.0479307,7.1096497,7.1813345,7.2662497,7.3266544,7.3262243,7.269225,7.104082,6.769425,6.3660917,6.234381,6.3255887,6.7139463,7.1641827,7.3956347,7.409763,7.410394,7.4202876,7.415015,7.3470345,7.259086,7.2010174,7.1681204,7.1396823,7.1433125,7.161579,7.178217,7.2045135,7.24259,7.2901716,7.3392744,7.3716297,7.3825073,7.390732,7.3898296,7.3777514,7.3548455,7.3095417,7.219394,7.075656,6.8150253,6.521952,6.3342056,6.2814064,6.323015,6.4490175,6.649727,6.8779745,7.0740623,7.1914454,7.2364845,7.2431774,7.235772,7.224763,7.212262,7.2018957,7.2023997,7.209691,7.212327,7.2037473
3.698419,3.7069292,3.716044,3.7253976,3.7344604,3.7429423,3.7511787,3.7601314,3.7702255,3.781337,3.791696,3.8005593,3.8088865,3.8172097,3.8258648,3.8358903,3.8458595,3.8553748,3.8658772,3.8784928,3.8922677,3.9062946,3.9215646,3.9380233,3.9567513,3.9784293,4.003315,4.0313063,4.0609865,4.093867,4.1303864,4.170081,4.2124357,4.2580767,4.3062716,4.3522897,4.4059277,4.466343,4.5418787,4.6355133,4.738961,4.840461,4.9347925,5.025337,5.118411,5.2086945,5.289505,5.3678513,5.4540663,5.5446415,5.635536,5.733541,5.826913,5.899363,5.956072,6.0212684,6.119007,6.266159,6.414035,6.542451,6.626459,6.6778464,6.722028,6.783181,6.8975616,7.0690813,7.236109,7.3616486,7.415007,7.4238787,7.4387064,7.453451,7.46576,7.4783306,7.489053,7.4988422,7.511197,7.4958377,7.402773,7.2723393,7.1404257,6.9766054,6.8450217,6.727495,6.5625176,6.368351,6.1935616,6.023919,5.8799925,5.7900896,5.750614,5.739441,5.7400618,5.740201,5.7345657,5.723947,5.711722,5.705417,5.7137628,5.745447,5.808716,5.920842,6.048837,6.1711397,6.286706,6.4094844,6.5605774,6.7472987,6.9225893,7.0828876,7.1705422,7.2042294,7.217286,7.217589,7.202957,7.1790805,7.139531,7.1181335,7.113281,7.1140966,7.1114955,7.1029634,7.097887,7.097084,7.098697,7.1007214,7.099389,7.0894146,7.0680046,7.038568,7.0065866,6.967893,6.930551,6.90018,6.875978,6.8545837,6.835346,6.819003,6.809782,6.8117256,6.838915,6.893776,6.9546537,6.997533,7.0313983,7.0508003,7.052933,7.0413,7.02481,7.0125694,7.007657,7.005371,7.0061417,7.009329,7.009762,7.00152,6.9811153,6.9471045,6.898772,6.8304014,6.7786283,6.7489815,6.7411985,6.7463236,6.752648,6.756437,6.759389,6.7627926,6.7679434,6.774905,6.7807603,6.7811365,6.772897,6.754515,6.7261333,6.694475,6.663335,6.6358166,6.6149707,6.6014338,6.5918055,6.58325,6.572297,6.5572705,6.5403028,6.5256977,6.518603,6.5241795,6.543757,6.5812,6.6309175,6.6811767,6.7297134,6.7757807,6.808019,6.8282423,6.842329,6.857052,6.88272,6.9207,6.957319,6.9778924,6.989403,6.992526,6.9770303,6.9162254,6.839164,6.802018,6.8293753,6.9177856,7.0247364,7.1056547,7.1632757,7.1953335,7.2021775,7.196785,7.1872635,7.1794252,7.1765947,7.1788607,7.1844573,7.19092,7.1963344,7.199953,7.20161,7.201123,7.198011,7.192903,7.187319,7.18309,7.1817355,7.184163,7.189791,7.196889,7.2007093,7.1956177,7.1798124,7.1576853,7.1367655,7.1211023,7.1048994,7.0979095,7.100182,7.102805,7.0989075,7.085891,7.0493784,7.011649,6.990494,7.0062737,7.056328,7.122952,7.200755,7.292892,7.3455286,7.340602,7.2876987,7.1273355,6.7907515,6.3816404,6.2507663,6.3488197,6.7378798,7.185025,7.4103084,7.4178333,7.417771,7.42785,7.4192247,7.3533554,7.2657223,7.2065425,7.1733313,7.143383,7.1461234,7.164382,7.1799827,7.205551,7.2438297,7.2911477,7.3401737,7.3761015,7.386841,7.3948984,7.3971767,7.388393,7.3668156,7.328985,7.2622347,7.1455026,6.966406,6.7085075,6.5233846,6.466052,6.5038166,6.6302614,6.8103456,7.0117683,7.1574135,7.231513,7.256692,7.257639,7.247351,7.2359424,7.22124,7.211018,7.2099533,7.21432,7.2148905,7.2059803
3.7044,3.7128873,3.7219958,3.731317,3.7402816,3.7485986,3.7566333,3.765382,3.77527,3.7860835,3.7960463,3.8044207,3.812204,3.8201723,3.8295188,3.8394241,3.8490648,3.8584824,3.8692803,3.8827715,3.898179,3.9143014,3.9323318,3.9521098,3.974676,4.0006104,4.029988,4.062572,4.0969906,4.1352887,4.1781883,4.22552,4.2769794,4.3316097,4.3881483,4.445574,4.503471,4.579129,4.6779375,4.7918334,4.9079094,5.0169888,5.113705,5.19995,5.2838287,5.360919,5.426666,5.48769,5.5533047,5.6230764,5.6995907,5.786985,5.8698254,5.9326944,5.983183,6.045517,6.142931,6.2956734,6.4544945,6.582648,6.670804,6.730174,6.7784524,6.8381424,6.93686,7.1129446,7.2639265,7.379882,7.4304004,7.4361405,7.451275,7.465858,7.477894,7.4901304,7.500588,7.5106077,7.521781,7.498647,7.389477,7.249542,7.091131,6.9151373,6.7749395,6.634241,6.4535866,6.2821417,6.1238756,5.9732842,5.851138,5.778381,5.7488585,5.742614,5.7449975,5.745202,5.7389016,5.7275867,5.71445,5.706995,5.713686,5.7430553,5.8048854,5.923176,6.06141,6.1971703,6.3329334,6.4848065,6.654646,6.8262787,7.0070934,7.126831,7.1912227,7.219583,7.2288904,7.2239966,7.203512,7.1695786,7.13367,7.115291,7.1127615,7.112949,7.1070495,7.0968513,7.088438,7.0837183,7.0808244,7.0774717,7.069355,7.0512896,7.02108,6.9821486,6.938498,6.879081,6.8130984,6.7567325,6.717432,6.691904,6.6748075,6.6570053,6.6439037,6.643594,6.678293,6.7651024,6.876697,6.958604,7.008959,7.0443664,7.0562963,7.04868,7.032051,7.018104,7.012463,7.0094004,7.0097485,7.0125046,7.013007,7.0050325,6.984617,6.950178,6.900622,6.829049,6.7730956,6.7398767,6.729218,6.733243,6.7403364,6.7439327,6.746972,6.750332,6.755091,6.76149,6.7676597,6.769395,6.76253,6.7463913,6.722374,6.6953864,6.6685038,6.6448836,6.6270723,6.614958,6.6058884,6.5961447,6.583515,6.5671434,6.5497856,6.535898,6.5302706,6.537467,6.5578485,6.5963974,6.64484,6.693984,6.741333,6.784154,6.8138757,6.831832,6.844429,6.8587856,6.886339,6.9282646,6.969182,6.9926443,7.00433,7.006408,6.990594,6.9292517,6.849415,6.8062096,6.827676,6.9193606,7.0284705,7.1102333,7.1684504,7.2007065,7.207082,7.2005577,7.1884427,7.1796293,7.1760435,7.1778126,7.1831264,7.1894207,7.1947203,7.1982136,7.1997166,7.1991982,7.196228,7.1914454,7.1862564,7.182275,7.180861,7.1829615,7.1880455,7.1946354,7.1983232,7.193712,7.1789227,7.157979,7.138022,7.1222634,7.1055584,7.0976887,7.0993166,7.102544,7.1007113,7.09013,7.0563016,7.0190964,6.9961767,7.00949,7.059245,7.129078,7.2114687,7.307026,7.3556404,7.3516016,7.3009825,7.141817,6.8065352,6.3966227,6.266775,6.369972,6.754848,7.196437,7.419237,7.424602,7.422482,7.43202,7.420655,7.3559275,7.2693496,7.210623,7.178089,7.148035,7.150649,7.1685724,7.1823335,7.206517,7.2442007,7.2900715,7.337529,7.375538,7.388409,7.395527,7.400148,7.3941116,7.373873,7.341779,7.2907953,7.1942325,7.057773,6.866259,6.7027206,6.6355753,6.6808925,6.813487,6.959457,7.103034,7.198894,7.25352,7.273151,7.2675295,7.255747,7.2428703,7.2261925,7.2146926,7.2118287,7.213704,7.2131233,7.2048798
3.7100468,3.7184653,3.727465,3.73661,3.74533,3.7533908,3.7611911,3.7697406,3.7794533,3.790021,3.799654,3.8075023,3.8149471,3.82359,3.8326027,3.8422635,3.851736,3.8612986,3.872734,3.8874676,3.9048219,3.9233322,3.944209,3.9672594,3.9934607,4.0233345,4.05698,4.0942335,4.1336794,4.1784887,4.2288346,4.2852855,4.3481674,4.413026,4.4755435,4.5402784,4.6159787,4.706516,4.8193808,4.947961,5.0759945,5.1889443,5.27933,5.3534684,5.4232864,5.487029,5.5392375,5.583275,5.6297483,5.6845913,5.750054,5.8248153,5.8958426,5.9457774,5.98658,6.049188,6.15351,6.3055897,6.47289,6.60254,6.6955166,6.761076,6.8090944,6.8644037,6.95942,7.1345744,7.284918,7.3946786,7.4404836,7.4463463,7.46132,7.475726,7.4875574,7.4995832,7.5097666,7.5197053,7.530235,7.501502,7.380238,7.242753,7.080511,6.8883414,6.714987,6.5446386,6.3613014,6.207533,6.059431,5.924071,5.820288,5.763688,5.744611,5.743611,5.7483377,5.7493033,5.74301,5.7315574,5.717714,5.708869,5.713556,5.740424,5.8003592,5.9231625,6.0742865,6.2258215,6.3869863,6.5613723,6.7354765,6.902642,7.0597677,7.1533065,7.20529,7.2309027,7.236902,7.2268186,7.20284,7.1617484,7.1292863,7.113649,7.11281,7.11271,7.10437,7.0917153,7.0798693,7.071411,7.0639753,7.0557785,7.042253,7.0176497,6.980199,6.93279,6.860647,6.7812686,6.688062,6.606351,6.555481,6.529604,6.5167823,6.5027742,6.4909263,6.4926276,6.525867,6.6108904,6.7509537,6.904958,6.9814615,7.0340886,7.0589905,7.0574036,7.0405254,7.0246625,7.018017,7.0137844,7.0133214,7.015399,7.0158434,7.008149,6.988161,6.9542837,6.904577,6.8307705,6.771721,6.735408,6.722006,6.724139,6.730449,6.7336836,6.7362156,6.7392044,6.7435822,6.7494817,6.7549887,6.756719,6.7517157,6.7386246,6.718671,6.695901,6.673361,6.6537304,6.638759,6.628047,6.619196,6.6096716,6.596014,6.5786724,6.5612507,6.54815,6.5436087,6.55136,6.571959,6.608528,6.6541014,6.700858,6.745019,6.7834024,6.810671,6.827732,6.840784,6.857209,6.88806,6.9339576,6.978686,7.004669,7.0171223,7.017622,7.001275,6.9402933,6.8575563,6.8074403,6.8240414,6.918597,7.0307055,7.1126156,7.171584,7.204973,7.211081,7.2032485,7.189447,7.179456,7.175082,7.17645,7.1816144,7.187851,7.19307,7.1964154,7.1976986,7.19709,7.194292,7.189945,7.185304,7.181733,7.180382,7.18219,7.186703,7.1926804,7.1960893,7.191847,7.178027,7.158254,7.139222,7.1233215,7.10584,7.096652,7.097281,7.1007,7.1003876,7.0924587,7.0636177,7.026791,7.000947,7.0097566,7.0570555,7.1285214,7.2137203,7.31633,7.3639565,7.360134,7.311103,7.1542788,6.8222933,6.414171,6.2851176,6.391368,6.76727,7.202762,7.4250803,7.4301934,7.429366,7.4343576,7.4200068,7.3531847,7.268644,7.2131023,7.1820736,7.1532507,7.1565094,7.1742516,7.18499,7.2070413,7.243557,7.2878504,7.333781,7.3718214,7.3888416,7.3961,7.397763,7.3937693,7.3782024,7.348678,7.305491,7.227912,7.105072,6.970516,6.8528585,6.802499,6.8481226,6.9532843,7.053212,7.1637106,7.2336783,7.27205,7.282943,7.2737703,7.2619057,7.2461424,7.2288704,7.216816,7.21297,7.2144547,7.2121644,7.2003107
3.7158847,3.7242045,3.733003,3.7418332,3.7501547,3.7578368,3.7653213,3.773621,3.783151,3.7935257,3.802762,3.8106277,3.818716,3.8272996,3.836235,3.8459487,3.8555694,3.8655624,3.8778443,3.893909,3.913157,3.9339387,3.957388,3.9833539,4.0127964,4.046194,4.083824,4.125829,4.1707277,4.2228622,4.282869,4.353209,4.424126,4.4907684,4.5618424,4.6412497,4.7274275,4.83179,4.9615235,5.104766,5.238081,5.3464584,5.4306636,5.496687,5.555559,5.6060777,5.6427035,5.6700583,5.700833,5.7416563,5.793962,5.853696,5.908956,5.945747,5.977727,6.0364895,6.14283,6.301667,6.4677,6.601625,6.70007,6.767145,6.8143067,6.870043,6.965724,7.131133,7.2975683,7.4101257,7.45014,7.4561505,7.4709554,7.4852104,7.496851,7.5086813,7.518553,7.5279016,7.5388613,7.511906,7.3900642,7.242326,7.0789995,6.887943,6.681693,6.476229,6.2901354,6.137025,5.994773,5.8748655,5.789831,5.7485304,5.7393045,5.7439423,5.7512836,5.7532225,5.7471123,5.7356806,5.7211494,5.7108054,5.7129006,5.7365074,5.795149,5.922103,6.089469,6.2626963,6.4462514,6.635552,6.8160076,6.9853024,7.0980797,7.1711884,7.216713,7.2411637,7.2418814,7.223234,7.1972837,7.1557026,7.1268883,7.114107,7.1142206,7.1132593,7.1028986,7.0879736,7.0737076,7.0621605,7.05134,7.0391693,7.021586,6.9922724,6.9482555,6.891637,6.795336,6.682252,6.5599294,6.4667273,6.420973,6.405705,6.4012947,6.391856,6.3778,6.3718405,6.392915,6.46826,6.61578,6.806031,6.944328,7.0197315,7.059984,7.066546,7.0510263,7.033843,7.0246964,7.0190735,7.017466,7.018674,7.0189357,7.0115986,6.99164,6.9579077,6.9104486,6.8349805,6.7734537,6.7344055,6.718363,6.7177167,6.7215605,6.7240977,6.72656,6.7288313,6.732643,6.7381687,6.7433233,6.7449074,6.7406063,6.730185,6.7143593,6.6957235,6.6771364,6.6610584,6.648625,6.6390615,6.630289,6.6204967,6.606712,6.5892878,6.572447,6.5609236,6.557988,6.5660396,6.586825,6.6196456,6.6607227,6.703745,6.743836,6.7777104,6.802499,6.8197117,6.835331,6.8556194,6.8897157,6.9392185,6.987439,7.013775,7.0281467,7.027583,7.0108414,6.9513354,6.8664174,6.8098736,6.8219213,6.9113755,7.0304217,7.1140127,7.174024,7.2091208,7.21539,7.2065096,7.1917057,7.180187,7.174863,7.175836,7.1809607,7.1872826,7.19252,7.1957397,7.1967583,7.195999,7.1933436,7.1894436,7.1853967,7.182288,7.1810083,7.1824627,7.1862707,7.1914372,7.1943736,7.190378,7.1775084,7.158922,7.140774,7.124672,7.106176,7.0952168,7.0945234,7.0981,7.0991945,7.0935273,7.071986,7.0354257,7.0044584,7.0071435,7.0506372,7.1206155,7.205204,7.3150387,7.366495,7.365355,7.31848,7.167039,6.8430433,6.437824,6.3099136,6.4172277,6.780175,7.2076955,7.429246,7.4336967,7.434932,7.4364567,7.4182405,7.3493633,7.266872,7.2149916,7.186805,7.160426,7.16506,7.1799803,7.188019,7.2080016,7.2425556,7.284939,7.329461,7.366929,7.386261,7.3951597,7.396234,7.391551,7.3777685,7.3510456,7.3107924,7.2498913,7.14011,7.04012,6.959158,6.930958,6.9708853,7.042635,7.1387243,7.208197,7.2598276,7.2881117,7.2900047,7.277743,7.265487,7.246966,7.2291393,7.2172422,7.215211,7.2144365,7.207184,7.194579
3.721674,3.7298675,3.7383761,3.746757,3.7545288,3.7616963,3.768759,3.7767305,3.78609,3.796208,3.8057456,3.8144302,3.8230655,3.8319378,3.8413353,3.851645,3.8619766,3.8727522,3.8859165,3.9030378,3.9235315,3.9457788,3.9707823,3.9985151,4.030056,4.0658627,4.1065226,4.152734,4.202876,4.263214,4.3354754,4.4139175,4.4887633,4.5618167,4.6425295,4.72716,4.818986,4.934593,5.0793247,5.234153,5.371117,5.4775896,5.5586977,5.6171274,5.6688085,5.7112675,5.736875,5.750951,5.768152,5.795067,5.8322067,5.874893,5.9127154,5.9352646,5.9581585,6.01095,6.1131525,6.276308,6.443123,6.5896072,6.6926847,6.7580843,6.808096,6.867983,6.965473,7.1210318,7.3087225,7.4255977,7.4589014,7.4651227,7.479554,7.493457,7.5049973,7.5168524,7.5264463,7.5352516,7.544719,7.5215235,7.414951,7.262351,7.1124754,6.917671,6.6759114,6.4368877,6.239605,6.0763617,5.9372797,5.829587,5.7613926,5.7338786,5.7335176,5.7435894,5.7533975,5.756169,5.7500653,5.738528,5.7232885,5.7116065,5.7107553,5.7302637,5.7882204,5.9200935,6.10458,6.3051424,6.5069666,6.706458,6.8945494,7.0501375,7.125453,7.184123,7.2255363,7.248949,7.244788,7.2181435,7.1901746,7.15149,7.125959,7.1154366,7.1158967,7.1138487,7.102083,7.0859656,7.0703797,7.057325,7.0453796,7.0320654,7.013049,6.9810915,6.931441,6.864952,6.754775,6.6093073,6.468464,6.376043,6.3405304,6.337596,6.3421106,6.3361363,6.3170233,6.2962513,6.3003054,6.3603334,6.499819,6.7048864,6.897081,7.0003004,7.0583844,7.07438,7.0616546,7.043413,7.0313787,7.024488,7.0217485,7.0222206,7.022316,7.0152626,6.995445,6.9619102,6.9161043,6.8408003,6.7777004,6.736456,6.7174945,6.7133307,6.7141867,6.7150984,6.716728,6.719103,6.7225924,6.727643,6.7325726,6.734215,6.730556,6.7218676,6.7091293,6.693309,6.6774955,6.664034,6.653288,6.644147,6.634962,6.624303,6.6103477,6.593899,6.5790987,6.5701656,6.569647,6.5793,6.600314,6.6295652,6.6654882,6.7033925,6.7387257,6.768694,6.791769,6.810353,6.8297334,6.855012,6.8932557,6.94612,6.996143,7.0209274,7.0360317,7.0353937,7.0190773,6.961918,6.8771143,6.8162646,6.8226156,6.904318,7.0288973,7.114444,7.1762323,7.2134285,7.2203283,7.2112236,7.1956344,7.182352,7.175894,7.1764183,7.181581,7.1881456,7.1935625,7.1967783,7.197589,7.1966767,7.1941204,7.190591,7.187038,7.184277,7.1829243,7.1838493,7.186735,7.1908484,7.193094,7.189205,7.177203,7.159733,7.1424093,7.125824,7.10634,7.0934095,7.0910187,7.09497,7.0980787,7.093995,7.0810757,7.0442615,7.0065613,6.998345,7.0342073,7.104517,7.1899295,7.3021984,7.363948,7.367533,7.3227644,7.1791487,6.86739,6.470043,6.3435187,6.449791,6.79659,7.2133064,7.4338927,7.438383,7.439928,7.438841,7.416102,7.345519,7.265161,7.2167015,7.1922235,7.169986,7.175496,7.184741,7.1909647,7.209218,7.2411613,7.281349,7.3248334,7.3627567,7.38253,7.3943386,7.3956966,7.3889823,7.374572,7.349663,7.3126574,7.2626076,7.166463,7.082652,7.02687,7.0138845,7.04739,7.10731,7.1860127,7.237382,7.279479,7.2988977,7.2946634,7.281045,7.2662716,7.2443495,7.2271633,7.2185707,7.2154303,7.2106524,7.200882,7.188318
3.7271929,3.7352712,3.7434776,3.7513847,3.7585816,3.7652137,3.7718267,3.7794523,3.7885852,3.7989135,3.8093574,3.8190427,3.8282943,3.8381286,3.8485527,3.8599634,3.8713992,3.8829324,3.8964496,3.913698,3.934164,3.9565,3.9816613,4.00985,4.042408,4.0797977,4.123005,4.173391,4.2288904,4.2965145,4.3789825,4.4604664,4.5393343,4.6225295,4.708424,4.7900496,4.8857956,5.0060887,5.163866,5.3308325,5.4730844,5.582384,5.662669,5.717827,5.767011,5.8072605,5.827732,5.831361,5.8342876,5.846402,5.8670797,5.8921595,5.912619,5.920579,5.9336395,5.979341,6.0742664,6.234475,6.403161,6.5625887,6.677597,6.7482395,6.801793,6.866867,6.966539,7.1184483,7.322667,7.4401226,7.4667225,7.473322,7.4871397,7.500456,7.512018,7.524173,7.5335503,7.541856,7.5488834,7.527411,7.4381404,7.3016376,7.161461,6.969675,6.702788,6.42637,6.205703,6.0296803,5.8915925,5.7933865,5.738045,5.721614,5.7289677,5.74374,5.755525,5.7587185,5.75226,5.7404704,5.72474,5.7123556,5.708807,5.7238293,5.781619,5.9189396,6.1199303,6.3430195,6.5625663,6.7741556,6.9617996,7.0889263,7.145815,7.194398,7.2320895,7.252016,7.242626,7.211818,7.1831946,7.1481514,7.124995,7.115836,7.1161613,7.113009,7.100525,7.0846076,7.0690804,7.056508,7.0459948,7.0349693,7.0174456,6.9844317,6.9308977,6.858226,6.7359266,6.5729427,6.424236,6.3350863,6.3084517,6.315633,6.327609,6.323914,6.2974834,6.260702,6.248408,6.291068,6.4146643,6.621769,6.8428497,6.9760103,7.052348,7.0778866,7.069358,7.0507693,7.03666,7.0292034,7.025772,7.0259304,7.025946,7.0189714,6.999252,6.9659142,6.9209776,6.8468246,6.782975,6.7402964,6.718926,6.711595,6.7096653,6.70846,6.7084565,6.7109385,6.71402,6.7183766,6.722879,6.72441,6.7211924,6.7134595,6.7017713,6.687379,6.6733365,6.661442,6.6513934,6.6419544,6.6320133,6.620018,6.6058226,6.5910087,6.579343,6.574199,6.577365,6.58971,6.6104903,6.6371775,6.6684537,6.700322,6.7301016,6.757037,6.7800803,6.8010235,6.8249025,6.8557634,6.898682,6.954172,7.004022,7.0260944,7.040839,7.040549,7.0253644,6.971262,6.8899603,6.8281307,6.826704,6.9001617,7.0268507,7.1140127,7.1782217,7.2179966,7.226166,7.2174454,7.2013454,7.1859927,7.1782374,7.1782427,7.183466,7.190387,7.1961365,7.199521,7.2002664,7.199294,7.1968527,7.193615,7.190407,7.1878014,7.1861725,7.186361,7.188104,7.1909275,7.192256,7.1882663,7.177026,7.1606545,7.14381,7.1265116,7.106242,7.091365,7.0870495,7.0912933,7.096861,7.0953646,7.0884976,7.052454,7.0075474,6.98442,7.009721,7.0831814,7.174399,7.279685,7.3535185,7.363076,7.323063,7.1906247,6.8939714,6.5109873,6.3836536,6.4865665,6.8160253,7.219775,7.4384155,7.4440675,7.445648,7.4415483,7.414563,7.3428693,7.2646523,7.2181606,7.1972046,7.181329,7.185506,7.1887426,7.1938124,7.2105255,7.2397327,7.277788,7.32049,7.3593183,7.3790646,7.391883,7.3948545,7.3878984,7.3721466,7.347684,7.313815,7.270355,7.185353,7.1105757,7.0678244,7.0623703,7.0926886,7.1473374,7.2050056,7.2549524,7.290896,7.3032017,7.2971067,7.281809,7.260578,7.237903,7.22336,7.217268,7.211988,7.2044725,7.194113,7.181578
3.732126,3.7401462,3.7481327,3.7556791,3.762435,3.7686515,3.7748966,3.7822104,3.791378,3.8024602,3.8138304,3.824338,3.8346648,3.8458602,3.8577006,3.870451,3.8829975,3.8947942,3.9076302,3.9236417,3.942572,3.9635162,3.9876602,4.0154405,4.048765,4.08786,4.1331835,4.186292,4.245775,4.320115,4.4091787,4.4954786,4.582046,4.6718936,4.755367,4.835152,4.929778,5.049568,5.219617,5.4065404,5.5651846,5.683017,5.7643037,5.820717,5.8699207,5.908964,5.924882,5.917078,5.9026594,5.897572,5.901118,5.909363,5.914716,5.9096518,5.9120865,5.9494467,6.036648,6.187019,6.358443,6.528074,6.659274,6.7412243,6.7986975,6.868456,6.9699974,7.122546,7.336867,7.4524045,7.4736447,7.480667,7.493867,7.506592,7.518098,7.530428,7.5395555,7.5469613,7.5541706,7.5359516,7.455492,7.346689,7.2036552,7.027614,6.75099,6.4344044,6.182864,5.995811,5.85737,5.7672358,5.721033,5.7129006,5.7267094,5.7452526,5.7584295,5.7616143,5.7545476,5.742585,5.7269263,5.7148066,5.709461,5.7204733,5.7782917,5.9204226,6.135683,6.370858,6.608102,6.8322062,7.0075893,7.1096735,7.160079,7.202485,7.2363863,7.249318,7.234617,7.204584,7.1764,7.144698,7.123177,7.1143584,7.1139793,7.109763,7.09711,7.0824556,7.068184,7.0575495,7.0504065,7.0439243,7.029555,6.9966116,6.9406986,6.8636475,6.730465,6.5619645,6.4091716,6.3205194,6.2999244,6.3145466,6.332719,6.3312244,6.29871,6.250285,6.22542,6.2530947,6.360093,6.559229,6.788994,6.948654,7.0407705,7.0747786,7.0715523,7.054334,7.0397844,7.032567,7.0290923,7.0294123,7.0294065,7.0222454,7.0023007,6.968899,6.9246235,6.8515415,6.7876635,6.744529,6.7221174,6.712918,6.708768,6.7056594,6.7039204,6.7054806,6.7077017,6.7111635,6.71484,6.7157135,6.7121515,6.7043223,6.6923847,6.678691,6.665819,6.6547117,6.6446915,6.6346264,6.6236634,6.6104417,6.596488,6.5837607,6.575718,6.575105,6.582639,6.597644,6.617513,6.641883,6.6688967,6.694929,6.7193437,6.743849,6.7681727,6.792222,6.820986,6.8574486,6.9046516,6.9612284,7.0092444,7.0290565,7.0432005,7.0431824,7.0294156,6.9791603,6.9027143,6.8418,6.8342247,6.8987036,7.02427,7.112577,7.179596,7.2226114,7.2328095,7.2245226,7.208042,7.1909943,7.1818004,7.181185,7.1865144,7.1938753,7.200083,7.203788,7.204633,7.2037354,7.2014623,7.198475,7.1954803,7.192851,7.190765,7.1900444,7.190464,7.1918035,7.191992,7.187634,7.176983,7.1616325,7.1447096,7.126718,7.1058583,7.0893297,7.0833216,7.0875425,7.0951777,7.097514,7.093381,7.0595174,7.007901,6.9691353,6.9807863,7.054844,7.1592274,7.2526903,7.3375874,7.355216,7.321596,7.200893,6.921909,6.5578995,6.426204,6.5237646,6.835825,7.2254057,7.4414062,7.449065,7.45031,7.444194,7.414073,7.342178,7.2659817,7.219928,7.201168,7.1914535,7.1925774,7.192537,7.1969533,7.2121525,7.238964,7.2752857,7.317251,7.35618,7.3756986,7.3879967,7.392704,7.3871574,7.371097,7.346371,7.3138313,7.274332,7.198681,7.132024,7.0945864,7.091937,7.1194687,7.164164,7.2148333,7.261553,7.292964,7.3021655,7.2943077,7.2749214,7.2486277,7.2290316,7.2177925,7.212085,7.2063866,7.1981297,7.1870794,7.1748714
3.7361484,3.744198,3.7521176,3.7595167,3.7660778,3.772099,3.7781482,3.7853503,3.795125,3.8068788,3.8188791,3.830236,3.841729,3.8543363,3.8676481,3.8816268,3.8949847,3.9064097,3.9176044,3.9313312,3.947802,3.9665008,3.9891686,4.016471,4.050816,4.0914154,4.137453,4.1910715,4.2528267,4.335429,4.430216,4.525573,4.621936,4.713407,4.791247,4.87066,4.9579635,5.0795875,5.2634373,5.480464,5.6716022,5.8050528,5.890622,5.9475517,5.9950886,6.0283833,6.034565,6.011424,5.976247,5.950533,5.936367,5.929048,5.923071,5.907559,5.899259,5.927594,6.0068445,6.1446657,6.323665,6.5041018,6.643536,6.7332964,6.7983994,6.8718634,6.973935,7.126055,7.346498,7.461397,7.4796724,7.486887,7.499691,7.512019,7.5231886,7.535184,7.543938,7.5502234,7.559909,7.548766,7.4744763,7.3845215,7.238371,7.073637,6.7926097,6.445264,6.1649246,5.969414,5.831213,5.7476163,5.708635,5.707064,5.7259655,5.7473793,5.761444,5.764372,5.7567377,5.744982,5.730253,5.719138,5.713151,5.7219114,5.779748,5.9257803,6.149911,6.3904543,6.642074,6.873684,7.0329,7.1224065,7.168455,7.2084208,7.238096,7.242879,7.225039,7.1986485,7.1700726,7.141075,7.1208954,7.1114593,7.109813,7.1047287,7.092349,7.0793514,7.066695,7.058336,7.055297,7.053611,7.04214,7.009896,6.952039,6.867303,6.73193,6.5585427,6.4024177,6.3139105,6.2959642,6.3147516,6.3380938,6.3394094,6.306003,6.252535,6.219899,6.237749,6.332266,6.5184436,6.7434626,6.921383,7.0250916,7.0657787,7.068181,7.0543137,7.041024,7.034405,7.031395,7.032154,7.0320973,7.024499,7.0040903,6.9703417,6.9259863,6.8538785,6.790605,6.7479544,6.72577,6.7160015,6.7104816,6.705944,6.7028027,6.7027464,6.703725,6.7061214,6.708713,6.708578,6.7040586,6.6950006,6.683011,6.6697006,6.6574636,6.6468315,6.6366777,6.6258316,6.613693,6.600036,6.587034,6.5769005,6.572715,6.5764236,6.5876293,6.6043777,6.6230288,6.644479,6.6667786,6.687975,6.708539,6.730971,6.756641,6.7843504,6.818043,6.8595295,6.9101086,6.9661837,7.011305,7.0302744,7.043577,7.0439224,7.0316725,6.985942,6.913001,6.852629,6.844166,6.8993597,7.0209694,7.109812,7.1797056,7.2263494,7.2390146,7.230815,7.2140307,7.1964903,7.18585,7.184555,7.190104,7.1979637,7.2046957,7.2087936,7.2098513,7.2091246,7.207061,7.20431,7.2014675,7.1987257,7.1961117,7.1944294,7.193475,7.1932735,7.192198,7.187272,7.1769853,7.162414,7.1450577,7.126588,7.105043,7.0874877,7.080576,7.084709,7.0937023,7.0991983,7.0973883,7.0661573,7.0089865,6.9563656,6.951048,7.018479,7.1395555,7.226947,7.32337,7.351227,7.321399,7.208832,6.9499917,6.606721,6.4683695,6.5582433,6.853471,7.2285404,7.442401,7.453021,7.4513493,7.4463267,7.414283,7.3432837,7.268977,7.222848,7.2045875,7.197708,7.196436,7.1961517,7.200446,7.2142572,7.2391577,7.274207,7.315467,7.3536243,7.372049,7.385532,7.38993,7.3846536,7.369461,7.344695,7.3129134,7.2743063,7.208762,7.148392,7.1145763,7.110359,7.1322813,7.174471,7.2172832,7.2575545,7.287582,7.2959185,7.2832494,7.259695,7.2359962,7.220058,7.2108517,7.2067623,7.201109,7.192028,7.180867,7.1694202
3.7392774,3.747477,3.755532,3.7630625,3.7697592,3.7758965,3.782001,3.7897787,3.800168,3.8122911,3.824685,3.8366861,3.849021,3.862665,3.8770518,3.8918138,3.9054928,3.9160886,3.9252472,3.9365528,3.9509296,3.9677172,3.9893346,4.017104,4.0521507,4.091207,4.1357694,4.1933947,4.2623825,4.354032,4.4524517,4.558976,4.66286,4.7527866,4.8310595,4.903303,4.9912033,5.121998,5.3295345,5.581502,5.802332,5.949644,6.0428553,6.1018124,6.1454334,6.1670613,6.157609,6.1156645,6.0573025,6.0077977,5.974761,5.95304,5.9372625,5.912879,5.895822,5.9162097,5.987667,6.1195,6.303137,6.4846554,6.629428,6.7294035,6.8015194,6.8761,6.979253,7.1293473,7.3515034,7.4673777,7.4853745,7.492405,7.5049143,7.5169325,7.527672,7.539155,7.5475016,7.5538344,7.5608387,7.548915,7.487615,7.409634,7.254666,7.094268,6.812418,6.446664,6.1464863,5.9453387,5.809196,5.7316766,5.698772,5.702383,5.7251263,5.748577,5.7631154,5.7657347,5.7578626,5.746964,5.734309,5.724126,5.7183137,5.7282724,5.786548,5.9371037,6.1610827,6.4005814,6.66453,6.905427,7.0530424,7.131872,7.174923,7.2123337,7.237068,7.237034,7.217695,7.192421,7.1649256,7.137974,7.118495,7.1082163,7.1051855,7.09972,7.0882816,7.0766068,7.0652485,7.0586023,7.0591774,7.0609627,7.0510755,7.01898,6.9598675,6.8703423,6.730866,6.5529375,6.395437,6.306986,6.2896013,6.3106728,6.3372126,6.341854,6.3108134,6.2576237,6.2212615,6.233224,6.3196163,6.4930186,6.7088375,6.8973074,7.008508,7.0543156,7.0620875,7.0524197,7.0412774,7.0353146,7.032958,7.034129,7.0338836,7.025657,7.0046296,6.9703045,6.925127,6.8537016,6.791231,6.749584,6.728306,6.7187605,6.712661,6.707267,6.7031226,6.7014704,6.700735,6.701869,6.7035294,6.702389,6.696918,6.68746,6.675318,6.662168,6.650194,6.6402435,6.630254,6.617992,6.605416,6.5922556,6.580701,6.5733023,6.5727434,6.5801344,6.5938864,6.6106396,6.6279407,6.646244,6.6636524,6.68026,6.69772,6.7187176,6.7455587,6.7770953,6.8162813,6.86217,6.9148693,6.9700027,7.0124702,7.03022,7.0427084,7.043541,7.032814,6.99166,6.922595,6.863269,6.8541784,6.9003415,7.0167427,7.105603,7.1776867,7.227562,7.24233,7.233507,7.217781,7.200248,7.188472,7.1866903,7.192536,7.200872,7.208066,7.2125235,7.2138143,7.2132993,7.211494,7.20904,7.206419,7.20366,7.2006655,7.1982074,7.196087,7.1945353,7.1923094,7.186819,7.176775,7.1628275,7.145163,7.126458,7.103488,7.0857215,7.0790052,7.0832896,7.0937786,7.1010933,7.1016173,7.0746355,7.013604,6.9496,6.9296675,6.986898,7.113077,7.2040734,7.311325,7.3471017,7.3199105,7.215092,6.9770327,6.655631,6.5093403,6.586109,6.86711,7.228965,7.440705,7.456358,7.4512224,7.447674,7.4144955,7.345272,7.2728395,7.226383,7.207716,7.202074,7.200122,7.199542,7.2036114,7.2162633,7.23967,7.2737913,7.31443,7.3515787,7.369224,7.38383,7.388331,7.382526,7.367289,7.343363,7.313158,7.2741876,7.2138386,7.158637,7.125616,7.1189632,7.1390247,7.179686,7.2155123,7.25066,7.2750435,7.2800007,7.2667766,7.2453218,7.22571,7.2118263,7.2040987,7.2017727,7.1964483,7.186738,7.176116,7.165907
3.7418187,3.7503414,3.7588005,3.766816,3.7740216,3.7807055,3.7876074,3.7962298,3.807036,3.8193665,3.8319244,3.8441224,3.8567824,3.8709102,3.885787,3.9007862,3.9142256,3.9235997,3.9307532,3.9399736,3.9525654,3.9681153,3.9892476,4.0163145,4.049266,4.0892534,4.1400557,4.205205,4.2830987,4.3774123,4.4849143,4.5990524,4.7070913,4.7995424,4.8786488,4.954376,5.0524592,5.2027903,5.454771,5.7486944,5.994566,6.15886,6.2497473,6.2949204,6.3282647,6.3267803,6.288851,6.224288,6.1485925,6.081399,6.0234447,5.986132,5.9598665,5.9265165,5.9015293,5.9153643,5.9809275,6.108312,6.2928457,6.475932,6.626424,6.7333565,6.8084497,6.882906,6.986875,7.133725,7.353856,7.4715858,7.4912033,7.4976726,7.50984,7.5214977,7.531662,7.542429,7.550276,7.5565166,7.562003,7.5490327,7.4914246,7.4075575,7.24952,7.0992575,6.81036,6.4253445,6.117977,5.9181848,5.787715,5.716117,5.6887875,5.6969185,5.722681,5.74756,5.7623277,5.764767,5.75729,5.748266,5.7388105,5.7314796,5.7278585,5.739874,5.799321,5.955539,6.176485,6.4127994,6.683095,6.931838,7.0747547,7.1404023,7.1819324,7.2153754,7.236124,7.232931,7.2118926,7.1866775,7.160384,7.1354427,7.1163297,7.104994,7.1002445,7.0951967,7.0856934,7.0742407,7.063488,7.0576496,7.05958,7.0633273,7.054591,7.0216255,6.959531,6.865061,6.7184806,6.538252,6.382057,6.2944717,6.2768154,6.298648,6.32753,6.336666,6.310953,6.262353,6.2265844,6.2364697,6.317064,6.4768686,6.6807256,6.872078,6.98999,7.0418205,7.0547466,7.049387,7.0406513,7.0357046,7.0340323,7.0352926,7.0345926,7.0255632,7.00381,6.968672,6.921713,6.8506274,6.7890787,6.748851,6.7289076,6.7200994,6.7141027,6.708357,6.7034526,6.7002645,6.698318,6.6984954,6.6991825,6.697149,6.6910286,6.681266,6.6691227,6.6563387,6.644911,6.6347294,6.624363,6.6129713,6.6006255,6.5883,6.5784783,6.5739684,6.5769243,6.5875635,6.6028366,6.6176324,6.632765,6.6472325,6.6596684,6.6717873,6.6865864,6.7072716,6.7361727,6.7715697,6.815115,6.8652797,6.9198627,6.9734077,7.0129433,7.02929,7.0409436,7.0423117,7.033271,6.9968967,6.932074,6.87345,6.862278,6.900041,7.011136,7.0994434,7.172632,7.2246304,7.241623,7.233349,7.218161,7.200762,7.1885147,7.1866226,7.192829,7.201635,7.2092314,7.213993,7.215521,7.215261,7.2138085,7.21179,7.2095633,7.206997,7.203882,7.2009134,7.19788,7.1951895,7.191944,7.1859455,7.1761665,7.1628313,7.14472,7.1261263,7.102484,7.08486,7.078418,7.0832047,7.0957584,7.105133,7.1060295,7.0886803,7.0248666,6.949068,6.915818,6.959033,7.0793533,7.1823006,7.299533,7.341295,7.3167725,7.2203045,7.0009303,6.6966276,6.548195,6.6102576,6.8774333,7.2262254,7.4347906,7.456652,7.4516296,7.4484997,7.414484,7.3478937,7.2776165,7.2307987,7.211355,7.206132,7.2040434,7.203017,7.2065697,7.2179456,7.2399116,7.2731724,7.313257,7.3495703,7.366622,7.382104,7.386528,7.3802857,7.365161,7.342127,7.3135977,7.274577,7.2186403,7.165869,7.1332045,7.1260157,7.1448946,7.1829524,7.212044,7.2416587,7.2612495,7.2637296,7.251066,7.2323594,7.2160177,7.204545,7.198609,7.1974974,7.1923103,7.1833763,7.1737666,7.1629205
3.7438996,3.7529993,3.7622185,3.771112,3.7793348,3.787217,3.7953286,3.8046503,3.8156862,3.8279765,3.8402748,3.8520665,3.8643575,3.878235,3.89286,3.907528,3.9204283,3.9288702,3.9348717,3.943149,3.9552808,3.9709964,3.9915795,4.0172343,4.0520773,4.099128,4.1597576,4.2348633,4.3233213,4.421795,4.5360136,4.6550074,4.768757,4.869253,4.9552565,5.0412555,5.1577864,5.346017,5.628231,5.969379,6.25182,6.3979454,6.4726686,6.5039825,6.5234303,6.513767,6.4537053,6.3515635,6.2453084,6.162802,6.080908,6.026033,5.9874725,5.9451623,5.9136467,5.9227624,5.9845448,6.110049,6.2916026,6.4764023,6.6323977,6.7433786,6.818729,6.892481,6.9970956,7.1403813,7.3556175,7.4750843,7.4972906,7.5030065,7.5147805,7.526018,7.5354557,7.5453014,7.552416,7.559412,7.564225,7.543396,7.472906,7.394309,7.236175,7.0800495,6.7734156,6.3779974,6.078208,5.885216,5.764471,5.6998134,5.6778765,5.6895943,5.7171516,5.742504,5.7571244,5.7596703,5.7536697,5.7481136,5.743501,5.7418127,5.743271,5.758564,5.8201737,5.978581,6.196743,6.4304223,6.7052097,6.9609575,7.099921,7.148538,7.187828,7.217656,7.235983,7.231271,7.2091146,7.183688,7.1587,7.1369705,7.1176147,7.105088,7.098737,7.0941615,7.087697,7.0783634,7.0665207,7.0599213,7.06149,7.0648437,7.055352,7.019782,6.953093,6.855122,6.6994143,6.519584,6.367378,6.281966,6.26433,6.286359,6.3170705,6.3307786,6.311954,6.2704697,6.237996,6.249173,6.326716,6.4719334,6.6608458,6.8532476,6.975683,7.03163,7.048523,7.04685,7.0402746,7.03622,7.035041,7.0361166,7.034763,7.02477,7.0021334,6.965884,6.9163165,6.8449984,6.7843313,6.745742,6.7271833,6.7192936,6.7140207,6.708413,6.7032366,6.6992817,6.696723,6.696349,6.696421,6.693865,6.6874714,6.677722,6.665907,6.653886,6.6423316,6.631874,6.622245,6.612282,6.6020236,6.59142,6.583768,6.582415,6.5884314,6.6002684,6.6146,6.627799,6.6400833,6.6505976,6.6587553,6.667504,6.6807127,6.70175,6.732545,6.770317,6.8166146,6.8700457,6.925226,6.9761515,7.012824,7.028035,7.038939,7.0415688,7.033962,7.0020905,6.9418554,6.883006,6.867341,6.8993444,7.001967,7.090764,7.164032,7.2160034,7.2351317,7.227851,7.2133656,7.196093,7.184462,7.1831503,7.1898956,7.1992307,7.2071605,7.212108,7.2137923,7.2137356,7.2126484,7.2111564,7.2094955,7.207402,7.204565,7.201544,7.1981134,7.194788,7.1909275,7.184684,7.1752977,7.1626315,7.144212,7.126075,7.102723,7.0849314,7.0787554,7.0850444,7.0999107,7.1113186,7.112326,7.103318,7.0412884,6.95815,6.9119644,6.940112,7.0515327,7.1660843,7.28687,7.332825,7.3133335,7.2243347,7.0203943,6.7353177,6.5838075,6.6303406,6.884636,7.220931,7.4269266,7.4564877,7.4522743,7.449225,7.4145575,7.3513103,7.283434,7.2370667,7.2172327,7.2108383,7.2086897,7.206934,7.2096567,7.2195845,7.2401443,7.272748,7.3124,7.347641,7.3646116,7.3798685,7.384369,7.378077,7.3629675,7.3404713,7.312749,7.2750607,7.223715,7.1731853,7.1405954,7.1329756,7.1505585,7.18475,7.206814,7.231132,7.246701,7.2474885,7.236183,7.220663,7.2073174,7.1984224,7.19495,7.19458,7.1896286,7.182138,7.1723547,7.1587334
3.7455757,3.755546,3.7658954,3.7760935,3.7859323,3.7956004,3.8047454,3.8146434,3.825717,3.8376226,3.849158,3.85992,3.8711362,3.884038,3.8977094,3.9116573,3.9240537,3.9324203,3.9388332,3.9480734,3.9617205,3.9782667,4.0006833,4.0279427,4.0696564,4.1284566,4.2018337,4.2891836,4.38529,4.489143,4.607288,4.73542,4.863676,4.9761763,5.068307,5.164065,5.301009,5.5151215,5.8384724,6.214548,6.487058,6.5856123,6.6373634,6.6619425,6.6737623,6.6705523,6.6120396,6.488126,6.3466067,6.236616,6.1378365,6.064472,6.0125794,5.961849,5.925209,5.9312906,5.990819,6.11572,6.2923794,6.4765453,6.637092,6.7516975,6.8269053,6.900382,7.0059175,7.1460257,7.3557625,7.477213,7.502301,7.507035,7.518502,7.5294056,7.5381837,7.5471077,7.55459,7.560663,7.5566626,7.5231347,7.447713,7.3477383,7.2099495,7.0354185,6.7023063,6.3096704,6.0281916,5.8453293,5.7384386,5.6818857,5.665129,5.679249,5.706997,5.7315197,5.7454357,5.7483954,5.7451553,5.7449694,5.7472773,5.7538776,5.7634687,5.784535,5.849638,6.0083966,6.2182293,6.4519706,6.7314014,6.9869804,7.118739,7.1555295,7.1901665,7.2183332,7.2357492,7.231202,7.209367,7.1838903,7.160474,7.1428366,7.124216,7.110711,7.1031528,7.0982475,7.092929,7.0862703,7.0778193,7.070709,7.070265,7.070801,7.058484,7.018817,6.946727,6.846117,6.682616,6.505883,6.3593307,6.2776003,6.2615576,6.2841716,6.3159313,6.3318014,6.320704,6.2864227,6.257719,6.2690783,6.3429112,6.479018,6.651887,6.8436975,6.9668856,7.024523,7.044437,7.0454516,7.0403185,7.036545,7.0355463,7.036475,7.0345144,7.0234995,6.999837,6.9622316,6.909713,6.8373756,6.777238,6.7401543,6.722558,6.7153225,6.7111917,6.7061925,6.7012157,6.69757,6.6951647,6.6948605,6.694997,6.6925516,6.686429,6.677083,6.666058,6.6542997,6.642905,6.6333523,6.625236,6.6168275,6.608915,6.6010756,6.5964365,6.5980654,6.606162,6.6183043,6.6313934,6.643028,6.6523347,6.659506,6.664838,6.6719637,6.684797,6.7064095,6.7382417,6.775263,6.8221107,6.8763022,6.9299545,6.9775558,7.011822,7.02641,7.036805,7.0410085,7.0347877,7.007352,6.951851,6.892559,6.871601,6.8980503,6.990734,7.0808077,7.15335,7.203125,7.223277,7.2169523,7.203154,7.1862755,7.175949,7.175699,7.183158,7.1930027,7.201087,7.2059784,7.2075887,7.20752,7.2066526,7.20564,7.2046375,7.2032895,7.2011824,7.1986914,7.195593,7.192399,7.1885986,7.1826186,7.173851,7.1619124,7.1438203,7.1263504,7.1039133,7.085868,7.079865,7.0879345,7.10481,7.117689,7.1204357,7.1150813,7.060916,6.9762983,6.916912,6.931472,7.0332603,7.15467,7.2753024,7.3223953,7.3096027,7.229357,7.0375605,6.771039,6.6167793,6.6484823,6.891101,7.2145324,7.417536,7.4555597,7.4521093,7.4487333,7.41393,7.354462,7.289363,7.244155,7.2243185,7.2161055,7.2135296,7.2111654,7.212691,7.2209225,7.2401276,7.272292,7.3118706,7.3464518,7.362998,7.377263,7.381498,7.374931,7.359584,7.337286,7.309741,7.274206,7.22783,7.179964,7.147871,7.1395593,7.154635,7.183817,7.1993732,7.2186995,7.230832,7.230763,7.221179,7.208645,7.198174,7.191786,7.1916504,7.1910315,7.187332,7.1803465,7.1687803,7.1538515
3.7474399,3.7585053,3.77017,3.782093,3.7939448,3.8052075,3.8150146,3.8253093,3.8361568,3.8473673,3.8578792,3.8674183,3.8773823,3.8891327,3.9016922,3.9150763,3.9275322,3.9370718,3.945612,3.9576159,3.9746232,3.993434,4.019943,4.053407,4.1053586,4.17771,4.2654953,4.365079,4.4654264,4.573918,4.701292,4.844987,4.987535,5.1085653,5.2077723,5.3115454,5.4635878,5.6866355,6.067082,6.4419084,6.6432276,6.7084723,6.751502,6.776305,6.7874203,6.784602,6.739755,6.6221538,6.4551363,6.3084493,6.1949596,6.0992393,6.0311646,5.972126,5.9317923,5.935975,5.9937916,6.1175747,6.289469,6.46856,6.6317945,6.751824,6.8285246,6.9025774,7.010686,7.1489673,7.352387,7.4758315,7.504972,7.5094776,7.5206165,7.5313244,7.5395756,7.5484514,7.5559177,7.553447,7.532465,7.491196,7.424546,7.287213,7.176426,6.9785104,6.617948,6.2334967,5.972592,5.8041353,5.71165,5.6635404,5.6516504,5.6671314,5.693714,5.716332,5.7291,5.7327366,5.733245,5.739878,5.7508917,5.766766,5.7865343,5.817359,5.8867216,6.0476346,6.2430334,6.4782267,6.7617283,7.009486,7.1301827,7.1598086,7.1896486,7.217135,7.2352285,7.2323074,7.2121825,7.1879425,7.1663904,7.1515365,7.1360993,7.124222,7.11684,7.111598,7.106003,7.100153,7.0958514,7.0909405,7.091461,7.0902333,7.073352,7.027365,6.949194,6.845272,6.6777353,6.5051274,6.3637085,6.286006,6.2725353,6.295324,6.3260922,6.3423157,6.336524,6.308684,6.2838106,6.293602,6.362849,6.494833,6.654944,6.8437862,6.963561,7.020788,7.0429416,7.045482,7.040906,7.036707,7.035635,7.03666,7.0343266,7.0223637,6.997611,6.958548,6.9032726,6.829607,6.769698,6.733466,6.7164545,6.709977,6.7070713,6.7027187,6.698588,6.695896,6.694399,6.694953,6.69592,6.694233,6.6888137,6.680399,6.6705017,6.6590753,6.6489534,6.641535,6.6354785,6.629282,6.6237082,6.6193514,6.618488,6.623437,6.633714,6.646589,6.65877,6.667634,6.6740236,6.679105,6.683385,6.6902795,6.703305,6.724431,6.7538257,6.788167,6.832425,6.8838415,6.9338636,6.977661,7.0098677,7.0247498,7.034931,7.0405397,7.035789,7.0129714,6.9622536,6.9028263,6.87714,6.8971844,6.98088,7.0718284,7.1429224,7.189856,7.210392,7.20448,7.1905375,7.1744914,7.1653852,7.166165,7.1743493,7.1845593,7.1925554,7.1971207,7.1983933,7.198043,7.1971607,7.196462,7.1960707,7.1955814,7.1944833,7.192953,7.1907854,7.1883974,7.1852827,7.1800613,7.1720796,7.1608725,7.1440725,7.1272883,7.105955,7.087683,7.0816426,7.0908794,7.1088777,7.1233416,7.129154,7.1242332,7.0816326,6.998824,6.9264655,6.9299326,7.0213823,7.145725,7.2651186,7.310872,7.305749,7.235874,7.0541506,6.805656,6.6480017,6.667384,6.9005494,7.2100277,7.407236,7.4527416,7.450922,7.446247,7.4120035,7.3563895,7.2942567,7.250492,7.231205,7.222129,7.2187014,7.215598,7.2154474,7.221778,7.2397366,7.2717123,7.311592,7.345842,7.3618946,7.375146,7.378482,7.3710074,7.3551497,7.3328104,7.305148,7.2716722,7.2302685,7.1855054,7.154445,7.1454163,7.1569033,7.179796,7.1903944,7.205,7.2140517,7.213825,7.2060785,7.195972,7.1880274,7.1837964,7.1871843,7.1858683,7.183009,7.175925,7.1630225,7.1481504
3.7502618,3.762465,3.7755766,3.7893934,3.8029692,3.8150291,3.8252063,3.8354757,3.845787,3.8561482,3.8657768,3.874534,3.883826,3.895026,3.907072,3.9206657,3.9342403,3.9462876,3.9583101,3.9741235,3.9954967,4.0193434,4.0503125,4.0921497,4.155529,4.2414837,4.3426704,4.4509196,4.5550003,4.6704383,4.812672,4.970229,5.118067,5.2432075,5.3545203,5.4681826,5.6254487,5.8696704,6.2814302,6.6133204,6.7495575,6.8298025,6.8819337,6.9075775,6.9187684,6.9025764,6.85701,6.7509556,6.575433,6.394245,6.258135,6.1331453,6.043982,5.9755564,5.9324875,5.9355736,5.9923563,6.1134443,6.2815285,6.452078,6.6157265,6.7432365,6.8238544,6.8985405,7.011899,7.1504936,7.345357,7.4698644,7.5051003,7.511161,7.521735,7.532323,7.54031,7.5479245,7.5515437,7.5358076,7.5024033,7.462641,7.4014955,7.256152,7.1518073,6.9286933,6.545865,6.1639414,5.9184074,5.768653,5.6875057,5.647235,5.6398215,5.6560564,5.680826,5.701091,5.7125998,5.7171326,5.7218266,5.7358065,5.756301,5.7811213,5.8112903,5.854677,5.929995,6.090234,6.2736807,6.5102644,6.7959156,7.033396,7.139763,7.1611414,7.1889057,7.21533,7.2354193,7.2350206,7.2174006,7.196293,7.176953,7.162695,7.151369,7.143677,7.1384544,7.134756,7.13091,7.1253815,7.1201735,7.119033,7.1239877,7.123419,7.104109,7.05287,6.966652,6.8573694,6.6907215,6.521085,6.3819427,6.306293,6.2940416,6.3152704,6.34274,6.358966,6.3536797,6.330909,6.3102303,6.3202295,6.387034,6.5144386,6.6686006,6.852471,6.9656773,7.0207434,7.044038,7.046924,7.0421886,7.0372643,7.0360565,7.0372467,7.034709,7.0219707,6.9961762,6.9557242,6.8982067,6.823785,6.764102,6.7280464,6.7116747,6.7063994,6.704422,6.700643,6.697934,6.696549,6.6965075,6.6985254,6.7007923,6.7001877,6.6957283,6.688673,6.680187,6.6707807,6.6630363,6.6583114,6.655354,6.6525564,6.650648,6.6504917,6.654219,6.6634226,6.6766825,6.690399,6.7009845,6.7065706,6.710219,6.7141128,6.718533,6.7256784,6.737968,6.755925,6.778819,6.8093386,6.847498,6.8928323,6.9376802,6.9774218,7.007798,7.023651,7.033927,7.0406904,7.0373087,7.018999,6.972915,6.9135594,6.883893,6.8983254,6.974443,7.0652876,7.1346,7.179376,7.200536,7.1945763,7.179742,7.164605,7.156221,7.1576405,7.1663227,7.176646,7.1843376,7.1883926,7.18915,7.1883364,7.1872573,7.186696,7.1867704,7.1870594,7.186974,7.186516,7.1855016,7.1842213,7.1820917,7.1778417,7.1706753,7.160247,7.1456046,7.1293745,7.10893,7.0902395,7.0839205,7.093607,7.1118445,7.1285686,7.137203,7.132725,7.0995092,7.0189667,6.936876,6.93059,7.0118456,7.1363115,7.2543297,7.299058,7.300707,7.2397213,7.0689573,6.8423533,6.678558,6.6884756,6.9150333,7.2099886,7.3972464,7.4473696,7.449107,7.44215,7.4088297,7.3567953,7.2973485,7.2550335,7.236989,7.228377,7.224127,7.2197948,7.2176685,7.222105,7.2389765,7.271042,7.3114653,7.345277,7.3615956,7.374145,7.376231,7.3675237,7.3509502,7.328233,7.3002644,7.2686806,7.2318506,7.1903296,7.1602407,7.1504917,7.1584744,7.1747212,7.1815286,7.1919293,7.198331,7.198129,7.1920233,7.183819,7.177745,7.175132,7.1809382,7.179696,7.176077,7.1693983,7.1569576,7.1411633
3.7541509,3.767375,3.7823195,3.79769,3.811908,3.8244395,3.8345342,3.8443396,3.8539152,3.8634398,3.8725574,3.8812807,3.890815,3.9024158,3.9149008,3.9296792,3.9454703,3.9609988,3.9772918,3.9973445,4.0230303,4.053375,4.090139,4.139621,4.212633,4.310649,4.422701,4.5352793,4.6422567,4.7721853,4.9193544,5.0799046,5.2382965,5.3753295,5.492282,5.616653,5.769718,6.060639,6.4471073,6.7188005,6.860057,6.990724,7.0384984,7.0569344,7.0702925,7.0482874,6.9831457,6.876145,6.71171,6.491372,6.322914,6.165567,6.0528226,5.9731145,5.9265122,5.929151,5.9868174,6.103191,6.2684555,6.4303045,6.5928535,6.728871,6.815537,6.889937,7.0102882,7.1512556,7.3364763,7.4610796,7.503312,7.5120325,7.52191,7.532414,7.540824,7.540573,7.5362234,7.5183845,7.487316,7.449614,7.3890514,7.2470856,7.1397724,6.8965473,6.4959736,6.1094513,5.8712864,5.73879,5.667311,5.6340075,5.630615,5.6473703,5.670203,5.6880856,5.6984158,5.703994,5.71292,5.7341433,5.763916,5.797962,5.837182,5.8914866,5.9776764,6.1225157,6.303086,6.5430713,6.829303,7.0550985,7.1436543,7.161662,7.188572,7.2147865,7.236722,7.2390804,7.224641,7.207164,7.1907325,7.1773977,7.1672893,7.160789,7.158471,7.1587734,7.159097,7.157959,7.155506,7.154853,7.1571975,7.154319,7.1417046,7.0955544,6.9989896,6.881273,6.7217455,6.552916,6.4121065,6.334843,6.3206835,6.338992,6.362883,6.3766975,6.3702707,6.3490934,6.3317385,6.344912,6.4118757,6.5355034,6.689619,6.866105,6.9711185,7.0231895,7.046606,7.048979,7.0437164,7.0383224,7.037106,7.0381765,7.0353928,7.022078,6.9953737,6.953723,6.8945465,6.82032,6.7609034,6.725176,6.709721,6.705291,6.703719,6.7012324,6.699721,6.7004366,6.702154,6.705702,6.709203,6.709561,6.7064185,6.7005825,6.69405,6.6883655,6.6841736,6.6827965,6.683897,6.685548,6.6883936,6.693761,6.7037196,6.717295,6.732581,6.7464504,6.755768,6.760062,6.761751,6.7638836,6.7682924,6.775488,6.7846317,6.796391,6.813546,6.8360453,6.8658004,6.903019,6.94158,6.9777555,7.006958,7.023052,7.0337863,7.0413914,7.039207,7.024783,6.982704,6.9237337,6.891238,6.9012384,6.9707804,7.0609417,7.129148,7.172086,7.193156,7.1876726,7.1727695,7.158001,7.1499386,7.1516056,7.160383,7.170518,7.1777167,7.1811557,7.1813173,7.1799855,7.178642,7.178117,7.17853,7.179455,7.1802397,7.180751,7.180825,7.180626,7.1794767,7.1761513,7.1697907,7.160346,7.148246,7.132435,7.112193,7.092964,7.086304,7.0961204,7.1144805,7.1328135,7.1438584,7.1409245,7.109516,7.031559,6.9467554,6.929734,7.001979,7.122015,7.242249,7.28831,7.291292,7.235403,7.080139,6.8785515,6.710655,6.712042,6.933401,7.214168,7.3880196,7.4392166,7.44638,7.437107,7.4045596,7.355656,7.29836,7.2572784,7.2405367,7.232542,7.228104,7.222738,7.2189455,7.2217226,7.2376566,7.2699537,7.3112087,7.34514,7.3617706,7.3739057,7.3747053,7.3648443,7.3474336,7.3238792,7.295846,7.2663856,7.233583,7.1944046,7.1648245,7.1541696,7.159425,7.1712627,7.1737833,7.180766,7.1851788,7.184491,7.1792865,7.1726065,7.1677732,7.1662846,7.172646,7.1724052,7.1690683,7.162382,7.150054,7.134354
3.7592916,3.7743077,3.7906063,3.806645,3.8212333,3.8338442,3.8435774,3.8527503,3.8617358,3.8708498,3.8802056,3.8899045,3.9007158,3.913575,3.9271595,3.943665,3.9622307,3.9816654,4.002562,4.027029,4.0562344,4.0895195,4.1347666,4.191389,4.272723,4.3767576,4.491624,4.61108,4.726077,4.856447,5.009844,5.1869802,5.356822,5.492819,5.60579,5.72478,5.901944,6.248376,6.592228,6.8565745,7.0308437,7.109001,7.131379,7.153689,7.1763945,7.2031965,7.1598225,7.0438843,6.8715396,6.609372,6.408902,6.218824,6.074394,5.974288,5.919055,5.9189925,5.9764843,6.0872774,6.246231,6.402507,6.566064,6.705456,6.796517,6.8796797,7.0044155,7.1541595,7.3273153,7.452009,7.5021076,7.5123296,7.521678,7.5321198,7.5399914,7.5434394,7.5398054,7.5225835,7.4981627,7.4675694,7.4023805,7.2543755,7.1459727,6.8834305,6.463276,6.068091,5.8317113,5.7125673,5.6497774,5.623082,5.623654,5.640897,5.661687,5.677105,5.6863427,5.6932364,5.7068176,5.735838,5.775536,5.819771,5.867521,5.928605,6.020476,6.157734,6.334261,6.5757065,6.860774,7.0747876,7.148345,7.164145,7.1918936,7.2161026,7.238688,7.2440753,7.2335997,7.22046,7.2078247,7.1968617,7.1883993,7.1837835,7.183569,7.1858497,7.1883764,7.1896596,7.1878796,7.188087,7.1896048,7.183791,7.1679688,7.133706,7.0566463,6.9192395,6.774148,6.5951357,6.447694,6.368162,6.3484306,6.360247,6.378998,6.3882437,6.3797026,6.3594112,6.346858,6.366496,6.4368863,6.5599985,6.7176633,6.8812003,6.978299,7.0279717,7.0502186,7.0514116,7.045414,7.0396852,7.038376,7.0394435,7.0365276,7.02271,6.99516,6.952466,6.892143,6.8187647,6.7597075,6.724682,6.7103634,6.7067366,6.705716,6.7047043,6.7046843,6.706888,6.710563,6.7160597,6.721333,6.723375,6.721628,6.717105,6.712216,6.709302,6.7094355,6.7129717,6.7188263,6.7253585,6.732945,6.742788,6.7589426,6.780325,6.8018827,6.818075,6.8264656,6.828394,6.8274574,6.827673,6.830781,6.8368006,6.844079,6.850869,6.8575563,6.869048,6.887988,6.9146976,6.946201,6.9791965,7.0070915,7.023023,7.034231,7.0427322,7.0418572,7.0311804,6.9925137,6.934061,6.900405,6.9064198,6.969692,7.0584593,7.1260996,7.1682687,7.1895537,7.184658,7.169895,7.1550403,7.146708,7.147976,7.156226,7.165702,7.172167,7.1749153,7.174497,7.172727,7.1711984,7.1707478,7.1714735,7.1729345,7.174429,7.1757283,7.1767015,7.1774335,7.1771755,7.174733,7.1692743,7.160626,7.149007,7.135332,7.1155243,7.0958624,7.08899,7.098656,7.1168795,7.1364007,7.150508,7.148488,7.1192036,7.043801,6.955454,6.9277654,6.9917154,7.1055365,7.2305384,7.2777004,7.280714,7.2304597,7.086877,6.899658,6.743815,6.739375,6.956522,7.222611,7.3811216,7.4315834,7.4428115,7.431119,7.3992853,7.353204,7.2976146,7.257616,7.2424307,7.2354174,7.2311454,7.2250605,7.21976,7.2209005,7.23584,7.2683487,7.3106465,7.345226,7.3623667,7.374507,7.3745413,7.3640594,7.3460016,7.321413,7.293158,7.2651463,7.2354393,7.198372,7.169448,7.1581206,7.160914,7.1688023,7.168708,7.1728773,7.175091,7.173754,7.169007,7.1630545,7.1591854,7.159045,7.1651764,7.164349,7.162577,7.156436,7.143776,7.129917
3.7666504,3.7829,3.7999697,3.8163376,3.8308997,3.8432422,3.8524842,3.8610432,3.8698606,3.8793063,3.889923,3.9018211,3.9150329,3.92983,3.9450483,3.9634404,3.9848843,4.008247,4.033538,4.0619097,4.0937376,4.1285295,4.176957,4.2398806,4.325198,4.4298234,4.5468006,4.672359,4.792753,4.9250727,5.089094,5.2767515,5.449338,5.584616,5.698716,5.815784,6.024069,6.390824,6.730007,6.978977,7.114459,7.1355352,7.1553955,7.1786222,7.2034883,7.236124,7.248015,7.201501,7.0675483,6.835984,6.5291367,6.3034725,6.1220083,5.9885755,5.916634,5.9094267,5.9618826,6.0664005,6.216884,6.371071,6.534216,6.6758356,6.776764,6.872161,6.996251,7.1626806,7.3191757,7.4366846,7.4958916,7.5122185,7.5202837,7.5306215,7.538003,7.5453568,7.5434628,7.53615,7.520424,7.4845057,7.419779,7.3055,7.170673,6.8900805,6.452948,6.0392876,5.799449,5.689732,5.634672,5.614284,5.6188865,5.636673,5.655349,5.668258,5.676548,5.685072,5.7038827,5.741633,5.792426,5.8479958,5.90501,5.971381,6.0635777,6.196939,6.3688555,6.61168,6.894389,7.0943246,7.1531057,7.1694126,7.19843,7.217963,7.240122,7.2486825,7.242366,7.23388,7.225638,7.218067,7.2123833,7.2101984,7.211873,7.216552,7.2217197,7.2244306,7.224018,7.224007,7.2252097,7.219839,7.2039137,7.1731257,7.105361,6.9731274,6.8356094,6.643966,6.4877653,6.401331,6.3710814,6.3730707,6.38354,6.386276,6.3755517,6.35797,6.3526583,6.382468,6.461423,6.587949,6.7505093,6.8983154,6.9875956,7.0345864,7.054307,7.0537004,7.0468693,7.0409136,7.039635,7.040826,7.0378428,7.023567,6.995205,6.951739,6.891307,6.8188534,6.760096,6.7262115,6.7126794,6.7095404,6.7099733,6.710657,6.7125273,6.7160378,6.7217474,6.7295556,6.7368445,6.740563,6.740181,6.7370677,6.7341604,6.7342725,6.7385936,6.7469525,6.7576838,6.7691374,6.7820673,6.7997627,6.8241158,6.854842,6.884759,6.9050174,6.9132156,6.914192,6.912652,6.911133,6.911483,6.912636,6.9114523,6.907072,6.9028935,6.902369,6.9094734,6.925333,6.9507036,6.9810667,7.007308,7.023762,7.035219,7.0446196,7.045566,7.0366073,7.001379,6.9465733,6.9117875,6.9140797,6.9711494,7.057517,7.1250105,7.167745,7.1900043,7.1860557,7.1716747,7.15615,7.1469774,7.14711,7.154057,7.162307,7.1677837,7.1698484,7.1690016,7.1670294,7.165534,7.1652946,7.1663465,7.1682053,7.170145,7.1719074,7.1734114,7.1747274,7.1750984,7.173366,7.168716,7.160823,7.149557,7.1373324,7.1187735,7.0990257,7.0917416,7.1012077,7.11906,7.1393223,7.1557846,7.154238,7.128352,7.05621,6.9643855,6.927207,6.983405,7.089034,7.2196174,7.267748,7.2711897,7.2257586,7.090131,6.915388,6.7749777,6.7702055,6.9868774,7.234459,7.3741207,7.4242344,7.436637,7.424883,7.3932447,7.349038,7.2950063,7.2564025,7.2430544,7.2374353,7.233719,7.2271805,7.2204533,7.219866,7.2336287,7.2662225,7.309723,7.345518,7.363698,7.3762627,7.376278,7.365492,7.3466654,7.3211336,7.292635,7.2646046,7.2377443,7.202521,7.1742086,7.1626043,7.163218,7.1671724,7.1657257,7.1679115,7.168507,7.166438,7.1617084,7.156047,7.152979,7.1550217,7.15926,7.157734,7.157613,7.15162,7.138974,7.1278687
3.7748082,3.7917662,3.8092265,3.82564,3.8398867,3.8518276,3.8607717,3.8691797,3.878646,3.8893836,3.9021366,3.9168859,3.9327292,3.949042,3.9652185,3.9844284,4.0076447,4.0341244,4.0633345,4.095319,4.1295457,4.16568,4.2133894,4.2805805,4.363858,4.464449,4.584055,4.7132263,4.8372917,4.9793077,5.1539917,5.343709,5.515703,5.6536484,5.7705774,5.8947563,6.1335793,6.4997907,6.8538046,7.0696955,7.0993147,7.050469,7.124249,7.1464114,7.1679,7.203766,7.2525673,7.277442,7.2237506,7.0521293,6.7206,6.4374075,6.209239,6.0336223,5.928136,5.904227,5.9442577,6.0403137,6.1826663,6.336249,6.4986525,6.6435804,6.7567677,6.8635654,6.986391,7.166897,7.309961,7.420528,7.487807,7.510961,7.5179415,7.5280933,7.5353265,7.543217,7.5464597,7.543749,7.5358315,7.5146885,7.4621553,7.363785,7.199798,6.9105077,6.457596,6.019302,5.773019,5.669876,5.6213303,5.606595,5.6149693,5.6332045,5.6496744,5.660059,5.667601,5.67807,5.702621,5.7499247,5.8127966,5.8805313,5.9471946,6.0173025,6.104867,6.23715,6.4036856,6.646907,6.9282846,7.1136055,7.1571555,7.1806273,7.2026525,7.2208586,7.2420735,7.251781,7.249164,7.2449584,7.2408743,7.236685,7.2338967,7.233906,7.237113,7.243741,7.2509184,7.2543135,7.254551,7.2558365,7.257515,7.253272,7.237934,7.206264,7.1460667,7.042035,6.890936,6.6949906,6.5325975,6.433289,6.388229,6.377993,6.3788815,6.37527,6.3639097,6.351937,6.3565664,6.3999047,6.4913435,6.623057,6.792156,6.918647,6.9985847,7.042277,7.0582848,7.055579,7.048092,7.0421715,7.0411386,7.0425515,7.0394773,7.024714,6.995631,6.951424,6.8905544,6.8206377,6.762503,6.729448,6.716679,6.714329,6.7163925,6.7187977,6.722638,6.727327,6.7349634,6.744973,6.7539997,6.758959,6.7595844,6.7576985,6.756851,6.760206,6.7687407,6.7816925,6.7971315,6.813554,6.8316684,6.8565197,6.890045,6.924037,6.9507046,6.967064,6.974431,6.9762874,6.9762745,6.9761934,6.976199,6.972641,6.963066,6.949678,6.937052,6.928175,6.9267664,6.9345627,6.954945,6.9827356,7.0074506,7.024454,7.0363536,7.046621,7.0495176,7.0414248,7.0098915,6.960304,6.9242754,6.9228287,6.97392,7.0569935,7.1242466,7.1684084,7.1923656,7.189745,7.1763134,7.161004,7.150015,7.1481237,7.1532927,7.159986,7.1644607,7.166068,7.165135,7.1633635,7.162245,7.162434,7.163855,7.1659627,7.1680183,7.169819,7.171352,7.172771,7.173395,7.1721244,7.168137,7.1609735,7.150295,7.1385474,7.12099,7.1017523,7.094458,7.103557,7.120821,7.1414337,7.158272,7.158703,7.136065,7.067483,6.9744387,6.929466,6.9784913,7.0748463,7.2100396,7.2598376,7.263864,7.2212486,7.0910606,6.927656,6.8001947,6.7999907,7.0150456,7.245167,7.369057,7.4182568,7.430462,7.419577,7.3868523,7.3439045,7.2912703,7.254242,7.243227,7.239483,7.236751,7.2300563,7.2220087,7.2196083,7.231945,7.2643423,7.30885,7.3458004,7.3655944,7.3789425,7.379481,7.3688307,7.3493147,7.322727,7.293762,7.264822,7.2390385,7.206048,7.178976,7.1673765,7.16625,7.1664886,7.1649933,7.16601,7.16564,7.1630783,7.1583204,7.152784,7.150301,7.1546173,7.156327,7.1544,7.154107,7.148787,7.137781,7.1277246
3.782215,3.799611,3.817243,3.8334904,3.8473454,3.8590183,3.8681908,3.8773317,3.8885388,3.9016075,3.916984,3.9342864,3.9516582,3.9675055,3.982524,4.0002813,4.0228977,4.050806,4.083252,4.119094,4.1568265,4.195009,4.243177,4.306811,4.384742,4.484252,4.606385,4.7357264,4.8629045,5.0168624,5.2037506,5.3953233,5.565781,5.704012,5.821166,5.9572954,6.2211933,6.5873103,6.94481,7.0853076,7.212626,7.4460125,7.2712507,7.294865,7.327545,7.307996,7.2584257,7.255216,7.2835937,7.2100983,6.978135,6.617205,6.330537,6.109887,5.9569273,5.902684,5.923085,6.008812,6.140435,6.2978888,6.4598565,6.607608,6.732712,6.8457766,6.9727197,7.1619368,7.2996244,7.4074984,7.4803925,7.5085497,7.514846,7.5247946,7.531994,7.538968,7.54558,7.5441914,7.5433345,7.543542,7.509615,7.406624,7.224434,6.932126,6.463303,6.001259,5.749109,5.6511536,5.608095,5.598257,5.609973,5.62846,5.6425977,5.650389,5.657244,5.669761,5.7002416,5.7574625,5.8328304,5.9129124,5.988942,6.060907,6.1391783,6.271326,6.4338436,6.6776714,6.954979,7.1259775,7.1602077,7.192482,7.2039857,7.2225223,7.243292,7.25311,7.2530017,7.252073,7.2513123,7.2498207,7.2491693,7.2505026,7.2544785,7.261544,7.2687807,7.271954,7.272318,7.275959,7.2788086,7.2758074,7.260864,7.229512,7.1784744,7.0995874,6.938532,6.750967,6.5818567,6.464406,6.403611,6.381159,6.374104,6.3664913,6.3574457,6.3533,6.3710423,6.4292307,6.5328217,6.67167,6.839573,6.9422765,7.0114822,7.0505342,7.0620027,7.057173,7.049357,7.043807,7.043226,7.0449038,7.0416403,7.02629,6.996541,6.951615,6.889962,6.824297,6.7671223,6.7344,6.7225814,6.7213745,6.7245903,6.728426,6.7334423,6.7393694,6.7486744,6.7602806,6.770364,6.77588,6.776909,6.7758045,6.7766876,6.783038,6.7955246,6.8127146,6.8321223,6.852055,6.8733015,6.901848,6.937146,6.9665623,6.985426,6.9967794,7.003376,7.006091,7.007265,7.009034,7.010396,7.007289,6.995919,6.9777102,6.959285,6.9452076,6.938265,6.94116,6.957917,6.983488,7.007319,7.024577,7.037204,7.048236,7.052679,7.045517,7.01781,6.972868,6.9349833,6.930866,6.9757843,7.0554667,7.121991,7.1673326,7.193615,7.1931686,7.180894,7.166375,7.153734,7.149788,7.153141,7.15836,7.162092,7.163612,7.162986,7.1617985,7.161356,7.162141,7.163947,7.166153,7.1680264,7.1694794,7.170584,7.171669,7.172206,7.171176,7.1677194,7.161228,7.151181,7.1395397,7.1224613,7.1039867,7.096918,7.1054425,7.1221056,7.1427927,7.158984,7.161355,7.1416693,7.07741,6.985181,6.934001,6.9765906,7.064048,7.200989,7.253536,7.258956,7.217474,7.091024,6.936826,6.8178825,6.8242826,7.033603,7.251174,7.3664236,7.4136076,7.4256454,7.4150333,7.3799067,7.337164,7.286266,7.251728,7.2436357,7.242284,7.240962,7.2344065,7.225172,7.220911,7.231573,7.263384,7.3083925,7.3458877,7.367362,7.3818183,7.3832064,7.372793,7.3526497,7.3250766,7.2954035,7.265522,7.2390175,7.2082253,7.1827145,7.1713047,7.1691465,7.1664333,7.165511,7.166066,7.165348,7.162756,7.1582046,7.1531544,7.1512947,7.155614,7.15621,7.156145,7.1534266,7.147608,7.13916,7.1285763
3.7880688,3.8057323,3.8234103,3.8395104,3.8531752,3.8649693,3.8750906,3.885994,3.8999581,3.9160514,3.9337513,3.9521713,3.968874,3.981514,3.9927948,4.0068884,4.0269957,4.0555983,4.0919704,4.1330357,4.1756725,4.217351,4.2670245,4.321579,4.397376,4.5028634,4.6272917,4.7560987,4.888212,5.0493374,5.2504416,5.4482255,5.614848,5.7473464,5.863022,6.0077453,6.292037,6.6610413,6.9955635,7.0539074,7.393194,8.058615,7.5576167,7.5831766,7.630333,7.53899,7.3825274,7.304263,7.3094883,7.285735,7.200836,6.8445063,6.4912844,6.2086434,6.0076523,5.907649,5.901516,5.9730096,6.089778,6.2514653,6.4146833,6.563814,6.6974096,6.816736,6.9529743,7.1500287,7.286619,7.3954897,7.4739866,7.5057917,7.511157,7.520981,7.52801,7.534912,7.5394764,7.5428896,7.5469017,7.5484767,7.529728,7.4394035,7.2447205,6.94695,6.4631267,5.9824495,5.7269382,5.633179,5.594602,5.588693,5.60307,5.621475,5.6331434,5.638258,5.644337,5.658721,5.694849,5.7616453,5.849078,5.9409533,6.0246162,6.0957174,6.1639333,6.2940273,6.454957,6.7025127,6.972294,7.129656,7.1625023,7.1983995,7.205331,7.2220135,7.242856,7.253247,7.2542143,7.2553124,7.256835,7.2571898,7.257724,7.259388,7.2629986,7.2689424,7.2745132,7.276555,7.2776117,7.282378,7.2876644,7.2874985,7.274764,7.2456827,7.1991396,7.128723,6.9839544,6.808475,6.6312075,6.497367,6.4236965,6.391814,6.3806925,6.3731337,6.36995,6.3760777,6.408675,6.479434,6.5919113,6.73808,6.884259,6.9674783,7.0263867,7.058979,7.0655546,7.058757,7.050906,7.0459704,7.0459356,7.0478187,7.0442195,7.0281663,6.9977694,6.9524,6.8905888,6.8291845,6.7736387,6.741317,6.7303343,6.7303553,6.734514,6.739103,6.7442117,6.751276,6.761772,6.774191,6.784571,6.7899284,6.7907257,6.789839,6.7918544,6.800477,6.8160014,6.836411,6.8582463,6.8790913,6.9004636,6.9294715,6.958311,6.9817276,7.000015,7.013225,7.019912,7.022274,7.02306,7.0241966,7.0258245,7.0264373,7.0179567,6.9970946,6.9748445,6.9565334,6.9446898,6.944496,6.9590836,6.9832325,7.0068192,7.0241427,7.0375137,7.0491123,7.054511,7.048171,7.0240264,6.98275,6.942518,6.9367695,6.975128,7.051626,7.116556,7.16185,7.1904073,7.1927996,7.1816463,7.1678066,7.1549683,7.1500225,7.1521425,7.1565456,7.160177,7.1621866,7.1623316,7.1620927,7.1625423,7.163994,7.166135,7.1682854,7.1697493,7.170591,7.170973,7.171441,7.1716747,7.1707363,7.1676993,7.1617804,7.1522226,7.140679,7.12403,7.1061535,7.098914,7.106659,7.1229753,7.1435275,7.1594677,7.162007,7.145441,7.086031,6.9950094,6.939323,6.976432,7.0565896,7.191318,7.2475195,7.2562284,7.2150936,7.0906334,6.9431467,6.8286977,6.841146,7.0439587,7.2532187,7.364299,7.4094324,7.4214525,7.410286,7.372903,7.328536,7.279772,7.2492204,7.2444324,7.2458305,7.2462163,7.2400503,7.2298265,7.223798,7.2326984,7.26361,7.3085213,7.3456683,7.368328,7.384099,7.3864975,7.3759794,7.3550673,7.3268623,7.296425,7.265834,7.238164,7.208786,7.184415,7.1728935,7.170011,7.165953,7.165552,7.1662183,7.1657324,7.1635866,7.159498,7.155734,7.1552362,7.156519,7.15753,7.1605754,7.1551185,7.1475883,7.141514,7.129904
