1.8698373,1.8704534,1.8712201,1.8717662,1.8723041,1.8728712,1.8733912,1.8740172,1.8744242,1.8748623,1.8751795,1.8753977,1.8755177,1.8755007,1.8755292,1.8756316,1.8758543,1.8760527,1.8760992,1.8760653,1.8758514,1.8754337,1.8747654,1.8742033,1.873518,1.873065,1.8727034,1.8724289,1.8722444,1.8718898,1.871499,1.8709023,1.8699206,1.8688099,1.8671473,1.8657854,1.8636136,1.8612512,1.8591354,1.8564438,1.8544319,1.8518937,1.8499873,1.8483093,1.8471764,1.8468146,1.8472424,1.8486226,1.8510053,1.8546615,1.8578298,1.8623874,1.86587,1.8688821,1.8708994,1.8720207,1.8743316,1.8769,1.8812008,1.8866066,1.8918436,1.8996243,1.9061208,1.9131364,1.9187882,1.9252695,1.9335861,1.9398456,1.9502857,1.9610924,1.9749084,1.991904,2.0057266,2.0211577,2.029766,2.0360973,2.037218,2.0365324,2.031096,2.02362,2.010799,1.9936333,1.97661,1.9522057,1.9327674,1.9081185,1.8859761,1.863358,1.8360724,1.8158753,1.7907839,1.7726066,1.7552136,1.7394462,1.7289917,1.7167053,1.7086846,1.7001996,1.6929724,1.6876593,1.6816773,1.6779507,1.6739635,1.6709151,1.6685004,1.6654433,1.6631013,1.6599424,1.6571233,1.6546003,1.6517043,1.6496301,1.6468699,1.6444993,1.6417928,1.6385381,1.6359785,1.6325119,1.6298511,1.6270106,1.6244724,1.622633,1.6208351,1.6200125,1.6194869,1.6198232,1.6205122,1.6219907,1.6234137,1.6253085,1.6272221,1.629096,1.6316698,1.6337473,1.6367605,1.6395335,1.6424932,1.6459476,1.6486399,1.6515839,1.6534319,1.6557293,1.6579876,1.6595979,1.6615752,1.6629629,1.6645851,1.6663888,1.668105,1.6710684,1.6738211,1.6780438,1.682871,1.6876235,1.6946108,1.7004892,1.7087424,1.7162042,1.7237372,1.732764,1.7397826,1.7497553,1.7582235,1.768134,1.7789463,1.7873462,1.7982131,1.8061204,1.8152447,1.823226,1.8293012,1.83567,1.8393085,1.842908,1.8444932,1.8447553,1.8446264,1.8446274,1.8453132,1.846659,1.8483403,1.851233,1.8539441,1.8579469,1.8614072,1.8651439,1.8687894,1.871274,1.8743153,1.8763742,1.878475,1.8800591,1.8811477,1.8822972,1.8829846,1.8836615,1.8839248,1.8839247,1.8836197,1.8832424,1.8829341,1.8828077,1.8827077,1.8827363,1.8828598,1.8830392,1.8830492,1.8827136,1.8817682,1.8806897,1.8791983,1.8780864,1.8768873,1.8762815,1.8761448,1.87726,1.8791039,1.8823476,1.8867292,1.8910544,1.897334,1.902408,1.9085996,1.9134595,1.9176991,1.921969,1.9248602,1.9271884,1.927862,1.9287329,1.9287817,1.9283783,1.9262908,1.9227183,1.9157534,1.9033866,1.8907552,1.8701818,1.8521183,1.8271697,1.804026,1.7868804,1.771274,1.7638979,1.7568469,1.753887,1.7517403,1.7516427,1.7529253,1.7556618,1.7591588,1.7633462,1.7695915,1.7752583,1.7830881,1.7900769,1.7996688,1.8159329,1.8329115,1.8647363,1.8952134,1.9329994,1.9707737,2.0045185,2.0398874,2.059429,2.0771337,2.0841343,2.0880308,2.087037,2.0833964,2.0791616,2.0756867,2.0723329,2.067422,2.0625107,2.0563269,2.0520005,2.0477695,2.0445535,2.0425258,2.0411181,2.04104,2.0415225,2.042791,2.0440512,2.0459235,2.0473976,2.0488,2.049326,2.049457,2.0481753,2.0462575,2.0433626,2.040525,2.037627,2.0342188,2.0316377,2.0281372,2.0253065,2.0219965,2.0185094,2.0158577,2.0125422,2.010163,2.0072544,2.0041015,2.0012982,1.996795,1.9927839
1.8919334,1.8928872,1.8940525,1.894901,1.8958759,1.8969886,1.8979727,1.8991871,1.9000086,1.900907,1.9016759,1.9022968,1.9030149,1.9035015,1.9042864,1.9052224,1.9062824,1.9075282,1.9083208,1.9093945,1.9101617,1.9106593,1.9108807,1.9108591,1.9109628,1.9112432,1.9118555,1.9129128,1.9139137,1.9153502,1.916496,1.9178524,1.9191171,1.920053,1.9212759,1.9222068,1.9233431,1.9243243,1.9251857,1.9260662,1.9265795,1.9271433,1.9276681,1.9282875,1.9297782,1.9314108,1.9345661,1.9381627,1.942966,1.9490726,1.95397,1.9606938,1.9660048,1.9726558,1.9793906,1.9842511,1.9922527,1.9997901,2.0120797,2.0273418,2.0420256,2.0648694,2.0846143,2.1121988,2.137373,2.1613994,2.187384,2.2048755,2.227052,2.245307,2.2688699,2.2971823,2.319977,2.346796,2.3632865,2.37715,2.3838212,2.3870585,2.3850374,2.378799,2.3664167,2.3472257,2.327021,2.2960157,2.270194,2.2369409,2.2052252,2.1708932,2.1273513,2.0942042,2.0528183,2.0223365,1.9925705,1.9647058,1.945874,1.922832,1.9070735,1.8906075,1.8764825,1.8660369,1.8542497,1.8468771,1.8388441,1.8325557,1.8275244,1.8212585,1.8165603,1.8103005,1.8048089,1.7998369,1.794498,1.7909632,1.7866869,1.7835362,1.7801995,1.7767473,1.7743,1.7712133,1.7690581,1.7669089,1.765316,1.764312,1.7637969,1.764079,1.765052,1.7670336,1.7692282,1.7726021,1.7753546,1.7784921,1.7810564,1.7833955,1.7862737,1.7884543,1.7916065,1.7945737,1.7978823,1.8021048,1.8056746,1.8094615,1.8117447,1.8146242,1.8174889,1.8195846,1.8220731,1.8237312,1.8255944,1.8275168,1.8292795,1.8323333,1.8351985,1.8397202,1.8450046,1.8502746,1.8579491,1.8643231,1.8734246,1.88168,1.8898349,1.8996065,1.907298,1.9180723,1.9270568,1.9373118,1.9485941,1.9575949,1.9694835,1.9783597,1.9889472,1.998529,2.0059009,2.0135975,2.0179203,2.0219893,2.0233164,2.0228472,2.0215213,2.0206072,2.020087,2.0204268,2.021244,2.0230086,2.0247521,2.0269966,2.0286102,2.0301259,2.0309403,2.0310445,2.0305045,2.029541,2.0280356,2.0260227,2.0241468,2.0219254,2.0205178,2.0189574,2.0176392,2.016395,2.0147166,2.013389,2.0116491,2.0101683,2.0087261,2.0072937,2.0064194,2.0055106,2.0049067,2.0040886,2.002865,2.0016787,1.9999146,1.9984729,1.9967911,1.9956295,1.9950471,1.9956498,1.9971712,2.000043,2.0041175,2.0081706,2.0141644,2.0190687,2.0251503,2.0301828,2.0348406,2.0401514,2.0442958,2.0464296,2.045643,2.0453348,2.043573,2.0416136,2.0356317,2.0272067,2.0127895,1.9899087,1.9671184,1.9342265,1.9078927,1.8704784,1.8360085,1.8111264,1.7887363,1.7782354,1.7686975,1.7652115,1.762746,1.76282,1.7644165,1.767775,1.7718787,1.7765491,1.78297,1.7883303,1.7968295,1.8054404,1.8172961,1.8389819,1.8621273,1.9080076,1.9530587,2.0069885,2.060124,2.108254,2.1576285,2.1838045,2.2070658,2.2158651,2.2209215,2.220927,2.2182426,2.214693,2.2115822,2.2097015,2.2049534,2.198266,2.1900487,2.1844158,2.1788373,2.1744232,2.1715512,2.1690166,2.1680715,2.1674657,2.167809,2.1684043,2.1698203,2.1712508,2.1729875,2.1743069,2.1752653,2.1756284,2.175361,2.1747034,2.1737113,2.1724849,2.1705298,2.1687512,2.1661463,2.1638968,2.1612365,2.1586614,2.1569033,2.1552677,2.1545806,2.1540596,2.1537752,2.153583,2.1525998,2.1512153
1.9271555,1.928489,1.9302533,1.9317007,1.9335568,1.935772,1.9376378,1.9400904,1.941869,1.9437033,1.9454048,1.946959,1.9491371,1.9508779,1.9532874,1.9560094,1.9590486,1.963022,1.9659288,1.9698923,1.9732293,1.976361,1.979712,1.9821074,1.9852221,1.9879308,1.9917753,1.9971505,2.001914,2.0093412,2.0158243,2.0239484,2.0327225,2.040316,2.0502276,2.057549,2.0673976,2.0763156,2.0838103,2.0913002,2.0955439,2.1008043,2.1048691,2.1087692,2.1135297,2.11733,2.1230645,2.1285243,2.1356494,2.1440325,2.150309,2.1590488,2.1661856,2.17596,2.1857235,2.19185,2.2026796,2.2134738,2.229896,2.2525983,2.2769566,2.320138,2.360206,2.420794,2.4823027,2.5446749,2.6215444,2.6798792,2.757131,2.816092,2.8751287,2.9200559,2.939754,2.9601545,2.9707017,2.9775424,2.9784012,2.9786313,2.9749937,2.9692016,2.9585161,2.9432447,2.9286067,2.9033654,2.8801527,2.841596,2.7984734,2.7537231,2.695545,2.650547,2.589035,2.5399344,2.4933062,2.4494417,2.4198663,2.381442,2.3533587,2.3239448,2.2984543,2.2797337,2.2594237,2.2473273,2.233243,2.221775,2.2127857,2.201617,2.1932514,2.182211,2.172662,2.1639843,2.1551967,2.1498158,2.1438737,2.1403217,2.137153,2.134952,2.1338954,2.1333175,2.1336787,2.1346402,2.136741,2.1388092,2.142842,2.14681,2.151838,2.1570272,2.1615775,2.1669016,2.1703744,2.1741865,2.1765573,2.1780283,2.1791396,2.1797423,2.1805768,2.1816154,2.1833227,2.1864212,2.1895285,2.1932726,2.195849,2.198711,2.201056,2.2024825,2.2033787,2.2032657,2.2025862,2.201388,2.2002425,2.199418,2.1993985,2.2001579,2.2018857,2.2039232,2.2070377,2.209546,2.2139914,2.2186837,2.2234867,2.2293367,2.2338772,2.2400336,2.2450643,2.2508535,2.2576413,2.2633414,2.2716613,2.278521,2.287147,2.295415,2.3018942,2.3084054,2.3117867,2.3150084,2.3159916,2.3156333,2.3140724,2.3125534,2.3105817,2.308936,2.3075163,2.305897,2.3046756,2.3026314,2.3002195,2.2961593,2.2905242,2.2859087,2.2793822,2.274149,2.2678432,2.2615914,2.2566094,2.2503312,2.2458236,2.2401993,2.2354124,2.2315197,2.2275481,2.2251966,2.222032,2.2194242,2.2168727,2.2146194,2.2135105,2.2124953,2.2119484,2.2111373,2.209699,2.2081692,2.2056825,2.203454,2.2006311,2.1981688,2.1965714,2.1958961,2.1965137,2.1983266,2.2015157,2.204959,2.2098331,2.2135901,2.217853,2.2206316,2.2226052,2.2236705,2.2239528,2.2219586,2.2184064,2.2149181,2.2092052,2.203992,2.1929612,2.1789498,2.153103,2.113424,2.075736,2.0203257,1.9758224,1.9211967,1.8745341,1.8391757,1.8078237,1.7937996,1.7814326,1.7774227,1.7745731,1.7749239,1.7770708,1.7810507,1.7855202,1.7902797,1.7967179,1.8020353,1.8114158,1.8218133,1.8362846,1.8649789,1.8972323,1.9578005,2.0161438,2.0935714,2.1719089,2.2390966,2.306076,2.3402643,2.3693552,2.3788538,2.3838844,2.3842149,2.382761,2.3812318,2.3802447,2.3803465,2.3792827,2.376864,2.3734303,2.3706028,2.3674388,2.3643022,2.36188,2.3594832,2.3583598,2.357471,2.3573973,2.3576605,2.3584352,2.359227,2.3600044,2.3603442,2.360356,2.35988,2.3592682,2.3582773,2.3572745,2.3562531,2.3550758,2.3541884,2.3531253,2.3524392,2.3517394,2.351575,2.3517344,2.353269,2.35553,2.359068,2.3634462,2.367446,2.3716407,2.3738558
1.9760711,1.9780223,1.9807868,1.9832067,1.9863112,1.9901102,1.993317,1.9978218,2.0013535,2.0053067,2.0093668,2.013146,2.0184443,2.0226357,2.028325,2.0343978,2.0407362,2.049215,2.0556884,2.0646658,2.0726476,2.0806298,2.090094,2.0973804,2.1074965,2.1160984,2.1262312,2.138816,2.1495903,2.166243,2.180761,2.1991782,2.21925,2.2365127,2.2598915,2.2778268,2.302069,2.3240023,2.3418658,2.3604012,2.3717349,2.385791,2.3965487,2.406681,2.4177585,2.4258509,2.4364781,2.4451056,2.4555426,2.4669566,2.475204,2.4870622,2.497087,2.5107374,2.52536,2.5360901,2.5530312,2.5684905,2.5934758,2.6253257,2.6564672,2.7080142,2.7543278,2.82722,2.9026537,2.9773865,3.074285,3.1520448,3.2596424,3.3433576,3.4221191,3.4734807,3.487326,3.498458,3.501686,3.5026722,3.4977732,3.49075,3.482836,3.4782357,3.469173,3.4582882,3.4501672,3.4341247,3.4176295,3.381986,3.337832,3.2938948,3.2355223,3.189392,3.1233015,3.068554,3.0169926,2.9692292,2.9382162,2.8958495,2.863214,2.8287916,2.7980828,2.775029,2.750131,2.7354548,2.7179043,2.7032847,2.691831,2.6775298,2.6667852,2.6526265,2.6399932,2.627634,2.615197,2.6080062,2.6001258,2.5959647,2.5936322,2.5929794,2.592727,2.5935287,2.5952296,2.597899,2.6017957,2.6051493,2.6108768,2.6160598,2.622119,2.6277132,2.6323633,2.6373353,2.6402535,2.643231,2.6442902,2.644009,2.6421757,2.6401963,2.6369448,2.6340551,2.6317677,2.6304388,2.6302557,2.630381,2.630643,2.63066,2.629799,2.6285572,2.6255708,2.6222348,2.6172497,2.61165,2.6071868,2.6011834,2.5965729,2.5912976,2.587339,2.5843687,2.5809479,2.5782642,2.5759456,2.5751002,2.5747075,2.5744495,2.5740929,2.5732093,2.5723224,2.5715804,2.5715544,2.5719967,2.5738473,2.5762482,2.5797226,2.5834928,2.586544,2.5892172,2.5901697,2.5907328,2.5901542,2.5892038,2.5869288,2.5846086,2.5811021,2.577505,2.5736957,2.5686944,2.5646863,2.5589561,2.553362,2.5448008,2.5343766,2.5266986,2.5162773,2.5081959,2.4984434,2.4890895,2.4820209,2.4728308,2.4659264,2.457067,2.4494553,2.4434252,2.4376698,2.4345908,2.430604,2.427565,2.4246783,2.4224274,2.4215755,2.4210305,2.4209356,2.4205098,2.419375,2.4180057,2.415752,2.4136963,2.4109669,2.408482,2.4068568,2.405938,2.4062085,2.4074667,2.409905,2.4126644,2.4161377,2.4184637,2.4204986,2.4205723,2.4193816,2.4153876,2.4109542,2.4045706,2.3987215,2.39261,2.3838277,2.3761363,2.36095,2.3422294,2.308526,2.2533197,2.197298,2.1137166,2.0467465,1.9715898,1.9110789,1.8637657,1.8229892,1.8061092,1.791124,1.7866249,1.7837806,1.7847238,1.7874291,1.7918581,1.7963822,1.800822,1.8069518,1.8122001,1.8221618,1.8339736,1.8507669,1.8867018,1.9288458,2.0046115,2.0763254,2.180241,2.2839646,2.3638458,2.440415,2.4783266,2.5095282,2.5183587,2.522843,2.5232568,2.5226886,2.5232353,2.5246077,2.526241,2.528823,2.5313375,2.533913,2.535049,2.5354087,2.534491,2.5331426,2.5315027,2.5305123,2.529667,2.5293221,2.5292778,2.5292966,2.5292783,2.5288055,2.5278416,2.5266507,2.524916,2.5235531,2.5217376,2.5203807,2.519293,2.5187469,2.5187306,2.51926,2.5202394,2.521645,2.5239859,2.5261045,2.5305505,2.5352306,2.5415225,2.5488334,2.5555906,2.5635104,2.5685956
2.0238283,2.026599,2.0305676,2.0340197,2.0381954,2.043427,2.0480359,2.0548377,2.060494,2.0675616,2.0752723,2.0823083,2.091687,2.0987487,2.1084614,2.118415,2.1281295,2.1411002,2.1511421,2.1660373,2.1800528,2.1940954,2.211276,2.22474,2.2448068,2.2619474,2.2792664,2.298528,2.3146553,2.338875,2.359679,2.386757,2.4165156,2.4414382,2.477704,2.5075455,2.54887,2.5872808,2.618249,2.6520476,2.6742725,2.701367,2.7219925,2.7414284,2.7627149,2.7784326,2.7979093,2.8123717,2.8285055,2.8455107,2.8580425,2.8763928,2.8922563,2.913261,2.9395614,2.964519,2.9993393,3.0271087,3.0765197,3.1266541,3.161937,3.19915,3.2229438,3.2638803,3.3017275,3.3268468,3.3639283,3.401441,3.4627118,3.5180285,3.5717177,3.6142693,3.6344209,3.6547756,3.6656618,3.6909115,3.6745925,3.5886667,3.5630383,3.615816,3.6207776,3.6000893,3.589185,3.5722198,3.5572548,3.530531,3.499877,3.4692857,3.4265156,3.390545,3.3434696,3.3071208,3.2714043,3.241346,3.2258954,3.2015939,3.1802573,3.1572022,3.1340613,3.1147015,3.0925474,3.0787325,3.0627198,3.049249,3.0383563,3.024608,3.0142488,3.0029583,2.9835196,2.940886,2.8998537,2.887026,2.8684673,2.8650813,2.8978884,2.9286585,2.9264302,2.9239345,2.9226933,2.9226687,2.922977,2.9227798,2.9227428,2.9229593,2.9234827,2.924593,2.9259343,2.9283097,2.9304233,2.9321067,2.9319994,2.9308078,2.9271257,2.9231892,2.9160557,2.9085152,2.9007192,2.8920143,2.885742,2.8779545,2.8723173,2.8660257,2.8593993,2.8539867,2.846903,2.8415222,2.830749,2.8286808,2.8452713,2.8508513,2.8391705,2.8282192,2.8195152,2.8129706,2.8059044,2.8009233,2.7950125,2.7907844,2.7870445,2.7827587,2.7792587,2.7736897,2.7687683,2.7637618,2.758965,2.7554374,2.7515092,2.7491336,2.746521,2.7443142,2.742607,2.740327,2.7384937,2.735127,2.7311702,2.727574,2.7226362,2.7186704,2.7141669,2.7104213,2.705842,2.7002363,2.6961472,2.6907282,2.6856368,2.677171,2.6673605,2.6610122,2.651651,2.6436234,2.6329346,2.6220722,2.6140397,2.6036441,2.5958974,2.5863922,2.5785093,2.5722756,2.5662045,2.5627975,2.558743,2.555989,2.5536075,2.5518267,2.5510745,2.5507731,2.551002,2.550956,2.5507667,2.5505166,2.5503798,2.5504246,2.5503416,2.5505517,2.550994,2.5522447,2.553688,2.5560033,2.558588,2.5608706,2.5633283,2.5647888,2.5657444,2.5649533,2.5630577,2.5583167,2.5533228,2.5464325,2.5404994,2.534844,2.5264418,2.5189729,2.500968,2.4780984,2.44493,2.3808866,2.3031654,2.1932127,2.110293,2.0158281,1.9402465,1.8820534,1.8334334,1.8147113,1.7975395,1.7924706,1.7900181,1.7917341,1.7947803,1.799505,1.8040287,1.8081087,1.8138242,1.8188841,1.8290166,1.8417022,1.8601699,1.9022281,1.9526522,2.043639,2.1298847,2.2576385,2.3785036,2.4589596,2.532795,2.5692368,2.5987263,2.6066017,2.611313,2.6119776,2.6111083,2.6121435,2.6142633,2.6159935,2.6181636,2.6200018,2.623008,2.6254234,2.6270294,2.6272,2.6264973,2.6252058,2.6240926,2.6229587,2.6220741,2.6214523,2.62079,2.6203637,2.6196065,2.6187773,2.6179879,2.6170707,2.6164482,2.615745,2.6154206,2.6153464,2.6158738,2.6165915,2.618124,2.61994,2.6223757,2.6259432,2.6291564,2.6348639,2.6401417,2.6456907,2.6516972,2.657752,2.665885,2.6719713
2.0987155,2.1026382,2.1083322,2.1133213,2.1193209,2.1266842,2.1330056,2.142523,2.1506228,2.1609406,2.1725655,2.1833124,2.1980696,2.2094803,2.2255306,2.241828,2.2570727,2.2772613,2.2930417,2.3138804,2.332327,2.3518872,2.3766,2.396244,2.4261475,2.4523878,2.479962,2.5107498,2.5358253,2.573689,2.6061387,2.6468163,2.6908581,2.728538,2.7816076,2.8237662,2.8787484,2.9269571,2.9641333,3.0067968,3.0374308,3.0759425,3.1063397,3.134859,3.164754,3.185524,3.2113762,3.2297604,3.247763,3.2647436,3.276867,3.294767,3.310336,3.330216,3.3564153,3.3840559,3.417368,3.4401593,3.4897265,3.5416863,3.5768778,3.607313,3.6212025,3.6470423,3.6650465,3.6652763,3.6582623,3.6528997,3.6598268,3.676053,3.693809,3.7144694,3.7300124,3.746893,3.7569737,3.7481017,3.8016727,3.971284,3.9915648,3.8455937,3.7963066,3.801984,3.7910967,3.7765932,3.7655032,3.7500355,3.7361805,3.7256246,3.7074301,3.6881347,3.6633158,3.643526,3.6218252,3.602648,3.5931273,3.5782802,3.5652242,3.550868,3.5355682,3.5220618,3.5058584,3.4952235,3.4831305,3.4727793,3.464106,3.4528823,3.4443336,3.426632,3.4297504,3.4840956,3.531647,3.532621,3.5422459,3.5302827,3.4422026,3.3632166,3.362093,3.3614702,3.3598857,3.3490572,3.339673,3.3403325,3.3383112,3.3337939,3.3280907,3.322589,3.318506,3.3145583,3.3124917,3.308959,3.3047042,3.30017,3.2928247,3.2862926,3.2756193,3.2648463,3.2533116,3.2396538,3.2292268,3.215661,3.205442,3.1945152,3.1831799,3.1746342,3.1579065,3.1424377,3.141753,3.1231413,3.0618303,3.013597,3.0106127,2.9990072,2.9878469,2.9752061,2.9680917,2.9706612,2.9654114,2.9564128,2.9498305,2.9422693,2.9361255,2.927377,2.9201388,2.9122605,2.9044676,2.8988662,2.8917384,2.8865309,2.8801177,2.8740344,2.869238,2.8636966,2.860013,2.8543966,2.8487582,2.8438587,2.837928,2.833692,2.8267229,2.8197398,2.8127208,2.8046975,2.7989235,2.7914941,2.7857559,2.7791348,2.7725625,2.768435,2.7611537,2.7540107,2.7442489,2.7340415,2.7264564,2.7168999,2.7099776,2.7012506,2.6938033,2.6878428,2.681668,2.6778793,2.673617,2.6709237,2.6687474,2.6672473,2.66666,2.6664543,2.6667514,2.6669493,2.6674361,2.6679606,2.6692464,2.670681,2.6723719,2.6743417,2.676096,2.6785471,2.6804657,2.6828933,2.6851401,2.6871347,2.6891074,2.6901455,2.690534,2.6893497,2.6873646,2.6824365,2.677124,2.669557,2.6631444,2.6575541,2.650201,2.6440377,2.6288137,2.6085668,2.5788813,2.512687,2.4288101,2.2963905,2.187253,2.0679288,1.9745646,1.9028362,1.8450353,1.8249798,1.8056707,1.8001149,1.798652,1.8016865,1.8051574,1.8100518,1.8143258,1.8179731,1.8231268,1.8277552,1.8376648,1.8509886,1.8713558,1.9201016,1.9787905,2.0881286,2.1930904,2.3445709,2.4794416,2.558775,2.6245217,2.653126,2.676519,2.682229,2.6863868,2.6873531,2.686688,2.6880517,2.6904438,2.6923728,2.6943731,2.6956983,2.6985617,2.701208,2.7027483,2.702938,2.702498,2.701518,2.7005782,2.6995802,2.6987329,2.698063,2.6974773,2.6972418,2.6969175,2.6966658,2.6964025,2.6963072,2.696415,2.6967707,2.697403,2.6982894,2.6998029,2.7011657,2.7035291,2.7059765,2.709141,2.7134557,2.7173076,2.7234154,2.7285552,2.7333574,2.7379575,2.7424421,2.749301,2.755128
2.1619608,2.1667228,2.173716,2.1799254,2.1875935,2.1966872,2.204078,2.2151928,2.2246432,2.2363427,2.2497344,2.262432,2.280809,2.2956777,2.3170366,2.3389096,2.3590822,2.3856244,2.406456,2.4298186,2.4481592,2.4693503,2.496947,2.5191474,2.5528026,2.5832472,2.6186361,2.66003,2.693184,2.7441902,2.788155,2.8407903,2.896841,2.9465322,3.0119843,3.0601897,3.1172853,3.1620626,3.1941202,3.233169,3.2642956,3.3056836,3.3401196,3.3722172,3.4037983,3.4235616,3.4491305,3.4669333,3.4812696,3.4916706,3.4980783,3.5075955,3.515821,3.525404,3.53752,3.5520105,3.5609941,3.5608213,3.5810566,3.6148381,3.6467643,3.6880956,3.7178802,3.7654724,3.8052754,3.8347569,3.8403938,3.8226075,3.8097746,3.806699,3.8051429,3.8049707,3.8043833,3.8025327,3.8003035,3.7046242,3.8837395,4.5631,4.6769524,4.136012,3.9810963,4.0428424,4.0367393,4.0288367,4.0229015,4.0133767,4.00803,4.0135174,4.014839,4.0077615,3.991489,3.9719203,3.9499426,3.9233675,3.90218,3.8773227,3.8612568,3.84436,3.8301315,3.819879,3.8082535,3.8008175,3.792019,3.7843242,3.7778223,3.769102,3.7623317,3.7298594,3.7770648,4.0247188,4.2500215,4.279945,4.348037,4.3212843,3.994752,3.7001238,3.703618,3.7111468,3.713168,3.6849146,3.6621985,3.671319,3.6756792,3.6702561,3.6623025,3.6524596,3.6442983,3.6338863,3.6263113,3.6162386,3.6068213,3.5979474,3.5867324,3.5781875,3.5662189,3.555646,3.544623,3.5319228,3.522266,3.5092359,3.4990616,3.488536,3.4767284,3.4684896,3.4394789,3.4079623,3.4332924,3.3869405,3.1732588,3.0226736,3.0418637,3.0355878,3.0253463,3.0046382,3.0022187,3.023584,3.0247734,3.0107427,3.0030055,2.9943118,2.987112,2.9780235,2.9711914,2.9630651,2.9555056,2.9508715,2.9451542,2.9410262,2.9357533,2.9306366,2.9266036,2.9217577,2.918413,2.9139233,2.9097424,2.9061131,2.901917,2.8992133,2.889257,2.8768532,2.866401,2.8545356,2.8455415,2.8336196,2.825442,2.8207111,2.8174887,2.814431,2.808114,2.8015847,2.7936616,2.7856774,2.7795014,2.7720895,2.7669716,2.7595334,2.7524748,2.7467368,2.7404313,2.736319,2.7316427,2.7285724,2.7259722,2.7242806,2.723864,2.723577,2.7236452,2.7237983,2.7241683,2.7244797,2.7252855,2.7261987,2.7272422,2.7284508,2.729558,2.7310104,2.7320716,2.7331755,2.7345371,2.7365556,2.7387965,2.7400026,2.7404513,2.7392304,2.737402,2.7321494,2.726128,2.7172227,2.709611,2.7029047,2.6959667,2.690977,2.6827953,2.670928,2.644014,2.582255,2.5127325,2.3734713,2.2396126,2.1024153,1.9980829,1.9169377,1.8530128,1.8325851,1.8121444,1.8064002,1.8059173,1.8100929,1.8138973,1.8187753,1.8226924,1.8260972,1.8308811,1.8350816,1.8445907,1.8581244,1.8798022,1.9326025,1.995593,2.1170378,2.2351427,2.3983326,2.5384345,2.6184664,2.6777673,2.6971612,2.7139344,2.71741,2.720355,2.7215347,2.7217965,2.7234907,2.725832,2.728291,2.7313068,2.7336774,2.736947,2.7390788,2.7395747,2.738787,2.7381043,2.7372708,2.7367573,2.7363179,2.7361465,2.7360697,2.7363274,2.7367606,2.737248,2.7374873,2.7373114,2.737224,2.7373939,2.7378361,2.7385836,2.7396667,2.7414722,2.7430725,2.74577,2.748477,2.7519014,2.7563524,2.7602353,2.766004,2.77071,2.7759452,2.7807102,2.7842736,2.7897072,2.79448
2.2438564,2.2497454,2.2584186,2.2661722,2.2758222,2.2874694,2.2971241,2.311388,2.3233244,2.3380985,2.3549829,2.370911,2.394712,2.41436,2.438799,2.4619067,2.4838643,2.5130522,2.53608,2.5642538,2.5878108,2.6135755,2.645907,2.671174,2.710216,2.746286,2.7889876,2.8399193,2.8812518,2.9442196,2.9975696,3.059154,3.1212578,3.1745183,3.243154,3.2930465,3.3543437,3.4022558,3.4334433,3.472824,3.506493,3.5476036,3.5795708,3.609695,3.6391442,3.6577477,3.6794202,3.6930451,3.7052276,3.713809,3.7181926,3.724822,3.7303472,3.7340395,3.7405195,3.7518163,3.763981,3.7704525,3.783405,3.7996724,3.814865,3.8377218,3.8570278,3.8871753,3.9131012,3.9251838,3.953971,3.9952955,4.0246434,4.0270576,4.0209084,4.007859,4.0002937,3.990406,3.9829493,3.8993702,4.0350637,4.5556774,4.710477,4.390045,4.301978,4.335071,4.335273,4.317772,4.289883,4.2916603,4.290662,4.2255745,4.166642,4.1624985,4.151537,4.139947,4.1248474,4.1044374,4.086342,4.0657454,4.052972,4.0393286,4.0280814,4.0204325,4.0113034,4.0049615,3.9970741,3.9896703,3.9832788,3.9747596,3.9682376,3.9410722,3.9774418,4.1731977,4.350738,4.3732147,4.4276953,4.4022093,4.1167035,3.86541,3.8789759,3.8749819,3.8750894,3.9887767,4.0702395,4.0077868,3.9602208,3.9623423,3.9525094,3.9403281,3.929966,3.9162664,3.9059353,3.8925524,3.880477,3.869341,3.855986,3.8462234,3.8332276,3.8223429,3.8111236,3.798338,3.7886143,3.7752728,3.7646804,3.7535546,3.7402933,3.7214742,3.7473373,3.7873998,3.7003303,3.5260725,3.352854,3.2496386,3.2743304,3.2647696,3.2640033,3.3254066,3.2896786,3.1487546,3.0828042,3.0960884,3.0889297,3.0809708,3.074583,3.0670462,3.0611973,3.0523748,3.0418892,3.0341425,3.0223172,3.012461,3.0019693,2.993544,2.9880786,2.9809442,2.975348,2.9695282,2.965249,2.9616213,2.9576116,2.9550233,2.946734,2.9368553,2.9288158,2.9198215,2.9129567,2.9042606,2.8976262,2.889621,2.8825545,2.8791962,2.8732462,2.8673983,2.8598132,2.8523467,2.8469975,2.840929,2.8369284,2.8308704,2.8244233,2.8183,2.8108706,2.8057137,2.7997472,2.7956948,2.792385,2.7899256,2.7888603,2.787823,2.7874687,2.787458,2.7878232,2.7881236,2.7887712,2.7894514,2.7902107,2.791128,2.7920299,2.793196,2.794035,2.7949638,2.7962189,2.7981186,2.8002243,2.801343,2.8016977,2.800406,2.7983708,2.7933106,2.787829,2.7798886,2.773408,2.768299,2.7632174,2.7593749,2.7531252,2.7435625,2.7223194,2.6664221,2.6021094,2.454467,2.3030396,2.1470218,2.027192,1.9348586,1.8638604,1.8431361,1.822668,1.8181374,1.8191462,1.8246769,1.8288621,1.8340268,1.8378382,1.8408324,1.8448632,1.8483778,1.8571079,1.8705888,1.8935126,1.9503982,2.0172365,2.152708,2.2871065,2.4642382,2.6091723,2.686408,2.737877,2.7502267,2.7633204,2.7667618,2.76894,2.7695165,2.769505,2.7707467,2.7728312,2.775645,2.7785597,2.7800832,2.782102,2.7833204,2.7833586,2.7825994,2.7820778,2.7815866,2.7813976,2.7813034,2.7814178,2.781554,2.7819946,2.7825007,2.7830815,2.7834373,2.783361,2.783718,2.7844748,2.7857618,2.7873273,2.789328,2.7921371,2.794449,2.7976818,2.8004134,2.8036418,2.8074796,2.8106494,2.8156276,2.8199606,2.8253026,2.8305588,2.8345203,2.840376,2.8453355
2.3076253,2.3143995,2.324417,2.3334131,2.344555,2.3583388,2.37015,2.387343,2.4015315,2.4193609,2.4392068,2.4571939,2.4842055,2.5065932,2.5311174,2.5524154,2.5735598,2.60176,2.6238167,2.6557097,2.6852822,2.7152185,2.7514324,2.7791343,2.8221428,2.8617823,2.9079895,2.9629815,3.0082378,3.0751247,3.1302233,3.1936002,3.254175,3.3024712,3.3647711,3.411128,3.474256,3.5273283,3.561615,3.6031806,3.6373734,3.6745787,3.70015,3.7247305,3.749482,3.7664018,3.7829328,3.791878,3.8037748,3.814697,3.8208377,3.8298519,3.837185,3.8423562,3.8518333,3.8658075,3.8938124,3.9200282,3.9407659,3.9469814,3.944334,3.938464,3.9352067,3.930839,3.9267266,3.902454,3.9463935,4.0543156,4.138461,4.1591263,4.161375,4.148943,4.144146,4.1374454,4.132061,4.1229353,4.1192093,4.0994244,4.221612,4.412325,4.4689245,4.432665,4.4295,4.4192724,4.406457,4.41846,4.3960185,4.2513285,4.123372,4.1140366,4.1027923,4.0991583,4.0916176,4.082863,4.0759068,4.066538,4.059232,4.0506744,4.0418234,4.034775,4.0252266,4.0178747,4.008657,3.9996567,3.9918287,3.9817438,3.9742353,3.9636626,3.9563584,3.955421,3.952088,3.9455576,3.93847,3.9286041,3.9019222,3.878246,3.8752184,3.8414288,3.8396044,4.0999527,4.2892447,4.1522903,4.0502925,4.059871,4.0495176,4.037874,4.027963,4.0150847,4.005438,3.9928427,3.9813485,3.9706674,3.9576335,3.9479694,3.9349012,3.923771,3.9122698,3.8991122,3.8890967,3.8754382,3.8646398,3.8528557,3.8387666,3.809867,3.8971019,4.01714,3.8042455,3.5308676,3.5154648,3.5267515,3.5238173,3.504572,3.5116885,3.638258,3.5520213,3.2432384,3.1087337,3.1524537,3.1469488,3.1408482,3.1363153,3.1310024,3.1262481,3.117444,3.1045237,3.0934925,3.0754542,3.0597913,3.0431666,3.0299015,3.0215826,3.0106435,3.0019574,2.9932847,2.9873347,2.9823747,2.9770536,2.9734778,2.969143,2.9659567,2.9630904,2.9601574,2.9581096,2.9563427,2.9533124,2.9408803,2.9275208,2.9228382,2.9165134,2.9111404,2.903104,2.895135,2.8898864,2.8838577,2.8797762,2.8742824,2.8682828,2.8618126,2.8534966,2.8475273,2.8404431,2.8354654,2.8315425,2.8282192,2.8262308,2.82432,2.8235898,2.8233547,2.8236995,2.8240483,2.8247054,2.8253522,2.8260736,2.8270283,2.8280306,2.8294559,2.830592,2.832241,2.834077,2.8359447,2.8379436,2.8390672,2.8395019,2.838293,2.835986,2.8314862,2.8272538,2.8215513,2.8173482,2.8149254,2.8117237,2.8085103,2.798936,2.7852306,2.7677236,2.7163744,2.651092,2.5007489,2.346138,2.1793036,2.0472844,1.9480056,1.8728113,1.8519323,1.8322914,1.8295325,1.831852,1.8384391,1.8429835,1.8485923,1.8525214,1.8551779,1.8585167,1.8614651,1.8694324,1.8826313,1.9063375,1.9654334,2.0336316,2.17774,2.3230648,2.5082817,2.6541245,2.7259994,2.772387,2.784062,2.7979999,2.8029358,2.8049693,2.804546,2.8035069,2.8038712,2.8055582,2.8082206,2.8101764,2.810009,2.8101923,2.8105364,2.8105946,2.8103724,2.81007,2.8097453,2.8095813,2.8094568,2.8094292,2.809411,2.809512,2.8096733,2.809845,2.8100529,2.8101199,2.8110566,2.8124595,2.814682,2.8170972,2.8199353,2.823575,2.8264565,2.8300028,2.8325624,2.8353739,2.8384054,2.840736,2.8449464,2.849012,2.854045,2.8596177,2.8645716,2.8716471,2.8772779
2.3736906,2.381277,2.3927848,2.4032798,2.4161725,2.4319305,2.4452288,2.4649045,2.4813764,2.5026822,2.5245805,2.5418797,2.5672772,2.5885298,2.6146488,2.6394012,2.6637192,2.6945143,2.7172294,2.7500877,2.7807336,2.8119526,2.8519087,2.8845458,2.931786,2.9734254,3.0234718,3.0820253,3.1294317,3.1946316,3.2458167,3.3100085,3.3721843,3.419216,3.4782777,3.5215003,3.5820515,3.6357894,3.6760478,3.7178445,3.7446125,3.777151,3.8011985,3.8235984,3.8451114,3.8587852,3.8729248,3.881466,3.8928542,3.9044514,3.912137,3.9222832,3.9305427,3.9444494,3.9571447,3.9617765,3.9729514,3.9853735,3.9929018,3.991317,3.9848626,3.9747581,3.96767,3.9573088,3.9479902,3.9288692,3.9474797,4.0032907,4.0453887,4.0539384,4.0524197,4.042777,4.0379276,4.031128,4.0256443,4.0277004,4.002945,3.916809,3.9644396,4.1189814,4.160947,4.13018,4.086601,4.200708,4.4271784,4.450984,4.317907,4.2299643,4.167482,4.159724,4.150612,4.1466293,4.1405745,4.133869,4.12872,4.1212463,4.1149426,4.1073318,4.0990195,4.0922203,4.082774,4.0753546,4.066021,4.05683,4.0488143,4.038527,4.0308948,4.0230165,4.0089254,3.9770753,3.9453402,3.9343133,3.8931293,3.905252,4.148182,4.294091,4.154401,4.057205,4.0702515,4.2124825,4.2915063,4.159547,4.075923,4.0980587,4.0914087,4.0777483,4.067856,4.055033,4.0454407,4.0329213,4.0215073,4.010906,3.9979744,3.9883866,3.9754448,3.9644423,3.9530869,3.940083,3.9301655,3.9166346,3.9059212,3.8941255,3.8810947,3.861418,3.9032884,3.964413,3.8378286,3.7026403,3.7651289,3.7502675,3.638082,3.6030982,3.5976312,3.5482264,3.4031324,3.2325501,3.1541767,3.1784272,3.1731591,3.1673415,3.1631055,3.157833,3.1533906,3.1466618,3.1376514,3.1300778,3.1187859,3.1088936,3.0936098,3.0771446,3.0648608,3.0495229,3.0385432,3.0260358,3.01644,3.0084972,3.0008972,2.9966722,2.9921782,2.989449,2.986746,2.9844265,2.9832315,2.9825406,2.9806545,2.971089,2.9595618,2.9538898,2.9471245,2.942357,2.936158,2.9298828,2.924914,2.9183733,2.9134355,2.9070387,2.90096,2.8956275,2.8886895,2.88334,2.876462,2.8711445,2.866826,2.8630185,2.8607335,2.8585532,2.8576896,2.8572598,2.8574035,2.8576171,2.8581,2.8586144,2.859159,2.8599641,2.860866,2.86228,2.8635137,2.8654737,2.8678246,2.8701758,2.8730826,2.8750887,2.8763494,2.8755484,2.873353,2.8691592,2.8654351,2.860536,2.8569818,2.8549595,2.8520122,2.8495173,2.8363986,2.8174138,2.7966146,2.7478938,2.6916106,2.545691,2.387264,2.2095037,2.0655942,1.9613225,1.8832009,1.8617625,1.8421845,1.8405144,1.8441344,1.8521202,1.8573802,1.8635081,1.8674209,1.8698328,1.8727202,1.8753619,1.8825955,1.8954213,1.920517,1.9823042,2.0517838,2.2035513,2.3583837,2.5491521,2.6933703,2.7575736,2.8007128,2.8167157,2.8321047,2.8364024,2.8379664,2.836845,2.8353176,2.8351324,2.836331,2.8381355,2.8393283,2.8389695,2.838653,2.8384588,2.8380525,2.8373551,2.8366017,2.8357816,2.8353395,2.8349519,2.8347929,2.834712,2.8348305,2.8350692,2.835396,2.835931,2.8365471,2.8381004,2.8398197,2.8425407,2.8452506,2.8479888,2.8513308,2.854,2.8574598,2.8601203,2.8631206,2.866431,2.8690488,2.8732352,2.8769383,2.8813262,2.8861341,2.8906288,2.8967311,2.9013546
2.4349728,2.4435258,2.4566555,2.4686766,2.4832978,2.5008526,2.5155559,2.5366468,2.5537996,2.5758615,2.597537,2.6136124,2.636901,2.6565762,2.6846275,2.7133808,2.7406375,2.7737863,2.7972512,2.8301196,2.8605332,2.8927202,2.9350476,2.9702551,3.019309,3.0615528,3.1141396,3.1741557,3.2207935,3.282454,3.3297558,3.393613,3.4557009,3.4998603,3.5544844,3.5943036,3.6495757,3.7006922,3.7447274,3.78621,3.8067555,3.8358924,3.8598669,3.8825352,3.9031458,3.914315,3.928217,3.9384246,3.9500694,3.9622226,3.9713383,3.9821277,3.9900622,4.0066814,4.017015,4.012597,4.004543,3.9989588,3.993038,3.9881554,3.983915,3.9784412,3.9742029,3.9682376,3.9626856,3.9586773,3.9485636,3.9355426,3.9223619,3.9150028,3.9084454,3.9022894,3.8972487,3.8901768,3.8844702,3.8777037,3.8708673,3.8676143,3.8510544,3.830212,3.8180652,3.8118896,3.7490206,3.9205632,4.258241,4.279827,4.1030207,4.095502,4.110181,4.1045628,4.096603,4.089363,4.081907,4.0733976,4.066725,4.057621,4.05042,4.041942,4.033081,4.0259776,4.01633,4.0088873,3.999556,3.9904404,3.9825125,3.9723115,3.9647245,3.9547925,3.9458733,3.9374652,3.9273052,3.9197497,3.8742151,3.893879,4.2156997,4.398719,4.1969185,4.082505,4.1012897,4.063195,4.0562077,4.11705,4.136824,4.1015596,4.0847073,4.075618,4.065888,4.0532775,4.0438566,4.0315666,4.0203657,4.0099645,3.9972777,3.9878716,3.9751902,3.9644222,3.9533153,3.9405951,3.9308872,3.9176414,3.9071486,3.895629,3.8839862,3.8761837,3.8569603,3.8386927,3.84859,3.8478782,3.8223715,3.7034464,3.5587325,3.5233629,3.5064173,3.3243947,3.183516,3.1955085,3.1925578,3.1878958,3.1824017,3.176334,3.1718524,3.1659493,3.1614513,3.1566987,3.152111,3.1487322,3.1456203,3.142929,3.1311452,3.1131756,3.0970602,3.0786843,3.0675309,3.0533383,3.0416746,3.032042,3.0230408,3.0183444,3.0125937,3.008501,3.004604,3.0012445,2.999556,2.9974875,2.9950938,2.9893904,2.9816618,2.9758391,2.9689631,2.9645,2.9598818,2.9551997,2.9506526,2.9439812,2.9385734,2.9316618,2.9256968,2.9214208,2.915989,2.911611,2.905613,2.900618,2.896336,2.892455,2.8901906,2.8879852,2.8870244,2.8863585,2.8862152,2.8862538,2.8865817,2.8870401,2.8875332,2.8883464,2.8893,2.8907633,2.89202,2.8940725,2.8966885,2.8994167,2.903058,2.905764,2.9078016,2.9075403,2.9057355,2.90198,2.8986282,2.8942366,2.8910048,2.889119,2.8860407,2.8838,2.867135,2.842916,2.8165464,2.7678328,2.7193062,2.5788107,2.4192052,2.2336018,2.0805526,1.9733663,1.8933957,1.871052,1.8509426,1.8497366,1.8544173,1.863729,1.869729,1.8763127,1.8801577,1.8824544,1.8850204,1.8872852,1.8942811,1.9073813,1.9339373,1.9977466,2.0680788,2.2236235,2.3830295,2.577413,2.7210412,2.779124,2.8208976,2.842226,2.8604622,2.8650694,2.8664303,2.8648853,2.8632832,2.8628948,2.8637285,2.8646762,2.8652904,2.865151,2.8647828,2.8642414,2.8632226,2.8617895,2.8605292,2.8591826,2.8584638,2.857834,2.8575501,2.8573618,2.8574655,2.8577845,2.858253,2.8590047,2.8599548,2.861702,2.8633418,2.8659327,2.8684134,2.87073,2.8735378,2.8758307,2.8790553,2.8817625,2.8849158,2.8884807,2.8913918,2.8953094,2.8982797,2.9016669,2.9052386,2.9086294,2.9132185,2.9167237
2.4763734,2.4859328,2.500415,2.5135145,2.5293217,2.5483246,2.5647147,2.5861742,2.6020145,2.6210337,2.640389,2.6569242,2.6816669,2.7026186,2.732283,2.7619941,2.7890978,2.8220825,2.8457627,2.8795705,2.9115753,2.9467242,2.9901454,3.023235,3.0711887,3.1139293,3.1680987,3.2286458,3.2731898,3.3351784,3.3848104,3.4494362,3.508811,3.547193,3.5960188,3.6335597,3.6854854,3.7344627,3.777645,3.8202448,3.8430424,3.8722327,3.895276,3.919465,3.94129,3.9519162,3.9661307,3.9772482,3.9897757,4.0025945,4.0121684,4.0225754,4.028159,4.0325665,4.0317717,4.027381,4.0207157,4.0158343,4.010345,4.005513,4.001153,3.9954834,3.9911335,3.9850616,3.9794505,3.9748964,3.965955,3.955678,3.9446352,3.9377892,3.9312592,3.9247348,3.9195218,3.9122338,3.9063735,3.8994317,3.8923473,3.888061,3.874432,3.8587432,3.8481603,3.8420403,3.8169632,3.8685975,3.976779,3.9782655,3.9152155,3.9110825,3.9127963,3.9065852,3.8978915,3.8902192,3.882198,3.8731222,3.8660722,3.8564873,3.848938,3.8400867,3.8308742,3.8234882,3.813518,3.8058736,3.7962952,3.7869756,3.7788978,3.76853,3.76083,3.7507634,3.7417388,3.7332325,3.7229676,3.7153428,3.6933432,3.694131,3.7950006,3.8489628,3.776678,3.7322083,3.73277,3.644368,3.7592921,4.20018,4.3786383,4.188456,4.1390533,4.144649,4.134942,4.1223497,4.1129303,4.100637,4.089424,4.0790033,4.066284,4.05685,4.0441236,4.033312,4.0221524,4.009387,3.999661,3.9864001,3.9759064,3.9644012,3.9527402,3.9444766,3.9276216,3.9126277,3.9577122,3.8868415,3.5870104,3.3509345,3.3417163,3.331082,3.3204474,3.2527533,3.2027974,3.210151,3.2074988,3.201106,3.195603,3.189515,3.1850133,3.1791081,3.1745994,3.1697612,3.1649442,3.1612213,3.1580698,3.1556778,3.144631,3.126362,3.1077094,3.088836,3.0798512,3.0678992,3.0581336,3.0500822,3.0419588,3.0370817,3.0313582,3.0275095,3.0241826,3.0215235,3.0203378,3.0177608,3.014318,3.0081623,3.0007088,2.9956987,2.9891992,2.984437,2.9792333,2.974309,2.9702497,2.9645147,2.9599187,2.9542212,2.9489884,2.9444218,2.9387531,2.9345708,2.9291902,2.9248827,2.9210043,2.9173322,2.915093,2.9127777,2.911609,2.9106934,2.910336,2.9102898,2.9105926,2.9111135,2.9117506,2.9128275,2.9141004,2.9157648,2.916985,2.9189816,2.9214778,2.9240756,2.9274862,2.9299784,2.932059,2.9320903,2.9305735,2.9273024,2.9243882,2.920712,2.9182153,2.917447,2.9150915,2.9129295,2.894733,2.8682232,2.8396206,2.7891798,2.7397938,2.59895,2.4392207,2.2489605,2.090375,1.9810498,1.8995202,1.876416,1.8555917,1.8544405,1.8599472,1.8702495,1.8766558,1.8834873,1.8872765,1.889549,1.8917471,1.8933017,1.9004807,1.9145167,1.9418061,2.0064292,2.0775342,2.2338154,2.393826,2.5923328,2.739205,2.7954803,2.836184,2.8586767,2.8793168,2.885976,2.887388,2.885621,2.8842468,2.88395,2.8847036,2.8855333,2.8859472,2.8856206,2.8851311,2.8845577,2.8833203,2.8817375,2.8805475,2.8793154,2.8786764,2.8781338,2.8778129,2.8774464,2.877288,2.87742,2.877586,2.8779755,2.87851,2.879797,2.8811753,2.8832526,2.8853526,2.8876758,2.8906665,2.8930864,2.8963385,2.898921,2.9018278,2.904932,2.9074323,2.9104052,2.9124064,2.9148989,2.917724,2.9203782,2.9245684,2.9282265
2.5257146,2.5362897,2.552154,2.5663686,2.5836358,2.6036525,2.6203346,2.6410513,2.6555238,2.6726165,2.690818,2.707747,2.733377,2.754993,2.7853532,2.8154218,2.8425012,2.875496,2.8993268,2.9340515,2.9667315,3.0014176,3.042545,3.072687,3.118504,3.1605458,3.2126932,3.2709286,3.313757,3.3757253,3.4266436,3.489964,3.547365,3.585505,3.6333036,3.6691432,3.7152185,3.7561805,3.790971,3.829437,3.8548126,3.8848596,3.908379,3.934828,3.960322,3.9739814,3.9911606,4.003617,4.016896,4.0299606,4.0397773,4.0509586,4.056775,4.0564604,4.0514393,4.048223,4.0434346,4.0395,4.0347176,4.029991,4.0254335,4.0194445,4.014919,4.008676,4.002965,3.9974024,3.9906216,3.98541,3.9783459,3.9725075,3.9661167,3.9590364,3.953607,3.9460588,3.9400167,3.9328525,3.9253912,3.9192648,3.9110851,3.9048953,3.897168,3.8899999,3.8899884,3.861662,3.8169441,3.8057055,3.8179832,3.812085,3.801702,3.7950637,3.7858658,3.778051,3.7696939,3.7602859,3.7530186,3.743207,3.7355304,3.7265313,3.7171693,3.709651,3.699522,3.6917715,3.6820576,3.6726198,3.664457,3.653976,3.646184,3.6359823,3.6268132,3.618157,3.6076872,3.599895,3.5934384,3.581544,3.5350552,3.5028977,3.5168557,3.5180893,3.5065699,3.4295554,3.556203,3.998501,4.1761,3.9841614,3.934557,3.9407818,3.9313846,3.9192052,3.9101017,3.8982277,3.8873951,3.877314,3.864998,3.8558574,3.8435273,3.8330512,3.8222327,3.809873,3.8004708,3.7876477,3.7775264,3.7665267,3.755392,3.746735,3.7352624,3.7269065,3.7641275,3.6802948,3.3656552,3.1637173,3.2196264,3.2215989,3.2156358,3.2280116,3.2362614,3.2315383,3.2253118,3.219243,3.2137527,3.2077117,3.2032638,3.197528,3.193185,3.1884327,3.183536,3.1800246,3.1743236,3.1683822,3.156489,3.139639,3.1225884,3.1055746,3.09764,3.087442,3.0793686,3.0727649,3.0655804,3.0607328,3.0551298,3.0508804,3.0461934,3.0413256,3.0383835,3.0334845,3.0286202,3.022189,3.0155184,3.0114105,3.0058372,3.0015059,2.9965394,2.9918904,2.9883513,2.9835014,2.9796605,2.9747841,2.9699478,2.9652467,2.9594526,2.955365,2.9502964,2.946352,2.942717,2.9392118,2.9370365,2.9346998,2.9334497,2.9324884,2.932187,2.9322639,2.932825,2.9336166,2.9346042,2.9360337,2.937585,2.9394455,2.9406595,2.9423752,2.9442945,2.9462442,2.9488382,2.9507809,2.9526772,2.9531307,2.952388,2.950108,2.947785,2.9449177,2.9430509,2.9433315,2.940494,2.9361062,2.9156046,2.887948,2.8585138,2.8071122,2.7561913,2.6141372,2.4541597,2.2630763,2.1034632,1.9933167,1.9103541,1.8858916,1.8640809,1.8625342,1.867449,1.8775141,1.8841815,1.8910134,1.8946575,1.896945,1.8993351,1.9010098,1.9093952,1.9250547,1.9539764,2.0195131,2.0909958,2.244418,2.400397,2.5993943,2.7497358,2.8088937,2.8510642,2.8728251,2.897089,2.908269,2.910882,2.909368,2.90805,2.907918,2.908802,2.9097452,2.910112,2.9097142,2.9081671,2.906114,2.9034176,2.9006858,2.8989472,2.8972707,2.896492,2.8958895,2.8956745,2.8954377,2.895474,2.8957608,2.8963847,2.897318,2.8984191,2.899704,2.9004822,2.901735,2.9031413,2.9049654,2.9075012,2.9095914,2.9124115,2.9146483,2.9171877,2.9196866,2.9214783,2.923471,2.9247327,2.9264438,2.9284632,2.930274,2.9334912,2.936574
2.5584526,2.5694923,2.5860424,2.6008325,2.6190016,2.6390092,2.6544204,2.673832,2.6878583,2.7055411,2.7245827,2.741519,2.766755,2.787883,2.817679,2.8475397,2.8749826,2.9083796,2.9322913,2.967266,2.9991117,3.0300767,3.06701,3.095445,3.1395483,3.1801033,3.227886,3.28238,3.324928,3.3862844,3.4362993,3.4968646,3.5541463,3.5975797,3.6495929,3.685254,3.7262068,3.7578757,3.782008,3.8132768,3.8391917,3.8698158,3.8947258,3.9225125,3.9517288,3.9701512,3.9913383,4.0050383,4.018725,4.031701,4.0415726,4.054343,4.0629263,4.06898,4.06958,4.0674386,4.062686,4.058277,4.0531535,4.0481706,4.0434403,4.037264,4.032605,4.0262346,4.0204496,4.014831,4.0079384,4.0025926,3.995349,3.9893572,3.9827867,3.9754953,3.969898,3.9621463,3.955961,3.9486208,3.940952,3.9346344,3.9261556,3.919718,3.9117625,3.9042964,3.8984592,3.8880167,3.8777204,3.8696656,3.8649473,3.858105,3.8493052,3.8428113,3.8337724,3.8260577,3.8178048,3.808494,3.801288,3.7915893,3.7840185,3.7751272,3.765859,3.758406,3.7483459,3.7406344,3.7309628,3.7215576,3.7134242,3.7029662,3.6951795,3.684956,3.6757343,3.667017,3.656436,3.648537,3.6384103,3.6292307,3.615727,3.602769,3.5972207,3.5876846,3.5787246,3.5586061,3.5689356,3.6289225,3.6462944,3.6098561,3.5932665,3.585339,3.5763588,3.5647511,3.556098,3.544825,3.5345473,3.5249724,3.5132675,3.504576,3.4928598,3.4829116,3.4726381,3.4609065,3.4519877,3.439807,3.4302177,3.419921,3.4096308,3.4016654,3.3913999,3.3839147,3.3820157,3.3621738,3.3087492,3.270544,3.273201,3.2668023,3.2600114,3.2558103,3.2501798,3.2450209,3.2382803,3.232665,3.2271857,3.2211828,3.2167785,3.2111568,3.2069557,3.2024167,3.1977773,3.1950355,3.1862667,3.1755571,3.1619573,3.1472964,3.1348596,3.1206822,3.111836,3.1014214,3.093347,3.0868092,3.0797095,3.0749116,3.0692492,3.0640876,3.0568757,3.048233,3.0423746,3.03481,3.029128,3.0231023,3.017531,3.0138593,3.0092297,3.0058722,3.0019913,2.998111,2.9948354,2.9902453,2.9865823,2.981573,2.976565,2.9720774,2.9664826,2.9623995,2.9571877,2.9530513,2.94933,2.9458196,2.943692,2.9414108,2.9402215,2.939363,2.9392548,2.9395285,2.9404078,2.941472,2.942758,2.9443789,2.9459686,2.947894,2.9491606,2.9506264,2.951993,2.953301,2.9551225,2.9565828,2.9582644,2.9590776,2.9591832,2.9578676,2.9559884,2.9535875,2.9518614,2.9523926,2.9480734,2.940529,2.918204,2.891007,2.862326,2.8112998,2.7595675,2.6165466,2.4563682,2.2687578,2.1131206,2.0038428,1.9203115,1.8946526,1.8721323,1.8699701,1.873236,1.8819821,1.8886001,1.8951912,1.898704,1.9010422,1.904089,1.906675,1.916601,1.9336338,1.9642297,2.0303528,2.1016264,2.2503843,2.4001567,2.5953107,2.7468343,2.8118024,2.8573215,2.8771954,2.904122,2.9194071,2.923657,2.9227552,2.921302,2.9213223,2.9224396,2.9235082,2.9238663,2.9235322,2.9206376,2.916589,2.9121234,2.9079723,2.905397,2.9029622,2.9018743,2.9010596,2.9009924,2.9010954,2.9016478,2.90233,2.9038754,2.905911,2.908211,2.9099674,2.910199,2.9108577,2.9117084,2.9128432,2.9145622,2.916061,2.9182491,2.9201312,2.9224038,2.9245162,2.9257379,2.92726,2.92838,2.9297976,2.9313326,2.932616,2.9347422,2.9367604
2.6006198,2.612198,2.6298776,2.6454992,2.6632733,2.6819596,2.6960862,2.7146826,2.728828,2.746867,2.7662714,2.7831883,2.808179,2.8290172,2.8585362,2.8884747,2.9164042,2.950899,2.975989,3.0094085,3.0378847,3.0657673,3.100045,3.1274934,3.1698878,3.2084773,3.2525117,3.3033943,3.3444808,3.4048123,3.4542665,3.5112004,3.564662,3.6066082,3.659337,3.6969771,3.7346187,3.7593591,3.7772386,3.8008747,3.8215566,3.8466744,3.8684783,3.8930976,3.9234033,3.946601,3.9742422,3.993195,4.012535,4.0298295,4.0413685,4.055476,4.064725,4.0727515,4.076247,4.0769243,4.075173,4.072319,4.0684514,4.0638437,4.059214,4.0529933,4.0482874,4.0420027,4.036451,4.0312114,4.0247035,4.019541,4.0122666,4.0059595,3.9988523,3.9907146,3.9843783,3.975585,3.9686165,3.9605951,3.9524941,3.9458709,3.9373507,3.9311752,3.9238906,3.917487,3.9121993,3.9051647,3.8995848,3.8920894,3.8850918,3.8780859,3.869423,3.8628962,3.8538213,3.8460803,3.8378713,3.8283677,3.8208287,3.8100252,3.801208,3.7912974,3.7813482,3.7735245,3.7631488,3.7553024,3.7454548,3.735952,3.7277575,3.7174468,3.7099345,3.7000403,3.6912842,3.6832504,3.6737957,3.6669078,3.6573462,3.6489568,3.639669,3.628904,3.6207147,3.6096392,3.600906,3.5990777,3.571854,3.5084972,3.4741743,3.4879012,3.4819736,3.469503,3.4606822,3.4492817,3.4407816,3.4297092,3.4196124,3.4102025,3.3986955,3.3901505,3.3786244,3.3688295,3.3587117,3.3471582,3.3383772,3.3263788,3.316943,3.3068614,3.2968402,3.2890997,3.279225,3.272021,3.2575006,3.2582836,3.2886405,3.3048968,3.2933295,3.2849803,3.278286,3.2721586,3.2649727,3.259902,3.2533023,3.2477822,3.2421584,3.235361,3.2299695,3.2224226,3.216136,3.2089932,3.2011967,3.1956189,3.1845074,3.1733832,3.1608274,3.1485472,3.1386502,3.1253743,3.1151118,3.101056,3.0883448,3.0782652,3.0670323,3.0592933,3.0506096,3.0439668,3.0361083,3.0275152,3.021822,3.0151126,3.0107436,3.0066826,3.003282,3.0009456,2.9979544,2.9956977,2.9928634,2.9896283,2.9866867,2.982339,2.9787674,2.9740381,2.969493,2.9655576,2.960788,2.9573736,2.9528298,2.9490566,2.9455957,2.9421933,2.94007,2.9376018,2.9358554,2.9335284,2.9316783,2.9309907,2.930828,2.9312887,2.9319468,2.9331026,2.9342728,2.9361787,2.9379144,2.9409733,2.944552,2.9479356,2.9511485,2.9525836,2.9546273,2.9559264,2.956566,2.9559355,2.954607,2.9526525,2.9506588,2.9495196,2.9433603,2.9350004,2.9137647,2.8884363,2.8589616,2.805739,2.752081,2.6086314,2.4502318,2.2704735,2.1225452,2.0143902,1.9302392,1.9037423,1.8800513,1.8765814,1.8784102,1.8856585,1.891403,1.8975883,1.9014065,1.9040639,1.9079595,1.911464,1.9233351,1.9421954,1.9742882,2.0404859,2.111473,2.2544422,2.3960109,2.580096,2.7279384,2.8027658,2.8554697,2.8733826,2.8988228,2.9134412,2.9187312,2.9194863,2.9190154,2.920325,2.921682,2.9207008,2.9186757,2.9175663,2.9146883,2.9114904,2.908225,2.905171,2.9030366,2.9005969,2.8990893,2.89768,2.8970265,2.8968253,2.8970234,2.897431,2.8984067,2.8998008,2.9014304,2.902894,2.903372,2.9043636,2.905625,2.9074037,2.9097638,2.9115872,2.9138038,2.9153128,2.916905,2.917984,2.9184031,2.9183316,2.917901,2.9178064,2.9179468,2.9179368,2.9185796,2.9196558
2.6376472,2.6494129,2.6673398,2.6828609,2.6992702,2.7163396,2.7297251,2.748251,2.7629447,2.7812254,2.8007216,2.8177133,2.8428376,2.8638105,2.893415,2.9235578,2.9520335,2.9871988,3.012774,3.0437074,3.06867,3.095034,3.1286774,3.1560757,3.1973772,3.2343059,3.2763271,3.32502,3.364509,3.4236422,3.4725225,3.5266037,3.5755754,3.612623,3.6632023,3.7025769,3.7392144,3.7618701,3.7795777,3.7995808,3.8144388,3.8333323,3.8506656,3.8701267,3.8986168,3.9241161,3.9567728,3.9811563,4.006125,4.027785,4.041057,4.056118,4.0651593,4.07255,4.076416,4.0791974,4.080348,4.0794106,4.0770917,4.0730867,4.0687027,4.0625963,4.0579596,4.0518827,4.04664,4.041831,4.03578,4.030879,4.023652,4.017076,4.009495,4.000589,3.9935777,3.9838505,3.9762032,3.9676278,3.9592652,3.9525058,3.9442248,3.9385576,3.932199,3.9270992,3.9233294,3.917589,3.912356,3.90496,3.8977406,3.890613,3.881794,3.875146,3.8659477,3.8581343,3.8499343,3.8401814,3.8322587,3.820147,3.8097525,3.798124,3.786528,3.7775085,3.765902,3.7574024,3.7469025,3.7371151,3.7287967,3.7188368,3.7119327,3.703036,3.6954565,3.6886532,3.6807714,3.6750693,3.6668618,3.6592712,3.650455,3.6399088,3.631844,3.6208608,3.6121433,3.6021156,3.5915418,3.583054,3.571701,3.5630724,3.5523922,3.5419295,3.5329804,3.5214403,3.512866,3.501662,3.4914527,3.4819984,3.470408,3.4617586,3.4500818,3.4401457,3.4298778,3.4181466,3.4092293,3.3970468,3.3874612,3.3771982,3.3669748,3.3590739,3.348935,3.3415284,3.3325984,3.3239975,3.3167953,3.3074858,3.30058,3.292141,3.2848659,3.2782784,3.2706842,3.265399,3.2584872,3.2525823,3.2464476,3.2385268,3.2319622,3.2221484,3.2134018,3.2031016,3.19146,3.1822278,3.1696987,3.1600018,3.1483078,3.1361175,3.125546,3.110742,3.098921,3.081221,3.0641727,3.0506165,3.0353742,3.0248432,3.0132256,3.0055523,2.9984584,2.992013,2.9880886,2.983708,2.9810243,2.9783282,2.975926,2.9742458,2.9719024,2.9699554,2.9673476,2.964236,2.9614427,2.9572358,2.953747,2.9494472,2.9454713,2.9420383,2.937531,2.9340081,2.9292955,2.925282,2.9215446,2.9177332,2.9152846,2.9122188,2.9096565,2.9057436,2.9020243,2.9001737,2.8986702,2.898292,2.8981042,2.8986607,2.899376,2.9011545,2.9032166,2.9076314,2.9132452,2.9186168,2.9234486,2.925274,2.9282224,2.9306345,2.932681,2.933686,2.933461,2.9321737,2.9297903,2.926898,2.919674,2.912147,2.8928666,2.8689685,2.8379698,2.7810802,2.7230694,2.5805087,2.4284072,2.2618308,2.1257343,2.0203757,1.9366969,1.9098411,1.8853505,1.8807373,1.8816044,1.8875339,1.8920995,1.8977977,1.902029,1.9050884,1.9097209,1.9139025,1.9270554,1.9469532,1.9794859,2.0448337,2.1153994,2.251121,2.3822813,2.5516806,2.6923966,2.7745738,2.8351474,2.8544545,2.8779914,2.8895187,2.8952627,2.8972397,2.8973207,2.8990316,2.900013,2.897277,2.893487,2.891799,2.8898342,2.888604,2.8875747,2.8865447,2.8855114,2.883768,2.8822184,2.880497,2.8792453,2.8785799,2.87813,2.8780146,2.8778856,2.8779716,2.878164,2.8788838,2.8797393,2.881152,2.8829079,2.885432,2.8886545,2.891035,2.8937325,2.8953567,2.8968892,2.8976626,2.8978615,2.896882,2.8953505,2.8942604,2.8935862,2.8928795,2.8929381,2.8937979
2.6740813,2.6858287,2.7022858,2.7158527,2.731083,2.7477674,2.7612553,2.7801352,2.7951608,2.8133898,2.8328257,2.850046,2.8758569,2.897572,2.927598,2.9580293,2.9876702,3.022303,3.0456018,3.0744915,3.0984876,3.1245081,3.1579843,3.1851478,3.22551,3.26127,3.3022182,3.3496823,3.388072,3.4458168,3.4936738,3.5465188,3.5935502,3.6280255,3.6754966,3.7130117,3.7484093,3.7716784,3.7915637,3.8136668,3.829033,3.847513,3.862957,3.8788354,3.9039922,3.92844,3.9620714,3.988505,4.013708,4.0350165,4.0479994,4.064957,4.076722,4.0847945,4.0878053,4.089596,4.0900393,4.089132,4.086889,4.0830507,4.078767,4.07279,4.068257,4.06228,4.057068,4.052237,4.0461125,4.041147,4.033786,4.027076,4.0193796,4.0103874,4.003314,3.9936507,3.98616,3.9777374,3.9695787,3.9630315,3.9550712,3.949662,3.943541,3.9387083,3.9353552,3.9300003,3.9248948,3.9174814,3.910101,3.902842,3.8938456,3.887052,3.8777208,3.8698478,3.8616316,3.8517685,3.8436785,3.8311825,3.820159,3.8070045,3.7927656,3.7809534,3.7661762,3.7558775,3.7437663,3.7333934,3.7249298,3.7157648,3.710075,3.7036371,3.6984448,3.6931152,3.6857343,3.679523,3.671608,3.665038,3.6577291,3.6488397,3.6417375,3.6314986,3.6229317,3.6130257,3.6024492,3.5939593,3.5825915,3.5739481,3.5667403,3.550469,3.5172825,3.4904122,3.4869308,3.4729705,3.4655557,3.4790535,3.4849331,3.4734175,3.4608645,3.4509153,3.440632,3.4288826,3.4199517,3.4077463,3.3981464,3.3878927,3.3777056,3.3698456,3.3596973,3.3523018,3.3441658,3.3359199,3.3281918,3.3161168,3.305767,3.2938895,3.2841911,3.2757027,3.2664313,3.2602901,3.2519577,3.2448347,3.2376857,3.2291074,3.2223938,3.212477,3.2036376,3.1929061,3.1806157,3.171093,3.15697,3.1449733,3.129365,3.1126533,3.0985017,3.0801387,3.0666528,3.0495663,3.034806,3.022562,3.009059,2.9999685,2.9899287,2.9834175,2.9776464,2.972475,2.969299,2.9654381,2.962462,2.9582973,2.9538517,2.9508853,2.9470978,2.944344,2.9411905,2.9382896,2.9360723,2.9331608,2.9309387,2.928019,2.9250038,2.9224105,2.9174697,2.912477,2.905974,2.9004965,2.8955686,2.890695,2.8876362,2.8836925,2.8806055,2.8768601,2.873435,2.8714786,2.869781,2.8692508,2.8690338,2.869636,2.8704524,2.8720255,2.8735852,2.8763793,2.879742,2.8829365,2.8861077,2.8876538,2.8907952,2.895071,2.9012957,2.9074607,2.910322,2.910963,2.9086604,2.9067402,2.899785,2.8916183,2.8706594,2.8449187,2.8129807,2.7523217,2.6852417,2.5415306,2.3979182,2.2474232,2.1257942,2.02432,1.941644,1.9144278,1.8898432,1.8848596,1.8849171,1.8897496,1.8935592,1.8987623,1.903064,1.9064155,1.9116052,1.916289,1.929769,1.9495409,1.9815927,2.0457642,2.1164093,2.2436495,2.362483,2.5211906,2.6573594,2.7397046,2.8070266,2.8350863,2.8632941,2.875067,2.881857,2.8832772,2.8815641,2.8806129,2.8803453,2.8798993,2.8792615,2.8787484,2.8774383,2.8760653,2.874961,2.8741837,2.8737912,2.8730574,2.8722947,2.8712003,2.870195,2.8695683,2.8690176,2.8687654,2.8685725,2.868503,2.8683763,2.8682837,2.8682694,2.8683434,2.8687406,2.8696744,2.871237,2.8725512,2.8745003,2.876195,2.8784122,2.8799753,2.8803148,2.879658,2.8784845,2.8776617,2.8772545,2.8769119,2.877365,2.8784263
2.7135406,2.7245998,2.7394226,2.751449,2.7659411,2.782677,2.796529,2.8157387,2.8308563,2.8490984,2.8688402,2.8867903,2.9136984,2.936233,2.9671528,2.9977384,3.026822,3.05962,3.080842,3.1085474,3.1326468,3.158906,3.1925833,3.2196457,3.2595587,3.2947977,3.3355227,3.382648,3.4205327,3.477361,3.5243397,3.5760918,3.6218414,3.655272,3.700436,3.7355835,3.7688165,3.7915897,3.812499,3.8367872,3.8539872,3.8742757,3.8903797,3.9057856,3.9302204,3.9545233,3.988675,4.015279,4.0374823,4.0562506,4.0701,4.086433,4.096339,4.1027913,4.1041985,4.1044235,4.103455,4.1020365,4.0994086,4.095566,4.091359,4.085558,4.08117,4.075317,4.0701137,4.06517,4.0589104,4.053894,4.0465326,4.039921,4.032444,4.023844,4.017132,4.0080237,4.000987,3.9929729,3.9851515,3.9788918,3.9712245,3.965956,3.9599073,3.954837,3.9509423,3.9449322,3.9394674,3.9317937,3.9243476,3.91701,3.9079475,3.9011164,3.891707,3.883751,3.8753943,3.865561,3.8577652,3.8453937,3.8338957,3.8182936,3.8012037,3.7881525,3.7720792,3.760994,3.748117,3.7373629,3.7287214,3.7196712,3.71427,3.7076645,3.7016797,3.6945267,3.6869268,3.6827137,3.676113,3.66986,3.6630602,3.654623,3.6478019,3.6377783,3.6292522,3.6193771,3.608798,3.6003094,3.5889435,3.5803027,3.5639582,3.5629544,3.5934634,3.606863,3.5899687,3.58319,3.5683599,3.520783,3.4826515,3.4828012,3.4742556,3.4634786,3.4530602,3.4411435,3.4320853,3.4197114,3.409966,3.399484,3.3890424,3.380999,3.3708258,3.3633962,3.3539205,3.3434505,3.3338914,3.3190756,3.3064637,3.2921276,3.2804556,3.2701387,3.258656,3.2508779,3.240559,3.2320552,3.2238097,3.214385,3.207262,3.1964312,3.1865807,3.1746764,3.1610303,3.1505625,3.1342878,3.119996,3.1016655,3.08245,3.0662842,3.0466666,3.0333674,3.0185041,3.006966,2.9970713,2.9856486,2.977537,2.9670842,2.958674,2.9505954,2.9425473,2.9374285,2.930987,2.9260037,2.9197383,2.9131193,2.9084492,2.9025607,2.8983333,2.89343,2.88877,2.8850732,2.8801584,2.8763986,2.871679,2.866736,2.8624144,2.8530931,2.843108,2.8311973,2.821959,2.8138113,2.806065,2.801289,2.795535,2.7916687,2.787967,2.784961,2.7830625,2.7814167,2.7809267,2.780846,2.7815971,2.78256,2.783993,2.7851253,2.7864478,2.7881668,2.7900877,2.793873,2.79759,2.8045106,2.812726,2.822508,2.8311956,2.834527,2.8354337,2.8331335,2.8316302,2.8256013,2.8186214,2.7979717,2.7712612,2.7372344,2.6730118,2.5987968,2.4653971,2.3445807,2.219481,2.1171296,2.025548,1.9474233,1.9191484,1.8949997,1.8903203,1.8895888,1.8933432,1.8966331,1.9013561,1.9055388,1.9090462,1.9145405,1.9194833,1.9326065,1.9514949,1.9827807,2.0445085,2.1135964,2.2256029,2.323798,2.46226,2.5868835,2.6667905,2.7374477,2.7709007,2.8021064,2.8140793,2.8209262,2.821218,2.818005,2.8142018,2.8117166,2.8112452,2.8113172,2.8109684,2.8094878,2.8076875,2.8060153,2.8048973,2.804563,2.8043046,2.8041635,2.8038173,2.803445,2.8031795,2.8029566,2.8028808,2.8029692,2.8031182,2.8031201,2.8030329,2.8029137,2.8030581,2.8037515,2.8049974,2.8076572,2.810307,2.8150616,2.8198142,2.8257074,2.8312318,2.8343205,2.8379073,2.8402965,2.8429847,2.845571,2.8478832,2.8510263,2.853501
2.7389975,2.7490053,2.763435,2.775841,2.7904453,2.8072903,2.8213067,2.8404384,2.8553345,2.8737073,2.8940437,2.9128609,2.940546,2.9633126,2.9952288,3.025848,3.052402,3.083128,3.1044915,3.132379,3.1567333,3.183097,3.2167964,3.2438204,3.2837677,3.3191147,3.3600414,3.407356,3.4453106,3.5022392,3.5491776,3.5998273,3.6447082,3.6787267,3.7242923,3.7591412,3.790009,3.8096037,3.8280869,3.8510644,3.8685935,3.890438,3.908956,3.9268289,3.9544418,3.9813862,4.017476,4.04375,4.0624866,4.079218,4.0964084,4.1096406,4.112137,4.114818,4.1151953,4.115125,4.11393,4.1122813,4.1094437,4.105544,4.101387,4.095705,4.0914135,4.0856733,4.0805335,4.075576,4.069342,4.064404,4.05722,4.0508404,4.0436826,4.035537,4.029236,4.0205803,4.0137987,4.0060177,3.998354,3.9922082,3.9846673,3.979475,3.973627,3.9683185,3.9634657,3.956242,3.9500847,3.942035,3.9346557,3.927341,3.9183767,3.911653,3.902268,3.8942404,3.8856807,3.875997,3.8688653,3.8567514,3.8446343,3.8260336,3.80708,3.7957492,3.7819266,3.772059,3.760125,3.7495096,3.7407315,3.7309208,3.7245634,3.712689,3.6980743,3.678512,3.665437,3.667223,3.663547,3.6566057,3.6485376,3.6383586,3.6305547,3.6197538,3.6110463,3.6010094,3.5903983,3.5818958,3.570531,3.5619,3.5225744,3.559942,3.7505813,3.8652253,3.8146183,3.8259184,3.792467,3.5900786,3.4448364,3.4818397,3.4867349,3.472722,3.46209,3.4499114,3.4406533,3.428022,3.4180481,3.4071357,3.3962927,3.3880444,3.37831,3.3712854,3.3585618,3.3438525,3.3321328,3.3170414,3.3059359,3.2928402,3.2816746,3.2712684,3.258671,3.249444,3.237937,3.2289097,3.2202868,3.2101364,3.2021923,3.1891046,3.1766372,3.1620517,3.1454139,3.1322422,3.1137142,3.099043,3.0820928,3.065589,3.0513456,3.0348775,3.024337,3.011717,3.0013795,2.9929786,2.9817011,2.9723632,2.9580822,2.9443789,2.9304392,2.9159951,2.9068508,2.8959146,2.888673,2.881999,2.8760571,2.8715985,2.8657007,2.8611088,2.8552666,2.8484006,2.8420782,2.8325384,2.824645,2.8154912,2.8065767,2.7988446,2.7830899,2.7665544,2.7478495,2.7341228,2.7219763,2.7105398,2.703457,2.6954834,2.6905918,2.6859226,2.6822963,2.680087,2.6781535,2.6775255,2.6772637,2.6778316,2.6785975,2.6799192,2.68113,2.6828082,2.685869,2.689696,2.6978235,2.7060184,2.7197955,2.7325788,2.7426484,2.7481313,2.7475772,2.7458506,2.743062,2.7399511,2.7345846,2.73091,2.7138448,2.688415,2.6511278,2.5838945,2.5078902,2.3919663,2.2981124,2.1956747,2.1077197,2.0268753,1.9539267,1.9237403,1.899921,1.8959603,1.8946548,1.8976911,1.9008412,1.9053361,1.9093821,1.912926,1.9184672,1.9234145,1.9360257,1.9541607,1.9854481,2.0453687,2.1126425,2.2098882,2.288241,2.4046607,2.5160084,2.5960321,2.6663232,2.696322,2.7254086,2.7367625,2.7426097,2.742645,2.7401257,2.7359867,2.7316399,2.7270217,2.7228742,2.7209027,2.7185166,2.716899,2.7151546,2.7137485,2.7128797,2.7120786,2.7117386,2.7115593,2.711658,2.7117767,2.7120492,2.7123203,2.712654,2.7130208,2.7132888,2.7142115,2.7153413,2.717744,2.7211256,2.7255278,2.7328172,2.7395108,2.750277,2.760108,2.771175,2.7819977,2.789236,2.7988477,2.8060074,2.813314,2.8195581,2.8249803,2.830861,2.8344097
2.7756567,2.7850285,2.7991428,2.8116837,2.826386,2.843225,2.8570447,2.87602,2.8909717,2.9099102,2.9312978,2.9511805,2.980242,3.0039105,3.0356088,3.064919,3.089944,3.1194017,3.1405044,3.1686418,3.1936686,3.2205434,3.2548742,3.2823987,3.3231368,3.3591833,3.4007423,3.4489532,3.4881501,3.5451965,3.591033,3.6401372,3.6841173,3.7190938,3.763905,3.7963772,3.8242068,3.841588,3.8594823,3.8822255,3.899529,3.9211612,3.941167,3.9647272,3.997495,4.0253897,4.0590825,4.08132,4.098934,4.1131215,4.125479,4.13262,4.1312513,4.1313543,4.1308365,4.130297,4.1286516,4.126692,4.123573,4.119611,4.1155443,4.1100597,4.1059275,4.100388,4.0953965,4.0905013,4.084433,4.07972,4.0729513,4.067037,4.060478,4.053124,4.0475183,4.039618,4.033247,4.025822,4.0182767,4.012153,4.004287,3.9985745,3.9917994,3.9853039,3.979214,3.9709055,3.9643908,3.9560704,3.948697,3.9414325,3.9326327,3.9260879,3.9167538,3.90862,3.8998537,3.8900867,3.882985,3.871681,3.8609676,3.845183,3.8290734,3.8205752,3.8006015,3.7795973,3.7644484,3.7556124,3.7467654,3.7350035,3.7259998,3.7271519,3.7493792,3.8005025,3.8360062,3.8279996,3.8200226,3.8121774,3.8032184,3.7923222,3.7841113,3.773044,3.7643473,3.754346,3.7438445,3.7354379,3.7242134,3.715694,3.679518,3.7119353,3.881569,3.9829626,3.936842,3.9442859,3.9154038,3.7619472,3.5927513,3.5236378,3.482517,3.4855757,3.4747112,3.4621847,3.4526114,3.4397073,3.4296684,3.4189935,3.4079912,3.3991842,3.3873334,3.3776872,3.3617895,3.343223,3.3274999,3.3075185,3.2931905,3.2760305,3.2614472,3.2480834,3.232357,3.2211118,3.2076664,3.1975532,3.187724,3.1762128,3.1671605,3.1530638,3.1403465,3.1261086,3.1103935,3.0978708,3.0810256,3.0683255,3.0543754,3.0410218,3.029683,3.013394,3.0000973,2.9825017,2.9659529,2.9516578,2.934186,2.9214196,2.9014683,2.8829336,2.8656402,2.8483584,2.8373966,2.824121,2.8146782,2.805004,2.7925348,2.7800207,2.7640495,2.752084,2.7350028,2.716112,2.7006774,2.680508,2.665553,2.6468515,2.628673,2.6116917,2.5878146,2.5682821,2.5462408,2.5307994,2.5174053,2.505382,2.4982123,2.4907756,2.4868784,2.4833603,2.4812255,2.480238,2.4800026,2.4807115,2.4819736,2.4840302,2.486005,2.4887366,2.4908667,2.4937253,2.4978404,2.5024562,2.5118175,2.5211487,2.5366144,2.5506992,2.561136,2.5674653,2.5682049,2.568798,2.5679905,2.5657966,2.5610142,2.55764,2.5435424,2.5222983,2.4871998,2.42907,2.3676376,2.2832098,2.2200246,2.143186,2.073047,2.010746,1.9514534,1.9233689,1.9012609,1.8967828,1.8950944,1.8974915,1.9002405,1.9043374,1.9080887,1.911077,1.9161255,1.920982,1.9334129,1.9507699,1.9801158,2.0322297,2.088997,2.1657186,2.2237902,2.3090782,2.3936248,2.4612472,2.5220027,2.547546,2.5720463,2.580628,2.5836189,2.5801086,2.5748162,2.5671856,2.559968,2.5519629,2.5444198,2.5403414,2.5360413,2.5336657,2.5312052,2.529387,2.5282373,2.5273116,2.5270846,2.5272746,2.5279067,2.528481,2.5291429,2.5295322,2.5297835,2.5300303,2.5302725,2.5318522,2.5339723,2.5383215,2.5441046,2.5512967,2.5626006,2.5727267,2.588747,2.603078,2.6182437,2.6341844,2.646531,2.664236,2.678515,2.6950245,2.7109325,2.7241237,2.7412157,2.7539356
2.8061745,2.8156083,2.8296318,2.8420014,2.8566742,2.8733754,2.886807,2.9057417,2.9210932,2.9408708,2.963334,2.9840403,3.0142188,3.0386763,3.069226,3.0968485,3.1219215,3.1514935,3.172289,3.2008266,3.2267604,3.2544818,3.2899804,3.3184962,3.3606715,3.3978395,3.440184,3.4893556,3.530046,3.5868435,3.630914,3.6788783,3.7223325,3.7577577,3.8003852,3.8291078,3.8548183,3.8722925,3.8913722,3.914771,3.931419,3.9521775,3.972849,4.0015264,4.037602,4.0638967,4.0922995,4.1092463,4.1275826,4.1395817,4.1427774,4.1446056,4.1444836,4.1443934,4.1435447,4.142615,4.140541,4.1383514,4.135029,4.131029,4.127036,4.1217074,4.1177015,4.11233,4.107484,4.10269,4.096829,4.092354,4.085995,4.080511,4.0744696,4.067751,4.0626807,4.0553293,4.0492225,4.0419974,4.0344076,4.0281677,4.0197287,4.013261,4.005105,3.997274,3.9903948,3.9817052,3.9753075,3.966947,3.959517,3.9522889,3.9436073,3.9371924,3.9278965,3.9196846,3.9108243,3.9008217,3.8931942,3.8827024,3.8743074,3.8646326,3.8536098,3.845008,3.8248239,3.804065,3.7888787,3.7799525,3.771202,3.7578356,3.7465405,3.7665014,3.8370416,3.9776506,4.071952,4.0476837,4.0321774,4.02375,4.0147114,4.0043583,3.996453,3.985699,3.9771702,3.9673524,3.9570212,3.9487524,3.9377122,3.9293313,3.9165769,3.910301,3.9179926,3.917038,3.905095,3.8944068,3.8843985,3.9059367,3.7922714,3.5742373,3.4704268,3.4952521,3.484173,3.4713514,3.461556,3.4483562,3.438043,3.4273486,3.4149103,3.4037163,3.3857913,3.3699808,3.350682,3.3296847,3.3101692,3.2840316,3.26447,3.241252,3.2220433,3.205113,3.186295,3.1735191,3.158157,3.1465845,3.135096,3.1219945,3.1118925,3.097949,3.086701,3.074545,3.0618658,3.0520327,3.0386992,3.0284324,3.0166097,3.0044465,2.9947138,2.9756432,2.9564404,2.9303517,2.9045606,2.881329,2.855262,2.8384006,2.8136513,2.792757,2.775323,2.7586532,2.7477775,2.733787,2.7220826,2.707283,2.6847367,2.6615338,2.6325164,2.611432,2.5813007,2.5497854,2.5256155,2.4966516,2.476812,2.4506927,2.4251647,2.4003234,2.3726392,2.3554544,2.3357058,2.322482,2.3114147,2.3022714,2.2972612,2.2927325,2.2911665,2.2901034,2.2904983,2.29138,2.2935655,2.2960587,2.2993507,2.3033462,2.3069139,2.3113875,2.3145218,2.3184655,2.3226845,2.326614,2.333726,2.340567,2.351945,2.363282,2.3734512,2.3830996,2.3885171,2.3940542,2.3961215,2.3964725,2.39215,2.3867154,2.3740668,2.3579035,2.3298337,2.2878997,2.248374,2.1916018,2.146329,2.085315,2.0280375,1.9822416,1.9378617,1.9150081,1.8955722,1.8900605,1.8885344,1.8908343,1.8932819,1.897036,1.9003992,1.9025854,1.9067593,1.9112399,1.9232433,1.9394338,1.9650528,2.0067608,2.04962,2.1099916,2.1570632,2.21879,2.277829,2.3271122,2.3736038,2.395205,2.414583,2.4198022,2.419879,2.4122872,2.4032059,2.391775,2.382691,2.373991,2.3657036,2.3602853,2.3542588,2.3507085,2.3473287,2.345149,2.344018,2.3433218,2.3433805,2.3438933,2.3448448,2.3457274,2.3465605,2.346893,2.3469615,2.3469822,2.347061,2.3486233,2.350858,2.3556361,2.3620348,2.3698976,2.3821063,2.3929589,2.4101548,2.425531,2.4412944,2.4590907,2.4743059,2.4967997,2.5156186,2.539452,2.5642724,2.584629,2.6136892,2.6372707
2.8473363,2.8567333,2.870564,2.8826466,2.8968344,2.9131458,2.926409,2.9458003,2.9620638,2.983399,3.0077467,3.0303063,3.061057,3.0845034,3.1147358,3.1421065,3.1660318,3.1950078,3.216265,3.2459893,3.2735393,3.3029547,3.340815,3.3712902,3.4169497,3.4569316,3.5003884,3.5493617,3.5899134,3.6448574,3.6866088,3.7342834,3.7774978,3.8118932,3.8479826,3.868442,3.8919544,3.9114285,3.9304168,3.9526424,3.9675903,3.9933002,4.0207267,4.050967,4.084341,4.106385,4.1297817,4.1428995,4.156209,4.16315,4.1629357,4.162467,4.1622005,4.1614866,4.1601048,4.1587496,4.156236,4.1538115,4.150302,4.146275,4.1423244,4.1370955,4.1331716,4.1279182,4.123185,4.1184855,4.1127844,4.108472,4.10241,4.0972075,4.0914407,4.084908,4.079908,4.072464,4.0661316,4.058567,4.0505505,4.043971,4.0350685,4.0282383,4.0195704,4.0112824,4.004071,3.9951453,3.9886985,3.9802437,3.9727442,3.9654725,3.9567647,3.9503405,3.941011,3.9327564,3.92385,3.9137676,3.905991,3.895677,3.8878365,3.8822403,3.8656406,3.8191476,3.8675776,3.9799514,4.005633,3.9775941,3.9693558,3.95738,3.9475894,3.9559207,3.995183,4.076967,4.129309,4.1104918,4.0962973,4.087702,4.078622,4.0683866,4.0605574,4.049889,4.0414147,4.0316534,4.0213847,4.013174,4.0022163,3.9939008,3.9866314,3.971416,3.9415412,3.9168506,3.9128518,3.9127061,3.8878143,3.8197238,3.6873553,3.5603034,3.4945457,3.5049942,3.4933865,3.4813733,3.4734364,3.4634175,3.455043,3.4443502,3.4234674,3.3986542,3.3585863,3.325136,3.294381,3.2699494,3.2488098,3.2227025,3.2041426,3.182233,3.1641426,3.1480684,3.1288037,3.1146083,3.0956483,3.0798807,3.064726,3.0477862,3.0350356,3.0177293,3.0036845,2.9871883,2.9700468,2.9576192,2.9410994,2.9284735,2.9132404,2.897374,2.884525,2.8619094,2.8403947,2.8096423,2.7784772,2.7511177,2.7177134,2.693502,2.6606522,2.6334057,2.6092432,2.5832825,2.564416,2.5380204,2.5148017,2.4852865,2.4500806,2.4215207,2.3865657,2.3622208,2.331511,2.3023028,2.280298,2.2548065,2.2379653,2.217013,2.1973252,2.1776445,2.1561592,2.1432807,2.128981,2.120058,2.1128902,2.1076455,2.1051943,2.103595,2.1038764,2.1045716,2.1063251,2.108015,2.1108842,2.1135697,2.116914,2.1206179,2.123787,2.127648,2.1302814,2.133549,2.136922,2.1400266,2.1455667,2.1508777,2.1581922,2.1650639,2.1719074,2.1792645,2.1840887,2.1891477,2.1914563,2.1926284,2.190494,2.187113,2.1797216,2.170515,2.1545582,2.1303554,2.1076522,2.0723763,2.0423155,2.0015132,1.9635806,1.9348772,1.9065064,1.8909252,1.8770597,1.8727806,1.8724042,1.8755567,1.8787184,1.8823674,1.8848948,1.8866537,1.889457,1.8922703,1.9001548,1.9108069,1.9273905,1.953543,1.9795175,2.0179899,2.0492377,2.0885193,2.1243968,2.1528807,2.1799982,2.1932483,2.2045093,2.2065213,2.205068,2.1978087,2.189855,2.1796632,2.1713734,2.1632466,2.1548688,2.1488733,2.1418993,2.1374915,2.1332057,2.1301687,2.1283922,2.1271386,2.127036,2.1275778,2.1289337,2.1303375,2.132018,2.1330616,2.1341963,2.135158,2.136045,2.1377404,2.139401,2.143405,2.1489239,2.155593,2.1662455,2.1759999,2.1908488,2.2040887,2.218778,2.2363837,2.2519407,2.273088,2.289719,2.3122358,2.3375993,2.3595176,2.3923407,2.419893
2.8920536,2.901266,2.9147363,2.9264505,2.9400883,2.956223,2.9697526,2.9902315,3.0078552,3.0311427,3.0571582,3.0806608,3.1111379,3.1333756,3.1633773,3.1910334,3.2144725,3.2439966,3.2667441,3.2987468,3.3287566,3.3609369,3.4024673,3.4360409,3.4848697,3.5263863,3.5708914,3.6198235,3.660187,3.7118845,3.749359,3.7952142,3.8363905,3.8668628,3.8958213,3.9101214,3.9320283,3.95293,3.9706259,3.9925098,4.0085983,4.0396566,4.071266,4.0984106,4.1251283,4.142372,4.161517,4.1720424,4.1789412,4.1809654,4.180869,4.180345,4.179678,4.178441,4.1765394,4.174799,4.1718893,4.1692533,4.165571,4.161486,4.1575027,4.152253,4.148316,4.143069,4.1383715,4.133718,4.1281066,4.1238747,4.1179967,4.1129713,4.107344,4.100806,4.0956936,4.0879216,4.0812063,4.0731673,4.0646877,4.0577726,4.048594,4.041684,4.033034,4.024829,4.017644,4.008676,4.002146,3.9936025,3.9860215,3.9786534,3.9698107,3.963272,3.953861,3.9455972,3.9367015,3.9266284,3.9188724,3.9083498,3.9000926,3.888625,3.8796654,3.851592,3.9692063,4.1587744,4.2100077,4.1703277,4.162575,4.152748,4.145527,4.134306,4.1216097,4.1060286,4.0908775,4.0842123,4.074412,4.0659485,4.05695,4.0467224,4.038913,4.0282583,4.019783,4.0100155,3.9997442,3.9915419,3.9806023,3.9723053,3.9620104,3.9519415,3.9434166,3.932178,3.9236333,3.9415274,3.8952692,3.6705527,3.5016253,3.5283384,3.5272121,3.513618,3.5010638,3.486448,3.4758177,3.4574904,3.438642,3.415173,3.378251,3.340242,3.2780037,3.224873,3.172277,3.132103,3.1029346,3.0719686,3.0528026,3.030051,3.0117404,2.9955978,2.9753044,2.959529,2.9372551,2.9179602,2.8998852,2.8798862,2.8649693,2.8443604,2.8271813,2.8063054,2.784358,2.7687187,2.7476463,2.7312744,2.7110815,2.6903012,2.6730957,2.6482553,2.6277604,2.5981266,2.568419,2.5431957,2.5094256,2.4822276,2.4467583,2.4169722,2.388582,2.3559074,2.33129,2.2960048,2.2650928,2.2268693,2.187255,2.1603909,2.1281579,2.1066232,2.0833604,2.0640025,2.0495062,2.0331612,2.0227132,2.011438,2.0021229,1.9927182,1.9817021,1.9742986,1.9668462,1.9628899,1.9600298,1.9586816,1.9585803,1.9593637,1.9608088,1.962468,1.964596,1.9663012,1.9687715,1.970807,1.9732201,1.9756563,1.9776189,1.9799726,1.9815762,1.9835646,1.9858031,1.9880666,1.9923091,1.9964423,2.000815,2.0041544,2.0077095,2.011582,2.014172,2.016881,2.0182211,2.0191436,2.0188532,2.0181181,2.0152204,2.0110345,2.0049672,1.9935905,1.9809358,1.9585471,1.9381889,1.9140396,1.8931665,1.8770945,1.8613629,1.8528359,1.8450637,1.8429544,1.8437865,1.847494,1.8510687,1.8542213,1.8556056,1.8567424,1.857762,1.8583977,1.86095,1.8649247,1.8715608,1.8831059,1.8948958,1.9142721,1.9313608,1.9540155,1.9735646,1.985849,1.9967253,2.0019925,2.0061166,2.006088,2.004529,2.000011,1.9954327,1.9889641,1.9830523,1.9767394,1.9694921,1.9639621,1.957339,1.9529716,1.9486649,1.945445,1.9434342,1.9419875,1.9418521,1.94242,1.9439374,1.9455297,1.9476312,1.9491078,1.9509184,1.9524095,1.9536836,1.9549417,1.955603,1.9578456,1.9612567,1.9654057,1.972558,1.9794629,1.9895718,1.9987314,2.010355,2.0249567,2.0378163,2.0536604,2.065064,2.0814884,2.1016626,2.1203425,2.1492555,2.1740246
2.9305573,2.9393406,2.9522762,2.9636693,2.9770842,2.9935284,3.0076766,3.02952,3.0485458,3.0739338,3.1009164,3.1231742,3.1528986,3.1755996,3.2045133,3.2312696,3.25564,3.2872567,3.3117838,3.346146,3.3785388,3.4137301,3.4596014,3.497394,3.5465727,3.5854092,3.6305046,3.6816573,3.724841,3.7736425,3.8042965,3.8455906,3.8823984,3.9067175,3.9324574,3.948268,3.9691381,3.987976,4.002964,4.027339,4.05048,4.0826836,4.1097155,4.131623,4.1530633,4.1680884,4.184266,4.1924496,4.1962905,4.196116,4.195677,4.1946926,4.1936064,4.1918774,4.1895328,4.187458,4.1842,4.1813717,4.177509,4.173321,4.1692615,4.163926,4.1599226,4.15462,4.149909,4.145254,4.1397004,4.1355453,4.129865,4.125076,4.119726,4.1134357,4.108468,4.1006465,4.0937185,4.085461,4.0767937,4.0697846,4.0605025,4.053521,4.0447707,4.036464,4.0291834,4.0201144,4.0135264,4.004917,3.9972763,3.989832,3.9808798,3.974247,3.9647717,3.9565053,3.9476268,3.937558,3.9297752,3.919201,3.9108913,3.8806317,3.9097261,4.022349,4.1408224,4.1902742,4.2030706,4.1820903,4.174346,4.164557,4.157381,4.1458464,4.1323023,4.1151123,4.0988503,4.092395,4.0826836,4.074243,4.065277,4.055094,4.047325,4.036702,4.0282345,4.018465,4.0081954,4.0000067,3.9890933,3.980822,3.9705687,3.960551,3.952072,3.9396126,3.9295604,3.9685497,3.9389095,3.6922874,3.5041575,3.5350528,3.537561,3.526149,3.515088,3.4960546,3.4785228,3.4353147,3.3882697,3.342581,3.2969844,3.265113,3.203348,3.141058,3.0580065,2.9810266,2.9296741,2.8778882,2.8481622,2.8121624,2.7842984,2.7608538,2.7347035,2.7163503,2.6922746,2.6729326,2.654863,2.6349099,2.6197953,2.5987997,2.5815415,2.5619278,2.5413785,2.5262532,2.5044162,2.4863591,2.463775,2.440559,2.4213536,2.396124,2.3771706,2.3521626,2.3288753,2.3091767,2.2825685,2.2608104,2.2321346,2.2075346,2.1833792,2.155756,2.1354694,2.1063287,2.0810523,2.0508702,2.0195065,1.9975079,1.9712727,1.9539158,1.9352121,1.9195539,1.9076288,1.8941131,1.8854544,1.8758268,1.8685286,1.8622797,1.8561327,1.8526821,1.849602,1.8486463,1.848392,1.849323,1.8505316,1.8526106,1.8546526,1.8567967,1.8591046,1.8608065,1.8631722,1.8650483,1.8672173,1.8693358,1.8710152,1.8730514,1.8744597,1.876188,1.8780487,1.8798567,1.8831556,1.8863337,1.8904433,1.8941466,1.8977981,1.9020096,1.9050884,1.9081936,1.9096143,1.9104253,1.9099149,1.9089935,1.9062219,1.9026699,1.897749,1.8904922,1.883584,1.8715365,1.8605759,1.8475986,1.8365319,1.8281603,1.8202093,1.8160868,1.8122276,1.8113942,1.8125069,1.8154609,1.8181503,1.8201442,1.820461,1.8203849,1.8195813,1.8186425,1.8178611,1.8179109,1.8187118,1.8218513,1.8258928,1.8331703,1.8399111,1.8489406,1.856688,1.8613491,1.8652275,1.8669062,1.867794,1.8669114,1.8655578,1.8624573,1.8593483,1.8546691,1.8501577,1.8453186,1.8393798,1.8345063,1.8288445,1.8253179,1.8220842,1.8200569,1.8190062,1.8186853,1.8192258,1.8202593,1.8216751,1.8228803,1.824214,1.824994,1.8256538,1.825882,1.8259473,1.8259356,1.8258944,1.8265818,1.8281604,1.8304123,1.8347499,1.8390101,1.8458991,1.8526832,1.8614877,1.8727436,1.8824537,1.8955424,1.9058373,1.9200016,1.937185,1.9531097,1.9776609,1.9986389
2.979715,2.9880335,3.0003767,3.0114548,3.0249124,3.041978,3.0568657,3.0802684,3.1006866,3.1264915,3.1527882,3.1739383,3.2029486,3.225831,3.2548919,3.2826667,3.3091774,3.3441944,3.3713799,3.4101386,3.4467268,3.4860282,3.535039,3.5737782,3.6242023,3.6638095,3.7099407,3.7597742,3.7994704,3.8432913,3.869958,3.9056873,3.9362907,3.9545105,3.976696,3.993309,4.013065,4.0311503,4.0470953,4.0741463,4.100152,4.1290936,4.149006,4.165251,4.1816077,4.194128,4.2071743,4.2132425,4.2150917,4.213629,4.212767,4.211194,4.209612,4.207335,4.2045093,4.2020693,4.198433,4.195395,4.19131,4.186961,4.1827593,4.177241,4.1730947,4.16765,4.1628656,4.158164,4.152588,4.148422,4.142801,4.138132,4.1329303,4.1269145,4.122222,4.1149364,4.1085067,4.100711,4.0922565,4.085205,4.075791,4.0686917,4.0598216,4.051413,4.0440445,4.03486,4.028183,4.0194554,4.0117073,4.0041556,3.995071,3.9883308,3.9787645,3.9704652,3.9615645,3.95147,3.9436526,3.9330268,3.9246707,3.8803978,3.9380171,4.157822,4.267922,4.1981387,4.1776624,4.172783,4.1649876,4.1550045,4.147602,4.137859,4.12907,4.1207757,4.110743,4.103281,4.093259,4.084849,4.075912,4.065759,4.058012,4.0474277,4.038996,4.029273,4.019052,4.010898,4.00003,3.9917922,3.981581,3.9716067,3.9632003,3.9545426,3.949008,3.9239142,3.8457437,3.6728964,3.5446403,3.5558882,3.5436866,3.5227628,3.5040503,3.4680052,3.4294636,3.3565073,3.2802954,3.1801517,3.0801387,3.0221334,2.934714,2.8586144,2.7579079,2.667683,2.6085713,2.5502672,2.5175989,2.4784248,2.449014,2.4249334,2.3982368,2.3792672,2.3551548,2.3362932,2.3184772,2.2990572,2.2845163,2.2647936,2.2492201,2.2326255,2.2155404,2.2025537,2.1834416,2.1674347,2.1475286,2.127381,2.110776,2.090248,2.0758688,2.0586338,2.0439296,2.031405,2.0146546,2.0010066,1.9823766,1.9657598,1.9489255,1.9299496,1.9164782,1.8977604,1.882335,1.8651481,1.8474467,1.8343378,1.8190103,1.809129,1.7983335,1.789206,1.7822012,1.7742792,1.7692275,1.7633193,1.7592008,1.7564301,1.7548553,1.7548299,1.755466,1.7569175,1.7586894,1.7612579,1.7633293,1.7661657,1.7684389,1.7707198,1.7729211,1.7744453,1.7764956,1.7780735,1.7798753,1.7816129,1.7829866,1.7846916,1.7859043,1.7874017,1.7889585,1.7904097,1.7929132,1.7952561,1.7990509,1.802903,1.8064792,1.8105587,1.8135426,1.816436,1.817563,1.8179104,1.816765,1.8152864,1.8120773,1.8085436,1.803661,1.7983688,1.7946482,1.7894862,1.7854176,1.7806224,1.7767699,1.773962,1.7716419,1.7707388,1.7699143,1.7700238,1.7709093,1.7723548,1.7734594,1.773797,1.7729899,1.7716593,1.7693057,1.7671824,1.7638903,1.7610041,1.75752,1.7545319,1.7529347,1.7512943,1.7503884,1.7497239,1.7497334,1.7501378,1.7504864,1.7504827,1.750144,1.7494164,1.7486863,1.7470236,1.7452425,1.7423718,1.7394726,1.7363961,1.7324747,1.7291125,1.7253346,1.7231297,1.721271,1.7203895,1.7201158,1.7204688,1.72122,1.7222286,1.7232208,1.7239047,1.7244772,1.724674,1.7244776,1.7238292,1.7230412,1.7221057,1.7215319,1.7209527,1.7209096,1.7213469,1.7228134,1.7243679,1.727549,1.7311252,1.7357361,1.7417119,1.7467142,1.7544885,1.7613521,1.7703915,1.7812428,1.7912762,1.8067589,1.8200002
3.015148,3.0232615,3.0352995,3.046226,3.0599244,3.077514,3.0927896,3.1171045,3.1382127,3.162418,3.1867788,3.2080057,3.236829,3.2591643,3.2896986,3.3201146,3.3485699,3.386156,3.4153514,3.458242,3.4987254,3.541085,3.5901084,3.6254606,3.677977,3.7225773,3.7699294,3.815069,3.845835,3.8850758,3.9134467,3.9460952,3.9723258,3.988196,4.007539,4.0221815,4.041136,4.0609603,4.0816836,4.109799,4.131603,4.1551476,4.170751,4.1845574,4.1987114,4.209302,4.2204,4.22556,4.227012,4.225333,4.224027,4.2219515,4.220068,4.2174525,4.2143383,4.2116785,4.20782,4.2046633,4.200437,4.19596,4.19163,4.185937,4.1816525,4.1760693,4.1712027,4.1664457,4.1607895,4.1565347,4.150806,4.1460752,4.1407967,4.1349125,4.130461,4.1240215,4.1185656,4.1116676,4.1036725,4.096586,4.0870066,4.079767,4.070795,4.062333,4.054928,4.0456724,4.0389166,4.030075,4.0222225,4.0145903,4.0054197,3.99862,3.9889822,3.9806323,3.9716756,3.961532,3.953689,3.943036,3.9346616,3.8912764,3.9470103,4.160111,4.269288,4.2049603,4.185938,4.1803656,4.1725745,4.1625977,4.1552,4.145467,4.13669,4.128407,4.118393,4.1109476,4.100953,4.0925636,4.0836368,4.0734854,4.0657277,4.055168,4.046789,4.0371394,4.026993,4.018881,4.0080557,3.9998424,3.9896545,3.9796946,3.971352,3.9700878,3.9734027,3.8260624,3.648746,3.591937,3.574678,3.5758839,3.5470152,3.5048354,3.4733942,3.4180312,3.356697,3.2697036,3.18344,3.0251288,2.8483996,2.7391949,2.6067479,2.5168786,2.4230566,2.355809,2.3111045,2.2679338,2.2437882,2.2161088,2.1961958,2.1802416,2.1597538,2.1426506,2.1199257,2.1010113,2.0828369,2.063394,2.0494273,2.031361,2.0177875,2.0033221,1.9888234,1.9778287,1.9629685,1.9515071,1.9377584,1.9244163,1.9134835,1.9000728,1.8907219,1.879452,1.8697355,1.8613124,1.8502235,1.8413858,1.8288274,1.8172333,1.8053524,1.7918725,1.7822051,1.7699039,1.7608838,1.7516223,1.7432799,1.7376268,1.731535,1.7280698,1.7246201,1.7222744,1.7206887,1.7191856,1.7184277,1.7177026,1.7176126,1.7178614,1.7189602,1.7202549,1.7223824,1.724709,1.7271535,1.7301527,1.7323864,1.7352712,1.737429,1.739557,1.7415117,1.7428247,1.744518,1.74577,1.7472012,1.748572,1.7496531,1.751017,1.7520103,1.7532717,1.754633,1.7559397,1.7581248,1.7601194,1.7631257,1.766028,1.7687465,1.771627,1.773551,1.7753124,1.7757874,1.7755835,1.7740993,1.7724483,1.7693026,1.7660848,1.7618463,1.7572186,1.7536389,1.7492908,1.7464128,1.7437782,1.7422776,1.7412003,1.7405415,1.7404922,1.7406242,1.7409704,1.7414019,1.7416027,1.7414737,1.7406421,1.7392364,1.7373708,1.7345722,1.7321911,1.7282255,1.7244855,1.7198014,1.7149531,1.7113973,1.7072,1.7045391,1.7022796,1.7014465,1.7013807,1.7017031,1.7020357,1.7024193,1.702533,1.7023981,1.7015464,1.7004706,1.6986957,1.6968765,1.6949375,1.6926206,1.6907825,1.6886842,1.6874142,1.6862748,1.685596,1.6852558,1.6851888,1.6854141,1.6858163,1.6863346,1.6867596,1.6872265,1.6874942,1.6875665,1.6872662,1.6867679,1.6859453,1.6852663,1.6844058,1.6838295,1.6834469,1.6834627,1.6837189,1.6844625,1.6854177,1.6866348,1.6882674,1.6896362,1.6919329,1.6941266,1.697279,1.7015297,1.7056514,1.7124035,1.7184014
3.0596194,3.0674806,3.0792658,3.0901368,3.1040764,3.122118,3.1379857,3.1615007,3.1808832,3.2035575,3.2271717,3.2484004,3.2779322,3.3012378,3.3341703,3.367806,3.3991144,3.4411802,3.4744344,3.5218444,3.5649216,3.6079135,3.6584682,3.6970034,3.7515924,3.7951722,3.8373365,3.8758025,3.902942,3.9391637,3.9661856,3.9941692,4.0167036,4.032857,4.0530357,4.0680866,4.0879655,4.1076813,4.1269684,4.1501527,4.166184,4.184782,4.197682,4.208475,4.219297,4.2274036,4.2358046,4.2397003,4.2412424,4.2400327,4.238431,4.2359657,4.2338223,4.230958,4.227644,4.2248526,4.220703,4.2172384,4.2126746,4.2080154,4.203705,4.19803,4.1936994,4.187924,4.18284,4.1779914,4.172222,4.1678376,4.161945,4.157091,4.1516705,4.1457224,4.1412783,4.1350994,4.130063,4.1237855,4.1166177,4.1103306,4.101575,4.094723,4.0858464,4.0771956,4.069689,4.0602984,4.053444,4.0444527,4.0364637,4.0287213,4.0194345,4.0125513,4.002811,3.9943838,3.985341,3.975124,3.9672444,3.9565558,3.9481616,3.9197035,3.944763,4.043407,4.160039,4.2200804,4.224044,4.189703,4.1816454,4.172884,4.1654925,4.155774,4.1470156,4.138748,4.12876,4.121339,4.1113815,4.103021,4.094108,4.083953,4.0761766,4.065652,4.0573483,4.047808,4.0377727,4.029723,4.018964,4.0107903,4.000655,3.9907506,3.9825392,3.9851706,3.9930098,3.7789106,3.5480325,3.5608912,3.5904794,3.5545435,3.5200465,3.4823222,3.4163194,3.2945786,3.1747599,3.0109496,2.874484,2.693203,2.5170822,2.4109592,2.2800174,2.1898184,2.1056962,2.0517206,2.0148046,1.9794258,1.9597054,1.9376464,1.9221506,1.9094601,1.8933939,1.8801899,1.8629197,1.848805,1.8351996,1.8211367,1.8113773,1.7996464,1.7915535,1.7829449,1.7745657,1.7682147,1.7600892,1.7541952,1.7473475,1.7409632,1.7357485,1.7294749,1.7251909,1.7201428,1.7159085,1.7122223,1.7075174,1.7038811,1.6984074,1.6930864,1.6874772,1.6810417,1.6763887,1.6710732,1.6678636,1.6651679,1.6637795,1.6633679,1.6637172,1.6646922,1.6662599,1.6683948,1.6702796,1.6728535,1.6748149,1.6772957,1.6796883,1.6818662,1.684772,1.6870415,1.6902436,1.6931942,1.69611,1.699409,1.7017589,1.7046719,1.706741,1.708759,1.7105563,1.7117469,1.7132424,1.7143213,1.7155659,1.716769,1.7177217,1.7189612,1.7198956,1.7211099,1.7224401,1.723728,1.725781,1.7275904,1.7302039,1.7326257,1.7348807,1.7371202,1.7384949,1.7396626,1.7398086,1.7393649,1.7378323,1.7362278,1.7333813,1.7306186,1.7271327,1.723433,1.7205033,1.7173305,1.7155727,1.71429,1.713974,1.7138456,1.713974,1.7142007,1.7143303,1.714128,1.7136555,1.7124959,1.7112966,1.709397,1.7074865,1.7053486,1.7025647,1.7003138,1.6964319,1.692637,1.6877763,1.6823096,1.6779174,1.672413,1.6686709,1.6651049,1.6631275,1.662179,1.661713,1.661706,1.66188,1.6620623,1.6620066,1.6614923,1.6608222,1.6597362,1.658654,1.6575226,1.6563,1.6554387,1.65444,1.6538098,1.6532001,1.652736,1.652418,1.6521559,1.6520799,1.6520715,1.6521823,1.6523187,1.6525136,1.65265,1.6526419,1.6523325,1.651833,1.6508948,1.6500359,1.6488234,1.6477594,1.6467278,1.645685,1.6450036,1.6441131,1.6433873,1.6424427,1.6413167,1.6403635,1.63919,1.6384318,1.6377755,1.6376606,1.6378379,1.638723,1.6398351
3.0918922,3.0995984,3.111319,3.1222324,3.1362305,3.1541743,3.1700642,3.1915936,3.2082944,3.230194,3.2544174,3.2758467,3.3067474,3.3319092,3.3672214,3.403504,3.437526,3.483943,3.5211854,3.5714486,3.6151028,3.65767,3.7102609,3.753993,3.8085494,3.8469348,3.8822021,3.9164224,3.9456577,3.9814665,4.0055866,4.030756,4.0525684,4.070857,4.0934024,4.1093163,4.1300955,4.1481066,4.162249,4.17838,4.1898003,4.20567,4.2180367,4.226711,4.234805,4.240985,4.247209,4.250081,4.2519407,4.2514687,4.249876,4.247301,4.245001,4.2419558,4.238425,4.235461,4.2309465,4.2271137,4.2221904,4.2174015,4.2131977,4.2077413,4.2035675,4.1978416,4.1926765,4.187742,4.1818075,4.1772623,4.171164,4.1661468,4.160553,4.1543927,4.149761,4.1432877,4.138077,4.1319175,4.125427,4.1201124,4.1125183,4.1063356,4.0978823,4.089282,4.0817986,4.072342,4.0653934,4.056268,4.04816,4.0403256,4.0309453,4.0239983,4.0141816,4.0057015,3.996603,3.9863358,3.978427,3.9677072,3.9592915,3.9487665,3.937334,3.9025197,4.011373,4.1953053,4.241039,4.198792,4.1909304,4.181327,4.1739407,4.164233,4.1554875,4.147232,4.1372633,4.129861,4.1199327,4.111594,4.102693,4.092539,4.084753,4.074256,4.066008,4.0565467,4.04659,4.038582,4.027866,4.0197163,4.0095897,3.9996743,3.9915042,3.9920204,3.997185,3.814439,3.6073408,3.5902133,3.571262,3.505515,3.4596796,3.4152818,3.2959094,3.0990083,2.9294238,2.6957483,2.519116,2.3587985,2.2407079,2.175015,2.082356,2.0081098,1.9381287,1.8901769,1.8566937,1.8241304,1.8059623,1.7851937,1.7702174,1.7573092,1.7436942,1.7347343,1.7240031,1.7163138,1.7090728,1.7021165,1.6974542,1.6926253,1.6899459,1.6870778,1.6844182,1.6824176,1.6796868,1.677556,1.6750088,1.6725261,1.6704592,1.6679819,1.6663203,1.6645,1.6631827,1.6621712,1.660986,1.6600914,1.6587293,1.6573522,1.6557958,1.6539712,1.6526575,1.6511853,1.6503763,1.649807,1.6499715,1.6505004,1.6519177,1.6535599,1.6557982,1.6583673,1.6604855,1.6632831,1.6653717,1.6679341,1.6703237,1.672483,1.6753539,1.6775994,1.6807365,1.6835959,1.6864023,1.6895714,1.6918344,1.6946318,1.696619,1.6985683,1.7003407,1.7015431,1.703084,1.7042241,1.7055632,1.7068948,1.7079618,1.7093756,1.710456,1.7118592,1.7133651,1.7148004,1.7170068,1.7189059,1.7216257,1.7241168,1.7264085,1.7287066,1.7301502,1.731416,1.7316734,1.731406,1.7301594,1.728817,1.7263813,1.7239875,1.7209742,1.7177639,1.7152445,1.712367,1.7105916,1.7087595,1.7075852,1.706851,1.7061603,1.7057353,1.7048028,1.7035692,1.7021967,1.7002207,1.6986045,1.6962869,1.6942773,1.6923008,1.6900458,1.6883166,1.6853635,1.6824832,1.6787717,1.6745183,1.6710496,1.6665624,1.6633834,1.6601384,1.6579767,1.6566424,1.65551,1.6549542,1.654407,1.654005,1.6535114,1.6526675,1.6518701,1.6507204,1.6496978,1.6486742,1.6476027,1.6468418,1.6459751,1.6454396,1.6449224,1.6445107,1.6442087,1.6439197,1.6437812,1.643628,1.6435235,1.6434598,1.6433702,1.6432828,1.6429935,1.6424589,1.6417927,1.6406889,1.6397232,1.6383735,1.637207,1.6360855,1.6349565,1.6342142,1.6332633,1.6325055,1.6315298,1.6303515,1.6293478,1.6280184,1.6270595,1.6260741,1.6254725,1.6251657,1.6252785,1.6257241
3.120545,3.1280065,3.1396046,3.150498,3.1643796,3.1814637,3.1959028,3.215621,3.2312796,3.2530298,3.2780924,3.3003187,3.3328407,3.3596034,3.3971555,3.436148,3.4732323,3.524196,3.5652738,3.6179338,3.6628451,3.7105074,3.7658305,3.8073864,3.8578718,3.892805,3.9267268,3.9618492,3.9932573,4.028531,4.050129,4.0765395,4.1003513,4.118826,4.138565,4.1503644,4.167841,4.1838017,4.196243,4.209945,4.2191963,4.2324934,4.2427025,4.2489705,4.2542286,4.258298,4.262211,4.2638516,4.2650266,4.264524,4.2631636,4.260565,4.2579236,4.2542305,4.2497797,4.245961,4.2405314,4.236223,4.2309904,4.2262154,4.2220297,4.2169466,4.2133017,4.2083435,4.203625,4.198497,4.192094,4.1872597,4.180826,4.1755905,4.169793,4.1634665,4.158722,4.152146,4.1469116,4.140794,4.1344776,4.129338,4.122238,4.116639,4.1092777,4.1016355,4.0945272,4.085116,4.0779786,4.0686684,4.0604205,4.0524864,4.043014,4.036005,4.0261445,4.017663,4.0085773,3.9983103,3.990375,3.9796062,3.9711423,3.9637563,3.9472232,3.9062653,3.9393156,4.031888,4.144311,4.215339,4.2097397,4.190158,4.1827745,4.1730747,4.16434,4.1560965,4.1461444,4.138756,4.128846,4.120526,4.1116457,4.101518,4.093755,4.0832863,4.075057,4.0656233,4.055682,4.047673,4.03696,4.0288005,4.0185556,4.008424,4.0000396,3.9929929,3.989115,3.9269586,3.8096247,3.6487908,3.5150242,3.493812,3.393721,3.2382708,3.009605,2.7427177,2.5737762,2.3648198,2.2224536,2.0856655,1.9844937,1.927452,1.8593017,1.8128626,1.7693598,1.7412418,1.7214451,1.7022922,1.6916001,1.6794057,1.6705856,1.662777,1.6548759,1.6500384,1.6445125,1.6409389,1.6378086,1.6351786,1.633566,1.6322641,1.6319307,1.6316476,1.6315582,1.6315179,1.6313217,1.6310527,1.6306949,1.6302799,1.6298907,1.629494,1.6293106,1.6293212,1.6296567,1.630126,1.6309068,1.6315705,1.6324176,1.6330955,1.6336575,1.6343479,1.6349303,1.6358936,1.6369109,1.6382775,1.6402347,1.6419797,1.6447392,1.6471708,1.650176,1.6532801,1.6557941,1.658952,1.661201,1.6639059,1.6663117,1.668431,1.671156,1.6732428,1.6761432,1.6787643,1.6813247,1.6842177,1.6862922,1.6888623,1.6907022,1.6925265,1.694242,1.695442,1.6970384,1.6982718,1.6997585,1.7012906,1.7025332,1.7042031,1.7054904,1.7071571,1.7088984,1.7105262,1.7129123,1.7148986,1.7176856,1.7201911,1.7224822,1.7248051,1.7262917,1.7277071,1.7281845,1.7282174,1.7273731,1.7263533,1.7243681,1.7223233,1.7196865,1.7167432,1.714365,1.7114835,1.7095475,1.7072906,1.70544,1.7040358,1.7023649,1.7011529,1.699231,1.697182,1.6950738,1.6924231,1.6904411,1.6878603,1.6858904,1.6840875,1.6823338,1.6811322,1.6791174,1.6771477,1.6745465,1.6713862,1.6686774,1.6650035,1.6622663,1.6593107,1.657063,1.6554837,1.6538721,1.6528909,1.6517463,1.650801,1.6498363,1.6485885,1.6476092,1.6463616,1.645405,1.644493,1.6436517,1.643115,1.6425631,1.6422606,1.6419277,1.6415966,1.641311,1.6409419,1.6406624,1.6402729,1.6398703,1.6395483,1.6391227,1.6387913,1.6382384,1.637529,1.6367359,1.6355326,1.6345208,1.6331325,1.6319497,1.6308023,1.629631,1.6288481,1.6278279,1.627001,1.6259556,1.6246493,1.6235023,1.6219009,1.6206571,1.6192254,1.6179833,1.6170421,1.616135,1.6156907
3.1511908,3.1588554,3.1706333,3.1814246,3.1946683,3.2102878,3.2229,3.241548,3.2575097,3.279654,3.305532,3.328533,3.3626776,3.3911057,3.4312377,3.473488,3.5145938,3.569634,3.612625,3.667735,3.7147732,3.7661834,3.8222775,3.8605337,3.9064596,3.9388924,3.9754233,4.013849,4.0450683,4.078948,4.099084,4.1262703,4.1505003,4.1671276,4.183403,4.1922164,4.2063994,4.2201524,4.23163,4.244072,4.2520256,4.2622957,4.269278,4.273177,4.275959,4.278126,4.279866,4.28016,4.2800674,4.2788515,4.277419,4.274561,4.2715387,4.2672253,4.2620053,4.25751,4.2513833,4.2467184,4.24114,4.236204,4.231873,4.2269697,4.223729,4.2194757,4.2153206,4.2103605,4.203785,4.198653,4.1918654,4.1863914,4.180414,4.17397,4.169158,4.162531,4.157282,4.151126,4.1447587,4.139506,4.132546,4.1273117,4.1208377,4.114194,4.1077814,4.0987425,4.091511,4.0820417,4.0736055,4.0655627,4.055997,4.0489244,4.039041,4.0305915,4.021566,4.0113316,4.0033703,3.9925375,3.9840035,3.9740257,3.9638486,3.9577737,3.9232974,3.893944,4.0544925,4.2316933,4.228102,4.199643,4.1922607,4.182567,4.1738424,4.1656103,4.1556726,4.148296,4.1383996,4.1300945,4.1212425,4.1111603,4.103441,4.0930014,4.084773,4.0753345,4.0653715,4.0573378,4.0466003,4.0384088,4.027957,4.01746,4.0086403,3.995845,3.985376,4.017904,3.9641294,3.6773467,3.4171062,3.3898032,3.1903205,2.9182396,2.6265354,2.3500237,2.2058144,2.0535893,1.9672601,1.8683839,1.7891158,1.7417316,1.6981183,1.6789157,1.6606421,1.651042,1.6444393,1.638283,1.6348271,1.6309184,1.6280563,1.6254117,1.6225643,1.6206942,1.6185955,1.6173865,1.6166241,1.6163746,1.6164248,1.616739,1.6172242,1.6178977,1.6187325,1.6194017,1.6201129,1.6205041,1.6209295,1.6212538,1.621458,1.621803,1.622152,1.622821,1.6237555,1.624767,1.6262717,1.6275101,1.6291583,1.6305988,1.631995,1.6337268,1.6351163,1.637146,1.6389632,1.6411083,1.6436949,1.6458253,1.6488843,1.651365,1.6542948,1.6571815,1.6595193,1.6623633,1.6643188,1.6666431,1.6686593,1.6704159,1.6726565,1.6743684,1.6767876,1.6790147,1.6812035,1.6837388,1.6855965,1.6879554,1.6897137,1.6915047,1.6932971,1.6946089,1.6964163,1.6978624,1.6996307,1.7014945,1.7030199,1.7050774,1.7066611,1.7086893,1.7107291,1.7125902,1.7151614,1.7172096,1.720007,1.7224553,1.7246785,1.7269518,1.72843,1.7299516,1.7306392,1.730978,1.7305648,1.7298989,1.7284056,1.7267368,1.7244911,1.7218087,1.7195518,1.7166445,1.7145503,1.712006,1.709688,1.7077613,1.7053149,1.7034825,1.7008133,1.6982026,1.6956348,1.6926464,1.6905396,1.6879827,1.6862285,1.6847246,1.683466,1.6826956,1.681451,1.6802359,1.6785669,1.6763678,1.6743684,1.6714951,1.6692288,1.6666288,1.6643835,1.6626344,1.6606076,1.6592216,1.6574879,1.6559901,1.6545472,1.6528927,1.6517365,1.6503862,1.6494777,1.6486588,1.6479745,1.6475718,1.6471157,1.6468117,1.6464378,1.6459845,1.6455728,1.644969,1.6444616,1.64376,1.6430168,1.6424029,1.641608,1.6410139,1.6401811,1.6393015,1.6383969,1.637156,1.6361724,1.634871,1.6338122,1.6328005,1.631808,1.6311665,1.6303501,1.6297088,1.6289227,1.6279073,1.6269732,1.625636,1.6245666,1.6232898,1.6220928,1.6211429,1.6200638,1.6193769
3.1769207,3.1854594,3.1979465,3.2087166,3.2209835,3.23522,3.2468948,3.2656224,3.2825413,3.305071,3.3310401,3.3539968,3.3888414,3.418438,3.4606133,3.505812,3.5512056,3.6088955,3.6510348,3.7088764,3.758812,3.8080966,3.862101,3.9014268,3.9460697,3.976873,4.017709,4.058832,4.0861955,4.1179123,4.1385236,4.1629915,4.183263,4.1966143,4.212302,4.2234044,4.237867,4.2503853,4.2606287,4.2712564,4.27783,4.28498,4.288923,4.291129,4.2924566,4.2934866,4.2937927,4.293053,4.2919383,4.2898436,4.287829,4.2844114,4.2811546,4.276726,4.2716074,4.267308,4.2613106,4.256601,4.2506504,4.2452297,4.2406116,4.2354794,4.232147,4.227895,4.2239823,4.219672,4.2134686,4.2080784,4.201022,4.195393,4.1893597,4.182923,4.1781197,4.171493,4.166235,4.1600676,4.1537075,4.1484876,4.141573,4.136372,4.1298647,4.123431,4.117719,4.1092668,4.1020985,4.0925436,4.0839095,4.0757747,4.0661383,4.059025,4.049131,4.040711,4.031739,4.0215316,4.013545,4.00265,3.9940505,3.984006,3.97369,3.9666853,3.935941,3.9122176,4.0684896,4.238618,4.2348804,4.2070456,4.199665,4.189976,4.1812587,4.173033,4.1631055,4.1557345,4.145846,4.1375513,4.1287236,4.1186824,4.1110024,4.1005983,4.092383,4.082958,4.0729966,4.0649548,4.0542126,4.046008,4.035409,4.024628,4.0151224,4.0046425,3.9980009,4.0131025,3.936699,3.663311,3.3505397,3.215128,2.9081511,2.597515,2.349412,2.1336715,1.9987979,1.8616755,1.7924635,1.7293354,1.6889559,1.6637255,1.6410952,1.631527,1.6222155,1.6174874,1.6145198,1.6118331,1.6102936,1.6084096,1.6068876,1.6054405,1.6038938,1.6029094,1.6019552,1.6016552,1.6017499,1.6024787,1.6033027,1.6046301,1.6058884,1.6073898,1.6090499,1.6103405,1.6118469,1.6128182,1.6139408,1.6149224,1.6156487,1.6166236,1.617408,1.618617,1.6200461,1.6215103,1.6236389,1.6253835,1.6277704,1.6299293,1.6321213,1.6347296,1.6367021,1.6394384,1.6416671,1.64398,1.6465046,1.648556,1.6514235,1.6536872,1.656307,1.6588253,1.6608518,1.6632885,1.6649456,1.6669021,1.668597,1.6700878,1.6720045,1.6734757,1.6755962,1.6775949,1.6795757,1.6819453,1.683728,1.6860713,1.6879067,1.6898326,1.6918614,1.6933948,1.6955161,1.6972163,1.6992873,1.7014705,1.7032638,1.7056757,1.7075214,1.7098571,1.7121288,1.7141607,1.716815,1.7188337,1.7215158,1.7237843,1.7258179,1.727865,1.7291825,1.7305663,1.7312348,1.7316303,1.7314055,1.7309352,1.7297783,1.7284294,1.7265898,1.7243277,1.7223825,1.7198455,1.717998,1.7157494,1.7136598,1.7119002,1.7095633,1.7077415,1.7049339,1.7021093,1.6993749,1.6962947,1.6942011,1.691762,1.6902115,1.6890068,1.6880412,1.6873919,1.6863298,1.6852775,1.6838169,1.6818444,1.6800319,1.677359,1.6751883,1.6725736,1.6701348,1.6681318,1.665705,1.6639944,1.6618465,1.6600332,1.6583605,1.6566055,1.6554902,1.6542636,1.653528,1.6529226,1.6524234,1.6521109,1.6515198,1.6509228,1.6502532,1.6494651,1.6487799,1.6478112,1.64703,1.6460085,1.6449711,1.6441123,1.6430265,1.642235,1.6411855,1.640177,1.6391965,1.6379516,1.6370153,1.635808,1.6348658,1.6339872,1.6331649,1.6326542,1.632016,1.6315296,1.6309555,1.6302053,1.629492,1.6284618,1.6276305,1.626632,1.6256781,1.6249359,1.6239508,1.6231973
