29.989975,29.96154,29.936699,29.905575,29.872341,29.844254,29.81212,29.77703,29.74717,29.717348,29.682934,29.65156,29.623684,29.589188,29.555138,29.52676,29.492006,29.455997,29.42672,29.394169,29.35979,29.331753,29.305435,29.276806,29.25254,29.232452,29.208992,29.187294,29.17023,29.149918,29.129454,29.113224,29.095707,29.0766,29.059837,29.043404,29.022903,29.002348,28.9836,28.95856,28.931465,28.908005,28.87807,28.845104,28.816998,28.782581,28.742542,28.707043,28.673153,28.63097,28.588562,28.549797,28.500502,28.450335,28.409718,28.366528,28.3307,28.309853,28.294552,28.284739,28.27806,28.268997,28.248383,28.219898,28.191801,28.165234,28.15652,28.16603,28.199951,28.258545,28.315022,28.373793,28.391254,28.34823,28.275375,28.164215,28.04828,27.954485,27.855614,27.772274,27.712982,27.637527,27.540121,27.435825,27.29692,27.092922,26.896507,26.748737,26.61195,26.528639,26.486622,26.47231,26.490063,26.512512,26.500896,26.478773,26.464348,26.444641,26.424248,26.412575,26.409664,26.40857,26.40955,26.411324,26.416393,26.424828,26.433762,26.446777,26.466784,26.493294,26.530434,26.60694,26.71288,26.823593,26.985662,27.156929,27.290064,27.429253,27.547726,27.625336,27.689991,27.739763,27.770107,27.793415,27.81683,27.835728,27.850597,27.864061,27.867481,27.861542,27.849663,27.830162,27.810131,27.78844,27.762623,27.737644,27.711765,27.67585,27.636806,27.60114,27.554539,27.503773,27.459877,27.406086,27.342327,27.281847,27.209326,27.11004,27.005291,26.900246,26.760424,26.618698,26.49886,26.36303,26.24014,26.15062,26.058674,25.97219,25.905785,25.839748,25.768295,25.708174,25.65718,25.599792,25.551865,25.518103,25.484852,25.461554,25.449467,25.439487,25.431787,25.42528,25.416952,25.404009,25.389889,25.376316,25.365776,25.367937,25.38064,25.406183,25.438572,25.463394,25.48121,25.483976,25.480158,25.48682,25.53614,25.639362,25.77211,25.997288,26.250994,26.449795,26.629921,26.727615,26.74089,26.717365,26.659363,26.596684,26.530949,26.43555,26.317245,26.18673,26.00213,25.804413,25.644508,25.464872,25.255562,25.067015,24.932243,24.848213,24.828266,24.836317,24.94379,25.156898,25.414375,25.706972,25.932669,26.050457,26.160303,26.230738,26.25912,26.26897,26.269012,26.26383,26.251999,26.217339,26.16179,26.102772,26.023806,25.91758,25.805973,25.702717,25.631895,25.602253,25.575428,25.542038,25.508282,25.479702,25.454369,25.456493,25.48619,25.548338,25.63998,25.725792,25.789131,25.824598,25.836435,25.843975,25.860844,25.891068,25.92984,25.982128,26.031258,26.06673,26.09644,26.105484,26.098953,26.101635,26.134804,26.197445,26.275806,26.450155,26.653915,26.804436,26.92772,26.98299,26.996765,26.965492,26.90224,26.850048,26.7995,26.761543,26.747934,26.75061,26.760754,26.770216,26.775688,26.779022,26.773735,26.761072,26.743706,26.722076,26.70226,26.67803,26.652164,26.631235,26.610023,26.58453,26.56015,26.538754,26.51017,26.480589,26.457092,26.416553,26.365402,26.322704,26.284534,26.249866,26.22667,26.212025,26.191887,26.169956,26.15178,26.12954,26.106739,26.087627,26.063393,26.03446,26.007803
29.40303,29.374474,29.349667,29.318697,29.285786,29.258078,29.226433,29.192104,29.163113,29.134312,29.101183,29.071049,29.044353,29.011345,28.978943,28.952183,28.919464,28.885565,28.857918,28.826946,28.793835,28.766464,28.740524,28.71186,28.68721,28.666704,28.64267,28.620316,28.60263,28.582048,28.561676,28.545671,28.528685,28.510658,28.495281,28.480429,28.462368,28.444462,28.42806,28.40545,28.38065,28.359312,28.332148,28.302132,28.276585,28.24664,28.212181,28.181538,28.152763,28.114199,28.072906,28.034702,27.985657,27.93486,27.892975,27.84714,27.806274,27.779408,27.756397,27.736732,27.721714,27.706509,27.682392,27.654144,27.62785,27.601532,27.587816,27.588099,27.600883,27.633795,27.673002,27.715912,27.747002,27.74926,27.732525,27.697947,27.65038,27.600399,27.545404,27.49641,27.460262,27.410643,27.340927,27.262075,27.154686,26.990353,26.829302,26.710125,26.600334,26.538696,26.51657,26.519157,26.536236,26.543068,26.521885,26.489925,26.467815,26.44923,26.43117,26.418922,26.411953,26.40754,26.409883,26.4174,26.427801,26.440321,26.45148,26.464672,26.484386,26.511326,26.5505,26.624493,26.720404,26.81718,26.952003,27.08916,27.193695,27.296518,27.378551,27.429943,27.46998,27.498508,27.51538,27.52909,27.544273,27.558157,27.570084,27.5821,27.587048,27.584362,27.577713,27.565617,27.55275,27.53886,27.521816,27.504503,27.48584,27.458672,27.427979,27.399406,27.361244,27.319328,27.283318,27.239508,27.188738,27.141525,27.085003,27.007133,26.924078,26.84026,26.725943,26.60773,26.507145,26.390732,26.283283,26.204199,26.122246,26.043625,25.98193,25.9197,25.851208,25.792694,25.742659,25.685575,25.637003,25.602161,25.567097,25.541504,25.527447,25.515688,25.506384,25.498749,25.48967,25.476059,25.461395,25.447392,25.43609,25.436861,25.44776,25.470673,25.500046,25.522446,25.53811,25.53901,25.532518,25.533352,25.569038,25.650528,25.75741,25.938284,26.141945,26.301727,26.447006,26.525692,26.5354,26.51245,26.459396,26.402615,26.34293,26.25853,26.156929,26.047115,25.890148,25.719526,25.579407,25.437632,25.273823,25.11737,24.995594,24.902431,24.86259,24.8591,24.946945,25.11489,25.295254,25.508,25.675194,25.760496,25.83759,25.882896,25.896515,25.893433,25.880657,25.866968,25.851942,25.826803,25.789085,25.744926,25.671347,25.576223,25.489922,25.416615,25.371193,25.354324,25.338701,25.320036,25.301085,25.28325,25.271717,25.281322,25.307972,25.359058,25.428028,25.488567,25.539024,25.566406,25.571249,25.574863,25.587574,25.612171,25.643066,25.68529,25.726074,25.756569,25.784704,25.799976,25.804092,25.817604,25.856485,25.915405,25.984207,26.120617,26.280941,26.416431,26.521545,26.559952,26.561638,26.531233,26.480217,26.4403,26.398117,26.36834,26.361319,26.367382,26.376078,26.38084,26.38285,26.382814,26.37592,26.363422,26.347202,26.32679,26.307232,26.283913,26.252699,26.22091,26.188234,26.151045,26.118855,26.092773,26.061302,26.025383,25.990055,25.943718,25.890314,25.845657,25.804157,25.764004,25.734552,25.712933,25.687607,25.664001,25.645334,25.623507,25.602472,25.58564,25.564137,25.538002,25.513296
28.841965,28.813274,28.788498,28.757748,28.725328,28.698208,28.667397,28.634037,28.605843,28.577833,28.545696,28.516573,28.49084,28.45921,28.428242,28.402615,28.371372,28.33904,28.312649,28.282879,28.250687,28.223736,28.197956,28.16911,28.144028,28.123095,28.09852,28.075567,28.057285,28.036694,28.01662,28.000795,27.984161,27.966846,27.95244,27.938814,27.922855,27.907536,27.893711,27.874054,27.852398,27.834131,27.811138,27.78527,27.762932,27.73902,27.71232,27.688547,27.666508,27.634869,27.598927,27.56495,27.520365,27.472847,27.432743,27.386951,27.342485,27.309792,27.27912,27.249142,27.224934,27.202589,27.173298,27.143852,27.11879,27.093622,27.077854,27.07269,27.076279,27.09051,27.107044,27.121868,27.142365,27.160885,27.170887,27.178375,27.17532,27.16109,27.145145,27.129913,27.117409,27.09314,27.04794,26.989407,26.905209,26.78268,26.666977,26.579268,26.499874,26.462471,26.461658,26.468962,26.471624,26.4604,26.438705,26.41101,26.389744,26.372335,26.360195,26.356457,26.3559,26.357813,26.365051,26.376335,26.389477,26.402277,26.412163,26.42575,26.445793,26.471546,26.508816,26.570915,26.644934,26.717175,26.814991,26.9123,26.985653,27.052946,27.101513,27.128937,27.14732,27.15778,27.1632,27.16811,27.175032,27.182882,27.190296,27.19846,27.20213,27.20026,27.195644,27.18728,27.178446,27.169125,27.157486,27.145115,27.13116,27.110203,27.086102,27.063568,27.033218,27.000248,26.972546,26.939505,26.902866,26.870054,26.8311,26.776546,26.71671,26.654827,26.568733,26.478523,26.401608,26.310776,26.225185,26.161346,26.094475,26.028637,25.975464,25.920883,25.859467,25.806,25.759914,25.706486,25.660133,25.626373,25.591743,25.565632,25.55072,25.538227,25.528269,25.52029,25.511358,25.49847,25.484886,25.472097,25.462029,25.463121,25.473356,25.494625,25.521572,25.541824,25.555584,25.55495,25.546257,25.542263,25.56453,25.623653,25.704031,25.841381,25.996664,26.118557,26.230434,26.292267,26.300838,26.28115,26.235271,26.185608,26.133373,26.061588,25.97675,25.88501,25.753649,25.608624,25.48684,25.35515,25.225975,25.12483,25.028538,24.944403,24.901413,24.889738,24.950222,25.066158,25.176876,25.31744,25.433163,25.492016,25.54237,25.56709,25.568241,25.55398,25.530436,25.507423,25.481462,25.451965,25.413961,25.364864,25.279892,25.187973,25.12579,25.074196,25.045311,25.03746,25.03379,25.031979,25.028458,25.020103,25.01894,25.032057,25.05312,25.089622,25.133284,25.167671,25.2014,25.218616,25.217838,25.218445,25.22881,25.251244,25.280764,25.316109,25.348595,25.374985,25.402435,25.423046,25.435083,25.455112,25.495548,25.54889,25.607483,25.710672,25.83062,25.94092,26.030388,26.063595,26.060745,26.032398,25.988155,25.954166,25.918755,25.898182,25.899971,25.913074,25.927576,25.935074,25.937977,25.937462,25.92926,25.915962,25.896198,25.871796,25.85011,25.824913,25.788784,25.749462,25.708382,25.660782,25.619453,25.58646,25.54854,25.50635,25.464485,25.419683,25.372795,25.333183,25.294298,25.253119,25.219538,25.19191,25.16354,25.140759,25.123009,25.102905,25.084614,25.070766,25.052734,25.03093,25.010406
28.395855,28.366987,28.342167,28.311512,28.279373,28.25259,28.22224,28.189438,28.161724,28.134178,28.102623,28.074131,28.049013,28.018297,27.988396,27.963718,27.93381,27.903023,27.87795,27.849586,27.81876,27.792778,27.767754,27.739542,27.714855,27.694183,27.669868,27.647068,27.62883,27.608051,27.587494,27.571095,27.553738,27.53548,27.52022,27.50581,27.488968,27.473434,27.460154,27.444038,27.427984,27.41455,27.397938,27.378647,27.360971,27.3404,27.31696,27.29623,27.276417,27.250153,27.22157,27.194168,27.156843,27.115507,27.079731,27.036633,26.990864,26.953953,26.917746,26.87995,26.848494,26.820269,26.786285,26.755198,26.73059,26.706173,26.689556,26.681454,26.67807,26.680716,26.685722,26.69131,26.696869,26.700253,26.701523,26.704576,26.712921,26.726072,26.744278,26.76107,26.769945,26.765907,26.73395,26.683554,26.61855,26.532759,26.455742,26.393694,26.341297,26.32304,26.332531,26.33236,26.330917,26.333254,26.315039,26.291893,26.278599,26.267788,26.26171,26.261845,26.26357,26.270277,26.28112,26.291824,26.304253,26.315735,26.324417,26.340374,26.361965,26.384392,26.411888,26.456581,26.508987,26.55881,26.624392,26.68736,26.733158,26.774199,26.80069,26.812271,26.816463,26.81532,26.813442,26.812416,26.813549,26.816835,26.82043,26.825054,26.826923,26.82483,26.82045,26.813179,26.805786,26.79827,26.78896,26.778778,26.766712,26.74863,26.72813,26.709219,26.684147,26.65778,26.636423,26.611834,26.586279,26.564613,26.53912,26.502522,26.460735,26.415718,26.353268,26.286957,26.228556,26.159918,26.094742,26.045263,25.992874,25.939762,25.89547,25.849207,25.795963,25.74876,25.70782,25.659649,25.617186,25.585953,25.553421,25.52834,25.513683,25.501461,25.491766,25.4842,25.476135,25.464952,25.453518,25.442953,25.435379,25.438015,25.44857,25.469284,25.494823,25.513689,25.526278,25.524967,25.515163,25.507954,25.52019,25.562119,25.621937,25.726236,25.84485,25.93763,26.02341,26.0709,26.077183,26.06242,26.026794,25.986885,25.944016,25.883656,25.811356,25.733225,25.621334,25.496859,25.39115,25.272854,25.165154,25.090729,25.007147,24.94676,24.927162,24.911148,24.939379,25.006886,25.074253,25.16392,25.241016,25.282072,25.314316,25.325062,25.317593,25.295834,25.265055,25.23321,25.19209,25.143051,25.088757,25.028954,24.940706,24.850285,24.787785,24.738754,24.716042,24.716072,24.723652,24.73736,24.748167,24.752045,24.75842,24.769787,24.784176,24.806606,24.831394,24.849653,24.863756,24.869015,24.86794,24.868778,24.88033,24.90498,24.940216,24.972683,24.997149,25.019634,25.045132,25.067665,25.08368,25.108019,25.147549,25.193611,25.243784,25.32388,25.411743,25.49006,25.557869,25.586815,25.586952,25.559227,25.51263,25.47575,25.447708,25.438135,25.448177,25.46889,25.495258,25.513561,25.521576,25.523054,25.512966,25.496792,25.467726,25.433044,25.405872,25.373766,25.335735,25.2999,25.262215,25.214458,25.168934,25.131165,25.086838,25.046253,25.016205,24.980846,24.942352,24.90944,24.876965,24.84134,24.811615,24.788277,24.763214,24.741613,24.724056,24.703955,24.685764,24.672325,24.655243,24.635067,24.61631
27.922024,27.893173,27.868437,27.838001,27.80627,27.779942,27.750114,27.71796,27.69086,27.663925,27.633127,27.605425,27.581104,27.551517,27.522873,27.49931,27.470854,27.441683,27.417986,27.391113,27.361744,27.336805,27.312641,27.285206,27.261034,27.240688,27.216667,27.194033,27.17585,27.155035,27.134254,27.117561,27.099857,27.081238,27.065731,27.0512,27.034435,27.01936,27.006805,26.992264,26.978424,26.96706,26.953197,26.937672,26.92394,26.908466,26.890972,26.87534,26.860249,26.840128,26.817932,26.796501,26.765165,26.727879,26.69405,26.653347,26.609787,26.574215,26.538305,26.499325,26.465057,26.431791,26.393013,26.359455,26.33408,26.308311,26.288351,26.275341,26.263279,26.25283,26.244968,26.237797,26.231052,26.227234,26.225979,26.229698,26.241459,26.258152,26.281612,26.305206,26.320885,26.328735,26.31681,26.289354,26.251844,26.2,26.152517,26.114416,26.083282,26.076855,26.09071,26.10849,26.121347,26.124077,26.131517,26.126137,26.109715,26.100555,26.098106,26.102089,26.10599,26.113949,26.125004,26.135786,26.14695,26.158337,26.168806,26.183859,26.201252,26.216753,26.234207,26.261377,26.291924,26.31966,26.354557,26.385712,26.406412,26.421335,26.425842,26.423256,26.415752,26.405697,26.398169,26.392124,26.387531,26.385612,26.384892,26.384655,26.382954,26.379211,26.373753,26.366558,26.359928,26.35336,26.345575,26.33751,26.328476,26.315147,26.300156,26.286407,26.267967,26.248775,26.233662,26.216799,26.200928,26.188988,26.175474,26.155643,26.13155,26.104023,26.064003,26.01976,25.979832,25.932583,25.886944,25.851572,25.81351,25.773327,25.738396,25.7011,25.65701,25.617119,25.582321,25.540743,25.503498,25.475834,25.446651,25.423779,25.410221,25.39898,25.390179,25.383553,25.376854,25.368114,25.359665,25.352127,25.347904,25.352724,25.364006,25.384438,25.408745,25.426456,25.438482,25.437622,25.428026,25.419075,25.423119,25.449577,25.490356,25.563564,25.647854,25.713953,25.775673,25.810669,25.816238,25.806889,25.78202,25.752686,25.719774,25.671677,25.61293,25.549435,25.458242,25.355732,25.26754,25.167328,25.075272,25.012737,24.951294,24.907295,24.890755,24.880085,24.888834,24.917744,24.951706,24.997261,25.038136,25.062187,25.077356,25.074923,25.059734,25.03762,24.988964,24.930141,24.884357,24.81503,24.737179,24.670374,24.5876,24.51104,24.458813,24.414593,24.390839,24.387318,24.391346,24.402962,24.414272,24.420128,24.427685,24.436512,24.445206,24.456173,24.464977,24.468716,24.467876,24.461435,24.45428,24.449532,24.453466,24.46944,24.494596,24.524757,24.552631,24.575798,24.598938,24.61655,24.628132,24.650023,24.69131,24.741745,24.796713,24.875069,24.949913,25.00602,25.049095,25.058434,25.045403,25.008053,24.962801,24.935404,24.919088,24.920204,24.935379,24.959564,24.984028,24.995052,24.994427,24.98579,24.968544,24.949583,24.925694,24.900919,24.881458,24.857176,24.82729,24.797966,24.765877,24.72324,24.683556,24.654531,24.620514,24.59017,24.568794,24.542763,24.513672,24.488361,24.463013,24.4347,24.410133,24.389122,24.365206,24.343727,24.326153,24.30616,24.288372,24.275532,24.25922,24.240171,24.222649
27.41745,27.388828,27.364326,27.334274,27.303074,27.277273,27.24808,27.216702,27.190323,27.164146,27.134327,27.107628,27.0843,27.05609,27.028957,27.006714,26.979946,26.952625,26.9305,26.905396,26.877861,26.854355,26.831478,26.805355,26.782173,26.762547,26.73923,26.717087,26.69919,26.678562,26.657803,26.641026,26.623213,26.604488,26.588972,26.574509,26.557999,26.543373,26.531357,26.517544,26.504627,26.494217,26.4817,26.468327,26.457113,26.445105,26.431759,26.419739,26.408115,26.392178,26.374157,26.356651,26.330444,26.298477,26.268982,26.233427,26.195116,26.16343,26.13036,26.093246,26.059914,26.027649,25.989622,25.95565,25.928856,25.899271,25.872654,25.852367,25.829842,25.805632,25.785007,25.764902,25.746033,25.734707,25.728989,25.729532,25.738392,25.7508,25.769365,25.789476,25.804184,25.8154,25.815552,25.804943,25.787224,25.759407,25.733017,25.7134,25.699492,25.701218,25.714294,25.740734,25.766605,25.779213,25.80519,25.827606,25.836618,25.846073,25.850441,25.850504,25.852419,25.857803,25.865818,25.873367,25.882107,25.892971,25.90393,25.915909,25.92704,25.934828,25.942486,25.953499,25.964737,25.973648,25.98337,25.989487,25.991106,25.986382,25.975094,25.96307,25.948307,25.93297,25.921883,25.912308,25.903069,25.896343,25.891327,25.885992,25.880146,25.874063,25.866669,25.858513,25.85172,25.845173,25.837936,25.831123,25.824238,25.81467,25.804342,25.795113,25.782623,25.769932,25.760399,25.750156,25.742075,25.737604,25.733074,25.725843,25.715378,25.701872,25.67992,25.653652,25.629055,25.599447,25.570047,25.546638,25.520914,25.49226,25.466051,25.437376,25.402544,25.370453,25.34237,25.308346,25.277466,25.25439,25.229778,25.21036,25.198914,25.189573,25.18253,25.177547,25.172947,25.16756,25.162941,25.159145,25.158983,25.166443,25.178665,25.198906,25.222137,25.239016,25.251163,25.252161,25.244589,25.236057,25.234982,25.249336,25.274328,25.32108,25.376083,25.41971,25.461437,25.486786,25.492981,25.489887,25.47667,25.458992,25.437126,25.40276,25.358976,25.31121,25.241943,25.162823,25.093681,25.014263,24.93799,24.883757,24.838234,24.8027,24.783585,24.774002,24.770615,24.775808,24.78666,24.80172,24.815609,24.823895,24.824448,24.812626,24.791801,24.754288,24.687557,24.615044,24.557178,24.47263,24.386518,24.323421,24.24905,24.180908,24.132065,24.085217,24.052017,24.037388,24.029469,24.028759,24.03133,24.031212,24.031906,24.033054,24.033749,24.03304,24.028385,24.02092,24.009369,23.993843,23.980534,23.970032,23.965885,23.971638,23.983566,24.004063,24.026937,24.045185,24.062767,24.07602,24.08532,24.10504,24.143826,24.190758,24.239773,24.306093,24.364346,24.401415,24.423267,24.41914,24.402441,24.370193,24.33863,24.324854,24.320862,24.33085,24.34866,24.371185,24.38997,24.395283,24.392288,24.382553,24.367542,24.353142,24.34053,24.329845,24.320766,24.307426,24.289179,24.2699,24.24772,24.217632,24.189962,24.170809,24.148397,24.127983,24.112997,24.094484,24.073568,24.055326,24.03702,24.0164,23.997786,23.980415,23.959381,23.939632,23.923306,23.904657,23.88802,23.876003,23.860573,23.842197,23.82502
26.97586,26.947641,26.923485,26.893919,26.863289,26.838005,26.809465,26.778862,26.7532,26.72781,26.698996,26.673332,26.650986,26.624136,26.598473,26.577509,26.552387,26.52686,26.506233,26.482868,26.4572,26.435211,26.41375,26.389137,26.36715,26.348423,26.326021,26.304558,26.2871,26.266838,26.246315,26.229687,26.21201,26.193441,26.178097,26.163822,26.147594,26.133299,26.121618,26.108273,26.095936,26.08609,26.074413,26.062035,26.05164,26.040386,26.027924,26.016802,26.006083,25.991413,25.974922,25.958858,25.936033,25.909466,25.88559,25.856073,25.823189,25.795044,25.764767,25.729977,25.699188,25.671803,25.63848,25.606392,25.579193,25.546583,25.514189,25.48782,25.456482,25.42152,25.391644,25.362072,25.333454,25.314735,25.30325,25.297955,25.302433,25.31195,25.326511,25.342358,25.353762,25.3624,25.362503,25.354635,25.342148,25.323963,25.308228,25.29773,25.29397,25.3006,25.311691,25.330559,25.357103,25.382826,25.407993,25.44749,25.490597,25.523705,25.542217,25.546242,25.554039,25.560484,25.564217,25.566706,25.571995,25.57954,25.586603,25.594849,25.60144,25.604164,25.605389,25.606316,25.606094,25.604256,25.600163,25.593319,25.585674,25.572233,25.554695,25.539303,25.522251,25.505297,25.492825,25.48162,25.469833,25.460083,25.45209,25.44321,25.434372,25.42643,25.417315,25.407925,25.40046,25.393404,25.385975,25.379387,25.373001,25.364822,25.356674,25.349777,25.340725,25.332064,25.326077,25.319908,25.316233,25.315586,25.315334,25.313942,25.30998,25.303513,25.29137,25.275337,25.259441,25.239872,25.219828,25.203445,25.185112,25.1637,25.14329,25.120586,25.092571,25.06656,25.043816,25.016079,24.990788,24.971905,24.9516,24.93568,24.92657,24.919355,24.914276,24.911045,24.908554,24.906273,24.904982,24.904327,24.907455,24.916897,24.929642,24.949432,24.971626,24.987913,25.000465,25.003822,24.999174,24.992683,24.990204,24.99807,25.013641,25.043839,25.080269,25.109772,25.139313,25.159454,25.16708,25.169453,25.165846,25.157944,25.145573,25.12334,25.09282,25.058699,25.008228,24.949245,24.896755,24.83553,24.775269,24.731014,24.691132,24.65804,24.638035,24.623337,24.61351,24.60963,24.60675,24.605728,24.604694,24.601748,24.592041,24.573536,24.547935,24.490444,24.41735,24.350986,24.278303,24.190292,24.113956,24.06009,23.990597,23.920292,23.865824,23.810585,23.765244,23.738586,23.718044,23.703304,23.694263,23.684698,23.674236,23.664772,23.656582,23.645515,23.63134,23.617107,23.599514,23.57913,23.562489,23.548933,23.540457,23.540068,23.54397,23.551176,23.560371,23.569178,23.58015,23.592562,23.604343,23.62465,23.657738,23.693039,23.726137,23.769468,23.80728,23.831308,23.843468,23.840336,23.83302,23.818825,23.80584,23.801918,23.805914,23.820599,23.839031,23.85786,23.874022,23.881668,23.885044,23.88454,23.879818,23.874313,23.870268,23.86704,23.863657,23.85649,23.846127,23.83518,23.822079,23.804386,23.786757,23.771748,23.75396,23.737583,23.72549,23.710613,23.694366,23.680786,23.667614,23.652758,23.639034,23.626133,23.609592,23.593136,23.57913,23.562788,23.54779,23.53669,23.522228,23.504261,23.486847
26.5947,26.56696,26.543198,26.514147,26.4841,26.459333,26.431412,26.401539,26.376575,26.351948,26.324085,26.29937,26.27795,26.252342,26.22802,26.208256,26.184668,26.16081,26.141596,26.119864,26.095919,26.075289,26.05507,26.031784,26.010841,25.992884,25.971272,25.950422,25.933395,25.91354,25.893349,25.876972,25.859589,25.841366,25.826351,25.812416,25.796614,25.782734,25.77143,25.75853,25.746647,25.73721,25.72611,25.714415,25.704624,25.694004,25.682262,25.671812,25.661762,25.648148,25.633068,25.618557,25.59808,25.57446,25.553368,25.52729,25.498062,25.472778,25.44527,25.41307,25.38396,25.357483,25.325294,25.294777,25.269594,25.23875,25.206657,25.179169,25.142616,25.100548,25.065077,25.02884,24.992294,24.966677,24.949398,24.937714,24.936665,24.941872,24.951164,24.962051,24.969944,24.975502,24.974327,24.967278,24.957022,24.943155,24.932205,24.925941,24.926037,24.934792,24.946829,24.96486,24.987152,25.007042,25.028603,25.05745,25.088287,25.120579,25.166683,25.214443,25.259697,25.281425,25.279022,25.276947,25.275063,25.271725,25.268124,25.272343,25.276657,25.276161,25.273148,25.26813,25.261692,25.254112,25.242826,25.229496,25.217438,25.200207,25.18034,25.163921,25.1464,25.129189,25.116266,25.104286,25.091038,25.079441,25.069624,25.058462,25.047577,25.038294,25.027851,25.017376,25.009182,25.001396,24.993397,24.986622,24.980278,24.972717,24.965767,24.960205,24.953176,24.946861,24.942844,24.938862,24.937317,24.938318,24.939808,24.940958,24.940115,24.937222,24.93041,24.920254,24.909544,24.896023,24.88169,24.869637,24.855875,24.839134,24.822672,24.804173,24.781158,24.759748,24.741089,24.718307,24.69754,24.682102,24.665394,24.652475,24.645422,24.64003,24.636614,24.634827,24.633976,24.633995,24.635077,24.636604,24.641869,24.652367,24.665096,24.684021,24.704971,24.72056,24.733284,24.738565,24.736557,24.732334,24.730139,24.734804,24.744987,24.76514,24.790104,24.810951,24.833157,24.850643,24.859951,24.866703,24.870512,24.870283,24.86552,24.853237,24.833752,24.81099,24.776188,24.734142,24.695843,24.650269,24.604034,24.569029,24.536852,24.508701,24.48981,24.474152,24.460709,24.44925,24.435478,24.418903,24.404255,24.394444,24.375748,24.345623,24.310839,24.258636,24.192192,24.127218,24.053848,23.969852,23.898613,23.844799,23.775375,23.703316,23.64523,23.58384,23.528833,23.492027,23.460373,23.43253,23.41217,23.393398,23.372665,23.354088,23.338566,23.319302,23.29783,23.278435,23.256067,23.231697,23.21225,23.196083,23.183804,23.178757,23.177544,23.178162,23.181175,23.185314,23.19233,23.203108,23.215084,23.234924,23.26582,23.297356,23.325672,23.359745,23.388145,23.406681,23.417732,23.418076,23.414639,23.407433,23.402416,23.404041,23.412558,23.42952,23.44802,23.46651,23.483273,23.492146,23.495811,23.497429,23.496376,23.494366,23.493874,23.494144,23.493725,23.490143,23.483742,23.476269,23.46695,23.45398,23.440598,23.428818,23.41444,23.400772,23.390453,23.377924,23.36507,23.355213,23.346375,23.336685,23.327473,23.318558,23.306034,23.292522,23.280556,23.266247,23.252666,23.242323,23.228657,23.21106,23.193548
26.157108,26.130203,26.10711,26.078894,26.049725,26.025688,25.998634,25.969793,25.945782,25.922155,25.895517,25.871998,25.851715,25.827599,25.804855,25.786484,25.764687,25.742765,25.725157,25.705292,25.683302,25.664196,25.64539,25.623577,25.603783,25.58665,25.565884,25.545704,25.529137,25.50976,25.490055,25.474117,25.457253,25.439703,25.425356,25.412113,25.397121,25.383957,25.373234,25.360928,25.349527,25.340458,25.329721,25.318344,25.308754,25.298199,25.286354,25.275753,25.265602,25.252184,25.237835,25.224403,25.20596,25.185266,25.167128,25.144928,25.120243,25.098888,25.075481,25.047598,25.021736,24.997555,24.96738,24.937874,24.912968,24.881153,24.846266,24.81532,24.774918,24.728298,24.688692,24.64848,24.607882,24.579002,24.559132,24.54274,24.53546,24.53463,24.53683,24.54073,24.543098,24.543125,24.537485,24.52807,24.516682,24.502884,24.492672,24.487068,24.487001,24.494457,24.504871,24.519989,24.537529,24.552277,24.569427,24.590202,24.61168,24.63834,24.682354,24.731098,24.775414,24.807861,24.82288,24.83332,24.845028,24.85445,24.859594,24.860783,24.859158,24.856943,24.855194,24.848799,24.838474,24.82807,24.813751,24.798313,24.785316,24.767748,24.748241,24.732365,24.715544,24.698875,24.68611,24.67432,24.660706,24.648155,24.637276,24.624603,24.612257,24.602007,24.590546,24.579086,24.570084,24.561394,24.552456,24.545008,24.538177,24.530426,24.523716,24.518578,24.512346,24.506962,24.503643,24.500235,24.498775,24.499443,24.500437,24.50132,24.500895,24.499022,24.49442,24.487244,24.4794,24.469296,24.458254,24.448715,24.437664,24.423904,24.410225,24.39489,24.375942,24.358526,24.343536,24.32539,24.30904,24.297052,24.28406,24.27438,24.269623,24.26633,24.264746,24.264374,24.265049,24.26707,24.270096,24.273335,24.280102,24.290974,24.303097,24.320496,24.339664,24.354261,24.366972,24.374266,24.375378,24.37437,24.374756,24.379234,24.386784,24.400333,24.416851,24.431019,24.44698,24.461758,24.47225,24.483059,24.493738,24.50063,24.50326,24.501125,24.49323,24.482384,24.46415,24.440266,24.41742,24.389053,24.358738,24.334759,24.31206,24.291813,24.277664,24.266079,24.247475,24.22232,24.194221,24.164864,24.14158,24.126135,24.103064,24.070093,24.03494,23.992107,23.934278,23.873138,23.80629,23.728941,23.661741,23.609589,23.5422,23.470222,23.409779,23.342932,23.278116,23.23043,23.186386,23.143276,23.109264,23.07917,23.045914,23.01668,22.993061,22.965149,22.936499,22.912338,22.885586,22.857737,22.835678,22.816002,22.797348,22.784801,22.776901,22.77002,22.76717,22.767689,22.77192,22.781935,22.794437,22.813993,22.843082,22.871708,22.89677,22.925058,22.948072,22.96412,22.975811,22.97992,22.9805,22.979286,22.980103,22.985065,22.995575,23.012611,23.030067,23.047543,23.064816,23.075382,23.080112,23.083378,23.084251,23.083921,23.085033,23.086704,23.087418,23.085377,23.081028,23.075787,23.069195,23.059843,23.049648,23.039993,23.0276,23.015156,23.005402,22.994034,22.983782,22.977375,22.972878,22.968666,22.964388,22.959854,22.95177,22.941498,22.931747,22.919563,22.90738,22.897717,22.884796,22.867577,22.850042
25.738724,25.712872,25.690617,25.663422,25.635292,25.612114,25.586075,25.558407,25.535444,25.512897,25.487545,25.46524,25.44606,25.423346,25.402058,25.38496,25.364788,25.344604,25.328419,25.310215,25.289955,25.272184,25.254608,25.234074,25.215263,25.198833,25.178806,25.159225,25.143082,25.124199,25.105032,25.089596,25.073309,25.056484,25.042828,25.030272,25.01604,25.00347,24.993156,24.98117,24.96989,24.960823,24.949978,24.938328,24.928396,24.91732,24.904676,24.893278,24.882427,24.868488,24.854189,24.841232,24.824116,24.805672,24.789923,24.770973,24.75032,24.732635,24.713226,24.689865,24.667763,24.646667,24.61931,24.591059,24.566015,24.532791,24.495117,24.461267,24.41935,24.371323,24.330002,24.288525,24.246727,24.216597,24.195168,24.17559,24.16399,24.15897,24.15648,24.15526,24.152824,24.148178,24.138933,24.12744,24.11347,24.096714,24.083755,24.07554,24.071434,24.07402,24.079884,24.089401,24.101345,24.111763,24.123817,24.139482,24.156002,24.17536,24.201012,24.226446,24.248909,24.27946,24.309086,24.330275,24.354527,24.377773,24.394363,24.398682,24.39853,24.39994,24.40343,24.402391,24.39634,24.390392,24.380886,24.369644,24.359928,24.347227,24.333424,24.322325,24.310669,24.298916,24.28909,24.278315,24.265345,24.253181,24.242481,24.22964,24.216848,24.20621,24.194187,24.181911,24.172039,24.162312,24.152159,24.14365,24.135862,24.127073,24.119503,24.11369,24.106699,24.100464,24.096273,24.091564,24.088104,24.086605,24.085129,24.083195,24.080578,24.077156,24.071434,24.063957,24.056252,24.046486,24.035954,24.026882,24.01643,24.003693,23.991308,23.977661,23.961208,23.94647,23.93401,23.91938,23.906713,23.8978,23.88828,23.881783,23.87931,23.877663,23.87743,23.878235,23.880173,23.883442,23.887371,23.891396,23.898684,23.90923,23.920341,23.935902,23.953087,23.966518,23.978855,23.987682,23.991352,23.992796,23.993114,23.994812,23.999462,24.00829,24.020445,24.032343,24.048592,24.065956,24.079096,24.092182,24.106125,24.117031,24.124216,24.128971,24.129509,24.127485,24.121881,24.11238,24.102142,24.088692,24.073116,24.059956,24.04787,24.033876,24.019924,24.007416,23.981796,23.947128,23.912638,23.88035,23.85675,23.840416,23.819931,23.792889,23.763996,23.727663,23.676262,23.621807,23.56656,23.499825,23.439255,23.392227,23.33132,23.264225,23.205524,23.138298,23.069347,23.015491,22.963634,22.909763,22.86536,22.826319,22.782822,22.744692,22.71437,22.67928,22.644775,22.61686,22.586506,22.554758,22.52887,22.505093,22.480465,22.461636,22.44826,22.435354,22.427435,22.424122,22.424862,22.432533,22.443668,22.460995,22.486673,22.511705,22.53329,22.557472,22.577545,22.592411,22.604652,22.611149,22.61446,22.616537,22.619495,22.62459,22.633701,22.648052,22.663021,22.67839,22.694447,22.705257,22.71098,22.715343,22.717072,22.717293,22.717907,22.718363,22.718077,22.71526,22.710674,22.705898,22.700365,22.692717,22.68394,22.674843,22.662601,22.649715,22.63929,22.627691,22.618473,22.614096,22.6124,22.611927,22.61108,22.609577,22.604511,22.596329,22.587873,22.576756,22.56501,22.555346,22.542397,22.525019,22.507332
25.399456,25.374542,25.353045,25.326756,25.299566,25.277184,25.25206,25.225418,25.203367,25.181751,25.157476,25.136147,25.117817,25.096142,25.075924,25.059765,25.04078,25.021841,25.006668,24.989658,24.97063,24.95381,24.937096,24.91746,24.899347,24.88343,24.863956,24.844852,24.829079,24.810627,24.791924,24.776869,24.761011,24.744656,24.731384,24.719162,24.70525,24.692844,24.682547,24.670418,24.658813,24.649391,24.638084,24.62584,24.615334,24.603634,24.590199,24.578075,24.566605,24.552181,24.537817,24.525105,24.50878,24.491718,24.47744,24.460478,24.442287,24.426865,24.409977,24.389635,24.37025,24.351557,24.326912,24.300793,24.277086,24.245035,24.2081,24.174648,24.132725,24.084522,24.043001,24.0008,23.957275,23.924564,23.899597,23.876774,23.86346,23.857773,23.854753,23.85229,23.847845,23.841827,23.832882,23.822523,23.807587,23.788568,23.772806,23.761684,23.752941,23.749954,23.750687,23.753876,23.759384,23.764757,23.77138,23.78114,23.792452,23.806366,23.826283,23.846653,23.864456,23.884857,23.902695,23.91584,23.93079,23.94525,23.956623,23.96933,23.981915,23.991062,23.998634,24.005724,24.01048,24.013996,24.013897,24.009697,24.004723,23.99931,23.994328,23.990908,23.98785,23.984707,23.980148,23.97054,23.958527,23.94756,23.937826,23.925758,23.913303,23.902729,23.890564,23.877811,23.867329,23.856813,23.845646,23.836176,23.827435,23.817442,23.808674,23.8018,23.793468,23.785725,23.780136,23.773594,23.76779,23.764025,23.760054,23.755219,23.750175,23.744846,23.737328,23.72868,23.720287,23.709894,23.69897,23.689716,23.679195,23.666796,23.655087,23.642422,23.627563,23.614609,23.603825,23.591637,23.581627,23.574976,23.568024,23.563904,23.563118,23.562134,23.562483,23.564241,23.567265,23.57124,23.575289,23.579414,23.586521,23.59636,23.606451,23.620388,23.6359,23.648323,23.66011,23.669758,23.674717,23.676693,23.672121,23.665848,23.66505,23.668377,23.678047,23.690674,23.713013,23.738403,23.75614,23.769958,23.783848,23.795856,23.804611,23.812359,23.81717,23.819927,23.821642,23.820997,23.818836,23.815878,23.811447,23.8068,23.804443,23.792261,23.770916,23.748234,23.716307,23.683453,23.654964,23.627792,23.607918,23.594685,23.579563,23.558865,23.5345,23.499092,23.451035,23.404205,23.35971,23.306004,23.256151,23.216223,23.164637,23.105976,23.052464,22.989986,22.923565,22.869724,22.816616,22.759338,22.710575,22.667404,22.618526,22.575096,22.54047,22.500416,22.46156,22.430721,22.3973,22.360834,22.329792,22.302284,22.274677,22.25367,22.23779,22.22156,22.209347,22.20116,22.196592,22.199276,22.20654,22.2192,22.239346,22.259365,22.27605,22.294914,22.311079,22.323517,22.334824,22.342007,22.346224,22.349068,22.351683,22.355282,22.361532,22.372131,22.38401,22.39682,22.410011,22.41903,22.424627,22.429665,22.432516,22.433609,22.433178,22.431484,22.429554,22.425323,22.419659,22.414436,22.40892,22.401615,22.393082,22.38383,22.371042,22.357243,22.345905,22.333618,22.324402,22.320648,22.319975,22.320934,22.32136,22.320915,22.316793,22.309052,22.300652,22.28928,22.2769,22.26651,22.25267,22.234491,22.216412
25.027561,25.003735,24.983105,24.95786,24.931744,24.910257,24.886189,24.860699,24.839611,24.81897,24.7958,24.775434,24.757935,24.737267,24.718056,24.702782,24.684893,24.667103,24.652882,24.636953,24.619057,24.603117,24.58722,24.568415,24.550951,24.535534,24.516636,24.498062,24.482716,24.464794,24.446648,24.432056,24.41667,24.40081,24.387943,24.376038,24.362394,24.350079,24.339756,24.32737,24.315283,24.305359,24.29336,24.28029,24.269058,24.25653,24.242113,24.229122,24.216862,24.201748,24.1871,24.174374,24.15849,24.142368,24.12911,24.113577,24.097198,24.08349,24.068596,24.050846,24.034033,24.01781,23.996338,23.97326,23.951962,23.922787,23.888687,23.857525,23.818165,23.772537,23.732906,23.692081,23.648989,23.615402,23.588675,23.562897,23.546024,23.537003,23.529305,23.523527,23.518538,23.511887,23.502827,23.492975,23.47987,23.461933,23.445072,23.431541,23.416992,23.40638,23.400677,23.39595,23.393532,23.392803,23.39308,23.396206,23.401783,23.409794,23.422668,23.436615,23.448963,23.462936,23.475197,23.484505,23.4954,23.50661,23.516172,23.528938,23.542868,23.553648,23.5631,23.573824,23.582779,23.589384,23.594372,23.596287,23.596622,23.595612,23.59326,23.59093,23.58834,23.585884,23.583355,23.578476,23.57217,23.566017,23.560284,23.55283,23.544895,23.53816,23.530613,23.523497,23.518223,23.51247,23.504026,23.494602,23.485409,23.473991,23.46328,23.454632,23.444294,23.434847,23.428139,23.420465,23.413395,23.40849,23.403624,23.398579,23.394075,23.389503,23.383102,23.375397,23.367527,23.356873,23.344584,23.333612,23.3216,23.307957,23.2956,23.283066,23.26949,23.258648,23.250885,23.238977,23.224876,23.212229,23.196285,23.183023,23.176361,23.171135,23.17036,23.173428,23.178345,23.18395,23.187656,23.18955,23.191532,23.195248,23.200756,23.21167,23.22622,23.238657,23.251095,23.259796,23.261982,23.260578,23.25484,23.24919,23.247492,23.249,23.255869,23.265465,23.282806,23.305693,23.325405,23.343773,23.362816,23.37798,23.388737,23.39949,23.409025,23.417828,23.429068,23.4388,23.444586,23.448177,23.448162,23.446278,23.44631,23.441257,23.43113,23.421068,23.403484,23.381487,23.360168,23.335253,23.313011,23.297329,23.280472,23.261707,23.243055,23.217659,23.183487,23.150444,23.12046,23.084938,23.050915,23.021452,22.983541,22.938053,22.893808,22.84018,22.781055,22.73175,22.68156,22.625088,22.575085,22.530048,22.477737,22.430115,22.39175,22.346998,22.3037,22.26973,22.231667,22.191273,22.158247,22.128513,22.096107,22.0691,22.048367,22.026348,22.008938,21.996971,21.987326,21.98428,21.986542,21.992908,22.005325,22.018375,22.028624,22.040295,22.05061,22.058844,22.066536,22.071323,22.073765,22.074425,22.07407,22.07437,22.076036,22.081066,22.088314,22.097134,22.107159,22.114777,22.119877,22.124653,22.12748,22.12859,22.12843,22.125904,22.121986,22.115734,22.10836,22.102322,22.09642,22.08889,22.080065,22.070293,22.056519,22.04144,22.028954,22.015705,22.006039,22.00235,22.002037,22.00373,22.004644,22.00388,21.998749,21.989674,21.980194,21.967224,21.952953,21.940903,21.92511,21.905262,21.886372
24.632454,24.609776,24.59008,24.565948,24.540962,24.520397,24.497383,24.47302,24.45287,24.43314,24.410986,24.391483,24.374687,24.354837,24.336395,24.321766,24.304642,24.287632,24.274048,24.25886,24.241776,24.22652,24.211288,24.193192,24.176308,24.161379,24.143055,24.125046,24.110168,24.092836,24.075306,24.061203,24.04631,24.030926,24.018383,24.006699,23.99319,23.980816,23.970276,23.95738,23.944538,23.933865,23.920885,23.906715,23.894566,23.88107,23.865604,23.851757,23.838709,23.82289,23.807884,23.79504,23.779367,23.763824,23.75121,23.736584,23.721361,23.708767,23.695206,23.67936,23.664658,23.65065,23.632343,23.612753,23.5946,23.569681,23.54033,23.513273,23.478855,23.438423,23.402752,23.365387,23.32481,23.291925,23.264801,23.237015,23.216675,23.203928,23.19104,23.180943,23.17408,23.16528,23.154192,23.143145,23.130537,23.113523,23.096743,23.082283,23.065054,23.049362,23.0373,23.024872,23.014818,23.00829,23.00193,22.998058,22.997868,23.000084,23.006226,23.014278,23.021824,23.030704,23.03883,23.045147,23.052923,23.06166,23.069618,23.079712,23.091516,23.10182,23.111809,23.12325,23.133003,23.140696,23.14853,23.154545,23.158657,23.16072,23.160158,23.158497,23.155928,23.153606,23.1525,23.15161,23.15032,23.148605,23.146702,23.143658,23.1398,23.136208,23.132118,23.128355,23.12563,23.122269,23.115803,23.107395,23.098633,23.08696,23.075218,23.065285,23.052803,23.040623,23.031431,23.020775,23.010593,23.003372,22.996723,22.990719,22.986263,22.982195,22.976643,22.969719,22.962324,22.951918,22.939589,22.928478,22.916386,22.902931,22.89111,22.879616,22.867731,22.858599,22.852364,22.841335,22.82645,22.811829,22.79264,22.775894,22.766956,22.760645,22.759857,22.763275,22.768406,22.773933,22.776827,22.777184,22.776144,22.776165,22.778603,22.786327,22.798323,22.809208,22.820469,22.827913,22.829037,22.827038,22.823412,22.82084,22.820005,22.8213,22.82608,22.83258,22.843872,22.860617,22.877268,22.89505,22.913586,22.927246,22.93639,22.945896,22.95562,22.965736,22.980358,22.9951,23.00563,23.014126,23.019106,23.0215,23.025043,23.028372,23.0301,23.031727,23.027222,23.015574,23.001616,22.9826,22.964046,22.951122,22.937931,22.925594,22.915401,22.902777,22.885357,22.868034,22.853012,22.835789,22.818422,22.80153,22.779882,22.751183,22.720316,22.680065,22.632988,22.592283,22.550049,22.500229,22.453873,22.410969,22.359373,22.310799,22.27103,22.223902,22.177902,22.141928,22.101965,22.05951,22.024334,21.991657,21.955158,21.924011,21.899517,21.872797,21.850834,21.835283,21.820263,21.810427,21.806328,21.804749,21.807426,21.811691,21.813818,21.816307,21.818764,21.820782,21.821943,21.821072,21.818935,21.814209,21.807909,21.802816,21.797949,21.795597,21.796757,21.800121,21.805086,21.809273,21.811832,21.813702,21.813934,21.813103,21.811638,21.808563,21.804485,21.798409,21.791012,21.784702,21.77883,21.771206,21.76206,21.751886,21.7372,21.720732,21.706863,21.692001,21.68054,21.675259,21.673143,21.672398,21.670866,21.667881,21.66024,21.649002,21.637825,21.622658,21.606094,21.592167,21.574112,21.55223,21.532173
24.286636,24.264908,24.246,24.222801,24.198744,24.178928,24.156715,24.133198,24.11375,24.094677,24.07323,24.054314,24.037964,24.018593,24.000547,23.986198,23.969372,23.952637,23.93927,23.924364,23.907654,23.892788,23.877974,23.860382,23.84396,23.829449,23.811638,23.794151,23.779713,23.762924,23.745934,23.732239,23.717743,23.702682,23.690302,23.678675,23.665112,23.652508,23.641586,23.628033,23.614326,23.602821,23.588821,23.573586,23.560608,23.5463,23.530079,23.51569,23.502174,23.485968,23.47079,23.457933,23.442438,23.427267,23.415035,23.400887,23.386227,23.374142,23.36118,23.346266,23.332737,23.320091,23.303963,23.287092,23.271626,23.250639,23.226006,23.2032,23.174072,23.13934,23.108135,23.074883,23.03774,23.006538,22.979992,22.951635,22.929451,22.914433,22.89853,22.884888,22.874804,22.862709,22.848545,22.83535,22.820919,22.802975,22.786118,22.771414,22.754103,22.736698,22.720604,22.703178,22.688042,22.677612,22.666458,22.657433,22.653057,22.65109,22.652483,22.656422,22.660576,22.665762,22.670753,22.674736,22.6798,22.686035,22.692251,22.700771,22.711603,22.721636,22.731499,22.742476,22.752079,22.760712,22.76987,22.777332,22.782688,22.786947,22.789333,22.79035,22.79058,22.791069,22.792027,22.792656,22.793327,22.793682,22.793642,22.792568,22.790005,22.7869,22.782753,22.777454,22.772411,22.766876,22.75968,22.752056,22.74385,22.732695,22.72098,22.710629,22.69675,22.682085,22.67023,22.65627,22.642702,22.633055,22.624277,22.616322,22.61062,22.60596,22.600025,22.593075,22.585855,22.576197,22.565441,22.556171,22.545876,22.53452,22.524689,22.515144,22.505095,22.496964,22.490437,22.481678,22.471771,22.462412,22.45026,22.440174,22.435415,22.432655,22.433311,22.436073,22.439716,22.443436,22.445398,22.445827,22.445713,22.446539,22.448841,22.454292,22.462627,22.470528,22.478828,22.48552,22.488503,22.489569,22.488873,22.487698,22.487434,22.488617,22.492445,22.497753,22.507328,22.520119,22.531404,22.543339,22.555153,22.563244,22.568085,22.573107,22.578932,22.58554,22.596617,22.609825,22.620995,22.632748,22.643772,22.652208,22.661549,22.670122,22.67479,22.676895,22.674164,22.66658,22.657707,22.647131,22.638603,22.634022,22.63065,22.628567,22.626762,22.623196,22.6173,22.611332,22.606855,22.602018,22.596546,22.590244,22.581844,22.56772,22.549828,22.523426,22.48941,22.458313,22.425974,22.386028,22.346832,22.309307,22.262396,22.216587,22.178394,22.132286,22.08661,22.050781,22.012405,21.970066,21.932798,21.897652,21.859829,21.828503,21.80294,21.774406,21.749737,21.731092,21.711367,21.695318,21.685226,21.676247,21.669865,21.665905,21.660261,21.653828,21.648382,21.64381,21.63753,21.629793,21.622044,21.61079,21.597672,21.586796,21.575352,21.565905,21.561256,21.559277,21.558422,21.557732,21.556414,21.553772,21.549911,21.546017,21.541431,21.53718,21.534103,21.529629,21.523632,21.51786,21.512629,21.505356,21.496174,21.485933,21.47076,21.45325,21.438179,21.421547,21.407562,21.399658,21.394344,21.38936,21.384045,21.378365,21.368393,21.355549,21.343052,21.326256,21.308088,21.292898,21.273228,21.249771,21.228659
23.977486,23.956532,23.938278,23.91584,23.892532,23.87331,23.851723,23.828833,23.809898,23.791313,23.770378,23.751846,23.73579,23.71671,23.69885,23.684587,23.667816,23.651104,23.637758,23.622896,23.606323,23.591671,23.577131,23.559933,23.54393,23.5298,23.512503,23.495548,23.481564,23.465317,23.448853,23.435516,23.421328,23.406456,23.394104,23.382381,23.368538,23.355509,23.34412,23.329777,23.315084,23.302713,23.28767,23.271435,23.257765,23.242847,23.226145,23.211498,23.197838,23.181576,23.166473,23.15372,23.138485,23.123627,23.11163,23.097698,23.083168,23.071129,23.058197,23.04343,23.030273,23.018206,23.003338,22.988377,22.974983,22.957275,22.93684,22.917984,22.893784,22.86449,22.837666,22.808577,22.775126,22.746052,22.72068,22.692638,22.669605,22.653212,22.635332,22.61943,22.607475,22.593555,22.577888,22.56372,22.548357,22.529015,22.510181,22.492977,22.471262,22.4497,22.43168,22.411171,22.392382,22.378904,22.365242,22.353714,22.347,22.342556,22.341,22.342304,22.34425,22.347095,22.350193,22.352833,22.356022,22.360397,22.365364,22.372982,22.383047,22.392395,22.401402,22.411911,22.421387,22.429546,22.43867,22.446793,22.453106,22.459024,22.463757,22.46703,22.469822,22.473202,22.47673,22.480003,22.483843,22.487011,22.489204,22.490437,22.489517,22.487268,22.483631,22.478203,22.472658,22.466412,22.45818,22.449532,22.440435,22.428123,22.41527,22.403984,22.389046,22.373556,22.361275,22.347479,22.334688,22.32586,22.317547,22.309649,22.303898,22.299667,22.294395,22.288296,22.282055,22.273428,22.263676,22.255293,22.246204,22.2363,22.227701,22.219276,22.210318,22.203075,22.197258,22.190447,22.183767,22.177929,22.170317,22.164185,22.161554,22.16002,22.160934,22.163425,22.1665,22.169283,22.170238,22.169746,22.168427,22.167751,22.168468,22.171751,22.177681,22.183662,22.190128,22.195621,22.198378,22.199753,22.199804,22.199339,22.199467,22.20072,22.20402,22.208458,22.216555,22.227318,22.236694,22.246391,22.255318,22.260647,22.263008,22.264988,22.267881,22.27191,22.280184,22.29139,22.301605,22.313032,22.32476,22.334408,22.345318,22.35612,22.363224,22.368023,22.369385,22.366562,22.362242,22.357445,22.354757,22.354837,22.356924,22.360863,22.364437,22.367115,22.369095,22.370834,22.37383,22.378548,22.382814,22.385208,22.38672,22.384026,22.37767,22.365078,22.345253,22.324863,22.30281,22.274035,22.244097,22.213875,22.174137,22.133488,22.098742,22.055908,22.012718,21.978561,21.940876,21.899017,21.862541,21.82853,21.791391,21.759806,21.73357,21.703598,21.676582,21.655283,21.631252,21.609394,21.5937,21.577805,21.56297,21.55132,21.538284,21.523205,21.509893,21.49858,21.484451,21.469337,21.455559,21.437403,21.417362,21.400888,21.383312,21.367432,21.357594,21.350863,21.344875,21.339933,21.335262,21.328768,21.321522,21.3152,21.307865,21.3013,21.296879,21.291279,21.285156,21.280113,21.275604,21.268757,21.259544,21.24921,21.23361,21.215302,21.199348,21.181362,21.165194,21.154873,21.146673,21.13905,21.132093,21.124832,21.113422,21.099545,21.086172,21.068224,21.048817,21.032597,21.01154,20.98677,20.964874
23.615208,23.595215,23.577812,23.556393,23.534092,23.51566,23.494896,23.472782,23.454395,23.436312,23.415852,23.397642,23.381786,23.362844,23.34501,23.330708,23.313824,23.296974,23.283535,23.268635,23.25216,23.237736,23.22351,23.206799,23.191345,23.177761,23.161171,23.144932,23.131529,23.115936,23.100021,23.08702,23.073074,23.058277,23.04582,23.033892,23.019653,23.0061,22.994164,22.978962,22.963276,22.95005,22.934021,22.91689,22.902649,22.887287,22.87034,22.855665,22.842064,22.825996,22.81115,22.798649,22.783741,22.769186,22.757376,22.743576,22.729061,22.71696,22.703945,22.689182,22.676245,22.66462,22.650818,22.637592,22.626158,22.611609,22.595333,22.580439,22.561296,22.53772,22.515612,22.491121,22.462006,22.43576,22.412254,22.38537,22.362278,22.345177,22.326084,22.308617,22.295303,22.280174,22.26368,22.249147,22.233515,22.213663,22.19379,22.17503,22.15033,22.125463,22.10519,22.08144,22.059017,22.042572,22.025978,22.011316,22.001762,21.994373,21.98924,21.987206,21.986229,21.985619,21.985435,21.985397,21.985529,21.986992,21.989784,21.995052,22.003428,22.012383,22.021843,22.033897,22.045074,22.054121,22.064014,22.07278,22.079712,22.086891,22.093475,22.098553,22.103474,22.109322,22.115068,22.120659,22.12724,22.13278,22.136791,22.13994,22.140478,22.139101,22.136152,22.131027,22.125484,22.119099,22.110556,22.10162,22.092379,22.079967,22.067066,22.05563,22.041714,22.028114,22.017487,22.00571,21.99482,21.987186,21.979855,21.972635,21.967113,21.962795,21.957504,21.951683,21.94598,21.938131,21.929289,21.921692,21.913597,21.904926,21.8975,21.890293,21.882856,21.87717,21.872921,21.86825,21.86399,21.860462,21.855783,21.852238,21.851093,21.850468,21.851555,21.85373,21.856236,21.858173,21.858282,21.857033,21.854652,21.852577,21.851755,21.852892,21.856354,21.860283,21.864735,21.868752,21.870987,21.872372,21.872972,21.873203,21.873802,21.875332,21.8784,21.882248,21.889093,21.898098,21.905895,21.913803,21.92054,21.923885,21.924568,21.924412,21.925041,21.926895,21.932522,21.941422,21.950138,21.960407,21.971676,21.981411,21.992641,22.004314,22.012787,22.019424,22.02398,22.02518,22.024857,22.025236,22.027843,22.032135,22.039053,22.04821,22.056372,22.064348,22.073011,22.081299,22.090618,22.103397,22.115921,22.125751,22.135986,22.142822,22.145386,22.14468,22.13894,22.130688,22.120373,22.10435,22.08514,22.064003,22.034,22.00151,21.97316,21.93657,21.898857,21.869152,21.834927,21.79702,21.764652,21.734112,21.699947,21.670013,21.64469,21.61506,21.587315,21.564651,21.537804,21.511524,21.491276,21.469574,21.447388,21.42887,21.409168,21.386135,21.365444,21.347721,21.325977,21.30354,21.283699,21.258572,21.231434,21.209114,21.185097,21.162308,21.146717,21.134579,21.12261,21.112593,21.103836,21.092651,21.081242,21.071873,21.061007,21.051212,21.044603,21.037071,21.029587,21.023907,21.018948,21.011341,21.001213,20.990173,20.973463,20.953737,20.936445,20.916689,20.898052,20.885197,20.874237,20.864016,20.855335,20.846573,20.833942,20.819363,20.80547,20.78685,20.76676,20.74998,20.728119,20.702587,20.680265
23.267563,23.248634,23.23219,23.211935,23.190804,23.173294,23.153479,23.13221,23.114376,23.09675,23.076668,23.058659,23.042877,23.023932,23.005983,22.991522,22.974403,22.957296,22.943695,22.928677,22.912254,22.89803,22.884098,22.86785,22.852951,22.83994,22.824085,22.808565,22.795738,22.780727,22.765236,22.752422,22.738539,22.723606,22.710873,22.69862,22.683918,22.669836,22.657387,22.641487,22.625065,22.611248,22.5946,22.577011,22.562572,22.547173,22.530432,22.516108,22.502914,22.487389,22.473066,22.460993,22.446527,22.432293,22.420654,22.406942,22.392376,22.380161,22.367022,22.352146,22.339224,22.327763,22.31448,22.302212,22.291935,22.279354,22.2658,22.253605,22.238062,22.218765,22.200367,22.179659,22.154411,22.131031,22.109707,22.084682,22.06253,22.045742,22.026733,22.009048,21.995441,21.980234,21.964031,21.950039,21.935135,21.916237,21.8971,21.878696,21.85397,21.82837,21.806923,21.781504,21.75713,21.73901,21.72031,21.703049,21.691017,21.68098,21.672428,21.66697,21.66283,21.658203,21.653902,21.650333,21.646496,21.644058,21.643717,21.645344,21.65054,21.657904,21.666784,21.67911,21.69121,21.701336,21.712376,21.722105,21.72977,21.738178,21.746328,21.752804,21.759348,21.766975,21.774216,21.781258,21.789516,21.796398,21.801247,21.805206,21.806416,21.805588,21.803265,21.798729,21.793617,21.787685,21.779762,21.77156,21.763168,21.751966,21.740562,21.730698,21.71958,21.709295,21.701294,21.692333,21.683746,21.677402,21.671213,21.664879,21.659634,21.654917,21.649063,21.642857,21.636992,21.629232,21.620739,21.613518,21.605904,21.597996,21.591475,21.585342,21.579414,21.575329,21.572649,21.569637,21.566708,21.56417,21.560717,21.558292,21.557882,21.557796,21.558956,21.560802,21.562803,21.564142,21.56377,21.562153,21.559208,21.556242,21.554344,21.553823,21.555256,21.557465,21.560188,21.562883,21.564583,21.565842,21.566761,21.567501,21.568459,21.570232,21.573181,21.576633,21.582474,21.590034,21.59658,21.603243,21.608772,21.611292,21.611557,21.61084,21.610619,21.611422,21.615437,21.62257,21.629906,21.638842,21.649014,21.658009,21.668446,21.679512,21.68789,21.694836,21.700588,21.703842,21.705862,21.709095,21.714518,21.721073,21.730658,21.742771,21.753578,21.764639,21.777079,21.788849,21.801323,21.817856,21.834084,21.84728,21.861893,21.873596,21.880518,21.886562,21.890339,21.891449,21.890709,21.885658,21.87624,21.86396,21.844234,21.821146,21.800465,21.772736,21.743288,21.719727,21.691597,21.660458,21.634256,21.609234,21.580566,21.554739,21.532513,21.50595,21.480305,21.45884,21.43254,21.40563,21.384094,21.360363,21.33503,21.313229,21.290218,21.263012,21.23825,21.216904,21.1907,21.163763,21.140083,21.11042,21.07843,21.05191,21.023127,20.994904,20.974506,20.957695,20.940388,20.9257,20.913105,20.89754,20.882164,20.869751,20.855335,20.84209,20.832916,20.822994,20.813095,20.805431,20.79878,20.789185,20.777271,20.764883,20.74644,20.72486,20.705948,20.684235,20.663242,20.648222,20.63512,20.62283,20.61274,20.60297,20.589712,20.575016,20.561169,20.54268,20.522793,20.506207,20.484505,20.459179,20.437077
22.985336,22.967394,22.951834,22.932661,22.912628,22.89599,22.877071,22.856586,22.839262,22.822033,22.802246,22.784359,22.768616,22.749634,22.73156,22.716923,22.699554,22.682205,22.668446,22.65329,22.636868,22.622787,22.609055,22.593151,22.578686,22.56612,22.55083,22.535866,22.523483,22.508892,22.493643,22.480879,22.466919,22.451712,22.43863,22.426003,22.410831,22.39629,22.383434,22.367031,22.35014,22.335978,22.319046,22.301365,22.287022,22.271877,22.255642,22.241905,22.229332,22.214544,22.200874,22.189323,22.175367,22.16148,22.150038,22.136421,22.121801,22.109465,22.096199,22.08114,22.068068,22.05653,22.043257,22.031197,22.021278,22.009449,21.997108,21.986233,21.972609,21.955824,21.939774,21.921608,21.899185,21.878128,21.858751,21.835653,21.814863,21.798939,21.780792,21.763763,21.750603,21.73605,21.720795,21.707829,21.694107,21.676815,21.659222,21.642118,21.618782,21.594229,21.57343,21.5485,21.524204,21.505854,21.486652,21.468315,21.454884,21.443165,21.43215,21.423977,21.417225,21.40919,21.401337,21.394722,21.387135,21.380733,21.37713,21.375175,21.376408,21.380348,21.38586,21.394688,21.40474,21.41449,21.426044,21.437021,21.44587,21.455889,21.465845,21.473797,21.481937,21.491165,21.499584,21.507576,21.516895,21.524506,21.52958,21.53356,21.534771,21.534128,21.53218,21.528168,21.523531,21.51817,21.511063,21.503801,21.496475,21.486702,21.477303,21.470123,21.461647,21.453556,21.447273,21.440403,21.433819,21.428812,21.423677,21.417992,21.412868,21.40804,21.401838,21.395174,21.388916,21.380789,21.3721,21.364866,21.35739,21.349968,21.344118,21.338758,21.333843,21.330688,21.328749,21.326687,21.324753,21.32309,21.320723,21.319263,21.319424,21.319681,21.320812,21.322369,21.323982,21.324915,21.324265,21.322449,21.319172,21.315624,21.31298,21.311283,21.311287,21.312294,21.313812,21.315592,21.316902,21.318003,21.319029,21.319992,21.321096,21.322886,21.325562,21.328579,21.333475,21.339783,21.345312,21.351036,21.355864,21.35815,21.358616,21.358139,21.357883,21.358387,21.361645,21.367706,21.374077,21.381954,21.391047,21.399128,21.408485,21.418413,21.426018,21.432508,21.438278,21.4422,21.445297,21.449314,21.455196,21.462141,21.47243,21.48561,21.497543,21.510021,21.523964,21.536741,21.549791,21.5666,21.582886,21.596146,21.611313,21.624573,21.63364,21.643064,21.651785,21.658028,21.663223,21.665989,21.664326,21.659283,21.64833,21.633415,21.619125,21.60054,21.579792,21.561638,21.539768,21.515106,21.49428,21.47511,21.452744,21.431946,21.413792,21.391651,21.369728,21.351053,21.327587,21.302864,21.28263,21.259914,21.234972,21.212997,21.189644,21.161682,21.13594,21.11363,21.086084,21.057579,21.032421,21.00085,20.966541,20.937828,20.906384,20.874798,20.851175,20.831146,20.81002,20.79189,20.776428,20.757622,20.739244,20.724411,20.707138,20.690948,20.679417,20.66713,20.654785,20.645103,20.636606,20.624886,20.611109,20.597265,20.577095,20.553787,20.53343,20.509958,20.486979,20.470243,20.455458,20.441692,20.430765,20.42052,20.407112,20.392654,20.379158,20.361221,20.341988,20.325954,20.304903,20.280308,20.2588
22.667221,22.650463,22.635979,22.618153,22.599503,22.583965,22.5662,22.54676,22.530128,22.513485,22.494171,22.476543,22.460941,22.442013,22.423866,22.409119,22.39157,22.37402,22.360123,22.344833,22.328384,22.314423,22.300873,22.28531,22.271278,22.259193,22.244509,22.230133,22.218222,22.204023,22.188938,22.176125,22.16195,22.146292,22.1327,22.119568,22.103771,22.088654,22.0753,22.058323,22.040943,22.026447,22.009243,21.991488,21.977264,21.962383,21.946663,21.933556,21.92165,21.907673,21.894714,21.88372,21.870285,21.856709,21.845383,21.831776,21.817041,21.80455,21.791134,21.775883,21.762638,21.750954,21.737564,21.725552,21.71582,21.70448,21.693077,21.68333,21.671425,21.657028,21.643345,21.62782,21.608528,21.590214,21.573206,21.552612,21.533787,21.519234,21.502518,21.48669,21.474415,21.460987,21.447128,21.435522,21.423382,21.408146,21.392567,21.377285,21.35606,21.333324,21.313835,21.290197,21.266733,21.248676,21.229446,21.210346,21.195618,21.182198,21.168507,21.15726,21.147474,21.13547,21.123466,21.11328,21.10139,21.09049,21.083172,21.077099,21.073849,21.074017,21.076,21.081121,21.088413,21.096214,21.107004,21.11832,21.127476,21.137638,21.147926,21.15646,21.165321,21.175352,21.184204,21.191921,21.200865,21.208376,21.21362,21.218138,21.220299,21.220694,21.220226,21.217995,21.214943,21.211407,21.206615,21.201704,21.19696,21.19001,21.183006,21.177887,21.171753,21.165966,21.161636,21.15709,21.152733,21.149216,21.145243,21.140263,21.135218,21.130081,21.12323,21.115786,21.108833,21.09998,21.09087,21.0836,21.076263,21.069427,21.064402,21.05997,21.056198,21.054031,21.052849,21.051662,21.050571,21.049643,21.048218,21.047577,21.048174,21.048649,21.049606,21.050749,21.051846,21.05225,21.051245,21.049198,21.045628,21.04159,21.038296,21.035564,21.034292,21.034218,21.034634,21.035492,21.036297,21.037071,21.03791,21.038788,21.039799,21.041323,21.043503,21.045956,21.049747,21.054632,21.058998,21.063768,21.0674,21.06845,21.067902,21.066309,21.064991,21.064472,21.066198,21.070513,21.075394,21.0817,21.089153,21.095783,21.103441,21.11167,21.118149,21.123894,21.129166,21.132977,21.136162,21.140614,21.14711,21.154514,21.165264,21.17892,21.191296,21.204378,21.2191,21.232544,21.246056,21.263226,21.279812,21.293446,21.3093,21.32386,21.33458,21.3466,21.359077,21.369188,21.378841,21.3877,21.392445,21.393684,21.391153,21.38464,21.377129,21.365414,21.351551,21.339901,21.326447,21.31139,21.298481,21.286572,21.272114,21.258097,21.24567,21.230064,21.213993,21.199905,21.181541,21.16143,21.144524,21.125141,21.103172,21.083271,21.061817,21.0357,21.01132,20.99007,20.963528,20.935604,20.91066,20.878986,20.844027,20.81436,20.78149,20.747665,20.721596,20.698986,20.674665,20.653553,20.63557,20.61385,20.592674,20.575514,20.555424,20.536184,20.522089,20.507204,20.492096,20.480064,20.46939,20.4552,20.439274,20.423733,20.40157,20.376335,20.35442,20.329037,20.30397,20.285522,20.26912,20.253975,20.242298,20.23171,20.21827,20.204105,20.191006,20.173672,20.155104,20.139584,20.119184,20.095337,20.074451
22.336401,22.320953,22.307682,22.291393,22.27435,22.260113,22.243725,22.225601,22.209911,22.194067,22.175484,22.158348,22.143078,22.124424,22.106415,22.09171,22.074165,22.056576,22.04263,22.027279,22.010828,21.996948,21.98354,21.968246,21.954567,21.942877,21.928719,21.914843,21.903297,21.889355,21.874285,21.861305,21.846788,21.830584,21.816427,21.802753,21.786312,21.770638,21.75684,21.73939,21.721645,21.706934,21.689566,21.671825,21.657753,21.64313,21.627857,21.615284,21.60395,21.590681,21.578335,21.567799,21.554754,21.541351,21.530045,21.5164,21.501572,21.489021,21.475595,21.46035,21.447083,21.43534,21.421804,21.409634,21.399813,21.38847,21.377377,21.36818,21.357254,21.344456,21.332527,21.31912,21.30252,21.286736,21.272015,21.253956,21.23722,21.224205,21.209139,21.194786,21.183636,21.171574,21.15934,21.1493,21.138958,21.126125,21.113003,21.100048,21.081741,21.061773,21.044455,21.02317,21.001598,20.98464,20.966171,20.946995,20.9314,20.916592,20.900425,20.886152,20.87331,20.857246,20.84097,20.827103,20.81082,20.795326,20.784191,20.77386,20.765896,20.762024,20.760212,20.761215,20.765123,20.770157,20.778736,20.789091,20.798027,20.808165,20.81836,20.82658,20.835365,20.84536,20.853973,20.861025,20.868702,20.874939,20.879393,20.883438,20.885736,20.886612,20.88705,20.886307,20.884844,20.883106,20.880562,20.877861,20.875301,20.871498,20.867628,20.86477,20.861496,20.85865,20.856731,20.854866,20.852959,20.85104,20.848257,20.844013,20.839153,20.833935,20.826847,20.819183,20.812136,20.803402,20.794422,20.787106,20.780033,20.77395,20.769892,20.766514,20.763912,20.76263,20.762053,20.761417,20.760742,20.760162,20.759218,20.75898,20.759758,20.760265,20.760971,20.761711,20.76237,20.762405,20.7612,20.759016,20.755104,20.75047,20.74649,20.742702,20.74013,20.738934,20.738182,20.737963,20.738043,20.738216,20.738434,20.738749,20.739218,20.739859,20.74089,20.742222,20.744259,20.747002,20.74955,20.752495,20.754423,20.754353,20.7531,20.75087,20.74894,20.747765,20.748379,20.75122,20.75468,20.758907,20.763939,20.76855,20.773903,20.779747,20.784466,20.7888,20.792751,20.795662,20.798206,20.802298,20.808695,20.816002,20.826502,20.839798,20.851856,20.864677,20.879215,20.892532,20.905846,20.922634,20.938854,20.952316,20.968016,20.98272,20.993874,21.006687,21.02039,21.031797,21.043049,21.054367,21.062098,21.066608,21.06904,21.068283,21.066072,21.060715,21.054142,21.049442,21.04462,21.039394,21.034763,21.03059,21.025005,21.019064,21.01367,21.006424,20.998259,20.990622,20.979893,20.967339,20.956356,20.943413,20.928053,20.913486,20.897238,20.876925,20.85757,20.840584,20.818907,20.795273,20.773535,20.745163,20.712845,20.684772,20.653122,20.619568,20.59288,20.569313,20.543451,20.520666,20.501213,20.477682,20.454632,20.43583,20.413689,20.39204,20.375753,20.35857,20.340881,20.326561,20.313667,20.296942,20.278774,20.26138,20.237087,20.209896,20.186474,20.159306,20.132446,20.112656,20.095104,20.079086,20.067043,20.056408,20.043142,20.0293,20.016533,19.999716,19.981667,19.966492,19.946625,19.923431,19.903103
22.053703,22.039373,22.027142,22.012157,21.9965,21.983408,21.968254,21.951368,21.93663,21.9216,21.903831,21.887323,21.872517,21.854328,21.836657,21.822163,21.804832,21.7874,21.77353,21.75824,21.741848,21.728046,21.71474,21.699606,21.686136,21.674679,21.660849,21.647278,21.63593,21.622099,21.606976,21.593838,21.579044,21.562431,21.547882,21.53384,21.516987,21.500969,21.486927,21.469242,21.45136,21.436594,21.419216,21.401567,21.387651,21.37323,21.358253,21.34599,21.335003,21.322163,21.310179,21.2999,21.287022,21.27365,21.262302,21.248592,21.23373,21.221199,21.20787,21.192759,21.179573,21.167856,21.15419,21.141764,21.131687,21.120037,21.108776,21.099613,21.08896,21.076862,21.06586,21.053707,21.03883,21.024755,21.01167,20.995453,20.980282,20.968437,20.954649,20.941475,20.93125,20.920284,20.909363,20.900599,20.891716,20.88089,20.869884,20.858986,20.843372,20.826097,20.810978,20.792168,20.772764,20.757233,20.73995,20.721298,20.705475,20.689983,20.672289,20.655998,20.641068,20.622173,20.602879,20.586414,20.56702,20.548212,20.53426,20.520714,20.509062,20.501915,20.496939,20.494362,20.495224,20.49785,20.503664,20.512074,20.520288,20.530346,20.54042,20.548012,20.556377,20.565796,20.573734,20.580282,20.586683,20.591198,20.594173,20.59666,20.59785,20.598146,20.598188,20.597612,20.596699,20.595547,20.593807,20.59193,20.590015,20.588142,20.58687,20.586021,20.58529,20.58503,20.585176,20.58551,20.585587,20.584976,20.583208,20.579712,20.575287,20.570427,20.563797,20.556725,20.550343,20.542667,20.534588,20.52763,20.521229,20.516151,20.513126,20.51083,20.50932,20.508774,20.508638,20.508347,20.507889,20.507488,20.506775,20.50667,20.507412,20.507736,20.507957,20.508083,20.508102,20.507502,20.505844,20.503307,20.498814,20.493458,20.488823,20.484087,20.480392,20.478226,20.476418,20.475151,20.474457,20.473927,20.473402,20.473036,20.472885,20.472603,20.472486,20.472713,20.473099,20.473793,20.474522,20.47535,20.475664,20.475082,20.47385,20.47183,20.469975,20.468662,20.46878,20.470694,20.473125,20.475487,20.478243,20.481033,20.484325,20.487953,20.490887,20.493664,20.496113,20.49798,20.49983,20.50308,20.508617,20.515202,20.524794,20.53709,20.548326,20.560326,20.574005,20.586548,20.59906,20.614758,20.629921,20.642593,20.657337,20.671227,20.681877,20.69413,20.707264,20.718224,20.72911,20.740273,20.748287,20.753471,20.757366,20.759125,20.759882,20.760159,20.76044,20.761147,20.762318,20.76366,20.764793,20.766521,20.768108,20.768948,20.76957,20.769684,20.768723,20.767094,20.76373,20.75879,20.753994,20.747993,20.740108,20.731853,20.721897,20.708878,20.696108,20.684803,20.669865,20.65253,20.635765,20.612896,20.58561,20.561157,20.533009,20.502201,20.476948,20.454386,20.429173,20.406609,20.387268,20.363728,20.340471,20.321379,20.298786,20.276356,20.259169,20.240967,20.222004,20.20642,20.192188,20.173895,20.1543,20.135649,20.109962,20.081568,20.057276,20.029121,20.001358,19.980972,19.963009,19.946777,19.934748,19.924294,19.911264,19.897625,19.88498,19.868393,19.850533,19.83541,19.81575,19.792904,19.772907
21.791159,21.777763,21.766354,21.752417,21.737864,21.725683,21.711563,21.695744,21.681849,21.66761,21.650665,21.634808,21.62053,21.60291,21.585695,21.571512,21.554539,21.537395,21.52369,21.508553,21.492298,21.478596,21.465382,21.450375,21.437052,21.425743,21.41213,21.398764,21.387573,21.373852,21.358753,21.345575,21.330675,21.313866,21.29911,21.2849,21.267857,21.251682,21.237514,21.219748,21.201874,21.187172,21.1699,21.152428,21.138699,21.124504,21.109808,21.097813,21.087101,21.074593,21.062881,21.052788,21.040024,21.026646,21.015247,21.001446,20.98646,20.973824,20.960432,20.94524,20.93193,20.920017,20.906015,20.893194,20.882755,20.870672,20.859104,20.849855,20.83929,20.827667,20.817387,20.806225,20.792786,20.780186,20.768497,20.753922,20.740196,20.72945,20.716879,20.704842,20.695518,20.685589,20.67584,20.668152,20.660477,20.651237,20.641884,20.632622,20.619148,20.604061,20.590794,20.574127,20.5567,20.542564,20.526585,20.508823,20.493309,20.477802,20.459595,20.442417,20.42652,20.40628,20.385494,20.367691,20.346647,20.325918,20.31017,20.294443,20.280088,20.270384,20.262804,20.257088,20.255062,20.255226,20.258226,20.264103,20.270393,20.278572,20.287668,20.295223,20.303474,20.312088,20.31873,20.324203,20.329247,20.332466,20.334389,20.335709,20.335987,20.335758,20.335346,20.334444,20.33329,20.331757,20.329788,20.328068,20.326649,20.325443,20.32486,20.324726,20.324577,20.324913,20.325787,20.32705,20.328232,20.328613,20.327864,20.325436,20.321854,20.31768,20.311777,20.305326,20.299458,20.292332,20.285343,20.27994,20.275146,20.271759,20.270134,20.26928,20.269203,20.269615,20.269955,20.270355,20.270714,20.271057,20.271183,20.271519,20.272148,20.271915,20.27069,20.268951,20.266861,20.263748,20.260014,20.255928,20.250134,20.244007,20.238895,20.23358,20.229301,20.22665,20.224155,20.222052,20.22064,20.219467,20.218395,20.217787,20.217617,20.217484,20.217579,20.217922,20.218168,20.218327,20.218344,20.218182,20.217318,20.215744,20.213596,20.210497,20.207561,20.20521,20.203758,20.203897,20.204834,20.205986,20.207561,20.209146,20.211067,20.213139,20.214771,20.216423,20.217737,20.218712,20.219872,20.22215,20.226452,20.231792,20.239782,20.250233,20.259903,20.270334,20.282345,20.293446,20.304571,20.318544,20.332104,20.343517,20.356794,20.36943,20.3793,20.3908,20.40343,20.414265,20.425297,20.437223,20.446575,20.45339,20.460012,20.465092,20.46891,20.473297,20.47807,20.482506,20.487953,20.494091,20.49945,20.505455,20.512314,20.518227,20.52339,20.529152,20.533798,20.53688,20.539368,20.540596,20.540909,20.540695,20.53918,20.536476,20.532162,20.525898,20.519436,20.51366,20.505463,20.494709,20.483353,20.46673,20.44558,20.425879,20.40263,20.37635,20.354233,20.334318,20.311707,20.291164,20.27345,20.251717,20.230017,20.212048,20.190653,20.169151,20.152477,20.134768,20.11614,20.100636,20.086266,20.067783,20.048,20.029133,20.003262,19.974804,19.95055,19.922386,19.8946,19.874218,19.856308,19.840162,19.828234,19.817982,19.805086,19.791462,19.778807,19.76223,19.744307,19.729012,19.709305,19.686558,19.666733
21.489006,21.47651,21.46587,21.452879,21.439331,21.428005,21.414871,21.400146,21.387188,21.37387,21.357925,21.342922,21.329376,21.312588,21.296093,21.282448,21.266083,21.249483,21.236156,21.221382,21.205444,21.19196,21.178928,21.164104,21.15094,21.13977,21.126328,21.113144,21.102104,21.088531,21.073555,21.060472,21.045666,21.028908,21.014164,20.999977,20.982975,20.966856,20.952747,20.935122,20.917461,20.902962,20.885979,20.868835,20.855389,20.84149,20.827087,20.815311,20.804817,20.792545,20.781008,20.77101,20.758286,20.744858,20.73336,20.719421,20.704275,20.691502,20.677967,20.66259,20.64906,20.636852,20.622437,20.609175,20.598358,20.585804,20.57386,20.564445,20.553856,20.542543,20.532822,20.52246,20.510223,20.498877,20.488361,20.47514,20.46258,20.452686,20.441029,20.429817,20.421137,20.411894,20.402916,20.395964,20.389128,20.381042,20.37296,20.365002,20.353394,20.340374,20.328947,20.31456,20.29945,20.28712,20.273045,20.257061,20.242775,20.228275,20.21093,20.194286,20.17878,20.158909,20.138327,20.120598,20.099483,20.07825,20.061672,20.044643,20.02821,20.016197,20.006088,19.996944,19.991392,19.988373,19.98739,19.989307,19.992352,19.996992,20.00309,20.00874,20.01498,20.021643,20.026722,20.030632,20.03373,20.035069,20.035385,20.034748,20.033207,20.031658,20.029848,20.027718,20.025764,20.023685,20.021467,20.019753,20.018452,20.017273,20.016676,20.016636,20.016813,20.017746,20.019258,20.021301,20.02345,20.024746,20.024998,20.023758,20.021248,20.018024,20.013252,20.00792,20.003052,19.997192,19.991882,19.988281,19.985386,19.983871,19.983656,19.98407,19.985191,19.986506,19.987625,19.988853,19.98991,19.990791,19.99146,19.992046,19.992577,19.991924,19.989746,19.986824,19.983343,19.978502,19.973255,19.96797,19.960993,19.953964,19.948189,19.942118,19.937107,19.933876,19.930706,19.92784,19.925768,19.923977,19.92226,19.921192,19.920734,19.92041,19.920437,19.920757,19.920883,19.92077,19.920456,19.919868,19.918503,19.916506,19.913975,19.910414,19.906952,19.904024,19.901646,19.90062,19.900484,19.900627,19.901115,19.901627,19.902308,19.902977,19.90343,19.90403,19.904243,19.90429,19.90467,19.905796,19.908554,19.912317,19.918243,19.926292,19.933907,19.942247,19.952068,19.961346,19.970736,19.982655,19.994339,20.004265,20.015781,20.02686,20.035675,20.046057,20.05776,20.068108,20.078922,20.09111,20.101238,20.109121,20.117678,20.125164,20.13118,20.13844,20.146282,20.153223,20.161556,20.171017,20.179401,20.188538,20.199402,20.209293,20.218079,20.228413,20.237698,20.244732,20.252228,20.258854,20.263706,20.268728,20.273191,20.275894,20.27722,20.277994,20.278358,20.278694,20.27818,20.275293,20.27068,20.262177,20.249514,20.23676,20.220993,20.202263,20.185959,20.171246,20.15416,20.138256,20.12437,20.107086,20.089495,20.074703,20.056908,20.038784,20.024555,20.009365,19.993172,19.979424,19.966398,19.949348,19.930822,19.912983,19.888416,19.861372,19.838364,19.81157,19.78502,19.765465,19.74837,19.732872,19.721304,19.711376,19.69863,19.684904,19.672058,19.655289,19.637043,19.621319,19.601246,19.578274,19.558378
21.204212,21.192394,21.182304,21.169952,21.157078,21.146343,21.133932,21.120083,21.107933,21.095434,21.080437,21.066282,21.053493,21.03759,21.021912,21.008911,20.993294,20.977406,20.964611,20.950367,20.93492,20.921783,20.909035,20.894459,20.881454,20.870396,20.857069,20.844013,20.833092,20.819683,20.80493,20.792076,20.777561,20.76112,20.746634,20.732689,20.715982,20.700144,20.686281,20.669003,20.651726,20.63755,20.620977,20.60427,20.591164,20.577587,20.563461,20.551867,20.541512,20.529366,20.517904,20.50792,20.495186,20.481695,20.470104,20.45604,20.440737,20.427834,20.41413,20.398548,20.384794,20.372314,20.357548,20.343971,20.332897,20.320007,20.307785,20.298218,20.287554,20.276384,20.266981,20.257084,20.245583,20.235006,20.22519,20.212757,20.200832,20.191359,20.1801,20.169193,20.160717,20.151636,20.142826,20.13607,20.1295,20.121874,20.114426,20.107197,20.096807,20.085327,20.075352,20.06292,20.049986,20.039486,20.027508,20.013802,20.001415,19.98876,19.973495,19.958742,19.944942,19.927143,19.90852,19.892338,19.872856,19.85278,19.836655,19.819633,19.802372,19.788942,19.777042,19.76503,19.75615,19.74995,19.744673,19.742044,19.741291,19.741589,19.743378,19.74567,19.748508,19.75224,19.755394,19.757366,19.758192,19.757467,19.756073,19.753372,19.749931,19.747002,19.743717,19.740387,19.737774,19.735422,19.733177,19.731464,19.730013,19.728498,19.727499,19.7271,19.7272,19.728302,19.729975,19.73219,19.734646,19.73637,19.737228,19.736929,19.735468,19.73331,19.729942,19.726097,19.722588,19.718498,19.71506,19.712984,19.711754,19.711819,19.712727,19.714054,19.716019,19.718025,19.719915,19.721842,19.723316,19.72445,19.72533,19.725998,19.72651,19.725758,19.723396,19.72027,19.7165,19.711205,19.70546,19.699713,19.692114,19.684427,19.678085,19.67138,19.665737,19.661983,19.65829,19.654873,19.652328,19.650053,19.647724,19.646072,19.645119,19.644272,19.643904,19.643986,19.643929,19.643728,19.643393,19.642872,19.641672,19.639874,19.637577,19.634285,19.630983,19.628094,19.625614,19.624271,19.623714,19.623224,19.622898,19.622677,19.622505,19.622234,19.621908,19.621796,19.621273,19.620682,19.620491,19.620716,19.622204,19.624622,19.628746,19.634659,19.640423,19.646858,19.654694,19.662338,19.670185,19.680317,19.690386,19.698992,19.708939,19.718575,19.726362,19.735584,19.746222,19.75587,19.766163,19.77805,19.7882,19.796331,19.80553,19.81393,19.820797,19.829185,19.838182,19.845993,19.855312,19.865978,19.875553,19.885967,19.898582,19.910326,19.920841,19.933422,19.945068,19.954178,19.964367,19.973988,19.981422,19.989468,19.997562,20.003735,20.008797,20.014513,20.019917,20.024845,20.030361,20.034046,20.035347,20.034307,20.029934,20.0243,20.016472,20.006248,19.996899,19.988579,19.978563,19.968822,19.960112,19.948936,19.937126,19.926924,19.914421,19.90149,19.891254,19.88023,19.868252,19.857782,19.847548,19.833603,19.817905,19.802498,19.780964,19.75705,19.736677,19.71283,19.68898,19.67125,19.655785,19.641602,19.630781,19.62139,19.608961,19.595242,19.582275,19.565376,19.54689,19.530828,19.510475,19.487339,19.467415
20.97066,20.959312,20.949583,20.937632,20.925167,20.914795,20.902864,20.889635,20.878078,20.8662,20.85194,20.838463,20.826284,20.811108,20.796125,20.783695,20.768776,20.753567,20.741283,20.727581,20.712658,20.699902,20.687466,20.67315,20.660294,20.649311,20.636078,20.623104,20.612265,20.599009,20.584496,20.571901,20.557714,20.541662,20.527512,20.513903,20.497574,20.482075,20.468494,20.451601,20.434723,20.420883,20.404709,20.388416,20.375633,20.362362,20.348507,20.337086,20.326836,20.3148,20.303406,20.293442,20.2807,20.267164,20.25552,20.24139,20.225983,20.212955,20.199123,20.183388,20.169477,20.15681,20.141836,20.128086,20.116867,20.103807,20.091438,20.08178,20.071062,20.059977,20.050766,20.041159,20.030098,20.019989,20.010582,19.998636,19.987083,19.977821,19.966747,19.955929,19.947468,19.938362,19.92949,19.922697,19.916134,19.908653,19.901527,19.894732,19.885157,19.874786,19.865902,19.85498,19.8438,19.834831,19.824636,19.81298,19.802414,19.791615,19.778559,19.765903,19.754051,19.738682,19.722435,19.708174,19.690802,19.672462,19.657335,19.640999,19.623749,19.609665,19.596712,19.58271,19.571287,19.562542,19.553642,19.547033,19.542927,19.539326,19.537264,19.536621,19.536495,19.537252,19.53807,19.538002,19.536694,19.534283,19.531624,19.527588,19.523134,19.519613,19.51579,19.512207,19.509617,19.50729,19.505116,19.50343,19.501904,19.500164,19.498814,19.498037,19.497543,19.49797,19.499115,19.500725,19.502743,19.504372,19.505424,19.50576,19.505207,19.504082,19.502129,19.499762,19.497551,19.495037,19.493166,19.492325,19.492424,19.49376,19.49559,19.497791,19.500595,19.503208,19.505547,19.507935,19.50978,19.511189,19.512363,19.513203,19.513744,19.513016,19.510593,19.507338,19.503414,19.497831,19.49176,19.485764,19.477882,19.469929,19.463356,19.456394,19.450462,19.446428,19.442394,19.438576,19.435654,19.432991,19.430178,19.428087,19.426777,19.425575,19.42496,19.424896,19.4248,19.424656,19.424385,19.423985,19.422974,19.421375,19.419273,19.41619,19.413015,19.410168,19.407616,19.406048,19.405209,19.404339,19.403522,19.402832,19.402159,19.401337,19.400558,19.400043,19.399174,19.3983,19.397831,19.397575,19.398293,19.399849,19.402775,19.407217,19.411688,19.416782,19.423199,19.429653,19.436363,19.445164,19.454002,19.461567,19.470272,19.478752,19.485697,19.493982,19.503757,19.512829,19.522648,19.534203,19.544254,19.552425,19.561863,19.570623,19.577816,19.586618,19.595957,19.603947,19.613468,19.624372,19.634207,19.644909,19.65797,19.670227,19.68126,19.694534,19.706959,19.71682,19.727985,19.738731,19.747177,19.756401,19.766,19.77373,19.780521,19.78872,19.79683,19.804264,19.81326,19.821033,19.826248,19.8304,19.832119,19.831924,19.830366,19.827124,19.823677,19.820873,19.81712,19.812984,19.809042,19.803535,19.797161,19.791327,19.783897,19.776073,19.769865,19.763077,19.755497,19.748566,19.741451,19.731098,19.718754,19.706287,19.688457,19.668354,19.65115,19.630835,19.610256,19.594774,19.581217,19.568607,19.558773,19.550068,19.53815,19.52468,19.511856,19.495106,19.476711,19.46067,19.440445,19.417553,19.397924
20.70756,20.696682,20.687263,20.675617,20.663443,20.653355,20.64179,20.629068,20.618046,20.606758,20.593206,20.58039,20.56881,20.55437,20.540115,20.528297,20.514137,20.49971,20.488037,20.475012,20.460762,20.448511,20.436506,20.422577,20.409946,20.399088,20.385952,20.373077,20.362347,20.349289,20.335098,20.32285,20.30909,20.293541,20.279827,20.266628,20.250761,20.235676,20.222454,20.20602,20.189617,20.176168,20.160479,20.144682,20.132282,20.119402,20.105923,20.094772,20.084745,20.072924,20.06168,20.051819,20.039154,20.02563,20.013962,19.999758,19.984173,19.970915,19.956795,19.940693,19.926445,19.91345,19.898134,19.884123,19.872726,19.859486,19.846981,19.837248,19.826519,19.815556,19.806576,19.79729,19.78672,19.777103,19.76815,19.756721,19.745556,19.736496,19.725536,19.71467,19.70607,19.696718,19.687485,19.680363,19.673508,19.665813,19.65868,19.652035,19.642977,19.63349,19.625568,19.616014,19.606514,19.599083,19.59076,19.581348,19.57287,19.56424,19.553902,19.54395,19.534653,19.522522,19.509514,19.49794,19.4836,19.467918,19.454494,19.439556,19.422977,19.408691,19.395035,19.37924,19.36522,19.353733,19.340773,19.329554,19.321465,19.31321,19.30651,19.30231,19.298613,19.295877,19.294056,19.29174,19.288174,19.284061,19.28019,19.274914,19.269547,19.265472,19.261147,19.257332,19.254751,19.252457,19.250347,19.248657,19.246971,19.2449,19.243073,19.241776,19.240524,19.240093,19.240517,19.24128,19.242619,19.24399,19.245094,19.246033,19.24648,19.246506,19.246181,19.245539,19.244816,19.244097,19.243973,19.244482,19.245968,19.248526,19.251196,19.254177,19.257732,19.26093,19.263767,19.266766,19.26919,19.271051,19.27272,19.273933,19.27466,19.274128,19.271809,19.268528,19.264534,19.258768,19.252472,19.246307,19.23825,19.230156,19.223478,19.216412,19.210316,19.206074,19.20177,19.197615,19.194382,19.191402,19.188215,19.185768,19.184126,19.182589,19.18172,19.181482,19.181274,19.181105,19.180864,19.180511,19.1796,19.178122,19.17614,19.173195,19.170118,19.167316,19.16475,19.163067,19.16206,19.161,19.159946,19.159033,19.158146,19.157135,19.156239,19.155624,19.154728,19.153854,19.153315,19.152763,19.152847,19.153633,19.155403,19.15836,19.161493,19.165228,19.170235,19.17552,19.18111,19.188652,19.196379,19.203014,19.210617,19.21812,19.224413,19.232014,19.241203,19.249903,19.259457,19.270885,19.280987,19.289284,19.298977,19.308006,19.315369,19.324276,19.333511,19.341242,19.350376,19.36079,19.370188,19.380417,19.392927,19.404736,19.415428,19.428352,19.440538,19.450272,19.461296,19.471935,19.48032,19.489475,19.499168,19.50719,19.514435,19.523605,19.53304,19.541782,19.552876,19.563591,19.571938,19.58059,19.587997,19.593128,19.59792,19.602093,19.605179,19.608557,19.612013,19.614456,19.616127,19.617384,19.617567,19.61703,19.6158,19.61428,19.613117,19.611633,19.609657,19.607376,19.6045,19.599157,19.591679,19.583614,19.571375,19.557037,19.54461,19.529594,19.513882,19.501694,19.490925,19.480633,19.47227,19.464605,19.453571,19.440693,19.42834,19.412128,19.394249,19.378643,19.359047,19.33701,19.31823
20.438131,20.427639,20.418427,20.40694,20.394905,20.384962,20.37362,20.361279,20.350712,20.339935,20.327034,20.314835,20.303822,20.290085,20.27653,20.265312,20.251915,20.238287,20.22726,20.21497,20.20147,20.189783,20.178267,20.16477,20.152397,20.141674,20.128635,20.115845,20.105225,20.092373,20.078524,20.066645,20.053352,20.03836,20.025131,20.012371,19.997013,19.982399,19.969585,19.953655,19.937777,19.924774,19.90961,19.894348,19.882362,19.869915,19.856869,19.846048,19.836311,19.824787,19.813776,19.804102,19.79163,19.778252,19.766655,19.752491,19.736849,19.723455,19.709131,19.692755,19.67825,19.665016,19.649452,19.635254,19.623741,19.61036,19.597721,19.587893,19.57708,19.566107,19.55719,19.54803,19.537663,19.528255,19.519495,19.508266,19.497189,19.48808,19.47693,19.465712,19.456738,19.446869,19.437,19.429329,19.421968,19.413828,19.406487,19.3998,19.391052,19.382244,19.375084,19.366653,19.358564,19.352444,19.345734,19.338337,19.331799,19.32522,19.317497,19.310192,19.303432,19.294582,19.284943,19.276226,19.265211,19.252655,19.241455,19.228592,19.213566,19.199955,19.186508,19.170067,19.154535,19.14124,19.125328,19.110537,19.099277,19.087246,19.076721,19.06957,19.062885,19.05724,19.053268,19.049164,19.043905,19.038624,19.03397,19.027931,19.021969,19.017471,19.012688,19.008514,19.005733,19.00322,19.000858,18.998878,18.9968,18.99413,18.991585,18.989573,18.987368,18.985891,18.985416,18.985142,18.985561,18.986423,18.987303,18.988535,18.989727,18.99067,18.991724,18.992558,18.99308,18.993803,18.994987,18.99643,18.998775,19.001945,19.004915,19.008131,19.011845,19.015148,19.018108,19.021385,19.024185,19.02639,19.028507,19.030155,19.031204,19.031075,19.02919,19.026264,19.022629,19.01723,19.011257,19.005428,18.997808,18.990162,18.983873,18.977213,18.971397,18.967266,18.962994,18.958778,18.955439,18.952335,18.948944,18.946255,18.94434,18.942493,18.94133,18.94083,18.940386,18.940062,18.939747,18.939316,18.938383,18.936943,18.935017,18.932178,18.929232,18.926533,18.924076,18.922464,18.92149,18.920471,18.919436,18.918499,18.917603,18.916595,18.915722,18.915104,18.914297,18.913517,18.912992,18.912277,18.9119,18.912079,18.912914,18.914639,18.916653,18.919247,18.923065,18.927376,18.932026,18.938549,18.945393,18.951283,18.958054,18.964851,18.970673,18.977808,18.986603,18.99506,19.00444,19.015789,19.025906,19.034275,19.04404,19.053059,19.060326,19.06896,19.077671,19.084808,19.09314,19.102545,19.111002,19.120213,19.131462,19.14211,19.15184,19.16366,19.174856,19.183823,19.193895,19.203537,19.21111,19.219326,19.22809,19.235456,19.242134,19.25092,19.26028,19.269066,19.280586,19.292477,19.302437,19.313787,19.325027,19.333958,19.343487,19.353476,19.361883,19.370403,19.380013,19.388197,19.394804,19.402082,19.40818,19.412443,19.416878,19.421228,19.424835,19.428396,19.43185,19.434204,19.435665,19.4356,19.43343,19.430305,19.42445,19.416788,19.409927,19.401165,19.391335,19.383287,19.376114,19.369028,19.362923,19.357025,19.347794,19.336445,19.325378,19.310686,19.294388,19.280159,19.262264,19.242233,19.225288
20.210258,20.200016,20.190908,20.179485,20.167479,20.157578,20.14635,20.134285,20.124071,20.113693,20.101316,20.089642,20.079094,20.06593,20.052944,20.042213,20.029432,20.01646,20.005968,19.99429,19.981419,19.970203,19.95909,19.945944,19.93377,19.92315,19.910183,19.89745,19.886898,19.874207,19.860624,19.849045,19.836132,19.821602,19.80878,19.796383,19.781464,19.767265,19.754805,19.73932,19.723904,19.711304,19.696594,19.681774,19.670126,19.658035,19.645344,19.634804,19.625305,19.614056,19.603283,19.5938,19.58157,19.568417,19.556986,19.54299,19.527473,19.514141,19.499842,19.483463,19.46894,19.455683,19.440092,19.425861,19.414314,19.400846,19.388077,19.378107,19.367119,19.35596,19.346907,19.337616,19.327105,19.31757,19.30869,19.297306,19.286005,19.276615,19.265045,19.253317,19.243881,19.233452,19.222958,19.214777,19.206963,19.198435,19.19091,19.184177,19.175661,19.16735,19.160698,19.15303,19.14586,19.140564,19.134836,19.128693,19.123398,19.118153,19.112112,19.106525,19.10143,19.094788,19.087507,19.080864,19.072353,19.062332,19.05312,19.042282,19.029137,19.016802,19.004349,18.988556,18.973053,18.959442,18.942623,18.92646,18.91389,18.90021,18.887945,18.87943,18.871336,18.864307,18.85933,18.854425,18.848486,18.842823,18.837948,18.831669,18.825403,18.820557,18.815254,18.81044,18.807098,18.803967,18.80089,18.798248,18.795525,18.792019,18.78862,18.785835,18.782707,18.780289,18.779007,18.77784,18.777416,18.777718,18.778234,18.779427,18.780922,18.78233,18.784159,18.785824,18.787008,18.788425,18.790117,18.791794,18.794239,18.797247,18.7999,18.802729,18.805922,18.808748,18.811337,18.814333,18.81705,18.819283,18.821552,18.823494,18.824837,18.825153,18.823902,18.82163,18.818708,18.814173,18.809029,18.804,18.79739,18.79073,18.785252,18.779446,18.774323,18.770615,18.766693,18.762722,18.759514,18.756485,18.753082,18.75027,18.74818,18.746094,18.744637,18.743843,18.743097,18.74252,18.742033,18.741428,18.740376,18.738907,18.73698,18.734222,18.731403,18.728832,18.72654,18.7251,18.724274,18.723404,18.722464,18.721561,18.720661,18.719599,18.71864,18.717922,18.71706,18.716263,18.7157,18.714853,18.714165,18.713936,18.714159,18.715073,18.716343,18.718174,18.721169,18.724777,18.72877,18.734568,18.740772,18.746136,18.752354,18.75869,18.764187,18.770988,18.779501,18.787766,18.796993,18.808228,18.818302,18.82668,18.836391,18.84526,18.852358,18.860657,18.868866,18.875498,18.883156,18.8917,18.899342,18.90765,18.917767,18.92736,18.936218,18.94705,18.95736,18.965647,18.974873,18.983643,18.990513,18.997929,19.005873,19.012596,19.018658,19.026783,19.035603,19.043928,19.055016,19.066837,19.077105,19.089317,19.102097,19.11272,19.124485,19.137402,19.148617,19.159912,19.172962,19.184448,19.193926,19.204754,19.214382,19.221546,19.229435,19.237453,19.244114,19.250942,19.258003,19.263546,19.268055,19.27185,19.273726,19.274464,19.273718,19.271523,19.269268,19.265781,19.261135,19.25693,19.253239,19.249493,19.24598,19.242252,19.235476,19.226383,19.21722,19.204815,19.1909,19.178753,19.163326,19.146072,19.13158
19.994408,19.984371,19.97533,19.96391,19.951881,19.941998,19.930851,19.919003,19.909088,19.899084,19.887207,19.87601,19.865898,19.85325,19.84077,19.830482,19.818253,19.805864,19.795856,19.784725,19.772408,19.761597,19.750832,19.737972,19.725948,19.715393,19.702465,19.68977,19.67928,19.666695,19.653334,19.642025,19.629444,19.615322,19.602867,19.590805,19.576271,19.562437,19.550312,19.53524,19.520233,19.507967,19.493643,19.479176,19.46778,19.455936,19.44352,19.433203,19.4239,19.412868,19.402313,19.393028,19.38103,19.368103,19.356869,19.343103,19.32779,19.314585,19.300385,19.284111,19.26967,19.256481,19.240948,19.226734,19.215153,19.201614,19.188702,19.178574,19.167377,19.15599,19.146751,19.137264,19.12653,19.116798,19.107737,19.096146,19.084599,19.074928,19.06295,19.050724,19.040848,19.0299,19.018843,19.010202,19.00197,18.99307,18.985348,18.978512,18.970085,18.962055,18.955696,18.94844,18.941727,18.936815,18.931545,18.926022,18.92138,18.91684,18.911747,18.907173,18.903093,18.897865,18.892216,18.887085,18.880508,18.872614,18.865177,18.856295,18.845215,18.834534,18.823563,18.80923,18.794712,18.781693,18.765224,18.749031,18.736252,18.722218,18.709492,18.70057,18.692055,18.684608,18.679344,18.67429,18.668308,18.662704,18.657925,18.651638,18.645084,18.639748,18.633667,18.627754,18.623337,18.61906,18.614677,18.610893,18.607147,18.602467,18.598003,18.59433,18.590227,18.586906,18.584898,18.582962,18.581806,18.58158,18.581734,18.58279,18.58443,18.586166,18.588528,18.590733,18.592302,18.59404,18.595789,18.59731,18.599405,18.601776,18.603718,18.605783,18.608013,18.609974,18.611862,18.614208,18.616531,18.618565,18.62076,18.622833,18.624424,18.62518,18.62463,18.623116,18.62106,18.617619,18.613548,18.609566,18.604275,18.598915,18.59449,18.58982,18.585667,18.582594,18.57926,18.575771,18.572865,18.570076,18.566835,18.564045,18.56189,18.559624,18.557896,18.556824,18.555754,18.55486,18.554142,18.553284,18.552023,18.550453,18.548458,18.545685,18.542927,18.540459,18.538296,18.537014,18.536358,18.535645,18.53482,18.533955,18.533031,18.53186,18.530762,18.529903,18.528912,18.528053,18.527477,18.526562,18.52569,18.525208,18.525002,18.52531,18.525997,18.527218,18.529522,18.532516,18.535923,18.54104,18.546654,18.551563,18.557306,18.56327,18.56854,18.575153,18.58353,18.591724,18.600914,18.612213,18.622429,18.630966,18.640823,18.649761,18.656868,18.66505,18.673,18.679333,18.68654,18.694462,18.701462,18.709011,18.71812,18.72676,18.734829,18.744778,18.754326,18.76204,18.770561,18.778624,18.784931,18.79171,18.79899,18.805168,18.810654,18.818073,18.826212,18.833902,18.844183,18.855362,18.86531,18.87746,18.89061,18.901829,18.914536,18.928879,18.941582,18.954369,18.969374,18.982826,18.994017,19.006985,19.018799,19.027779,19.037863,19.048286,19.057034,19.066124,19.075811,19.08379,19.09068,19.097668,19.103043,19.107151,19.110981,19.113745,19.11567,19.117064,19.11737,19.116972,19.116835,19.116684,19.116104,19.114899,19.111118,19.104874,19.098125,19.08863,19.077747,19.06822,19.055899,19.042137,19.030712
19.752087,19.74217,19.733105,19.72158,19.709404,19.699425,19.688244,19.676527,19.666878,19.657234,19.645847,19.635138,19.625454,19.61332,19.601349,19.591496,19.579819,19.56804,19.558556,19.548035,19.536339,19.525993,19.515633,19.503132,19.49131,19.48085,19.468016,19.455418,19.445038,19.432652,19.41962,19.408684,19.396545,19.382946,19.370953,19.359303,19.345253,19.331888,19.320192,19.305656,19.29119,19.279377,19.265564,19.25157,19.240501,19.228973,19.216854,19.20677,19.19767,19.186867,19.176533,19.167469,19.15575,19.143135,19.13218,19.118748,19.10376,19.090786,19.076788,19.060692,19.04637,19.033272,19.017784,19.003534,18.99187,18.978174,18.965015,18.954617,18.943077,18.93129,18.921696,18.911839,18.90067,18.89055,18.881172,18.86922,18.857306,18.847275,18.834845,18.82211,18.811785,18.800327,18.78872,18.779633,18.770992,18.761724,18.75378,18.74683,18.738445,18.730583,18.724373,18.717285,18.710705,18.705841,18.700619,18.695217,18.690784,18.68653,18.681892,18.6779,18.674469,18.67026,18.66592,18.662094,18.657288,18.651505,18.645967,18.639273,18.630705,18.62223,18.613384,18.60147,18.589008,18.577599,18.56283,18.548008,18.536194,18.523174,18.511353,18.503096,18.495235,18.488403,18.483618,18.479084,18.473679,18.468498,18.464005,18.457764,18.45071,18.444523,18.437122,18.429356,18.423164,18.417046,18.410643,18.405176,18.399986,18.393728,18.387928,18.383198,18.37801,18.37378,18.371086,18.368488,18.366714,18.366013,18.365826,18.36671,18.368408,18.370369,18.373116,18.375656,18.377382,18.379137,18.38058,18.38159,18.38294,18.384253,18.385147,18.386105,18.386974,18.387684,18.38852,18.389786,18.391338,18.392895,18.394722,18.396713,18.398432,18.399559,18.39975,18.399109,18.398075,18.39598,18.393278,18.3906,18.386974,18.383268,18.380207,18.377054,18.374264,18.372143,18.369774,18.367172,18.364897,18.362646,18.359856,18.357279,18.35519,18.35284,18.35085,18.349476,18.348034,18.346745,18.345716,18.344526,18.342968,18.341206,18.339037,18.336124,18.333317,18.33086,18.32875,18.327595,18.32711,18.326593,18.325928,18.325136,18.324192,18.322865,18.32154,18.320461,18.319239,18.318226,18.317585,18.316566,18.315504,18.314777,18.314173,18.313896,18.313993,18.314571,18.31609,18.318356,18.321085,18.325418,18.330372,18.334812,18.340063,18.345638,18.350662,18.35703,18.365221,18.37331,18.382435,18.393774,18.404121,18.412817,18.422798,18.431759,18.438837,18.446829,18.454445,18.460445,18.467113,18.474293,18.480549,18.487236,18.49523,18.502857,18.510136,18.519249,18.52813,18.535374,18.543385,18.550999,18.556984,18.563454,18.570461,18.57643,18.581657,18.588634,18.596205,18.60329,18.612698,18.622984,18.632263,18.643818,18.656597,18.667675,18.680454,18.69517,18.7084,18.721786,18.737698,18.752142,18.764221,18.778336,18.791344,18.801338,18.812683,18.824549,18.834583,18.845102,18.856556,18.866293,18.875,18.88461,18.893032,18.900156,18.908197,18.915636,18.92154,18.927658,18.93293,18.936512,18.940252,18.944197,18.947102,18.949043,18.949097,18.94659,18.943064,18.937511,18.93077,18.924816,18.916729,18.907713,18.90042
19.534397,19.524471,19.515285,19.503551,19.491127,19.48095,19.469624,19.457916,19.448423,19.439034,19.42802,19.417686,19.40832,19.396576,19.38499,19.37546,19.364208,19.352919,19.34388,19.333872,19.32272,19.312775,19.302773,19.290586,19.27895,19.26859,19.255867,19.243397,19.233143,19.220982,19.208302,19.19773,19.186028,19.172928,19.161358,19.150099,19.136515,19.123615,19.112358,19.098381,19.084488,19.07317,19.059895,19.046381,19.03563,19.024378,19.012463,19.002487,18.993454,18.982712,18.972446,18.963482,18.951916,18.93952,18.928799,18.915665,18.900995,18.888273,18.874516,18.858616,18.844398,18.83137,18.815872,18.801504,18.789694,18.775734,18.762196,18.75142,18.739391,18.72702,18.7169,18.706501,18.694683,18.683994,18.67415,18.661686,18.649317,18.638908,18.62607,18.61295,18.602299,18.59048,18.578476,18.569069,18.560122,18.550554,18.542406,18.535343,18.526928,18.519064,18.512794,18.505573,18.498737,18.49356,18.487934,18.482098,18.477364,18.472881,18.468079,18.46408,18.460773,18.456907,18.453194,18.450104,18.446377,18.442047,18.437939,18.432983,18.42658,18.420147,18.413387,18.404078,18.394089,18.384796,18.372543,18.3601,18.350151,18.339218,18.329422,18.322716,18.316402,18.311049,18.30738,18.303856,18.299416,18.29482,18.290644,18.28437,18.276628,18.269394,18.260406,18.250515,18.242336,18.234188,18.225643,18.218483,18.211903,18.204182,18.197216,18.191622,18.185595,18.180727,18.177603,18.174646,18.172543,18.171549,18.171131,18.171822,18.173435,18.175442,18.17828,18.180836,18.182465,18.183945,18.184834,18.18518,18.18563,18.185814,18.185673,18.185537,18.185062,18.184525,18.184261,18.184322,18.184925,18.185839,18.187096,18.188808,18.190521,18.191872,18.192657,18.192791,18.192669,18.191837,18.190449,18.189007,18.186966,18.184858,18.183132,18.181498,18.180134,18.179077,18.177826,18.176327,18.174885,18.173353,18.171204,18.168987,18.16706,18.164734,18.162579,18.160975,18.15924,18.157642,18.156368,18.15493,18.153152,18.151234,18.148891,18.145815,18.142902,18.140379,18.138233,18.137146,18.136795,18.13644,18.135906,18.135162,18.13417,18.132637,18.131035,18.129702,18.128191,18.126976,18.126247,18.12514,18.123951,18.12305,18.12218,18.121471,18.121082,18.121084,18.121847,18.123367,18.125408,18.128942,18.13322,18.137196,18.141968,18.147133,18.15184,18.157858,18.165718,18.173578,18.18251,18.193745,18.204094,18.212824,18.222801,18.231697,18.238684,18.24646,18.253773,18.259491,18.26571,18.272263,18.277899,18.283878,18.291006,18.297901,18.304657,18.313282,18.32185,18.328941,18.336895,18.34459,18.350727,18.357475,18.364902,18.371256,18.37685,18.384056,18.391584,18.398478,18.40744,18.417076,18.425703,18.436506,18.448494,18.458916,18.471056,18.485178,18.49799,18.511047,18.52671,18.541035,18.55305,18.56712,18.580124,18.590128,18.601547,18.613573,18.623802,18.634565,18.646473,18.656845,18.66632,18.67727,18.68745,18.696377,18.70707,18.717567,18.726128,18.735508,18.744396,18.751049,18.757954,18.765442,18.771507,18.776415,18.780205,18.78142,18.781128,18.779593,18.777096,18.774796,18.771044,18.766857,18.763744
