2.1873484,2.1869407,2.1864781,2.1860082,2.1855483,2.1851559,2.1849134,2.184771,2.1847272,2.1847522,2.1847365,2.1846132,2.1844087,2.1841965,2.1840243,2.1838908,2.1837902,2.18367,2.1834974,2.183288,2.183093,2.1829586,2.1828868,2.1828496,2.1828368,2.1828198,2.1827981,2.182794,2.1828103,2.1828156,2.1827688,2.1826184,2.1823516,2.182024,2.181726,2.1815152,2.1813922,2.1813195,2.181215,2.181054,2.1808295,2.1805344,2.180202,2.1799245,2.1796477,2.1793437,2.1789682,2.1785126,2.1780152,2.177548,2.1771784,2.1768606,2.1765656,2.1762757,2.1759772,2.175663,2.1753316,2.1749864,2.1746361,2.1742547,2.1738276,2.1734042,2.1730185,2.1726804,2.1724029,2.172157,2.1718867,2.1715565,2.1711416,2.1706405,2.1701202,2.1696782,2.1693397,2.1690972,2.1689177,2.168756,2.1685824,2.1683917,2.1682162,2.1681006,2.168047,2.1680353,2.1680613,2.1681247,2.1682053,2.1682749,2.1683202,2.168311,2.1682425,2.1681309,2.1680245,2.1679797,2.1680305,2.1681452,2.1682613,2.1683576,2.1683965,2.168345,2.1682458,2.168145,2.168047,2.1679595,2.1678562,2.167719,2.1675477,2.167362,2.167181,2.1670103,2.1668332,2.1666284,2.166378,2.1660652,2.1657128,2.165357,2.165009,2.1646597,2.1643085,2.1639323,2.1635337,2.1631613,2.1628585,2.1626248,2.1624372,2.162284,2.162118,2.1619425,2.1617708,2.1616178,2.1614985,2.161422,2.1613734,2.1613357,2.1613138,2.1613078,2.161304,2.1612933,2.161269,2.1612127,2.1611066,2.1609511,2.1607614,2.1605582,2.1603718,2.1602254,2.1601102,2.1600037,2.1598945,2.1597776,2.1596503,2.1595056,2.1593397,2.1591449,2.158896,2.1585817,2.1582303,2.1578636,2.157531,2.1572728,2.157075,2.1569073,2.1567488,2.15658,2.156397,2.1562023,2.1560016,2.1557941,2.1555758,2.1553288,2.15506,2.154789,2.1545587,2.1543944,2.1542869,2.1542063,2.1541197,2.1539872,2.1538107,2.1536047,2.1533973,2.1532102,2.153048,2.152907,2.1527605,2.1526017,2.1524353,2.1522624,2.1520815,2.1519032,2.151733,2.1515322,2.1512947,2.1510143,2.150694,2.1503596,2.1500583,2.1498184,2.1496134,2.1494246,2.1492198,2.1489782,2.1487226,2.14849,2.1483092,2.1482036,2.1481562,2.1481385,2.1481266,2.1480918,2.1480126,2.1479068,2.1478086,2.1477222,2.147668,2.1476595,2.1476762,2.1476936,2.1477041,2.1477242,2.147758,2.1478255,2.1479242,2.1480331,2.148123,2.14818,2.1482303,2.1483068,2.1484432,2.1486197,2.1487947,2.148944,2.1490626,2.149167,2.1492946,2.149444,2.1495826,2.1496482,2.1496124,2.1495047,2.1493802,2.1492715,2.14921,2.149194,2.149192,2.1491883,2.1491845,2.1491904,2.1492133,2.1492572,2.1493,2.149322,2.1493192,2.1493158,2.149341,2.1493936,2.1494775,2.1495578,2.1496315,2.1496973,2.149796,2.149963,2.150159,2.1503868,2.1506674,2.1510413,2.1514342,2.1517978,2.1521425,2.152463,2.152773,2.1531134,2.1535048,2.15391,2.1542783,2.1545782,2.1548114,2.1550095,2.1552277,2.1555104,2.1558669,2.1562634,2.156682,2.1571255,2.1575496,2.1579428,2.1583285,2.1587038,2.1591003,2.1595697,2.1601195,2.160697,2.1612587,2.1618304,2.1623464,2.1628108,2.163254,2.163724,2.1642768,2.164865,2.1655874,2.1664279,2.1674824,2.1686072,2.169609,2.170515,2.1713438,2.1722245,2.173245,2.174399,2.1756349
2.1790679,2.178658,2.1781948,2.1777208,2.1772575,2.1768656,2.1766243,2.1764886,2.1764503,2.1764743,2.1764436,2.176287,2.1760364,2.1757803,2.1755733,2.1754193,2.1753104,2.1751904,2.1750226,2.1748202,2.174635,2.1745138,2.1744578,2.174437,2.1744356,2.1744208,2.1743894,2.174366,2.174355,2.174324,2.1742344,2.174038,2.1737285,2.173367,2.1730413,2.1728046,2.1726527,2.1725433,2.1724,2.172206,2.1719618,2.1716626,2.1713328,2.171057,2.1707783,2.1704712,2.170093,2.1696384,2.1691446,2.1686773,2.1683028,2.167974,2.167665,2.1673617,2.1670537,2.1667347,2.1664023,2.1660576,2.1657114,2.165339,2.1649227,2.1645112,2.164136,2.1638045,2.1635315,2.1632905,2.1630275,2.1627088,2.162311,2.1618283,2.1613245,2.1608982,2.1605744,2.1603453,2.1601791,2.1600285,2.1598587,2.1596632,2.159473,2.15934,2.1592658,2.1592312,2.159235,2.1592817,2.1593494,2.1594086,2.1594465,2.1594317,2.1593583,2.159247,2.1591482,2.1591158,2.1591792,2.1593018,2.1594238,2.1595235,2.1595688,2.1595268,2.1594381,2.159346,2.159255,2.1591754,2.1590781,2.1589446,2.1587696,2.1585684,2.15836,2.1581573,2.1579475,2.157713,2.1574361,2.1571028,2.1567352,2.1563675,2.1560092,2.1556506,2.1552901,2.154903,2.1544948,2.1541166,2.1538134,2.1535826,2.1533978,2.1532445,2.1530733,2.1528878,2.1527061,2.1525483,2.15243,2.15236,2.1523194,2.1522882,2.1522684,2.1522624,2.1522582,2.152246,2.1522195,2.1521606,2.15205,2.151888,2.1516907,2.15148,2.1512852,2.151129,2.151004,2.150888,2.1507688,2.1506433,2.1505117,2.150367,2.150206,2.150018,2.1497765,2.1494675,2.149117,2.148749,2.1484156,2.14816,2.1479685,2.1478066,2.1476526,2.147485,2.1472955,2.147091,2.1468797,2.1466622,2.1464329,2.1461735,2.1458852,2.1455915,2.1453376,2.145155,2.145036,2.1449475,2.144856,2.1447225,2.1445496,2.1443524,2.1441574,2.143982,2.143825,2.1436822,2.1435318,2.1433682,2.1432,2.1430297,2.1428552,2.1426854,2.1425266,2.1423454,2.1421342,2.1418827,2.1415858,2.1412683,2.1409764,2.1407418,2.140543,2.1403594,2.1401544,2.1399026,2.139625,2.1393647,2.1391566,2.1390243,2.1389534,2.138915,2.1388836,2.1388345,2.1387482,2.1386428,2.138548,2.1384668,2.1384192,2.138422,2.138456,2.138497,2.138532,2.1385703,2.1386173,2.138689,2.1387873,2.138893,2.138977,2.1390262,2.1390693,2.1391416,2.139291,2.1394966,2.1397123,2.1399055,2.1400614,2.1401901,2.1403284,2.140481,2.1406214,2.1406891,2.1406574,2.1405566,2.1404371,2.1403308,2.1402626,2.1402354,2.1402178,2.1401973,2.1401772,2.1401677,2.1401806,2.1402159,2.1402497,2.140263,2.1402504,2.1402373,2.140257,2.140308,2.1403916,2.1404731,2.1405456,2.1406083,2.1407032,2.1408658,2.1410565,2.1412783,2.1415539,2.1419277,2.1423264,2.1427007,2.1430593,2.1433964,2.143723,2.144086,2.1445024,2.1449337,2.1453233,2.1456351,2.1458716,2.1460676,2.1462808,2.1465547,2.1469,2.1472843,2.1476882,2.1481137,2.1485205,2.148899,2.1492748,2.149641,2.150028,2.1504827,2.1510143,2.1515737,2.1521177,2.1526744,2.1531723,2.153614,2.1540327,2.1544788,2.1550102,2.15558,2.156282,2.1570983,2.1581237,2.1592193,2.1601958,2.1610818,2.1618938,2.1627593,2.1637664,2.1649108,2.166143
2.1711156,2.170721,2.1702805,2.169827,2.1693816,2.1690063,2.1687748,2.168646,2.1686044,2.168612,2.1685495,2.1683457,2.1680422,2.1677394,2.167496,2.167322,2.1672058,2.16709,2.1669312,2.166741,2.1665683,2.1664615,2.1664162,2.1664047,2.1664026,2.1663766,2.166325,2.166273,2.1662278,2.1661577,2.166022,2.1657825,2.1654348,2.1650429,2.1646967,2.1644435,2.1642725,2.1641393,2.1639705,2.1637564,2.163503,2.1632047,2.1628795,2.1626067,2.1623287,2.1620228,2.1616473,2.1611996,2.160715,2.1602533,2.159878,2.1595428,2.1592233,2.15891,2.1585944,2.1582713,2.1579351,2.1575875,2.1572409,2.1568685,2.1564522,2.1560411,2.1556668,2.1553378,2.1550717,2.154839,2.1545935,2.1542997,2.1539326,2.1534812,2.1530051,2.1525993,2.1522913,2.152076,2.15192,2.1517737,2.1516042,2.1514,2.1511922,2.1510386,2.150941,2.1508794,2.1508582,2.1508842,2.1509361,2.150984,2.1510124,2.150991,2.1509128,2.1508014,2.1507077,2.1506839,2.150754,2.1508796,2.1510012,2.151101,2.1511502,2.151116,2.151036,2.1509528,2.1508706,2.1507995,2.150713,2.1505892,2.1504178,2.150206,2.1499746,2.1497416,2.1495037,2.149242,2.1489444,2.1485991,2.148226,2.147856,2.1474953,2.1471298,2.1467595,2.14636,2.1459398,2.1455529,2.1452465,2.1450162,2.1448317,2.1446745,2.1444955,2.144298,2.1441054,2.1439419,2.143828,2.1437695,2.1437435,2.1437232,2.1437116,2.1437063,2.1436949,2.143671,2.1436315,2.1435575,2.1434345,2.143261,2.1430542,2.1428347,2.14263,2.1424618,2.1423233,2.1421933,2.1420612,2.1419268,2.1417923,2.1416514,2.1414979,2.1413195,2.1410851,2.1407785,2.1404252,2.1400518,2.1397147,2.1394594,2.1392713,2.1391146,2.138962,2.1387901,2.1385913,2.1383748,2.138154,2.13793,2.1376948,2.13743,2.137134,2.136829,2.1365614,2.136365,2.1362333,2.136136,2.1360364,2.1358986,2.1357267,2.1355362,2.1353521,2.1351864,2.1350346,2.1348903,2.134738,2.134573,2.134407,2.134245,2.1340823,2.133926,2.1337833,2.133624,2.1334376,2.1332107,2.1329348,2.1326306,2.1323457,2.1321168,2.1319246,2.1317487,2.131546,2.1312876,2.1309943,2.130711,2.1304793,2.1303236,2.1302311,2.1301699,2.1301184,2.130053,2.1299562,2.1298463,2.1297512,2.1296716,2.1296282,2.12964,2.1296918,2.1297584,2.1298208,2.129879,2.129941,2.130021,2.1301217,2.130229,2.1303146,2.1303644,2.130407,2.1304789,2.1306353,2.1308548,2.1310887,2.131301,2.1314726,2.1316109,2.1317554,2.1319132,2.1320605,2.1321383,2.1321173,2.132028,2.131917,2.131814,2.131744,2.1317105,2.1316843,2.1316526,2.13162,2.1315973,2.1315994,2.1316245,2.1316476,2.1316495,2.1316247,2.1316028,2.131618,2.1316676,2.1317518,2.1318316,2.131901,2.131959,2.1320493,2.1322098,2.1324005,2.132624,2.1328998,2.1332774,2.1336808,2.1340606,2.1344275,2.1347728,2.1351116,2.1354918,2.135931,2.136386,2.136795,2.1371188,2.1373613,2.137559,2.1377723,2.1380444,2.1383862,2.1387649,2.1391568,2.139566,2.1399517,2.1403098,2.1406658,2.1410139,2.1413822,2.1418157,2.1423235,2.1428633,2.1433902,2.1439304,2.144414,2.144839,2.1452413,2.1456742,2.1461935,2.1467552,2.147445,2.148244,2.1492457,2.1503165,2.151273,2.152144,2.152945,2.153799,2.1547945,2.155929,2.1571536
2.162643,2.162285,2.16189,2.1614819,2.161079,2.1607404,2.1605308,2.1604104,2.1603575,2.160336,2.1602294,2.1599698,2.1596088,2.1592598,2.1589823,2.1587844,2.1586566,2.1585393,2.1583865,2.1582036,2.1580389,2.1579375,2.1578922,2.1578765,2.1578608,2.157814,2.1577353,2.1576505,2.157571,2.1574643,2.1572883,2.1570106,2.1566296,2.1562135,2.1558518,2.1555862,2.1554036,2.1552548,2.155071,2.1548455,2.1545887,2.1542935,2.1539717,2.1537015,2.1534247,2.1531222,2.1527557,2.1523232,2.1518557,2.151407,2.1510344,2.1506963,2.1503673,2.1500425,2.149718,2.1493886,2.1490486,2.1486983,2.1483507,2.1479774,2.1475577,2.1471426,2.1467652,2.1464384,2.1461847,2.1459723,2.145759,2.1455069,2.1451836,2.1447735,2.144328,2.14394,2.143641,2.1434278,2.1432688,2.1431184,2.1429431,2.142727,2.1425009,2.1423285,2.1422071,2.1421208,2.1420774,2.1420875,2.1421304,2.142174,2.1422014,2.142179,2.1421032,2.141996,2.1419082,2.1418912,2.1419644,2.1420875,2.1422038,2.1423016,2.142354,2.1423275,2.1422577,2.142186,2.1421142,2.142056,2.141982,2.1418695,2.141701,2.1414776,2.1412177,2.1409483,2.1406746,2.1403813,2.1400614,2.1397047,2.139329,2.1389604,2.1386008,2.1382296,2.1378517,2.1374435,2.1370182,2.1366322,2.1363325,2.1361108,2.1359324,2.1357732,2.1355872,2.1353736,2.135163,2.1349883,2.134872,2.134821,2.1348078,2.1347988,2.1347933,2.1347842,2.1347563,2.134709,2.134643,2.1345458,2.1344047,2.1342187,2.134005,2.1337807,2.133568,2.1333847,2.1332283,2.1330788,2.132928,2.1327798,2.1326413,2.1325054,2.132362,2.132194,2.1319666,2.131661,2.131304,2.130926,2.1305876,2.1303372,2.1301575,2.1300063,2.129856,2.1296768,2.1294615,2.129224,2.1289835,2.1287432,2.128499,2.1282282,2.1279259,2.127613,2.1273355,2.1271262,2.1269825,2.1268735,2.1267657,2.1266239,2.126455,2.126275,2.1261034,2.1259472,2.1257985,2.1256504,2.1254911,2.125321,2.125155,2.1249995,2.1248472,2.124704,2.124576,2.1244361,2.1242712,2.1240659,2.1238089,2.1235194,2.123246,2.1230292,2.122849,2.1226835,2.1224864,2.122224,2.1219168,2.1216125,2.1213567,2.1211796,2.1210651,2.1209822,2.1209097,2.1208267,2.1207182,2.1206017,2.120504,2.1204238,2.1203818,2.1204023,2.120471,2.1205602,2.1206436,2.1207163,2.120784,2.120863,2.1209579,2.121061,2.121148,2.1212013,2.1212468,2.1213193,2.1214795,2.1216998,2.121935,2.12215,2.1223276,2.1224756,2.1226335,2.1228108,2.122983,2.1230855,2.123088,2.1230168,2.1229157,2.122818,2.1227465,2.1227095,2.1226783,2.1226416,2.1226044,2.1225731,2.1225672,2.122583,2.1225953,2.1225858,2.1225514,2.1225233,2.1225362,2.1225848,2.1226668,2.1227403,2.1227975,2.1228414,2.122922,2.1230788,2.1232715,2.1234996,2.1237829,2.1241708,2.124581,2.124965,2.1253376,2.125691,2.1260424,2.1264439,2.1269083,2.127388,2.1278164,2.1281514,2.128399,2.1285977,2.128813,2.129084,2.129426,2.1298022,2.1301873,2.1305823,2.1309485,2.1312828,2.1316156,2.1319413,2.132287,2.1326976,2.1331835,2.1337023,2.1342106,2.134734,2.1352015,2.1356106,2.136,2.1364255,2.1369383,2.1374965,2.13818,2.1389642,2.1399426,2.1409893,2.1419272,2.1427872,2.1435788,2.144424,2.145408,2.1465302,2.1477404
2.1539235,2.153595,2.1532402,2.152886,2.1525393,2.1522431,2.152056,2.15194,2.1518652,2.1518037,2.1516485,2.151339,2.150934,2.1505542,2.150257,2.1500454,2.1499114,2.1497962,2.1496494,2.1494708,2.1493068,2.1492023,2.1491456,2.1491108,2.1490688,2.1489892,2.1488743,2.148754,2.1486435,2.1485066,2.1482992,2.1479936,2.1475918,2.1471639,2.146798,2.1465316,2.1463494,2.1461978,2.1460114,2.1457858,2.1455326,2.1452405,2.1449165,2.1446424,2.14436,2.1440563,2.1436985,2.1432843,2.1428394,2.1424088,2.142045,2.141707,2.141372,2.1410382,2.1407075,2.140374,2.1400304,2.1396775,2.13933,2.138954,2.1385257,2.1381006,2.1377153,2.137386,2.137145,2.1369596,2.1367874,2.136589,2.1363225,2.1359637,2.1355562,2.1351871,2.1348941,2.1346807,2.134513,2.134353,2.1341667,2.133937,2.1336927,2.1334991,2.1333537,2.1332412,2.1331758,2.133173,2.1332126,2.1332593,2.1332932,2.1332793,2.1332147,2.1331203,2.1330469,2.1330411,2.13312,2.1332407,2.1333523,2.1334462,2.1335006,2.133481,2.133419,2.1333542,2.1332884,2.133235,2.1331687,2.1330624,2.1328936,2.1326559,2.1323676,2.1320634,2.1317568,2.1314354,2.1310992,2.1307395,2.1303682,2.1300068,2.129651,2.1292758,2.1288884,2.128471,2.1280413,2.1276593,2.1273704,2.1271615,2.12699,2.126831,2.1266367,2.1264079,2.1261797,2.125992,2.1258736,2.1258316,2.1258316,2.1258345,2.1258361,2.1258197,2.1257684,2.1256866,2.1255841,2.1254532,2.1252866,2.1250849,2.124864,2.1246367,2.1244175,2.1242213,2.124045,2.1238756,2.1237044,2.1235452,2.123407,2.1232803,2.1231503,2.1229944,2.1227741,2.1224668,2.1221042,2.1217194,2.1213784,2.121133,2.1209626,2.1208172,2.1206667,2.1204767,2.1202393,2.1199746,2.119708,2.1194482,2.1191938,2.1189187,2.1186147,2.118301,2.118018,2.1177979,2.117641,2.1175194,2.1174006,2.1172533,2.1170883,2.116919,2.1167607,2.1166134,2.1164656,2.1163104,2.1161427,2.115965,2.1157975,2.1156478,2.1155052,2.1153724,2.1152573,2.1151316,2.1149817,2.1147919,2.1145492,2.114271,2.1140075,2.1138027,2.113635,2.1134791,2.113288,2.113023,2.112703,2.1123824,2.1121094,2.1119168,2.1117873,2.1116877,2.111599,2.1115005,2.1113791,2.1112525,2.1111465,2.1110587,2.1110096,2.1110277,2.1111023,2.1112037,2.111298,2.1113768,2.1114404,2.1115093,2.1115942,2.1116948,2.1117892,2.111855,2.1119125,2.111992,2.112155,2.1123683,2.1125908,2.112797,2.112972,2.113126,2.1133018,2.1135068,2.1137133,2.11385,2.113882,2.1138325,2.1137435,2.1136508,2.1135807,2.113544,2.113514,2.1134796,2.1134434,2.1134071,2.1133935,2.1133995,2.1133993,2.1133761,2.1133316,2.1132975,2.1133075,2.1133525,2.1134293,2.1134925,2.1135318,2.1135561,2.113624,2.1137795,2.1139798,2.1142201,2.1145191,2.114922,2.1153402,2.115726,2.1160998,2.116456,2.1168144,2.1172328,2.1177187,2.1182187,2.1186619,2.1190052,2.1192577,2.1194587,2.1196785,2.119956,2.1203065,2.1206906,2.1210785,2.121467,2.1218162,2.122128,2.122437,2.122739,2.1230612,2.1234484,2.123911,2.1244063,2.1248922,2.125396,2.125846,2.126238,2.126617,2.1270425,2.1275592,2.1281223,2.1288042,2.12958,2.130538,2.1315598,2.1324816,2.1333313,2.1341157,2.1349504,2.1359205,2.1370249,2.1382127
2.1452794,2.1449723,2.144632,2.1442947,2.143981,2.1437216,2.1435509,2.143436,2.1433418,2.1432476,2.1430628,2.142734,2.1423235,2.1419487,2.141663,2.1414604,2.141335,2.1412272,2.1410844,2.140905,2.1407337,2.1406164,2.1405382,2.1404746,2.1403985,2.1402826,2.140134,2.1399856,2.139856,2.1397023,2.1394796,2.1391625,2.1387558,2.1383297,2.13797,2.1377113,2.137538,2.1373916,2.1372101,2.1369896,2.1367407,2.136447,2.1361132,2.135827,2.1355321,2.135223,2.134872,2.1344774,2.1340575,2.1336484,2.133295,2.132958,2.132617,2.1322732,2.131934,2.1315947,2.1312437,2.130887,2.1305375,2.1301587,2.129723,2.1292896,2.1288981,2.1285696,2.1283443,2.1281872,2.128059,2.1279151,2.127705,2.127397,2.1270266,2.1266747,2.1263866,2.1261714,2.125992,2.125818,2.125618,2.1253715,2.1251059,2.1248884,2.124718,2.1245794,2.1244965,2.1244884,2.124535,2.124597,2.1246476,2.1246524,2.124608,2.124535,2.124483,2.124495,2.1245832,2.1247053,2.124813,2.1249027,2.1249561,2.1249352,2.1248705,2.1248002,2.124726,2.124664,2.12459,2.1244779,2.124301,2.124047,2.1237352,2.123405,2.123077,2.1227398,2.1224008,2.1220496,2.1216924,2.1213431,2.1209917,2.1206112,2.1202123,2.1197836,2.119349,2.1189702,2.1186924,2.1184978,2.1183343,2.1181767,2.1179776,2.1177378,2.1174958,2.1172967,2.1171744,2.1171365,2.1171446,2.1171544,2.1171582,2.1171298,2.1170487,2.1169255,2.1167798,2.1166105,2.1164145,2.1161962,2.1159685,2.1157398,2.1155176,2.1153104,2.115118,2.1149302,2.1147418,2.1145754,2.1144428,2.114331,2.1142192,2.1140792,2.1138654,2.1135538,2.1131806,2.1127868,2.112442,2.1122007,2.1120396,2.1119022,2.1117525,2.111553,2.1112952,2.111005,2.1107137,2.110435,2.1101718,2.1098933,2.1095905,2.10928,2.108994,2.1087632,2.108591,2.1084528,2.10832,2.1081667,2.1080081,2.1078537,2.1077113,2.1075742,2.107428,2.107266,2.1070886,2.1069016,2.1067305,2.1065836,2.1064482,2.1063232,2.1062174,2.106101,2.1059604,2.1057806,2.1055484,2.1052804,2.1050277,2.1048348,2.104679,2.1045325,2.1043453,2.1040764,2.1037464,2.1034138,2.1031299,2.1029277,2.1027904,2.102682,2.1025836,2.1024752,2.1023412,2.1022015,2.1020815,2.1019769,2.1019096,2.101914,2.101983,2.1020842,2.1021793,2.1022544,2.102309,2.102364,2.102439,2.1025407,2.1026502,2.1027389,2.1028185,2.1029158,2.1030889,2.1032984,2.1035082,2.1037028,2.1038742,2.104035,2.1042306,2.1044633,2.104702,2.1048698,2.104926,2.104894,2.1048143,2.1047237,2.1046555,2.1046205,2.1045933,2.104565,2.1045308,2.1044888,2.1044645,2.1044579,2.1044412,2.104402,2.1043448,2.1043031,2.1043074,2.1043456,2.1044135,2.1044617,2.1044793,2.1044815,2.104536,2.1046917,2.1049044,2.1051648,2.105488,2.1059113,2.1063404,2.106727,2.1070986,2.107454,2.1078138,2.1082423,2.1087408,2.109249,2.1096964,2.110042,2.1102939,2.1104963,2.1107204,2.1110082,2.1113734,2.111774,2.1121752,2.1125693,2.1129098,2.1132069,2.1134987,2.1137824,2.1140857,2.1144521,2.114891,2.1153617,2.1158187,2.1162968,2.1167228,2.117095,2.1174636,2.1178913,2.118416,2.1189888,2.1196737,2.1204453,2.1213856,2.122384,2.1232886,2.1241267,2.1249006,2.1257224,2.1266754,2.127758,2.1289175
2.1369777,2.136683,2.1363375,2.1359742,2.135644,2.1353922,2.1352296,2.1351123,2.1350062,2.1348968,2.1347115,2.1344035,2.1340294,2.133701,2.133461,2.1332922,2.1331892,2.1330924,2.1329498,2.132762,2.132576,2.1324382,2.1323328,2.1322358,2.1321254,2.1319783,2.1318047,2.1316411,2.131505,2.131349,2.1311278,2.130815,2.1304173,2.1300035,2.1296566,2.1294098,2.1292474,2.1291099,2.1289363,2.128722,2.128475,2.1281753,2.1278262,2.1275232,2.1272116,2.1268964,2.1265516,2.126175,2.12578,2.1253915,2.1250482,2.124713,2.1243644,2.1240082,2.1236563,2.1233053,2.1229444,2.1225824,2.1222296,2.1218507,2.121415,2.1209817,2.1205926,2.1202734,2.1200666,2.1199365,2.1198447,2.1197457,2.11958,2.1193113,2.1189697,2.1186318,2.1183476,2.1181273,2.1179357,2.1177468,2.1175313,2.1172662,2.1169767,2.1167324,2.1165376,2.1163764,2.116284,2.116282,2.1163468,2.116434,2.1165106,2.116539,2.1165214,2.1164737,2.116446,2.1164787,2.116579,2.116705,2.1168091,2.1168935,2.1169403,2.116909,2.116828,2.116737,2.116638,2.116551,2.1164534,2.116321,2.1161263,2.115856,2.1155283,2.1151855,2.1148505,2.114513,2.1141844,2.113853,2.1135187,2.1131864,2.1128402,2.1124527,2.1120405,2.1115994,2.1111603,2.1107845,2.1105165,2.1103337,2.110178,2.1100225,2.1098237,2.1095803,2.1093311,2.1091237,2.1089954,2.1089551,2.1089618,2.108971,2.1089687,2.1089222,2.108809,2.1086435,2.1084547,2.1082487,2.108025,2.1077912,2.1075583,2.1073298,2.1071072,2.106892,2.1066887,2.1064868,2.1062858,2.1061146,2.1059911,2.1058993,2.1058102,2.105688,2.1054802,2.1051629,2.104776,2.1043692,2.1040192,2.1037812,2.1036296,2.1035018,2.1033554,2.1031513,2.1028807,2.1025717,2.1022615,2.101968,2.101698,2.1014185,2.101118,2.100811,2.1005235,2.1002803,2.1000896,2.0999324,2.0997853,2.0996265,2.0994768,2.099341,2.0992184,2.0990963,2.0989552,2.0987897,2.0986037,2.0984077,2.09823,2.098081,2.0979486,2.097827,2.0977252,2.0976148,2.0974789,2.0973048,2.0970817,2.0968251,2.0965843,2.096404,2.0962589,2.0961208,2.0959358,2.0956638,2.0953264,2.0949855,2.0946946,2.0944874,2.0943475,2.0942369,2.0941362,2.0940218,2.0938764,2.093721,2.0935822,2.093453,2.0933585,2.0933409,2.0933938,2.093483,2.0935686,2.0936341,2.093676,2.0937185,2.0937867,2.0938952,2.0940244,2.0941415,2.0942507,2.0943751,2.0945675,2.0947826,2.0949879,2.0951762,2.0953484,2.0955186,2.0957327,2.0959873,2.0962467,2.0964322,2.0965009,2.0964756,2.0963998,2.0963094,2.096241,2.0962071,2.0961823,2.0961566,2.0961227,2.0960727,2.096035,2.096012,2.0959773,2.0959215,2.0958517,2.0958009,2.095797,2.095826,2.095882,2.095912,2.0959067,2.095888,2.09593,2.0960875,2.0963168,2.0966015,2.0969536,2.0974026,2.097845,2.0982327,2.0986018,2.0989542,2.0993128,2.0997448,2.1002445,2.100748,2.1011875,2.1015248,2.1017704,2.1019716,2.1022005,2.102498,2.1028793,2.103301,2.1037238,2.1041334,2.1044765,2.10477,2.105054,2.1053283,2.1056213,2.1059732,2.1063914,2.106836,2.1072605,2.107706,2.1081016,2.1084504,2.1088092,2.109239,2.1097713,2.110354,2.111043,2.1118114,2.1127381,2.113716,2.1146011,2.115424,2.1161826,2.1169882,2.1179214,2.1189804,2.1201074
2.129224,2.128923,2.1285653,2.128171,2.127791,2.1275005,2.1273282,2.1271996,2.127082,2.1269646,2.1267886,2.1265182,2.1262045,2.1259446,2.1257696,2.1256466,2.1255746,2.1254885,2.125341,2.1251397,2.1249344,2.1247725,2.1246386,2.1245098,2.1243696,2.1241963,2.1240046,2.1238322,2.1236951,2.1235425,2.1233292,2.1230283,2.1226473,2.122252,2.1219225,2.1216908,2.121541,2.1214151,2.1212528,2.1210485,2.1208053,2.1204994,2.1201353,2.1198163,2.1194882,2.1191664,2.118826,2.1184647,2.118091,2.1177216,2.1173897,2.1170561,2.1167016,2.1163335,2.1159706,2.1156092,2.11524,2.114876,2.1145244,2.1141489,2.113721,2.1132965,2.112917,2.1126094,2.112418,2.1123064,2.112237,2.1121655,2.1120286,2.1117873,2.1114683,2.111144,2.1108649,2.1106424,2.1104424,2.1102421,2.110013,2.1097302,2.1094189,2.10915,2.1089315,2.1087525,2.108656,2.1086655,2.1087518,2.108863,2.1089644,2.1090152,2.1090202,2.1089954,2.1089907,2.1090422,2.1091547,2.1092844,2.1093884,2.1094675,2.1095047,2.109458,2.109354,2.109231,2.109096,2.108973,2.1088407,2.1086783,2.1084616,2.1081777,2.1078448,2.107503,2.1071744,2.1068482,2.1065397,2.1062367,2.1059308,2.1056182,2.105279,2.1048856,2.1044593,2.1040063,2.1035604,2.1031852,2.1029208,2.1027417,2.1025884,2.102435,2.1022382,2.101999,2.1017537,2.1015463,2.1014154,2.1013722,2.1013756,2.1013813,2.1013703,2.1013074,2.1011658,2.100963,2.1007366,2.1004992,2.1002529,2.1000051,2.0997672,2.0995383,2.0993142,2.0990956,2.0988855,2.0986753,2.0984666,2.0982947,2.0981832,2.0981126,2.0980468,2.0979426,2.0977411,2.0974164,2.0970144,2.0965915,2.0962315,2.0959928,2.0958476,2.0957243,2.0955806,2.0953746,2.0950966,2.0947769,2.0944564,2.0941553,2.093882,2.0936048,2.0933082,2.0930057,2.0927167,2.0924618,2.0922515,2.0920749,2.0919127,2.0917487,2.0916078,2.09149,2.0913877,2.0912828,2.0911505,2.0909867,2.0907974,2.0905957,2.0904121,2.0902593,2.0901244,2.0900028,2.0899005,2.089792,2.089657,2.089486,2.089269,2.0890207,2.088789,2.0886183,2.08848,2.0883455,2.088162,2.0878878,2.0875473,2.0872035,2.0869102,2.0867026,2.0865648,2.0864575,2.08636,2.0862439,2.0860872,2.0859134,2.0857515,2.0855932,2.0854673,2.0854201,2.0854473,2.085515,2.0855832,2.0856352,2.0856638,2.0856967,2.0857646,2.0858846,2.0860367,2.0861835,2.0863245,2.0864773,2.0866926,2.086918,2.0871243,2.087312,2.0874863,2.0876644,2.087889,2.0881548,2.0884206,2.0886078,2.088676,2.0886507,2.0885754,2.0884876,2.088421,2.0883894,2.0883663,2.0883403,2.088303,2.088243,2.08819,2.088152,2.088101,2.0880313,2.0879517,2.087894,2.0878825,2.0879006,2.087945,2.0879593,2.0879354,2.0879002,2.087935,2.088098,2.088346,2.0886562,2.089038,2.089513,2.0899687,2.0903583,2.0907233,2.0910697,2.0914235,2.0918515,2.0923436,2.0928338,2.093256,2.0935812,2.093821,2.0940223,2.0942593,2.0945678,2.0949664,2.0954113,2.095859,2.0962877,2.096641,2.0969365,2.097219,2.0974898,2.0977778,2.0981202,2.0985217,2.098941,2.0993323,2.0997434,2.1001098,2.100438,2.100789,2.1012237,2.1017652,2.102357,2.1030517,2.103819,2.104733,2.105692,2.106557,2.1073601,2.1081002,2.1088853,2.1097965,2.1108282,2.111921
2.1220315,2.121719,2.1213365,2.1209064,2.1204767,2.1201289,2.1199121,2.1197643,2.1196377,2.1195092,2.119318,2.1190662,2.118816,2.1186275,2.1185167,2.1184409,2.1183958,2.1183147,2.1181567,2.1179366,2.11771,2.117525,2.1173663,2.1172113,2.1170459,2.1168528,2.1166472,2.116468,2.1163292,2.116178,2.1159706,2.1156807,2.115316,2.1149406,2.1146297,2.114414,2.1142795,2.1141698,2.1140237,2.113833,2.1135974,2.113289,2.112914,2.1125827,2.112244,2.111918,2.111583,2.1112347,2.1108782,2.1105256,2.1102037,2.1098716,2.1095147,2.1091385,2.108768,2.1084018,2.108031,2.1076708,2.107327,2.1069632,2.1065485,2.1061382,2.10577,2.1054716,2.1052856,2.1051784,2.1051154,2.1050515,2.1049254,2.104701,2.104401,2.1040924,2.103825,2.1036096,2.1034112,2.1032085,2.1029727,2.1026769,2.1023464,2.102055,2.1018147,2.1016207,2.1015215,2.1015403,2.1016412,2.1017678,2.1018815,2.1019416,2.1019573,2.1019452,2.1019545,2.1020195,2.1021423,2.1022785,2.1023853,2.1024647,2.1024945,2.102433,2.1023052,2.1021483,2.101974,2.1018114,2.101639,2.1014442,2.1012063,2.1009154,2.1005874,2.1002593,2.0999455,2.09964,2.099358,2.0990858,2.0988097,2.0985184,2.098185,2.097785,2.0973463,2.0968776,2.0964193,2.0960345,2.0957632,2.0955768,2.0954156,2.0952592,2.0950656,2.0948374,2.0946062,2.094411,2.0942864,2.0942457,2.0942512,2.094257,2.094244,2.0941715,2.0940094,2.0937786,2.093525,2.0932627,2.092999,2.0927386,2.092494,2.0922623,2.0920362,2.091816,2.0916028,2.0913897,2.0911775,2.0910091,2.09091,2.0908618,2.0908203,2.0907335,2.0905375,2.0902038,2.0897827,2.0893385,2.0889623,2.088716,2.0885694,2.088445,2.0882998,2.0880904,2.087808,2.0874853,2.0871625,2.0868611,2.0865905,2.086318,2.0860276,2.0857296,2.0854387,2.0851703,2.0849383,2.0847402,2.08456,2.0843875,2.08425,2.0841453,2.0840602,2.0839722,2.0838523,2.0836954,2.083511,2.0833106,2.0831265,2.0829716,2.0828333,2.0827098,2.0826068,2.0824966,2.082361,2.08219,2.0819747,2.0817308,2.0815039,2.0813375,2.0812006,2.0810652,2.0808794,2.080605,2.080266,2.0799243,2.0796342,2.079431,2.0792985,2.0791998,2.0791092,2.0789943,2.07883,2.0786388,2.0784533,2.0782661,2.0781107,2.078033,2.078031,2.0780735,2.078121,2.0781586,2.078178,2.078208,2.0782819,2.0784163,2.0785904,2.0787659,2.0789354,2.0791144,2.07935,2.079586,2.0797932,2.079978,2.0801497,2.0803275,2.080553,2.0808158,2.0810735,2.0812488,2.0813081,2.0812802,2.0812082,2.0811276,2.0810702,2.0810459,2.0810266,2.0809999,2.0809548,2.0808816,2.0808127,2.080759,2.0806954,2.0806177,2.080534,2.080473,2.0804572,2.0804682,2.0805044,2.0805085,2.080473,2.080429,2.080463,2.0806344,2.0809011,2.0812373,2.0816493,2.0821486,2.0826144,2.0830026,2.08336,2.0836983,2.0840425,2.0844607,2.0849395,2.085412,2.0858183,2.0861359,2.0863767,2.086586,2.086835,2.0871584,2.087575,2.0880427,2.0885143,2.0889616,2.089323,2.0896192,2.0898986,2.0901651,2.0904481,2.0907826,2.0911667,2.0915623,2.091922,2.0923033,2.0926461,2.0929618,2.093313,2.0937574,2.0943098,2.0949118,2.095612,2.096377,2.0972795,2.098219,2.099061,2.0998406,2.1005573,2.1013174,2.1022022,2.1032038,2.1042604
2.1144795,2.1141636,2.11376,2.1132936,2.1128187,2.1124244,2.1121726,2.1119962,2.1118436,2.1116922,2.1114993,2.1112533,2.1110263,2.1109037,2.1108556,2.1108174,2.110787,2.1106958,2.1105137,2.1102679,2.1100197,2.1098123,2.1096296,2.1094542,2.1092725,2.109068,2.108858,2.1086798,2.1085434,2.108397,2.1081963,2.1079183,2.1075711,2.1072168,2.1069267,2.106731,2.1066155,2.106526,2.1064036,2.1062348,2.1060147,2.1057138,2.1053379,2.1050038,2.1046662,2.1043491,2.1040306,2.103704,2.1033711,2.1030397,2.1027327,2.1024027,2.1020427,2.1016583,2.1012788,2.1009083,2.1005383,2.100185,2.0998516,2.099502,2.0991075,2.0987158,2.0983634,2.0980759,2.0978928,2.0977829,2.0977151,2.0976458,2.0975194,2.0973034,2.097019,2.0967274,2.0964737,2.0962684,2.0960793,2.0958843,2.0956492,2.095348,2.0950072,2.0946984,2.0944438,2.0942426,2.094151,2.094186,2.0943046,2.0944438,2.0945635,2.0946264,2.0946426,2.0946326,2.094645,2.0947142,2.09484,2.0949788,2.0950863,2.0951648,2.0951872,2.0951118,2.0949607,2.094771,2.0945563,2.0943537,2.0941408,2.093913,2.093657,2.0933638,2.0930467,2.0927343,2.092442,2.0921588,2.0919042,2.0916648,2.0914226,2.0911565,2.0908356,2.0904343,2.0899878,2.089509,2.0890427,2.0886517,2.0883713,2.088172,2.0880003,2.087839,2.0876493,2.0874362,2.087224,2.0870447,2.086929,2.0868907,2.0868974,2.0869045,2.0868914,2.086813,2.0866375,2.086389,2.0861158,2.085839,2.0855641,2.085297,2.0850477,2.0848136,2.084587,2.0843654,2.0841498,2.0839336,2.0837178,2.08355,2.0834615,2.0834322,2.0834131,2.0833435,2.0831523,2.082809,2.0823665,2.0818973,2.0815005,2.0812404,2.0810847,2.0809526,2.0807996,2.0805798,2.0802894,2.0799613,2.079636,2.0793328,2.0790617,2.0787926,2.078508,2.078213,2.0779185,2.0776367,2.0773826,2.0771604,2.076961,2.076779,2.076644,2.0765514,2.0764842,2.0764136,2.0763097,2.0761647,2.0759907,2.0757964,2.0756142,2.0754566,2.075314,2.0751858,2.0750794,2.074966,2.0748267,2.074654,2.0744407,2.074201,2.0739794,2.0738149,2.0736783,2.0735397,2.073351,2.0730762,2.0727406,2.0724034,2.0721166,2.071916,2.0717907,2.0716994,2.0716174,2.0715063,2.0713348,2.0711255,2.0709176,2.0707045,2.070524,2.0704205,2.0703926,2.0704112,2.0704381,2.0704606,2.0704722,2.0705023,2.0705829,2.0707293,2.07092,2.0711143,2.0713043,2.0715022,2.07175,2.0719886,2.0721905,2.0723667,2.0725305,2.0727,2.0729165,2.073163,2.0733976,2.0735483,2.0735888,2.073553,2.0734825,2.0734096,2.073361,2.0733438,2.0733287,2.0733,2.0732465,2.073163,2.0730834,2.073021,2.072956,2.0728836,2.0728097,2.0727584,2.0727465,2.0727565,2.0727887,2.072786,2.072743,2.072693,2.0727267,2.0729077,2.073194,2.0735562,2.073997,2.07452,2.0749965,2.0753822,2.0757313,2.076059,2.076395,2.0768044,2.077269,2.077723,2.0781136,2.0784245,2.0786705,2.0788903,2.0791523,2.0794888,2.0799198,2.0804057,2.0808964,2.0813596,2.0817285,2.082025,2.0823,2.0825622,2.082842,2.0831704,2.0835416,2.0839167,2.084251,2.0846062,2.0849328,2.0852437,2.0856018,2.086059,2.0866225,2.087233,2.087936,2.088697,2.0895872,2.0905056,2.0913234,2.0920777,2.0927687,2.093507,2.0943685,2.0953436,2.0963671
2.1066127,2.1063166,2.105918,2.1054356,2.104928,2.1044965,2.1042085,2.1039968,2.103805,2.1036134,2.1033964,2.103149,2.1029363,2.1028366,2.1028159,2.1028018,2.1027827,2.102688,2.10249,2.1022196,2.1019473,2.1017313,2.10154,2.1013546,2.1011658,2.1009583,2.1007485,2.1005723,2.1004379,2.1002922,2.100096,2.099829,2.0995026,2.0991757,2.0989141,2.0987449,2.0986557,2.0985956,2.098505,2.0983663,2.098171,2.097886,2.0975175,2.09719,2.096859,2.096553,2.096251,2.095944,2.095632,2.095321,2.0950308,2.094708,2.0943518,2.0939703,2.0935974,2.0932398,2.0928864,2.0925546,2.0922432,2.0919154,2.0915432,2.0911703,2.0908308,2.090547,2.0903575,2.0902352,2.0901513,2.0900636,2.0899253,2.0897071,2.0894313,2.0891533,2.0889134,2.0887184,2.0885396,2.0883517,2.0881183,2.0878124,2.0874596,2.0871325,2.0868611,2.0866518,2.0865636,2.0866108,2.08674,2.0868835,2.087002,2.0870624,2.0870762,2.087067,2.0870833,2.0871563,2.087287,2.08743,2.087543,2.087627,2.0876527,2.0875766,2.087416,2.087204,2.086957,2.0867167,2.0864632,2.0861993,2.085919,2.0856185,2.085306,2.0850034,2.084724,2.0844572,2.0842257,2.0840187,2.0838122,2.0835757,2.0832715,2.0828745,2.082426,2.081942,2.0814693,2.0810688,2.080772,2.0805519,2.0803616,2.0801878,2.0800004,2.0798025,2.0796127,2.0794547,2.0793538,2.0793233,2.0793345,2.0793462,2.079335,2.0792537,2.0790684,2.078804,2.078514,2.0782213,2.0779343,2.0776548,2.0773928,2.0771472,2.076912,2.0766835,2.0764642,2.0762432,2.076024,2.0758557,2.0757742,2.0757594,2.075758,2.0757015,2.0755138,2.0751617,2.074699,2.074204,2.0737822,2.0735006,2.0733256,2.0731764,2.0730047,2.0727663,2.072462,2.0721276,2.0718002,2.071498,2.071229,2.0709639,2.0706859,2.0703943,2.070096,2.0698006,2.0695229,2.0692735,2.0690494,2.06885,2.0687075,2.0686154,2.0685554,2.0684965,2.068407,2.0682802,2.068124,2.0679474,2.0677779,2.067627,2.0674858,2.067357,2.0672479,2.0671325,2.066989,2.0668132,2.0665982,2.0663586,2.0661352,2.0659668,2.0658221,2.0656753,2.065482,2.0652108,2.064887,2.0645647,2.064293,2.064106,2.0639958,2.0639231,2.0638578,2.063754,2.0635781,2.063354,2.0631247,2.0628855,2.0626802,2.062552,2.0624957,2.0624847,2.0624857,2.06249,2.0624933,2.0625246,2.062614,2.0627725,2.0629768,2.063186,2.0633886,2.0635986,2.0638537,2.0640912,2.0642848,2.0644488,2.064598,2.0647542,2.0649529,2.0651746,2.0653782,2.0654974,2.065517,2.0654745,2.0654087,2.065349,2.0653148,2.065308,2.0652983,2.0652661,2.065204,2.065113,2.0650263,2.0649633,2.064907,2.0648518,2.0647984,2.064765,2.064765,2.064782,2.064816,2.0648136,2.0647695,2.064722,2.064762,2.0649557,2.0652635,2.0656514,2.0661206,2.066665,2.0671487,2.0675292,2.0678668,2.068181,2.0685048,2.0689006,2.0693474,2.0697832,2.070161,2.0704703,2.0707273,2.070963,2.0712397,2.0715888,2.072031,2.072528,2.0730305,2.0735023,2.0738726,2.0741627,2.0744276,2.0746799,2.0749512,2.0752692,2.0756254,2.0759788,2.0762908,2.0766282,2.0769503,2.0772722,2.077651,2.0781324,2.0787117,2.079329,2.0800295,2.0807805,2.0816505,2.082541,2.0833278,2.084053,2.0847197,2.0854359,2.0862777,2.0872319,2.0882282
2.0986032,2.0983515,2.0979888,2.0975177,2.0969987,2.0965424,2.0962195,2.095971,2.095732,2.0954876,2.0952249,2.0949574,2.094748,2.0946577,2.0946512,2.0946493,2.0946317,2.0945306,2.0943222,2.094041,2.093757,2.093525,2.0933135,2.0931275,2.0929415,2.0927362,2.0925303,2.0923557,2.0922215,2.092074,2.0918794,2.0916233,2.091319,2.0910234,2.0907962,2.09066,2.0906029,2.0905771,2.0905228,2.0904193,2.0902553,2.0899935,2.0896397,2.0893235,2.0890043,2.0887108,2.0884223,2.0881307,2.0878365,2.087543,2.0872693,2.0869555,2.0866108,2.0862436,2.0858924,2.085565,2.0852466,2.084949,2.0846684,2.0843654,2.0840125,2.0836513,2.0833151,2.0830274,2.0828238,2.0826838,2.0825782,2.0824666,2.0823078,2.0820804,2.081806,2.0815358,2.081306,2.0811205,2.0809517,2.0807714,2.0805402,2.0802302,2.079867,2.079521,2.0792332,2.0790143,2.078927,2.0789807,2.079114,2.0792549,2.0793662,2.07942,2.07943,2.0794225,2.079444,2.0795217,2.0796556,2.0798016,2.0799212,2.0800152,2.0800533,2.0799913,2.0798378,2.079619,2.079353,2.0790815,2.0787914,2.0784917,2.0781837,2.0778685,2.0775506,2.0772462,2.0769694,2.0767107,2.0764976,2.076322,2.0761528,2.0759506,2.0756705,2.0752866,2.074844,2.074362,2.0738883,2.0734797,2.0731637,2.072917,2.072701,2.07251,2.0723183,2.0721316,2.0719628,2.0718255,2.0717409,2.07172,2.0717373,2.071753,2.071744,2.07166,2.0714657,2.071186,2.070879,2.0705705,2.0702674,2.0699701,2.0696878,2.0694213,2.0691676,2.0689273,2.0686996,2.0684736,2.0682504,2.06808,2.0680008,2.067995,2.0680034,2.0679553,2.06777,2.0674107,2.066933,2.066417,2.0659716,2.065665,2.0654638,2.0652905,2.065093,2.0648313,2.064509,2.0641646,2.0638342,2.0635338,2.0632694,2.0630102,2.0627375,2.0624495,2.0621486,2.0618403,2.0615387,2.0612621,2.0610104,2.0607853,2.0606217,2.0605168,2.0604508,2.0603938,2.0603142,2.0602067,2.0600739,2.059925,2.0597792,2.0596447,2.0595143,2.059391,2.0592828,2.059167,2.059021,2.0588417,2.0586233,2.0583801,2.058151,2.0579736,2.057816,2.0576572,2.0574582,2.0571947,2.0568895,2.0565913,2.056345,2.0561824,2.0560985,2.056054,2.0560136,2.055925,2.055749,2.055513,2.0552657,2.055006,2.0547795,2.0546267,2.0545418,2.0544987,2.05447,2.0544531,2.0544467,2.0544786,2.0545754,2.0547442,2.054957,2.0551715,2.055378,2.055592,2.0558467,2.056078,2.0562596,2.0564077,2.0565393,2.0566754,2.056851,2.057043,2.0572126,2.0573006,2.0573013,2.0572553,2.057197,2.0571544,2.0571365,2.0571427,2.0571384,2.0571027,2.0570328,2.0569377,2.056851,2.0567951,2.056757,2.0567265,2.0567005,2.0566907,2.0567076,2.056736,2.056778,2.0567822,2.0567431,2.056703,2.056755,2.056964,2.0572925,2.0577044,2.0581987,2.0587592,2.0592465,2.05962,2.059944,2.0602422,2.0605512,2.0609298,2.0613568,2.0617752,2.0621448,2.062458,2.062729,2.0629818,2.0632725,2.0636315,2.0640783,2.0645785,2.065085,2.0655556,2.0659199,2.0661962,2.0664444,2.0666804,2.0669365,2.0672395,2.067577,2.0679088,2.068203,2.0685303,2.0688617,2.0692096,2.0696223,2.070135,2.0707347,2.0713563,2.0720496,2.072781,2.0736203,2.0744758,2.0752282,2.075924,2.0765705,2.0772703,2.0780997,2.079042,2.0800216
2.0906324,2.0904362,2.0901265,2.0896888,2.0891786,2.088712,2.0883636,2.0880833,2.0878038,2.087512,2.0872068,2.086913,2.0866995,2.0866218,2.0866292,2.0866315,2.0866075,2.0864954,2.0862787,2.085999,2.0857184,2.0854716,2.0852382,2.0850394,2.0848436,2.0846372,2.0844376,2.0842686,2.0841353,2.083989,2.0837965,2.08355,2.0832682,2.0830042,2.0828114,2.082708,2.0826795,2.0826821,2.082659,2.0825877,2.082455,2.082221,2.0818872,2.0815864,2.0812802,2.0809999,2.0807228,2.0804436,2.080161,2.0798788,2.0796146,2.0793052,2.078969,2.0786161,2.07829,2.0779986,2.0777197,2.0774577,2.0772042,2.0769188,2.076574,2.0762124,2.07587,2.075573,2.0753574,2.075204,2.0750835,2.0749536,2.074778,2.074541,2.074267,2.0740032,2.073784,2.0736113,2.0734572,2.0732899,2.0730681,2.0727615,2.0723934,2.0720348,2.071734,2.0715084,2.0714226,2.0714812,2.0716155,2.071751,2.0718522,2.0718966,2.0718994,2.0718913,2.0719151,2.0719936,2.0721238,2.072266,2.0723858,2.0724874,2.0725422,2.072505,2.072374,2.0721664,2.0718966,2.0716062,2.0712898,2.070961,2.070629,2.0702968,2.0699673,2.069653,2.0693712,2.0691137,2.068914,2.068766,2.068634,2.0684679,2.068216,2.067852,2.0674229,2.066951,2.0664847,2.0660734,2.0657415,2.0654683,2.065226,2.0650148,2.0648139,2.0646322,2.0644765,2.0643542,2.0642798,2.0642629,2.0642822,2.0642967,2.0642843,2.064194,2.06399,2.0636988,2.063379,2.0630598,2.0627444,2.0624313,2.0621285,2.0618389,2.061563,2.0613058,2.0610666,2.0608344,2.060608,2.0604343,2.0603542,2.0603485,2.0603573,2.0603101,2.060124,2.0597618,2.0592752,2.0587459,2.058282,2.0579517,2.0577245,2.0575264,2.0573025,2.057016,2.0566745,2.0563176,2.055982,2.0556831,2.0554214,2.0551682,2.0549002,2.0546165,2.054316,2.0540001,2.0536819,2.0533824,2.053105,2.052853,2.052662,2.0525336,2.0524511,2.052387,2.052311,2.0522184,2.0521097,2.05199,2.0518727,2.0517607,2.0516462,2.0515327,2.0514302,2.051318,2.0511746,2.0509973,2.0507812,2.050539,2.0503068,2.0501199,2.0499506,2.049779,2.0495734,2.0493164,2.04903,2.0487561,2.0485358,2.0483985,2.0483422,2.0483274,2.0483136,2.0482426,2.048071,2.047828,2.0475702,2.047298,2.0470588,2.0468886,2.0467796,2.0467076,2.046651,2.0466146,2.0465975,2.0466275,2.0467272,2.0468993,2.0471113,2.0473213,2.0475235,2.0477333,2.0479808,2.048202,2.0483723,2.0485063,2.0486205,2.048736,2.0488873,2.0490499,2.0491877,2.0492482,2.049232,2.0491843,2.0491357,2.0491066,2.0491033,2.0491192,2.0491166,2.0490768,2.0490007,2.0489058,2.0488248,2.0487833,2.048767,2.0487638,2.0487645,2.0487785,2.0488136,2.0488558,2.04891,2.048925,2.0488944,2.048862,2.0489254,2.049149,2.0494947,2.049928,2.050441,2.051014,2.0515034,2.0518708,2.052184,2.052468,2.0527613,2.0531216,2.0535283,2.0539303,2.0542927,2.0546103,2.0548944,2.055159,2.055458,2.0558205,2.0562642,2.0567617,2.0572648,2.0577276,2.0580797,2.0583396,2.0585685,2.0587854,2.0590236,2.0593076,2.0596242,2.059936,2.0602179,2.0605435,2.060892,2.0612738,2.0617242,2.0622673,2.0628846,2.0635042,2.0641828,2.0648859,2.0656888,2.0665073,2.0672293,2.0679026,2.0685353,2.069228,2.070055,2.0709953,2.0719714
2.0829308,2.0827847,2.0825288,2.082131,2.081639,2.0811722,2.0808074,2.0805042,2.0802,2.079883,2.079557,2.0792527,2.0790396,2.0789664,2.078978,2.0789819,2.078954,2.0788376,2.0786204,2.0783446,2.0780702,2.0778306,2.0775986,2.0773702,2.0771432,2.0769258,2.0767283,2.0765605,2.0764275,2.0762796,2.0760913,2.0758553,2.0755944,2.0753596,2.0751958,2.0751176,2.07511,2.0751314,2.075127,2.075078,2.0749726,2.0747666,2.0744543,2.0741692,2.0738764,2.073604,2.0733342,2.0730605,2.0727804,2.0724978,2.0722308,2.071915,2.0715764,2.0712302,2.0709238,2.0706635,2.0704174,2.070181,2.0699444,2.069664,2.0693135,2.0689406,2.0685859,2.0682795,2.0680592,2.067904,2.0677817,2.067647,2.067466,2.067227,2.066957,2.066704,2.0665016,2.066348,2.066218,2.0660734,2.0658712,2.0655794,2.0652156,2.064852,2.0645454,2.0643158,2.0642314,2.0642943,2.0644298,2.0645587,2.0646472,2.0646794,2.0646718,2.0646586,2.06468,2.0647533,2.0648732,2.065002,2.0651128,2.0652156,2.0652864,2.0652795,2.065184,2.0650024,2.064742,2.0644476,2.0641184,2.0637727,2.0634246,2.0630805,2.0627398,2.0624135,2.0621223,2.0618625,2.0616727,2.061549,2.0614495,2.061316,2.061092,2.0607476,2.0603356,2.059879,2.059424,2.0590143,2.05867,2.0583758,2.0581107,2.057879,2.0576668,2.0574841,2.0573347,2.0572202,2.0571504,2.0571322,2.0571465,2.0571542,2.05713,2.0570278,2.0568142,2.0565157,2.056192,2.0558698,2.05555,2.0552278,2.05491,2.0545993,2.0543017,2.0540261,2.0537748,2.053536,2.0533068,2.0531323,2.0530477,2.0530334,2.0530324,2.0529757,2.052785,2.05242,2.0519304,2.051395,2.0509179,2.0505686,2.0503206,2.0501013,2.0498557,2.049548,2.04919,2.0488229,2.0484831,2.048184,2.047925,2.047676,2.0474143,2.047138,2.0468435,2.0465298,2.0462065,2.0458946,2.045599,2.0453238,2.0451057,2.0449495,2.044844,2.0447648,2.0446858,2.0446014,2.0445118,2.0444179,2.0443282,2.0442402,2.0441434,2.0440419,2.0439477,2.043844,2.0437102,2.043544,2.0433393,2.0431056,2.0428762,2.042684,2.0425048,2.042321,2.042108,2.0418544,2.0415802,2.0413234,2.041123,2.041004,2.0409694,2.0409777,2.040985,2.0409288,2.0407639,2.0405195,2.0402575,2.0399811,2.0397363,2.0395565,2.0394309,2.0393364,2.0392566,2.0392034,2.0391755,2.0392003,2.0392976,2.0394652,2.039669,2.0398679,2.040059,2.0402577,2.0404963,2.0407093,2.040872,2.0409982,2.0410995,2.0411973,2.0413275,2.0414648,2.0415764,2.041615,2.0415876,2.0415406,2.0414991,2.04148,2.041488,2.0415087,2.0415046,2.0414586,2.0413778,2.041285,2.0412126,2.0411878,2.0411909,2.0412068,2.041226,2.041256,2.0413058,2.041363,2.0414329,2.0414622,2.0414424,2.0414195,2.041492,2.041728,2.042088,2.042536,2.043064,2.043644,2.0441358,2.0445018,2.0448089,2.0450814,2.0453596,2.0457008,2.0460868,2.0464725,2.0468273,2.0471454,2.0474358,2.0477061,2.0480053,2.0483642,2.0488024,2.0492926,2.049788,2.0502396,2.0505793,2.0508237,2.0510356,2.0512354,2.0514555,2.0517197,2.0520155,2.05231,2.0525842,2.0529132,2.0532818,2.0536962,2.05418,2.0547466,2.0553722,2.0559824,2.0566373,2.0573082,2.0580754,2.0588624,2.0595627,2.0602226,2.0608492,2.0615392,2.0623674,2.063311,2.064291
2.0757394,2.0756323,2.0754216,2.075054,2.0745754,2.0741067,2.0737255,2.0734034,2.0730839,2.072757,2.072427,2.072125,2.071918,2.0718503,2.0718648,2.07187,2.071843,2.0717282,2.0715156,2.0712452,2.0709732,2.070733,2.070496,2.070259,2.0700252,2.0697908,2.069572,2.0693898,2.0692406,2.0690746,2.06889,2.0686646,2.0684223,2.0682113,2.0680728,2.068016,2.068022,2.0680544,2.0680618,2.0680296,2.0679498,2.0677714,2.06748,2.0672104,2.066925,2.0666552,2.0663834,2.0661044,2.065816,2.0655217,2.0652416,2.0649114,2.0645635,2.0642197,2.0639293,2.063694,2.063475,2.0632575,2.0630314,2.0627499,2.0623872,2.061997,2.061628,2.0613148,2.0610955,2.060948,2.060834,2.060705,2.060526,2.0602882,2.0600247,2.0597866,2.0596037,2.0594742,2.0593748,2.0592608,2.059086,2.0588164,2.0584674,2.0581045,2.0577974,2.057567,2.057486,2.0575533,2.0576892,2.0578113,2.0578876,2.0579052,2.0578837,2.0578632,2.0578792,2.0579438,2.0580468,2.0581558,2.0582528,2.0583482,2.0584288,2.0584517,2.0583932,2.0582411,2.057999,2.0577102,2.0573773,2.057026,2.056673,2.0563245,2.0559776,2.055642,2.0553436,2.0550845,2.054905,2.0548053,2.0547366,2.0546327,2.0544329,2.0541089,2.053713,2.0532708,2.052826,2.0524168,2.0520625,2.0517502,2.0514653,2.0512166,2.0509934,2.050808,2.0506625,2.0505557,2.050491,2.0504742,2.0504832,2.0504794,2.0504422,2.0503266,2.0501018,2.049798,2.0494735,2.049153,2.0488327,2.0485046,2.0481749,2.0478454,2.0475266,2.0472336,2.0469713,2.0467272,2.0464978,2.0463219,2.0462296,2.0462008,2.0461812,2.0461063,2.045905,2.0455353,2.0450459,2.0445085,2.0440245,2.043664,2.0434003,2.043167,2.0429084,2.0425882,2.0422215,2.0418491,2.0415087,2.0412126,2.0409596,2.0407176,2.0404656,2.0402002,2.0399177,2.0396142,2.0392962,2.0389812,2.0386744,2.0383806,2.0381374,2.0379543,2.0378237,2.037726,2.037639,2.037556,2.037478,2.0374055,2.0373404,2.0372758,2.0371976,2.0371094,2.037026,2.036932,2.036809,2.0366564,2.0364661,2.036244,2.0360184,2.0358229,2.035636,2.0354414,2.0352213,2.0349672,2.0347002,2.0344548,2.034267,2.034162,2.0341425,2.0341682,2.0341926,2.0341496,2.0339913,2.0337489,2.0334864,2.0332084,2.0329585,2.0327692,2.0326285,2.032515,2.0324154,2.0323477,2.03231,2.0323274,2.0324185,2.0325768,2.0327668,2.0329504,2.0331254,2.033311,2.033537,2.0337405,2.0338974,2.0340176,2.0341086,2.0341916,2.0343041,2.034419,2.0345106,2.0345361,2.0345054,2.0344617,2.0344286,2.0344195,2.0344374,2.0344622,2.0344574,2.0344074,2.0343232,2.0342336,2.0341702,2.0341563,2.0341704,2.0341933,2.0342162,2.0342503,2.0343084,2.03438,2.0344663,2.0345125,2.0345082,2.0344977,2.0345836,2.034832,2.0352035,2.0356631,2.036199,2.036782,2.0372725,2.0376368,2.0379395,2.0382025,2.038468,2.0387902,2.0391557,2.0395257,2.039872,2.0401883,2.0404801,2.0407505,2.0410452,2.041398,2.0418286,2.042311,2.0427995,2.0432425,2.043571,2.043803,2.0440028,2.0441878,2.044392,2.044638,2.0449147,2.045195,2.045467,2.0458016,2.04619,2.0466323,2.047141,2.0477223,2.0483508,2.0489457,2.049575,2.050216,2.0509522,2.0517154,2.0524027,2.0530553,2.053678,2.0543637,2.0551865,2.056126,2.0571065
2.0684273,2.0683389,2.068151,2.0677977,2.067321,2.066845,2.0664473,2.0661116,2.06579,2.0654721,2.065157,2.0648699,2.0646698,2.064598,2.0646024,2.0645967,2.0645585,2.064434,2.0642133,2.0639322,2.0636451,2.0633874,2.0631316,2.0628724,2.0626192,2.0623715,2.0621464,2.061966,2.0618224,2.0616617,2.061459,2.061218,2.0609858,2.0607996,2.060678,2.0606322,2.0606399,2.0606713,2.0606828,2.0606637,2.0606112,2.060468,2.0602076,2.0599594,2.0596895,2.0594265,2.059156,2.0588727,2.0585732,2.0582619,2.0579615,2.0576065,2.0572405,2.0568857,2.0565958,2.0563693,2.056161,2.0559497,2.0557244,2.0554352,2.0550566,2.0546508,2.054276,2.0539675,2.0537636,2.0536385,2.0535455,2.0534306,2.0532537,2.0530128,2.0527477,2.052514,2.0523424,2.0522323,2.0521576,2.0520725,2.0519276,2.0516868,2.0513604,2.0510125,2.0507178,2.0505023,2.0504403,2.050529,2.0506809,2.0508077,2.0508778,2.0508823,2.0508456,2.0508108,2.0508122,2.0508544,2.0509272,2.0510006,2.0510654,2.05114,2.0512185,2.051262,2.0512376,2.0511193,2.050903,2.0506299,2.0503113,2.049971,2.0496287,2.0492873,2.048939,2.048594,2.0482883,2.0480258,2.0478535,2.047773,2.0477316,2.047655,2.0474794,2.0471778,2.046803,2.0463824,2.0459576,2.045562,2.0452108,2.0448937,2.0445998,2.044341,2.0441103,2.0439215,2.043777,2.0436711,2.0436053,2.0435815,2.043578,2.0435567,2.0434985,2.043366,2.0431325,2.0428286,2.0425122,2.0422034,2.0418916,2.0415683,2.0412345,2.0408921,2.040556,2.0402465,2.0399706,2.0397184,2.0394826,2.0392966,2.0391846,2.0391254,2.0390716,2.038968,2.0387502,2.038377,2.037893,2.0373642,2.0368872,2.0365276,2.0362625,2.0360284,2.0357678,2.0354447,2.0350742,2.0346968,2.0343518,2.0340538,2.0338006,2.0335608,2.0333126,2.0330558,2.0327866,2.0324988,2.0321946,2.031887,2.031581,2.031281,2.0310242,2.0308232,2.0306737,2.0305588,2.0304601,2.0303717,2.0302944,2.030229,2.0301778,2.0301282,2.0300636,2.0299861,2.0299113,2.0298266,2.0297186,2.0295842,2.0294151,2.0292118,2.0289986,2.0288076,2.0286188,2.0284197,2.0281944,2.0279367,2.027667,2.027419,2.0272284,2.02712,2.0270996,2.0271273,2.0271544,2.027114,2.0269573,2.0267158,2.0264528,2.0261743,2.0259228,2.0257268,2.0255742,2.0254443,2.0253272,2.0252452,2.0251923,2.0251944,2.0252666,2.025402,2.025567,2.025724,2.0258756,2.0260425,2.0262542,2.026452,2.02661,2.0267339,2.0268273,2.026908,2.0270143,2.027123,2.0272107,2.0272374,2.0272105,2.027175,2.0271506,2.0271478,2.0271697,2.027195,2.0271862,2.0271306,2.0270443,2.0269582,2.0269039,2.0268993,2.0269203,2.0269432,2.0269604,2.0269904,2.0270514,2.027133,2.027234,2.0272968,2.0273056,2.0273044,2.0273957,2.0276475,2.0280228,2.0284848,2.0290246,2.029608,2.0301046,2.0304813,2.030797,2.0310678,2.0313363,2.0316544,2.032012,2.0323753,2.0327187,2.0330324,2.0333176,2.0335748,2.033851,2.0341833,2.0345945,2.0350611,2.0355353,2.0359666,2.036285,2.0365105,2.0367045,2.0368853,2.0370848,2.0373244,2.0375946,2.0378718,2.0381489,2.038495,2.0388997,2.039359,2.0398762,2.0404522,2.0410645,2.0416331,2.0422301,2.0428362,2.0435438,2.0442894,2.04497,2.0456204,2.0462403,2.0469184,2.0477288,2.0486536,2.0496244
2.060818,2.0607297,2.0605474,2.0601964,2.0597143,2.059226,2.058814,2.0584736,2.0581663,2.0578785,2.0575976,2.0573351,2.0571423,2.0570564,2.0570357,2.057005,2.056943,2.056797,2.0565543,2.0562482,2.0559323,2.0556445,2.055361,2.0550735,2.0547974,2.0545368,2.054311,2.054141,2.0540128,2.053866,2.0536718,2.053432,2.053193,2.0530035,2.052888,2.0528467,2.0528529,2.0528765,2.0528803,2.052862,2.052826,2.0527136,2.0524871,2.0522685,2.052021,2.0517664,2.0514917,2.0512013,2.0508897,2.0505536,2.0502248,2.04984,2.0494459,2.04907,2.0487657,2.048531,2.0483174,2.0481014,2.0478668,2.0475671,2.047175,2.046761,2.0463915,2.0461042,2.0459323,2.045845,2.0457845,2.045689,2.045515,2.0452647,2.0449893,2.0447512,2.0445843,2.044488,2.0444362,2.0443802,2.0442686,2.0440636,2.0437715,2.0434525,2.0431871,2.0430043,2.0429797,2.043108,2.043292,2.0434365,2.04351,2.0435047,2.043452,2.043397,2.0433745,2.0433846,2.0434124,2.0434346,2.0434527,2.043489,2.043553,2.0436084,2.043613,2.04353,2.0433478,2.0431042,2.0428147,2.0425038,2.0421891,2.0418673,2.0415242,2.041173,2.0408583,2.0405908,2.0404239,2.0403605,2.0403438,2.0402942,2.0401433,2.0398655,2.0395164,2.0391235,2.038728,2.0383565,2.0380201,2.0377088,2.0374153,2.037154,2.0369194,2.036725,2.0365744,2.0364633,2.0363882,2.0363503,2.0363271,2.0362825,2.0361974,2.0360432,2.0358005,2.0355008,2.0351982,2.0349078,2.0346131,2.0343013,2.0339696,2.033619,2.0332673,2.0329406,2.0326507,2.0323865,2.0321388,2.0319333,2.0317883,2.0316844,2.0315824,2.0314393,2.031201,2.0308256,2.0303533,2.0298455,2.0293875,2.029042,2.0287895,2.0285676,2.028318,2.0280018,2.0276315,2.0272496,2.026898,2.0265946,2.026338,2.0260975,2.0258522,2.0256045,2.0253515,2.0250864,2.024805,2.0245156,2.024223,2.0239305,2.0236742,2.0234678,2.023309,2.0231814,2.0230684,2.0229673,2.0228796,2.0228093,2.022758,2.022714,2.022657,2.0225868,2.022519,2.0224438,2.0223515,2.0222387,2.0220952,2.0219173,2.0217242,2.0215454,2.0213637,2.0211668,2.0209398,2.0206761,2.0203958,2.020133,2.0199242,2.0197992,2.019762,2.0197759,2.0197945,2.0197477,2.0195885,2.0193467,2.019085,2.0188093,2.018559,2.0183601,2.0181997,2.0180585,2.0179286,2.0178318,2.0177615,2.0177402,2.0177824,2.0178814,2.0180058,2.0181246,2.0182436,2.018384,2.0185742,2.018763,2.0189242,2.0190563,2.01916,2.0192482,2.0193613,2.0194762,2.0195737,2.0196142,2.0196023,2.0195782,2.0195613,2.0195599,2.0195827,2.0196037,2.019587,2.0195246,2.0194368,2.0193553,2.0193095,2.0193124,2.0193336,2.01935,2.0193558,2.0193756,2.019435,2.0195246,2.0196385,2.0197167,2.0197368,2.0197403,2.01983,2.0200777,2.0204453,2.0208998,2.0214338,2.0220149,2.022521,2.0229187,2.0232575,2.0235496,2.023832,2.0241568,2.024518,2.0248842,2.0252292,2.0255382,2.0258074,2.0260408,2.0262828,2.0265806,2.0269606,2.027402,2.0278583,2.0282774,2.028589,2.0288138,2.0290112,2.0291986,2.029405,2.0296512,2.0299282,2.0302157,2.0305095,2.0308733,2.0312915,2.0317569,2.0322666,2.0328178,2.0333977,2.0339282,2.0344827,2.0350533,2.0357327,2.0364642,2.0371442,2.0377932,2.0384083,2.0390723,2.0398579,2.0407534,2.0417008
2.0532498,2.0531502,2.052963,2.0526073,2.0521183,2.05162,2.0511956,2.0508542,2.0505652,2.0503113,2.0500636,2.0498192,2.0496206,2.0495062,2.0494485,2.049385,2.0492988,2.0491333,2.0488715,2.0485415,2.0481963,2.0478783,2.0475688,2.0472574,2.0469646,2.0466971,2.0464764,2.0463214,2.0462115,2.0460823,2.045905,2.045673,2.0454307,2.0452347,2.0451145,2.045063,2.0450516,2.045052,2.0450382,2.0450172,2.0450025,2.044931,2.0447478,2.0445628,2.0443387,2.0440915,2.043806,2.0434833,2.0431352,2.0427747,2.0424194,2.0420105,2.0415964,2.041204,2.040885,2.0406353,2.0404062,2.0401764,2.039929,2.039619,2.0392203,2.0388103,2.03846,2.038208,2.0380826,2.0380433,2.0380201,2.0379453,2.0377693,2.037499,2.0372,2.0369458,2.0367737,2.0366821,2.0366445,2.0366101,2.0365272,2.0363564,2.0361018,2.0358162,2.035585,2.0354404,2.03546,2.035634,2.0358582,2.0360303,2.0361156,2.0361109,2.0360503,2.0359836,2.035944,2.035924,2.0359051,2.0358691,2.0358317,2.035819,2.0358558,2.03591,2.0359344,2.035882,2.0357351,2.0355277,2.0352793,2.0350118,2.034738,2.0344448,2.0341125,2.0337577,2.0334356,2.033165,2.0330038,2.032958,2.0329661,2.0329409,2.0328124,2.032559,2.0322344,2.03187,2.031504,2.0311594,2.0308437,2.0305452,2.0302582,2.0299983,2.02976,2.0295587,2.0293994,2.0292778,2.0291905,2.0291367,2.0290933,2.029025,2.028913,2.0287375,2.0284855,2.0281897,2.0279002,2.027627,2.027347,2.0270455,2.0267138,2.0263543,2.0259893,2.0256484,2.025347,2.025074,2.0248165,2.0245903,2.0244079,2.024253,2.0240958,2.023908,2.0236468,2.0232701,2.0228136,2.0223308,2.0218992,2.0215764,2.021344,2.0211403,2.0209074,2.020602,2.0202324,2.0198445,2.0194845,2.019173,2.0189118,2.0186703,2.0184276,2.0181875,2.0179505,2.0177073,2.0174513,2.0171847,2.016912,2.0166361,2.0163913,2.0161915,2.0160327,2.0158985,2.0157712,2.0156517,2.0155454,2.0154583,2.0153956,2.0153482,2.0152943,2.0152283,2.0151632,2.0150943,2.0150123,2.0149164,2.0147948,2.0146413,2.0144706,2.01431,2.0141425,2.0139577,2.0137382,2.0134737,2.013183,2.0129037,2.012674,2.012529,2.0124722,2.0124693,2.0124755,2.0124207,2.012257,2.0120153,2.011754,2.0114796,2.0112288,2.0110273,2.0108619,2.0107145,2.0105789,2.0104728,2.010388,2.0103443,2.0103538,2.0104115,2.0104923,2.0105684,2.0106497,2.010757,2.0109181,2.01109,2.011247,2.0113847,2.0114994,2.011599,2.0117235,2.0118532,2.0119696,2.0120316,2.0120385,2.0120258,2.0120134,2.0120099,2.0120287,2.0120432,2.0120203,2.0119543,2.0118687,2.0117965,2.0117614,2.0117717,2.0117936,2.0118036,2.011797,2.0118043,2.0118594,2.0119545,2.0120785,2.0121708,2.012204,2.012214,2.012302,2.0125396,2.0128922,2.0133305,2.0138493,2.014419,2.0149293,2.0153446,2.015707,2.0160222,2.0163217,2.0166564,2.0170264,2.017401,2.0177498,2.018052,2.0182996,2.0185008,2.0187008,2.0189557,2.0193002,2.0197155,2.020156,2.0205681,2.0208797,2.0211122,2.021323,2.0215273,2.0217524,2.022016,2.0223107,2.022618,2.0229354,2.0233188,2.0237455,2.0242052,2.0246906,2.0252032,2.02574,2.026228,2.0267396,2.0272746,2.0279284,2.028648,2.0293264,2.029973,2.0305796,2.0312235,2.0319724,2.0328238,2.033732
2.0458384,2.045724,2.0455294,2.045172,2.0446842,2.0441856,2.043758,2.04342,2.043149,2.0429225,2.042696,2.0424528,2.0422297,2.0420723,2.0419688,2.041873,2.0417666,2.041592,2.0413227,2.0409806,2.040617,2.040279,2.039955,2.0396323,2.039337,2.0390756,2.0388706,2.0387373,2.0386486,2.0385365,2.0383697,2.0381405,2.037897,2.0376956,2.0375595,2.0374818,2.0374343,2.0373952,2.037351,2.037321,2.0373268,2.0372987,2.0371633,2.0370135,2.036813,2.0365741,2.0362785,2.0359216,2.035531,2.035146,2.0347753,2.0343585,2.0339432,2.0335515,2.0332274,2.0329657,2.0327215,2.032478,2.0322218,2.0319114,2.0315204,2.0311317,2.0308194,2.0306191,2.0305529,2.030569,2.0305867,2.0305305,2.030347,2.0300481,2.0297139,2.0294337,2.0292444,2.0291471,2.0291119,2.029089,2.029026,2.028883,2.0286613,2.0284069,2.0282078,2.028099,2.0281606,2.0283785,2.0286431,2.0288467,2.0289507,2.0289562,2.0289001,2.0288348,2.028789,2.0287468,2.028685,2.028593,2.0284982,2.028432,2.0284336,2.0284784,2.0285146,2.0284877,2.028376,2.0282087,2.0280066,2.0277886,2.0275598,2.0272975,2.0269747,2.026615,2.026285,2.026011,2.0258546,2.0258248,2.0258546,2.0258503,2.0257406,2.0255084,2.0252066,2.0248678,2.0245314,2.0242167,2.0239253,2.023644,2.023366,2.0231085,2.0228648,2.0226514,2.0224762,2.0223353,2.0222278,2.0221515,2.0220857,2.021992,2.021854,2.0216575,2.0213962,2.021102,2.0208216,2.0205603,2.0202909,2.0199928,2.0196571,2.0192866,2.0189083,2.0185556,2.0182467,2.01797,2.0177069,2.0174637,2.0172458,2.0170412,2.0168333,2.016605,2.0163255,2.015953,2.0155177,2.0150657,2.0146675,2.0143733,2.0141659,2.0139852,2.013772,2.0134783,2.0131104,2.0127158,2.0123463,2.0120275,2.011763,2.011522,2.0112844,2.0110521,2.0108287,2.0106053,2.0103722,2.0101295,2.0098803,2.0096273,2.0094042,2.0092213,2.0090723,2.0089378,2.008799,2.0086586,2.008527,2.0084133,2.008329,2.0082686,2.0082104,2.0081432,2.0080764,2.0080075,2.0079284,2.0078406,2.0077338,2.0076022,2.007455,2.0073166,2.0071697,2.0070055,2.0068026,2.006545,2.0062506,2.0059593,2.0057135,2.0055501,2.0054786,2.0054655,2.0054646,2.0054073,2.0052457,2.005008,2.0047507,2.0044796,2.004232,2.004032,2.0038674,2.0037224,2.0035894,2.003482,2.0033886,2.0033264,2.003305,2.003322,2.0033572,2.003388,2.0034263,2.0034912,2.0036118,2.0037522,2.0038905,2.004022,2.0041397,2.0042489,2.0043836,2.0045297,2.0046678,2.0047534,2.0047796,2.0047762,2.004764,2.0047548,2.0047636,2.0047696,2.0047421,2.0046773,2.0046005,2.0045438,2.0045252,2.004549,2.0045798,2.0045924,2.0045826,2.0045838,2.0046368,2.004735,2.004865,2.0049672,2.00501,2.0050247,2.005107,2.0053258,2.0056534,2.006065,2.0065556,2.0071032,2.0076056,2.0080287,2.0084052,2.0087352,2.0090456,2.0093875,2.0097647,2.0101466,2.0104978,2.0107908,2.0110123,2.0111756,2.0113294,2.011537,2.0118437,2.0122347,2.012663,2.0130744,2.0133958,2.0136461,2.0138798,2.0141094,2.0143616,2.0146525,2.0149727,2.015307,2.0156503,2.0160513,2.0164795,2.016922,2.0173726,2.017838,2.0183265,2.0187721,2.0192437,2.019746,2.0203772,2.0210862,2.0217624,2.022407,2.023006,2.0236325,2.0243437,2.0251489,2.0260124
2.0386443,2.0385144,2.0383139,2.037959,2.0374787,2.0369875,2.036563,2.0362315,2.0359762,2.0357676,2.0355473,2.0352874,2.0350244,2.034815,2.0346622,2.0345345,2.0344124,2.034234,2.0339663,2.0336235,2.0332541,2.0329099,2.0325847,2.0322676,2.0319853,2.031745,2.0315676,2.0314636,2.0313985,2.0313032,2.0311463,2.0309176,2.0306683,2.0304537,2.0302973,2.0301914,2.030107,2.030026,2.0299459,2.029897,2.0299094,2.0299125,2.029817,2.0297008,2.0295267,2.0292995,2.0290017,2.028636,2.0282307,2.0278263,2.0274549,2.0270486,2.026651,2.026276,2.0259595,2.0256934,2.0254393,2.025189,2.0249305,2.02463,2.0242596,2.0239053,2.023641,2.0234995,2.0234938,2.0235639,2.023619,2.0235784,2.0233855,2.0230584,2.0226903,2.0223823,2.022175,2.0220685,2.0220327,2.022017,2.0219705,2.0218527,2.0216603,2.0214357,2.0212684,2.0211911,2.0212886,2.0215425,2.0218399,2.022071,2.0221944,2.0222135,2.0221694,2.022112,2.022066,2.022007,2.0219069,2.021763,2.0216136,2.0214956,2.0214605,2.0214918,2.0215347,2.0215287,2.0214472,2.0213168,2.0211563,2.0209823,2.020793,2.020555,2.0202374,2.0198693,2.01953,2.0192509,2.0190964,2.0190778,2.019123,2.0191345,2.0190392,2.0188217,2.018538,2.0182214,2.0179124,2.0176263,2.017361,2.0170975,2.0168283,2.016572,2.0163207,2.0160875,2.0158858,2.0157166,2.0155787,2.015474,2.0153832,2.015265,2.0151043,2.0148892,2.0146177,2.0143242,2.0140486,2.013795,2.0135317,2.0132327,2.0128899,2.012508,2.0121157,2.0117536,2.0114403,2.0111632,2.010898,2.010642,2.010397,2.010155,2.0099092,2.0096536,2.009367,2.0090075,2.0085998,2.008185,2.007824,2.0075617,2.0073812,2.0072253,2.0070329,2.0067527,2.006388,2.0059876,2.0056102,2.0052862,2.0050216,2.004784,2.0045528,2.0043306,2.0041194,2.003912,2.003698,2.0034761,2.0032485,2.0030208,2.0028234,2.0026636,2.0025313,2.002403,2.0022566,2.0020971,2.0019386,2.0017936,2.001681,2.0016017,2.0015326,2.0014591,2.0013876,2.0013125,2.0012302,2.001144,2.001047,2.0009313,2.0008056,2.000688,2.0005627,2.00042,2.000235,1.9999866,1.9996915,1.9993913,1.9991325,1.9989563,1.9988762,1.9988618,1.9988635,1.9988134,1.9986638,1.9984376,1.9981909,1.997931,1.997694,1.9975042,1.9973514,1.9972192,1.9970973,1.9969952,1.9968996,1.9968238,1.9967757,1.996755,1.9967457,1.996732,1.9967252,1.9967427,1.9968126,1.9969075,1.9970114,1.9971219,1.9972314,1.9973412,1.9974825,1.9976404,1.9977953,1.9979019,1.997945,1.9979472,1.9979326,1.9979146,1.9979112,1.9979073,1.9978764,1.9978173,1.9977548,1.9977196,1.9977238,1.9977691,1.9978187,1.9978472,1.9978483,1.9978555,1.9979124,1.9980133,1.9981437,1.9982498,1.9982948,1.9983072,1.9983766,1.9985688,1.9988636,1.9992399,1.9996946,2.0002112,2.0006943,2.0011096,2.0014832,2.001811,2.002121,2.00246,2.0028365,2.0032191,2.003569,2.0038497,2.0040452,2.004173,2.004283,2.004447,2.0047195,2.00509,2.0055108,2.0059254,2.0062628,2.0065355,2.0067933,2.0070484,2.0073268,2.0076437,2.007989,2.0083485,2.008715,2.0091288,2.009553,2.009974,2.0103884,2.0108082,2.0112526,2.011661,2.0120978,2.0125732,2.0131862,2.0138865,2.0145636,2.0152106,2.0158093,2.016427,2.0171137,2.0178828,2.018708
2.0319123,2.0317626,2.0315526,2.0311942,2.0307148,2.0302243,2.0297947,2.0294592,2.0292048,2.0289965,2.0287638,2.028472,2.0281596,2.0278943,2.0276926,2.0275345,2.0273976,2.0272186,2.0269566,2.0266185,2.0262537,2.0259151,2.0256028,2.0253048,2.0250478,2.024837,2.0246916,2.0246184,2.0245771,2.0245,2.0243545,2.0241323,2.0238833,2.0236652,2.0235016,2.023382,2.0232768,2.023169,2.0230656,2.023004,2.0230212,2.0230472,2.0229836,2.022894,2.0227423,2.0225296,2.0222368,2.0218716,2.021469,2.0210738,2.0207136,2.0203319,2.0199642,2.0196176,2.0193174,2.0190525,2.0187926,2.018537,2.0182798,2.0179892,2.0176387,2.017313,2.017085,2.0169847,2.0170197,2.0171237,2.0172021,2.017171,2.01697,2.0166242,2.0162363,2.015914,2.0157003,2.015595,2.0155663,2.015565,2.0155396,2.0154495,2.0152879,2.0150933,2.0149536,2.014903,2.0150247,2.0152993,2.0156145,2.01586,2.015995,2.016026,2.015994,2.0159478,2.0159068,2.0158365,2.0157046,2.015516,2.0153174,2.015152,2.0150824,2.0150971,2.01514,2.0151439,2.0150776,2.014967,2.014833,2.0146885,2.0145252,2.014303,2.013988,2.0136132,2.0132668,2.0129843,2.0128326,2.0128226,2.0128803,2.0129006,2.0128117,2.0126028,2.0123267,2.0120227,2.0117285,2.0114598,2.011211,2.0109596,2.0106964,2.010438,2.0101752,2.009922,2.0096931,2.0094948,2.0093312,2.009206,2.009099,2.008968,2.0087957,2.0085711,2.0082948,2.0080004,2.007725,2.0074728,2.0072088,2.0069041,2.0065517,2.006157,2.0057538,2.0053856,2.005072,2.0047977,2.0045362,2.0042772,2.0040202,2.0037591,2.0034938,2.003228,2.002945,2.0026033,2.0022242,2.001842,2.0015113,2.0012748,2.0011144,2.000977,2.0008001,2.0005307,2.0001678,1.9997636,1.9993798,1.9990522,1.9987886,1.9985571,1.998333,1.9981191,1.9979167,1.9977176,1.9975132,1.9973012,1.9970851,1.9968743,1.996696,1.9965551,1.996439,1.9963189,1.9961691,1.9959967,1.9958172,1.9956477,1.9955112,1.9954143,1.9953359,1.995256,1.995177,1.9950953,1.9950069,1.9949172,1.9948208,1.994712,1.9945972,1.9944905,1.9943771,1.9942464,1.9940708,1.9938257,1.9935268,1.993218,1.99295,1.9927688,1.99269,1.9926832,1.9926972,1.9926634,1.9925313,1.9923211,1.9920889,1.9918425,1.9916196,1.9914439,1.9913068,1.9911929,1.9910889,1.9909973,1.9909061,1.9908243,1.9907603,1.9907142,1.990675,1.9906287,1.9905872,1.9905627,1.9905846,1.9906318,1.9906955,1.9907764,1.9908669,1.9909673,1.9911044,1.9912652,1.9914274,1.9915447,1.9915967,1.9916005,1.9915814,1.9915566,1.9915444,1.9915351,1.9915067,1.9914591,1.9914157,1.9914057,1.9914345,1.991505,1.9915783,1.9916301,1.9916518,1.991674,1.9917382,1.9918405,1.9919693,1.992075,1.9921205,1.9921308,1.9921898,1.9923606,1.9926281,1.9929743,1.9933963,1.9938806,1.9943352,1.9947255,1.9950743,1.9953793,1.9956694,1.9959897,1.9963529,1.9967282,1.9970713,1.997341,1.9975188,1.9976226,1.9977067,1.9978455,1.9980993,1.9984623,1.998884,1.9993052,1.9996573,1.9999435,2.000215,2.000481,2.0007691,2.0010955,2.0014513,2.0018234,2.0022008,2.0026195,2.003037,2.0034401,2.0038283,2.0042186,2.0046334,2.0050175,2.005433,2.0058908,2.0064907,2.0071862,2.0078673,2.0085216,2.0091255,2.0097437,2.0104182,2.0111632,2.0119598
2.0252876,2.0250807,2.0248358,2.0244634,2.0239835,2.0234933,2.0230494,2.022697,2.0224237,2.02219,2.0219305,2.0215983,2.021226,2.0208936,2.020637,2.0204518,2.0203028,2.0201252,2.0198722,2.0195456,2.0191927,2.0188718,2.0185847,2.0183187,2.0180993,2.0179276,2.0178177,2.0177772,2.0177627,2.0177078,2.017579,2.0173688,2.0171294,2.0169187,2.0167594,2.0166407,2.0165317,2.0164132,2.0162964,2.0162258,2.0162444,2.0162835,2.0162401,2.0161712,2.0160384,2.015841,2.0155568,2.015203,2.0148177,2.0144398,2.0141025,2.0137532,2.013423,2.0131106,2.0128312,2.0125723,2.0123096,2.0120523,2.0117974,2.0115197,2.011191,2.0108914,2.0106912,2.0106184,2.01068,2.0108032,2.010896,2.010869,2.010665,2.0103118,2.0099165,2.0095913,2.0093799,2.0092845,2.0092697,2.0092869,2.0092864,2.0092251,2.009094,2.0089278,2.0088122,2.0087833,2.0089202,2.0092056,2.0095286,2.0097816,2.009924,2.009965,2.0099463,2.0099149,2.0098836,2.009808,2.0096512,2.009425,2.0091846,2.0089784,2.0088785,2.0088797,2.0089202,2.0089273,2.0088692,2.0087695,2.0086498,2.0085227,2.0083756,2.0081632,2.0078492,2.007469,2.0071173,2.0068336,2.0066853,2.0066824,2.0067477,2.0067725,2.0066853,2.0064778,2.0062056,2.0059063,2.0056195,2.0053613,2.0051222,2.0048776,2.0046167,2.0043547,2.0040803,2.0038047,2.0035486,2.0033243,2.0031395,2.0029993,2.002885,2.0027497,2.0025747,2.0023477,2.002069,2.0017722,2.0014942,2.0012376,2.000969,2.0006545,2.0002904,1.9998841,1.9994706,1.9990976,1.998785,1.9985158,1.9982604,1.9980066,1.9977489,1.9974815,1.9972103,1.9969444,1.9966714,1.996351,1.9960005,1.9956483,1.9953432,1.9951265,1.9949834,1.9948602,1.9946972,1.994438,1.9940792,1.9936726,1.9932845,1.9929545,1.9926928,1.9924664,1.9922498,1.9920427,1.9918439,1.9916463,1.9914429,1.9912329,1.9910204,1.990817,1.9906509,1.990525,1.990423,1.9903121,1.9901619,1.9899818,1.9897863,1.9895974,1.9894418,1.98933,1.9892424,1.9891572,1.9890723,1.9889829,1.9888868,1.9887908,1.9886906,1.988581,1.9884676,1.9883617,1.9882505,1.9881227,1.9879482,1.9877007,1.9873949,1.9870785,1.9868053,1.9866226,1.9865502,1.9865571,1.9865918,1.9865806,1.9864707,1.9862803,1.9860641,1.9858332,1.9856251,1.9854656,1.9853463,1.9852531,1.9851695,1.9850916,1.9850078,1.9849246,1.9848511,1.9847884,1.9847276,1.984659,1.9845893,1.9845321,1.9845103,1.9845095,1.984529,1.9845738,1.984638,1.9847233,1.9848516,1.9850073,1.9851687,1.9852898,1.9853458,1.9853492,1.985326,1.9852946,1.9852765,1.9852657,1.9852433,1.9852103,1.9851909,1.9852085,1.9852631,1.9853594,1.9854608,1.9855411,1.9855886,1.9856298,1.9857048,1.9858079,1.985934,1.9860361,1.9860774,1.9860826,1.986131,1.9862826,1.986526,1.986847,1.9872397,1.9876926,1.9881135,1.988467,1.9887767,1.9890442,1.9893,1.9895899,1.9899294,1.9902897,1.990622,1.9908814,1.9910464,1.9911346,1.9912025,1.9913279,1.991574,1.9919357,1.9923626,1.992794,1.9931581,1.9934533,1.9937291,1.9939952,1.9942799,1.9946024,1.9949565,1.995331,1.9957106,1.9961271,1.9965369,1.9969237,1.9972913,1.9976615,1.9980574,1.9984262,1.9988286,1.9992771,1.9998698,2.0005643,2.001252,2.001917,2.002532,2.0031576,2.0038278,2.0045605,2.0053382
2.0183978,2.0181444,2.0178642,2.0174642,2.016965,2.01646,2.015996,2.0156243,2.0153337,2.0150704,2.0147705,2.0143847,2.0139456,2.0135455,2.013227,2.0129843,2.0127902,2.0125833,2.0123148,2.011982,2.0116327,2.0113282,2.0110693,2.010841,2.010663,2.010532,2.0104632,2.0104618,2.0104818,2.0104587,2.01036,2.0101783,2.0099669,2.0097826,2.0096467,2.0095494,2.009454,2.0093408,2.009219,2.0091395,2.00915,2.0091853,2.0091438,2.0090818,2.008957,2.0087707,2.0084958,2.0081596,2.0077991,2.007442,2.007129,2.0068123,2.006515,2.0062304,2.0059652,2.0057063,2.005438,2.0051775,2.004929,2.0046697,2.0043712,2.0041065,2.0039387,2.0038936,2.0039754,2.0041125,2.0042152,2.0041952,2.0039973,2.0036492,2.0032594,2.002942,2.0027413,2.0026608,2.0026631,2.0027003,2.0027232,2.0026882,2.0025845,2.0024443,2.0023534,2.002346,2.0024993,2.0027952,2.0031257,2.003387,2.0035367,2.00359,2.003586,2.003568,2.003542,2.003457,2.0032742,2.0030105,2.0027323,2.0024939,2.0023754,2.0023732,2.0024211,2.0024388,2.0023901,2.0022974,2.0021849,2.002068,2.0019314,2.0017247,2.0014102,2.0010269,2.0006697,2.0003836,2.0002375,2.0002384,2.0003061,2.000333,2.0002477,2.000042,1.999773,1.9994793,1.9991997,1.99895,1.9987214,1.9984869,1.9982322,1.9979703,1.9976867,1.99739,1.9971052,1.996851,1.9966424,1.9964881,1.9963686,1.9962317,1.9960594,1.9958333,1.9955537,1.9952545,1.994972,1.9947097,1.9944341,1.9941106,1.9937361,1.9933186,1.9928952,1.9925153,1.9921992,1.9919283,1.9916736,1.9914188,1.991158,1.9908869,1.9906148,1.9903543,1.9900956,1.9897988,1.9894781,1.9891559,1.9888773,1.9886823,1.9885585,1.9884558,1.9883134,1.9880736,1.9877293,1.9873292,1.9869423,1.9866122,1.9863505,1.9861257,1.9859118,1.9857072,1.9855092,1.9853094,1.9851017,1.9848903,1.9846792,1.9844823,1.9843302,1.9842219,1.9841369,1.9840367,1.9838885,1.9837015,1.9834926,1.9832847,1.9831089,1.9829812,1.9828829,1.9827895,1.9826987,1.9826026,1.9825009,1.9824007,1.9822977,1.9821867,1.9820719,1.9819627,1.9818474,1.9817148,1.9815333,1.9812751,1.9809552,1.9806255,1.9803416,1.980154,1.9800867,1.9801075,1.9801626,1.9801741,1.9800858,1.9799135,1.9797127,1.9794955,1.9793,1.9791546,1.9790514,1.9789743,1.9789045,1.9788325,1.9787486,1.978657,1.9785683,1.978487,1.9784076,1.9783202,1.978229,1.9781455,1.978086,1.9780427,1.9780214,1.9780331,1.9780748,1.9781473,1.9782691,1.9784213,1.978581,1.9787028,1.9787585,1.9787573,1.9787257,1.9786849,1.978656,1.9786382,1.9786162,1.9785936,1.9785919,1.978632,1.9787096,1.9788299,1.9789594,1.9790715,1.9791515,1.979219,1.9793067,1.9794099,1.9795269,1.9796149,1.9796395,1.9796274,1.9796543,1.9797785,1.979994,1.980289,1.9806578,1.9810851,1.981477,1.9817958,1.9820654,1.9822919,1.9825133,1.9827731,1.983089,1.9834327,1.983753,1.9840012,1.9841533,1.9842288,1.9842823,1.9843956,1.9846336,1.9849925,1.9854207,1.9858564,1.9862287,1.9865264,1.9868009,1.9870582,1.9873303,1.9876435,1.9879911,1.9883614,1.9887383,1.9891493,1.9895499,1.9899222,1.9902735,1.990629,1.9910109,1.9913697,1.9917644,1.992207,1.9927955,1.9934893,1.9941846,1.9948646,1.9954966,1.9961386,1.9968191,1.9975549,1.9983292
2.01163,2.0113177,2.010983,2.010528,2.0099845,2.009451,2.0089579,2.0085583,2.0082428,2.0079331,2.0075736,2.0071163,2.0065932,2.0061102,2.0057268,2.0054214,2.005175,2.0049305,2.0046349,2.0042837,2.0039291,2.0036304,2.0033884,2.003183,2.0030313,2.0029242,2.0028722,2.0028868,2.0029335,2.0029545,2.002902,2.0027704,2.0026112,2.0024762,2.002387,2.002333,2.0022721,2.0021834,2.002067,2.001978,2.0019708,2.0019841,2.001923,2.0018494,2.0017161,2.001527,2.0012565,2.0009375,2.0006003,2.0002618,1.9999688,1.9996792,1.999406,1.9991375,1.9988775,1.9986124,1.9983338,1.9980693,1.9978296,1.9975939,1.9973325,1.9971083,1.9969755,1.9969544,1.997049,1.9971936,1.9973056,1.9972987,1.9971194,1.9967952,1.9964302,1.996136,1.9959574,1.9959004,1.9959245,1.9959809,1.9960228,1.9960072,1.9959221,1.9957994,1.9957261,1.9957353,1.9958997,1.9962027,1.9965392,1.996807,1.9969655,1.9970306,1.997042,1.9970362,1.9970134,1.9969184,1.9967122,1.9964156,1.9961071,1.9958471,1.9957222,1.99573,1.9957957,1.9958296,1.9957913,1.9957029,1.9955935,1.9954827,1.9953548,1.9951558,1.9948473,1.9944682,1.9941127,1.99383,1.9936876,1.9936931,1.9937625,1.9937894,1.9937057,1.9935024,1.9932353,1.9929454,1.9926683,1.9924221,1.9922001,1.9919744,1.9917287,1.991472,1.9911835,1.9908717,1.9905639,1.9902848,1.9900572,1.9898951,1.989775,1.9896417,1.9894751,1.9892514,1.9889684,1.988662,1.988369,1.9880933,1.9878037,1.9874673,1.9870812,1.9866538,1.986223,1.9858378,1.9855173,1.9852431,1.9849849,1.9847277,1.984464,1.98419,1.9839182,1.9836631,1.9834144,1.9831353,1.982837,1.9825373,1.9822775,1.9820992,1.9819931,1.9819124,1.981796,1.981586,1.9812689,1.9808886,1.9805114,1.9801849,1.9799249,1.9796996,1.9794846,1.979279,1.9790788,1.9788744,1.9786608,1.9784446,1.9782326,1.97804,1.9778997,1.977808,1.9777391,1.9776498,1.9775038,1.9773104,1.9770893,1.9768641,1.9766722,1.9765313,1.9764233,1.9763231,1.9762275,1.9761267,1.9760219,1.9759197,1.9758155,1.9757018,1.9755818,1.9754653,1.9753406,1.9751965,1.9750037,1.9747322,1.9743967,1.9740524,1.9737582,1.9735676,1.9735048,1.9735379,1.9736109,1.9736426,1.9735713,1.9734116,1.9732206,1.9730101,1.9728181,1.9726759,1.9725776,1.9725053,1.9724364,1.9723606,1.9722668,1.9721593,1.9720528,1.9719555,1.9718647,1.9717686,1.9716684,1.9715718,1.9714897,1.971417,1.9713662,1.9713533,1.9713781,1.9714413,1.9715583,1.9717071,1.9718617,1.9719782,1.9720273,1.9720161,1.971973,1.9719204,1.9718802,1.9718531,1.9718287,1.9718107,1.97182,1.971874,1.9719648,1.9720993,1.9722483,1.972383,1.9724886,1.972579,1.9726762,1.9727752,1.9728804,1.9729495,1.9729521,1.972918,1.9729216,1.9730195,1.9732113,1.9734879,1.9738438,1.9742556,1.9746256,1.9749153,1.9751487,1.9753367,1.9755237,1.9757547,1.9760478,1.9763732,1.9766808,1.9769187,1.9770615,1.9771273,1.9771714,1.9772774,1.9775091,1.977864,1.9782913,1.9787276,1.9790994,1.9793909,1.979654,1.979892,1.9801431,1.9804378,1.9807723,1.9811337,1.9815028,1.981906,1.9822989,1.9826617,1.9830039,1.9833539,1.9837328,1.9840903,1.9844851,1.9849279,1.9855152,1.9862094,1.9869107,1.9876038,1.9882534,1.9889128,1.9896088,1.9903548,1.9911327
2.0054116,2.0050077,2.004582,2.0040388,2.0034242,2.002841,2.0023036,2.0018623,2.0015097,2.001142,2.0007143,2.000181,1.999569,1.9989953,1.9985399,1.9981637,1.997851,1.99755,1.9972055,1.9968159,1.9964366,1.9961247,1.9958801,1.9956784,1.9955337,1.9954312,1.9953779,1.9953918,1.9954486,1.9954975,1.9954816,1.9954004,1.9953018,1.9952297,1.9951997,1.9951997,1.9951835,1.9951286,1.995024,1.994927,1.9948986,1.9948833,1.9947937,1.9947,1.994551,1.9943503,1.9940805,1.9937725,1.9934506,1.9931269,1.9928495,1.9925805,1.9923247,1.9920664,1.9918085,1.9915376,1.9912488,1.990982,1.9907522,1.9905444,1.990326,1.9901507,1.9900601,1.9900666,1.9901733,1.9903231,1.9904456,1.9904578,1.9903104,1.9900278,1.9897063,1.98945,1.9893037,1.9892762,1.9893241,1.9893991,1.9894539,1.9894468,1.9893672,1.9892476,1.9891775,1.9891905,1.9893563,1.9896585,1.989995,1.9902642,1.9904258,1.9904957,1.9905148,1.9905126,1.9904851,1.990377,1.9901493,1.989825,1.9894962,1.989226,1.9891074,1.9891386,1.9892359,1.9892981,1.9892809,1.9892054,1.9891062,1.9890077,1.9888933,1.9887084,1.9884132,1.9880447,1.9876943,1.9874141,1.9872719,1.9872735,1.9873369,1.9873586,1.9872715,1.987068,1.9868016,1.9865127,1.9862347,1.985987,1.9857643,1.9855423,1.9853036,1.9850528,1.9847636,1.9844431,1.9841189,1.9838204,1.9835782,1.9834101,1.9832884,1.983156,1.9829898,1.9827613,1.9824681,1.9821475,1.9818387,1.9815474,1.9812423,1.980894,1.9805002,1.9800694,1.9796379,1.9792528,1.9789325,1.9786577,1.9783969,1.9781377,1.9778707,1.9775908,1.9773132,1.9770555,1.9768059,1.9765315,1.9762414,1.9759505,1.975698,1.975527,1.9754329,1.97537,1.9752798,1.9751022,1.9748192,1.9744663,1.9741058,1.9737865,1.9735292,1.9733019,1.9730844,1.9728768,1.9726741,1.9724656,1.9722481,1.9720297,1.9718182,1.9716301,1.9715014,1.9714239,1.9713655,1.971279,1.9711282,1.9709232,1.9706852,1.9704418,1.9702348,1.9700832,1.9699686,1.9698658,1.9697709,1.96967,1.9695679,1.96947,1.9693696,1.9692571,1.9691346,1.9690144,1.9688841,1.9687322,1.9685334,1.968256,1.9679136,1.9675615,1.9672623,1.9670722,1.9670148,1.9670575,1.9671445,1.9671915,1.9671323,1.9669808,1.9667945,1.9665859,1.9663911,1.9662452,1.966143,1.9660653,1.9659874,1.9659003,1.9657905,1.9656645,1.9655408,1.9654316,1.9653369,1.9652429,1.9651456,1.9650509,1.9649622,1.9648759,1.9648083,1.9647806,1.9647939,1.9648509,1.9649631,1.965105,1.9652474,1.9653494,1.9653829,1.9653544,1.9652953,1.9652284,1.965176,1.9651382,1.9651088,1.9650927,1.965108,1.9651694,1.9652638,1.9654013,1.9655569,1.9657011,1.9658208,1.9659259,1.9660289,1.9661227,1.966218,1.9662733,1.96626,1.9662083,1.9661924,1.9662701,1.9664431,1.9667075,1.9670589,1.9674635,1.9678209,1.9680905,1.968297,1.9684558,1.9686162,1.9688252,1.9691,1.9694097,1.9697046,1.9699336,1.9700686,1.9701266,1.9701633,1.9702617,1.9704857,1.9708335,1.9712565,1.9716902,1.9720572,1.9723375,1.9725842,1.9728007,1.9730291,1.9733062,1.9736295,1.9739834,1.9743452,1.9747423,1.9751278,1.9754827,1.9758185,1.976166,1.9765455,1.9769068,1.9773068,1.977756,1.9783471,1.9790416,1.9797449,1.9804435,1.981102,1.9817708,1.9824748,1.9832265,1.9840038
1.9999769,1.9994531,1.9989036,1.9982433,1.9975297,1.9968673,1.9962628,1.9957645,1.9953594,1.9949324,1.9944432,1.9938457,1.9931602,1.9925039,1.9919648,1.9914961,1.9910843,1.9906867,1.9902552,1.9897954,1.9893651,1.9890175,1.9887503,1.9885358,1.9883842,1.9882736,1.9882121,1.9882202,1.9882718,1.9883218,1.9883223,1.9882758,1.9882255,1.9882048,1.9882226,1.9882697,1.9882984,1.9882774,1.9881878,1.988088,1.9880435,1.9880064,1.9878962,1.9877886,1.987629,1.9874201,1.9871507,1.9868473,1.9865313,1.9862189,1.9859543,1.985702,1.9854612,1.9852151,1.9849646,1.9846945,1.9844024,1.984138,1.9839187,1.983739,1.9835666,1.9834459,1.9834052,1.9834459,1.9835672,1.9837217,1.9838536,1.983887,1.9837787,1.9835496,1.9832823,1.9830723,1.9829626,1.982965,1.9830372,1.98313,1.9831934,1.9831858,1.9830984,1.9829663,1.9828845,1.9828861,1.9830412,1.983332,1.9836588,1.9839206,1.9840751,1.9841388,1.9841521,1.9841387,1.984095,1.9839668,1.9837165,1.9833713,1.9830308,1.9827603,1.9826581,1.9827225,1.9828625,1.982968,1.9829879,1.982939,1.9828634,1.9827873,1.9826939,1.9825294,1.9822516,1.981894,1.9815462,1.9812611,1.9811077,1.9810905,1.9811342,1.9811398,1.981042,1.980834,1.9805671,1.9802784,1.9799981,1.9797444,1.9795165,1.9792922,1.9790558,1.9788086,1.9785211,1.9781966,1.9778624,1.9775491,1.9772928,1.9771148,1.9769847,1.9768431,1.9766662,1.9764234,1.9761126,1.9757745,1.9754505,1.9751483,1.9748347,1.9744816,1.9740877,1.9736611,1.973237,1.9728603,1.9725482,1.9722781,1.9720188,1.9717577,1.9714837,1.9711915,1.9708995,1.9706284,1.9703664,1.9700823,1.9697857,1.9694905,1.969235,1.969064,1.9689741,1.9689218,1.9688504,1.9687004,1.9684489,1.9681239,1.9677825,1.9674721,1.9672157,1.9669857,1.9667643,1.9665549,1.9663512,1.9661417,1.9659246,1.9657092,1.9655033,1.9653246,1.965209,1.9651428,1.9650869,1.9649929,1.9648266,1.964601,1.9643399,1.9640741,1.96385,1.9636886,1.9635704,1.963469,1.9633808,1.9632862,1.9631932,1.9631064,1.963016,1.9629111,1.9627938,1.9626772,1.9625506,1.9624025,1.9622084,1.961937,1.9616003,1.9612517,1.9609547,1.9607681,1.9607146,1.9607635,1.9608587,1.9609151,1.9608647,1.9607184,1.9605353,1.9603283,1.9601302,1.9599793,1.9598713,1.9597833,1.9596926,1.9595916,1.959466,1.9593251,1.9591882,1.9590721,1.9589789,1.9588939,1.9588082,1.9587274,1.9586467,1.9585605,1.9584875,1.9584525,1.9584596,1.9585123,1.9586182,1.9587488,1.9588709,1.9589486,1.9589579,1.9589062,1.9588273,1.9587445,1.9586774,1.9586277,1.9585927,1.9585776,1.9585977,1.9586623,1.958755,1.9588863,1.9590366,1.9591789,1.9593024,1.9594146,1.9595206,1.9596113,1.9597023,1.959753,1.9597366,1.9596784,1.9596505,1.9597118,1.9598684,1.9601214,1.96047,1.9608731,1.9612262,1.9614865,1.9616778,1.9618216,1.9619701,1.9621682,1.9624336,1.9627326,1.9630164,1.9632375,1.9633646,1.9634168,1.963445,1.9635328,1.9637442,1.9640806,1.9644958,1.9649242,1.9652855,1.9655554,1.9657867,1.9659855,1.9661987,1.9664671,1.9667895,1.9671423,1.9675021,1.9678955,1.9682738,1.9686182,1.968944,1.9692843,1.9696599,1.9700239,1.9704304,1.9708905,1.9714886,1.9721837,1.9728844,1.9735799,1.9742346,1.9749005,1.9756021,1.9763491,1.9771171
1.9953202,1.9946649,1.9939749,1.993181,1.992347,1.9915776,1.9908818,1.9903092,1.9898322,1.9893426,1.988797,1.9881454,1.9874011,1.9866703,1.9860386,1.9854598,1.9849231,1.9843965,1.9838477,1.9832923,1.9827876,1.9823835,1.9820744,1.9818287,1.9816551,1.9815224,1.9814348,1.9814172,1.9814517,1.9814978,1.9815102,1.981487,1.9814649,1.9814701,1.9815104,1.9815834,1.9816501,1.9816592,1.9815868,1.9814925,1.9814446,1.9814007,1.9812868,1.98118,1.9810218,1.980815,1.9805481,1.980245,1.9799302,1.9796262,1.9793729,1.9791365,1.978913,1.9786842,1.9784491,1.9781895,1.9779053,1.9776487,1.9774406,1.9772844,1.9771507,1.9770772,1.9770794,1.9771471,1.9772792,1.9774315,1.9775653,1.9776154,1.977545,1.9773712,1.9771619,1.9769981,1.9769228,1.9769534,1.9770494,1.9771593,1.9772313,1.9772205,1.9771187,1.9769654,1.9768622,1.9768414,1.9769752,1.9772463,1.977555,1.9778008,1.9779408,1.9779897,1.9779861,1.9779522,1.9778836,1.9777317,1.9774613,1.977101,1.9767544,1.9764886,1.9764051,1.9765024,1.9766836,1.9768338,1.9768955,1.9768786,1.9768314,1.9767804,1.9767103,1.9765666,1.9763057,1.9759583,1.9756098,1.9753146,1.9751425,1.9750974,1.9751127,1.9750955,1.9749824,1.9747689,1.9745009,1.9742119,1.9739282,1.9736674,1.9734302,1.9731982,1.9729587,1.9727144,1.9724308,1.9721093,1.971773,1.9714525,1.9711862,1.9709973,1.9708551,1.9706998,1.9705062,1.970244,1.9699144,1.9695611,1.9692268,1.9689186,1.9686042,1.9682522,1.9678624,1.9674442,1.9670322,1.9666712,1.9663748,1.9661161,1.9658635,1.9656014,1.9653187,1.9650126,1.9647025,1.9644117,1.9641304,1.9638286,1.9635174,1.963211,1.9629482,1.9627724,1.9626805,1.9626315,1.9625702,1.9624388,1.9622124,1.9619126,1.9615891,1.9612869,1.9610302,1.9607952,1.9605691,1.9603575,1.9601537,1.9599457,1.9597318,1.9595218,1.9593254,1.9591585,1.9590548,1.9589956,1.9589366,1.958828,1.9586413,1.9583917,1.958106,1.9578183,1.957578,1.9574081,1.957288,1.9571917,1.9571109,1.957025,1.9569422,1.9568655,1.956784,1.9566871,1.9565768,1.9564666,1.9563465,1.9562069,1.9560254,1.9557695,1.9554479,1.9551117,1.9548228,1.9546419,1.9545902,1.9546406,1.9547392,1.9548002,1.9547544,1.9546126,1.954433,1.9542264,1.9540268,1.9538717,1.9537559,1.9536574,1.9535544,1.9534414,1.9533057,1.9531572,1.9530154,1.9528987,1.9528115,1.9527395,1.952671,1.9526114,1.9525476,1.9524713,1.9524015,1.9523642,1.9523664,1.9524143,1.9525111,1.9526259,1.9527223,1.9527704,1.9527507,1.9526737,1.9525775,1.9524806,1.9524014,1.9523442,1.9523069,1.9522953,1.9523208,1.9523885,1.9524765,1.9525955,1.9527314,1.9528619,1.9529793,1.9530904,1.9531953,1.9532837,1.9533739,1.9534284,1.9534203,1.9533696,1.953339,1.9533873,1.9535282,1.9537692,1.954113,1.9545145,1.9548664,1.9551227,1.9553066,1.9554462,1.9555924,1.9557896,1.9560513,1.956341,1.9566151,1.9568288,1.9569514,1.9570007,1.9570235,1.957103,1.9573023,1.957627,1.9580331,1.9584553,1.9588101,1.9590691,1.9592856,1.9594696,1.9596738,1.9599421,1.9602697,1.9606276,1.9609894,1.961381,1.9617519,1.962085,1.9623988,1.9627287,1.9630977,1.9634618,1.9638746,1.9643471,1.9649549,1.9656514,1.9663469,1.9670331,1.9676757,1.9683294,1.9690208,1.9697556,1.970507
1.9913225,1.9905183,1.9896713,1.9887303,1.9877629,1.9868717,1.9860709,1.9854059,1.9848372,1.9842689,1.9836533,1.9829339,1.9821185,1.9813008,1.9805558,1.9798474,1.9791644,1.9784869,1.9778007,1.9771299,1.9765275,1.9760404,1.9756625,1.9753616,1.9751419,1.9749668,1.9748367,1.9747758,1.9747707,1.9747906,1.9747896,1.9747664,1.9747556,1.9747775,1.9748335,1.9749159,1.9749799,1.9749906,1.974935,1.9748602,1.9748291,1.9748027,1.9747081,1.9746252,1.9744959,1.9743172,1.9740622,1.973762,1.9734542,1.9731617,1.9729257,1.9727085,1.9725088,1.972306,1.9720979,1.9718654,1.9716039,1.9713628,1.9711673,1.9710279,1.9709172,1.9708711,1.9708958,1.9709716,1.9710945,1.9712284,1.9713502,1.971406,1.9713674,1.9712455,1.971091,1.9709699,1.9709238,1.9709779,1.9710948,1.9712236,1.9713087,1.9713004,1.9711866,1.9710126,1.9708834,1.9708365,1.970946,1.971194,1.9714811,1.9717071,1.9718267,1.9718544,1.9718246,1.9717617,1.9716636,1.9714857,1.9711967,1.970824,1.9704728,1.9702079,1.9701338,1.9702507,1.9704602,1.9706432,1.9707377,1.9707482,1.9707232,1.9706893,1.9706333,1.9705024,1.970252,1.9699109,1.9695585,1.9692504,1.9690553,1.9689808,1.968968,1.9689298,1.9688053,1.9685895,1.968324,1.9680365,1.9677509,1.9674821,1.9672321,1.9669877,1.9667417,1.9664965,1.9662192,1.9659069,1.9655786,1.9652624,1.964995,1.964799,1.9646468,1.9644783,1.9642677,1.9639869,1.9636405,1.9632753,1.9629366,1.9626304,1.9623206,1.9619768,1.9615954,1.9611881,1.9607927,1.9604518,1.9601765,1.9599363,1.9596968,1.959441,1.9591553,1.9588389,1.9585158,1.9582092,1.9579109,1.9575939,1.9572691,1.9569535,1.9566865,1.9565082,1.9564145,1.9563651,1.9563076,1.9561872,1.9559795,1.9556994,1.9553901,1.9550953,1.9548391,1.9545982,1.9543672,1.9541541,1.9539502,1.953743,1.9535321,1.9533262,1.9531376,1.9529796,1.9528846,1.9528267,1.9527578,1.952631,1.9524214,1.9521481,1.9518405,1.9515345,1.9512827,1.9511087,1.9509909,1.9509003,1.9508274,1.9507473,1.9506671,1.9505908,1.9505085,1.9504097,1.9502985,1.9501889,1.950073,1.9499414,1.9497749,1.9495416,1.9492443,1.9489275,1.9486525,1.9484792,1.9484292,1.9484801,1.9485804,1.9486458,1.9486065,1.9484704,1.9482956,1.9480937,1.9478962,1.9477391,1.9476187,1.9475138,1.9474044,1.9472876,1.9471512,1.9470032,1.9468634,1.946749,1.9466672,1.9466059,1.9465531,1.9465122,1.9464642,1.9463971,1.9463272,1.9462824,1.9462748,1.9463108,1.9463925,1.9464833,1.9465477,1.9465609,1.9465106,1.9464114,1.9463012,1.9461975,1.9461149,1.9460593,1.9460301,1.9460328,1.946074,1.9461513,1.9462371,1.9463446,1.9464624,1.9465737,1.9466777,1.9467804,1.946879,1.946964,1.9470549,1.9471192,1.9471285,1.9470923,1.9470637,1.9470996,1.947221,1.9474425,1.9477725,1.9481623,1.9485044,1.9487503,1.9489229,1.9490547,1.9491992,1.9493945,1.94965,1.9499289,1.9501904,1.9503955,1.9505148,1.9505659,1.9505887,1.9506648,1.9508569,1.9511726,1.9515715,1.9519873,1.9523363,1.9525821,1.9527807,1.9529499,1.9531475,1.9534187,1.9537568,1.9541259,1.9544944,1.9548892,1.955257,1.9555829,1.9558868,1.956205,1.9565656,1.956929,1.9573474,1.9578342,1.9584563,1.959158,1.9598477,1.9605196,1.9611431,1.9617774,1.96245,1.9631662,1.9638976
1.9871631,1.9861531,1.9851054,1.9840105,1.9829133,1.9818859,1.9809618,1.9801767,1.9794734,1.9788222,1.9781533,1.9773915,1.9765364,1.9756539,1.9747815,1.9739194,1.9730567,1.972188,1.9713292,1.970517,1.9697924,1.9691885,1.968706,1.9683189,1.9680309,1.9677968,1.967607,1.9674854,1.9674253,1.9674,1.967365,1.9673214,1.9672978,1.9673096,1.9673572,1.9674346,1.9675026,1.9675286,1.9674957,1.9674481,1.9674512,1.9674647,1.9674127,1.9673722,1.9672829,1.9671359,1.9669017,1.9666154,1.966322,1.9660494,1.9658358,1.9656405,1.9654648,1.965291,1.9651165,1.9649186,1.9646885,1.964468,1.9642854,1.9641539,1.9640505,1.9640112,1.9640357,1.9640961,1.9641877,1.9642832,1.9643745,1.9644227,1.9644065,1.9643295,1.9642224,1.9641337,1.9641055,1.9641726,1.9643028,1.9644494,1.9645522,1.9645505,1.9644276,1.9642344,1.9640801,1.9640061,1.9640899,1.9643162,1.9645852,1.9647939,1.964894,1.9649004,1.9648427,1.9647472,1.964617,1.964413,1.964108,1.9637282,1.9633775,1.9631153,1.9630499,1.9631807,1.963411,1.9636205,1.9637439,1.963777,1.9637712,1.9637506,1.9637028,1.9635782,1.9633334,1.9629904,1.9626281,1.9622989,1.9620724,1.9619617,1.9619169,1.9618577,1.9617236,1.9615072,1.9612484,1.9609684,1.9606857,1.960412,1.9601504,1.9598929,1.9596393,1.9593952,1.9591272,1.9588312,1.9585185,1.9582124,1.9579473,1.9577475,1.9575866,1.9574099,1.9571878,1.9568973,1.9565458,1.9561822,1.9558551,1.955567,1.9552767,1.9549532,1.9545901,1.9542,1.9538248,1.9535074,1.9532565,1.9530377,1.9528127,1.9525623,1.9522731,1.9519482,1.9516139,1.9512953,1.9509854,1.950657,1.9503245,1.9500064,1.9497406,1.9495647,1.9494705,1.949418,1.9493573,1.9492376,1.9490373,1.948767,1.9484626,1.9481647,1.9478981,1.9476423,1.947398,1.9471749,1.9469647,1.9467545,1.9465437,1.9463418,1.946159,1.9460108,1.9459231,1.9458641,1.9457824,1.9456334,1.9453984,1.9451001,1.9447693,1.944444,1.9441772,1.9439949,1.9438758,1.943788,1.9437199,1.9436429,1.9435611,1.9434786,1.9433877,1.9432826,1.9431673,1.9430565,1.9429438,1.942822,1.9426733,1.9424648,1.9421949,1.9419005,1.941638,1.9414672,1.9414122,1.9414542,1.9415481,1.9416122,1.941576,1.9414461,1.941277,1.9410819,1.9408906,1.9407378,1.9406197,1.9405162,1.9404085,1.9402969,1.9401702,1.9400333,1.9399023,1.9397932,1.9397156,1.9396626,1.9396253,1.9396064,1.9395808,1.9395294,1.9394653,1.939418,1.9394034,1.939431,1.9394996,1.93957,1.9396027,1.9395821,1.9395037,1.9393857,1.9392673,1.939163,1.9390811,1.9390328,1.9390196,1.9390446,1.9391103,1.9392036,1.9392915,1.9393897,1.9394894,1.939584,1.9396762,1.93977,1.9398608,1.9399403,1.9400284,1.9401004,1.9401269,1.9401052,1.9400749,1.9400916,1.9401824,1.9403741,1.940678,1.941048,1.9413744,1.9416063,1.9417686,1.9418972,1.9420432,1.9422413,1.9424942,1.9427624,1.9430103,1.943206,1.9433246,1.9433806,1.9434093,1.943486,1.9436734,1.9439821,1.9443744,1.9447839,1.9451253,1.9453576,1.9455377,1.9456921,1.945885,1.9461658,1.946523,1.946908,1.9472883,1.9476874,1.9480515,1.9483671,1.9486564,1.9489571,1.9493015,1.949655,1.9500723,1.9505708,1.951205,1.9519101,1.9525912,1.9532433,1.953839,1.9544477,1.9550971,1.9557941,1.9565073
1.9823511,1.981372,1.9804032,1.9792669,1.9780273,1.9768777,1.9758451,1.9749646,1.9741395,1.9734182,1.9727063,1.9719086,1.9710218,1.9700849,1.9690918,1.9680835,1.9670494,1.9659956,1.9649656,1.9640071,1.9631488,1.9624138,1.9618075,1.9613116,1.960928,1.9606043,1.9603226,1.960105,1.9599506,1.9598397,1.9597266,1.9596171,1.9595383,1.9595044,1.9595158,1.9595672,1.9596283,1.9596611,1.9596483,1.9596293,1.959667,1.959719,1.9597051,1.9596989,1.9596376,1.9595103,1.9592861,1.9590042,1.9587173,1.958457,1.9582593,1.9580789,1.957922,1.9577746,1.9576365,1.9574828,1.9572954,1.9571037,1.9569368,1.9568074,1.9566987,1.9566473,1.9566488,1.9566689,1.9567041,1.9567378,1.9567752,1.9567952,1.9567852,1.9567401,1.9566708,1.9566076,1.9565909,1.9566655,1.9568074,1.9569709,1.9570925,1.9571,1.9569697,1.9567549,1.9565737,1.9564686,1.9565232,1.9567249,1.9569752,1.95717,1.9572589,1.9572542,1.9571824,1.9570725,1.9569311,1.9567246,1.9564266,1.9560604,1.9557233,1.9554703,1.9554098,1.9555411,1.9557717,1.9559863,1.9561162,1.9561528,1.9561478,1.9561237,1.9560717,1.9559478,1.9557087,1.9553714,1.9550097,1.954673,1.9544306,1.9542987,1.9542348,1.9541659,1.9540315,1.9538214,1.9535723,1.9533006,1.953019,1.9527361,1.9524558,1.9521778,1.9519116,1.951665,1.951407,1.951132,1.9508438,1.9505584,1.9503064,1.9501128,1.949956,1.9497821,1.9495628,1.9492769,1.9489336,1.9485831,1.9482735,1.9480054,1.9477344,1.9474263,1.9470735,1.946693,1.9463308,1.9460343,1.9458083,1.9456117,1.9454052,1.9451647,1.9448786,1.9445541,1.9442208,1.9439026,1.9435929,1.9432639,1.9429331,1.9426197,1.9423611,1.9421905,1.9420961,1.942038,1.9419706,1.9418483,1.9416516,1.9413888,1.9410893,1.9407874,1.9405081,1.9402355,1.9399741,1.9397366,1.9395163,1.9393001,1.9390873,1.9388876,1.9387112,1.9385715,1.9384904,1.9384297,1.9383364,1.93817,1.9379177,1.9376051,1.9372616,1.9369262,1.9366493,1.9364569,1.9363295,1.936234,1.9361577,1.9360719,1.9359763,1.9358755,1.9357646,1.935641,1.9355129,1.9353936,1.9352797,1.9351649,1.9350338,1.934854,1.934617,1.9343487,1.9341011,1.933934,1.9338686,1.9338951,1.933974,1.9340286,1.933989,1.9338597,1.9336925,1.9334991,1.933309,1.9331553,1.9330356,1.9329326,1.9328315,1.9327323,1.9326264,1.9325144,1.9324043,1.9323082,1.9322375,1.9321921,1.932166,1.9321637,1.9321549,1.9321135,1.9320488,1.9319927,1.9319658,1.9319808,1.9320359,1.9320867,1.9320931,1.9320452,1.9319465,1.93182,1.931704,1.9316113,1.9315435,1.9315133,1.9315238,1.9315758,1.9316654,1.931774,1.9318619,1.9319475,1.9320244,1.9320959,1.9321692,1.932246,1.9323214,1.9323895,1.9324698,1.9325488,1.932595,1.9325922,1.9325659,1.9325664,1.9326255,1.9327825,1.9330513,1.933391,1.9336915,1.9338996,1.9340422,1.9341586,1.9342976,1.9344896,1.9347312,1.9349823,1.9352119,1.9353982,1.9355214,1.9355924,1.9356413,1.9357346,1.9359331,1.9362488,1.9366446,1.9370522,1.9373896,1.9376075,1.9377687,1.9379059,1.9380914,1.9383771,1.9387466,1.9391408,1.9395266,1.9399247,1.9402831,1.9405912,1.9408703,1.9411559,1.9414837,1.9418257,1.9422383,1.9427418,1.9433815,1.9440827,1.9447467,1.9453704,1.9459319,1.9465086,1.9471333,1.9478124,1.948514
1.9769189,1.9759576,1.9750268,1.9739709,1.9728346,1.9717857,1.9708122,1.969869,1.9689585,1.9681778,1.967411,1.9665678,1.965653,1.9646714,1.9635866,1.962469,1.9613057,1.9601089,1.9589365,1.9578418,1.95685,1.9559956,1.9552763,1.9546671,1.9541721,1.9537325,1.9533257,1.9529738,1.9526799,1.9524338,1.9521875,1.9519564,1.9517727,1.9516548,1.9516034,1.9516089,1.9516482,1.9516728,1.9516697,1.9516709,1.9517305,1.951804,1.9518087,1.9518154,1.9517598,1.9516304,1.9513974,1.951106,1.950814,1.9505553,1.9503636,1.9501857,1.9500374,1.949908,1.9498029,1.9496963,1.9495568,1.9493996,1.9492497,1.9491199,1.9489983,1.9489222,1.9488832,1.9488443,1.9488055,1.9487588,1.948725,1.9486976,1.9486752,1.9486454,1.9486003,1.9485536,1.9485421,1.9486201,1.948769,1.948946,1.9490833,1.9490991,1.9489603,1.9487237,1.9485121,1.9483725,1.9483943,1.9485693,1.9488008,1.948987,1.9490753,1.9490767,1.949012,1.9489151,1.9487956,1.9486196,1.94836,1.948034,1.947727,1.9474926,1.9474347,1.9475534,1.947763,1.9479562,1.9480658,1.948082,1.9480543,1.9480078,1.9479381,1.947808,1.9475772,1.9472554,1.9469104,1.9465859,1.9463491,1.9462174,1.9461529,1.9460871,1.9459629,1.9457647,1.9455277,1.945262,1.9449756,1.9446766,1.9443715,1.9440677,1.9437855,1.9435357,1.9432888,1.9430375,1.94278,1.9425253,1.9422994,1.9421259,1.9419878,1.941832,1.941632,1.9413664,1.9410435,1.9407126,1.9404204,1.9401667,1.9399056,1.9396003,1.939245,1.9388618,1.9385037,1.9382212,1.9380165,1.9378422,1.9376554,1.9374294,1.9371542,1.9368416,1.9365239,1.9362212,1.9359256,1.9356092,1.9352894,1.9349868,1.9347379,1.9345725,1.9344765,1.9344113,1.9343343,1.9342074,1.9340134,1.933758,1.9334646,1.9331616,1.9328711,1.932582,1.9323022,1.9320475,1.9318137,1.9315885,1.9313722,1.9311743,1.9310052,1.9308736,1.9307994,1.9307393,1.9306391,1.9304644,1.9302073,1.929895,1.9295547,1.9292223,1.9289429,1.92874,1.9285953,1.9284799,1.9283817,1.9282728,1.9281504,1.9280205,1.9278803,1.9277289,1.9275779,1.9274433,1.9273223,1.9272122,1.9270988,1.9269506,1.9267504,1.9265122,1.9262834,1.9261208,1.9260454,1.9260521,1.9261097,1.9261463,1.9260955,1.9259602,1.9257892,1.925591,1.9253943,1.9252317,1.9251031,1.9249978,1.9249042,1.9248228,1.9247453,1.9246683,1.9245892,1.9245136,1.9244527,1.924412,1.9243913,1.9243948,1.9243917,1.9243492,1.9242728,1.9241979,1.924151,1.9241482,1.924188,1.9242226,1.9242108,1.9241451,1.9240371,1.9239146,1.9238145,1.9237468,1.9237075,1.9237087,1.9237502,1.9238305,1.9239411,1.9240587,1.924142,1.9242096,1.9242587,1.9243009,1.9243459,1.924396,1.9244471,1.9244967,1.9245653,1.924649,1.9247155,1.9247363,1.9247215,1.9247124,1.924746,1.9248691,1.9251003,1.9254017,1.9256665,1.9258406,1.9259515,1.9260418,1.9261606,1.9263333,1.9265511,1.9267762,1.9269845,1.9271629,1.9272974,1.9273937,1.9274772,1.9276066,1.9278355,1.9281749,1.9285862,1.929,1.9293375,1.9295436,1.9296873,1.929807,1.9299808,1.9302626,1.9306315,1.9310217,1.9314002,1.931788,1.932137,1.9324397,1.9327147,1.9329937,1.9333104,1.933642,1.9340465,1.9345465,1.9351819,1.9358687,1.9365067,1.9370966,1.937621,1.9381634,1.9387652,1.9394317,1.9401306
