0.43063086,0.4322331,0.4339348,0.43563783,0.43739766,0.4391417,0.44077677,0.4422097,0.44331813,0.44412267,0.44477266,0.4448674,0.4444424,0.44359428,0.44274712,0.44211578,0.4415946,0.44123203,0.44105107,0.44091523,0.44077596,0.44068152,0.4406575,0.44073972,0.44085687,0.44100526,0.4411647,0.44132596,0.44150352,0.44168925,0.44193697,0.4422616,0.44266748,0.44308817,0.4435941,0.4442252,0.44494852,0.4460304,0.44717133,0.4479022,0.44828686,0.44833383,0.44813824,0.4477654,0.44747382,0.44723737,0.44699323,0.4467181,0.44643906,0.4461725,0.4459294,0.44568768,0.44547212,0.4454109,0.4455405,0.4457825,0.44593298,0.44673607,0.44760782,0.44773024,0.4466715,0.44706324,0.4462067,0.4450121,0.44532228,0.44837916,0.45139676,0.46395856,0.49269518,0.52251405,0.54083407,0.5493864,0.55521107,0.5575483,0.55656564,0.55535185,0.5538375,0.5523284,0.5511577,0.55036795,0.5498744,0.54956555,0.549271,0.548844,0.54830766,0.54782736,0.5473242,0.54679024,0.54627454,0.54571843,0.5452579,0.54487604,0.54412353,0.5425876,0.5398566,0.5370927,0.53269833,0.5260488,0.51874566,0.5140534,0.5124607,0.5117636,0.51095945,0.50967014,0.5090736,0.5083705,0.507357,0.50613785,0.5051096,0.50447094,0.50420606,0.50417984,0.5043147,0.50446296,0.5045583,0.50462794,0.5046394,0.50462425,0.50456613,0.5044617,0.5043232,0.5041707,0.5040535,0.5039394,0.5038215,0.50369555,0.5035186,0.503324,0.50315666,0.5030101,0.5028819,0.5026941,0.502399,0.50199723,0.50161165,0.50135326,0.50127053,0.5013472,0.50145435,0.50140566,0.5011201,0.50060266,0.49994445,0.49928528,0.49852455,0.49789792,0.49775434,0.49802855,0.49830717,0.4984302,0.49840415,0.49818859,0.4978573,0.497487,0.49710393,0.49673206,0.4963665,0.4960034,0.4956515,0.49530604,0.49494833,0.49456218,0.49409345,0.49347615,0.49264342,0.49160284,0.4903204,0.4893732,0.48888716,0.48846367,0.48792765,0.48732716,0.4869094,0.48642343,0.48594472,0.48547888,0.4850169,0.48452958,0.48403817,0.48366377,0.48336047,0.4830164,0.48277467,0.48265958,0.48276368,0.48300523,0.4833285,0.48374414,0.4841798,0.4843803,0.48441273,0.48433465,0.48422444,0.4839242,0.48362792,0.48337525,0.4830585,0.48302794,0.48338953,0.48375034,0.48452157,0.4856242,0.48633862,0.48660666,0.48659894,0.4865958,0.4866676,0.48668465,0.48673517,0.48680475,0.4868523,0.48669767,0.48642832,0.48603487,0.4859144,0.4858107,0.48581585,0.48576087,0.4858026,0.48596066,0.48618573,0.48638517,0.48662174,0.48686153,0.4871229,0.48740786,0.4877504,0.48828214,0.48903042,0.4898549,0.49053982,0.49111596,0.49163178,0.49208856,0.49251482,0.4930354,0.49366182,0.49428603,0.49488968,0.49547026,0.49602297,0.49658376,0.49724796,0.4980108,0.49882466,0.499623,0.50038433,0.5011195,0.50182915,0.50246537,0.50300634,0.50345457,0.5038552,0.5042819,0.5046928,0.50512105,0.5055467,0.5059693,0.5064518,0.5071054,0.50783813,0.50862175,0.5096476,0.5109253,0.512141,0.51333296,0.51450264,0.5155113,0.5162953,0.5168555,0.5171963,0.51744616,0.5177084,0.5180073,0.5184009,0.5188468,0.51931524,0.5197659,0.5201943,0.5205847,0.5209478,0.52130914,0.5216446,0.52191865,0.5221319,0.5223107,0.52250147,0.52264667,0.5227709,0.522854,0.5229306,0.5229627,0.5229811,0.52303696,0.5231215,0.5232227,0.5233389,0.523417
0.43061262,0.43223053,0.43390727,0.43560165,0.437361,0.43905538,0.4405834,0.4418666,0.44275185,0.44331527,0.44365734,0.44351202,0.44294548,0.44208908,0.44134977,0.4407603,0.44026834,0.43998492,0.43992448,0.4398458,0.43977666,0.43976834,0.43978974,0.4398858,0.44000813,0.44016182,0.44033167,0.44050288,0.44067886,0.4408499,0.44106257,0.44133773,0.44165266,0.44188988,0.44213817,0.44259006,0.44317138,0.44403172,0.4452544,0.44629684,0.44691402,0.44719547,0.44724733,0.44714582,0.44690788,0.44682226,0.44669408,0.44649246,0.44624898,0.44599754,0.4457526,0.44553217,0.44535196,0.44529742,0.44543374,0.44567323,0.44587293,0.4464454,0.44737944,0.44790196,0.44702047,0.4470381,0.447393,0.4463508,0.4460081,0.44797525,0.4509493,0.45641673,0.47692314,0.50456053,0.5278523,0.5403682,0.54775745,0.5523889,0.5528589,0.5518281,0.55079854,0.5498044,0.54879737,0.54799736,0.5474442,0.54706734,0.5467416,0.5464016,0.54600304,0.5455005,0.54492414,0.5443902,0.54382193,0.5432191,0.5427098,0.54225343,0.5414396,0.53984094,0.5374353,0.5350307,0.5307431,0.52443767,0.5179498,0.5138492,0.5121534,0.5113279,0.5103589,0.5089944,0.5084305,0.5076469,0.50661284,0.5054204,0.50443226,0.5038324,0.5035953,0.5035759,0.50371206,0.5038589,0.5039542,0.5040288,0.5040393,0.50401235,0.50395584,0.5038632,0.5037509,0.5036355,0.5035455,0.5034381,0.50330615,0.5031436,0.5029222,0.5026931,0.5024921,0.50232303,0.5021825,0.501988,0.501676,0.501276,0.50090104,0.5006647,0.50061536,0.5007231,0.5008532,0.50082916,0.50054514,0.49999937,0.49929708,0.49857542,0.49773836,0.4970809,0.4969412,0.49723047,0.4975425,0.49767023,0.49764112,0.49741507,0.4970681,0.49668175,0.49629283,0.49591273,0.49553508,0.49516302,0.4947999,0.49443394,0.49405265,0.49365127,0.49316347,0.4925316,0.491643,0.49041864,0.4891187,0.4882695,0.48769787,0.4872464,0.48676106,0.48632196,0.4859696,0.48545188,0.48498908,0.48452878,0.48396328,0.48341715,0.48298335,0.48262525,0.48230615,0.48198515,0.4817818,0.4816888,0.48181695,0.48212647,0.4824909,0.4829129,0.48323554,0.48342758,0.48353058,0.48348477,0.48329714,0.48308206,0.48286754,0.48260856,0.48233157,0.4823034,0.48263717,0.48301426,0.48367995,0.48456174,0.48531055,0.48560345,0.4855887,0.4856362,0.48576796,0.4858413,0.48593193,0.486041,0.48611587,0.4859772,0.48569864,0.48536408,0.48527533,0.48517376,0.48518306,0.4851457,0.48519316,0.48535728,0.48558122,0.4857806,0.48601276,0.48624492,0.4865008,0.48678085,0.4871209,0.48764572,0.48838764,0.48921198,0.48989683,0.4904703,0.49097943,0.4914325,0.49185044,0.49232247,0.49294335,0.49355644,0.49414134,0.49470305,0.4952627,0.49583185,0.4964823,0.49724278,0.4980516,0.49884254,0.4995913,0.50031006,0.50100386,0.50162804,0.50216043,0.50260085,0.50297976,0.50338745,0.50378627,0.5041887,0.5045866,0.504989,0.505383,0.5058316,0.5063838,0.50698316,0.50772357,0.5087048,0.5097134,0.5106491,0.5115538,0.51237464,0.5130495,0.5135467,0.5138962,0.5141432,0.5143361,0.51452523,0.51480377,0.5151751,0.51558447,0.51598334,0.5163597,0.51669717,0.5170196,0.5173631,0.51767755,0.517938,0.5181668,0.51837075,0.5185603,0.51870483,0.518836,0.5189615,0.5191152,0.5192381,0.5193474,0.51948094,0.519645,0.51983714,0.52006286,0.5202683
0.43060836,0.43215147,0.43388176,0.43563014,0.43736076,0.43898973,0.44039655,0.4415173,0.44219357,0.4425792,0.4425876,0.44210148,0.44139177,0.44069755,0.4400144,0.43928134,0.4387765,0.43873033,0.43893963,0.43895566,0.43896678,0.43902767,0.43908077,0.43918794,0.43931788,0.43948054,0.4396674,0.43985856,0.44004178,0.44021112,0.44039804,0.44063506,0.44092286,0.44121101,0.44139874,0.441621,0.44192082,0.44233817,0.44321668,0.44442922,0.44538656,0.44594744,0.44624144,0.4463886,0.4463691,0.4464305,0.4464352,0.4463192,0.44611853,0.44588453,0.44564915,0.4454518,0.44530547,0.44526267,0.445401,0.44563374,0.44586462,0.4462236,0.44716245,0.44796407,0.4477607,0.44728035,0.44816947,0.44795105,0.44744128,0.4485015,0.451803,0.45500556,0.46687385,0.49055862,0.51427186,0.5299442,0.5390978,0.54509443,0.5479398,0.5479684,0.547103,0.5462733,0.54551965,0.54489505,0.5444075,0.5440743,0.5438415,0.5436423,0.54319847,0.54260486,0.54200923,0.5414304,0.5408217,0.54024255,0.53970265,0.5391667,0.5382651,0.53672993,0.5348274,0.5326772,0.52851915,0.5226085,0.51697433,0.51352733,0.5117362,0.5108203,0.50962883,0.5082741,0.50771904,0.5068536,0.505799,0.5046371,0.50369906,0.5031457,0.502936,0.5029355,0.50308204,0.50323075,0.50332475,0.5033952,0.50339735,0.50335336,0.5032916,0.503204,0.5031109,0.50302666,0.50295705,0.50285345,0.50270987,0.5025136,0.50224453,0.5019734,0.50175035,0.5015653,0.5014149,0.5012207,0.5009155,0.5005261,0.5001737,0.49997023,0.49996144,0.5001111,0.5002746,0.5002694,0.49997538,0.49939093,0.49862832,0.4978258,0.49689835,0.49620077,0.4960457,0.4963479,0.49670744,0.49685407,0.49682558,0.4965953,0.49623764,0.49584466,0.49544454,0.49504727,0.4946573,0.4942767,0.49390453,0.49352992,0.49314487,0.4927383,0.49224418,0.4915933,0.49061427,0.4892624,0.48806697,0.48728922,0.48661762,0.4861083,0.4857008,0.48538744,0.48498768,0.48448765,0.48402485,0.48351255,0.48294628,0.48241106,0.4819526,0.48157114,0.4812582,0.48095012,0.4807837,0.48070008,0.48084295,0.48119444,0.4816056,0.48206365,0.48243412,0.4826075,0.48272392,0.48267955,0.48247337,0.48227662,0.48209113,0.48183185,0.4815877,0.48158264,0.4819185,0.48232573,0.4828108,0.48349944,0.48423892,0.484524,0.48456585,0.48468313,0.48487705,0.48502922,0.4851662,0.48527715,0.48536444,0.48524415,0.48496273,0.48468414,0.4846269,0.4845295,0.4845426,0.4845202,0.4845703,0.48473847,0.48495963,0.48515707,0.48537752,0.4856043,0.48585188,0.48612815,0.48645717,0.48697078,0.4877115,0.48853925,0.48922747,0.48979956,0.4903021,0.49075097,0.491163,0.49157244,0.4921847,0.49277762,0.49333423,0.49386066,0.49440295,0.49500597,0.49565893,0.4964106,0.49721783,0.4980045,0.49874446,0.49945015,0.5001299,0.5007421,0.501266,0.50169873,0.502066,0.50245345,0.50284207,0.50323534,0.503627,0.50400853,0.5043862,0.50475425,0.5051333,0.5055816,0.5061251,0.50679606,0.5075923,0.50839055,0.5091177,0.50976044,0.5103121,0.51072514,0.51102185,0.5112146,0.51134956,0.51148117,0.5117283,0.51206505,0.51242554,0.51279265,0.5131382,0.51344436,0.5137086,0.51398724,0.5142562,0.51449394,0.51472664,0.5149806,0.515249,0.5154822,0.5156617,0.51581055,0.51594156,0.5160884,0.51625884,0.5164556,0.5166639,0.51690054,0.5171834,0.51750296
0.43044752,0.43186677,0.43372297,0.43559247,0.43732285,0.43889493,0.44011846,0.4410529,0.4416135,0.44173408,0.44136283,0.44060978,0.43985307,0.439116,0.43836057,0.43761995,0.43732348,0.43759206,0.43804604,0.43820602,0.4382695,0.43837225,0.43844783,0.4385618,0.4386984,0.43886662,0.43906826,0.43927526,0.43946996,0.43964994,0.4398322,0.44005948,0.4403242,0.44064093,0.44092432,0.44106862,0.44121772,0.44142628,0.44179738,0.44261175,0.443679,0.44452554,0.4451256,0.44555146,0.44582558,0.44607544,0.44619584,0.4461624,0.44602564,0.44582665,0.44561934,0.44545054,0.4453351,0.44531363,0.4454527,0.44567218,0.4459231,0.4461298,0.44692615,0.447797,0.4480672,0.44768238,0.4484876,0.4494242,0.44922,0.44958937,0.45188195,0.45514545,0.46248692,0.48026592,0.5019166,0.5195538,0.5297837,0.5363754,0.5412865,0.5433217,0.5431162,0.54215664,0.54132503,0.5409024,0.5406725,0.5405021,0.54030573,0.53997374,0.53943384,0.53881514,0.5381997,0.5376177,0.5370451,0.5365058,0.5359551,0.535296,0.5344082,0.53333163,0.5321531,0.52993226,0.5259536,0.52052057,0.5157273,0.5130006,0.5112331,0.510238,0.5087395,0.50746065,0.5069288,0.5059687,0.50488675,0.50374013,0.50287044,0.5023806,0.5021952,0.5022382,0.5024109,0.50257206,0.50266725,0.5027338,0.5027257,0.5026625,0.50258726,0.50249434,0.5024072,0.50233996,0.5022851,0.5021856,0.5020287,0.50179046,0.5014689,0.50116867,0.50088257,0.50067306,0.50055,0.5003826,0.5000936,0.49972725,0.49940723,0.49923444,0.49927318,0.49946186,0.49966234,0.49966946,0.49935406,0.49872357,0.49788648,0.49699083,0.4959568,0.49517912,0.49499387,0.49532753,0.4957542,0.49594992,0.49592546,0.49569857,0.4953319,0.49492186,0.4945091,0.49410337,0.49370873,0.49332345,0.49294996,0.4925749,0.49218833,0.4917876,0.49127823,0.49058965,0.4895088,0.48812753,0.48710477,0.4863345,0.48566765,0.4851429,0.48476076,0.48442805,0.4840401,0.48357606,0.48309422,0.48255518,0.48197898,0.48144114,0.48095992,0.48056364,0.48023885,0.47992736,0.47978374,0.47972333,0.479864,0.48019472,0.48064536,0.48111165,0.4814777,0.48165673,0.48175904,0.48169467,0.48150146,0.48133916,0.48116994,0.48095152,0.4807725,0.48081753,0.4811675,0.4816004,0.4819869,0.48246047,0.48307645,0.48339736,0.4834938,0.48375523,0.48404706,0.48428202,0.4844517,0.48452038,0.4845751,0.48445553,0.48419297,0.4839887,0.48395404,0.4838582,0.48387507,0.4838674,0.48391718,0.48408675,0.48430556,0.48449755,0.4847017,0.4849301,0.4851682,0.4854439,0.48576695,0.48625943,0.48699248,0.48782682,0.48852545,0.4890984,0.48959458,0.4900338,0.4904458,0.4908084,0.49137014,0.4919333,0.49245125,0.49293676,0.49344173,0.49405304,0.49476087,0.4955186,0.4963237,0.49711052,0.49784547,0.498541,0.49920803,0.49980968,0.5003251,0.50074995,0.5011115,0.5014856,0.50186455,0.50225055,0.50265026,0.5030375,0.50339997,0.5037502,0.5040915,0.5044421,0.5048367,0.505317,0.5058621,0.5064829,0.5071176,0.5076816,0.50815046,0.50847363,0.5086756,0.50876147,0.50885344,0.5090132,0.5092657,0.509591,0.5099409,0.5103031,0.51065266,0.51096845,0.51124847,0.51151323,0.5117663,0.5120034,0.51225096,0.51253176,0.5128403,0.51311064,0.5133187,0.5134764,0.5136076,0.513765,0.51395833,0.5141715,0.5143705,0.5145897,0.5148853,0.51523876
0.43019348,0.43156517,0.43340892,0.43542975,0.43719268,0.43867117,0.43970737,0.44051456,0.44091505,0.44063276,0.4398842,0.43885845,0.4380054,0.43723983,0.43661138,0.43626806,0.43630314,0.43677312,0.437356,0.43757606,0.43768567,0.43782204,0.43791744,0.4380371,0.43818086,0.43835092,0.43856016,0.4387712,0.4389689,0.43915904,0.43934736,0.43958518,0.4398449,0.44014102,0.4404735,0.44073364,0.4408787,0.4410042,0.4412049,0.44161934,0.44236493,0.44330415,0.44408143,0.44479632,0.44533896,0.44572002,0.44592977,0.44599187,0.44594622,0.44581062,0.44565034,0.44552833,0.44545895,0.44546884,0.4456062,0.44580603,0.44605863,0.44624758,0.44663107,0.4473142,0.44783112,0.4480381,0.44876128,0.45015055,0.45074153,0.4511804,0.452608,0.45566952,0.4613741,0.47360474,0.4924919,0.50965655,0.52095306,0.52767813,0.533036,0.5368692,0.5380521,0.5378219,0.5369627,0.5362077,0.53602505,0.5357424,0.53543735,0.53510684,0.5346099,0.5340353,0.5334619,0.53291816,0.5324097,0.53184783,0.5311845,0.53070664,0.530365,0.5298462,0.5288689,0.5266025,0.52290094,0.5180987,0.5142111,0.5120758,0.5105666,0.50936294,0.50777346,0.5066577,0.50609523,0.50504196,0.5039012,0.50274384,0.5019489,0.5015334,0.5013902,0.50149286,0.5017086,0.50189614,0.5019993,0.50206274,0.50204504,0.50196254,0.5018643,0.5017532,0.5016555,0.50158787,0.5015404,0.50144404,0.5012704,0.50099385,0.50062495,0.5002534,0.49987048,0.49963436,0.4995569,0.49945575,0.4992199,0.4988652,0.49854875,0.49840686,0.49851745,0.4987696,0.49900028,0.4990152,0.49867016,0.49798715,0.49707192,0.4960726,0.49491805,0.49401003,0.49376437,0.4941523,0.4946775,0.49495885,0.49495527,0.49472544,0.4943486,0.4939292,0.49351978,0.49311996,0.49272913,0.4923417,0.4919631,0.4915856,0.4912057,0.49079052,0.4902488,0.48954773,0.48839766,0.48702237,0.48608825,0.48536643,0.4847055,0.48419887,0.48381275,0.48348546,0.48313034,0.4827032,0.48220876,0.48166597,0.4810815,0.48052686,0.480031,0.47962052,0.47928792,0.4789847,0.47883022,0.47880325,0.47890526,0.4792055,0.4796342,0.48009363,0.48045555,0.4806239,0.4806704,0.480603,0.48047686,0.4803357,0.48016018,0.48001584,0.47991598,0.48002392,0.48040673,0.48087898,0.48130268,0.48168278,0.4821105,0.48244625,0.4826177,0.4829623,0.48333362,0.4835828,0.48375267,0.48380888,0.4837829,0.48365045,0.48342758,0.48331374,0.4832933,0.4831867,0.483204,0.4832198,0.48326474,0.48343283,0.4836441,0.48383176,0.4840178,0.4842471,0.4844792,0.4847577,0.4850834,0.48554158,0.48625404,0.4870973,0.48781264,0.48838824,0.4888774,0.489303,0.48970565,0.49006322,0.49052,0.4910434,0.49151278,0.49195123,0.4924153,0.4930036,0.493765,0.49458933,0.4953976,0.49618602,0.49691913,0.49760735,0.4982636,0.49885505,0.49936175,0.49977896,0.5001338,0.50050354,0.5008775,0.50125885,0.5016556,0.50206244,0.5024489,0.5028091,0.5031606,0.5035062,0.50385904,0.5042537,0.5046758,0.5051325,0.5056199,0.5060868,0.5064702,0.50672185,0.5068654,0.5069675,0.5071085,0.5073072,0.5075829,0.5079182,0.5082737,0.50863844,0.50899154,0.5093166,0.50960994,0.5098835,0.5101317,0.51037323,0.51063454,0.5109165,0.5112211,0.51149607,0.51174,0.51194715,0.5121238,0.5122994,0.5124895,0.5126796,0.5128581,0.51302767,0.51328385,0.5136368
0.43007958,0.43140402,0.4331566,0.43525055,0.43698063,0.438331,0.43922836,0.43992415,0.44000614,0.43938088,0.43825275,0.43713254,0.43631095,0.43583596,0.4355691,0.43553972,0.43583012,0.43643326,0.43693995,0.43713465,0.4373103,0.4374755,0.43758982,0.43771762,0.43786526,0.43803328,0.43823713,0.43843484,0.43862242,0.43880814,0.43900186,0.43924892,0.4395128,0.4397999,0.4400975,0.4404108,0.44065997,0.44080424,0.44096753,0.4411971,0.44167888,0.44253796,0.44331172,0.44414878,0.4448833,0.44534874,0.44565326,0.44580704,0.44585103,0.4457854,0.44568446,0.44561875,0.44560498,0.44565794,0.44580308,0.44598627,0.44622555,0.44647783,0.44652152,0.4468458,0.44737756,0.44798017,0.44910604,0.45049533,0.45169693,0.45255154,0.4537127,0.45623213,0.46121716,0.47083756,0.48595873,0.5009571,0.5126117,0.5199972,0.5249537,0.52927744,0.531664,0.5321731,0.5317037,0.53078413,0.530287,0.52998406,0.5296961,0.529392,0.528901,0.5283464,0.52780145,0.5272634,0.52668464,0.52613497,0.5258199,0.52599543,0.52608585,0.5257064,0.52464825,0.5226229,0.5193923,0.51524806,0.5125303,0.51085246,0.509488,0.5081297,0.5068115,0.5060213,0.5052476,0.5041322,0.5029162,0.5017382,0.50099885,0.5006416,0.50056005,0.50073117,0.5009996,0.50122106,0.50133806,0.501393,0.5013647,0.50126326,0.5011387,0.50100017,0.50087935,0.5007981,0.5007495,0.50065625,0.50046664,0.50015295,0.49974388,0.49925494,0.49881554,0.4985707,0.49851477,0.49846253,0.49828807,0.49794632,0.49762943,0.4975186,0.4976979,0.49803686,0.4983013,0.4983131,0.49793842,0.49719897,0.49620453,0.49509752,0.49377632,0.4928265,0.49253765,0.49291658,0.4935468,0.49391872,0.49393952,0.49370888,0.49333113,0.49292612,0.49252108,0.49212754,0.491742,0.4913566,0.49097997,0.49060965,0.49020922,0.48975858,0.48921105,0.48847634,0.48729414,0.4859321,0.48507345,0.48439932,0.48374102,0.483244,0.4828671,0.48257333,0.4822428,0.48181707,0.48134565,0.48080975,0.48022467,0.47966436,0.47916055,0.47875506,0.47841853,0.47812086,0.47795624,0.4779239,0.47800297,0.47824374,0.4786173,0.47904736,0.4793861,0.47953194,0.47955313,0.47952256,0.4794435,0.47929996,0.47916892,0.47910213,0.4790867,0.4792675,0.47968763,0.48021573,0.48067212,0.4810673,0.48146555,0.48179582,0.4820075,0.4822969,0.4826559,0.48290718,0.4830752,0.48312974,0.48304567,0.48290536,0.48274893,0.48269373,0.48266357,0.48254085,0.48255596,0.48259914,0.48263684,0.48280108,0.4829992,0.48318046,0.483348,0.48357534,0.48380953,0.48409,0.48442215,0.48483175,0.48551595,0.48636842,0.4871042,0.4876833,0.48816454,0.48857883,0.48895788,0.4893016,0.48966646,0.4901426,0.4905581,0.49094474,0.49137172,0.4919312,0.49269766,0.4935993,0.4944605,0.49525177,0.49598324,0.49666697,0.49731553,0.49789983,0.49840003,0.49881122,0.49916062,0.4995279,0.49989566,0.5002706,0.50065815,0.5010594,0.5014706,0.5018599,0.5022337,0.5026052,0.50296617,0.5033321,0.50369877,0.50407207,0.50445455,0.50481516,0.50511897,0.5053372,0.50549483,0.5056553,0.5058297,0.5060736,0.50637305,0.50671774,0.50707805,0.5074477,0.50781167,0.50815165,0.50844693,0.50870854,0.50894856,0.50919574,0.5094639,0.50974834,0.510045,0.51032317,0.51059294,0.5108336,0.5110439,0.51123965,0.5114305,0.5116061,0.5117694,0.51190996,0.5121256,0.5124427
0.43009695,0.43135983,0.4330384,0.4350904,0.43677717,0.43804917,0.4388114,0.4392243,0.4390117,0.43812668,0.43690038,0.43592647,0.4353335,0.43513003,0.43517312,0.43544886,0.43593276,0.4363754,0.43666288,0.43690193,0.43713248,0.43731284,0.43743777,0.43756905,0.437716,0.43787998,0.43807387,0.43824983,0.438415,0.4385786,0.43875962,0.4389999,0.4392594,0.43954018,0.4398147,0.4400893,0.44037083,0.4406259,0.44081616,0.4410048,0.4412774,0.4419188,0.44268012,0.44349787,0.4443798,0.44496316,0.44535336,0.44559634,0.44570068,0.4457048,0.44567096,0.4456738,0.44571,0.44581538,0.44599277,0.4461736,0.4464043,0.44666123,0.44672066,0.44671804,0.44709396,0.4478936,0.4493689,0.45083445,0.4522382,0.45342848,0.45480847,0.45739037,0.46208,0.47025907,0.48251802,0.49514592,0.5054159,0.51239055,0.51712966,0.5209332,0.5237426,0.52481735,0.5247796,0.52426076,0.52386713,0.52383137,0.5236917,0.5233872,0.5229049,0.52233374,0.52174914,0.5211816,0.5206542,0.52031195,0.5204485,0.5208883,0.5209561,0.5206063,0.5197511,0.5181516,0.51552606,0.51230013,0.51065874,0.5094279,0.50810885,0.50690234,0.50598174,0.50546116,0.5044513,0.5032809,0.5019802,0.5007725,0.5000621,0.49974018,0.49972296,0.4999707,0.5002962,0.5005531,0.5006819,0.5007218,0.5006822,0.5005648,0.5004121,0.5002417,0.5000926,0.49999195,0.4999284,0.49982917,0.4996264,0.49929148,0.4988091,0.49824506,0.497767,0.49752825,0.4975072,0.49748257,0.49733555,0.49702883,0.49672398,0.49663365,0.49684787,0.49724582,0.49755013,0.49754772,0.49714807,0.49635345,0.49528056,0.4940737,0.49259958,0.49166954,0.49139345,0.49171972,0.4924341,0.4928631,0.49289826,0.4926755,0.49229866,0.4918943,0.49150628,0.4911308,0.49075106,0.49037778,0.48999602,0.48960328,0.48917437,0.4887157,0.4881788,0.48736203,0.48616096,0.48482692,0.48407042,0.4833945,0.48274443,0.48224312,0.48189598,0.48163337,0.4813109,0.48090893,0.4804814,0.47995815,0.47937912,0.47882545,0.47832987,0.47793844,0.47759235,0.47730604,0.4771375,0.477073,0.47713566,0.47732332,0.47761285,0.47793835,0.47821194,0.47837776,0.47845975,0.47844887,0.4783796,0.47828892,0.47822225,0.47820908,0.47827232,0.47853696,0.47902507,0.479625,0.48009676,0.48048842,0.48089164,0.4812308,0.4814263,0.4817034,0.48199573,0.48221976,0.48239237,0.4824463,0.48235556,0.48222026,0.4821269,0.48208392,0.4820366,0.48190978,0.48192284,0.48197845,0.48201418,0.48217362,0.48235828,0.48252618,0.48268223,0.48290545,0.48314363,0.4834209,0.48376173,0.48413402,0.484782,0.48563474,0.48639542,0.4869776,0.48745182,0.48785633,0.48820883,0.48852837,0.48884183,0.48924625,0.48960477,0.48993683,0.4903226,0.4908648,0.491619,0.49256128,0.49350792,0.4943176,0.49504635,0.49572918,0.49637493,0.4969564,0.49745366,0.4978606,0.49820364,0.49856257,0.49891847,0.49927825,0.4996454,0.500022,0.50041914,0.5008236,0.5012145,0.501603,0.5019783,0.5023396,0.50268054,0.5030055,0.5033251,0.50362533,0.5038891,0.50410295,0.5043007,0.50449646,0.5047232,0.5050086,0.50532997,0.5056795,0.50603616,0.5064052,0.50676477,0.5070815,0.5073513,0.50759256,0.50783014,0.5080843,0.5083518,0.50863814,0.50893784,0.5092287,0.50951755,0.5097841,0.51002073,0.5102377,0.51043904,0.51062274,0.5107838,0.5109185,0.51110464,0.5113689
0.43016,0.4313559,0.43296587,0.43493456,0.43659118,0.43780598,0.4384535,0.43857002,0.43822894,0.43717557,0.43612218,0.43531585,0.43493867,0.43498135,0.43527997,0.4357319,0.43605667,0.4362691,0.43653917,0.43685642,0.43711174,0.4373047,0.43743888,0.43757072,0.43771178,0.4378664,0.43803856,0.43818218,0.43830913,0.4384281,0.43857604,0.43878156,0.43901622,0.4392764,0.43953174,0.43979082,0.44004264,0.44032508,0.44059563,0.44081676,0.44102263,0.44148037,0.4421277,0.44289815,0.44382474,0.4445163,0.44500414,0.44531637,0.44548517,0.4455722,0.4456194,0.44568783,0.44577137,0.4459176,0.44613433,0.44633418,0.44656843,0.44681317,0.44704425,0.44700313,0.44724172,0.44805503,0.44946027,0.45103717,0.45255435,0.45403194,0.455768,0.4583713,0.46286523,0.4704806,0.48116922,0.49177676,0.50022393,0.5057447,0.50950223,0.5126747,0.5151936,0.5163847,0.5167204,0.5168055,0.51687753,0.51698947,0.51699567,0.5168363,0.51652324,0.51616037,0.5157574,0.51526535,0.51494277,0.5148231,0.5147978,0.5150209,0.51513517,0.5149709,0.5144432,0.5132704,0.5114655,0.5097761,0.50863695,0.50783277,0.50682056,0.50592613,0.50541824,0.50478303,0.503672,0.5024697,0.5011103,0.49986097,0.4991423,0.49883765,0.4988846,0.4992079,0.49958897,0.49987763,0.50001144,0.5000363,0.49997562,0.49984378,0.4996624,0.49945962,0.49926263,0.49912095,0.4990642,0.49896187,0.49875367,0.49842858,0.4978578,0.49725768,0.4967603,0.4965492,0.49656218,0.49656212,0.49642494,0.49612534,0.4958231,0.49572927,0.49595648,0.49640986,0.49676037,0.49672848,0.4963053,0.49545884,0.4943272,0.4930262,0.49147153,0.49054706,0.49022934,0.49056178,0.49132895,0.49177498,0.49182203,0.49159512,0.49118108,0.49078822,0.4904225,0.49008495,0.48972642,0.4893426,0.48894832,0.4885381,0.4881103,0.48765683,0.48710552,0.48621476,0.48495865,0.48378912,0.48306352,0.48235697,0.48169547,0.48117945,0.4808539,0.48059818,0.48030078,0.47995532,0.47955236,0.47904932,0.4785084,0.47798452,0.4775198,0.47715133,0.47681415,0.4765566,0.4764008,0.4763226,0.47634083,0.47646663,0.47664762,0.4768519,0.4770344,0.47717172,0.47727108,0.4772985,0.47728014,0.47727424,0.47728792,0.4773796,0.47754592,0.47790068,0.47846213,0.47912267,0.47961888,0.4799939,0.48037663,0.48070663,0.48092675,0.481165,0.48139095,0.4815938,0.4817487,0.48178536,0.4817172,0.4816103,0.48152754,0.48148245,0.481427,0.48130563,0.4813154,0.48136604,0.48140323,0.48155722,0.48172858,0.48188162,0.48202866,0.4822467,0.4824849,0.482758,0.48310307,0.48347342,0.48407584,0.48490638,0.48568556,0.48627758,0.48674703,0.4871307,0.487466,0.48776388,0.48804754,0.48835242,0.4886499,0.48893568,0.48932457,0.4898337,0.490552,0.49150923,0.4925058,0.4933803,0.49412054,0.49480134,0.4954487,0.496031,0.49652794,0.4969324,0.49726966,0.49761602,0.49795824,0.49829835,0.4986386,0.49898243,0.49934542,0.49973026,0.50011843,0.5005079,0.50089145,0.5012561,0.50159323,0.50190413,0.5022024,0.5024844,0.502746,0.5029874,0.5032332,0.50346774,0.5037425,0.5040566,0.50439036,0.5047352,0.5050732,0.5054139,0.50573635,0.50601715,0.5062618,0.50648904,0.5067184,0.5069739,0.507241,0.5075292,0.50783825,0.5081352,0.50843066,0.5087086,0.5089642,0.5092069,0.50943327,0.50963175,0.5097969,0.5099335,0.5100882,0.5103017
0.43024367,0.43136925,0.43290812,0.4347907,0.43640357,0.4375726,0.43811944,0.43806404,0.43764096,0.43664265,0.4357764,0.4352001,0.43505207,0.43531972,0.43575042,0.43597287,0.4360646,0.43628502,0.43660653,0.43692946,0.43718797,0.43738583,0.43752384,0.43765295,0.43778425,0.43792525,0.43807232,0.43818104,0.43826497,0.4383284,0.43842688,0.4385813,0.43877578,0.43900454,0.43923268,0.4394709,0.43969917,0.43993446,0.440211,0.4404931,0.44078955,0.4411525,0.44164973,0.4423683,0.44328392,0.44403696,0.4446031,0.44498384,0.4452319,0.44539645,0.4455274,0.44564992,0.44578218,0.44596368,0.44622403,0.44646934,0.44672322,0.44697306,0.4472537,0.44740045,0.44759926,0.44829524,0.44950467,0.4511361,0.45267725,0.4542772,0.4563727,0.45915824,0.46364707,0.47127742,0.48089272,0.48960018,0.49617153,0.50052595,0.503417,0.506122,0.5078516,0.5087254,0.5091961,0.5095413,0.5098103,0.51005274,0.5102254,0.5102309,0.5101085,0.5099404,0.5097784,0.50965565,0.5096874,0.5097222,0.5096902,0.5097986,0.5099269,0.5099307,0.5097144,0.50912863,0.5082828,0.5075536,0.50680506,0.50623107,0.50569844,0.50523865,0.5048146,0.50399345,0.5028702,0.5016614,0.50029147,0.499,0.49824476,0.4979427,0.49805474,0.4984473,0.49888355,0.49920344,0.4993388,0.4993496,0.49926537,0.49911374,0.4989084,0.4986667,0.49839762,0.4982074,0.49816263,0.49809727,0.49791154,0.497554,0.49694455,0.49633926,0.49591506,0.4957435,0.49572796,0.4957281,0.4955709,0.4952401,0.49490973,0.4947983,0.49503732,0.49553782,0.49592137,0.4958614,0.49541235,0.4945191,0.49336943,0.49195653,0.49039173,0.48941848,0.4890632,0.4893512,0.49022675,0.4906478,0.4907006,0.49043918,0.4900153,0.48964685,0.4892964,0.48895258,0.48861665,0.48825264,0.4878614,0.48745477,0.4870301,0.4865898,0.48598117,0.48502117,0.48367348,0.48282522,0.48210713,0.4813087,0.48063087,0.48010242,0.47978795,0.47953987,0.47927904,0.47895432,0.47856316,0.47811237,0.477634,0.47716478,0.47675818,0.47640002,0.47610074,0.47588915,0.47575736,0.47567517,0.47565442,0.4756943,0.47576785,0.4758665,0.47595555,0.4760189,0.47608042,0.4761474,0.4762188,0.47630426,0.47642946,0.47664753,0.47695675,0.47740299,0.47799084,0.47866684,0.4791594,0.4795429,0.47989786,0.48020488,0.4804357,0.4806382,0.48082867,0.4810261,0.4811669,0.48119307,0.48113576,0.48103786,0.4809513,0.48090613,0.48084772,0.4807312,0.48073572,0.48077613,0.48081166,0.48095965,0.48111778,0.48125696,0.48139483,0.48160553,0.48184186,0.4821124,0.4824609,0.48284516,0.48340023,0.48419935,0.4849809,0.48559368,0.4860673,0.48642656,0.48675215,0.48703322,0.48728985,0.48754472,0.48779017,0.4880734,0.4884584,0.4889361,0.48956674,0.49046427,0.49149626,0.49242592,0.4932152,0.4939056,0.4945521,0.49513626,0.49563348,0.4960357,0.4963684,0.49670303,0.49703255,0.49735326,0.49766532,0.4979726,0.4982944,0.49863774,0.49899238,0.49936718,0.4997475,0.5001162,0.5004616,0.5007806,0.50108546,0.5013795,0.50166523,0.50195205,0.50225,0.5025482,0.50285995,0.5031884,0.5035062,0.50382495,0.5041405,0.50444806,0.5047357,0.5049919,0.5052154,0.50542605,0.5056436,0.50589544,0.50616723,0.50644994,0.5067538,0.50704813,0.5073434,0.50762933,0.50790447,0.5081698,0.5084168,0.50862765,0.50880045,0.5089411,0.5090761,0.50923955
0.43030828,0.43136233,0.43282482,0.43461397,0.43618137,0.4373091,0.4377551,0.4376417,0.43713686,0.43632954,0.43564618,0.43529984,0.43536463,0.43576896,0.4360729,0.43605763,0.43615538,0.43639207,0.43669146,0.4369903,0.43723398,0.43742043,0.43755305,0.43767747,0.4378041,0.4379386,0.43806842,0.43815064,0.438193,0.4382047,0.4382487,0.43834788,0.43849903,0.43869185,0.4388937,0.43910497,0.43930817,0.43951446,0.4397431,0.44002098,0.44035578,0.44074434,0.44118038,0.44186947,0.442787,0.44355255,0.4441818,0.44463784,0.44496012,0.44519782,0.44539616,0.44557136,0.4457496,0.44596905,0.44626114,0.44656524,0.44685304,0.4471146,0.44738585,0.4476827,0.44791198,0.4484871,0.44959408,0.4510877,0.45269138,0.45425493,0.45648777,0.45945877,0.4641487,0.47156543,0.48035365,0.48726043,0.49219057,0.4960258,0.49866414,0.5011305,0.50251114,0.5031296,0.50354266,0.50392413,0.5043097,0.50468695,0.50501674,0.50521505,0.5052588,0.50521916,0.5051993,0.5053166,0.5055029,0.50561345,0.5057261,0.5059077,0.5061148,0.5062845,0.5063288,0.5061667,0.50587076,0.5055347,0.5051886,0.5048841,0.5046884,0.50446486,0.50400865,0.5031588,0.5020368,0.50079846,0.49942508,0.49810034,0.49725816,0.49696386,0.4971817,0.49766058,0.49816757,0.49853185,0.49867618,0.49867558,0.49858195,0.4984057,0.49818936,0.49791545,0.49757582,0.49735296,0.4972919,0.49727005,0.4971277,0.49674237,0.49614114,0.49556258,0.49522635,0.4950928,0.49501795,0.49499863,0.4948222,0.4944412,0.4940595,0.4939258,0.49416548,0.49465507,0.49499953,0.4949513,0.49447152,0.49355188,0.4923847,0.49087948,0.48938194,0.48834586,0.48798227,0.48822922,0.4890839,0.48948765,0.4895113,0.48921892,0.4888149,0.48842287,0.4880477,0.4877172,0.48739934,0.4870723,0.48670948,0.48632067,0.48590678,0.48542905,0.4847489,0.48370528,0.48262942,0.48192796,0.481178,0.4803123,0.4796232,0.4790969,0.4787935,0.47853327,0.4782219,0.47788867,0.47755343,0.4771882,0.476785,0.47636998,0.47598696,0.47565758,0.4754095,0.47525156,0.47514713,0.47506982,0.4750184,0.4749859,0.47496426,0.47496414,0.47496575,0.47497272,0.4750085,0.47509024,0.47522578,0.47540706,0.47564137,0.47596207,0.47639158,0.47691554,0.47753298,0.47815877,0.47865495,0.4790204,0.47935846,0.47965166,0.47986907,0.48006165,0.48025155,0.4804421,0.48058504,0.48061514,0.48055363,0.48045385,0.48037112,0.48032743,0.4802717,0.48015738,0.48015612,0.48019254,0.48022747,0.48037252,0.48051816,0.4806409,0.4807723,0.48097798,0.48121458,0.4814811,0.48183557,0.48223317,0.48273104,0.4834961,0.4842791,0.48489833,0.48537278,0.48572144,0.48603436,0.48632056,0.48656267,0.48679894,0.48703188,0.4873014,0.4876578,0.48812413,0.48867804,0.48946536,0.49048948,0.49145597,0.49229288,0.4930269,0.4936785,0.4942608,0.494758,0.4951592,0.49548912,0.49581656,0.49613678,0.49644327,0.4967326,0.49700916,0.49729353,0.49759457,0.49791035,0.49826092,0.4986289,0.49899545,0.49934775,0.49967813,0.49999547,0.5003067,0.50061905,0.500939,0.5012716,0.5016123,0.501953,0.5022946,0.50261873,0.5029326,0.5032356,0.50352526,0.5037901,0.5040202,0.5042193,0.50440675,0.50460494,0.5048365,0.5050968,0.5053714,0.50566113,0.5059514,0.50624907,0.5065432,0.5068322,0.50711167,0.50737286,0.5075965,0.5077779,0.5079212,0.50805265,0.50818825
0.43032312,0.43130726,0.43269104,0.43437785,0.43589157,0.43697274,0.43732947,0.43721727,0.43670404,0.43609676,0.43561113,0.4354636,0.4356951,0.4360535,0.43608868,0.43609077,0.43619263,0.43639454,0.43664977,0.43691158,0.43712825,0.4372978,0.43742442,0.43754917,0.43767858,0.43781257,0.4379319,0.4379929,0.43800217,0.43797228,0.43797144,0.43802306,0.43813473,0.43829483,0.438473,0.43866175,0.43884587,0.4390296,0.43923402,0.43948215,0.43979,0.4402021,0.44068503,0.44137472,0.44225252,0.44305113,0.4437458,0.4442761,0.44467145,0.44497424,0.44523343,0.4454598,0.4456817,0.4459362,0.44625345,0.44659463,0.44691157,0.4471857,0.44747612,0.4477967,0.44811034,0.44859216,0.4495789,0.4509272,0.4524927,0.4540898,0.45618138,0.45909855,0.4637354,0.4707188,0.47850785,0.48450655,0.48879963,0.4921125,0.49473855,0.4970709,0.49849576,0.49909648,0.49954295,0.50002056,0.5005381,0.5010288,0.5014101,0.5017045,0.50183654,0.5018269,0.501873,0.5020479,0.502216,0.5023594,0.5025321,0.5027945,0.50311416,0.50343215,0.5036783,0.5037781,0.5037832,0.5037453,0.50372696,0.5037171,0.50371486,0.50359654,0.5031729,0.50235164,0.50121504,0.49991587,0.49850386,0.49709767,0.49614993,0.49587327,0.49624598,0.49682146,0.49741527,0.49784127,0.4980082,0.49801278,0.49791667,0.49772072,0.49750662,0.49720937,0.4968295,0.4965908,0.49651456,0.49650598,0.49639285,0.49603602,0.49547738,0.49493033,0.4946462,0.49451774,0.49440715,0.49437058,0.49414688,0.49369356,0.49324495,0.49305797,0.49324062,0.4936223,0.49390042,0.49386817,0.49339682,0.49248147,0.49120125,0.48979038,0.48836514,0.48729488,0.48693773,0.48719323,0.4878276,0.4882375,0.48825997,0.48793384,0.48753285,0.48716515,0.48679835,0.4864682,0.48612684,0.48577031,0.48541424,0.48505217,0.4846365,0.48409605,0.4833647,0.48247603,0.48175383,0.48111433,0.48024264,0.4793985,0.47872022,0.47819167,0.47783944,0.47747976,0.47713506,0.47681755,0.47652185,0.4762192,0.47588617,0.47552684,0.47518337,0.47490698,0.47472477,0.47461832,0.47454262,0.4744689,0.47439215,0.4743064,0.4742168,0.47413713,0.47406936,0.47403342,0.47405553,0.47415006,0.47432417,0.47457254,0.47489232,0.47530103,0.4758218,0.4764257,0.47708112,0.47763035,0.4780987,0.47845936,0.47879654,0.47909278,0.47928876,0.47946313,0.47964725,0.4798246,0.47997594,0.48002794,0.47996235,0.47986463,0.47978926,0.47974497,0.4796902,0.4795708,0.47956228,0.4796114,0.47965318,0.47978187,0.47992665,0.48002845,0.48015335,0.480354,0.4805921,0.48086035,0.4812196,0.48162836,0.4820645,0.4827835,0.48356602,0.48418534,0.48466003,0.48500437,0.48530698,0.48558837,0.48584932,0.4860585,0.48627883,0.48653853,0.4868725,0.48732847,0.48787057,0.48854977,0.48948574,0.4904667,0.4913355,0.49211964,0.49280936,0.49338984,0.49388486,0.49428546,0.49461573,0.494938,0.49525338,0.4955511,0.4958247,0.49607825,0.49633262,0.49660736,0.49690312,0.4972276,0.49757767,0.49793845,0.49829027,0.49862576,0.49895638,0.4992855,0.49961483,0.49995625,0.5003097,0.50066924,0.50102603,0.5013739,0.5017079,0.5020274,0.5023252,0.50260115,0.50284475,0.50305045,0.5032246,0.50338656,0.50355893,0.5037652,0.50400317,0.5042646,0.50454366,0.5048243,0.5051222,0.50542486,0.505727,0.50602055,0.5062952,0.50652885,0.50671864,0.50686806,0.50700426,0.50714266
0.43026996,0.43119532,0.43250692,0.43409187,0.4355161,0.43654412,0.4368171,0.43675032,0.43633044,0.43587798,0.4355433,0.43552437,0.43582007,0.43592972,0.43591735,0.4359343,0.43599737,0.43615645,0.43635905,0.4365701,0.43674928,0.43689635,0.43702075,0.43716007,0.4373131,0.43747014,0.43760145,0.43766028,0.4376527,0.4376002,0.43756756,0.4375894,0.43767148,0.4378032,0.4379595,0.43812066,0.43828428,0.43844724,0.4386338,0.4388712,0.43916506,0.43956673,0.44011465,0.44082,0.44164443,0.4424935,0.4432515,0.4438551,0.44431987,0.44468266,0.44499922,0.4452778,0.4455464,0.4458393,0.4461849,0.44654745,0.44687915,0.44716623,0.44746852,0.44780728,0.4481399,0.4485823,0.44944718,0.45073068,0.45220506,0.45373,0.4559135,0.45882988,0.4631628,0.46930727,0.4762626,0.48239613,0.48659557,0.48955977,0.49206296,0.4942598,0.4958154,0.496631,0.49728614,0.49779305,0.49818265,0.4985196,0.49876547,0.4988687,0.4987982,0.4988708,0.49914357,0.4993382,0.4994676,0.49960518,0.49979344,0.50010985,0.50052357,0.5009794,0.50141335,0.5017568,0.5020193,0.5022415,0.5024791,0.5026704,0.5028094,0.5027851,0.5024117,0.5016011,0.5004208,0.49902794,0.4975226,0.49595284,0.49483103,0.49457586,0.4950839,0.49588007,0.4966077,0.4971215,0.49733168,0.49735937,0.49726465,0.4970661,0.49684873,0.49652848,0.49616778,0.4959327,0.49584973,0.49583828,0.49573696,0.49541557,0.49491444,0.49438816,0.4941066,0.4939316,0.49383193,0.49376625,0.49344027,0.49288177,0.49231058,0.491999,0.49202472,0.49221024,0.49240598,0.49234205,0.49187747,0.4909883,0.4896656,0.48853248,0.4872561,0.4862067,0.48584193,0.4861037,0.48650667,0.48681688,0.48683023,0.486629,0.4862758,0.48592824,0.48558047,0.48525226,0.48491853,0.4845791,0.48424274,0.483861,0.4833879,0.48280823,0.48215544,0.48153973,0.48095858,0.480299,0.47939298,0.47854334,0.4778787,0.4773316,0.47689295,0.47648293,0.47612512,0.47581178,0.47552663,0.4752454,0.47495615,0.47465366,0.4743796,0.47417262,0.4740451,0.47397965,0.47393182,0.47386783,0.47378063,0.4736693,0.4735421,0.47341996,0.47331384,0.47325602,0.47327396,0.47338286,0.4735881,0.47387972,0.47425142,0.47471416,0.47527868,0.47592467,0.4766067,0.47707433,0.47749844,0.47785574,0.47820342,0.47847158,0.4786922,0.47887534,0.47903603,0.47920448,0.47935092,0.47942242,0.479372,0.4792782,0.47921205,0.4791659,0.47910398,0.47897798,0.4789641,0.47901893,0.47908264,0.47920084,0.4793342,0.47942823,0.47954488,0.47973442,0.47997284,0.4802515,0.48061016,0.48101765,0.48144078,0.4820755,0.4828235,0.48344538,0.48392093,0.4842638,0.4845596,0.48483264,0.48509428,0.48531738,0.48551536,0.48575938,0.4860734,0.4865213,0.4870812,0.48770967,0.48853725,0.48948097,0.49034798,0.49116796,0.49189836,0.49251106,0.49300414,0.49340045,0.49373007,0.4940425,0.49435052,0.49464023,0.49490058,0.4951345,0.49536344,0.49560967,0.49587733,0.49617147,0.49648875,0.49681798,0.49714652,0.4974689,0.49779177,0.49812,0.49845505,0.49880147,0.49915642,0.49951172,0.49986365,0.500212,0.50055087,0.500864,0.501153,0.50141406,0.50163776,0.50182444,0.5019852,0.50213456,0.5023051,0.5025101,0.50274587,0.50300705,0.5032892,0.50357425,0.50388134,0.50419927,0.5045188,0.504825,0.50510514,0.50533867,0.5055295,0.5056921,0.505849,0.5060177
0.43015844,0.43103874,0.4322877,0.4337833,0.43515694,0.43609464,0.43632585,0.4362868,0.43600366,0.43566617,0.4354216,0.4354466,0.4355322,0.43558958,0.43560535,0.4355931,0.43563855,0.43574882,0.43590224,0.4360658,0.43621102,0.43633866,0.43646345,0.4366218,0.43680406,0.43699163,0.4371423,0.43720382,0.43718612,0.43711966,0.437069,0.43707815,0.43714643,0.4372629,0.4374066,0.43755174,0.43770453,0.4378571,0.43803412,0.43826464,0.43854952,0.43894213,0.43950117,0.44022053,0.44105065,0.4419303,0.44275236,0.4434272,0.44395858,0.44437975,0.44475,0.44507614,0.44538838,0.44571766,0.44608915,0.44647115,0.44682378,0.44713116,0.44744894,0.44781297,0.44811916,0.44856152,0.44933861,0.4505378,0.45205894,0.45339715,0.45555717,0.45867622,0.46305317,0.46886152,0.4752714,0.48102078,0.48526126,0.48829144,0.490651,0.49282086,0.4944029,0.49535364,0.49594057,0.49631423,0.49660385,0.49676883,0.49678975,0.49670702,0.49683642,0.49695805,0.4970449,0.4970971,0.4971203,0.4971839,0.49736506,0.49772382,0.4982242,0.4988144,0.49943244,0.5000169,0.5005647,0.5010709,0.5015173,0.50186825,0.5021129,0.5021629,0.50183547,0.5009881,0.49971604,0.49819177,0.49653548,0.4946918,0.49329272,0.49317956,0.49382013,0.4948381,0.495785,0.4964252,0.4966982,0.4967609,0.4966411,0.4964763,0.49624217,0.4959389,0.4956264,0.49541086,0.49532133,0.49529406,0.49518678,0.49488133,0.49439985,0.4938876,0.49359858,0.4934051,0.4932936,0.49305993,0.4925745,0.4918853,0.4911667,0.49064857,0.49044973,0.4903586,0.4903676,0.49034753,0.49001855,0.48909774,0.48791158,0.48694783,0.48588103,0.4849115,0.48455188,0.48489666,0.48520786,0.48543376,0.4855095,0.4853195,0.48499465,0.48466074,0.48433313,0.48402607,0.48371443,0.48340905,0.48306668,0.48265278,0.48218453,0.4817413,0.48126957,0.48075598,0.4801887,0.47953156,0.47866496,0.47784445,0.47717065,0.4765951,0.4760936,0.47564405,0.47524804,0.47491193,0.474626,0.4743626,0.4741092,0.47386086,0.4736472,0.4734977,0.4734167,0.4733904,0.4733721,0.47332695,0.4732466,0.47313112,0.47299248,0.4728576,0.4727397,0.47267777,0.47269988,0.4728223,0.47304928,0.47336775,0.47376788,0.47425473,0.4748304,0.4754706,0.4761418,0.4765839,0.4769723,0.47732043,0.47760892,0.47785738,0.47808135,0.47828126,0.47844958,0.47860444,0.47874865,0.47883332,0.47879988,0.47871682,0.47867095,0.4786232,0.47854573,0.47842127,0.4784059,0.47846335,0.47855532,0.47866875,0.47877902,0.47887427,0.4789843,0.4791578,0.47939467,0.47968215,0.48003376,0.48043424,0.48085755,0.48139086,0.48208869,0.48271054,0.48318577,0.4835273,0.4838206,0.48408833,0.48433787,0.48458818,0.48477638,0.48500487,0.48529762,0.48570967,0.4862935,0.48695624,0.48766476,0.48852646,0.48939252,0.49020478,0.49096745,0.4916059,0.4921071,0.49249965,0.49281806,0.49314654,0.49346137,0.49374223,0.49399108,0.49421167,0.49442244,0.4946438,0.49488008,0.49513853,0.4954173,0.4957078,0.496004,0.49630123,0.49660158,0.49690986,0.4972226,0.49754333,0.49786818,0.49819052,0.49851125,0.49883437,0.4991571,0.49946317,0.49973896,0.49997795,0.50018126,0.50035655,0.50051415,0.50068194,0.50088215,0.5011104,0.5013683,0.5016472,0.5019408,0.50224346,0.5025704,0.5029116,0.50324756,0.50354475,0.50380594,0.50403476,0.5042401,0.50442535,0.5046042,0.5048099
0.4300108,0.43084967,0.43203735,0.4334505,0.4347732,0.43561742,0.43585554,0.43584505,0.43566418,0.43542916,0.43522733,0.4351296,0.43513334,0.435186,0.43517953,0.43514338,0.43518955,0.43526047,0.43537802,0.43550944,0.43563148,0.43574876,0.43587664,0.43604928,0.43625182,0.4364587,0.4366186,0.43667576,0.4366452,0.43656385,0.43649927,0.43650314,0.43656507,0.43667826,0.43681633,0.4369544,0.4371039,0.43725383,0.43743026,0.43765867,0.43793726,0.43832302,0.43887788,0.43960512,0.44045708,0.44135538,0.44223738,0.44297674,0.44356966,0.44404668,0.4444673,0.44483948,0.4451939,0.44555995,0.44595844,0.44635957,0.44674182,0.4470753,0.44741738,0.44780838,0.44810867,0.44854137,0.4492562,0.45034766,0.4518546,0.4531659,0.45517987,0.45826212,0.46271843,0.4685606,0.4747254,0.48008955,0.48437396,0.48759055,0.48993745,0.49189612,0.49346885,0.49451452,0.49512422,0.49536967,0.49540633,0.49530303,0.49516863,0.49505138,0.49497178,0.49485648,0.49468195,0.4944241,0.49440157,0.49457538,0.4947728,0.49516302,0.49573553,0.49645653,0.49727365,0.49813223,0.49901006,0.4998753,0.50062644,0.501149,0.50150716,0.5016228,0.5013106,0.5003959,0.49899876,0.49733776,0.49546015,0.49321073,0.49159652,0.49155757,0.49249408,0.4937786,0.49492252,0.4957254,0.49606985,0.49612945,0.4959941,0.4958205,0.49559718,0.49535528,0.49509794,0.49489856,0.4947742,0.49470276,0.49455395,0.49423394,0.49377286,0.49328566,0.49306107,0.49287385,0.49258798,0.4921536,0.49145418,0.4905467,0.48959625,0.4886684,0.48790222,0.48772806,0.48779362,0.4875483,0.4871916,0.48636132,0.48559564,0.4850067,0.48407346,0.48342606,0.483298,0.48341528,0.48383576,0.48407274,0.48414174,0.4839598,0.48366463,0.48336053,0.48305935,0.48276305,0.48246333,0.48213822,0.48176473,0.4814033,0.48108926,0.48075813,0.48036504,0.47989583,0.47937685,0.47877496,0.47799236,0.4772302,0.47656563,0.47596878,0.47541648,0.47491944,0.47448033,0.4741146,0.47381902,0.47356272,0.4733367,0.47313288,0.47296798,0.47286487,0.47282472,0.4728315,0.4728368,0.47280735,0.47273695,0.47262594,0.47249264,0.47236395,0.4722541,0.47220287,0.47223702,0.47237366,0.47261664,0.47295105,0.47336394,0.4738549,0.47442365,0.4750411,0.4756696,0.47611666,0.47647405,0.47677624,0.47703648,0.47727436,0.47748387,0.47766417,0.47784072,0.47799915,0.4781506,0.47825116,0.47823715,0.4781739,0.47815335,0.47811174,0.47802508,0.47790676,0.47789195,0.47795317,0.47805363,0.47816658,0.4782677,0.47836173,0.4784642,0.47862273,0.47884294,0.479128,0.47947896,0.47986883,0.48028743,0.48073006,0.48137462,0.48198336,0.4824506,0.48278832,0.48308045,0.4833404,0.4835794,0.48383403,0.48405108,0.48425657,0.4845047,0.4848949,0.4854896,0.48620254,0.48691368,0.48765054,0.48845533,0.48926258,0.4900174,0.4906627,0.49115545,0.4915155,0.4918183,0.49215752,0.49251616,0.49279493,0.49303544,0.49324,0.49343076,0.49363303,0.49385202,0.4940968,0.49436742,0.49465507,0.4949432,0.49521738,0.49547592,0.49572578,0.49596888,0.49621457,0.49646217,0.4967065,0.49695668,0.49722326,0.49751428,0.49780622,0.4980777,0.4983155,0.4985215,0.49872792,0.49896,0.49922046,0.49948058,0.49975336,0.5000494,0.5003611,0.5006898,0.50101364,0.50134635,0.5016776,0.5019864,0.50225914,0.5024991,0.50272065,0.5029368,0.50315917,0.5033945,0.5036528
0.4298559,0.43065184,0.43177396,0.4331038,0.43436605,0.43511778,0.43538174,0.43540713,0.43528163,0.43507555,0.43488276,0.4347428,0.43470597,0.43473193,0.43470496,0.43466833,0.434699,0.43474954,0.43484882,0.43496448,0.4350754,0.43518907,0.43532145,0.43550122,0.43571132,0.43592364,0.4360798,0.4361238,0.43607497,0.43597367,0.43589348,0.43589127,0.43595105,0.43606704,0.43620723,0.43634552,0.4364978,0.43664956,0.4368294,0.43705803,0.43733212,0.43771106,0.4382615,0.43899244,0.4398587,0.4407817,0.4417086,0.442505,0.44315368,0.44368193,0.4441542,0.44457433,0.44497275,0.44537804,0.44580674,0.44623357,0.44663498,0.44699192,0.44736177,0.44778043,0.44808888,0.44848725,0.44913495,0.4501222,0.45149556,0.452811,0.45471674,0.45764112,0.46201122,0.4680057,0.47410524,0.47954243,0.48390096,0.48719957,0.48975986,0.49174237,0.49303728,0.49375597,0.49426246,0.49442858,0.49429685,0.49395302,0.49352866,0.49307737,0.49241883,0.4916616,0.49107245,0.4907,0.4906901,0.49104607,0.49167824,0.49224305,0.49307975,0.49397016,0.4949171,0.49603325,0.49724495,0.49847296,0.4995766,0.5003924,0.5008936,0.5010678,0.50071394,0.49973834,0.49821392,0.4964357,0.49431354,0.49163014,0.4898761,0.48982534,0.49117786,0.49276692,0.49410245,0.4950636,0.49549508,0.49557,0.49542075,0.4951964,0.49499792,0.49478322,0.49454796,0.49432838,0.4941475,0.49402285,0.493842,0.49350664,0.49304038,0.49264836,0.49248907,0.49229646,0.49175194,0.49107945,0.49012408,0.48892942,0.48741436,0.48554325,0.48400354,0.48346564,0.4837705,0.4840691,0.48386836,0.48349166,0.4832004,0.4828483,0.48204577,0.48180014,0.48191303,0.4820557,0.48229468,0.48266461,0.4827271,0.48258588,0.482333,0.4820037,0.48169446,0.48142552,0.48113656,0.48084158,0.48058024,0.48033231,0.48008093,0.4797867,0.47943497,0.479021,0.47856778,0.47803694,0.4773712,0.4766711,0.47603428,0.47543377,0.47485024,0.47431555,0.47383857,0.47344208,0.4731307,0.47287354,0.4726625,0.47249,0.47236317,0.47229618,0.47228542,0.4723138,0.47233292,0.4723128,0.47225013,0.4721473,0.47202644,0.47191402,0.47182265,0.47179067,0.47184172,0.47199243,0.47224715,0.47259024,0.4730069,0.4734933,0.47404617,0.47464862,0.47520965,0.4756366,0.47597104,0.47624803,0.47649744,0.47672248,0.47689608,0.47706676,0.47724417,0.47740972,0.47757727,0.47769707,0.4777066,0.4776699,0.47766522,0.47764078,0.47756,0.47745162,0.47744033,0.47750446,0.47760397,0.47771645,0.47781777,0.47790742,0.4779992,0.4781411,0.47833794,0.47860235,0.47894838,0.47933328,0.47973576,0.48016044,0.48072284,0.48129195,0.4817447,0.48206753,0.48235464,0.48261043,0.48283195,0.48308134,0.4833023,0.48349434,0.48372644,0.48410845,0.48469365,0.48545226,0.48621142,0.4869098,0.48758897,0.48834994,0.48909697,0.48972905,0.49020335,0.49054036,0.4908268,0.49115837,0.49152082,0.49183625,0.4920775,0.49226654,0.49244463,0.49263325,0.4928378,0.493067,0.49331927,0.4935851,0.49384633,0.49408397,0.4942928,0.4944774,0.4946385,0.4947884,0.4949078,0.49502444,0.49516237,0.49534097,0.49557683,0.4958439,0.49610654,0.49634993,0.49657896,0.49683633,0.49715394,0.4975283,0.49794188,0.4983656,0.49881163,0.4992241,0.4995899,0.49992532,0.5002628,0.5005909,0.5008857,0.5011374,0.50134695,0.50153613,0.5017305,0.5019642,0.50224006,0.50255096
0.42966568,0.43042177,0.43147966,0.432733,0.43391877,0.43461043,0.43487445,0.43491066,0.43479848,0.43459988,0.434403,0.4342494,0.4341715,0.4341592,0.4341271,0.43411314,0.43414846,0.4342123,0.43432185,0.43444657,0.43456274,0.43468183,0.43481672,0.43499038,0.43518466,0.4353723,0.43549815,0.43550795,0.43542776,0.43529788,0.4351974,0.4351889,0.43525255,0.43538356,0.43553895,0.43568933,0.43585056,0.43600553,0.43618578,0.43640924,0.43667588,0.43704718,0.43759346,0.43832776,0.43920377,0.4401468,0.44111598,0.44195977,0.44265938,0.44323424,0.44375384,0.44421947,0.4446579,0.44509855,0.4455556,0.44601405,0.44643122,0.44681183,0.44721437,0.44766587,0.44797516,0.44833797,0.44893542,0.44983822,0.45104668,0.45220158,0.45405522,0.45681623,0.46094096,0.46693516,0.47334585,0.47896674,0.48351038,0.48686165,0.48955825,0.49170756,0.49317297,0.49386835,0.4939171,0.49336305,0.4925725,0.491933,0.49110425,0.48971063,0.48827475,0.48730606,0.48675454,0.48656076,0.48678246,0.48739904,0.4882455,0.48894513,0.48973304,0.49086782,0.49230653,0.49357712,0.49504614,0.4966377,0.49811226,0.4992501,0.49998927,0.500275,0.49996185,0.49894333,0.49731892,0.49541628,0.49294662,0.4899329,0.48824328,0.48828012,0.4897964,0.491764,0.4933645,0.49451017,0.49504226,0.4951495,0.4949851,0.49471846,0.4945205,0.49431086,0.4940731,0.49382108,0.493603,0.49342275,0.493195,0.49282712,0.49233866,0.49206752,0.49192768,0.4916095,0.49088013,0.48990333,0.48861814,0.48698384,0.48476878,0.48233473,0.48099366,0.4802605,0.48019212,0.48042986,0.4805627,0.48054987,0.48054743,0.48028165,0.4800561,0.48014376,0.4803654,0.48062903,0.48081648,0.48113486,0.48128998,0.4811672,0.48089278,0.4806208,0.4804458,0.4802192,0.47997397,0.47974443,0.47953257,0.47932258,0.47909838,0.4788358,0.4785259,0.47816575,0.47777146,0.47730976,0.47676295,0.47612524,0.47553915,0.47496217,0.4744008,0.47385722,0.4733715,0.47296032,0.4726362,0.4723731,0.47216642,0.47201002,0.47190434,0.47185647,0.47185782,0.47188932,0.47190556,0.47187984,0.4718126,0.47171062,0.47160015,0.47150522,0.47143662,0.47142637,0.47149497,0.47165737,0.47191855,0.47226375,0.47267672,0.47315317,0.47368795,0.4742728,0.47475624,0.47513443,0.4754625,0.47573483,0.47597224,0.47615838,0.4763118,0.47648138,0.4766608,0.4768404,0.47703284,0.47717363,0.4772088,0.4772037,0.47721848,0.47721547,0.4771579,0.47706556,0.47706062,0.47712526,0.4772237,0.47733518,0.47743475,0.47751656,0.4775958,0.47772002,0.47789025,0.4781261,0.47845542,0.4788311,0.47921252,0.4796322,0.48012233,0.48065287,0.48107678,0.48144293,0.48174548,0.48191917,0.4821158,0.482355,0.48258156,0.48276365,0.482989,0.483364,0.4839412,0.48473155,0.4855333,0.48623008,0.48687023,0.48752666,0.48823816,0.48885888,0.48931825,0.48964006,0.48991185,0.49023253,0.49058068,0.49088913,0.49112174,0.49128842,0.49143183,0.49159056,0.49176705,0.4919744,0.49221566,0.4924695,0.49270007,0.49287167,0.49298543,0.49304903,0.49306205,0.4930829,0.49321288,0.49342918,0.4936615,0.49388632,0.4941376,0.49439475,0.4946598,0.49493235,0.495211,0.49551076,0.4958421,0.49618578,0.49667668,0.49723864,0.4978072,0.49830288,0.49870506,0.49905398,0.49937904,0.4996773,0.49993324,0.5001478,0.5003249,0.5004907,0.5006746,0.50090194,0.501174,0.5014975
0.42945138,0.43016827,0.43115962,0.4323367,0.43342835,0.4340889,0.4343258,0.43433908,0.43423265,0.43404156,0.43384328,0.4336808,0.4335812,0.4335335,0.43351072,0.43351194,0.43357068,0.43366545,0.4338025,0.4339511,0.43408483,0.43421718,0.43435872,0.4345224,0.43469143,0.43484217,0.4349236,0.43489066,0.43477318,0.43461007,0.434487,0.43446815,0.43453315,0.43467587,0.43484694,0.43501276,0.4351864,0.43534815,0.43553004,0.43574938,0.43600857,0.436373,0.43691134,0.43764037,0.4385141,0.4394716,0.44047052,0.44135302,0.44209918,0.44271994,0.4432794,0.44379213,0.4442718,0.44474924,0.4452396,0.44571388,0.44614735,0.44656187,0.44700304,0.44749296,0.44782656,0.44817072,0.44874957,0.44958407,0.45058376,0.45157692,0.453281,0.45587733,0.4596747,0.46559662,0.47239053,0.47821426,0.48299062,0.48643866,0.48925218,0.49152207,0.49317268,0.49384266,0.49359274,0.49238136,0.4906965,0.48927206,0.48725736,0.48525447,0.48410258,0.4835329,0.4833383,0.48346317,0.48384213,0.4839388,0.48444998,0.4852429,0.48589188,0.48686755,0.48856404,0.49060273,0.4926086,0.49449563,0.49632624,0.4978124,0.49884313,0.4993335,0.49912432,0.498105,0.49642697,0.49431527,0.49140996,0.4882485,0.48679557,0.48701766,0.48850858,0.49079508,0.49265403,0.49393088,0.4946715,0.49480587,0.49464828,0.49435717,0.49413475,0.493917,0.49365687,0.49338478,0.4931342,0.49290186,0.49261433,0.49218252,0.49171856,0.49145937,0.4912734,0.49073684,0.48983842,0.4885178,0.4868994,0.48487377,0.4819659,0.4800979,0.47868964,0.4780128,0.4778864,0.47805926,0.4782438,0.4781751,0.47797078,0.477879,0.47810543,0.47840878,0.47871533,0.4790463,0.47933668,0.47956336,0.4797191,0.4796543,0.47955656,0.47943968,0.47929066,0.47909278,0.47888044,0.47868484,0.47850186,0.47832322,0.47813642,0.47791672,0.47765714,0.4773572,0.47702855,0.4766255,0.47615916,0.47560996,0.47508526,0.47455984,0.4740469,0.47354135,0.47306937,0.47266063,0.47232968,0.4720617,0.47185433,0.47170317,0.47160524,0.47156146,0.47155884,0.47157767,0.4715766,0.47153598,0.47145933,0.4713571,0.4712571,0.47118172,0.47113645,0.4711477,0.47123224,0.4714027,0.47166637,0.47200865,0.47241336,0.47287554,0.4733993,0.47390568,0.47434103,0.47470093,0.47502056,0.47529662,0.47549495,0.47565782,0.47580856,0.47597498,0.47615492,0.4763667,0.47658312,0.47674626,0.4768045,0.47682714,0.47686487,0.47688258,0.47685653,0.4767846,0.47678798,0.47685438,0.47695023,0.4770588,0.47715357,0.4772244,0.47728795,0.4773902,0.47753,0.47773355,0.47803956,0.4783867,0.4787361,0.47914517,0.4795991,0.48008144,0.48053333,0.48091272,0.4812075,0.48135543,0.48146594,0.48169577,0.48191297,0.4821008,0.4823159,0.4826854,0.48326123,0.48404968,0.48489314,0.4856157,0.4862494,0.48680893,0.48747593,0.48808938,0.48853827,0.48884934,0.48911127,0.48942086,0.48975426,0.49004173,0.49024522,0.49037567,0.49048048,0.49060452,0.49074656,0.4909177,0.49111968,0.4913256,0.49149358,0.4915799,0.4915756,0.49156356,0.49169207,0.49186707,0.4920467,0.49214,0.49231523,0.49256343,0.49285722,0.4931661,0.49345827,0.49375665,0.49406832,0.49441516,0.49482435,0.4951913,0.49570194,0.4963714,0.4970485,0.49756902,0.4979886,0.49834046,0.49864924,0.4989184,0.4991402,0.4993227,0.4994744,0.4996223,0.49979472,0.50001323,0.5002708,0.50057137
0.42909634,0.42977408,0.43069753,0.43178803,0.43279627,0.43341535,0.43363583,0.43364936,0.4335397,0.43335527,0.43315542,0.43297976,0.43285996,0.43279296,0.432765,0.43278065,0.43286756,0.43299675,0.4331638,0.43333474,0.43348396,0.4336277,0.43377507,0.43392974,0.43407327,0.4341857,0.43422267,0.43414783,0.43399617,0.43380547,0.43366432,0.4336403,0.43370992,0.43386558,0.43405253,0.43423253,0.4344141,0.43457586,0.43474993,0.43495765,0.4352039,0.43555737,0.43608248,0.4367957,0.43765095,0.43860492,0.43960834,0.4405105,0.4412917,0.44195175,0.44254702,0.4431002,0.44361484,0.4441226,0.44464076,0.445143,0.4456081,0.44606492,0.4465547,0.44709128,0.44751287,0.44791508,0.44850862,0.44930702,0.45017877,0.45102608,0.45250085,0.4548976,0.4583854,0.4641046,0.4712569,0.47741064,0.4824739,0.48610914,0.4889443,0.49138921,0.49314606,0.4937388,0.49310654,0.4911952,0.48876575,0.4860999,0.48342937,0.48190457,0.48111486,0.48080283,0.48094583,0.48131502,0.48176077,0.48202273,0.4822657,0.4824928,0.48267436,0.48315117,0.48446056,0.48695147,0.48971987,0.49210984,0.49425423,0.49611676,0.4974572,0.49823794,0.49818587,0.49730742,0.49568105,0.49327677,0.4900219,0.48681664,0.48547786,0.4857753,0.48723555,0.4898121,0.49175662,0.49316677,0.49404705,0.49438143,0.49421012,0.49390963,0.4936807,0.49345258,0.4931949,0.49292794,0.49266875,0.4924099,0.4920534,0.49155134,0.49107343,0.49076426,0.49038047,0.4896986,0.48856804,0.48740157,0.4853148,0.48288244,0.47985086,0.4781196,0.4768919,0.47623837,0.4761142,0.4762039,0.47626013,0.47608218,0.47574896,0.47561544,0.47584206,0.47641563,0.47685477,0.47725824,0.47766232,0.47797173,0.4781804,0.47825772,0.4782452,0.47817352,0.47804552,0.47787642,0.47769284,0.4775247,0.47737688,0.4772392,0.47709,0.47691378,0.47671038,0.4764788,0.4761994,0.47586268,0.47547555,0.4750269,0.4745677,0.47412485,0.47366306,0.4732046,0.47276348,0.47237173,0.47204298,0.47176993,0.47155648,0.47140345,0.47130543,0.4712578,0.47124562,0.47124743,0.47122914,0.47116703,0.47108287,0.47099012,0.47090286,0.4708479,0.47082466,0.47085303,0.47094637,0.4711174,0.47137505,0.47170722,0.4720983,0.47254503,0.47303852,0.47348553,0.47388607,0.4742599,0.47459072,0.4748198,0.47500235,0.47516355,0.4753152,0.47549212,0.47569698,0.47592425,0.47616255,0.4763569,0.47643948,0.47647768,0.4765324,0.47657028,0.47657323,0.4765219,0.47653377,0.47660446,0.4766946,0.47680014,0.4768901,0.4769488,0.47699583,0.47707248,0.4771815,0.47735286,0.47763184,0.47794157,0.4782582,0.4786467,0.47908396,0.47955453,0.4800044,0.48037887,0.48066324,0.4807899,0.4808255,0.4810499,0.48125508,0.48144743,0.4816575,0.48202306,0.48260295,0.48338675,0.48427284,0.485024,0.485641,0.4861903,0.48676455,0.48735034,0.48779404,0.48809928,0.48835814,0.48866224,0.48898834,0.48926452,0.4894497,0.48955327,0.489627,0.48971832,0.4898215,0.48994124,0.4900751,0.4901923,0.49025112,0.49025312,0.490332,0.49046493,0.49066162,0.49081105,0.49090898,0.49099156,0.49120492,0.49151823,0.491838,0.49216464,0.49249008,0.49281678,0.49315768,0.493543,0.49397475,0.49430323,0.4948821,0.49558666,0.49625236,0.49682832,0.49725538,0.49760455,0.49790722,0.4981664,0.4983778,0.49855205,0.49869743,0.49883637,0.49899393,0.49919224,0.4994252,0.49968493
0.42856985,0.42921656,0.43007708,0.43107873,0.43201557,0.4325636,0.43279374,0.43282908,0.43272805,0.432553,0.43235183,0.4321611,0.43201593,0.4319241,0.43188012,0.4318971,0.43199793,0.43214715,0.43233138,0.43251395,0.43267173,0.4328212,0.4329731,0.43312174,0.4332474,0.43333355,0.4333378,0.4332347,0.43306088,0.43285528,0.43270817,0.43268704,0.43276718,0.43293703,0.43313956,0.43333066,0.43351442,0.43366957,0.4338291,0.4340202,0.4342504,0.43458885,0.43509233,0.43577603,0.43659413,0.43751943,0.4385026,0.43940318,0.4402008,0.44089067,0.44152123,0.44210255,0.44264227,0.4431726,0.44371068,0.44425303,0.44476867,0.4452738,0.4458192,0.44640934,0.4469716,0.44747448,0.44812107,0.44891804,0.4497434,0.4504463,0.45166686,0.45376134,0.45685607,0.462328,0.469684,0.4761815,0.4814726,0.48538917,0.4882667,0.49081182,0.49265394,0.49314478,0.49217042,0.4896312,0.4864862,0.48248702,0.48002502,0.47914875,0.47864687,0.47870487,0.47919446,0.47984195,0.4803268,0.48082927,0.48077315,0.48042595,0.48036307,0.4805624,0.48108548,0.48298794,0.4861477,0.48941165,0.4920956,0.4945259,0.49605557,0.49681765,0.49701583,0.496491,0.49479377,0.4922014,0.4886225,0.48539472,0.4841956,0.48443788,0.48579383,0.488611,0.49052554,0.49201083,0.49299866,0.4934724,0.4934703,0.49313682,0.49287397,0.49264824,0.4924273,0.4922111,0.49197283,0.49167934,0.49127102,0.49073023,0.49021292,0.4897734,0.48924825,0.48838317,0.48756897,0.48621964,0.4836808,0.4808678,0.47781324,0.47628808,0.47520846,0.47465396,0.47453406,0.4745368,0.47450697,0.47427344,0.47379377,0.47351027,0.47365263,0.47420958,0.47493616,0.4754625,0.47593147,0.47631583,0.47659266,0.47678348,0.4768474,0.47680515,0.47670496,0.47656,0.47640002,0.47626293,0.4761537,0.47605038,0.47593665,0.47580737,0.47565556,0.475473,0.47524592,0.47497916,0.47467363,0.47434595,0.4739861,0.47361338,0.4732147,0.47278878,0.47239015,0.47202265,0.4717014,0.4714262,0.471206,0.4710464,0.47094232,0.47088566,0.47086012,0.47084558,0.47081167,0.4707352,0.47065166,0.47057343,0.4705031,0.47046843,0.470464,0.4705034,0.47059888,0.4707633,0.47100842,0.4713233,0.4716934,0.47212118,0.47256553,0.4729954,0.47340363,0.47377187,0.47406298,0.4742955,0.47448903,0.47466123,0.47482467,0.47501558,0.47523955,0.47548866,0.47574222,0.4759726,0.47610718,0.47616047,0.47621858,0.47628307,0.47630322,0.47627062,0.47629243,0.47637388,0.4764583,0.47656524,0.47664893,0.476697,0.4767263,0.47677663,0.47685692,0.47699934,0.47724485,0.4775226,0.47780967,0.47817433,0.47859567,0.47905785,0.4795027,0.47987258,0.4801506,0.48026085,0.48027426,0.48042867,0.48062387,0.48080766,0.48104995,0.48145676,0.48199785,0.4827566,0.48367026,0.48445922,0.48507458,0.48562193,0.4860962,0.48664907,0.4870907,0.487395,0.48765805,0.48796213,0.48828733,0.48856062,0.48873657,0.48882174,0.48887026,0.48892993,0.48898873,0.4890427,0.4890913,0.48914945,0.48921788,0.48929942,0.48940542,0.4895938,0.4897397,0.48981524,0.48994583,0.49015403,0.49044275,0.49079818,0.4911716,0.4915434,0.491893,0.49222848,0.49256846,0.49292755,0.49326313,0.49357128,0.4941252,0.49476102,0.49535704,0.4959153,0.49641895,0.49679834,0.4971063,0.49737072,0.49759525,0.49778384,0.49794176,0.4980818,0.49822217,0.49840778,0.498617,0.49883026
0.42785817,0.42848173,0.42928427,0.43020967,0.4310721,0.43157536,0.43180445,0.43186516,0.43179512,0.43164068,0.4314459,0.43124038,0.43106276,0.4309308,0.43084955,0.43084115,0.4309271,0.43106723,0.43124387,0.4314186,0.43157083,0.43171543,0.4318651,0.43200654,0.43212068,0.43219393,0.43218404,0.4320749,0.4319027,0.43170476,0.43157187,0.43156615,0.43165943,0.4318389,0.4320454,0.43223676,0.43241358,0.43255728,0.43270075,0.4328751,0.43309027,0.43341213,0.43388796,0.43453008,0.4352938,0.43616986,0.43710655,0.43798047,0.43877524,0.43948174,0.4401385,0.44073462,0.44128722,0.4418288,0.44237947,0.4429337,0.44350845,0.44407415,0.44467682,0.44532943,0.4460444,0.44670665,0.44743192,0.44825256,0.44912413,0.44971806,0.45069116,0.4524095,0.4550621,0.45987988,0.46689045,0.4736862,0.47912562,0.48322433,0.48646647,0.48924822,0.49100736,0.49136645,0.49008268,0.4871416,0.48311216,0.47887784,0.4772276,0.47663212,0.4764705,0.47679704,0.47756296,0.47839808,0.4791657,0.47935444,0.4790982,0.478797,0.47857955,0.47856402,0.47884062,0.47924507,0.48194134,0.48572272,0.48932305,0.4923374,0.49448192,0.4958104,0.49626267,0.49550214,0.49358618,0.4909301,0.48717755,0.4838308,0.4827857,0.48306614,0.48417923,0.48676708,0.48883224,0.49058235,0.4913566,0.49183536,0.49193415,0.4916458,0.49138647,0.4911781,0.49097204,0.49073488,0.490477,0.4901626,0.48975116,0.48922646,0.48872086,0.48827314,0.48765767,0.48696274,0.486213,0.48447412,0.481611,0.47824687,0.47602838,0.47466373,0.47372904,0.47334352,0.47328207,0.47314325,0.47293824,0.47264117,0.47212625,0.47174674,0.47179496,0.4723029,0.47310552,0.4736631,0.47421184,0.47462952,0.47494128,0.47515547,0.47528774,0.47531617,0.4752317,0.47510374,0.4749782,0.47486764,0.4747765,0.47469595,0.4746218,0.47453916,0.47443745,0.47431114,0.47414565,0.47394365,0.47370553,0.47345042,0.4731886,0.47288477,0.47252998,0.47218016,0.4718294,0.47148326,0.47116783,0.47088704,0.4706546,0.4704805,0.4703619,0.4702905,0.4702496,0.47022036,0.47017646,0.4701118,0.47003615,0.4699663,0.469922,0.46991077,0.46992326,0.4699664,0.47005635,0.4702083,0.47043556,0.47072947,0.4710772,0.4714768,0.47190964,0.47232634,0.47272414,0.47309792,0.47341377,0.47369623,0.4739278,0.47413504,0.4743294,0.47454986,0.47479868,0.47506982,0.47534388,0.4755919,0.47577468,0.47585922,0.47593033,0.4760266,0.4760453,0.4760294,0.47606376,0.47615686,0.4762541,0.47636002,0.47643828,0.47647637,0.47648954,0.47651306,0.4765637,0.47667477,0.47688425,0.47713608,0.47739762,0.47773916,0.4781463,0.47860003,0.47904038,0.479406,0.47967857,0.47977334,0.47977328,0.47983634,0.48001757,0.48021132,0.48054653,0.48097673,0.4814689,0.4821607,0.48309037,0.48392856,0.4845605,0.48509616,0.4855692,0.4860187,0.4864431,0.4867493,0.4870509,0.48731393,0.4876271,0.4878971,0.48806673,0.4881422,0.4881714,0.48819482,0.4882085,0.4882487,0.48830336,0.48835588,0.4884306,0.4885428,0.4887368,0.48886675,0.48897377,0.4891457,0.48938864,0.48969966,0.49006486,0.49047363,0.49088728,0.49125147,0.49152958,0.4917978,0.49207717,0.49236777,0.49267298,0.49298674,0.49339777,0.4939047,0.4944098,0.49489754,0.495363,0.49575573,0.49608618,0.49636358,0.49659836,0.49681115,0.49699017,0.49714398,0.4973098,0.49748898,0.4976801,0.49789914
0.4269381,0.4275461,0.4282952,0.4291603,0.42995942,0.43042552,0.43066263,0.4307624,0.43073952,0.4306165,0.43043756,0.4302231,0.43001145,0.4298317,0.4296991,0.42964554,0.42969292,0.42979914,0.42994267,0.4300887,0.43022078,0.43034932,0.43048772,0.4306236,0.43073672,0.43081495,0.4308157,0.43072653,0.43058136,0.4304161,0.4303164,0.43033478,0.43044338,0.43062967,0.43083692,0.43102634,0.4311956,0.43132854,0.43145588,0.43161246,0.43181014,0.43211,0.43254834,0.43313414,0.43382746,0.43464285,0.4355169,0.436351,0.43713155,0.4378428,0.43850917,0.43910724,0.43965894,0.4401967,0.4407465,0.44130564,0.44189203,0.4425131,0.44318113,0.44389325,0.44468632,0.44554973,0.4464165,0.44728595,0.4481587,0.44886333,0.44962767,0.45100302,0.45324022,0.45719373,0.46311855,0.4697836,0.47541273,0.4795748,0.48303396,0.48591664,0.48809838,0.48858,0.48689783,0.48378634,0.47918755,0.4754574,0.47472894,0.47428936,0.47446662,0.4751163,0.47607565,0.4771111,0.4776532,0.47736925,0.47775143,0.47785228,0.47712797,0.4768618,0.47658634,0.47667748,0.4777015,0.48137832,0.48588628,0.48976204,0.49256694,0.49451137,0.49536026,0.49472362,0.4923766,0.48910922,0.48529327,0.48231015,0.481354,0.48151332,0.48238388,0.4842892,0.48659492,0.48837435,0.48918334,0.48932374,0.48928457,0.48900622,0.48875213,0.48853046,0.4883411,0.48817283,0.48797894,0.48773667,0.4873911,0.4869557,0.48655492,0.48612228,0.4854924,0.485125,0.4842053,0.48230815,0.47934976,0.47619155,0.474345,0.47315082,0.47247988,0.4723167,0.47214013,0.47171777,0.47150204,0.47122553,0.47067353,0.47026202,0.47025943,0.47071305,0.47141913,0.4719866,0.47249144,0.47291952,0.47322854,0.4734184,0.47355163,0.47359976,0.47356325,0.4735049,0.4734355,0.47336465,0.47332102,0.4732883,0.47325847,0.47321445,0.47315106,0.47307047,0.47296113,0.47282347,0.47265467,0.47246388,0.47225505,0.4720098,0.47175044,0.47147068,0.47118402,0.47090286,0.47062546,0.4703489,0.47010458,0.46991438,0.46978134,0.46968675,0.46962702,0.46959084,0.4695496,0.46949506,0.46943945,0.4693932,0.46934968,0.46934208,0.4693694,0.4694445,0.46955645,0.46969494,0.46989962,0.47016156,0.4704571,0.47080028,0.4712019,0.4716426,0.47204408,0.47244638,0.47285777,0.47321606,0.4735337,0.4738009,0.4740493,0.47431502,0.47459912,0.47489586,0.47519076,0.47545612,0.47567788,0.47580898,0.47591043,0.47600257,0.47601825,0.4760215,0.4760696,0.47616786,0.47628522,0.4763946,0.47646368,0.4764867,0.47646725,0.47643012,0.47648787,0.47659338,0.47675794,0.47700307,0.47724468,0.47756058,0.47794926,0.47838968,0.47882086,0.47918028,0.4794464,0.47952628,0.4795215,0.4795617,0.47967452,0.4799318,0.4803046,0.48074076,0.48119625,0.4818197,0.48273492,0.4836071,0.48427615,0.48481262,0.48528296,0.48570305,0.48608693,0.48644167,0.48675537,0.48701,0.48721606,0.48746532,0.48762265,0.4876761,0.48767114,0.48765823,0.4876724,0.48770836,0.48774695,0.4878104,0.48791268,0.48812217,0.48828277,0.4884104,0.48863018,0.48894197,0.48931673,0.4897321,0.49017453,0.4906134,0.49095985,0.4912317,0.49148655,0.4917398,0.4919811,0.49222687,0.4924901,0.49276835,0.49306732,0.4933883,0.4937137,0.49410284,0.4945076,0.49485555,0.49515843,0.4954263,0.49567595,0.4959247,0.49615347,0.4963448,0.49651423,0.4966905,0.4968888,0.49711078
0.42581838,0.42641532,0.4271203,0.42795303,0.4287048,0.4291389,0.42939347,0.42954522,0.4295845,0.42950654,0.42935872,0.4291507,0.42891908,0.42869812,0.42851296,0.42840606,0.4283994,0.42845482,0.42854923,0.42865175,0.42875245,0.4288574,0.4289799,0.42911142,0.4292305,0.4293259,0.4293538,0.42930087,0.42919686,0.42907414,0.4290126,0.42905545,0.4291752,0.4293592,0.42955458,0.42972916,0.42987788,0.42999065,0.43009543,0.43022943,0.4304048,0.4306746,0.43106335,0.4315759,0.4321828,0.43292448,0.4337484,0.43450886,0.4352639,0.43597096,0.4366299,0.43722236,0.43776268,0.43828553,0.4388209,0.43937054,0.43995753,0.44059777,0.44130668,0.44207963,0.4429436,0.44390008,0.4449045,0.44593954,0.44685704,0.4476514,0.448308,0.44940126,0.45117885,0.45426798,0.45894682,0.46441537,0.46974897,0.47417215,0.4777387,0.48078507,0.48291773,0.48360768,0.48231494,0.47943974,0.47515285,0.47235984,0.47204804,0.47229236,0.4728446,0.47358745,0.47450605,0.47542787,0.4755443,0.4755133,0.47608218,0.47618234,0.47588417,0.47520465,0.4744804,0.47425094,0.4747783,0.47695565,0.48156902,0.4863701,0.48969796,0.49217945,0.49342054,0.49303627,0.49073243,0.486997,0.48311263,0.48060426,0.4797159,0.4797415,0.4803205,0.4810423,0.4834725,0.48513684,0.48585695,0.48568964,0.48533222,0.48523355,0.48533398,0.48527128,0.48518738,0.4850673,0.48486096,0.48457903,0.4842694,0.483968,0.4836147,0.48319772,0.48308122,0.48276657,0.48177037,0.4798208,0.47668096,0.47449297,0.47284335,0.4717912,0.4713751,0.47114933,0.47069252,0.47035602,0.4701423,0.46989667,0.46934783,0.46891809,0.4689386,0.46940273,0.46981823,0.4702947,0.47077096,0.47111532,0.47134718,0.47147375,0.47155184,0.47159487,0.47157937,0.47155532,0.47154227,0.4715488,0.47157568,0.47160846,0.4716434,0.4716686,0.4716721,0.4716522,0.47159827,0.47151232,0.47139835,0.47126472,0.47111928,0.470965,0.47079593,0.47059554,0.4703682,0.47013372,0.46988434,0.4696175,0.46937606,0.4691786,0.4690323,0.46893394,0.4688673,0.46881443,0.46876073,0.46870863,0.46866596,0.46863827,0.46861458,0.46862864,0.46867967,0.46875787,0.46886513,0.46899545,0.46917474,0.46941215,0.4696797,0.46999264,0.47036803,0.47082043,0.47129852,0.47175193,0.47224313,0.47274196,0.47314286,0.47348863,0.4738017,0.4741197,0.47444183,0.47476315,0.47507697,0.47536254,0.4756012,0.47578487,0.47592148,0.4759916,0.47601438,0.476023,0.47608927,0.47619957,0.47631687,0.47642493,0.47646713,0.47648042,0.4764307,0.47639006,0.47642908,0.47650856,0.47666374,0.47691774,0.47715688,0.47743958,0.47780433,0.478226,0.47864395,0.47899675,0.47925335,0.4793133,0.47930145,0.4793392,0.47945082,0.47970915,0.48009148,0.48052907,0.4809885,0.4815484,0.48239404,0.4832998,0.48400307,0.4845507,0.4850207,0.48544168,0.48582965,0.48619208,0.48651117,0.48676562,0.4869539,0.48709324,0.4872068,0.4872061,0.48715553,0.48714572,0.48714027,0.48715746,0.4872084,0.48730594,0.48750228,0.48769414,0.48784664,0.48807812,0.48841965,0.4888535,0.48933598,0.4898337,0.49030256,0.49067563,0.4909827,0.49124852,0.49149442,0.49172628,0.49194154,0.49215156,0.49236512,0.49259427,0.49283874,0.49309808,0.49336493,0.49361408,0.4938492,0.4940632,0.49429694,0.494549,0.49479532,0.4950195,0.4952178,0.49540064,0.49559575,0.49581414,0.49604553,0.49629694
0.424635,0.42521977,0.42589408,0.42671394,0.42739117,0.42779303,0.428079,0.42830133,0.42840505,0.4283852,0.42828643,0.42810538,0.42787737,0.4276368,0.42741746,0.42726755,0.42721128,0.42721424,0.42725575,0.4273103,0.42737544,0.42745373,0.42755833,0.4276858,0.42781383,0.4279302,0.4279899,0.4279739,0.4279089,0.42782435,0.42779362,0.42785072,0.4279676,0.42813328,0.42830157,0.42844898,0.4285695,0.42865765,0.42873615,0.42884246,0.42898867,0.42921776,0.4295451,0.4299718,0.43048847,0.43117076,0.43203545,0.43268806,0.4333149,0.43401343,0.43464866,0.43523028,0.4357543,0.43625432,0.4367659,0.43729737,0.4378761,0.4385262,0.43926853,0.44009295,0.44101757,0.44203198,0.44313583,0.4442508,0.44540656,0.44626376,0.4469,0.44782475,0.44917256,0.45139307,0.45489544,0.45915,0.46329024,0.46726942,0.471166,0.47438955,0.4767829,0.47768825,0.47693476,0.47430384,0.47053027,0.46999508,0.47017878,0.47063044,0.47133878,0.4721339,0.47288036,0.47339457,0.47377726,0.47408748,0.4740091,0.47384006,0.4735667,0.47325417,0.47244734,0.47198325,0.47223762,0.47327378,0.4767545,0.48175693,0.48576462,0.48876283,0.49042463,0.49033988,0.4882335,0.48434994,0.48042545,0.4785249,0.47779799,0.47765177,0.47799313,0.4780422,0.4793833,0.4809323,0.48142606,0.4812395,0.4810499,0.48116225,0.48127455,0.4813075,0.48133346,0.48129934,0.48115963,0.4809522,0.4807485,0.48053372,0.48037416,0.4803387,0.48028326,0.47993326,0.47891235,0.47699374,0.47378343,0.4727027,0.4713068,0.47050077,0.47016382,0.46969217,0.46931487,0.46902928,0.46883017,0.46852678,0.46803474,0.46764696,0.46768227,0.46786273,0.46811178,0.46852535,0.46894795,0.4692377,0.46940798,0.4694773,0.46952826,0.46955165,0.4695168,0.46950996,0.4695361,0.46961606,0.46972895,0.4698284,0.4699214,0.4700063,0.47006857,0.47008643,0.47007042,0.47004035,0.46999562,0.46993905,0.46986753,0.46978787,0.46968052,0.46954602,0.46938598,0.46920115,0.46897918,0.46873632,0.46851203,0.4683203,0.4681726,0.46806592,0.46798685,0.46792573,0.46786597,0.46781152,0.46777624,0.46777314,0.467799,0.46782997,0.46789342,0.46798426,0.46807986,0.4681913,0.46835566,0.46856955,0.4688292,0.46913368,0.46950233,0.46995223,0.47049364,0.47105455,0.47164747,0.47224313,0.4727734,0.47320294,0.4735706,0.47393602,0.47428995,0.47461796,0.47494814,0.47527036,0.4755671,0.47579288,0.47593665,0.47600168,0.47601962,0.47604913,0.47612458,0.4762414,0.47636846,0.47647697,0.4765073,0.47646827,0.47640646,0.47635484,0.47635925,0.47644737,0.47662705,0.47689262,0.4771132,0.47736764,0.47770882,0.47810712,0.47850677,0.47885194,0.4790939,0.47913116,0.47911116,0.4791459,0.4792589,0.47952655,0.47990912,0.48034483,0.4808067,0.48130172,0.48207903,0.48299158,0.48371565,0.48428923,0.4847741,0.4851987,0.48559296,0.48596174,0.4862826,0.48652995,0.48669875,0.4867993,0.48681575,0.4867762,0.48671925,0.48666167,0.48663914,0.48666912,0.4867621,0.48691404,0.48707384,0.48726776,0.48753244,0.4878835,0.48832434,0.4888339,0.48936716,0.48987144,0.4902748,0.4906271,0.49091625,0.4911763,0.49141204,0.49163187,0.4918338,0.4920218,0.49220192,0.49237806,0.49256492,0.49276623,0.49297303,0.49317482,0.4933715,0.49354437,0.49372622,0.49392676,0.49413633,0.49435174,0.49455965,0.4947486,0.49492496,0.49508825,0.4952502,0.49550685
0.4233412,0.42391032,0.42457864,0.42537957,0.42595708,0.42634547,0.42668977,0.42698097,0.427157,0.4272101,0.427181,0.42705736,0.4268676,0.42664286,0.42641872,0.42624617,0.4261493,0.42610317,0.42609358,0.42610246,0.4261355,0.42619282,0.42628568,0.42641598,0.42655933,0.42670217,0.42679754,0.42681873,0.42678657,0.42672917,0.42671242,0.4267633,0.42685723,0.4269859,0.42711103,0.42721927,0.42730266,0.42735922,0.4274054,0.42747694,0.42758125,0.42775363,0.42800003,0.42832428,0.42874575,0.42944697,0.43020034,0.4307981,0.43133467,0.4319558,0.4325686,0.43312728,0.43363306,0.43410903,0.43459162,0.43510395,0.43566772,0.43631595,0.43708166,0.4379447,0.4389022,0.43995684,0.44111633,0.44228,0.44344574,0.4445693,0.44536468,0.44611853,0.4472723,0.4490472,0.4514777,0.45433158,0.45752275,0.4604512,0.46313804,0.4660107,0.46894586,0.4701845,0.4703194,0.46902823,0.46731165,0.46734524,0.46783882,0.46849504,0.46922398,0.46993813,0.47062725,0.47123736,0.4718104,0.47215363,0.47208673,0.47158962,0.47073936,0.47032556,0.4700755,0.46959317,0.46958965,0.47029975,0.4721011,0.4769348,0.48015296,0.48366535,0.4855801,0.48587394,0.48430637,0.48098463,0.4772064,0.4757488,0.4753682,0.47519296,0.47520083,0.4746523,0.4749062,0.47560164,0.4759612,0.4761127,0.47610128,0.4760423,0.47623253,0.476538,0.4768058,0.47687465,0.47684062,0.47672573,0.4766111,0.47652364,0.47646052,0.4764522,0.47640687,0.47607604,0.47509116,0.47304446,0.47116905,0.4702763,0.46945256,0.46878904,0.46841955,0.4681065,0.46797994,0.46780092,0.46751845,0.4671721,0.46669674,0.46637303,0.46622217,0.46627402,0.4664291,0.46676677,0.46709153,0.46723336,0.4673525,0.46741292,0.46742618,0.46738788,0.46734142,0.46736935,0.46746343,0.46760732,0.46779978,0.4679768,0.46813282,0.4682762,0.4683721,0.4684089,0.46841717,0.46840852,0.4683908,0.468372,0.46835384,0.46832338,0.4682722,0.4681989,0.4680996,0.4679637,0.4677913,0.4676038,0.4674242,0.46726742,0.4671424,0.46704525,0.4669662,0.46689898,0.46683145,0.46677136,0.4667326,0.46673042,0.46677145,0.46684778,0.46693617,0.46703082,0.4671322,0.46726185,0.46742767,0.46763107,0.46786803,0.46814328,0.46849486,0.46896845,0.46955037,0.47024992,0.47095144,0.47169316,0.47232413,0.4728837,0.4733315,0.47376359,0.47415516,0.47452366,0.4748881,0.4752324,0.47554764,0.47580245,0.4759766,0.47608143,0.47614616,0.4762024,0.47627896,0.47638208,0.47649446,0.4765904,0.47659633,0.47650236,0.47641933,0.47635898,0.47636598,0.47646457,0.4766595,0.47691533,0.47712964,0.4773656,0.47767478,0.47804236,0.47841638,0.47874808,0.47895473,0.4789818,0.4789573,0.4789918,0.47910908,0.47938782,0.4797691,0.4801998,0.48066384,0.48110545,0.48181635,0.48272246,0.4834655,0.48405138,0.48454183,0.48498666,0.48538804,0.48575598,0.4860677,0.48629457,0.48643017,0.48648918,0.48646277,0.48638213,0.4862984,0.48623776,0.48623976,0.4863243,0.48642004,0.48651466,0.48671818,0.48702788,0.48739854,0.4878276,0.48830765,0.48882055,0.4893267,0.48973334,0.49009043,0.49039453,0.49067634,0.49093068,0.4911595,0.4913613,0.49154642,0.4917195,0.491888,0.4920432,0.4921864,0.4923334,0.49248284,0.49262375,0.4927588,0.4928706,0.49300203,0.49316984,0.49336967,0.49359167,0.49381542,0.49402207,0.49422058,0.4944281,0.4946187,0.49480087
0.42197335,0.42253533,0.4231665,0.42388317,0.42443258,0.42486185,0.4252683,0.42563275,0.4258948,0.4260401,0.42610493,0.42606485,0.42594236,0.42576617,0.42557186,0.42540503,0.42528534,0.42520213,0.4251501,0.4251199,0.4251265,0.42516774,0.4252526,0.42538652,0.42554379,0.425708,0.42583114,0.42587775,0.42586446,0.42582065,0.42580414,0.4258306,0.4258823,0.42595273,0.42601812,0.42607558,0.42611516,0.4261353,0.42614412,0.42617157,0.4262222,0.42632496,0.42648277,0.4267042,0.42702627,0.4276464,0.42827183,0.4288209,0.42934537,0.4298855,0.4304856,0.4310162,0.43149891,0.4319527,0.4324122,0.43289506,0.4334293,0.43404993,0.43481308,0.43570262,0.436705,0.4378093,0.43898958,0.44018716,0.44126636,0.44229048,0.4433455,0.4441623,0.44505334,0.4462977,0.4479006,0.44974744,0.4517354,0.45377386,0.45597193,0.45839655,0.46081498,0.46271205,0.46347493,0.4636605,0.4634903,0.46406513,0.46487486,0.465692,0.46650857,0.46720344,0.46800274,0.4688433,0.4692952,0.46941507,0.4692548,0.46880764,0.46796155,0.46714717,0.46718323,0.466675,0.46648595,0.46701902,0.46817386,0.4710985,0.47465578,0.4770632,0.47947237,0.48005652,0.47909015,0.4762026,0.47321373,0.47241393,0.47224778,0.4720351,0.47186357,0.47109735,0.47098166,0.47096172,0.4709018,0.4708056,0.4706664,0.47056538,0.4706022,0.47067976,0.47087967,0.47121096,0.47139758,0.47133404,0.47118044,0.47113815,0.471203,0.47132838,0.47135878,0.4710248,0.46995878,0.46910766,0.46812907,0.4674182,0.4668193,0.46652114,0.46645162,0.46649808,0.46656513,0.46642518,0.46613055,0.4657333,0.46524414,0.46487498,0.46467006,0.46460432,0.4647063,0.46494597,0.46518165,0.46521986,0.46527287,0.46527788,0.46518257,0.46506035,0.46501204,0.4651071,0.4652553,0.46545663,0.46571577,0.4660015,0.46624455,0.46644035,0.46656263,0.46664533,0.46668124,0.46667942,0.46666846,0.46666145,0.46665525,0.4666442,0.46662188,0.4665888,0.46653312,0.46645358,0.46634293,0.46621585,0.4661038,0.4660026,0.46591833,0.46584392,0.46577504,0.46570867,0.4656353,0.46556693,0.46551958,0.46551144,0.46555322,0.4656409,0.46575972,0.46589428,0.4660362,0.4662,0.46639037,0.46660316,0.4668337,0.46709067,0.46742612,0.4678962,0.46854058,0.4693058,0.47011775,0.47094375,0.47173452,0.4724353,0.47304732,0.473571,0.47404003,0.47446036,0.47485334,0.47520563,0.47552264,0.47579542,0.47601497,0.47618955,0.47633025,0.47642243,0.47650397,0.47659284,0.476681,0.47674805,0.47668415,0.47657272,0.476477,0.4764179,0.4764342,0.47653288,0.47673208,0.47697732,0.47718394,0.47740656,0.47768265,0.47801223,0.47835112,0.47865665,0.47882104,0.4788372,0.47881186,0.4788521,0.47897667,0.47926337,0.4796391,0.48005283,0.48052496,0.48098361,0.48163104,0.48248425,0.48322517,0.4838376,0.48433924,0.484785,0.48520172,0.48556802,0.48585957,0.48604935,0.4861399,0.48615402,0.48608965,0.48598787,0.48589832,0.48584604,0.48588455,0.4859225,0.48599327,0.48621234,0.4865511,0.48696637,0.48741877,0.48788935,0.4883595,0.48882505,0.48922533,0.4895782,0.48986357,0.49012226,0.49036753,0.49057955,0.49077433,0.49096417,0.49114722,0.4913141,0.49146092,0.491601,0.49174115,0.49187887,0.4920113,0.4921227,0.49221355,0.4922493,0.49232274,0.49246305,0.49265856,0.49286598,0.4930743,0.4932705,0.4934633,0.493666,0.49389273,0.49408412
0.42048252,0.42102605,0.42159623,0.42225844,0.42288595,0.42339414,0.42386067,0.42429572,0.42464197,0.42488658,0.4250623,0.42512727,0.42509314,0.42499483,0.42485985,0.42472392,0.42460328,0.42449933,0.42441893,0.42436135,0.42435092,0.42438263,0.42446238,0.4245956,0.42475635,0.42492497,0.42505702,0.42511192,0.42510033,0.42505622,0.42502263,0.42500973,0.4250065,0.425009,0.42501,0.4250152,0.425013,0.4249996,0.42497364,0.42495647,0.42495173,0.42498314,0.42505103,0.4251771,0.425389,0.42578095,0.426269,0.4267697,0.4273092,0.42789,0.42845908,0.4289781,0.42944697,0.4298793,0.43030822,0.43075395,0.43122238,0.43170977,0.4324004,0.43333882,0.43448886,0.43566227,0.43685445,0.4381066,0.4391114,0.44002423,0.4409284,0.44177407,0.44247705,0.44323623,0.4441402,0.4451326,0.4462703,0.44752252,0.44880426,0.4505314,0.45266628,0.4549752,0.45713615,0.45838356,0.45901582,0.460177,0.461317,0.4623353,0.46337968,0.46414363,0.46491364,0.46549934,0.46567845,0.4655759,0.46529222,0.46486044,0.46408707,0.46353254,0.46345615,0.46310464,0.46290988,0.4631191,0.463982,0.4657054,0.46819168,0.47022924,0.4718239,0.47258574,0.4719298,0.47048151,0.46942672,0.4687642,0.4684958,0.4682517,0.46815348,0.46739754,0.46685332,0.46655795,0.4664002,0.46626133,0.46618006,0.46624422,0.46625248,0.46628362,0.46628577,0.46624145,0.46614134,0.46602094,0.46589386,0.46578467,0.46575004,0.46577397,0.46584848,0.46581772,0.46564513,0.46524316,0.4646018,0.4643649,0.46405417,0.46403944,0.46425205,0.4646108,0.4647469,0.4646809,0.46441877,0.46403787,0.46360576,0.46324527,0.46300334,0.46286947,0.4628694,0.4630198,0.4631561,0.46318823,0.4631039,0.46288565,0.4625977,0.46248978,0.4625677,0.4627983,0.4630595,0.46331823,0.46365064,0.46401662,0.46433136,0.46456924,0.4647223,0.4648034,0.46484643,0.4648499,0.4648295,0.4648082,0.4647933,0.46478093,0.46477115,0.46477178,0.46476108,0.46472585,0.4646773,0.46461248,0.46454543,0.46449733,0.4644569,0.46441564,0.4643678,0.46430796,0.46423763,0.46415943,0.46410686,0.4640965,0.46414524,0.46425378,0.46441087,0.46460593,0.46480763,0.46502557,0.4652648,0.4655028,0.46572483,0.46595538,0.46627644,0.46675387,0.4674194,0.46829447,0.46916705,0.47006154,0.47098675,0.47183585,0.47255424,0.47320813,0.47375903,0.47422072,0.4746483,0.47503245,0.4753738,0.4756803,0.4759481,0.47618663,0.47637415,0.4765193,0.47663373,0.4767219,0.47677547,0.4767934,0.47670713,0.47658533,0.4764896,0.47644502,0.47648162,0.4765976,0.4768039,0.47703803,0.47724146,0.47745353,0.47770202,0.477992,0.4783017,0.4785695,0.4786933,0.47869968,0.47867578,0.47872475,0.47886145,0.47915363,0.4795231,0.47992063,0.48040497,0.48088065,0.48146784,0.48227018,0.483016,0.48362833,0.48414877,0.4846067,0.48501575,0.48537523,0.48564762,0.48579192,0.48582917,0.4857917,0.4856788,0.48553938,0.4854635,0.4854597,0.48544037,0.4854601,0.48564827,0.48598504,0.48645353,0.4869672,0.48747858,0.48796654,0.48839092,0.4887792,0.48912647,0.48940915,0.4896375,0.4898311,0.49000782,0.4901781,0.4903571,0.49053276,0.49069858,0.49087822,0.49106824,0.4912591,0.49144322,0.49161172,0.49176002,0.49187124,0.49194467,0.49198365,0.4920392,0.49213344,0.49227172,0.49244466,0.49261922,0.4927811,0.4929404,0.49311018,0.4933001,0.49351072
0.41902983,0.41955954,0.42008102,0.4206639,0.42134643,0.42199746,0.4225362,0.4230326,0.423459,0.42380282,0.42407802,0.42426232,0.42434055,0.4243344,0.4242816,0.42420015,0.42409912,0.4239924,0.42389756,0.4238238,0.42380416,0.42382878,0.42390066,0.42402357,0.4241708,0.42432374,0.42444462,0.4244911,0.4244705,0.42441732,0.42436063,0.42430407,0.4242428,0.42417443,0.42411017,0.4240625,0.4240204,0.42397755,0.42392015,0.42386085,0.4238056,0.4237742,0.42376775,0.42381632,0.42392856,0.42412254,0.42447776,0.4249227,0.4254576,0.42602444,0.42658696,0.4271044,0.42756265,0.42797902,0.42838973,0.42875692,0.4290461,0.4294501,0.43011457,0.43104064,0.4321822,0.43352652,0.43480194,0.43612182,0.43713498,0.4378509,0.43864635,0.43941832,0.44004697,0.44052017,0.44097996,0.4417166,0.4425928,0.44356984,0.44477117,0.44610924,0.44763172,0.449537,0.45163724,0.4538197,0.45529115,0.4565968,0.45789465,0.45905855,0.46006852,0.46074557,0.46127093,0.46157312,0.46137717,0.46084714,0.46029466,0.45991606,0.45957726,0.45977145,0.45957237,0.45939392,0.45933372,0.45947957,0.4600388,0.46110708,0.4629389,0.46476558,0.4661249,0.46669114,0.46677864,0.4662124,0.46557805,0.46524423,0.46496484,0.46465898,0.46436223,0.46371806,0.46276987,0.46235436,0.46217653,0.4622171,0.4623146,0.4623271,0.4623772,0.46240354,0.46234268,0.46215862,0.46189204,0.46153373,0.46114764,0.46082246,0.46061862,0.4605407,0.4605934,0.46072167,0.46078163,0.4609735,0.46120703,0.46114853,0.46117502,0.46140504,0.461775,0.4622547,0.46255183,0.46256188,0.4623387,0.46206534,0.46175268,0.4614516,0.4612108,0.46104318,0.46095854,0.46097758,0.46099558,0.46092892,0.46064967,0.46029124,0.46009672,0.460114,0.4602948,0.46060222,0.4609406,0.461262,0.46163663,0.46204633,0.46242124,0.46269244,0.4628609,0.46294424,0.46297404,0.46295226,0.46290782,0.46286148,0.46283174,0.4628208,0.46282834,0.462851,0.46287298,0.46287972,0.46286565,0.4628531,0.4628607,0.4628862,0.4629171,0.46292156,0.46289414,0.46282536,0.4627418,0.46266294,0.46261194,0.46260738,0.46267182,0.4628125,0.4630087,0.46324646,0.46351087,0.46379012,0.46407923,0.46434918,0.4645878,0.46482405,0.46512783,0.46560824,0.4663033,0.46725196,0.46825176,0.46917665,0.47016072,0.47112235,0.4719791,0.47272527,0.4733441,0.47386232,0.47430715,0.4747309,0.475119,0.47546834,0.47578615,0.476063,0.476311,0.47648206,0.4766006,0.47668263,0.47672743,0.47674584,0.47665584,0.47653502,0.47645223,0.47643295,0.47650182,0.47664237,0.4768521,0.4770983,0.477315,0.4775204,0.47774738,0.4780023,0.47827923,0.47850746,0.47859788,0.4785965,0.47857448,0.4786297,0.47877842,0.4790706,0.47942305,0.47980756,0.48030946,0.4808042,0.4813311,0.48208237,0.48283,0.48343986,0.4839535,0.48440325,0.48480502,0.4851395,0.48537523,0.48547485,0.48545122,0.48535928,0.48523206,0.4851331,0.48511058,0.48504835,0.484986,0.4851232,0.48542362,0.4858559,0.48638725,0.48696977,0.48750347,0.4879442,0.48834145,0.48869538,0.48899335,0.48921695,0.48938474,0.4895343,0.48967463,0.489798,0.48994362,0.49011618,0.49031973,0.49055287,0.49081084,0.4910824,0.49135256,0.49159557,0.49179605,0.49194068,0.4920264,0.4920592,0.49209553,0.49216202,0.49226385,0.4923923,0.4925101,0.49261022,0.4927023,0.49280655,0.49293026,0.49307102
0.41778654,0.41832298,0.41881913,0.41935682,0.41997334,0.42071214,0.42133844,0.42189,0.42238793,0.42282534,0.42320424,0.42350072,0.42370403,0.42381984,0.42387152,0.42386976,0.42381346,0.42372686,0.4236368,0.423559,0.423531,0.42355588,0.42361933,0.42371655,0.42382634,0.42393285,0.4240108,0.42402315,0.42397672,0.42390412,0.42381895,0.42371655,0.42359707,0.4234594,0.4233327,0.42323548,0.423155,0.4230857,0.42300373,0.42291653,0.42283127,0.42275888,0.42270342,0.42269644,0.42274898,0.42288896,0.42309037,0.42333117,0.42375582,0.4243114,0.4249336,0.42550215,0.425958,0.42636257,0.42676476,0.4270144,0.42721924,0.4275854,0.42820868,0.4291015,0.43022725,0.43150407,0.43287033,0.4341057,0.43511376,0.43587363,0.43658966,0.43734473,0.43807393,0.43856376,0.43901816,0.43970823,0.44060832,0.44163424,0.44271085,0.4439209,0.44533575,0.4469673,0.44875693,0.45062923,0.45231086,0.45360017,0.45477694,0.45580113,0.45662495,0.45707062,0.4573512,0.45732766,0.45670936,0.45603365,0.45568436,0.45567274,0.45586607,0.45596677,0.4560177,0.45603824,0.45600814,0.45618615,0.4568531,0.45793325,0.45949745,0.4610984,0.4622795,0.46285978,0.46314943,0.46306753,0.46274057,0.46239725,0.46198726,0.4615521,0.4611584,0.46029684,0.45955265,0.45915073,0.45899126,0.45907876,0.45918432,0.45940185,0.45957863,0.45964354,0.45955944,0.45930398,0.4588924,0.4583751,0.45784307,0.45745572,0.4572944,0.45731205,0.45742777,0.45752925,0.45764217,0.45779702,0.4580561,0.45830548,0.4584854,0.45879915,0.45918053,0.45957118,0.45993567,0.46007717,0.4600675,0.45997983,0.4597715,0.45954353,0.4593376,0.45917583,0.45907658,0.45900673,0.45897546,0.45880115,0.4584489,0.45822474,0.45814025,0.45821798,0.45843437,0.45874268,0.45905358,0.45937693,0.4597766,0.46019727,0.4605873,0.46087974,0.4610359,0.4611131,0.46111703,0.46106714,0.46100092,0.46093813,0.46089643,0.4608739,0.46087825,0.46091294,0.46095476,0.46099433,0.46102828,0.46107057,0.46113274,0.4612068,0.46127158,0.46130702,0.46130043,0.4612574,0.4611956,0.46113405,0.46109736,0.46111375,0.46120012,0.461366,0.46159872,0.4618681,0.4621623,0.46248287,0.4628119,0.46311754,0.46340245,0.46366745,0.46398735,0.4644812,0.46516746,0.46615154,0.4673554,0.46835378,0.46935773,0.47036967,0.47128555,0.47209585,0.47277382,0.4733534,0.47384262,0.4742784,0.4746945,0.47506982,0.47541237,0.47574192,0.47604758,0.47625673,0.4763802,0.47646385,0.47650427,0.47652394,0.47649282,0.47640258,0.47635275,0.47637752,0.47648823,0.47664738,0.47686815,0.47716022,0.4774049,0.47761887,0.477835,0.47806257,0.47829664,0.47846654,0.47853172,0.47852385,0.47850543,0.4785672,0.47872406,0.47900844,0.47932535,0.47971076,0.48023894,0.48075148,0.48123443,0.48193443,0.48267055,0.4832685,0.4837649,0.48418897,0.48456043,0.4848541,0.48504385,0.48509836,0.4850482,0.4849565,0.48487645,0.4848505,0.48480397,0.48468697,0.48472655,0.48494348,0.48530295,0.4857758,0.48632407,0.48689646,0.48741168,0.48783642,0.48820734,0.48852664,0.48878574,0.4889866,0.48911548,0.48922312,0.4893253,0.4894545,0.48963362,0.48986882,0.49014065,0.4904457,0.49078426,0.4911438,0.49150366,0.49182057,0.49207842,0.49224293,0.49232966,0.49235043,0.49236828,0.4924189,0.49250257,0.4925996,0.49265492,0.49268436,0.49269474,0.49272078,0.4927717,0.49283922
0.41676748,0.41730133,0.41780433,0.41833442,0.41892713,0.41960984,0.42027953,0.42088723,0.42144686,0.42196864,0.42244628,0.42285663,0.4231853,0.42342374,0.42359066,0.42367852,0.4236794,0.42362455,0.42355132,0.42347205,0.4234215,0.42346096,0.42353392,0.42360026,0.42365736,0.42370096,0.4237193,0.42368788,0.4236114,0.42351425,0.42339838,0.4232487,0.42307264,0.42287067,0.42268622,0.42254454,0.42242825,0.4223327,0.42223078,0.42212594,0.42202598,0.4219326,0.42185125,0.4218111,0.42182148,0.42191073,0.4219805,0.42211562,0.42245665,0.42295468,0.42356187,0.42416662,0.42464226,0.42503178,0.42539853,0.4256587,0.425862,0.4261927,0.4267869,0.4276243,0.4286989,0.42993164,0.4311862,0.43231016,0.4332344,0.4340641,0.434815,0.43558156,0.43639007,0.43712646,0.43785366,0.43873292,0.4397813,0.4408695,0.44193363,0.44302532,0.44415337,0.44537783,0.44674107,0.44820195,0.44971794,0.450834,0.4517094,0.45236316,0.45287803,0.45315418,0.4532988,0.4532619,0.45287097,0.4523455,0.45199174,0.45202613,0.45232254,0.4525946,0.45289993,0.4530869,0.45304742,0.45318654,0.45378065,0.45491016,0.45647916,0.45792982,0.45901686,0.45969707,0.45992577,0.4599825,0.4598391,0.4595279,0.45910412,0.45868978,0.4582591,0.45741522,0.456632,0.45632327,0.45641956,0.4566799,0.45704818,0.45740592,0.45763856,0.45766002,0.4574697,0.4570729,0.45650393,0.4558648,0.45523044,0.45475763,0.4545472,0.4545109,0.45458007,0.4547461,0.4550022,0.45531446,0.45562232,0.4558215,0.45607686,0.45639896,0.4567593,0.45714587,0.45746607,0.45771343,0.45784986,0.45784667,0.45772374,0.45756748,0.45741665,0.45729572,0.4572221,0.45718104,0.45715106,0.45698726,0.4567896,0.45667917,0.45667484,0.45676202,0.45693445,0.45714712,0.45737055,0.4576942,0.45810068,0.45852554,0.4589089,0.4592026,0.45937163,0.45943123,0.45941037,0.4593412,0.45926255,0.4591866,0.45913145,0.4591021,0.4591032,0.45913935,0.45919478,0.45925918,0.45932496,0.45939642,0.45948708,0.4595914,0.4596869,0.45974988,0.45976526,0.45974064,0.45969623,0.45965472,0.4596429,0.4596876,0.4598069,0.46000686,0.46026972,0.4605736,0.46089143,0.4612253,0.46157873,0.4619245,0.4622496,0.46255186,0.46291208,0.46342754,0.46405953,0.4651127,0.46632653,0.46761405,0.46865812,0.46967673,0.47062433,0.4714771,0.47218937,0.47277606,0.47325373,0.47367007,0.4740764,0.47447795,0.47488582,0.47526234,0.47558558,0.47582543,0.47597057,0.47606176,0.4761115,0.47614205,0.47617707,0.4761751,0.47617662,0.47624534,0.47637036,0.47653553,0.47679216,0.47713166,0.47742757,0.47767445,0.47788334,0.4780825,0.4782752,0.4783911,0.47843927,0.4784336,0.47842494,0.47849756,0.47865754,0.47892395,0.47921902,0.4796206,0.4801597,0.48068303,0.48116982,0.48181793,0.4825154,0.48309565,0.48356387,0.48395127,0.48428214,0.48453325,0.48468632,0.4847196,0.48467177,0.4846247,0.48461652,0.48459923,0.48451287,0.4845013,0.4846213,0.48488268,0.48526442,0.48573667,0.48626238,0.48679125,0.487283,0.48768115,0.4880156,0.4882816,0.48850033,0.48868012,0.48882526,0.488958,0.48907924,0.48923925,0.4894844,0.4898105,0.49017033,0.49054778,0.49095762,0.49138665,0.49180865,0.4921664,0.49244517,0.49263188,0.49272555,0.49274486,0.49276492,0.49283397,0.49291143,0.4929904,0.49300814,0.49296248,0.4928692,0.4927858,0.49276537,0.49282187
0.41604292,0.41652673,0.4170674,0.4176586,0.41827652,0.41889906,0.4195394,0.42018205,0.42079544,0.4213893,0.42195234,0.42246258,0.42290288,0.42324963,0.42351896,0.4236865,0.42373642,0.42370713,0.4236436,0.4235595,0.423499,0.42351866,0.4235947,0.4236346,0.42363632,0.42361665,0.4235766,0.42350262,0.42339996,0.42328137,0.4231403,0.4229498,0.42272568,0.42247003,0.42223895,0.42206395,0.4219214,0.42180955,0.4216981,0.4215898,0.42149335,0.42139894,0.421315,0.42126173,0.42124927,0.42130685,0.42145157,0.42157435,0.42187142,0.42232633,0.42284402,0.42332986,0.4237275,0.42410952,0.42448676,0.42486393,0.42518193,0.42550826,0.42605793,0.42684758,0.4278587,0.4290251,0.43011904,0.43104482,0.43191957,0.43272677,0.4335047,0.4342787,0.43513379,0.43609902,0.4371431,0.438236,0.43941593,0.44061476,0.4417774,0.44290662,0.44390148,0.44483787,0.44578755,0.44675198,0.44772512,0.44839507,0.448956,0.4494336,0.4497455,0.4499197,0.45001528,0.45009768,0.4500516,0.44979462,0.44959307,0.44967872,0.44984356,0.45006403,0.45035493,0.45075026,0.45082372,0.45093298,0.45153004,0.45270935,0.4541614,0.45531762,0.4562168,0.45669305,0.45706406,0.4571967,0.45706934,0.45680138,0.4564587,0.4561059,0.45580536,0.45521757,0.45468235,0.45466167,0.45489344,0.4553313,0.4557777,0.4561553,0.45635897,0.45634246,0.4560953,0.45561504,0.4549554,0.45425242,0.45363328,0.4531724,0.4528877,0.45278907,0.45283377,0.4529708,0.45319647,0.45346153,0.4536254,0.45385298,0.45413178,0.454449,0.4547727,0.45510995,0.45545322,0.45572782,0.45589933,0.45595077,0.45589513,0.45580634,0.45572162,0.45566106,0.45564002,0.45565242,0.4556833,0.45572388,0.45569164,0.455687,0.45571655,0.4557274,0.45576125,0.45588058,0.4561041,0.45642257,0.45683008,0.4572621,0.45765412,0.45795086,0.45811287,0.45815992,0.45812374,0.45803595,0.45793873,0.4578453,0.45777398,0.45773223,0.4577272,0.45776516,0.45782778,0.4579038,0.45798331,0.45807028,0.45818007,0.4583044,0.4584216,0.45850772,0.45854467,0.45854366,0.45852244,0.45850557,0.45851848,0.45858747,0.45873034,0.45895246,0.4592381,0.4595631,0.4599054,0.46026242,0.46063522,0.46100998,0.46137765,0.4617252,0.46212116,0.46264958,0.46338522,0.46436167,0.46556768,0.4668786,0.46813196,0.46912062,0.47006714,0.4709354,0.47164768,0.47220075,0.47265857,0.47306275,0.47345874,0.4738477,0.47425914,0.4746737,0.47504312,0.47533548,0.47552115,0.4756401,0.4757112,0.4757582,0.4758079,0.4758734,0.47594807,0.47605205,0.47620597,0.4764262,0.47673267,0.47708648,0.47741276,0.47768146,0.47788778,0.47807494,0.47822878,0.4783041,0.47833896,0.47833788,0.4783407,0.47842556,0.47858688,0.47882736,0.4791337,0.47954637,0.4800899,0.48061335,0.4811093,0.48171592,0.4823742,0.4829322,0.48336872,0.48371816,0.48401034,0.4842268,0.4843579,0.4843914,0.48439428,0.48442098,0.48442864,0.48438022,0.48437792,0.48446912,0.48464525,0.4849263,0.4852989,0.4857442,0.486224,0.48669165,0.48713744,0.487486,0.4877694,0.4880173,0.48824626,0.48845863,0.48866117,0.4888749,0.4891072,0.48938233,0.4897054,0.49006906,0.49045834,0.4908709,0.4913004,0.4917379,0.492136,0.49252337,0.49277806,0.49303293,0.49317694,0.49323124,0.49325603,0.49327713,0.4933027,0.49332514,0.49329588,0.49320567,0.4930796,0.49296325,0.49289536,0.4928948
