62.600853,62.24358,62.075905,62.14454,62.29754,62.508087,62.713707,62.813232,62.83824,62.788246,62.67722,62.55242,62.419647,62.34108,62.328796,62.40382,62.6232,62.909225,63.298615,63.72664,64.04335,64.30986,64.5108,64.60722,64.67439,64.75159,64.83305,64.907745,64.98783,65.06448,65.1176,65.153595,65.16225,65.14075,65.10564,65.04576,64.97235,64.90315,64.81178,64.70822,64.615654,64.48993,64.33354,64.19011,64.04158,63.86228,63.704903,63.58294,63.464653,63.37047,63.293587,63.20167,63.0625,62.872948,62.36569,61.51197,60.56955,59.49301,57.811573,55.95069,54.26457,52.290733,50.607895,49.45125,48.524513,48.077675,47.972702,47.89939,47.854538,47.79345,47.697823,47.573402,47.426025,47.242554,46.973953,46.79796,46.80117,47.03377,47.94132,49.27512,50.929802,52.82888,54.34179,55.65483,56.61383,56.939957,57.015663,56.945503,56.76097,56.596645,56.3368,55.926353,55.47584,54.950836,54.297283,53.66819,53.035522,52.240513,51.541786,51.063015,50.55639,50.09179,49.703476,49.184505,48.49875,47.82074,47.085,46.23809,45.5036,44.8631,44.14629,43.53456,43.068344,42.574425,42.17791,41.92382,41.66694,41.450962,41.28843,41.09455,40.666656,39.99314,39.267765,37.500797,34.83818,32.06679,29.493265,27.859673,27.227264,27.272593,28.712036,31.393576,36.7826,40.77364,41.49234,41.431885,41.21862,40.992104,40.839447,40.48066,38.039146,33.90664,29.417349,26.433455,25.89431,25.50652,25.711525,26.390097,27.174717,27.952255,28.270882,28.122204,27.673088,27.0174,26.471703,25.877333,25.266472,24.80843,24.412006,24.161133,24.227383,24.506184,25.069757,25.869211,26.651764,27.298615,27.832645,28.24738,28.589529,28.828133,28.938652,29.02264,29.075817,29.092415,29.105644,29.079945,28.986732,28.859905,28.668346,28.41031,28.152424,27.79908,27.35962,26.959427,26.577822,26.15026,25.79042,25.513409,25.24388,25.093819,25.063614,24.990559,24.741755,24.334063,23.71418,22.94857,22.373348,22.035706,21.851566,21.936958,22.168608,22.66624,23.348125,23.94144,24.565504,25.053602,25.257027,25.28309,25.166008,24.973726,24.752457,24.515335,24.411282,24.458412,24.676361,24.938377,25.08105,25.252682,25.370756,25.389984,25.358585,25.263721,25.154278,25.071266,25.020432,25.024391,25.053633,25.103146,25.135565,25.124176,25.059805,24.93435,24.785141,24.598284,24.366629,24.176338,24.042194,23.975124,24.034687,24.163555,24.371391,24.567547,24.646246,24.607874,24.333122,23.908644,23.467752,22.732407,22.067791,21.770103,21.671581,21.949768,22.435461,23.260735,24.289,25.11143,25.78958,26.549046,27.169033,27.458767,27.728018,27.898008,27.948553,27.91764,27.74797,27.512917,27.180103,26.797039,26.491383,26.218613,25.7699,25.30095,25.01107,24.796066,24.717056,24.705845,24.756092,24.873707,25.001404,25.20042,25.43993,25.627403,25.780163,25.889317,25.92258,25.90982,25.889824,25.851997,25.792675,25.714432,25.593424,25.452793,25.268316,25.078724,24.953949,24.856178,24.833593,24.920433,25.070114,25.339329,25.590195,25.703377,25.837467,25.952827,26.02097,26.02835,25.982449,25.923069,25.868355
60.681244,60.31476,60.126328,60.186844,60.351204,60.58381,60.815033,60.930645,60.962788,60.925232,60.830006,60.71602,60.610374,60.591835,60.65872,60.86145,61.25433,61.70923,62.308052,63.042812,63.6379,64.05438,64.37655,64.53877,64.63452,64.72954,64.81401,64.88658,64.95996,65.0296,65.0798,65.11307,65.118866,65.09453,65.05629,64.99246,64.9158,64.84471,64.75232,64.64932,64.5582,64.4346,64.281105,64.14046,63.994713,63.819653,63.666824,63.548717,63.434784,63.344475,63.27066,63.182556,63.043015,62.85147,62.397396,61.5746,60.61651,59.556274,57.87811,56.001034,54.30212,52.282288,50.537445,49.33351,48.390694,47.95379,47.86075,47.80328,47.771637,47.715668,47.628563,47.47966,47.300552,47.12095,46.89888,46.775917,46.796303,47.02343,47.881424,49.15103,50.794952,52.666687,54.13483,55.442154,56.396828,56.7295,56.83391,56.812256,56.690918,56.58641,56.358242,55.959923,55.516136,54.989063,54.319916,53.67381,53.041206,52.23237,51.516624,51.037098,50.536575,50.08062,49.697193,49.206142,48.541557,47.86242,47.13195,46.28883,45.554646,44.91356,44.19461,43.57981,43.11143,42.60503,42.20004,41.95132,41.702477,41.502007,41.35823,41.187004,40.78791,40.138813,39.434204,37.66436,34.964806,32.14239,29.490675,27.805037,27.173992,27.190113,28.689402,31.537163,37.20816,41.322556,41.962944,41.833523,41.738853,41.559906,41.109104,41.066696,39.66832,36.754345,33.653366,31.275917,30.491724,30.406384,30.89838,31.545338,31.978853,32.239525,32.126873,31.790596,31.102833,30.152016,29.315105,28.417276,27.54633,26.93547,26.395588,26.061335,26.11011,26.364166,26.92299,27.679867,28.355707,28.98928,29.50751,29.847645,30.087515,30.251131,30.347572,30.429876,30.500738,30.540512,30.564823,30.547165,30.462954,30.349262,30.186062,29.978165,29.781036,29.524345,29.216442,28.922976,28.596098,28.205364,27.878098,27.654896,27.40741,27.256363,27.230545,27.180157,27.001263,26.706932,26.327103,25.71587,25.085398,24.550938,24.22607,24.331743,24.68269,25.326134,26.124046,26.763142,27.341797,27.707218,27.801994,27.801044,27.649738,27.410933,27.169548,26.855196,26.642002,26.60863,26.657795,26.756086,26.819828,26.856405,26.841406,26.785793,26.71518,26.602606,26.48153,26.372282,26.275314,26.214825,26.177692,26.126957,26.064495,26.001774,25.90283,25.766922,25.631433,25.481842,25.3,25.17067,25.121809,25.141657,25.229536,25.323168,25.439749,25.530193,25.556557,25.533886,25.418453,25.206072,24.841694,24.441866,24.162895,23.965698,23.97453,24.210318,24.483952,24.924019,25.50092,26.015524,26.527843,27.093977,27.528496,27.762363,28.029495,28.201672,28.199326,28.157997,28.00563,27.776993,27.431599,27.013653,26.671339,26.382162,25.915903,25.420975,25.090698,24.84215,24.750252,24.736765,24.795124,24.93083,25.076765,25.301453,25.565845,25.764587,25.910652,25.998764,26.012892,25.996529,25.970284,25.928127,25.871723,25.787354,25.654629,25.504423,25.307985,25.107979,24.978733,24.879673,24.865551,24.970966,25.146019,25.434032,25.697926,25.827137,25.984062,26.105549,26.157488,26.15556,26.08464,25.992668,25.919243
58.344284,57.91751,57.747482,57.91883,58.198685,58.434235,58.629425,58.724693,58.75589,58.729538,58.667316,58.607136,58.59395,58.63031,58.673683,58.906086,59.49795,60.24451,60.998825,62.012978,62.95735,63.63965,64.17259,64.43355,64.576645,64.70537,64.80133,64.875206,64.94389,65.00656,65.05298,65.08202,65.08264,65.05312,65.00946,64.93961,64.858826,64.78595,64.69324,64.59244,64.504745,64.385735,64.238045,64.10264,63.96204,63.79344,63.646423,63.5326,63.42244,63.33428,63.261524,63.173904,63.031403,62.83802,62.448418,61.662388,60.67951,59.60649,57.939507,56.079838,54.371696,52.306606,50.494514,49.232483,48.266895,47.840477,47.763138,47.710236,47.67529,47.622604,47.582054,47.44033,47.23685,47.0633,46.868378,46.78171,46.827972,47.08383,47.88679,49.034203,50.65249,52.488667,53.90194,55.20319,56.147705,56.48122,56.618767,56.65459,56.610134,56.579872,56.389496,56.006172,55.57294,55.045197,54.357895,53.69387,53.07447,52.253326,51.513138,51.032963,50.538914,50.09111,49.710728,49.241104,48.594048,47.914963,47.182133,46.338326,45.605896,44.963955,44.244045,43.62877,43.160194,42.655552,42.247192,41.989002,41.749832,41.571354,41.44897,41.30224,40.935425,40.311787,39.619484,37.84635,35.107937,32.218517,29.469671,27.737207,27.136238,27.091743,28.588053,31.57135,37.61226,41.85953,42.397537,42.346245,42.413593,42.33927,41.84475,41.512093,40.61004,39.08249,36.907265,35.022636,34.298637,34.181133,34.278122,34.355038,34.355705,34.241623,33.955833,33.597305,32.956985,32.046803,31.166855,30.099773,29.047447,28.336792,27.690693,27.320637,27.38583,27.602352,28.275776,29.04562,29.460665,29.990215,30.481314,30.79855,31.079777,31.285185,31.387291,31.467701,31.523228,31.53467,31.525026,31.4652,31.345554,31.212063,31.035473,30.82757,30.643375,30.428154,30.156702,29.900402,29.671452,29.385483,29.133175,28.964079,28.759493,28.604635,28.537374,28.440369,28.283718,28.083157,27.813484,27.279902,26.663912,26.120382,25.854462,26.014198,26.3148,27.076694,27.895462,28.316038,28.672146,28.894085,28.97451,28.978104,28.874092,28.701092,28.519417,28.260841,28.045187,27.950167,27.84602,27.774178,27.74268,27.698795,27.629463,27.54956,27.469738,27.361212,27.246376,27.13454,27.018583,26.92809,26.864674,26.797878,26.723406,26.648087,26.550642,26.415346,26.271175,26.09636,25.929398,25.850311,25.845022,25.874657,25.9672,26.09782,26.190575,26.243662,26.266903,26.28233,26.152927,25.913595,25.688538,25.414318,25.217041,25.136839,25.182198,25.352747,25.532791,25.830475,26.224586,26.587078,27.007887,27.4743,27.838268,28.117422,28.37259,28.48478,28.456585,28.394028,28.250118,28.055367,27.705687,27.258568,26.886398,26.559906,26.080889,25.5835,25.200478,24.90873,24.801289,24.782831,24.846981,24.999897,25.164333,25.414839,25.703205,25.909624,26.033573,26.100624,26.107624,26.084627,26.050392,26.00169,25.942032,25.848461,25.703358,25.54337,25.338669,25.131903,24.999401,24.90105,24.898533,25.025661,25.227928,25.537373,25.822927,25.984415,26.156857,26.270256,26.303131,26.285301,26.1828,26.054829,25.96163
55.63066,55.260376,55.192177,55.49948,55.891735,56.21315,56.459007,56.562683,56.585163,56.519474,56.402542,56.295273,56.23551,56.24742,56.290108,56.65657,57.441154,58.34938,59.42939,60.783295,61.988434,63.025352,63.855503,64.25549,64.46594,64.64788,64.76806,64.8493,64.91788,64.97504,65.017044,65.041,65.03508,64.99925,64.94939,64.873795,64.790726,64.71855,64.629456,64.53606,64.45664,64.34819,64.21248,64.086815,63.955276,63.796516,63.656998,63.547844,63.440582,63.35269,63.279144,63.189156,63.040344,62.8427,62.520885,61.77293,60.76037,59.658165,58.019157,56.21189,54.496994,52.41215,50.55403,49.22305,48.21138,47.782814,47.727974,47.64486,47.58178,47.537468,47.533424,47.449043,47.288105,47.122074,46.93634,46.866257,46.93553,47.205803,47.954247,48.995216,50.54357,52.308975,53.66114,54.912437,55.84884,56.218052,56.39193,56.493263,56.53794,56.59371,56.446915,56.08097,55.660606,55.134277,54.42861,53.7463,53.143127,52.3276,51.57966,51.0952,50.603897,50.15944,49.776306,49.303375,48.665863,48.003,47.255333,46.39746,45.662865,45.01635,44.294327,43.680763,43.214973,42.720383,42.318527,42.05693,41.82744,41.671608,41.57435,41.45492,41.105347,40.489246,39.821793,38.038277,35.242546,32.27982,29.443686,27.671028,27.090149,26.997509,28.45726,31.508862,37.91534,42.303577,42.772186,42.916664,43.029068,42.956512,42.63062,42.009087,41.21962,40.51521,38.95237,37.470413,36.802666,36.39225,35.955353,35.555344,35.282867,34.99919,34.6753,34.31244,33.728485,32.90161,32.06624,30.948597,29.868881,29.176777,28.474285,28.04815,28.08567,28.281368,28.98862,29.788898,30.173971,30.656998,31.120888,31.452538,31.787819,32.029816,32.125122,32.196686,32.22692,32.20285,32.159485,32.060104,31.906563,31.75122,31.554768,31.334595,31.148088,30.9431,30.691536,30.465008,30.288143,30.065716,29.85806,29.706367,29.51759,29.351732,29.24812,29.118074,28.944302,28.743279,28.449598,27.937786,27.403446,26.975368,26.81929,26.997473,27.213854,28.024548,28.833725,29.079327,29.277798,29.421844,29.518528,29.523987,29.454613,29.336494,29.198973,28.999916,28.814075,28.699978,28.529778,28.369053,28.27493,28.194199,28.108833,28.025593,27.951405,27.83905,27.713877,27.601913,27.483315,27.385353,27.311413,27.24622,27.178745,27.106586,27.013351,26.882685,26.73616,26.53476,26.352755,26.281036,26.287485,26.343164,26.47012,26.630741,26.733383,26.78683,26.813602,26.833345,26.672417,26.397125,26.218904,25.960625,25.76047,25.728958,25.76387,25.886036,26.036625,26.296124,26.65128,26.984383,27.371117,27.798546,28.141857,28.448893,28.677532,28.731014,28.681221,28.606705,28.473297,28.30248,27.955647,27.495615,27.105083,26.736523,26.258072,25.781538,25.343487,25.006077,24.881641,24.854948,24.919556,25.083641,25.26196,25.534431,25.832195,26.027245,26.126862,26.182781,26.193115,26.16134,26.117746,26.060293,25.991428,25.886711,25.730728,25.563,25.356077,25.14854,25.015633,24.9211,24.932894,25.082584,25.309916,25.646904,25.960667,26.152435,26.32295,26.410248,26.419819,26.387629,26.260212,26.102394,25.991982
53.332832,53.134827,53.185104,53.537704,53.945213,54.388405,54.756817,54.902027,54.914856,54.785007,54.557762,54.322815,54.09147,54.02748,54.140987,54.714348,55.621033,56.51474,57.99592,59.677605,61.003067,62.33259,63.45378,64.01845,64.29314,64.52932,64.67714,64.767975,64.8391,64.892395,64.93031,64.95032,64.93975,64.89999,64.8467,64.76938,64.688385,64.6207,64.53984,64.45841,64.39096,64.29733,64.1775,64.06406,63.943707,63.796425,63.665188,63.560966,63.456776,63.36943,63.295628,63.20394,63.050423,62.84944,62.57257,61.85399,60.827972,59.704197,58.106483,56.361546,54.629845,52.55326,50.69104,49.306816,48.235462,47.78405,47.747513,47.61383,47.515118,47.482727,47.47632,47.45711,47.3806,47.22938,47.05453,46.991676,47.06726,47.321136,48.036842,49.041542,50.48877,52.155876,53.453712,54.621796,55.556877,55.993263,56.20108,56.365692,56.492996,56.6231,56.513,56.167267,55.76832,55.245785,54.524544,53.825035,53.224476,52.43509,51.710403,51.217327,50.722855,50.27497,49.88312,49.386055,48.747616,48.109123,47.344246,46.46467,45.72052,45.06642,44.34024,43.728138,43.266403,42.78006,42.39057,42.141174,41.921234,41.783463,41.710083,41.613792,41.274193,40.658493,40.01223,38.20604,35.345184,32.3165,29.42332,27.619408,27.029343,26.929478,28.359661,31.414833,38.07685,42.60405,43.06984,43.37029,43.422802,43.268616,43.1057,42.606422,41.88542,41.23232,40.05935,38.84397,38.080036,37.396164,36.782722,36.380554,36.095234,35.79864,35.434326,34.999393,34.323906,33.40953,32.524162,31.414886,30.391396,29.737059,28.978855,28.467108,28.456299,28.67369,29.306719,30.150259,30.812702,31.369678,31.834984,32.20426,32.521122,32.72574,32.79592,32.85454,32.872707,32.840576,32.794136,32.69185,32.535168,32.376358,32.177513,31.958548,31.777327,31.57919,31.373947,31.19371,30.985256,30.732697,30.506916,30.333506,30.121181,29.939182,29.829578,29.707958,29.495365,29.212048,28.848032,28.3311,27.855213,27.487347,27.347954,27.51477,27.745325,28.569597,29.410728,29.704145,29.940517,30.103764,30.19757,30.185486,30.087605,29.942049,29.778725,29.565351,29.381046,29.272394,29.117397,28.96551,28.864761,28.773878,28.676678,28.585491,28.508808,28.380142,28.229046,28.093992,27.968002,27.873713,27.798302,27.716923,27.634216,27.559494,27.455112,27.314724,27.165142,26.966349,26.763447,26.667114,26.673265,26.797365,26.99054,27.143036,27.259998,27.321617,27.337173,27.321308,27.201141,26.998432,26.73574,26.47533,26.326595,26.258018,26.272104,26.38404,26.518948,26.738857,27.070236,27.407589,27.760168,28.134804,28.426939,28.6733,28.868496,28.916077,28.84949,28.780598,28.655445,28.47483,28.13263,27.676033,27.278053,26.883415,26.417183,25.967402,25.486795,25.112907,24.973434,24.937485,24.997906,25.165482,25.350508,25.637634,25.92966,26.098694,26.185738,26.241623,26.256527,26.216852,26.165108,26.09919,26.019503,25.904924,25.741535,25.569302,25.36427,25.160034,25.02921,24.940216,24.965557,25.134106,25.38034,25.74675,26.08559,26.288364,26.439758,26.494871,26.48653,26.448921,26.310429,26.134521,26.01283
51.924873,51.810417,51.845085,52.119034,52.47232,52.84327,53.14512,53.257744,53.25865,53.14238,52.94629,52.741226,52.522438,52.470654,52.612946,53.08528,54.028454,55.141724,56.648506,58.467384,60.036404,61.506645,62.913506,63.73307,64.04222,64.3189,64.49279,64.590866,64.66289,64.71109,64.74432,64.76172,64.749626,64.70981,64.657455,64.58406,64.510666,64.45211,64.384476,64.31932,64.266815,64.191376,64.09029,63.990814,63.88349,63.74946,63.62784,63.52971,63.430218,63.345337,63.273075,63.182266,63.028618,62.827644,62.555897,61.861473,60.864037,59.72413,58.19296,56.52294,54.70961,52.639854,50.826206,49.428753,48.293365,47.792984,47.764465,47.59825,47.4781,47.452213,47.447968,47.429222,47.3705,47.273193,47.158073,47.112717,47.154076,47.402206,48.123817,49.11796,50.45363,52.00715,53.25206,54.355133,55.289608,55.781506,56.02595,56.259975,56.466118,56.652496,56.563896,56.258682,55.925323,55.39763,54.649593,53.931618,53.304886,52.566643,51.909058,51.396465,50.889668,50.43037,50.02192,49.49632,48.842846,48.210052,47.438946,46.541122,45.778046,45.11783,44.387486,43.775566,43.318268,42.839115,42.461403,42.225536,42.02245,41.906437,41.853287,41.767025,41.48447,40.918785,40.217274,38.362793,35.452133,32.342163,29.38995,27.559826,26.962532,26.865078,28.271416,31.318386,38.173897,42.849052,43.32637,43.58676,43.782684,43.77343,43.536026,43.03659,42.341232,41.712715,40.864647,39.924736,39.186066,38.475655,37.81977,37.37327,37.02362,36.609253,36.137238,35.658684,34.982136,33.98142,32.927155,31.913612,30.887451,30.040203,29.076115,28.537323,28.644869,28.891064,29.595299,30.54723,31.316109,31.911205,32.426018,32.87663,33.153526,33.311207,33.376854,33.425797,33.431656,33.388218,33.33365,33.22274,33.05815,32.892715,32.687218,32.462082,32.281517,32.114223,31.968096,31.828083,31.591629,31.31932,31.096088,30.930168,30.7281,30.535883,30.3917,30.208683,29.9288,29.615414,29.30835,28.830868,28.299362,27.748732,27.568172,27.841843,28.165867,29.073631,29.962782,30.271523,30.513641,30.674053,30.762484,30.736149,30.624859,30.46976,30.286379,30.10445,29.940723,29.775908,29.56029,29.372505,29.271133,29.182796,29.085068,28.98332,28.870632,28.779999,28.680763,28.474203,28.315535,28.253563,28.236155,28.175571,28.087536,28.00689,27.912666,27.720957,27.484158,27.265524,27.075169,27.004093,27.022491,27.160664,27.371769,27.544819,27.69187,27.773737,27.790348,27.7721,27.667198,27.482132,27.190424,26.908657,26.7549,26.680286,26.667812,26.749247,26.869991,27.075258,27.387787,27.702438,28.019903,28.348778,28.599941,28.804115,28.986946,29.061344,29.036219,28.976475,28.82513,28.612644,28.27493,27.831944,27.433102,27.020853,26.5765,26.158798,25.632986,25.223774,25.07199,25.025476,25.078888,25.245953,25.43412,25.732391,26.017483,26.162205,26.242,26.295078,26.30747,26.26279,26.204792,26.130375,26.039692,25.916103,25.746994,25.571815,25.369854,25.17041,25.04319,24.960857,24.999851,25.18613,25.449898,25.842564,26.201141,26.409004,26.524788,26.544384,26.535397,26.499926,26.353325,26.160492,26.031559
50.839066,50.782585,50.832558,51.03865,51.28925,51.547913,51.756317,51.83451,51.83721,51.76345,51.633522,51.491554,51.327362,51.276405,51.370144,51.704155,52.52927,53.63168,55.178722,57.127243,58.846123,60.38115,62.046856,63.16008,63.566948,63.892036,64.06727,64.16521,64.232376,64.272736,64.3011,64.31828,64.30971,64.275696,64.2301,64.16769,64.10927,64.06711,64.02095,63.979584,63.94754,63.89679,63.820972,63.740646,63.65202,63.53876,63.434586,63.3499,63.265244,63.194138,63.133842,63.057045,62.91839,62.729443,62.4422,61.78103,60.85676,59.72136,58.232056,56.618385,54.798584,52.761414,51.00181,49.640022,48.47381,47.887817,47.78203,47.581078,47.463524,47.455013,47.453766,47.43257,47.378784,47.306797,47.209976,47.17672,47.232277,47.503838,48.248257,49.239403,50.42845,51.836525,53.024918,54.064373,54.99837,55.547504,55.837334,56.159653,56.4496,56.672012,56.589973,56.30681,56.02925,55.574684,54.845825,54.088276,53.434006,52.71245,52.09655,51.60055,51.09503,50.62355,50.203403,49.651817,48.96183,48.303043,47.54986,46.64287,45.842262,45.171425,44.432186,43.817337,43.364365,42.893345,42.530453,42.312233,42.132133,42.04409,42.014748,41.939857,41.718895,41.201984,40.421593,38.509277,35.54746,32.34233,29.326925,27.47863,26.88569,26.792788,28.166262,31.181164,38.139465,42.99763,43.599007,43.807426,44.15204,44.282845,43.92276,43.42125,42.77028,42.162838,41.519707,40.772,40.0977,39.47235,38.857605,38.391964,38.009212,37.537956,37.00922,36.496857,35.793972,34.691418,33.47879,32.46929,31.245903,30.061905,29.014153,28.467516,28.659866,29.094578,29.874657,30.884436,31.815617,32.4693,33.019676,33.533714,33.844868,33.985317,34.003586,34.028633,34.01567,33.961273,33.898956,33.779465,33.610794,33.44701,33.249733,33.044296,32.88644,32.741463,32.59474,32.436073,32.19194,31.923756,31.71237,31.553846,31.365665,31.180452,31.028824,30.800348,30.461632,30.115948,29.836332,29.30819,28.634949,27.909498,27.669815,28.046597,28.523643,29.593506,30.573719,30.883858,31.12923,31.285044,31.365494,31.321098,31.192333,31.031935,30.853218,30.694382,30.534576,30.329235,30.076172,29.838837,29.681896,29.557255,29.458015,29.381424,29.308872,29.18546,29.003128,28.752665,28.569473,28.515923,28.522993,28.505692,28.45819,28.39207,28.275883,28.043983,27.779352,27.551893,27.3605,27.286337,27.285873,27.430897,27.704506,27.976664,28.139515,28.22443,28.27948,28.268555,28.166416,27.979979,27.660896,27.343042,27.156807,27.053406,27.011887,27.07278,27.182354,27.383926,27.68118,27.965279,28.247015,28.531816,28.744204,28.911983,29.070889,29.15195,29.158327,29.111755,28.953691,28.731037,28.408867,27.98481,27.589798,27.172077,26.733059,26.32745,25.801369,25.369022,25.187408,25.128117,25.17041,25.332502,25.520554,25.821304,26.098204,26.226326,26.301033,26.349567,26.356678,26.307789,26.243748,26.160994,26.060484,25.928713,25.754574,25.577223,25.379309,25.186401,25.064835,24.991142,25.045538,25.250895,25.5344,25.955002,26.320404,26.501564,26.59093,26.594612,26.583727,26.550724,26.395027,26.183968,26.048185
50.252865,50.223503,50.293743,50.449677,50.598312,50.76397,50.903778,50.965446,50.98511,50.96342,50.901134,50.82113,50.716705,50.65727,50.671467,50.900654,51.52246,52.408134,53.934677,55.943214,57.706825,59.20913,60.956566,62.253403,62.83706,63.24855,63.42353,63.513565,63.565765,63.585365,63.59858,63.60908,63.60457,63.583714,63.554512,63.51661,63.48282,63.458748,63.434135,63.414215,63.399536,63.370003,63.316177,63.25319,63.182655,63.092033,63.009888,62.944702,62.8852,62.841545,62.807,62.762356,62.65969,62.500767,62.208893,61.584663,60.740177,59.65618,58.196487,56.614822,54.883156,52.89904,51.183495,49.90893,48.74206,48.052467,47.82283,47.591858,47.48922,47.497513,47.503162,47.488724,47.43547,47.353035,47.235283,47.2046,47.30042,47.608116,48.364388,49.33111,50.395134,51.68081,52.818035,53.805595,54.735672,55.328583,55.659466,56.066628,56.426037,56.657173,56.584366,56.312767,56.061134,55.72277,55.05346,54.26095,53.588852,52.84501,52.226097,51.761055,51.26076,50.774475,50.342804,49.777534,49.06004,48.372536,47.632973,46.725098,45.900246,45.214054,44.461613,43.842056,43.391296,42.926826,42.578156,42.37761,42.220993,42.161537,42.15599,42.09359,41.91877,41.435966,40.59903,38.62717,35.60381,32.317043,29.257103,27.407627,26.827454,26.738705,28.077946,31.042252,37.96598,42.996407,43.83203,44.03733,44.446194,44.626976,44.2032,43.700848,43.089165,42.519653,41.973442,41.320625,40.696358,40.135235,39.56064,39.100193,38.718918,38.24859,37.72319,37.218037,36.502357,35.338333,34.03297,32.925426,31.419645,29.93858,28.956882,28.424232,28.62619,29.282227,30.118849,31.145699,32.23062,32.943913,33.503685,34.033318,34.404034,34.546585,34.505394,34.503124,34.471283,34.41035,34.34706,34.226357,34.060852,33.90517,33.725044,33.544266,33.403915,33.25101,33.064526,32.87239,32.651726,32.409214,32.216904,32.080917,31.899555,31.70261,31.535145,31.315788,30.967352,30.582726,30.291122,29.633356,28.78318,28.004044,27.660439,28.045158,28.755285,30.01825,31.085936,31.394958,31.640812,31.78989,31.862097,31.800205,31.654697,31.49387,31.338858,31.187689,31.007599,30.768963,30.494778,30.23088,30.036451,29.876478,29.774073,29.724865,29.69696,29.48964,29.172358,28.921568,28.730629,28.658993,28.648376,28.65968,28.658096,28.612473,28.467123,28.229591,27.996685,27.77449,27.569824,27.459122,27.39476,27.532322,27.894001,28.302242,28.495123,28.579617,28.66806,28.675533,28.579689,28.383257,28.034237,27.673672,27.445616,27.303474,27.241524,27.301004,27.411125,27.615318,27.900421,28.157753,28.412134,28.664934,28.849829,28.994692,29.124588,29.187702,29.196316,29.158257,29.015938,28.810125,28.510208,28.104431,27.71662,27.304436,26.854424,26.440155,25.951395,25.51075,25.290426,25.218739,25.2482,25.402096,25.587048,25.882828,26.154942,26.27987,26.35141,26.394962,26.396889,26.344666,26.275747,26.187344,26.081707,25.944572,25.7673,25.58974,25.394506,25.207108,25.091988,25.026836,25.094559,25.316422,25.620298,26.061478,26.418428,26.555698,26.633934,26.640697,26.624928,26.592587,26.428017,26.201248,26.059887
50.029938,50.013718,50.035812,50.10544,50.18616,50.279,50.36496,50.41577,50.454575,50.482628,50.483326,50.461594,50.41281,50.367588,50.35395,50.48201,50.957134,51.713364,53.020107,54.970276,56.81365,58.21455,59.856712,61.19036,61.990406,62.540565,62.749413,62.831093,62.86154,62.843475,62.824318,62.814598,62.808525,62.805206,62.800728,62.801308,62.8003,62.789894,62.7796,62.77173,62.76609,62.74794,62.706097,62.65305,62.594086,62.52028,62.456955,62.410194,62.376297,62.364082,62.362083,62.35896,62.30346,62.18498,61.9161,61.319542,60.5206,59.530006,58.130493,56.582195,54.94895,53.017506,51.349007,50.182884,49.001984,48.2125,47.900734,47.648903,47.548595,47.55887,47.577057,47.57219,47.518425,47.42933,47.309113,47.27846,47.37193,47.6955,48.43698,49.346703,50.341442,51.557686,52.649986,53.595306,54.51721,55.138874,55.49927,55.97351,56.383842,56.610497,56.568535,56.328537,56.09301,55.830776,55.21264,54.413376,53.72747,52.964737,52.333595,51.86753,51.356018,50.847847,50.39343,49.823837,49.1145,48.431767,47.668976,46.757908,45.947174,45.243935,44.47757,43.854637,43.404022,42.94347,42.606094,42.42068,42.284355,42.24977,42.264877,42.212646,42.076263,41.62831,40.770164,38.73413,35.63217,32.286755,29.207111,27.368301,26.796131,26.712662,28.025028,30.93502,37.75032,42.91407,44.004265,44.23677,44.649086,44.830956,44.421844,43.907326,43.28689,42.739628,42.30867,41.756313,41.13883,40.51512,39.910957,39.46762,39.087955,38.586655,38.053978,37.605045,36.946297,35.780075,34.40657,33.213017,31.547165,29.932793,29.01047,28.507236,28.708633,29.432411,30.331486,31.413092,32.55278,33.303417,33.87436,34.39749,34.75343,34.874958,34.81637,34.79942,34.75574,34.692383,34.634857,34.520775,34.361763,34.21157,34.04273,33.85987,33.700188,33.515625,33.32283,33.15839,32.973755,32.75069,32.57765,32.49739,32.31858,32.057526,31.810036,31.637062,31.32341,30.894676,30.611046,29.841152,28.837818,28.091677,27.577877,27.874207,28.89447,30.31717,31.420185,31.747139,31.99423,32.134422,32.1995,32.12391,31.967318,31.807438,31.667044,31.526806,31.320677,31.014053,30.687094,30.438309,30.312893,30.175951,30.072456,30.004265,29.909966,29.653927,29.330294,29.082596,28.886242,28.801922,28.780342,28.780933,28.773504,28.728336,28.592556,28.36715,28.140816,27.922735,27.71587,27.572453,27.421566,27.53031,27.951303,28.454185,28.726402,28.834976,28.901897,28.93864,28.869642,28.667423,28.285826,27.88138,27.619183,27.456373,27.383614,27.449272,27.57396,27.781822,28.055832,28.294973,28.530727,28.762691,28.930058,29.059017,29.17102,29.221407,29.224043,29.18547,29.053345,28.863516,28.581875,28.191944,27.812302,27.406277,26.949474,26.528992,26.067131,25.619747,25.369942,25.287529,25.305176,25.450535,25.631472,25.922853,26.194553,26.32188,26.3909,26.430424,26.428904,26.373783,26.301096,26.20953,26.10228,25.961853,25.783134,25.607391,25.412567,25.228207,25.119026,25.060974,25.138582,25.373493,25.697655,26.1498,26.494339,26.602234,26.669136,26.674747,26.656063,26.624166,26.452766,26.21412,26.068748
49.871925,49.814064,49.75368,49.723755,49.735172,49.77276,49.824585,49.870567,49.92322,49.993057,50.053654,50.093414,50.108986,50.09291,50.067604,50.128475,50.460953,51.046288,52.073845,53.843353,55.663155,56.99844,58.543056,59.825775,60.669952,61.2943,61.54587,61.60647,61.60199,61.55832,61.53884,61.525276,61.52275,61.531807,61.545113,61.566338,61.58528,61.594646,61.601852,61.605934,61.60809,61.604332,61.58544,61.557693,61.52619,61.494987,61.482323,61.48693,61.53331,61.593414,61.625244,61.672455,61.678047,61.61827,61.469337,60.981705,60.235664,59.315826,57.987778,56.51026,54.986557,53.075764,51.42052,50.37314,49.231216,48.391296,48.00289,47.71988,47.605995,47.60565,47.612087,47.58261,47.503784,47.403305,47.280495,47.2584,47.363686,47.721523,48.450333,49.29066,50.254025,51.42578,52.462555,53.356987,54.26274,54.907036,55.28865,55.821274,56.296005,56.556213,56.55687,56.353073,56.14019,55.912674,55.36261,54.618927,53.9079,53.115982,52.469555,51.99306,51.465687,50.936646,50.46165,49.866917,49.16005,48.502182,47.71579,46.806847,46.019344,45.293526,44.50895,43.881516,43.429848,42.970856,42.64495,42.478474,42.36476,42.36602,42.417133,42.380264,42.268475,41.835716,40.955025,38.854836,35.672836,32.2643,29.17892,27.363377,26.79507,26.724373,28.01884,30.867386,37.50159,42.811718,44.221573,44.44558,44.828407,45.000504,44.609642,44.09445,43.46824,42.926346,42.538536,42.007767,41.394974,40.898827,40.294777,39.75515,39.388557,38.88098,38.337486,37.895794,37.337067,36.210327,34.745087,33.48389,31.620852,29.788282,28.865162,28.43434,28.71671,29.484089,30.50523,31.702892,32.871628,33.635296,34.203323,34.719604,35.03876,35.13174,35.0684,35.04189,34.986748,34.929657,34.905632,34.84331,34.728905,34.596832,34.393337,34.142906,33.932503,33.72664,33.541023,33.40142,33.237057,33.076233,32.95297,32.85633,32.630875,32.332916,32.088272,31.894127,31.581253,31.176582,30.891743,30.018559,28.835176,27.9013,27.174404,27.508411,28.923988,30.576807,31.738173,32.069115,32.32226,32.459187,32.516357,32.42746,32.25981,32.099182,31.971828,31.814472,31.566828,31.224726,30.858196,30.596924,30.491056,30.38105,30.28434,30.196701,30.083273,29.82124,29.5057,29.264614,29.065893,28.972507,28.944124,28.939144,28.929043,28.88381,28.75166,28.526928,28.2967,28.081234,27.850937,27.656342,27.441982,27.499584,27.963402,28.60137,28.950768,29.08086,29.145082,29.196808,29.148134,28.951155,28.539333,28.095474,27.803972,27.622639,27.539621,27.603806,27.728165,27.936241,28.200392,28.420822,28.638855,28.852213,29.0044,29.119072,29.214638,29.253304,29.250813,29.211266,29.088142,28.91364,28.651503,28.279825,27.910255,27.511818,27.047644,26.619053,26.183598,25.726662,25.443989,25.349655,25.353275,25.487724,25.663252,25.952623,26.227139,26.3586,26.428509,26.466122,26.460701,26.400925,26.323812,26.230263,26.123417,25.979755,25.799458,25.626602,25.431608,25.250195,25.148024,25.09803,25.186258,25.433975,25.777708,26.23415,26.56184,26.645397,26.701672,26.705185,26.683708,26.65048,26.471472,26.222332,26.075233
49.802925,49.64683,49.477657,49.358704,49.325607,49.33715,49.38314,49.436325,49.497017,49.589935,49.69053,49.779823,49.856693,49.882866,49.86746,49.898365,50.119164,50.54223,51.307747,52.83345,54.54183,55.85264,57.303696,58.46369,59.242836,59.849365,60.0954,60.119072,60.070366,59.99409,59.96775,59.96036,59.980694,60.015816,60.047672,60.079308,60.100494,60.113552,60.117104,60.10952,60.099037,60.085182,60.064507,60.045326,60.032867,60.03543,60.06578,60.118637,60.241814,60.390076,60.497448,60.63772,60.74282,60.76969,60.749954,60.411045,59.783264,58.972137,57.761513,56.390408,54.981644,53.111115,51.467194,50.489906,49.409294,48.5717,48.13241,47.82372,47.688164,47.666157,47.646637,47.579884,47.47039,47.358475,47.226074,47.19333,47.283916,47.68235,48.423515,49.21269,50.16082,51.299606,52.28205,53.11376,53.989037,54.640495,55.021767,55.585663,56.13128,56.47357,56.53872,56.37914,56.187244,55.9174,55.4183,54.795242,54.107994,53.30139,52.62373,52.130745,51.583534,51.033485,50.539703,49.915085,49.196053,48.55046,47.765793,46.86949,46.096764,45.366222,44.57169,43.935577,43.479664,43.016697,42.697433,42.548347,42.4664,42.488876,42.537106,42.48555,42.38147,41.975563,41.1175,38.97445,35.711853,32.249023,29.173763,27.397926,26.843052,26.78886,28.07427,30.869177,37.29915,42.715202,44.423897,44.672493,44.99652,45.114895,44.75864,44.24737,43.627724,43.10785,42.664215,42.073376,41.4647,41.073067,40.51761,39.947502,39.56479,39.06399,38.53012,38.07348,37.58761,36.50709,34.984955,33.55954,31.53921,29.656162,28.735912,28.36462,28.724598,29.532085,30.693977,31.992653,33.114307,33.861244,34.422142,34.927612,35.20597,35.275196,35.218147,35.188347,35.133858,35.10241,35.140213,35.116096,35.00222,34.853626,34.629158,34.356136,34.129875,33.90902,33.714096,33.58027,33.441193,33.32807,33.21723,33.059654,32.77295,32.47335,32.288692,32.069813,31.741505,31.365757,31.078178,30.130852,28.802597,27.660192,26.781178,27.145107,28.726353,30.632423,31.97741,32.327454,32.57527,32.6949,32.747887,32.648087,32.47051,32.30801,32.19227,32.01116,31.719955,31.352383,30.950863,30.670424,30.570848,30.477867,30.394274,30.308155,30.198633,29.959507,29.672852,29.444866,29.248434,29.148422,29.114735,29.104736,29.092354,29.048046,28.920973,28.699501,28.46595,28.242985,27.98928,27.757835,27.49981,27.521318,27.999157,28.6982,29.1258,29.299807,29.354094,29.402573,29.359808,29.173779,28.765335,28.299732,27.97565,27.777483,27.684494,27.742397,27.857588,28.057354,28.308828,28.514107,28.718601,28.91941,29.062218,29.167694,29.25217,29.282398,29.275806,29.234365,29.117176,28.95464,28.709328,28.354881,27.99566,27.603718,27.13197,26.695366,26.283283,25.819416,25.506771,25.395687,25.382019,25.504059,25.67345,25.961086,26.239037,26.376194,26.455498,26.496887,26.487326,26.422302,26.341011,26.24675,26.141827,25.995079,25.81307,25.643707,25.448101,25.269278,25.174234,25.132113,25.229944,25.487629,25.846184,26.294662,26.601513,26.675285,26.724754,26.725037,26.701542,26.66438,26.478407,26.223606,26.078815
49.746597,49.498104,49.236732,49.064857,49.026375,49.03456,49.087166,49.150223,49.216084,49.316093,49.432976,49.550053,49.67079,49.73658,49.740017,49.75973,49.91044,50.226677,50.828327,52.160572,53.746582,55.054245,56.435017,57.48975,58.22284,58.772377,58.965904,58.952866,58.86605,58.746082,58.684868,58.67671,58.723297,58.78894,58.83616,58.871758,58.87984,58.87153,58.84263,58.79486,58.748386,58.693783,58.63484,58.592934,58.573463,58.577057,58.616383,58.686165,58.836452,59.047657,59.25535,59.514698,59.7424,59.866802,59.91515,59.700157,59.23902,58.58004,57.518333,56.25991,54.956223,53.17154,51.561108,50.580658,49.54946,48.74614,48.28602,47.960808,47.804436,47.76252,47.72106,47.63074,47.504375,47.383545,47.235516,47.172535,47.221577,47.64817,48.418037,49.185257,50.10618,51.205475,52.14351,52.908733,53.73915,54.379753,54.74828,55.31938,55.927197,56.37153,56.508842,56.39653,56.22341,55.864174,55.366447,54.859486,54.256954,53.477684,52.77324,52.26435,51.69713,51.126488,50.61586,49.9728,49.231037,48.56997,47.814056,46.935287,46.15969,45.45055,44.658962,44.009415,43.546574,43.075653,42.757133,42.619034,42.56949,42.584526,42.579445,42.48624,42.383293,42.0234,41.23074,39.068336,35.733387,32.237297,29.176981,27.444647,26.9178,26.879192,28.161606,30.924557,37.20855,42.661663,44.554947,44.885063,45.154152,45.1901,44.876457,44.365417,43.766106,43.29968,42.751156,42.073174,41.47007,41.027,40.541492,40.08071,39.652412,39.152527,38.64789,38.194893,37.706562,36.634087,35.114426,33.455864,31.3667,29.648369,28.772415,28.413654,28.783941,29.632463,30.885986,32.214752,33.246567,33.96753,34.525345,35.016747,35.273666,35.335087,35.286194,35.2553,35.21417,35.21514,35.30169,35.259735,35.08094,34.883747,34.68185,34.470825,34.286037,34.064102,33.84813,33.704353,33.595867,33.475094,33.31767,33.116417,32.796127,32.51004,32.377457,32.182228,31.851898,31.462051,31.171013,30.18353,28.793915,27.61481,26.69523,26.98895,28.440027,30.521473,32.11289,32.507538,32.736332,32.822628,32.875336,32.767952,32.582848,32.419357,32.31513,32.12692,31.806591,31.405193,30.969479,30.67913,30.595242,30.505768,30.436665,30.372234,30.262365,30.044695,29.791656,29.578892,29.387299,29.281929,29.242306,29.225899,29.210852,29.169106,29.051033,28.842274,28.614452,28.378075,28.120146,27.885534,27.598682,27.620293,28.091022,28.740885,29.230606,29.46466,29.498386,29.534863,29.486029,29.308296,28.933311,28.464787,28.10844,27.89596,27.793121,27.844105,27.951036,28.137188,28.374199,28.56999,28.766262,28.960827,29.099888,29.20161,29.281097,29.30707,29.298092,29.25489,29.14072,28.985615,28.75167,28.409918,28.058893,27.670818,27.193027,26.750618,26.354237,25.88907,25.556677,25.426258,25.394295,25.50445,25.668617,25.952513,26.23198,26.375694,26.470104,26.518978,26.505539,26.437225,26.353176,26.258343,26.154663,26.0054,25.8218,25.65472,25.458542,25.28196,25.192757,25.156944,25.262005,25.525814,25.89259,26.327087,26.615269,26.690437,26.736885,26.733894,26.709335,26.666773,26.475876,26.22073,26.080864
49.574898,49.3033,48.966908,48.76751,48.781815,48.80639,48.85177,48.90204,48.980602,49.09006,49.21388,49.34568,49.499252,49.601456,49.6269,49.643723,49.73973,49.967175,50.441147,51.58297,53.02239,54.331352,55.68225,56.68512,57.402428,57.939655,58.11918,58.0869,57.969963,57.8069,57.705536,57.667503,57.686745,57.730934,57.761143,57.767487,57.73427,57.682083,57.591072,57.471165,57.36236,57.239906,57.11905,57.03732,56.984516,56.975555,57.026615,57.113728,57.292686,57.555077,57.829807,58.22244,58.611454,58.85725,59.008263,58.932,58.629948,58.131943,57.2417,56.121475,54.939476,53.273834,51.697296,50.651524,49.731873,49.046486,48.56907,48.17347,47.96739,47.928837,47.863422,47.747856,47.602615,47.461815,47.298706,47.22788,47.271065,47.707222,48.47197,49.20862,50.09414,51.147583,52.033455,52.717865,53.46502,54.06554,54.43757,55.016182,55.68698,56.251587,56.461246,56.41462,56.29382,55.813293,55.225452,54.767483,54.298817,53.652893,52.990948,52.436825,51.832558,51.236786,50.707146,50.04362,49.28102,48.609417,47.88834,47.021347,46.237267,45.5775,44.78887,44.106762,43.63572,43.15584,42.836876,42.70742,42.67485,42.66002,42.590675,42.4868,42.39606,42.065903,41.338436,39.149,35.740025,32.22827,29.180267,27.489904,27.006414,26.996075,28.285603,31.025583,37.20141,42.64804,44.64933,45.085365,45.304886,45.249836,44.983566,44.46946,43.9044,43.522293,42.840828,42.04657,41.451004,40.970116,40.540627,40.165356,39.70703,39.18737,38.705257,38.310036,37.77795,36.660103,35.157013,33.388916,31.286472,29.67646,28.832546,28.49821,28.874191,29.696465,30.974277,32.318382,33.301723,34.005108,34.549026,35.017906,35.262833,35.33246,35.30094,35.266823,35.245747,35.258934,35.310425,35.205956,34.98362,34.790497,34.590385,34.39694,34.24623,34.097534,33.940235,33.805153,33.68548,33.512104,33.305996,33.108917,32.772736,32.482952,32.377316,32.23073,31.930847,31.530537,31.205013,30.19342,28.827366,27.748482,26.797981,26.974527,28.369144,30.477684,32.15239,32.6071,32.819733,32.873917,32.92269,32.808945,32.618492,32.457596,32.372406,32.18622,31.841848,31.405813,30.940975,30.62563,30.522823,30.457912,30.416172,30.357185,30.251717,30.061958,29.844196,29.64391,29.458977,29.351812,29.306435,29.28225,29.262491,29.222235,29.113605,28.918064,28.698925,28.462238,28.217207,27.99699,27.70343,27.732243,28.185463,28.773012,29.275496,29.549736,29.595623,29.619884,29.562336,29.394474,29.04232,28.580002,28.211563,27.99057,27.876167,27.914068,28.009327,28.182915,28.408882,28.597809,28.78944,28.982334,29.121891,29.223825,29.302868,29.328016,29.31852,29.274876,29.163591,29.014805,28.790813,28.460533,28.11739,27.734093,27.252686,26.803692,26.410145,25.94716,25.607082,25.4576,25.402943,25.49728,25.657097,25.932976,26.21428,26.370811,26.48296,26.537624,26.518078,26.450993,26.366283,26.269447,26.164804,26.014591,25.829885,25.66167,25.464592,25.290741,25.20736,25.177845,25.289879,25.558567,25.92979,26.35379,26.627537,26.700516,26.743084,26.737595,26.712444,26.662552,26.467781,26.216389,26.082994
49.318115,49.090775,48.78214,48.615425,48.665848,48.700867,48.733276,48.76095,48.820618,48.91964,49.046623,49.185425,49.364227,49.50163,49.554604,49.571217,49.619617,49.771725,50.142136,51.13357,52.447857,53.706993,55.040596,56.05939,56.804302,57.37396,57.571068,57.535034,57.399647,57.200165,57.059757,56.9787,56.949917,56.95406,56.951096,56.91038,56.820267,56.711456,56.542423,56.334698,56.1517,55.949665,55.756157,55.625935,55.530327,55.48978,55.52574,55.60172,55.766335,56.019226,56.29143,56.71139,57.19332,57.571205,57.92795,58.05768,57.89544,57.578476,56.896606,55.956913,54.938457,53.446533,51.95936,50.899807,49.976112,49.33686,48.94539,48.609474,48.378387,48.257652,48.159657,48.01308,47.842247,47.683983,47.510986,47.438923,47.48175,47.961464,48.70511,49.335007,50.173996,51.151318,51.930004,52.50941,53.132584,53.66201,54.04802,54.628307,55.36528,56.080482,56.381332,56.39215,56.3061,55.779495,55.114655,54.63182,54.235985,53.723747,53.172848,52.656708,52.04623,51.411003,50.85032,50.15872,49.373245,48.690266,47.980606,47.13304,46.36428,45.717728,44.951702,44.276573,43.779274,43.282078,42.96032,42.83533,42.787308,42.73334,42.623184,42.498936,42.401844,42.090546,41.433464,39.19654,35.70122,32.206474,29.188957,27.554935,27.133327,27.14559,28.458866,31.218246,37.326706,42.711967,44.71649,45.220276,45.427925,45.338314,45.11306,44.600216,44.065445,43.752228,42.953484,42.042255,41.431084,40.92462,40.492844,40.15665,39.7809,39.28836,38.794052,38.41001,37.78051,36.60563,35.157722,33.327705,31.228397,29.708862,28.906286,28.589756,28.949835,29.731379,31.00029,32.34682,33.310654,34.00383,34.52815,34.97,35.216946,35.29909,35.27395,35.23082,35.225994,35.23857,35.219086,35.065636,34.83332,34.65033,34.4544,34.270927,34.138798,34.025017,33.91117,33.801224,33.67644,33.48376,33.258514,33.055965,32.68696,32.370674,32.27253,32.197697,31.960508,31.561155,31.206799,30.179562,28.853596,27.899755,26.964125,27.052578,28.37928,30.452858,32.164345,32.694725,32.889294,32.90622,32.94893,32.827934,32.634758,32.479767,32.411804,32.23313,31.87356,31.407448,30.9098,30.55816,30.42406,30.353615,30.322412,30.278618,30.1968,30.044586,29.860334,29.677944,29.500114,29.389465,29.340328,29.306618,29.279402,29.239983,29.142088,28.962952,28.755932,28.524647,28.280582,28.067757,27.802063,27.845222,28.258018,28.756882,29.268776,29.600424,29.676937,29.689734,29.618849,29.458942,29.129782,28.678032,28.302776,28.07524,27.947315,27.968473,28.050488,28.212381,28.429213,28.612488,28.801737,28.996126,29.139315,29.244663,29.326828,29.353657,29.344875,29.301102,29.19183,29.048134,28.83266,28.51317,28.178343,27.800571,27.319344,26.865652,26.465633,26.003635,25.658882,25.485924,25.40516,25.480537,25.63271,25.897446,26.182842,26.357925,26.48592,26.549633,26.530848,26.46605,26.380482,26.279915,26.171598,26.019485,25.833225,25.662708,25.464775,25.294369,25.217459,25.194813,25.31401,25.586266,25.957773,26.371746,26.633404,26.703054,26.741323,26.733751,26.70863,26.648312,26.45087,26.209183,26.085281
49.130646,48.996662,48.780983,48.665062,48.71176,48.74527,48.772778,48.790592,48.821922,48.90074,49.025326,49.16696,49.35221,49.497215,49.55544,49.579758,49.60599,49.70613,50.00945,50.93318,52.18869,53.339714,54.6669,55.77397,56.585815,57.23013,57.475014,57.449265,57.30426,57.075325,56.902733,56.779877,56.701874,56.663857,56.623962,56.53557,56.393852,56.236828,56.00367,55.726265,55.4856,55.22052,54.968975,54.79944,54.669342,54.591835,54.59285,54.635155,54.749992,54.94271,55.15595,55.496586,55.955544,56.39306,56.913643,57.232456,57.2005,57.036278,56.542427,55.785027,54.943237,53.647903,52.299507,51.304607,50.32168,49.650055,49.35069,49.116413,48.897884,48.702553,48.583454,48.427567,48.252193,48.08431,47.905502,47.842518,47.908012,48.37816,49.049934,49.580135,50.366417,51.23014,51.855057,52.3239,52.812504,53.25676,53.653404,54.22506,55.01685,55.87725,56.269802,56.3153,56.235313,55.77234,55.106125,54.559464,54.143078,53.673866,53.222157,52.81633,52.248344,51.597546,51.024597,50.318733,49.51712,48.821373,48.095535,47.268127,46.533752,45.86693,45.12423,44.480003,43.957767,43.438072,43.10516,42.979134,42.894753,42.8005,42.6712,42.524605,42.415043,42.109177,41.484978,39.171078,35.59565,32.155758,29.191265,27.615513,27.247875,27.271408,28.632172,31.462477,37.551876,42.83236,44.740826,45.25787,45.519604,45.4711,45.232838,44.71885,44.201546,43.910233,43.05992,42.0866,41.448868,40.92677,40.448402,40.098846,39.830452,39.392372,38.875786,38.448433,37.74343,36.551315,35.163902,33.319107,31.227955,29.754547,28.977753,28.659355,28.99165,29.742832,30.99406,32.33515,33.29312,33.985615,34.49745,34.917557,35.176117,35.266045,35.231873,35.177296,35.17945,35.185493,35.103394,34.934834,34.71965,34.54148,34.3535,34.174187,34.039566,33.91514,33.81178,33.728714,33.61477,33.445038,33.22889,32.999878,32.5956,32.250935,32.14309,32.117485,31.935322,31.550903,31.195602,30.16276,28.857399,27.988174,27.095627,27.152676,28.41536,30.442894,32.169903,32.760895,32.948093,32.93954,32.97446,32.847416,32.65431,32.505714,32.44657,32.27912,31.920181,31.440577,30.912304,30.521618,30.357801,30.253723,30.213545,30.191187,30.141703,30.025309,29.866436,29.704659,29.533575,29.417603,29.365152,29.322723,29.288372,29.249155,29.160578,28.996609,28.801075,28.575996,28.320621,28.102896,27.87498,27.92368,28.289917,28.717964,29.23526,29.622253,29.741825,29.749207,29.666168,29.511742,29.202293,28.759907,28.37916,28.146374,28.005623,28.011074,28.08185,28.234402,28.445545,28.626625,28.81513,29.011833,29.159206,29.26882,29.35525,29.384575,29.376705,29.332325,29.223259,29.082117,28.871828,28.560097,28.232239,27.8596,27.383545,26.930157,26.518711,26.052666,25.70102,25.504028,25.399921,25.457546,25.598917,25.855932,26.14817,26.339962,26.479105,26.553587,26.541588,26.479052,26.391895,26.286964,26.174866,26.019426,25.830618,25.658348,25.460009,25.29309,25.222113,25.20546,25.330307,25.603794,25.971313,26.377193,26.63104,26.697037,26.731602,26.722908,26.69851,26.627892,26.429882,26.201096,26.087423
49.10312,49.076855,48.899612,48.77641,48.814545,48.847523,48.885475,48.91731,48.955498,49.02754,49.14316,49.293686,49.469837,49.58352,49.604897,49.654793,49.690582,49.745865,49.999603,50.9065,52.150513,53.16959,54.497665,55.724144,56.60996,57.35176,57.664673,57.65148,57.48772,57.21759,57.009224,56.848343,56.723526,56.64263,56.56717,56.437138,56.25538,56.06366,55.787247,55.46485,55.18711,54.876835,54.582676,54.385094,54.22959,54.12439,54.098248,54.113014,54.185604,54.32715,54.492054,54.76615,55.15962,55.555817,56.05014,56.46826,56.617523,56.56669,56.215668,55.618195,54.942707,53.837852,52.63176,51.708977,50.788864,50.11537,49.760902,49.46679,49.2687,49.156193,49.045135,48.924545,48.78944,48.610252,48.417336,48.377647,48.515213,48.82093,49.338432,49.89218,50.63005,51.354794,51.81502,52.180477,52.54853,52.913033,53.30849,53.862022,54.696663,55.684853,56.15378,56.22224,56.14598,55.77865,55.15806,54.569977,54.11583,53.60666,53.17073,52.86221,52.35971,51.744297,51.203415,50.512535,49.70072,48.98352,48.239326,47.423866,46.71737,46.048157,45.301933,44.656403,44.13469,43.593643,43.240036,43.113224,43.001984,42.861443,42.69481,42.545486,42.44728,42.14234,41.499413,39.086243,35.445435,32.07767,29.176773,27.648502,27.309753,27.343204,28.769186,31.691362,37.77895,42.944157,44.733704,45.262802,45.62898,45.643555,45.318535,44.789253,44.28694,43.992096,43.13346,42.152916,41.5075,40.95553,40.44982,40.084618,39.794945,39.378716,38.880726,38.418793,37.721634,36.56272,35.20174,33.372807,31.30188,29.844862,29.058687,28.721586,29.032463,29.75856,31.00206,32.33658,33.27038,33.965935,34.47892,34.884445,35.15258,35.244923,35.199326,35.136368,35.14341,35.147163,35.02846,34.84728,34.640648,34.470062,34.28882,34.105488,33.961044,33.851128,33.76795,33.698082,33.5945,33.43759,33.219162,32.962067,32.54944,32.201836,32.079918,32.05399,31.886335,31.521107,31.184189,30.155132,28.859596,28.059143,27.19561,27.223495,28.442032,30.434994,32.165215,32.789516,32.98596,32.971214,32.99689,32.86656,32.67443,32.53024,32.47546,32.321964,31.974812,31.495018,30.942062,30.51457,30.325144,30.197372,30.15126,30.142574,30.114494,30.024933,29.888077,29.744774,29.581272,29.460556,29.401577,29.352352,29.313786,29.27464,29.193373,29.04114,28.854355,28.633121,28.374052,28.153666,27.939053,27.974876,28.308147,28.7084,29.21075,29.626026,29.798061,29.80474,29.713821,29.566256,29.273226,28.838074,28.452078,28.214289,28.061848,28.053547,28.115057,28.258396,28.466022,28.64923,28.837425,29.03522,29.185383,29.298069,29.387691,29.418709,29.411043,29.365273,29.255,29.114428,28.906769,28.60006,28.27739,27.90911,27.44075,26.99118,26.568863,26.094887,25.73291,25.51424,25.390783,25.433064,25.562973,25.819254,26.119709,26.321362,26.471252,26.555458,26.548382,26.488213,26.39925,26.29072,26.177664,26.018482,25.826132,25.653072,25.454685,25.290886,25.22491,25.21302,25.34172,25.614677,25.976269,26.375599,26.62444,26.687065,26.718773,26.709682,26.68637,26.608116,26.41082,26.193634,26.089012
49.137207,49.109543,49.047127,49.00983,49.024174,49.072388,49.14319,49.2078,49.274178,49.35743,49.440407,49.515144,49.619614,49.697052,49.71573,49.734642,49.769993,49.86313,50.124794,50.963642,52.103725,53.04698,54.424805,55.80213,56.825623,57.58721,57.876038,57.90238,57.78145,57.526825,57.294933,57.086205,56.90783,56.78739,56.672558,56.494858,56.26829,56.04058,55.714233,55.340004,55.023582,54.67859,54.351498,54.126274,53.945335,53.809334,53.751015,53.733345,53.75911,53.84456,53.955223,54.15029,54.45239,54.774235,55.197334,55.641182,55.90764,55.976456,55.785534,55.356995,54.850784,53.978226,52.980797,52.184,51.36161,50.725838,50.367958,50.058502,49.842026,49.71698,49.57952,49.437675,49.30773,49.160572,49.01285,48.988895,49.09739,49.3397,49.803085,50.329666,50.907974,51.43753,51.757725,51.994453,52.194664,52.43346,52.795975,53.33204,54.207733,55.285866,55.861103,56.01461,55.98207,55.713196,55.171387,54.594334,54.105705,53.56568,53.112495,52.774197,52.334522,51.81482,51.314148,50.65001,49.8827,49.220253,48.470665,47.640038,46.938553,46.302795,45.556168,44.895813,44.396015,43.829403,43.423367,43.26086,43.140404,42.966415,42.74491,42.596397,42.50619,42.181866,41.48487,38.930973,35.218685,31.966026,29.156479,27.68296,27.370586,27.429207,28.95722,32.00683,38.10597,43.102337,44.70344,45.254868,45.69403,45.749687,45.382904,44.855415,44.370407,44.078148,43.23133,42.253128,41.593704,41.01593,40.484406,40.10369,39.803627,39.37294,38.860664,38.387222,37.732643,36.6243,35.277824,33.469948,31.402475,29.929237,29.124855,28.765533,29.058043,29.771198,30.99902,32.31894,33.24182,33.944016,34.459106,34.853096,35.132225,35.228863,35.173973,35.10417,35.115227,35.115402,34.961693,34.771782,34.568882,34.3896,34.201073,34.02906,33.911076,33.82052,33.757645,33.70245,33.60353,33.454926,33.237255,32.963577,32.540283,32.181686,32.044308,32.018845,31.858974,31.50039,31.18067,30.15111,28.848442,28.075577,27.239819,27.259865,28.426228,30.412369,32.16378,32.800526,33.022858,33.017868,33.031197,32.898495,32.70698,32.56533,32.51147,32.37729,32.052216,31.578644,30.998222,30.526463,30.30724,30.151985,30.097836,30.10239,30.093891,30.034199,29.925228,29.803013,29.649208,29.52435,29.458235,29.400791,29.356869,29.317781,29.244183,29.104225,28.92641,28.708496,28.447289,28.221886,28.006134,28.026527,28.334097,28.711761,29.198692,29.63168,29.843582,29.861448,29.771736,29.628613,29.356152,28.930225,28.537891,28.294043,28.13005,28.10862,28.160772,28.294613,28.497782,28.681957,28.869396,29.06794,29.220577,29.336159,29.429005,29.461794,29.454182,29.406424,29.294128,29.153557,28.948074,28.646881,28.330744,27.96772,27.51321,27.073664,26.637062,26.149082,25.770103,25.523518,25.375027,25.397913,25.51392,25.770214,26.082338,26.297394,26.461624,26.554495,26.54975,26.496555,26.406857,26.29271,26.178009,26.014273,25.818077,25.644545,25.446274,25.286232,25.22612,25.219425,25.352123,25.623486,25.975903,26.366882,26.610413,26.66911,26.697964,26.689247,26.66779,26.57795,26.383951,26.186752,26.091564
49.261127,49.176247,49.175415,49.213852,49.23338,49.28232,49.35547,49.426743,49.49536,49.573868,49.63171,49.656204,49.712677,49.775757,49.81366,49.823402,49.880142,50.030975,50.34524,51.07782,52.051144,53.02726,54.506638,55.983543,57.062904,57.785713,58.0138,58.047188,57.963604,57.757294,57.54979,57.33873,57.125103,56.956337,56.803055,56.584213,56.325905,56.077263,55.72846,55.33641,55.008583,54.64183,54.28994,54.045715,53.844406,53.681248,53.592773,53.543842,53.523888,53.552975,53.60755,53.72174,53.923378,54.15354,54.47322,54.85056,55.126472,55.282104,55.22963,54.945602,54.57568,53.92248,53.15194,52.511734,51.823463,51.270027,50.950592,50.666885,50.437325,50.275757,50.116737,49.937508,49.785385,49.663414,49.555916,49.5386,49.60109,49.843723,50.269306,50.687557,51.07415,51.407204,51.59523,51.683903,51.68897,51.766697,52.03952,52.57624,53.502205,54.5924,55.315407,55.634262,55.67743,55.494324,55.0538,54.552475,54.08119,53.549156,53.081467,52.690033,52.266273,51.81412,51.368626,50.75408,50.043854,49.437027,48.737453,47.91735,47.19968,46.58304,45.846153,45.185722,44.692596,44.124306,43.68089,43.454002,43.291588,43.080322,42.82541,42.651245,42.557762,42.21684,41.430126,38.723938,34.958344,31.841963,29.136225,27.720484,27.435081,27.524572,29.192974,32.421486,38.55723,43.325047,44.64919,45.22149,45.691338,45.761246,45.39866,44.890484,44.417492,44.121407,43.323742,42.37365,41.69443,41.09982,40.549194,40.156708,39.8609,39.368523,38.810707,38.382763,37.79099,36.726944,35.38669,33.625977,31.547031,30.004124,29.165752,28.78747,29.078484,29.799202,30.99467,32.285843,33.22576,33.93294,34.444893,34.834896,35.123108,35.22483,35.16605,35.094803,35.10151,35.091293,34.919617,34.729767,34.52796,34.33336,34.13726,33.98564,33.90571,33.834282,33.788483,33.745842,33.649345,33.504494,33.29004,33.016605,32.582863,32.205147,32.05028,32.010017,31.84458,31.490698,31.188839,30.154299,28.829365,28.052631,27.239056,27.264582,28.37791,30.383076,32.178078,32.822746,33.072227,33.08037,33.08452,32.951035,32.759995,32.61908,32.5636,32.445972,32.142883,31.678814,31.073753,30.559954,30.312408,30.1301,30.066181,30.080673,30.086628,30.054737,29.97484,29.873363,29.73057,29.603449,29.530909,29.465519,29.416122,29.37682,29.309547,29.179777,29.009186,28.793293,28.530956,28.300018,28.075005,28.081093,28.3707,28.7309,29.203442,29.643986,29.881252,29.918068,29.837515,29.696222,29.437008,29.017376,28.620853,28.371552,28.198467,28.16719,28.21231,28.339056,28.538063,28.72149,28.907665,29.106007,29.259762,29.37716,29.472399,29.506552,29.498724,29.448704,29.334068,29.193134,28.989532,28.694088,28.385403,28.027943,27.598427,27.181633,26.726099,26.217384,25.815844,25.53675,25.359676,25.361923,25.464275,25.719849,26.043972,26.274136,26.455551,26.553335,26.545837,26.506325,26.417747,26.295294,26.177933,26.009064,25.8092,25.635748,25.437876,25.281862,25.227795,25.225918,25.362448,25.631802,25.973524,26.35294,26.588879,26.644188,26.67104,26.66349,26.644512,26.547798,26.362835,26.188671,26.10316
49.413372,49.310066,49.25602,49.276688,49.33312,49.35977,49.39531,49.438057,49.47113,49.51906,49.579105,49.64342,49.7254,49.800514,49.85067,49.910378,50.01043,50.169357,50.522373,51.165726,52.011368,53.077763,54.657295,56.143387,57.13489,57.81344,58.0168,58.00878,57.908966,57.734005,57.582783,57.420013,57.20352,56.989876,56.81122,56.569084,56.298264,56.045616,55.705902,55.332573,55.0195,54.64088,54.270264,54.01644,53.80098,53.61808,53.50717,53.43397,53.376274,53.356934,53.36258,53.409782,53.529564,53.68354,53.910713,54.18885,54.40921,54.59607,54.62686,54.441254,54.160255,53.66262,53.067196,52.559967,52.00358,51.54138,51.263504,51.014336,50.808685,50.660904,50.51387,50.329964,50.160385,50.02472,49.906136,49.88978,49.964756,50.19049,50.52027,50.797516,51.060013,51.253296,51.307346,51.253,51.088005,51.022278,51.178955,51.726418,52.70186,53.75328,54.62851,55.13831,55.266514,55.16562,54.816826,54.39862,53.99916,53.516598,53.07096,52.706505,52.26087,51.801308,51.410324,50.85242,50.167156,49.557915,48.943333,48.178116,47.447906,46.810516,46.08928,45.45159,44.935684,44.388634,43.946373,43.66149,43.42021,43.165016,42.913006,42.67988,42.574112,42.240463,41.361168,38.531197,34.73683,31.735453,29.118544,27.755219,27.498123,27.61863,29.435461,32.854168,39.0264,43.556095,44.589157,45.17046,45.648438,45.720642,45.37506,44.89023,44.421005,44.10942,43.383434,42.481018,41.78212,41.17849,40.616844,40.21598,39.92357,39.35974,38.75781,38.400406,37.859528,36.820972,35.489716,33.800373,31.70996,30.07021,29.18931,28.800173,29.106382,29.845211,31.00014,32.25596,33.227837,33.93482,34.438007,34.82939,35.122623,35.228424,35.170322,35.102547,35.09749,35.071495,34.89943,34.713234,34.512505,34.312355,34.120773,33.985573,33.9247,33.866722,33.83333,33.799377,33.70751,33.565033,33.353943,33.08995,32.648193,32.24999,32.07791,32.00629,31.826162,31.484657,31.201488,30.161621,28.814127,28.034323,27.237133,27.264332,28.332008,30.359724,32.20543,32.87001,33.13242,33.143303,33.144997,33.01168,32.821136,32.68062,32.62419,32.514206,32.22225,31.765028,31.14264,30.59835,30.329027,30.125196,30.051792,30.071781,30.087364,30.076817,30.02051,29.935993,29.803328,29.6758,29.598621,29.5274,29.47372,29.433887,29.37075,29.24775,29.081789,28.866795,28.602882,28.36782,28.137402,28.133602,28.408672,28.753342,29.214182,29.6599,29.915627,29.969505,29.898123,29.756355,29.498463,29.080423,28.683622,28.431057,28.25225,28.214972,28.25623,28.379292,28.575489,28.757248,28.942,29.139317,29.292826,29.410805,29.50726,29.542164,29.533993,29.482117,29.365746,29.224724,29.023174,28.733253,28.431698,28.080132,27.677517,27.286839,26.81724,26.289772,25.865576,25.555698,25.350996,25.335155,25.428268,25.681671,26.014448,26.257843,26.453905,26.553123,26.540691,26.515781,26.430271,26.30059,26.179653,26.005833,25.80299,25.62994,25.432835,25.280476,25.23145,25.233356,25.37322,25.641148,25.974052,26.340294,26.566486,26.619728,26.645664,26.639412,26.62281,26.52879,26.356895,26.200558,26.124022
49.53956,49.482506,49.39039,49.334534,49.348137,49.378674,49.445023,49.51465,49.557922,49.60692,49.66306,49.72659,49.81012,49.884422,49.928905,49.9842,50.086807,50.248554,50.55871,51.18479,52.06022,53.165245,54.79654,56.267303,57.133423,57.705887,57.86534,57.863724,57.76452,57.59488,57.454254,57.310677,57.13424,56.960617,56.801414,56.554905,56.262966,55.995705,55.64005,55.25143,54.926895,54.565197,54.205765,53.939682,53.70868,53.50355,53.368713,53.27073,53.17667,53.112225,53.07281,53.054768,53.090454,53.163406,53.288094,53.45718,53.602913,53.740826,53.788456,53.68253,53.486168,53.138264,52.71193,52.334118,51.907486,51.54109,51.31418,51.107765,50.932175,50.802547,50.67331,50.508514,50.354153,50.23017,50.120018,50.09507,50.146606,50.31035,50.538193,50.71174,50.85144,50.90222,50.814064,50.55613,50.22384,50.05854,50.094093,50.61206,51.597954,52.608276,53.613255,54.358208,54.685474,54.814915,54.53721,54.0631,53.769653,53.3957,53.011047,52.680847,52.282303,51.86,51.48336,50.953186,50.299168,49.7135,49.122368,48.392506,47.691925,47.057693,46.332054,45.689735,45.176605,44.61123,44.13425,43.818115,43.549034,43.286377,43.02939,42.686028,42.56299,42.27363,41.297176,38.314037,34.469414,31.597775,29.082289,27.77715,27.550213,27.75914,29.78232,33.39592,39.53422,43.77211,44.508156,45.0932,45.5784,45.65309,45.321198,44.861782,44.39359,44.057823,43.428726,42.595345,41.876465,41.26648,40.70179,40.283035,39.932983,39.33161,38.715305,38.341747,37.858482,36.891983,35.592686,34.02231,31.934597,30.169186,29.219732,28.81918,29.156227,29.910084,31.02372,32.237923,33.22642,33.931786,34.429913,34.82235,35.11807,35.227295,35.17173,35.107903,35.092216,35.051895,34.88195,34.682957,34.47558,34.28994,34.108612,33.989155,33.94711,33.90197,33.881065,33.857014,33.771873,33.63208,33.42555,33.176872,32.72786,32.307076,32.11699,31.999851,31.794819,31.468863,31.210125,30.170158,28.802258,28.021198,27.24469,27.271301,28.278055,30.328953,32.23451,32.92302,33.19551,33.20719,33.208847,33.075752,32.885864,32.746567,32.691395,32.584873,32.29802,31.846777,31.209843,30.637291,30.34486,30.1223,30.038391,30.058943,30.084568,30.095493,30.062279,29.995367,29.87423,29.747486,29.665865,29.589828,29.532505,29.49173,29.432014,29.314793,29.152657,28.938242,28.670834,28.429947,28.195343,28.182106,28.442547,28.771936,29.21997,29.670334,29.94581,30.021801,29.957102,29.80634,29.548273,29.133526,28.739685,28.486286,28.303425,28.261433,28.300474,28.421265,28.61515,28.794865,28.977732,29.173098,29.325298,29.442924,29.539793,29.57513,29.566637,29.513166,29.395638,29.255232,29.056828,28.773895,28.480946,28.142488,27.745241,27.35687,26.912235,26.38422,25.929188,25.584562,25.340399,25.301731,25.394917,25.64619,25.986647,26.24361,26.444801,26.544952,26.533176,26.513805,26.437134,26.310738,26.18295,26.003277,25.797792,25.625355,25.430748,25.282768,25.237854,25.24356,25.38684,25.653353,25.977924,26.327576,26.54037,26.592115,26.61763,26.612795,26.598799,26.516037,26.36234,26.221626,26.154629
49.643143,49.594593,49.49415,49.421165,49.427437,49.488476,49.589485,49.67417,49.726387,49.779488,49.83558,49.89859,49.98638,50.064392,50.107132,50.146603,50.22427,50.363243,50.631683,51.25525,52.15708,53.247955,54.845985,56.22119,56.90513,57.367607,57.50617,57.512283,57.420628,57.2638,57.138298,57.018448,56.88869,56.766384,56.64374,56.433067,56.161835,55.90052,55.534943,55.126926,54.789284,54.432632,54.077454,53.801865,53.550507,53.314224,53.14657,53.016975,52.879894,52.76342,52.67089,52.57785,52.519073,52.502106,52.513626,52.558537,52.609276,52.662544,52.672684,52.59703,52.457233,52.21558,51.915085,51.63943,51.32164,51.040394,50.860146,50.693188,50.546917,50.43692,50.3273,50.191322,50.0652,49.962097,49.86304,49.81971,49.83098,49.90834,50.01687,50.08476,50.10438,50.00481,49.777767,49.397003,48.958042,48.709633,48.651802,49.033897,49.928123,50.936695,52.05126,52.950172,53.391663,53.7386,53.712944,53.417313,53.23956,52.97722,52.676353,52.402832,52.072018,51.70061,51.34617,50.863174,50.26738,49.724525,49.146217,48.45457,47.81069,47.212326,46.51001,45.876305,45.37226,44.794273,44.292336,43.959045,43.680428,43.394043,43.097797,42.69597,42.581482,42.309444,41.204124,38.08007,34.201355,31.419647,29.00563,27.775839,27.582954,27.91136,30.159554,33.944096,39.942604,43.881958,44.395447,44.97227,45.454758,45.532356,45.21912,44.79367,44.328094,43.96323,43.47634,42.743317,41.9964,41.380142,40.81864,40.378643,39.93109,39.328613,38.743717,38.32401,37.881187,36.959892,35.65648,34.189934,32.097496,30.209362,29.228397,28.829224,29.185867,29.957928,31.046078,32.22718,33.219803,33.921867,34.415092,34.805325,35.1036,35.216965,35.16735,35.123756,35.095085,35.028202,34.865524,34.650948,34.43531,34.271606,34.107895,34.00728,33.982258,33.95012,33.942497,33.929256,33.851677,33.714394,33.512894,33.28293,32.824516,32.37768,32.169468,31.99224,31.749374,31.438583,31.209839,30.170963,28.780481,28.005898,27.247505,27.27134,28.231293,30.306149,32.26768,32.98237,33.265915,33.280426,33.284496,33.151432,32.960503,32.82173,32.771484,32.66432,32.376675,31.932768,31.28693,30.690247,30.373047,30.12682,30.026388,30.04357,30.075546,30.1049,30.09377,30.04519,29.937374,29.813698,29.729572,29.649837,29.588985,29.546894,29.489658,29.376741,29.21704,29.002003,28.730156,28.48096,28.235943,28.208664,28.454573,28.772144,29.20812,29.66374,29.961437,30.068878,30.010227,29.839748,29.577013,29.167442,28.781643,28.528461,28.344933,28.301756,28.339895,28.459152,28.651329,28.829657,29.010128,29.20252,29.352564,29.469154,29.565777,29.601171,29.592232,29.53746,29.419859,29.281574,29.088726,28.816233,28.535406,28.215607,27.82348,27.436775,27.033152,26.510391,26.017124,25.629538,25.33492,25.267523,25.362837,25.60988,25.958519,26.231995,26.432486,26.532024,26.523083,26.502571,26.443365,26.330906,26.18977,25.999489,25.789299,25.617592,25.426193,25.28395,25.244312,25.25452,25.401608,25.666817,25.98365,26.313684,26.50987,26.560743,26.58653,26.583582,26.57251,26.504707,26.375675,26.255495,26.197483
49.707344,49.627052,49.547928,49.52491,49.56765,49.659176,49.76953,49.845146,49.893784,49.946735,50.007942,50.078964,50.177895,50.26758,50.319378,50.354145,50.406075,50.51298,50.76573,51.36384,52.21946,53.24302,54.72123,55.94323,56.463936,56.850056,56.98661,56.989056,56.908775,56.77988,56.68492,56.5981,56.50531,56.41709,56.32981,56.17476,55.956017,55.72517,55.375816,54.967804,54.62596,54.259315,53.89265,53.60679,53.33384,53.063774,52.85901,52.69288,52.507584,52.337044,52.192787,52.03055,51.889027,51.7955,51.71302,51.653313,51.62017,51.597916,51.54672,51.45155,51.325867,51.122536,50.87603,50.650406,50.39013,50.155235,49.998825,49.851227,49.719006,49.619034,49.52035,49.403366,49.29699,49.208183,49.113354,49.04918,49.02265,49.026573,49.03568,49.016502,48.94706,48.739647,48.431633,48.04709,47.593422,47.301853,47.20263,47.410847,48.12252,49.072914,50.177246,51.114388,51.60947,52.04589,52.283077,52.283245,52.19597,52.020363,51.806896,51.60806,51.35463,51.052902,50.756508,50.357483,49.854935,49.38179,48.852222,48.22686,47.657333,47.125214,46.486633,45.892246,45.40725,44.844925,44.34796,44.01171,43.732193,43.410988,43.06772,42.70246,42.61209,42.29976,41.091896,37.87915,33.979744,31.226707,28.892883,27.742065,27.581116,28.016016,30.437212,34.324093,40.11736,43.836346,44.26198,44.811317,45.278706,45.363106,45.07315,44.686592,44.234886,43.85549,43.503307,42.8758,42.12233,41.506943,40.935173,40.46486,39.949974,39.375813,38.842804,38.39299,37.945244,37.00148,35.654003,34.220684,32.113365,30.161976,29.204262,28.825115,29.1857,29.969254,31.061096,32.235596,33.218544,33.915405,34.40274,34.785828,35.08487,35.200626,35.15777,35.146343,35.10466,35.003426,34.849384,34.625786,34.406532,34.26224,34.11847,34.035225,34.020523,33.99908,34.002686,33.998096,33.926765,33.792,33.59399,33.37638,32.9102,32.441456,32.214695,31.982,31.700325,31.397085,31.197208,30.159836,28.74705,27.978855,27.234549,27.264282,28.211205,30.303478,32.297844,33.033478,33.329247,33.3503,33.357918,33.224495,33.03091,32.891624,32.848095,32.737576,32.44512,32.008102,31.362534,30.751694,30.411674,30.139606,30.018625,30.0289,30.06084,30.100956,30.10643,30.073158,29.9777,29.858868,29.774948,29.693645,29.630373,29.587112,29.531189,29.420456,29.261398,29.044588,28.768421,28.510056,28.249487,28.205742,28.440542,28.753258,29.180672,29.640785,29.957739,30.092045,30.038528,29.85078,29.581287,29.177963,28.80353,28.551464,28.370533,28.329372,28.367367,28.485245,28.675892,28.853493,29.032112,29.221771,29.369537,29.48502,29.581038,29.616112,29.606586,29.550888,29.434189,29.299126,29.113268,28.852972,28.585754,28.284485,27.902855,27.52515,27.162338,26.64569,26.115253,25.683537,25.340752,25.244488,25.336548,25.577671,25.93503,26.22543,26.421965,26.519482,26.513859,26.489761,26.446987,26.350441,26.200027,25.997856,25.780113,25.609102,25.420527,25.284206,25.25045,25.265175,25.415863,25.680336,25.991886,26.30344,26.483158,26.533928,26.560501,26.559464,26.550905,26.495884,26.392143,26.295055,26.243046
49.762405,49.687675,49.62587,49.621414,49.672012,49.76298,49.87069,49.946056,49.994564,50.05027,50.118095,50.197655,50.30963,50.413548,50.476334,50.519234,50.56899,50.662945,50.89087,51.43568,52.216404,53.151512,54.479668,55.549255,55.96809,56.28499,56.398964,56.39807,56.32955,56.229633,56.166317,56.115086,56.066353,56.018303,55.966248,55.84712,55.662094,55.466328,55.156696,54.770844,54.427696,54.063118,53.685913,53.378815,53.086037,52.78654,52.546032,52.34017,52.10115,51.87664,51.68957,51.472958,51.26891,51.11798,50.965446,50.82634,50.72698,50.642097,50.53505,50.41217,50.28031,50.086456,49.8637,49.663193,49.42938,49.213135,49.06382,48.920303,48.78914,48.689728,48.59343,48.481903,48.380127,48.2919,48.192947,48.111736,48.058655,48.013718,47.957603,47.881577,47.752625,47.498398,47.17286,46.788345,46.35566,46.073517,45.95117,46.059708,46.56201,47.25995,48.18564,49.192657,49.920395,50.36734,50.581028,50.610924,50.60161,50.523846,50.40338,50.291748,50.14172,49.94509,49.738335,49.449276,49.069298,48.70053,48.280052,47.76991,47.292557,46.839367,46.282967,45.750122,45.305527,44.777367,44.29719,43.96463,43.683548,43.34381,42.986702,42.69371,42.613495,42.238174,41.006435,37.72413,33.770355,31.03394,28.768154,27.6889,27.556505,28.076687,30.630543,34.58773,40.18593,43.735577,44.11727,44.62268,45.06843,45.16462,44.90011,44.55323,44.128067,43.754265,43.495934,42.96183,42.238693,41.637444,41.024826,40.503048,39.99413,39.45321,38.949852,38.49994,38.007042,37.001053,35.61719,34.167046,32.04564,30.087936,29.16204,28.813148,29.18378,29.963886,31.074203,32.262638,33.23134,33.921787,34.401707,34.775017,35.071312,35.186287,35.148293,35.166195,35.112617,34.980114,34.834267,34.605606,34.386208,34.25995,34.13463,34.06414,34.053707,34.04052,34.0525,34.053627,33.987473,33.855904,33.659576,33.44558,32.976425,32.492195,32.242973,31.96825,31.65486,31.35147,31.181145,30.14684,28.708796,27.932938,27.205622,27.259552,28.21032,30.313328,32.32408,33.075287,33.383278,33.412632,33.423836,33.28997,33.093807,32.954033,32.91674,32.802025,32.502995,32.069706,31.430958,30.814102,30.452787,30.157452,30.015942,30.016457,30.04478,30.090797,30.108686,30.087757,30.003063,29.889442,29.806824,29.725513,29.661077,29.616978,29.561823,29.452162,29.292885,29.073952,28.7935,28.526333,28.25048,28.191593,28.418566,28.730919,29.151613,29.615026,29.947676,30.092072,30.042374,29.852276,29.577085,29.179852,28.817333,28.567501,28.389925,28.35106,28.389051,28.505451,28.693998,28.87032,29.048351,29.236364,29.381979,29.496565,29.591928,29.626476,29.61629,29.559769,29.444118,29.312313,29.133308,28.884918,28.630749,28.345577,27.973583,27.607353,27.291103,26.781536,26.21239,25.738682,25.3551,25.232315,25.313858,25.549417,25.916565,26.222372,26.414202,26.509193,26.507053,26.482052,26.445507,26.357761,26.21138,26.000763,25.77361,25.603287,25.417154,25.286205,25.257874,25.276648,25.430523,25.694832,26.0035,26.298292,26.462193,26.513332,26.540821,26.541416,26.534859,26.49062,26.41019,26.334953,26.286201
49.77026,49.700996,49.650257,49.655952,49.709686,49.7987,49.90292,49.976807,50.024704,50.08321,50.15823,50.246964,50.374245,50.495895,50.57287,50.631023,50.684235,50.76432,50.958588,51.423782,52.08895,52.88329,53.98449,54.861336,55.214737,55.46129,55.53545,55.531467,55.480175,55.418907,55.395813,55.388916,55.39579,55.399834,55.39409,55.3267,55.18693,55.026318,54.77562,54.437157,54.106247,53.752182,53.373474,53.05387,52.73957,52.404316,52.121025,51.868374,51.568504,51.283127,51.0457,50.76687,50.49557,50.28666,50.06684,49.85308,49.69078,49.544945,49.378777,49.21854,49.066902,48.862877,48.643368,48.451614,48.226913,48.014236,47.861454,47.710632,47.570198,47.464645,47.36599,47.25351,47.150185,47.058968,46.951035,46.84857,46.76661,46.673874,46.55829,46.4339,46.261406,45.991985,45.689217,45.358837,44.973602,44.692802,44.53692,44.56849,44.878765,45.302124,45.938393,46.722023,47.354134,47.779255,48.03472,48.135174,48.208527,48.257248,48.281418,48.30449,48.327744,48.312893,48.256325,48.11739,47.877968,47.61987,47.31794,46.93995,46.57276,46.21073,45.737736,45.259384,44.849983,44.365692,43.93677,43.65354,43.42447,43.142014,42.836052,42.627373,42.478455,41.94604,40.69232,37.408775,33.467216,30.741074,28.560055,27.576176,27.483593,28.083597,30.72645,34.694008,40.034508,43.47175,43.909866,44.326324,44.733273,44.858994,44.635605,44.348625,43.985847,43.653503,43.39438,42.968285,42.416008,41.836266,41.15461,40.566414,40.09509,39.58425,39.093334,38.65166,38.102287,37.00551,35.55751,34.075592,31.946974,30.003614,29.124702,28.822342,29.211103,29.979342,31.14928,32.37505,33.28105,33.94957,34.419956,34.777626,35.06147,35.16854,35.1348,35.185646,35.120396,34.94893,34.795006,34.572674,34.372208,34.26399,34.162094,34.103676,34.090492,34.08588,34.106865,34.11315,34.053204,33.927063,33.731224,33.512268,33.048687,32.553543,32.26694,31.940666,31.592535,31.288105,31.124762,30.094131,28.653439,27.875837,27.168941,27.25359,28.222694,30.333473,32.354385,33.126335,33.45006,33.49015,33.50563,33.370304,33.170944,33.029217,32.991554,32.87284,32.57386,32.15033,31.522526,30.897682,30.50851,30.183355,30.014187,29.999552,30.020527,30.071068,30.10258,30.095774,30.024872,29.919025,29.838497,29.75974,29.696503,29.652206,29.598219,29.48946,29.329384,29.107718,28.821022,28.543442,28.25313,28.179752,28.39894,28.71055,29.125584,29.583134,29.915127,30.074394,30.03841,29.85088,29.57262,29.184685,28.83724,28.592035,28.419277,28.382692,28.420013,28.533302,28.717949,28.892075,29.0693,29.255383,29.398418,29.51219,29.606705,29.640194,29.628752,29.570807,29.456367,29.328798,29.158834,28.92622,28.688978,28.421871,28.066471,27.71151,27.405975,26.91835,26.344526,25.815332,25.382544,25.226948,25.291073,25.515594,25.89405,26.221182,26.406498,26.498108,26.501106,26.47694,26.440289,26.360252,26.234436,26.017044,25.77575,25.606464,25.42345,25.29867,25.27621,25.299444,25.458021,25.723352,26.028675,26.300411,26.442371,26.49435,26.522831,26.52483,26.520039,26.489536,26.435642,26.384007,26.341972
49.6191,49.556503,49.513725,49.524525,49.57833,49.66449,49.764206,49.834953,49.881195,49.940735,50.020233,50.11473,50.253265,50.39074,50.482964,50.55857,50.61905,50.688087,50.84648,51.219357,51.747795,52.372986,53.216057,53.904922,54.250664,54.458862,54.49777,54.48932,54.452316,54.42424,54.436806,54.474556,54.535477,54.588486,54.628616,54.61821,54.530968,54.40887,54.21751,53.93912,53.647186,53.319283,52.957348,52.645226,52.319656,51.95582,51.63604,51.345966,50.992355,50.65024,50.366623,50.03251,49.705425,49.45176,49.18315,48.917053,48.710136,48.51956,48.30558,48.108433,47.929817,47.70056,47.46497,47.264877,47.031334,46.810017,46.649384,46.487335,46.334137,46.218773,46.112457,45.991722,45.880707,45.78288,45.66335,45.54299,45.44127,45.30863,45.147095,44.992638,44.801056,44.53753,44.264328,43.98169,43.637836,43.365967,43.197952,43.19017,43.386024,43.640472,44.002674,44.437557,44.796288,45.11748,45.35977,45.48225,45.579666,45.69188,45.80668,45.91602,46.054134,46.165424,46.21733,46.203224,46.100582,45.962418,45.794632,45.572918,45.340107,45.09107,44.7287,44.330147,43.97531,43.556046,43.202705,42.99393,42.841866,42.676723,42.486706,42.3259,42.095863,41.423798,40.088417,36.902657,33.119198,30.406845,28.314503,27.429312,27.380306,28.028063,30.667786,34.55127,39.618565,43.02488,43.621918,43.9686,44.306633,44.42931,44.263615,44.053505,43.783592,43.526974,43.249187,42.898598,42.509796,41.9802,41.288376,40.67993,40.249374,39.74585,39.238937,38.796463,38.18654,36.999,35.486687,33.97074,31.838547,29.919004,29.095514,28.852615,29.275082,30.051956,31.26027,32.50389,33.373604,34.024475,34.480938,34.820496,35.074066,35.1595,35.127937,35.206474,35.129913,34.921566,34.75415,34.544518,34.37065,34.277954,34.19809,34.1461,34.122124,34.12422,34.1532,34.163467,34.1099,33.99047,33.79483,33.56651,33.112488,32.610115,32.28193,31.903164,31.521065,31.212772,31.025654,30.002724,28.594524,27.82458,27.143555,27.263447,28.258957,30.37387,32.396717,33.186737,33.522408,33.571648,33.59228,33.454803,33.251396,33.10694,33.067352,32.94495,32.65045,32.244297,31.630133,30.995628,30.576199,30.2166,30.01596,29.984692,29.995367,30.047684,30.09136,30.09776,30.041136,29.944458,29.86689,29.792923,29.733221,29.689892,29.637688,29.529835,29.36871,29.144238,28.850834,28.56397,28.263828,28.18124,28.395332,28.705536,29.116325,29.563675,29.885311,30.056684,30.03586,29.854277,29.577496,29.200481,28.86779,28.629665,28.462074,28.426231,28.461414,28.569176,28.74752,28.918037,29.09267,29.276735,29.418661,29.532425,29.626595,29.65895,29.645813,29.585901,29.472345,29.349033,29.188774,28.973528,28.754892,28.506163,28.171051,27.82661,27.50864,27.04362,26.482906,25.903828,25.42374,25.232555,25.275148,25.482067,25.87047,26.223286,26.400824,26.489197,26.499199,26.476393,26.435078,26.363224,26.27178,26.048645,25.789335,25.622208,25.44319,25.324078,25.30648,25.337242,25.50233,25.76583,26.059647,26.306816,26.42974,26.48235,26.51154,26.514465,26.51078,26.492136,26.457088,26.421465,26.392391
49.32242,49.2683,49.2358,49.25362,49.30828,49.391624,49.486496,49.553642,49.59771,49.656357,49.73661,49.832188,49.974693,50.12155,50.22604,50.314247,50.381065,50.443703,50.57344,50.86782,51.27893,51.758762,52.391083,52.938423,53.296093,53.49932,53.526516,53.513466,53.48358,53.47476,53.510864,53.58559,53.68888,53.777412,53.85276,53.888786,53.849117,53.767967,53.61872,53.389732,53.149994,52.857567,52.52426,52.23262,51.91014,51.534004,51.193466,50.884293,50.494247,50.10979,49.794052,49.422493,49.059364,48.778107,48.48065,48.18442,47.95157,47.734,47.488968,47.265102,47.06465,46.812073,46.558197,46.346123,46.100445,45.87097,45.706657,45.53916,45.377514,45.25235,45.13475,45.00174,44.880817,44.774918,44.644455,44.51265,44.402054,44.239838,44.04614,43.876526,43.680107,43.41975,43.150826,42.8648,42.535824,42.289803,42.14201,42.115967,42.265396,42.48232,42.69994,42.93568,43.139603,43.307137,43.42308,43.479626,43.535534,43.6177,43.7166,43.814934,43.938873,44.043533,44.10081,44.13954,44.141,44.115578,44.077835,44.00933,43.909573,43.776962,43.544693,43.253864,42.97612,42.6341,42.348824,42.196,42.097122,42.0406,41.971687,41.80997,41.55932,40.857918,39.395863,36.356133,32.819847,30.133919,28.116436,27.307117,27.293648,27.956959,30.53074,34.281395,39.122055,42.534073,43.303455,43.638596,43.893085,43.96472,43.858257,43.72271,43.54374,43.366013,43.13919,42.818176,42.455917,41.995674,41.37932,40.81348,40.39727,39.881634,39.347794,38.889908,38.22598,36.974922,35.425743,33.8823,31.744202,29.845375,29.071838,28.885693,29.351555,30.170801,31.358154,32.5755,33.47976,34.133537,34.574387,34.896748,35.109867,35.165672,35.133934,35.228462,35.14114,34.907654,34.73626,34.535416,34.37799,34.297207,34.2316,34.17978,34.14331,34.149315,34.184204,34.197628,34.149475,34.035942,33.84128,33.60687,33.15807,32.648228,32.289253,31.86731,31.45592,31.142017,30.919968,29.909187,28.550652,27.793777,27.14255,27.296791,28.312508,30.428703,32.44931,33.249565,33.58843,33.641838,33.66794,33.528484,33.320637,33.17397,33.137016,33.011467,32.72048,32.334488,31.73335,31.089785,30.644218,30.251987,30.0228,29.978271,29.978935,30.03099,30.083542,30.09987,30.054586,29.965744,29.891117,29.821537,29.765503,29.723896,29.67369,29.566854,29.404993,29.178303,28.87975,28.586704,28.28135,28.195225,28.407593,28.71623,29.123613,29.564695,29.880518,30.056026,30.042141,29.865318,29.59279,29.22543,28.90385,28.673134,28.50964,28.472807,28.504845,28.605963,28.777012,28.943174,29.113554,29.295866,29.438683,29.55337,29.64809,29.67986,29.665192,29.603348,29.490124,29.370049,29.217892,29.01773,28.81552,28.583326,28.265514,27.930548,27.608326,27.15332,26.59442,25.985325,25.468342,25.24451,25.267824,25.455135,25.850193,26.227455,26.397732,26.484,26.501488,26.479172,26.434156,26.370644,26.309978,26.082632,25.808235,25.643406,25.468645,25.35418,25.340189,25.380863,25.55267,25.810312,26.084515,26.311615,26.424473,26.477062,26.506548,26.510067,26.506924,26.494602,26.466557,26.436874,26.422516
48.79335,48.751682,48.73297,48.75969,48.815544,48.895973,48.985825,49.049553,49.092155,49.14987,49.22908,49.322617,49.4638,49.61322,49.723755,49.82228,49.896847,49.955673,50.060093,50.280403,50.57934,50.92119,51.364975,51.74962,52.006897,52.17591,52.22142,52.219383,52.211143,52.240616,52.321518,52.45569,52.63305,52.785385,52.91255,52.995735,52.9968,52.959328,52.867012,52.689354,52.481194,52.236298,51.944275,51.672165,51.366867,50.996574,50.647705,50.324562,49.90987,49.4971,49.1583,48.75929,48.368916,48.066254,47.746,47.42473,47.16904,46.926758,46.651825,46.401005,46.17811,45.90106,45.62764,45.402435,45.149055,44.913193,44.74058,44.573067,44.394394,44.234093,44.07646,43.904675,43.75792,43.632694,43.47513,43.310616,43.16821,42.984325,42.78257,42.614258,42.428024,42.197624,41.97129,41.736866,41.47031,41.26767,41.139328,41.08633,41.162903,41.30388,41.4569,41.583923,41.650414,41.707077,41.73812,41.751488,41.77971,41.836266,41.91138,41.985367,42.07602,42.15139,42.192986,42.227097,42.250793,42.266136,42.28183,42.28837,42.264885,42.205357,42.06538,41.864395,41.661255,41.41124,41.19866,41.08107,41.042915,41.105854,41.1581,40.998055,40.734566,40.052296,38.60759,35.79847,32.523575,29.887806,27.946222,27.203087,27.223154,27.890549,30.359053,33.928642,38.52025,41.94025,42.88414,43.165493,43.325535,43.36149,43.319454,43.268654,43.19314,43.106903,42.9794,42.73177,42.402756,41.98411,41.433178,40.917244,40.49796,39.98506,39.457623,39.0037,38.265038,36.936684,35.368538,33.752518,31.60789,29.782986,29.06771,28.936653,29.464159,30.393898,31.558973,32.707043,33.630478,34.30271,34.736977,35.023026,35.178642,35.19407,35.157204,35.249027,35.150307,34.90425,34.730816,34.537746,34.39335,34.321396,34.262077,34.205566,34.158066,34.165604,34.205933,34.22428,34.18178,34.0748,33.881977,33.642437,33.191956,32.671234,32.28866,31.819221,31.375366,31.059734,30.80389,29.814888,28.521488,27.788553,27.193844,27.397808,28.414999,30.519436,32.533165,33.343735,33.674034,33.723705,33.75747,33.61499,33.400795,33.251472,33.22039,33.09294,32.809566,32.45497,31.870256,31.215258,30.74118,30.311888,30.04873,29.987066,29.975418,30.025562,30.085852,30.110872,30.075531,29.993153,29.920273,29.852287,29.79869,29.760315,29.712132,29.60634,29.444117,29.215223,28.911926,28.613708,28.304415,28.217958,28.431301,28.738531,29.142925,29.57772,29.887089,30.065086,30.054047,29.87896,29.614769,29.26004,28.950224,28.728271,28.569248,28.530575,28.55828,28.650536,28.811699,28.971785,29.13712,29.317432,29.461494,29.578434,29.675259,29.7074,29.691479,29.627644,29.514498,29.397514,29.253803,29.070171,28.88647,28.673866,28.373459,28.046717,27.722956,27.28714,26.73743,26.096687,25.532326,25.265614,25.267979,25.428795,25.828646,26.23499,26.397448,26.48292,26.510908,26.490479,26.442162,26.377735,26.324833,26.110802,25.843193,25.673792,25.503796,25.39812,25.391497,25.440155,25.617306,25.868465,26.119827,26.322317,26.422182,26.474846,26.50447,26.50854,26.50567,26.494019,26.471455,26.449116,26.43654
47.96157,47.93628,47.93426,47.971123,48.028336,48.10568,48.190536,48.251266,48.293,48.34924,48.424606,48.511826,48.64396,48.786415,48.894962,48.996887,49.076294,49.132782,49.21646,49.37307,49.574715,49.79827,50.08316,50.322018,50.46952,50.58612,50.63648,50.64598,50.662514,50.72766,50.84069,51.006783,51.233315,51.44192,51.62216,51.773064,51.83972,51.855293,51.82215,51.704956,51.550087,51.364864,51.1251,50.885864,50.61836,50.275517,49.935474,49.616318,49.201668,48.784126,48.438667,48.03013,47.627632,47.31349,46.979588,46.640804,46.367096,46.103546,45.800476,45.52266,45.276855,44.973713,44.680233,44.44418,44.182236,43.936775,43.74934,43.533558,43.29497,43.0917,42.89805,42.692474,42.5224,42.381195,42.20606,42.025368,41.86934,41.683716,41.49154,41.33589,41.169502,40.976654,40.798164,40.621628,40.42144,40.262962,40.154015,40.081833,40.091904,40.153793,40.241463,40.30354,40.310272,40.31733,40.316055,40.310898,40.303764,40.32095,40.35987,40.397995,40.4401,40.46902,40.4795,40.482983,40.48999,40.505966,40.530205,40.559956,40.570816,40.553963,40.476788,40.345474,40.205853,40.029854,39.878967,39.798126,39.79895,39.914234,40.023052,39.930317,39.666656,38.98551,37.690548,35.152172,32.146862,29.676933,27.838118,27.13784,27.186855,27.845623,30.164158,33.49225,37.78855,41.180237,42.277107,42.479424,42.54849,42.562943,42.57762,42.60581,42.645103,42.677544,42.685528,42.534348,42.237686,41.854477,41.362713,40.900475,40.494232,40.009434,39.505447,39.05329,38.28469,36.895195,35.263412,33.538364,31.384125,29.66017,29.014545,28.960855,29.559566,30.565163,31.734848,32.868156,33.830894,34.542213,34.956703,35.169308,35.283417,35.26915,35.21305,35.285194,35.172577,34.924446,34.7554,34.568943,34.43325,34.369774,34.298355,34.22516,34.172028,34.177715,34.22033,34.243473,34.2073,34.10692,33.915268,33.67045,33.214607,32.6755,32.261578,31.744894,31.271309,30.95568,30.673864,29.718262,28.501823,27.808273,27.266483,27.517918,28.565052,30.64263,32.63266,33.470493,33.78224,33.81841,33.8627,33.71649,33.493942,33.341076,33.318153,33.19487,32.922127,32.59312,32.042725,31.390497,30.879116,30.406202,30.102089,30.01802,29.990253,30.035053,30.10026,30.131115,30.102636,30.024042,29.950722,29.88147,29.828922,29.79443,29.748238,29.643925,29.48222,29.25143,28.945293,28.643888,28.329866,28.245918,28.464954,28.773739,29.1772,29.606441,29.90915,30.088114,30.07695,29.901503,29.647228,29.306414,29.008743,28.796358,28.64161,28.599586,28.62107,28.701576,28.848665,28.999046,29.159283,29.338165,29.483908,29.60499,29.706264,29.74033,29.723686,29.657845,29.544178,29.429668,29.294254,29.128527,28.965862,28.77623,28.496328,28.179792,27.857708,27.437283,26.894669,26.233196,25.616682,25.294073,25.26817,25.399296,25.805958,26.244976,26.39887,26.482506,26.521265,26.504002,26.454887,26.385365,26.324684,26.132538,25.884472,25.707958,25.545368,25.452633,25.4561,25.512844,25.698647,25.944294,26.16164,26.33359,26.42052,26.473078,26.50236,26.506958,26.504948,26.494553,26.476257,26.458437,26.444468
47.02658,47.0166,47.029053,47.073963,47.131866,47.2062,47.286747,47.345104,47.386326,47.440582,47.510345,47.588955,47.707344,47.83612,47.936172,48.033623,48.11251,48.16719,48.238026,48.354584,48.49481,48.644814,48.828957,48.97895,49.07049,49.140686,49.17362,49.187637,49.219902,49.302147,49.42099,49.581024,49.81024,50.038757,50.24637,50.45408,50.58611,50.64866,50.66505,50.610176,50.52472,50.39997,50.215668,50.020927,49.800827,49.49999,49.186462,48.890152,48.499706,48.100464,47.766335,47.36786,46.969925,46.655388,46.317764,45.969734,45.683907,45.404892,45.08018,44.78105,44.517113,44.1932,43.884995,43.64344,43.372284,43.105698,42.886612,42.601097,42.29664,42.065155,41.856674,41.637466,41.45659,41.30928,41.133804,40.961746,40.818424,40.647057,40.470695,40.329575,40.18168,40.015335,39.865913,39.722466,39.56038,39.427948,39.330994,39.251423,39.221832,39.228493,39.23899,39.252655,39.261536,39.265865,39.270355,39.26902,39.24508,39.238472,39.25003,39.25707,39.25901,39.249794,39.23381,39.212173,39.19937,39.203476,39.21917,39.24548,39.26237,39.26227,39.215347,39.12169,39.01848,38.88007,38.767776,38.722427,38.733284,38.83014,38.927193,38.928802,38.667896,37.966446,36.86936,34.576675,31.804401,29.552853,27.817345,27.134037,27.201193,27.84777,30.023624,33.109245,37.048264,40.350677,41.58107,41.71135,41.72308,41.734184,41.777138,41.85652,41.992996,42.13772,42.23742,42.161064,41.91365,41.572697,41.130383,40.716194,40.35388,39.91596,39.450836,39.02835,38.27192,36.824905,35.083054,33.186615,31.00425,29.413439,28.84861,28.885344,29.550343,30.582832,31.799873,32.9964,34.01915,34.768517,35.144707,35.271782,35.36783,35.350597,35.28455,35.33882,35.21469,34.969284,34.81109,34.633568,34.50194,34.438988,34.3447,34.249947,34.19394,34.19455,34.23406,34.25732,34.22313,34.12858,33.939453,33.68839,33.228043,32.666985,32.212616,31.658703,31.16446,30.847721,30.553843,29.633762,28.484657,27.834366,27.323738,27.605507,28.706581,30.756992,32.717377,33.589935,33.883865,33.905037,33.95926,33.80963,33.57937,33.42163,33.399338,33.289562,33.034126,32.711475,32.207466,31.576345,31.027569,30.514635,30.170822,30.062582,30.01828,30.05521,30.120955,30.153214,30.126745,30.048248,29.972294,29.899776,29.84684,29.815334,29.770552,29.667768,29.50716,29.275639,28.96651,28.661648,28.344938,28.26532,28.49325,28.808756,29.214645,29.640238,29.937412,30.11776,30.105167,29.926983,29.680347,29.35098,29.063301,28.858437,28.706556,28.660542,28.675314,28.743847,28.876,29.015419,29.171246,29.349611,29.497541,29.623726,29.731003,29.768463,29.751999,29.68475,29.570078,29.4567,29.327393,29.176926,29.03334,28.864983,28.605556,28.30064,27.983477,27.56498,27.01973,26.355446,25.695835,25.3182,25.263565,25.37183,25.784302,26.24664,26.396845,26.479713,26.525093,26.51132,26.46357,26.388506,26.314419,26.136662,25.905819,25.726904,25.57436,25.495863,25.509499,25.57486,25.764593,26.000427,26.189148,26.33762,26.415678,26.467628,26.497025,26.503023,26.502636,26.49561,26.480492,26.463978,26.45042
46.109955,46.112587,46.13615,46.186455,46.24402,46.315086,46.39128,46.44704,46.48755,46.539276,46.6028,46.672455,46.776226,46.889557,46.978943,47.068867,47.144707,47.197628,47.2604,47.352135,47.454086,47.55844,47.67982,47.77336,47.82744,47.868843,47.892662,47.910248,47.94922,48.038193,48.159206,48.31891,48.544422,48.76873,48.9729,49.187332,49.34246,49.4365,49.504997,49.516014,49.488808,49.42839,49.309372,49.16504,48.990906,48.739693,48.467003,48.201466,47.84315,47.470245,47.156204,46.776955,46.391396,46.081738,45.744846,45.390636,45.094727,44.8033,44.46195,44.14696,43.869366,43.5308,43.212616,42.967243,42.69206,42.38446,42.0962,41.791298,41.48027,41.237167,41.016403,40.783966,40.593594,40.440094,40.2629,40.09693,39.963753,39.806187,39.64643,39.519897,39.38778,39.240925,39.110977,38.988846,38.850113,38.73266,38.641884,38.555855,38.500793,38.474022,38.442017,38.411057,38.387985,38.368904,38.35717,38.358738,38.375977,38.396408,38.397507,38.373043,38.339424,38.299377,38.2623,38.21975,38.18779,38.178154,38.186096,38.208115,38.225243,38.229633,38.196358,38.123466,38.040512,37.935448,37.857605,37.833984,37.85405,37.949394,38.04601,38.07133,37.79982,37.118374,36.188515,34.151314,31.612906,29.506641,27.84349,27.173176,27.251476,27.89098,29.956263,32.816498,36.26854,39.433853,40.858227,40.9381,40.921635,40.93892,40.987328,41.099327,41.31978,41.563408,41.660645,41.61429,41.457634,41.1755,40.792107,40.433567,40.134712,39.74285,39.341816,39.03177,38.262245,36.71045,34.85727,32.671745,30.419472,29.033615,28.57779,28.705135,29.436573,30.542408,31.829292,33.089287,34.174477,34.936478,35.261337,35.319347,35.384663,35.385895,35.358,35.410545,35.2762,35.029293,34.88719,34.728065,34.59871,34.518524,34.405342,34.2936,34.228035,34.22145,34.25393,34.271862,34.23416,34.14783,33.965553,33.703606,33.240196,32.658813,32.1606,31.57645,31.06614,30.74563,30.446133,29.558582,28.464859,27.850561,27.367107,27.67332,28.813192,30.850197,32.793488,33.688107,33.969334,33.98079,34.042694,33.890175,33.6539,33.48888,33.45175,33.364235,33.139297,32.810173,32.354378,31.752993,31.171196,30.624264,30.243572,30.110126,30.050644,30.079174,30.142712,30.173424,30.145584,30.064798,29.985256,29.908905,29.854965,29.825562,29.781666,29.680016,29.520336,29.289368,28.972328,28.659689,28.348001,28.274014,28.510323,28.837362,29.24841,29.671572,29.963942,30.147633,30.133139,29.949316,29.70845,29.388577,29.108994,28.909443,28.7593,28.7094,28.717817,28.77511,28.893566,29.023136,29.174267,29.352259,29.503181,29.634586,29.748398,29.790031,29.774292,29.706146,29.59026,29.477036,29.351925,29.213974,29.086975,28.937275,28.696724,28.403614,28.094576,27.666702,27.108887,26.453053,25.759134,25.333439,25.256235,25.349483,25.761452,26.231932,26.387463,26.474522,26.522493,26.512413,26.465544,26.384563,26.298616,26.122051,25.899319,25.725187,25.584541,25.520384,25.543856,25.61987,25.796844,26.008278,26.192154,26.334068,26.406641,26.456808,26.488163,26.497787,26.499317,26.493881,26.480429,26.46534,26.452522
44.95656,44.971375,45.00486,45.05893,45.114845,45.181263,45.251793,45.304047,45.34318,45.391357,45.447014,45.505703,45.59142,45.685143,45.760345,45.838913,45.908943,45.959442,46.01571,46.088875,46.16256,46.233437,46.309956,46.365215,46.39622,46.42256,46.445354,46.469017,46.514557,46.603436,46.715378,46.859573,47.060165,47.260956,47.44732,47.65683,47.828217,47.948685,48.06247,48.13415,48.163597,48.17025,48.125046,48.04191,47.926697,47.740303,47.52275,47.30265,46.998283,46.673767,46.395668,46.052963,45.694492,45.399345,45.070885,44.714573,44.409676,44.107407,43.75168,43.42315,43.133385,42.785072,42.46115,42.212807,41.895756,41.537384,41.224667,40.90747,40.58958,40.340904,40.11866,39.883965,39.690765,39.535347,39.358646,39.197216,39.07058,38.922142,38.76807,38.64183,38.515404,38.379776,38.262165,38.151707,38.022484,37.90599,37.809296,37.706726,37.62774,37.579594,37.5281,37.484993,37.456055,37.419746,37.386177,37.3718,37.380005,37.39389,37.38955,37.35872,37.306984,37.242226,37.18529,37.12744,37.0999,37.106358,37.1054,37.112568,37.1228,37.129013,37.10694,37.05258,36.988384,36.90796,36.8557,36.85178,36.885365,36.982994,37.077896,37.11767,36.86489,36.247597,35.476974,33.722237,31.455551,29.498985,27.915123,27.258327,27.340637,27.968243,29.910519,32.515057,35.38887,38.360626,39.978695,39.99598,39.95169,39.97458,40.01069,40.163986,40.419052,40.64932,40.7517,40.75975,40.69053,40.496292,40.200783,39.912296,39.68255,39.365326,39.059563,38.872383,38.062054,36.36119,34.361572,31.749346,29.425941,28.380142,28.029753,28.266441,29.120049,30.355541,31.748104,33.106617,34.31167,35.08793,35.359325,35.373985,35.41541,35.40029,35.371803,35.458427,35.353645,35.118065,34.981102,34.835182,34.706802,34.606842,34.491863,34.37657,34.297424,34.280243,34.301422,34.303238,34.228065,34.136456,33.973244,33.71428,33.254898,32.64743,32.09258,31.468513,30.934517,30.605072,30.293243,29.440916,28.416645,27.85976,27.413816,27.738304,28.90518,30.931618,32.859238,33.764984,34.04751,34.061234,34.12743,33.970844,33.72941,33.55671,33.49463,33.438583,33.25908,32.92193,32.501564,31.929047,31.3335,30.754738,30.331192,30.166552,30.088215,30.102478,30.158134,30.184837,30.154747,30.071121,29.98607,29.904205,29.847977,29.819857,29.776405,29.675587,29.516758,29.28783,28.960627,28.63472,28.321709,28.260662,28.51804,28.86086,29.280006,29.701317,29.988552,30.178646,30.161354,29.967531,29.732502,29.42287,29.151361,28.955688,28.806744,28.75241,28.75301,28.797033,28.899647,29.017708,29.160828,29.338757,29.496365,29.634556,29.75768,29.806515,29.793484,29.725643,29.608328,29.494339,29.372639,29.24754,29.138659,29.009964,28.792236,28.513912,28.212114,27.77613,27.206223,26.554829,25.822231,25.344755,25.242647,25.319826,25.727629,26.20193,26.368599,26.4641,26.513544,26.505165,26.457989,26.368414,26.264843,26.076548,25.857342,25.697878,25.575163,25.52997,25.56594,25.653637,25.816486,26.001547,26.18053,26.317455,26.387705,26.439663,26.473019,26.48507,26.488853,26.486153,26.47593,26.463331,26.451923
