49.267235,48.927803,48.645973,48.89523,49.50013,50.482277,51.47433,52.21443,52.71904,53.039734,53.05024,52.766205,52.2939,51.80381,50.793987,48.702812,45.631897,42.216972,38.857178,36.741634,35.48256,34.88453,34.73874,34.92645,35.702526,37.231743,40.363255,48.398148,58.262306,63.385384,63.64323,64.80294,64.83941,64.78735,64.79741,64.9513,65.18286,65.32394,65.260574,64.98891,63.804493,58.36907,49.061047,41.35983,38.261017,37.813007,38.54312,40.78247,43.466656,46.436882,48.95948,50.905663,52.669548,54.173172,55.253662,56.193768,56.643974,56.977394,57.165344,56.8536,55.79384,53.26169,49.472908,45.19918,41.955635,40.653534,41.01248,42.54442,45.57007,48.1408,50.654793,52.0344,52.407875,52.49234,52.43005,52.002457,51.50386,50.943596,50.33972,49.547256,48.63578,48.037544,48.17475,49.018257,50.773567,52.89987,54.46477,55.640404,56.556755,56.58712,56.614113,56.49048,51.780457,43.94866,37.65703,34.87366,33.667236,32.700085,31.616436,30.30848,29.12511,28.344185,27.930744,27.722176,27.678337,27.649057,27.632442,27.608917,27.581818,27.563772,27.556541,27.550858,27.536892,27.512287,27.481827,27.458572,27.454725,27.474173,27.51149,27.556606,27.606703,27.655472,27.704433,27.75112,27.791622,27.82521,27.849377,27.868198,27.881388,27.890915,27.900074,27.912144,27.927448,27.94156,27.952438,27.956026,27.952106,27.942142,27.92841,27.913002,27.897532,27.884773,27.87003,27.8534,27.833689,27.813223,27.795462,27.780693,27.768295,27.753435,27.734173,27.710052,27.68415,27.661915,27.646744,27.636932,27.630135,27.624584,27.621103,27.625473,27.64254,27.671421,27.707909,27.749083,27.80559,27.896152,28.044975,28.278854,28.615421,29.048029,29.565672,30.195667,30.87183,31.506172,32.030346,32.428574,32.72306,32.92254,33.01761,33.014614,32.94423,32.960793,33.15818,33.602837,34.634014,36.42256,39.817604,42.396942,43.816177,44.766014,45.16091,45.18885,45.10769,45.08286,45.103607,45.172146,45.265503,45.340767,45.412407,45.56689,45.934433,46.63246,47.794483,49.540764,51.89296,54.6026,57.049408,59.457935,60.925377,62.36696,63.978767,64.71884,64.00102,62.63966,55.953163,44.70177,37.65199,35.52351,34.643967,34.210236,33.984146,33.525887,32.76706,31.673857,30.419147,29.184101,28.074696,27.20644,26.612688,26.230831,26.02111,25.914307,25.839737,25.775791,25.749123,25.749252,25.754156,25.757603,25.762974,25.775578,25.79773,25.827679,25.859785,25.890068,25.918436,25.943253,25.962027,25.970226,25.965126,25.950949,25.932041,25.915966,25.913239,25.923439,25.93945,25.953693,25.959595,25.954153,25.94216,25.918697,25.884226,25.843094,25.805893,25.786366,25.784885,25.80435,25.870321,25.974888,26.088348,26.178936,26.226748,26.228634,26.202772,26.225613,26.26227,26.28111,26.514727,27.314713,28.804548,32.490913,39.09562,44.471985,46.161118,45.88212,46.053806,46.17964,46.340137,46.380646,46.41942,46.458755,46.416546,46.236103,45.935658,45.583206,45.221756,45.01024,45.261044,46.302315,48.206955,50.542313,52.439667,53.671314,54.302593,54.32624,54.072952,53.836716,53.655266,53.597633
48.83974,48.490322,48.222466,48.50745,49.166485,50.23626,51.301834,52.08648,52.61924,52.942116,52.90541,52.63163,52.18766,51.622368,50.865524,49.0839,45.927483,42.708916,38.945778,36.68036,35.37562,34.7732,34.632072,34.777153,35.45797,36.89273,39.73166,47.409973,57.827667,63.731968,63.87008,64.52379,64.658195,64.719284,64.80071,64.92955,65.05564,65.1133,65.032814,64.68927,63.988632,58.723343,49.493614,41.50069,38.000774,37.568687,38.207886,40.41588,43.19895,46.38641,49.13833,51.236305,53.014465,54.389107,55.48934,56.366844,56.755974,57.065998,57.28697,56.988754,55.835342,53.297375,49.483986,45.311333,41.957603,40.50997,40.923664,42.493706,45.394135,48.05861,50.525303,51.896694,52.289787,52.359432,52.314796,51.966824,51.468887,50.895325,50.272606,49.563828,48.751396,48.157772,48.33613,49.183357,50.89586,52.824234,54.313904,55.491524,56.298645,56.22551,56.211784,56.139236,50.582222,42.120583,36.25008,34.22534,33.188236,32.42341,31.545523,30.390926,29.242723,28.431194,27.992638,27.771458,27.720882,27.691933,27.678131,27.65822,27.631483,27.607132,27.587639,27.568073,27.54241,27.509499,27.47641,27.456179,27.45914,27.486814,27.531853,27.583315,27.63895,27.69234,27.745071,27.794992,27.838467,27.874855,27.901594,27.923052,27.939043,27.951263,27.962833,27.976963,27.993776,28.008606,28.019854,28.023048,28.017906,28.00613,27.99024,27.97258,27.955023,27.940128,27.922955,27.90366,27.881344,27.858746,27.839718,27.82454,27.811813,27.795937,27.774498,27.746132,27.713955,27.684101,27.660667,27.642944,27.629822,27.620842,27.618427,27.628376,27.653444,27.68975,27.730972,27.773952,27.82931,27.917328,28.0654,28.299805,28.639206,29.082655,29.610188,30.245838,30.898396,31.480122,31.943714,32.293835,32.559742,32.74804,32.862946,32.889893,32.812218,32.787308,32.957138,33.376892,34.258823,35.809402,39.267708,42.100452,43.77879,44.884815,45.32377,45.365997,45.212334,45.110035,45.091022,45.136692,45.209625,45.27333,45.325104,45.445206,45.758232,46.379578,47.44745,49.06723,51.270454,53.848953,56.13469,58.352634,59.822456,60.842766,61.96878,62.791855,62.371475,60.897697,54.00992,43.34076,36.94011,35.113853,34.37422,34.0941,33.971085,33.536964,32.699898,31.563272,30.189707,28.812122,27.703777,26.868492,26.350834,26.070366,25.940716,25.855501,25.784008,25.742546,25.722229,25.71391,25.709536,25.709713,25.720142,25.742886,25.775993,25.8157,25.854967,25.89198,25.92724,25.957958,25.980984,25.992943,25.992653,25.983986,25.9704,25.958584,25.95773,25.96788,25.9838,25.998638,26.00491,26.003172,25.998112,25.984093,25.959362,25.92474,25.883492,25.843895,25.818884,25.815956,25.849453,25.922075,26.021591,26.12355,26.201118,26.237946,26.236637,26.221285,26.251247,26.240326,26.256603,26.614384,27.520744,29.134201,34.874847,42.027534,45.756992,45.87829,45.73928,45.923145,45.997944,46.097588,46.212288,46.37976,46.416405,46.206543,45.958084,45.595367,45.210175,44.984108,45.199295,46.152782,47.831554,49.778137,51.433838,52.534218,53.039528,53.05332,52.863346,52.695465,52.581673,52.474197
48.48581,48.174095,47.948765,48.284973,49.01841,50.161568,51.25235,52.04345,52.593407,52.898384,52.76313,52.505333,52.076637,51.461548,50.968773,49.46028,46.171707,43.0999,38.987442,36.595734,35.261948,34.664806,34.530296,34.634396,35.219116,36.555313,39.124146,46.235664,57.152626,63.872032,63.904545,64.2957,64.504616,64.54204,64.628105,64.770096,64.918015,65.00887,64.90976,64.43521,64.082825,59.149876,50.005695,41.68388,37.820793,37.368416,37.90852,40.028328,42.922905,46.34024,49.28144,51.4861,53.302605,54.620758,55.747986,56.49781,56.836216,57.141354,57.38163,57.093407,55.875313,53.407787,49.54004,45.47849,41.99267,40.352394,40.78567,42.367535,45.187714,47.91827,50.353596,51.81628,52.255436,52.259315,52.241936,51.97872,51.497902,50.93023,50.29058,49.67257,49.011414,48.48311,48.67807,49.49234,51.151527,52.781464,54.15087,55.334953,56.023903,55.887154,55.78286,55.719276,49.38069,40.59253,35.184517,33.64821,32.773247,32.19364,31.487907,30.476604,29.364573,28.513382,28.045055,27.826075,27.769043,27.752592,27.744608,27.724773,27.691936,27.654451,27.617407,27.58109,27.543331,27.503584,27.470284,27.455544,27.467163,27.504025,27.557102,27.614925,27.67596,27.733767,27.789951,27.842651,27.888502,27.926964,27.955544,27.978888,27.997017,28.01146,28.025124,28.041006,28.058933,28.07405,28.085297,28.088144,28.082336,28.069712,28.052727,28.03364,28.014488,27.99762,27.977955,27.955881,27.931097,27.90693,27.887617,27.87335,27.861832,27.846733,27.825012,27.794117,27.756893,27.719967,27.688148,27.66198,27.641647,27.62782,27.624561,27.637873,27.668941,27.711473,27.757347,27.803139,27.859009,27.946186,28.092764,28.326052,28.66716,29.116726,29.649323,30.284328,30.906647,31.43314,31.843857,32.15815,32.399464,32.587555,32.734386,32.810745,32.76275,32.693672,32.803013,33.224182,34.00032,35.381424,38.807545,41.82063,43.76372,45.006187,45.43554,45.5528,45.379696,45.19906,45.115112,45.12319,45.17254,45.222332,45.26179,45.362667,45.641956,46.21766,47.230087,48.772396,50.817303,53.1332,55.263588,57.23018,58.66681,59.59218,60.28916,60.651707,60.30939,59.468918,52.3004,42.16582,36.369747,34.799995,34.184692,34.031906,34.00389,33.566456,32.665802,31.460815,29.966377,28.471653,27.357342,26.568562,26.135387,25.954739,25.880077,25.813652,25.757587,25.73305,25.715954,25.69868,25.68749,25.687048,25.70327,25.734167,25.773848,25.817686,25.859253,25.89943,25.936626,25.968138,25.992077,26.00607,26.00902,26.00441,25.994999,25.986439,25.98648,25.995306,26.009,26.022594,26.03033,26.032513,26.031124,26.023129,26.007505,25.982668,25.948267,25.90908,25.872265,25.845768,25.848192,25.889296,25.96662,26.064047,26.155964,26.219252,26.245987,26.238934,26.225435,26.20997,26.183868,26.26588,26.755287,27.64963,31.210724,38.32511,44.37172,46.052216,45.486145,45.74682,45.80212,45.77498,45.922653,46.18595,46.28433,46.14199,45.95974,45.67144,45.299644,45.057213,45.238388,46.068,47.46688,49.049156,50.44309,51.34395,51.74257,51.73739,51.605835,51.507572,51.382133,51.187706
48.239986,48.005394,47.853455,48.25725,49.08915,50.248344,51.310913,52.089905,52.63835,52.89673,52.645855,52.404053,51.975563,51.366215,50.941536,49.55028,46.359314,43.31568,38.97254,36.494457,35.15703,34.573822,34.437447,34.509056,35.02302,36.228672,38.569977,45.088875,56.287636,63.64866,63.718224,64.156204,64.50043,64.49165,64.55388,64.70787,64.88481,65.022095,64.91676,64.22864,64.0387,59.45304,50.435753,41.913673,37.79506,37.24068,37.68891,39.675686,42.679153,46.31581,49.38273,51.687782,53.632656,54.8918,55.97947,56.519257,56.867825,57.22403,57.426247,57.12492,55.98124,53.591003,49.678432,45.64843,42.05395,40.24655,40.62885,42.196606,44.947304,47.728004,50.164867,51.714977,52.205208,52.17748,52.192917,52.017517,51.56809,51.03053,50.41356,49.820877,49.268997,48.893566,49.08393,49.89055,51.449238,52.82129,54.03453,55.144234,55.727764,55.551666,55.304955,55.110275,47.946434,39.19989,34.43577,33.16446,32.4328,32.02505,31.44323,30.570688,29.486826,28.592117,28.10394,27.887829,27.823277,27.824171,27.826992,27.804638,27.75838,27.701002,27.641897,27.587246,27.538134,27.493952,27.46333,27.456268,27.477428,27.523296,27.583855,27.647465,27.713299,27.775005,27.834167,27.88903,27.93642,27.975956,28.00534,28.029522,28.048801,28.064724,28.080044,28.09736,28.11607,28.131256,28.142324,28.145136,28.139587,28.127445,28.110703,28.091183,28.071041,28.052526,28.030468,28.00576,27.978924,27.953953,27.935396,27.92326,27.91437,27.90168,27.881573,27.850098,27.809418,27.766308,27.72627,27.691223,27.662561,27.642006,27.635162,27.648449,27.682201,27.72884,27.77922,27.829557,27.889286,27.979876,28.12582,28.35756,28.700819,29.151188,29.68252,30.303577,30.894863,31.375694,31.741709,32.024597,32.247646,32.439507,32.619827,32.747272,32.745625,32.674507,32.718422,33.062912,33.82616,35.059444,38.398956,41.55133,43.74589,45.103294,45.490067,45.664387,45.57494,45.348583,45.194096,45.162205,45.191086,45.22284,45.243813,45.33131,45.592987,46.146923,47.126823,48.621624,50.517395,52.51243,54.46454,56.152695,57.47361,58.427277,59.01819,59.1921,58.85607,57.832455,50.67138,41.168015,35.92562,34.572395,34.06141,34.0215,34.069313,33.611687,32.666428,31.358595,29.737093,28.16047,27.044363,26.319721,25.96889,25.873692,25.82069,25.7748,25.753433,25.736,25.710812,25.686577,25.670958,25.671211,25.691917,25.726818,25.767164,25.809322,25.849665,25.887442,25.922138,25.952164,25.975758,25.990587,25.995823,25.99437,25.988327,25.98233,25.982693,25.98957,26.00002,26.01041,26.016422,26.018555,26.019188,26.016605,26.007896,25.990173,25.962318,25.926998,25.891224,25.858387,25.844229,25.861885,25.915516,25.997091,26.087559,26.163883,26.217659,26.236242,26.233515,26.21463,26.176533,26.167522,26.333727,27.100056,28.369957,34.318523,42.252728,46.103413,45.38668,45.58629,45.666626,45.61452,45.576393,45.77881,46.057808,46.079094,45.866035,45.68953,45.417793,45.185905,45.321594,45.973427,47.052383,48.337486,49.46736,50.212395,50.51925,50.508804,50.433784,50.322952,50.068893,49.84722
48.081535,47.928215,47.899117,48.390907,49.347847,50.45948,51.428345,52.214455,52.746853,52.8383,52.55783,52.330776,51.891266,51.28044,50.874397,49.565865,46.491158,43.405014,38.928085,36.37798,35.06835,34.51026,34.357445,34.410473,34.873512,35.89556,38.06251,44.108124,54.989853,62.779976,63.569874,64.10188,64.66308,64.57309,64.57201,64.711105,64.89161,65.06897,64.984406,64.078766,63.736267,59.57019,50.687965,42.02567,37.806755,37.168877,37.584076,39.342506,42.433914,46.271038,49.47664,51.898514,53.947372,55.13999,56.109848,56.54567,56.893715,57.25688,57.4209,57.17653,56.241714,53.77307,49.84601,45.69462,42.05801,40.19915,40.463264,41.995857,44.686436,47.500397,49.956863,51.554085,52.103386,52.105225,52.13736,52.017414,51.608368,51.17439,50.619133,50.04384,49.573578,49.336544,49.553207,50.36374,51.72666,52.864693,53.896088,54.862614,55.368935,55.197773,54.72884,53.941505,45.88752,37.72101,33.922005,32.7632,32.197517,31.932194,31.449772,30.683773,29.616484,28.681097,28.175865,27.96534,27.890305,27.901703,27.922504,27.897171,27.83104,27.749353,27.665882,27.592712,27.53355,27.486977,27.46092,27.46262,27.493336,27.54739,27.614277,27.68254,27.752083,27.816698,27.878155,27.93419,27.98163,28.020973,28.050137,28.074265,28.093948,28.110743,28.127172,28.145489,28.164822,28.18027,28.191576,28.194769,28.189827,28.17862,28.163132,28.144722,28.124733,28.105349,28.081188,28.053978,28.02536,28.000116,27.983088,27.97406,27.968872,27.959808,27.942732,27.91241,27.869917,27.821743,27.774057,27.730213,27.692657,27.664024,27.651335,27.661446,27.694483,27.742567,27.796139,27.851263,27.916553,28.01306,28.160759,28.392159,28.737106,29.18634,29.711533,30.309206,30.863419,31.310215,31.64591,31.90036,32.111313,32.309372,32.515957,32.68457,32.748657,32.70147,32.68182,32.93814,33.665085,34.816414,37.89593,41.206947,43.7535,45.184048,45.480286,45.720154,45.704643,45.5346,45.34104,45.25898,45.27202,45.2804,45.28457,45.35563,45.60662,46.153625,47.109566,48.56814,50.318703,51.956352,53.722984,55.097786,56.261696,57.18538,57.740997,57.894608,57.53354,56.05713,49.149384,40.31459,35.566727,34.405163,33.998817,34.066925,34.157448,33.655144,32.684837,31.256184,29.491611,27.864727,26.784655,26.121983,25.848743,25.825186,25.789278,25.755455,25.754318,25.736809,25.703875,25.673256,25.654604,25.65622,25.68032,25.716396,25.754211,25.79224,25.827969,25.859999,25.890308,25.91774,25.940132,25.95515,25.962105,25.963196,25.959927,25.955997,25.956337,25.961071,25.968096,25.974934,25.978497,25.979473,25.98028,25.980553,25.978079,25.969788,25.952972,25.92687,25.89361,25.856514,25.83311,25.83611,25.871151,25.933584,26.01221,26.10086,26.174885,26.22578,26.245571,26.225954,26.1823,26.141457,26.13072,26.578846,27.43998,31.359612,39.309467,45.414215,45.40907,45.36664,45.480247,45.40639,45.3537,45.37216,45.62979,45.94512,45.73475,45.568146,45.419975,45.24037,45.282238,45.76653,46.626354,47.59601,48.477325,49.100716,49.363674,49.36017,49.203568,48.94886,48.667282,48.477535
47.989014,47.931335,48.07129,48.69306,49.66848,50.719746,51.673676,52.3608,52.743835,52.85424,52.578983,52.294266,51.81742,51.201508,50.799416,49.55664,46.59076,43.443947,38.842842,36.268463,34.986214,34.443268,34.285675,34.321583,34.723488,35.62317,37.592407,43.15464,53.78163,61.96787,63.399517,64.12367,64.66115,64.61032,64.57161,64.639465,64.754105,64.89495,64.83531,63.986374,63.203857,59.436935,50.889435,42.20687,37.858814,37.107628,37.475494,38.982777,42.15776,46.142883,49.516975,52.077095,54.16681,55.362305,56.07956,56.529026,56.897045,57.24221,57.376472,57.179657,56.436516,54.052094,50.0567,45.743645,42.051155,40.168045,40.323704,41.749058,44.394188,47.23285,49.710503,51.3646,51.989914,52.009434,52.02334,52.003887,51.63454,51.29467,50.879578,50.387363,49.98706,49.875362,50.13463,50.796173,51.81504,52.810886,53.71842,54.49051,54.84401,54.560863,54.029434,51.871796,43.735695,36.593338,33.538666,32.484764,32.07216,31.912827,31.5247,30.814255,29.768688,28.814312,28.284025,28.080082,27.999945,28.012222,28.044249,28.012856,27.920773,27.806751,27.69495,27.602013,27.53352,27.48642,27.466759,27.478302,27.518692,27.580193,27.652199,27.723957,27.796085,27.862503,27.924187,27.980059,28.02812,28.068192,28.097652,28.122208,28.140774,28.156105,28.170494,28.18598,28.202726,28.216455,28.227213,28.231743,28.229874,28.223255,28.21185,28.194057,28.170881,28.148922,28.123447,28.096287,28.069042,28.045708,28.030594,28.0241,28.022808,28.021141,28.012291,27.985556,27.942259,27.89058,27.835655,27.782564,27.734697,27.69548,27.67328,27.675865,27.704044,27.750584,27.806103,27.86678,27.94022,28.046856,28.20043,28.432821,28.776752,29.220825,29.744474,30.317158,30.8323,31.245373,31.552328,31.779472,31.978628,32.182373,32.41606,32.62304,32.72946,32.7203,32.68608,32.84782,33.50859,34.597923,37.395294,40.855553,43.71255,45.222984,45.536137,45.73089,45.75905,45.72145,45.558685,45.441795,45.44687,45.45562,45.429405,45.47605,45.715073,46.253296,47.22298,48.561462,50.01045,51.39898,52.946587,53.99199,54.95362,55.7832,56.27643,56.421005,56.052906,54.226288,47.272705,39.386063,35.298645,34.280823,33.984474,34.16577,34.278645,33.708023,32.688858,31.13253,29.23822,27.58023,26.548635,25.956274,25.766747,25.760674,25.749321,25.742786,25.7499,25.725948,25.681799,25.64396,25.623022,25.626873,25.654293,25.69061,25.72501,25.758045,25.78631,25.811514,25.8369,25.8617,25.883282,25.899109,25.90841,25.912415,25.912138,25.910353,25.910688,25.913374,25.91713,25.920528,25.921797,25.921757,25.922749,25.925758,25.929253,25.930233,25.924961,25.9103,25.88588,25.853664,25.823801,25.80975,25.821995,25.863873,25.931004,26.013966,26.102434,26.177328,26.228596,26.247063,26.2096,26.13529,26.137903,26.252796,26.864994,28.653229,35.278133,43.30394,45.843388,45.014217,45.20151,45.113693,45.01208,44.973854,45.148315,45.472736,45.502663,45.337803,45.205856,45.098755,45.131733,45.44709,46.03925,46.73227,47.363052,47.84606,48.05668,47.967567,47.711823,47.435783,47.20263,47.047028
48.00071,48.053444,48.36847,49.089996,50.088966,51.060036,51.900917,52.441887,52.740074,52.92674,52.66693,52.29501,51.764576,51.135468,50.7331,49.54783,46.667118,43.43013,38.7387,36.18187,34.921066,34.387978,34.23798,34.25528,34.59353,35.402443,37.166183,42.29666,52.370674,60.68445,62.96604,64.08876,64.3293,64.33877,64.34453,64.4028,64.44202,64.49333,64.476074,63.829678,62.281883,58.946877,50.959045,42.421135,37.961964,37.040245,37.35623,38.619026,41.835403,45.926056,49.478867,52.143745,54.151077,55.31685,55.91841,56.378296,56.7455,57.06559,57.198654,57.050842,56.39152,54.09222,50.06449,45.716064,42.02839,40.13315,40.210106,41.52775,44.09676,46.93717,49.415134,51.1353,51.821526,51.84013,51.85604,51.89573,51.63016,51.354324,51.132904,50.780334,50.40996,50.346886,50.61235,51.077988,51.801632,52.644447,53.388367,53.94964,54.142487,53.749527,53.26265,49.70638,41.981033,35.900475,33.315094,32.34356,32.079388,31.962769,31.634588,30.976494,29.963305,28.993835,28.43167,28.228481,28.14733,28.155643,28.179703,28.139963,28.023643,27.872066,27.729445,27.617664,27.541862,27.496733,27.485172,27.506989,27.556252,27.623438,27.698362,27.771666,27.8442,27.910465,27.972668,28.029455,28.075706,28.109598,28.133398,28.152893,28.167788,28.180553,28.193424,28.208046,28.224054,28.23751,28.248665,28.254742,28.255455,28.2518,28.243458,28.22914,28.209518,28.187939,28.160217,28.13124,28.104052,28.08201,28.068886,28.065723,28.069069,28.074297,28.075787,28.063652,28.027864,27.97213,27.911024,27.849045,27.790186,27.738628,27.703756,27.69453,27.71337,27.754662,27.809807,27.87538,27.958115,28.075737,28.23441,28.466583,28.810509,29.251537,29.759562,30.30739,30.799763,31.190594,31.473045,31.678469,31.866884,32.07447,32.331223,32.57252,32.708794,32.729126,32.70057,32.801697,33.367867,34.39102,36.92813,40.51825,43.645477,45.204002,45.508804,45.685196,45.81608,45.799507,45.69165,45.593693,45.56733,45.587875,45.60004,45.680004,45.91006,46.447197,47.349014,48.456314,49.601715,50.797245,52.0968,52.82019,53.55921,54.252274,54.6475,54.79054,54.44548,52.17337,45.453503,38.581734,35.093697,34.18923,34.013535,34.306675,34.429916,33.763165,32.67373,30.981003,28.986526,27.336134,26.35714,25.835047,25.737808,25.715889,25.717312,25.734104,25.738419,25.701246,25.643135,25.598137,25.576508,25.583881,25.615124,25.652937,25.684555,25.709908,25.729866,25.747692,25.76772,25.789526,25.810009,25.826372,25.837666,25.844074,25.846222,25.846079,25.846241,25.847122,25.84822,25.849018,25.848797,25.848316,25.849726,25.855612,25.864914,25.874636,25.880558,25.877941,25.864853,25.84136,25.81187,25.78666,25.777264,25.79449,25.842844,25.912743,25.993042,26.084656,26.17735,26.242477,26.245243,26.187073,26.127785,26.09436,26.493917,27.203896,32.197372,40.69404,45.80113,44.552948,44.73922,44.63903,44.49278,44.424698,44.51249,44.77577,45.029205,44.912643,44.797066,44.703415,44.72516,44.91496,45.271313,45.736515,46.142982,46.445007,46.55406,46.407974,46.141132,45.90681,45.73105,45.612064
48.131958,48.29312,48.732445,49.53189,50.542038,51.44888,52.121284,52.54754,52.840355,53.018524,52.794926,52.32908,51.739662,51.092514,50.68852,49.565536,46.766872,43.41337,38.674347,36.140762,34.89431,34.36705,34.226772,34.230694,34.50949,35.240723,36.792286,41.586365,50.886284,58.99321,61.906487,63.20096,63.840633,63.839794,63.62249,63.385983,63.22867,63.248093,63.295242,62.752293,61.153957,58.37723,50.918816,42.598904,38.085663,36.966362,37.22596,38.27299,41.460064,45.616802,49.3038,52.017982,53.916237,55.0262,55.603348,56.034267,56.38066,56.671738,56.83737,56.74066,56.02163,53.813927,49.85984,45.608223,41.992462,40.109665,40.160355,41.42063,43.839813,46.64789,49.08022,50.86783,51.60953,51.61168,51.644787,51.7078,51.563034,51.34745,51.24259,51.044384,50.761208,50.676315,50.848663,51.121166,51.660725,52.326008,52.861362,53.20362,53.24625,52.819275,52.392216,47.92459,40.866356,35.600918,33.2317,32.3453,32.170387,32.076065,31.798985,31.165375,30.186855,29.212555,28.609756,28.399303,28.316715,28.316141,28.319435,28.257809,28.118238,27.937634,27.766273,27.63932,27.560001,27.519888,27.517723,27.549252,27.605429,27.675484,27.75023,27.82229,27.893665,27.955889,28.013445,28.065044,28.105206,28.133791,28.15301,28.168186,28.18035,28.191435,28.203701,28.218557,28.234917,28.249043,28.26125,28.269077,28.272015,28.270233,28.26353,28.251625,28.235199,28.215782,28.189964,28.163013,28.136547,28.114594,28.103,28.103273,28.111565,28.123123,28.134289,28.13538,28.112923,28.06355,27.998161,27.928043,27.858955,27.795015,27.746122,27.722336,27.728123,27.760227,27.811325,27.87862,27.969627,28.089973,28.248745,28.482504,28.828165,29.26931,29.753479,30.285463,30.774961,31.159777,31.429745,31.624779,31.80632,32.015976,32.288063,32.553574,32.711266,32.74455,32.716106,32.788475,33.274258,34.22728,36.578728,40.24743,43.554153,45.132942,45.394787,45.549957,45.791878,45.784462,45.713234,45.658455,45.631706,45.650356,45.698463,45.808388,46.04899,46.560165,47.304733,48.173737,49.110836,50.102562,51.139183,51.592552,52.123707,52.66358,52.93242,53.08505,52.818604,49.994057,43.940765,38.01187,34.97886,34.164734,34.10267,34.46788,34.433495,33.801033,32.662407,30.826328,28.760868,27.158434,26.249214,25.796677,25.730349,25.700792,25.712547,25.737782,25.730457,25.675879,25.603786,25.553509,25.533672,25.54657,25.583984,25.624138,25.6516,25.66857,25.680618,25.691181,25.705563,25.72353,25.74162,25.756863,25.768219,25.775291,25.77829,25.778645,25.778336,25.778017,25.777756,25.777618,25.7776,25.77911,25.784218,25.79383,25.807625,25.823719,25.83796,25.845188,25.842968,25.830063,25.808743,25.784836,25.764605,25.757534,25.774063,25.814869,25.87535,25.977581,26.112785,26.23478,26.296158,26.267342,26.137947,26.071167,26.26831,26.730045,29.788445,37.251274,44.649162,44.001995,44.091286,43.97764,43.808907,43.700172,43.732018,43.974007,44.33617,44.256798,44.178474,44.07921,44.06743,44.166557,44.359432,44.64424,44.876747,45.0195,45.02996,44.874504,44.651314,44.46701,44.33537,44.25028
48.374126,48.637024,49.15595,50.03356,50.97963,51.787315,52.35842,52.754124,53.01699,53.0841,52.90757,52.377243,51.738297,51.07054,50.668312,49.599876,46.865673,43.43132,38.673523,36.144257,34.90209,34.37837,34.247074,34.246426,34.474327,35.12605,36.505375,40.871017,49.342346,57.262184,60.52442,61.347767,62.63913,62.496758,61.99269,61.486557,61.20469,61.264694,61.36898,60.83759,59.98796,57.7375,50.693886,42.69165,38.216534,36.906612,37.109196,37.97454,41.048367,45.179367,48.91418,51.65248,53.4933,54.5424,55.066452,55.45588,55.773705,56.05362,56.28013,56.187805,55.291824,53.301315,49.514317,45.4457,41.9598,40.115524,40.177773,41.429947,43.63218,46.35636,48.69086,50.466545,51.276585,51.319946,51.336617,51.424587,51.351036,51.198174,51.11468,51.03864,50.876423,50.72651,50.77037,50.896214,51.28763,51.801735,52.144638,52.2753,52.211468,51.841164,51.396095,46.58705,40.319412,35.599716,33.27917,32.482765,32.317814,32.257427,32.02023,31.361935,30.401085,29.438404,28.805124,28.581776,28.49059,28.475994,28.45586,28.35936,28.189396,27.9895,27.803246,27.666016,27.587196,27.55479,27.562687,27.602669,27.66319,27.733057,27.80462,27.872108,27.93626,27.989712,28.038452,28.081886,28.117123,28.145952,28.165457,28.180592,28.192272,28.202719,28.214256,28.228369,28.244339,28.258785,28.272049,28.281921,28.287495,28.28811,28.282654,28.270147,28.251717,28.232464,28.209923,28.18714,28.164282,28.14614,28.138767,28.142359,28.154942,28.173164,28.193066,28.200829,28.188978,28.152267,28.088737,28.014519,27.936346,27.860985,27.798412,27.759205,27.749962,27.770126,27.813982,27.879515,27.972038,28.086977,28.24253,28.478031,28.822258,29.258785,29.729706,30.259775,30.760002,31.154877,31.429617,31.626854,31.806652,32.01693,32.295883,32.572533,32.742134,32.777824,32.744404,32.80774,33.246574,34.14075,36.396164,40.06087,43.40529,44.99623,45.256924,45.34056,45.571373,45.665146,45.622044,45.581688,45.59633,45.61862,45.663025,45.764725,46.003498,46.43554,47.01944,47.72185,48.50087,49.268944,50.048065,50.359028,50.69689,51.065437,51.23587,51.403904,51.197273,48.04207,42.794647,37.667038,34.96492,34.22266,34.242928,34.590958,34.30309,33.783134,32.655373,30.706474,28.58346,27.042744,26.221972,25.839241,25.741924,25.718811,25.743565,25.763243,25.7342,25.657803,25.572758,25.52009,25.504894,25.527496,25.574665,25.617935,25.640936,25.6512,25.656242,25.659977,25.66851,25.68164,25.695778,25.70813,25.717482,25.72239,25.723396,25.72189,25.71977,25.71811,25.717392,25.717869,25.719707,25.72452,25.733671,25.746515,25.763214,25.782808,25.801847,25.815775,25.821497,25.818954,25.807236,25.790203,25.767773,25.742786,25.727257,25.731785,25.772028,25.87644,26.048565,26.229412,26.338451,26.333075,26.225788,26.107216,26.164259,26.529072,27.955624,33.867493,42.45455,43.41678,43.30711,43.17119,43.000168,42.852287,42.864925,43.117836,43.479008,43.40724,43.36618,43.28608,43.246983,43.277298,43.36759,43.521408,43.6382,43.688854,43.650234,43.503,43.318707,43.174263,43.07772,43.0178
48.706802,49.07046,49.66459,50.57563,51.38583,52.01124,52.559788,52.985718,53.162247,53.10629,52.93006,52.40916,51.744682,51.05622,50.666084,49.62707,46.90952,43.47267,38.71422,36.169697,34.917366,34.39877,34.281555,34.282307,34.47283,35.035393,36.326767,40.028915,47.65444,55.68813,59.420223,59.378147,60.3179,60.014874,59.669724,59.460896,59.35426,59.420906,59.52797,59.12092,58.78437,56.75043,50.167633,42.701195,38.367077,36.88878,37.043457,37.758804,40.64244,44.61608,48.31496,51.070724,52.866287,53.838646,54.307266,54.653786,54.92736,55.239418,55.53522,55.364204,54.278156,52.61957,49.04241,45.25448,41.968754,40.17103,40.229263,41.46164,43.446728,46.01873,48.218735,49.83206,50.687634,50.882584,50.87267,50.99497,50.933727,50.815895,50.756737,50.736458,50.597084,50.37683,50.365368,50.42148,50.644024,51.058567,51.272453,51.253883,51.16694,50.87008,50.27707,45.595,40.08385,35.78465,33.48542,32.71919,32.530792,32.496395,32.254444,31.55069,30.575985,29.629938,29.000896,28.761356,28.652946,28.621132,28.576479,28.448599,28.241814,28.019972,27.8349,27.69561,27.620365,27.59732,27.61534,27.662449,27.72522,27.791916,27.85588,27.914263,27.963764,28.007557,28.051748,28.094715,28.131573,28.160872,28.180561,28.195595,28.206844,28.216597,28.227278,28.240574,28.256123,28.270927,28.285408,28.297375,28.305498,28.308228,28.303663,28.290642,28.270618,28.248978,28.223785,28.199354,28.180178,28.17049,28.17101,28.17917,28.195961,28.220284,28.247715,28.263327,28.255787,28.222908,28.168217,28.097404,28.013481,27.928074,27.852652,27.798473,27.774052,27.7816,27.816746,27.877766,27.962524,28.072449,28.224762,28.455608,28.790693,29.212635,29.686447,30.224607,30.7445,31.16394,31.45914,31.668026,31.850094,32.05957,32.33854,32.616463,32.78974,32.825527,32.79438,32.86507,33.273952,34.1352,36.366856,39.93277,43.167892,44.75739,45.074833,45.08113,45.182106,45.372,45.37015,45.31525,45.352192,45.40745,45.462677,45.562195,45.75375,46.082817,46.55877,47.13455,47.73181,48.294876,48.84403,49.167213,49.324413,49.501945,49.64841,49.796753,49.467995,46.51454,41.956154,37.463478,35.004036,34.333237,34.389553,34.6101,34.228462,33.70115,32.635696,30.635239,28.455605,26.963097,26.227024,25.901741,25.792713,25.771816,25.799614,25.804632,25.7481,25.648232,25.549086,25.496143,25.489227,25.52544,25.583305,25.630285,25.650993,25.655369,25.654478,25.652027,25.65462,25.661972,25.670618,25.678425,25.684233,25.685392,25.682793,25.678204,25.673435,25.669907,25.668713,25.670156,25.673498,25.678764,25.687107,25.700981,25.719528,25.740694,25.762062,25.779858,25.789497,25.793697,25.78733,25.77327,25.748953,25.714312,25.6818,25.66491,25.68269,25.779541,25.976059,26.192993,26.336887,26.375488,26.304178,26.130482,26.12828,26.39788,27.410025,32.114716,39.884277,42.834167,42.444283,42.277687,42.12021,41.94233,41.9718,42.250793,42.50133,42.46049,42.45531,42.397263,42.35044,42.341446,42.36628,42.439995,42.49057,42.494995,42.440044,42.31205,42.16307,42.049873,41.977776,41.935356
49.113205,49.56278,50.204926,51.02137,51.664703,52.184914,52.72046,53.132923,53.250866,53.127037,52.847237,52.40654,51.742393,51.043953,50.673294,49.664993,46.96389,43.516403,38.79151,36.206432,34.930878,34.42021,34.319252,34.32986,34.501827,34.984573,36.204483,39.33644,46.25255,54.285553,58.35278,57.81907,58.42301,58.321514,58.150375,58.009285,57.901497,57.88465,57.917007,57.746826,57.62824,55.536507,49.45351,42.660805,38.524567,36.929527,37.04347,37.639896,40.284386,44.043045,47.650093,50.363667,52.08235,53.00274,53.449574,53.732346,53.93238,54.300064,54.63652,54.364594,53.253265,51.818752,48.49089,45.097557,42.075455,40.33069,40.323555,41.422256,43.274574,45.62834,47.675232,49.05178,49.837837,50.19329,50.301888,50.48011,50.373707,50.25746,50.215553,50.159897,49.98867,49.78671,49.73625,49.72619,49.806503,50.149536,50.30834,50.266495,50.190125,49.791847,48.928802,44.795357,39.84073,36.00808,33.873047,32.99093,32.77395,32.743156,32.479168,31.729988,30.710888,29.775444,29.175627,28.915848,28.790956,28.737629,28.666956,28.519459,28.288023,28.03896,27.846024,27.722546,27.65404,27.64154,27.66961,27.723042,27.78743,27.847416,27.893608,27.935337,27.97794,28.019629,28.063854,28.107746,28.145931,28.17656,28.19725,28.212881,28.224232,28.233648,28.243633,28.256132,28.271265,28.28646,28.302206,28.31627,28.326866,28.331543,28.327717,28.31417,28.292746,28.269314,28.24263,28.217222,28.197693,28.18788,28.19035,28.205263,28.229385,28.25894,28.289278,28.307793,28.303719,28.274252,28.224241,28.162071,28.083113,27.990036,27.90194,27.83376,27.794886,27.790081,27.815315,27.866596,27.943695,28.049482,28.195442,28.415455,28.736778,29.143589,29.623095,30.174397,30.721489,31.176521,31.503696,31.732,31.919693,32.12758,32.402054,32.67505,32.847477,32.886257,32.860344,32.93506,33.3349,34.20211,36.479946,39.853134,42.852165,44.40107,44.74488,44.697037,44.769394,44.932938,44.948494,44.91111,44.94432,45.001804,45.058403,45.151558,45.31804,45.593807,45.976665,46.41826,46.85292,47.241653,47.602207,47.995186,48.039673,48.044212,48.19256,48.210022,47.4624,45.111435,41.22699,37.276215,35.04486,34.475643,34.514107,34.514736,34.163776,33.622986,32.625435,30.588379,28.356312,26.904507,26.23366,25.925768,25.840601,25.837627,25.857079,25.840994,25.77099,25.661266,25.543266,25.490515,25.498028,25.545029,25.60799,25.655499,25.67131,25.667343,25.661053,25.6535,25.650143,25.650295,25.650745,25.650063,25.649418,25.649933,25.648115,25.645485,25.642197,25.638775,25.637522,25.63903,25.639927,25.64043,25.64833,25.662994,25.681526,25.70177,25.72194,25.73914,25.751217,25.758457,25.759113,25.752285,25.732758,25.695759,25.648617,25.61295,25.611458,25.69725,25.885681,26.123875,26.320194,26.397043,26.326683,26.175291,26.116047,26.322063,27.08517,30.80133,37.716087,42.16795,41.56369,41.385635,41.2535,41.054665,41.13994,41.476723,41.529068,41.523132,41.546646,41.506752,41.45891,41.428528,41.415405,41.44271,41.458702,41.443703,41.388855,41.284054,41.164177,41.071095,41.01493,40.991066
49.528214,50.095184,50.699318,51.290142,51.78318,52.28186,52.771217,53.097763,53.16156,52.99757,52.640656,52.285393,51.62697,51.001114,50.65146,49.618378,46.97387,43.516907,38.869064,36.240467,34.935585,34.441338,34.349472,34.352554,34.536495,34.964645,36.077324,38.723354,44.769913,52.240738,56.49861,56.350163,56.716293,56.701286,56.592644,56.4452,56.29834,56.229874,56.232754,56.139076,56.165943,53.931976,48.49579,42.492676,38.598907,37.04859,37.110115,37.59589,39.947464,43.418167,46.84903,49.439037,51.022224,51.85829,52.34447,52.6449,52.84178,52.997177,53.141285,53.011528,52.16651,50.618256,47.764328,44.79824,42.220024,40.707428,40.54956,41.385162,43.04828,45.133827,46.94779,48.224514,48.9047,49.2031,49.383865,49.431717,49.39167,49.353752,49.324013,49.23509,49.067673,48.90529,48.825638,48.729332,48.760155,48.82258,48.975452,49.11853,49.0571,48.632607,47.512527,44.086334,39.720837,36.403557,34.442722,33.366993,33.092594,33.03262,32.728153,31.928682,30.852074,29.91116,29.331436,29.04478,28.899273,28.831436,28.742523,28.572796,28.32507,28.062943,27.85919,27.744448,27.692331,27.693232,27.734531,27.792461,27.845621,27.886114,27.918463,27.950811,27.987581,28.028084,28.075214,28.124105,28.166565,28.19933,28.221943,28.239021,28.25106,28.260406,28.269772,28.281538,28.296461,28.312393,28.329826,28.346252,28.359488,28.366322,28.363392,28.349342,28.326595,28.301262,28.273067,28.246319,28.225988,28.215942,28.217934,28.231775,28.2566,28.289108,28.324215,28.348106,28.348354,28.321287,28.27259,28.212551,28.139694,28.051369,27.953346,27.867779,27.813437,27.793318,27.805187,27.85062,27.92097,28.020239,28.154613,28.356213,28.657486,29.049164,29.53281,30.102495,30.687136,31.193417,31.568096,31.825562,32.02382,32.22905,32.4941,32.756462,32.92494,32.969597,32.95586,33.042793,33.451115,34.35927,36.732796,39.784016,42.406464,43.83996,44.109978,44.107887,44.256706,44.365776,44.33176,44.292,44.335102,44.396587,44.453484,44.538303,44.676537,44.892998,45.179535,45.49167,45.77796,46.0167,46.23072,46.461258,46.696457,46.73916,46.666462,46.486656,45.725266,43.796738,40.58049,37.157684,35.14222,34.638214,34.625587,34.428104,34.098816,33.553513,32.631424,30.548695,28.267754,26.853895,26.222454,25.95001,25.880247,25.870716,25.872276,25.838367,25.756542,25.643826,25.531433,25.480227,25.495163,25.555552,25.616587,25.652142,25.662798,25.658058,25.650478,25.64196,25.637768,25.636703,25.635406,25.632496,25.628609,25.623936,25.617567,25.610592,25.60431,25.599998,25.598936,25.601343,25.605862,25.612013,25.62117,25.634804,25.651463,25.669514,25.687737,25.704048,25.71685,25.726175,25.73052,25.727077,25.707253,25.666931,25.615984,25.57022,25.546478,25.618103,25.79117,26.041477,26.28722,26.410683,26.360119,26.223667,26.089958,26.265741,26.876926,29.709095,35.667046,41.144817,40.57963,40.435745,40.325676,40.1193,40.2399,40.603462,40.49591,40.415947,40.453033,40.47341,40.46157,40.4436,40.42964,40.41588,40.393753,40.3631,40.31256,40.23006,40.127457,40.040825,39.99746,39.987885
49.82864,50.403954,50.907265,51.32157,51.801544,52.26242,52.653378,52.875137,52.874756,52.67524,52.28253,51.921513,51.323906,50.853516,50.540417,49.461426,46.876095,43.432503,38.90638,36.244476,34.921165,34.430664,34.3422,34.36532,34.56167,34.962597,35.91138,38.177902,43.38084,49.753426,53.8498,54.886894,54.694706,54.677147,54.60148,54.45653,54.302967,54.20263,54.216324,54.402435,54.65844,51.79028,47.042725,42.137695,38.594032,37.17667,37.165367,37.570385,39.65766,42.75733,45.884583,48.27686,49.692673,50.385246,50.793453,51.01034,51.173172,51.31637,51.361385,51.13819,50.42474,49.007225,46.820976,44.325047,42.18656,40.88546,40.606873,41.295662,42.67474,44.397346,46.01994,47.109154,47.659443,47.90245,47.9908,47.973877,47.952972,47.94021,47.9226,47.846703,47.717545,47.592453,47.487778,47.354317,47.355194,47.374355,47.517685,47.67286,47.61898,47.18985,45.891758,43.413242,39.75611,36.785812,35.028374,34.00453,33.581665,33.44742,33.043884,32.160034,31.00491,30.02006,29.435453,29.145563,28.989021,28.914005,28.81514,28.625946,28.363007,28.091984,27.87968,27.767494,27.733223,27.755264,27.803425,27.855846,27.897503,27.925175,27.948603,27.975212,28.007698,28.04707,28.096272,28.149078,28.196014,28.232998,28.258429,28.277565,28.291477,28.302456,28.313145,28.3262,28.342754,28.36072,28.380993,28.400787,28.416489,28.42309,28.417643,28.400457,28.374372,28.346094,28.316015,28.288239,28.266666,28.254524,28.254223,28.26696,28.292744,28.3288,28.369373,28.39866,28.401638,28.373386,28.320599,28.25556,28.181345,28.10133,28.004309,27.902266,27.824005,27.787464,27.790287,27.827806,27.895824,27.989117,28.1063,28.280329,28.552944,28.926964,29.412422,30.006247,30.64299,31.219143,31.661694,31.963287,32.172363,32.377846,32.629723,32.878075,33.04394,33.10253,33.114166,33.227097,33.653957,34.597404,36.910805,39.58308,41.808575,43.108856,43.399612,43.473785,43.58737,43.561775,43.49231,43.464836,43.498535,43.566444,43.63594,43.71837,43.826714,43.9822,44.178467,44.37981,44.548344,44.674156,44.78295,44.887714,45.095947,45.226376,45.191948,44.948765,44.22255,42.58174,39.967354,37.10811,35.304726,34.728207,34.605255,34.370243,34.053932,33.52413,32.632755,30.5028,28.183456,26.79192,26.188335,25.943972,25.878534,25.874878,25.876547,25.83271,25.735054,25.615473,25.515892,25.473682,25.493202,25.548277,25.6062,25.642784,25.654114,25.651493,25.646084,25.640419,25.639603,25.641724,25.642963,25.641815,25.63861,25.633087,25.625488,25.616741,25.608448,25.602322,25.599537,25.6004,25.6045,25.610844,25.617954,25.628017,25.640303,25.653662,25.667519,25.680588,25.691525,25.700245,25.705385,25.702904,25.682072,25.638058,25.581116,25.525204,25.492353,25.544888,25.705196,25.965418,26.245268,26.412048,26.390755,26.260942,26.081505,26.225044,26.757828,28.851759,33.7607,39.757137,39.551155,39.466904,39.361855,39.154545,39.262474,39.569344,39.297867,39.18814,39.24808,39.31205,39.341934,39.338238,39.311012,39.287323,39.266754,39.24353,39.202675,39.13282,39.050453,38.987038,38.957497,38.950333
49.83442,50.348763,50.769733,51.139374,51.602936,51.971085,52.24061,52.364338,52.289246,52.032135,51.62709,51.267807,50.827534,50.490845,50.22023,49.118576,46.522438,43.208374,38.875046,36.18369,34.880814,34.40823,34.309906,34.36586,34.57421,34.942238,35.721947,37.680397,42.088974,47.286465,50.874165,52.66204,52.582146,52.49636,52.402206,52.250923,52.06913,51.99447,52.140884,52.444595,52.11808,49.28272,45.530807,41.63698,38.532806,37.270412,37.18509,37.57586,39.386215,42.03778,44.776176,46.930023,48.16497,48.66123,48.935326,49.041763,49.13198,49.269867,49.276215,48.993248,48.4034,47.262173,45.626766,43.633083,41.89286,40.836716,40.608955,41.152122,42.144882,43.464867,44.841644,45.741035,46.179527,46.368828,46.38533,46.35595,46.315247,46.281643,46.26288,46.21151,46.12121,46.025562,45.923943,45.800064,45.777092,45.871502,45.953064,46.060623,46.141693,45.771652,44.51458,42.78965,39.8711,37.169594,35.543137,34.721268,34.276775,34.041435,33.456062,32.42999,31.169998,30.119247,29.511066,29.219946,29.06071,28.980732,28.875626,28.679298,28.403486,28.1229,27.911102,27.79755,27.779001,27.810884,27.864677,27.91417,27.949757,27.974182,27.992874,28.01557,28.045,28.083271,28.133564,28.189041,28.239735,28.28106,28.309772,28.331604,28.347923,28.361084,28.373838,28.38913,28.40828,28.428846,28.450932,28.472958,28.490875,28.498892,28.492422,28.471693,28.442265,28.411186,28.37904,28.349453,28.32543,28.3099,28.306461,28.318176,28.3454,28.385494,28.431824,28.466208,28.470665,28.438986,28.378963,28.304897,28.221506,28.135414,28.040665,27.93259,27.833454,27.778084,27.77391,27.809074,27.879194,27.966475,28.061401,28.19929,28.434807,28.78717,29.27258,29.895884,30.596422,31.266018,31.808588,32.17758,32.39621,32.580017,32.8127,33.044907,33.209373,33.2888,33.33712,33.486584,33.936073,34.88549,36.99183,39.247158,41.075264,42.22715,42.583775,42.673855,42.657074,42.574493,42.476738,42.4309,42.46154,42.53524,42.6109,42.69134,42.786392,42.917137,43.065796,43.194565,43.282887,43.339844,43.385498,43.430855,43.519783,43.648247,43.69713,43.519165,42.91015,41.48309,39.41949,37.076874,35.457806,34.77771,34.54718,34.34044,34.035526,33.52999,32.62343,30.44829,28.101551,26.71933,26.140392,25.918884,25.85519,25.87058,25.883747,25.833866,25.71967,25.58862,25.493126,25.45895,25.481041,25.532963,25.593706,25.637268,25.652653,25.653854,25.65313,25.653313,25.65916,25.667915,25.675089,25.678875,25.679585,25.677094,25.671497,25.663605,25.654495,25.646036,25.63998,25.6371,25.637215,25.639036,25.641224,25.645538,25.651354,25.657928,25.665318,25.672983,25.679878,25.685509,25.689028,25.68562,25.663635,25.616844,25.55394,25.489216,25.457115,25.490234,25.637747,25.903564,26.204643,26.405659,26.416077,26.296276,26.090456,26.188795,26.669098,28.291866,32.28899,38.005337,38.53504,38.54014,38.40177,38.27079,38.35867,38.463303,38.07666,37.990154,38.071877,38.156853,38.213013,38.218723,38.178947,38.15358,38.141685,38.130974,38.105537,38.055336,37.99936,37.960625,37.940376,37.928925
49.523705,49.960457,50.319664,50.683193,51.04698,51.2996,51.456676,51.47766,51.334106,51.075653,50.739082,50.421696,50.107597,49.877167,49.561867,48.397404,45.92543,42.830257,38.80013,36.082874,34.824303,34.394997,34.282673,34.36626,34.586983,34.89201,35.543945,37.22132,40.82119,45.013893,48.000023,49.71855,50.23386,50.192505,50.089054,49.937668,49.756298,49.721375,49.888474,49.94185,48.9886,46.94933,44.175343,41.005585,38.428024,37.325546,37.161118,37.588436,39.081406,41.26056,43.53021,45.33152,46.37731,46.776512,46.95604,46.978226,46.985146,47.03932,47.03142,46.842865,46.41055,45.50729,44.227173,42.74167,41.40811,40.629425,40.518166,40.86937,41.507774,42.457733,43.486687,44.2296,44.604465,44.738342,44.75154,44.71618,44.682953,44.67475,44.662064,44.615875,44.545464,44.471878,44.3889,44.28129,44.26071,44.36332,44.430603,44.532875,44.675625,44.455982,43.495377,42.19036,39.957283,37.586426,36.01593,35.326813,34.972183,34.67248,33.937275,32.7454,31.35325,30.226307,29.579945,29.264929,29.103409,29.018314,28.91071,28.717068,28.438284,28.152454,27.942331,27.829674,27.81746,27.856995,27.917217,27.970337,28.008402,28.03444,28.051235,28.070766,28.097185,28.134136,28.185013,28.242558,28.296013,28.340107,28.371834,28.396671,28.41584,28.430418,28.443691,28.45979,28.480476,28.503483,28.528126,28.55278,28.573395,28.584133,28.579212,28.558132,28.52763,28.494144,28.459969,28.42786,28.400517,28.38124,28.374178,28.383251,28.411022,28.45493,28.507479,28.547955,28.554771,28.51978,28.451916,28.36784,28.272282,28.169064,28.0657,27.953281,27.84423,27.776714,27.767807,27.807941,27.882965,27.963058,28.030838,28.125303,28.317001,28.643501,29.12566,29.784771,30.559046,31.345207,32.02025,32.48488,32.731323,32.888596,33.082996,33.283943,33.439613,33.534515,33.616035,33.803017,34.268875,35.25071,37.001404,38.800186,40.275948,41.25954,41.62223,41.672607,41.5757,41.481453,41.351112,41.28532,41.330246,41.407246,41.47399,41.54233,41.625954,41.74392,41.87175,41.96482,42.00538,42.014713,42.018463,42.0355,42.123116,42.231018,42.273483,42.16413,41.700005,40.494064,38.91669,36.961964,35.49376,34.79896,34.536186,34.340652,34.04312,33.54884,32.616093,30.398922,28.02546,26.646492,26.091467,25.89308,25.83718,25.874218,25.898891,25.843315,25.715618,25.573566,25.472733,25.44011,25.464779,25.523714,25.591002,25.638756,25.658047,25.663818,25.668697,25.675922,25.689919,25.707066,25.722134,25.732826,25.739162,25.740929,25.73841,25.73208,25.7225,25.711658,25.701756,25.694153,25.689371,25.685947,25.682272,25.679974,25.678661,25.677952,25.67838,25.680061,25.682205,25.683838,25.684752,25.679737,25.656826,25.609192,25.544075,25.474485,25.443647,25.461288,25.59422,25.857819,26.169891,26.39461,26.434654,26.33593,26.12062,26.156727,26.575943,27.988558,31.365135,36.271004,37.587303,37.677498,37.48483,37.50567,37.559998,37.337517,36.967445,36.90677,37.00006,37.094696,37.157227,37.16793,37.130234,37.09794,37.082962,37.07746,37.065887,37.038544,37.004257,36.9768,36.957817,36.94004
48.96522,49.308556,49.576855,49.853977,50.100166,50.252556,50.323166,50.276985,50.125786,49.93246,49.662796,49.396507,49.104633,48.983543,48.49595,47.218773,45.176598,42.31469,38.702183,35.983746,34.755707,34.37825,34.271408,34.376457,34.59211,34.826485,35.400177,36.801727,39.610603,42.91082,45.384197,46.86096,47.53296,47.687454,47.6277,47.49154,47.37368,47.32987,47.291786,47.057873,46.449467,45.020744,42.799046,40.25567,38.268288,37.34517,37.08041,37.550934,38.72192,40.44896,42.196815,43.526825,44.351578,44.76146,44.881096,44.82943,44.774895,44.808395,44.834126,44.71198,44.375862,43.71336,42.776165,41.757484,40.831924,40.272972,40.181885,40.40062,40.82863,41.4774,42.160767,42.711533,43.035706,43.141975,43.124107,43.09898,43.099022,43.159378,43.182816,43.153,43.10421,43.048706,42.97361,42.87212,42.87894,42.971672,43.126335,43.223526,43.22673,43.14174,42.55918,41.56763,39.89286,37.94737,36.507736,35.825436,35.472794,35.134705,34.416904,33.099533,31.558474,30.340498,29.640068,29.283127,29.113161,29.023952,28.91937,28.72879,28.45832,28.177795,27.963797,27.855251,27.840248,27.898214,27.963486,28.02131,28.06791,28.096127,28.112259,28.129408,28.152855,28.187834,28.237806,28.295578,28.35027,28.39614,28.430428,28.458294,28.48066,28.496593,28.509998,28.526472,28.548422,28.574463,28.604729,28.63446,28.65834,28.669582,28.664715,28.645132,28.614954,28.580034,28.544764,28.510727,28.47992,28.456074,28.444336,28.449907,28.47778,28.5255,28.58485,28.632675,28.643635,28.607212,28.533007,28.439873,28.332775,28.215065,28.092411,27.966656,27.855316,27.789398,27.783703,27.83078,27.911049,27.982876,28.020863,28.06837,28.213173,28.511179,28.981434,29.684761,30.541876,31.465557,32.28685,32.83879,33.11585,33.275467,33.429413,33.592228,33.73224,33.834625,33.94068,34.154816,34.620564,35.637466,36.92444,38.278725,39.478024,40.276176,40.58088,40.59291,40.493523,40.326614,40.190132,40.15895,40.218567,40.297688,40.354546,40.404907,40.46288,40.544636,40.642723,40.71694,40.732834,40.702187,40.670437,40.676018,40.809784,40.97064,41.052177,40.968197,40.556477,39.60672,38.392963,36.73385,35.41642,34.78188,34.5541,34.374546,34.080177,33.571182,32.613686,30.36501,27.964458,26.583431,26.051884,25.87164,25.832935,25.890629,25.925613,25.865398,25.726828,25.576336,25.469519,25.436895,25.464468,25.527721,25.599155,25.650192,25.672447,25.68193,25.691742,25.70532,25.726967,25.752316,25.775421,25.793411,25.80587,25.812403,25.813587,25.80938,25.799805,25.786825,25.773005,25.760384,25.750336,25.741432,25.732025,25.723656,25.716074,25.709087,25.703535,25.699999,25.697918,25.695944,25.694557,25.688381,25.665522,25.618843,25.554113,25.48291,25.45036,25.45848,25.577473,25.830322,26.141747,26.379448,26.444351,26.371887,26.172985,26.148247,26.503521,27.820507,30.802906,34.96489,36.748672,36.88202,36.658207,36.778755,36.74668,36.249832,35.99611,35.943398,36.041534,36.137146,36.193623,36.202858,36.170486,36.13541,36.118896,36.114185,36.106506,36.08738,36.060978,36.03574,36.012794,35.986786
48.152992,48.407066,48.575424,48.713783,48.85027,48.90638,48.932392,48.962196,48.920616,48.66762,48.15668,48.01036,47.824837,47.717155,47.07039,45.82608,44.240692,41.674313,38.538723,35.873524,34.658386,34.33232,34.261917,34.375816,34.549576,34.750877,35.29131,36.408936,38.592464,41.153328,43.098656,44.39476,45.19989,45.391266,45.30492,45.116386,44.95375,44.895676,44.881447,44.688164,44.06557,43.030304,41.38604,39.48812,38.041664,37.310448,36.943565,37.45259,38.325233,39.60337,40.9151,41.878815,42.417336,42.638306,42.691208,42.630524,42.57093,42.575867,42.593044,42.54135,42.374405,42.000248,41.45057,40.808525,40.19853,39.816307,39.74585,39.89264,40.165123,40.58954,41.03093,41.386986,41.59539,41.66091,41.64679,41.625084,41.619064,41.64893,41.70732,41.748688,41.74983,41.718468,41.65834,41.57209,41.59202,41.757736,41.924255,42.073265,42.17251,42.031296,41.653168,40.926132,39.561317,38.119087,37.0038,36.29129,35.883263,35.40895,34.832863,33.459473,31.777521,30.456413,29.695229,29.295403,29.107376,29.013557,28.9122,28.724895,28.463726,28.19537,27.985548,27.876009,27.865196,27.923513,27.996319,28.063831,28.115265,28.143486,28.158043,28.17452,28.196964,28.22954,28.275928,28.330606,28.38462,28.432539,28.46967,28.50097,28.52568,28.544838,28.562557,28.583641,28.610435,28.64147,28.676651,28.710419,28.736597,28.747824,28.740849,28.718567,28.687336,28.654602,28.620766,28.58577,28.550999,28.52075,28.502916,28.50615,28.534863,28.586903,28.653252,28.70768,28.723112,28.688324,28.611986,28.512989,28.39526,28.261005,28.118357,27.982786,27.872961,27.81113,27.818317,27.873938,27.956608,28.019829,28.031315,28.035614,28.135883,28.405638,28.851707,29.606361,30.549448,31.633373,32.590538,33.147133,33.385384,33.558083,33.72566,33.88849,34.023396,34.142612,34.28128,34.505486,34.955307,35.81887,36.756027,37.776955,38.694466,39.286057,39.528805,39.496464,39.329483,39.173054,39.086403,39.09305,39.16519,39.246384,39.30312,39.34939,39.39896,39.467083,39.54602,39.60211,39.607544,39.57067,39.526375,39.505226,39.573296,39.72828,39.87697,39.85674,39.51762,38.815605,37.836937,36.495102,35.366173,34.78241,34.579147,34.425545,34.15099,33.603004,32.592827,30.33757,27.928719,26.537487,26.030872,25.857475,25.846424,25.923857,25.966736,25.902946,25.754742,25.59505,25.483452,25.455372,25.4818,25.547321,25.622112,25.675102,25.698809,25.710327,25.723478,25.741825,25.769642,25.801975,25.832253,25.856998,25.875298,25.886562,25.891651,25.88985,25.880684,25.866016,25.84869,25.83144,25.816544,25.802849,25.78875,25.775642,25.763325,25.751637,25.7415,25.733828,25.728258,25.723207,25.719824,25.712757,25.690434,25.6456,25.582699,25.511734,25.475636,25.481518,25.586153,25.820583,26.123417,26.364418,26.44743,26.397766,26.222744,26.1843,26.502415,27.711819,30.36699,33.994812,35.997818,36.165962,35.963966,36.00482,35.852547,35.361526,35.16001,35.11184,35.20819,35.29721,35.343586,35.345783,35.31304,35.278484,35.25766,35.24598,35.233986,35.214695,35.188496,35.160202,35.131157,35.097206
47.084694,47.273766,47.344017,47.37982,47.380432,47.315193,47.34472,47.371773,47.236763,46.9644,46.616455,46.361626,46.07892,45.819744,45.367676,44.50081,43.050076,40.83276,38.21963,35.79744,34.564827,34.2391,34.230465,34.33972,34.48858,34.649582,35.135216,36.007553,37.639626,39.573257,41.040855,41.957756,42.537918,42.692486,42.65049,42.50926,42.359047,42.284203,42.27067,42.16943,41.7817,41.174923,40.01194,38.647095,37.66783,37.1329,36.750366,37.2038,37.83779,38.72136,39.651573,40.317444,40.632847,40.755054,40.77487,40.718388,40.667976,40.67074,40.695595,40.693123,40.63678,40.465767,40.18699,39.840904,39.490467,39.264877,39.229534,39.32705,39.499657,39.74261,40.010277,40.227047,40.353146,40.396492,40.393307,40.383904,40.37825,40.391003,40.42869,40.462196,40.46892,40.448074,40.4012,40.32866,40.331448,40.46782,40.71611,40.948586,41.037117,40.950115,40.713356,40.141438,39.09657,38.00656,37.158493,36.554634,36.098686,35.62766,35.013058,33.78775,32.05715,30.583889,29.753103,29.300686,29.086378,28.982512,28.883968,28.706398,28.45538,28.201843,28.009827,27.903742,27.891865,27.940176,28.01324,28.087269,28.14494,28.178818,28.197498,28.21584,28.237236,28.265415,28.30497,28.352947,28.402987,28.450645,28.490776,28.527483,28.558544,28.583906,28.607279,28.633457,28.664879,28.700224,28.73938,28.775867,28.802738,28.812502,28.802855,28.77826,28.746197,28.714207,28.682245,28.648811,28.613922,28.581722,28.561459,28.563725,28.594112,28.651068,28.724693,28.785923,28.805122,28.769817,28.688818,28.582453,28.45507,28.308086,28.150883,28.002869,27.89204,27.84201,27.856354,27.914494,27.99554,28.055191,28.05102,28.02267,28.084024,28.32596,28.775948,29.55958,30.578346,31.88142,32.971443,33.44403,33.667778,33.833126,33.98127,34.109856,34.210358,34.308144,34.452255,34.70978,35.17453,35.745243,36.449177,37.22964,37.89672,38.29724,38.43241,38.378403,38.23918,38.12024,38.05609,38.07141,38.14667,38.227657,38.283195,38.326794,38.3733,38.435196,38.503918,38.550133,38.549812,38.50878,38.45792,38.425896,38.461258,38.57563,38.708694,38.73259,38.518826,38.02126,37.259766,36.213314,35.282112,34.76716,34.596916,34.49215,34.26747,33.636215,32.54631,30.32233,27.931036,26.520632,26.046043,25.885315,25.891684,25.985157,26.034546,25.965397,25.806156,25.637318,25.522003,25.50179,25.525337,25.592522,25.67023,25.723537,25.746317,25.757198,25.771164,25.792099,25.824314,25.862385,25.899012,25.93003,25.95401,25.970102,25.979477,25.980618,25.972422,25.956533,25.936087,25.914581,25.895258,25.87741,25.859526,25.84291,25.827272,25.812294,25.79886,25.788107,25.779854,25.772486,25.767714,25.760239,25.738884,25.696333,25.635685,25.565405,25.525257,25.525446,25.61597,25.83097,26.118607,26.35622,26.45316,26.42789,26.278587,26.247871,26.551151,27.655167,30.044863,33.310265,34.928226,35.348343,35.461613,35.316067,34.90221,34.530796,34.356056,34.31411,34.406258,34.48883,34.52474,34.516983,34.47928,34.439426,34.409386,34.39315,34.376396,34.352425,34.32052,34.283646,34.24346,34.197773
45.42389,45.513603,45.537907,45.541973,45.527126,45.4656,45.418194,45.32554,45.131813,44.895416,44.666367,44.449005,44.210297,43.991066,43.62831,42.80989,41.428192,39.73161,37.650333,35.598255,34.462524,34.141766,34.150208,34.244423,34.369904,34.545616,34.929054,35.566307,36.65446,38.019722,39.15795,39.793106,40.180885,40.298416,40.278687,40.17831,40.060375,39.993286,39.978523,39.918365,39.729027,39.3423,38.62453,37.79142,37.17627,36.82094,36.547424,36.841103,37.276897,37.83766,38.45903,38.896866,39.041214,39.11184,39.126537,39.096756,39.071777,39.083866,39.11699,39.14446,39.15497,39.11184,39.012585,38.870754,38.707726,38.60649,38.60902,38.67325,38.77767,38.910652,39.045937,39.160843,39.235058,39.26493,39.267334,39.26323,39.257553,39.26056,39.27501,39.286842,39.284027,39.262634,39.21913,39.14855,39.12892,39.215008,39.405666,39.649757,39.821922,39.797684,39.63746,39.168343,38.42167,37.647003,37.025723,36.562153,36.163086,35.725273,35.08356,34.133842,32.40146,30.74545,29.824085,29.305006,29.054585,28.933586,28.835808,28.672323,28.439913,28.203,28.023174,27.923004,27.906223,27.94971,28.021942,28.09917,28.162998,28.204575,28.229967,28.251759,28.27237,28.294983,28.325474,28.364647,28.409657,28.45716,28.501532,28.545485,28.584864,28.61789,28.647514,28.678555,28.713747,28.75209,28.793594,28.830853,28.856375,28.86314,28.850159,28.823605,28.792164,28.762968,28.735634,28.707064,28.67533,28.643917,28.623268,28.625923,28.658688,28.720829,28.8015,28.868895,28.891106,28.854582,28.768272,28.654144,28.517094,28.357708,28.187431,28.028584,27.914091,27.869354,27.891176,27.957005,28.04198,28.093735,28.081852,28.038925,28.067886,28.286798,28.755924,29.572517,30.685787,32.124687,33.211517,33.55465,33.7897,33.95188,34.08149,34.190987,34.290028,34.407265,34.566902,34.788387,35.121063,35.522385,36.041832,36.604897,37.06596,37.322765,37.383312,37.32232,37.198326,37.09764,37.05516,37.082222,37.154865,37.22943,37.280308,37.31968,37.36209,37.417225,37.47892,37.520042,37.516457,37.47261,37.41421,37.36812,37.385643,37.474266,37.58693,37.634823,37.52167,37.18699,36.621998,35.86187,35.13861,34.70932,34.610817,34.59938,34.35762,33.67504,32.48536,30.334305,27.99051,26.53855,26.089006,25.94302,25.968773,26.076897,26.131025,26.055614,25.885376,25.708267,25.590044,25.575533,25.599377,25.669682,25.749939,25.802465,25.822506,25.830494,25.843021,25.86438,25.899004,25.941082,25.982649,26.018875,26.047832,26.06839,26.081991,26.086254,26.079308,26.062557,26.039394,26.014034,25.990793,25.969597,25.949026,25.930235,25.912731,25.895891,25.880405,25.867535,25.857246,25.848171,25.842476,25.834957,25.814934,25.775051,25.716995,25.647675,25.601168,25.595423,25.670952,25.86243,26.128096,26.355127,26.460684,26.461418,26.341694,26.330002,26.637238,27.65067,29.782543,32.701218,33.93837,34.6074,34.78227,34.478806,34.018433,33.73497,33.57835,33.54502,33.62722,33.701454,33.726604,33.70806,33.662003,33.609604,33.572304,33.54856,33.523582,33.491432,33.450844,33.40397,33.353077,33.297607
43.489502,43.49202,43.471962,43.44278,43.411644,43.353065,43.26307,43.09785,42.83534,42.52787,42.24964,42.024925,41.807274,41.616318,41.289783,40.606,39.56534,38.380966,36.727985,35.163055,34.23603,33.9488,33.967712,34.05233,34.177177,34.370804,34.644253,35.075634,35.738724,36.62117,37.47232,37.986244,38.26889,38.35961,38.35529,38.309753,38.2265,38.142418,38.1166,38.110317,38.02471,37.763466,37.386364,36.962166,36.626648,36.438423,36.260918,36.422035,36.689316,37.01392,37.39949,37.68788,37.765144,37.793106,37.81812,37.81895,37.818237,37.838135,37.87265,37.909256,37.94642,37.963757,37.95787,37.92756,37.878906,37.858936,37.88493,37.92653,37.986237,38.05887,38.121994,38.17167,38.20291,38.216835,38.22049,38.21524,38.20564,38.199024,38.198425,38.19594,38.184647,38.16002,38.114788,38.04248,38.000237,38.030895,38.130856,38.306206,38.478683,38.496124,38.385155,38.060036,37.56859,37.058365,36.638275,36.314194,36.01543,35.646133,35.046303,34.276894,32.66443,30.963024,29.922401,29.322983,29.02387,28.876549,28.775372,28.62856,28.422321,28.206902,28.037117,27.939562,27.916626,27.954048,28.021708,28.098999,28.168694,28.219704,28.254185,28.28117,28.302132,28.31971,28.341402,28.372639,28.41448,28.46418,28.515167,28.568447,28.61728,28.657948,28.692608,28.726326,28.762592,28.801048,28.841862,28.87691,28.898563,28.90084,28.884377,28.857025,28.828564,28.80536,28.786427,28.767004,28.742702,28.715778,28.697552,28.70237,28.73811,28.804928,28.891075,28.961624,28.983616,28.943287,28.849066,28.724735,28.576214,28.403542,28.221264,28.05495,27.939434,27.900566,27.933914,28.01239,28.106075,28.153202,28.128418,28.07848,28.106133,28.315865,28.794556,29.634571,30.917488,32.33734,33.264015,33.57296,33.805325,33.951283,34.06101,34.157684,34.25979,34.38076,34.520893,34.68083,34.88715,35.17958,35.539246,35.919147,36.22149,36.375263,36.39112,36.32374,36.21714,36.138832,36.118496,36.15503,36.22247,36.28811,36.332767,36.366943,36.403877,36.450684,36.50307,36.537838,36.532295,36.4884,36.427994,36.372864,36.371162,36.436104,36.534817,36.598854,36.549377,36.328293,35.93586,35.42988,34.915894,34.62459,34.57933,34.525562,34.280533,33.717545,32.46268,30.38227,28.111683,26.617275,26.147484,26.025818,26.071411,26.191563,26.24915,26.168404,25.989033,25.805504,25.685596,25.675522,25.702827,25.777649,25.86042,25.911938,25.92878,25.933228,25.943764,25.965029,26.001633,26.047462,26.093922,26.135489,26.169682,26.195038,26.213219,26.220844,26.215282,26.197895,26.172361,26.14352,26.116758,26.092432,26.069525,26.049006,26.030048,26.01168,25.99432,25.97921,25.96648,25.955147,25.94785,25.93962,25.920307,25.882477,25.826504,25.757881,25.701035,25.688992,25.750185,25.915672,26.153189,26.362614,26.472065,26.495995,26.410278,26.429253,26.761103,27.705015,29.584858,32.156494,33.14497,33.806137,33.92737,33.617577,33.238968,33.00496,32.859634,32.83572,32.904415,32.963192,32.975586,32.945583,32.88929,32.82857,32.78533,32.75325,32.719124,32.67807,32.628815,32.573296,32.51429,32.452126
41.401077,41.334274,41.23638,41.128616,41.021904,40.900444,40.77334,40.58329,40.28399,39.925407,39.60366,39.34672,39.124405,38.931973,38.690212,38.297394,37.67707,36.788002,35.549465,34.514366,33.862194,33.63298,33.663467,33.766647,33.9124,34.082954,34.267853,34.540787,34.94352,35.467934,36.02012,36.45807,36.7157,36.81405,36.845802,36.841442,36.769325,36.673107,36.65149,36.66667,36.627632,36.541103,36.406635,36.226852,36.07704,35.99182,35.874153,35.967285,36.11392,36.284355,36.499447,36.69693,36.786972,36.798492,36.82322,36.83687,36.84706,36.867157,36.894424,36.923553,36.959164,36.993248,37.01796,37.031822,37.03924,37.057068,37.08532,37.10968,37.140503,37.17638,37.20842,37.223938,37.22445,37.21978,37.214798,37.206924,37.191444,37.175255,37.16461,37.15429,37.13862,37.11257,37.067314,36.997726,36.94081,36.92649,36.968746,37.062275,37.1565,37.176582,37.108715,36.92932,36.626675,36.309513,36.052177,35.84826,35.64633,35.374672,34.875626,34.182594,32.82432,31.228226,30.046844,29.367348,29.00812,28.825739,28.715614,28.585457,28.409533,28.220734,28.063236,27.96518,27.93475,27.960894,28.01971,28.09494,28.170256,28.231903,28.277199,28.310966,28.334066,28.349047,28.365265,28.392689,28.435722,28.491337,28.551344,28.615086,28.67295,28.71939,28.756124,28.788967,28.822569,28.857414,28.893696,28.923126,28.938574,28.9352,28.915308,28.888395,28.864923,28.85027,28.842678,28.835842,28.822622,28.80348,28.790134,28.798431,28.837109,28.906849,28.99483,29.067043,29.086357,29.036865,28.930918,28.79332,28.631123,28.444412,28.251713,28.081879,27.970726,27.94321,27.992527,28.086676,28.191954,28.240877,28.202808,28.144001,28.180847,28.394981,28.881306,29.739649,31.207588,32.501152,33.19046,33.536324,33.75172,33.86773,33.951088,34.02787,34.112045,34.202538,34.296783,34.404667,34.54475,34.73282,34.95958,35.19948,35.384872,35.467644,35.458656,35.393326,35.31448,35.265133,35.262173,35.302277,35.36409,35.421257,35.459763,35.48858,35.5191,35.5567,35.597496,35.62339,35.615677,35.574066,35.51733,35.461037,35.44095,35.478073,35.557728,35.626415,35.615395,35.4777,35.225883,34.90188,34.582035,34.423027,34.384735,34.266518,34.05166,33.625423,32.419975,30.420176,28.240982,26.752357,26.231335,26.130775,26.191002,26.319702,26.380745,26.297428,26.11208,25.924892,25.80611,25.798603,25.831306,25.912,25.998405,26.050556,26.066017,26.068523,26.078331,26.100323,26.139284,26.189323,26.24113,26.288265,26.327766,26.357843,26.380337,26.390919,26.386444,26.368118,26.33994,26.307537,26.27718,26.249678,26.224165,26.201447,26.18039,26.159697,26.139519,26.120987,26.10441,26.08927,26.078835,26.068663,26.04911,26.012411,25.957594,25.889133,25.824371,25.801678,25.847206,25.986645,26.192467,26.380432,26.489838,26.53279,26.482086,26.533314,26.894943,27.785965,29.43605,31.6743,32.490177,32.991882,33.084335,32.84909,32.546097,32.343994,32.212788,32.195683,32.249596,32.288887,32.28607,32.244663,32.180416,32.116776,32.068253,32.029034,31.987038,31.9385,31.8826,31.821228,31.757133,31.690739
39.189636,39.061768,38.888905,38.70543,38.533806,38.35514,38.159866,37.938442,37.672916,37.368393,37.087677,36.852646,36.668503,36.535652,36.404495,36.199154,35.803795,35.12101,34.37405,33.782875,33.395355,33.2416,33.278545,33.41044,33.56585,33.692795,33.81647,33.986282,34.244293,34.555664,34.876358,35.19806,35.458218,35.595943,35.676067,35.685402,35.62332,35.563496,35.562675,35.539173,35.532955,35.607243,35.636543,35.60061,35.548737,35.496338,35.447166,35.496704,35.579304,35.66311,35.77205,35.903816,36.006042,36.04716,36.06598,36.07586,36.082714,36.09417,36.107574,36.12178,36.14455,36.173447,36.19659,36.217484,36.237316,36.257896,36.275024,36.284424,36.29574,36.308533,36.318428,36.318214,36.30829,36.290615,36.269783,36.256508,36.2368,36.21519,36.196693,36.179222,36.159595,36.132782,36.089954,36.026558,35.9664,35.927635,35.925232,35.96997,36.02509,36.025623,35.988815,35.882324,35.694378,35.501213,35.351685,35.238274,35.123257,34.94857,34.569824,33.97132,32.945503,31.51165,30.192432,29.445282,29.020592,28.796951,28.671597,28.55473,28.409267,28.249123,28.105968,28.008461,27.969162,27.982403,28.031029,28.103275,28.18364,28.255583,28.311666,28.35292,28.380322,28.397152,28.414474,28.445433,28.496063,28.561794,28.632023,28.704996,28.768723,28.816656,28.850971,28.878752,28.906082,28.934631,28.964493,28.986006,28.99206,28.981047,28.957586,28.93148,28.91343,28.907724,28.911732,28.91801,28.91671,28.906193,28.89806,28.909317,28.949192,29.021122,29.111235,29.185234,29.199839,29.135868,29.012054,28.860575,28.684258,28.484316,28.283833,28.11457,28.012156,27.999516,28.067097,28.178679,28.297686,28.352356,28.311432,28.244688,28.277143,28.4995,29.00013,29.88095,31.403013,32.543266,33.043015,33.390285,33.58419,33.670082,33.723686,33.773087,33.82872,33.890022,33.953445,34.02056,34.10314,34.213413,34.347054,34.488983,34.596916,34.63964,34.624115,34.57572,34.520763,34.4904,34.49694,34.536995,34.59214,34.640656,34.67258,34.695538,34.718735,34.7468,34.776596,34.793736,34.783257,34.74464,34.692818,34.639156,34.611504,34.627396,34.681293,34.73869,34.749428,34.676636,34.523785,34.30632,34.129463,34.041054,34.005672,33.94156,33.75055,33.336624,32.297283,30.408329,28.33105,26.911566,26.345455,26.247656,26.316053,26.450514,26.51676,26.435394,26.248661,26.061825,25.94763,25.940384,25.980118,26.06865,26.161701,26.219099,26.238262,26.243084,26.254887,26.278692,26.319553,26.369774,26.421177,26.468868,26.509388,26.540565,26.564247,26.575348,26.570599,26.551113,26.521038,26.486319,26.453442,26.423748,26.395988,26.370848,26.347162,26.32375,26.300777,26.279211,26.2594,26.24098,26.227345,26.214535,26.193691,26.157337,26.10338,26.033915,25.966465,25.92976,25.957138,26.071293,26.245983,26.412096,26.517754,26.572561,26.552944,26.6324,27.003319,27.836447,29.2976,31.238136,31.902416,32.30462,32.37722,32.183846,31.926636,31.746202,31.634958,31.620571,31.659538,31.681458,31.66341,31.611938,31.54331,31.476234,31.423141,31.377747,31.329514,31.275478,31.215282,31.150639,31.083778,31.01506
37.153954,37.003014,36.80899,36.610943,36.427498,36.24951,36.070877,35.88286,35.62465,35.26593,34.935146,34.63979,34.44007,34.332603,34.273575,34.179455,33.988026,33.723633,33.40768,33.092392,32.875565,32.81374,32.8786,33.000534,33.13115,33.23681,33.33052,33.448074,33.62368,33.84021,34.065598,34.29107,34.493233,34.64842,34.76092,34.815094,34.81727,34.80081,34.793148,34.78902,34.806786,34.875942,34.95575,35.011284,35.03508,35.03475,35.024887,35.059555,35.101612,35.143707,35.201675,35.27339,35.34542,35.41687,35.456795,35.467316,35.4635,35.458538,35.455063,35.456223,35.46881,35.484154,35.498703,35.51097,35.515854,35.519894,35.52359,35.51927,35.516037,35.513046,35.50808,35.495705,35.47708,35.454445,35.428516,35.40316,35.380135,35.35549,35.332863,35.31156,35.28945,35.26174,35.220535,35.162266,35.101868,35.051094,35.02359,35.03128,35.055862,35.057198,35.036366,34.967484,34.842167,34.723396,34.646057,34.59595,34.541275,34.443977,34.17611,33.69102,33.00102,31.76358,30.36118,29.553663,29.066216,28.79886,28.652874,28.54382,28.425444,28.29346,28.166286,28.071388,28.024837,28.026585,28.06607,28.135471,28.219841,28.300268,28.365456,28.413818,28.447771,28.47196,28.498634,28.542046,28.607391,28.687092,28.768078,28.847862,28.912567,28.956144,28.982807,29.001558,29.02008,29.041626,29.065895,29.07874,29.071335,29.04912,29.020996,28.995022,28.981117,28.982588,28.99601,29.012966,29.021215,29.017143,29.012161,29.02419,29.062716,29.138538,29.237427,29.311056,29.317032,29.237583,29.089,28.925117,28.73653,28.525963,28.32114,28.156212,28.065575,28.069427,28.155626,28.284523,28.41785,28.481392,28.443409,28.37624,28.409172,28.634514,29.133398,30.030678,31.4118,32.390945,32.82012,33.13315,33.27942,33.336823,33.363213,33.384056,33.42087,33.470406,33.518837,33.563873,33.612503,33.675438,33.752907,33.837975,33.903275,33.927666,33.91497,33.880478,33.842873,33.825012,33.835587,33.871452,33.917477,33.956196,33.980446,33.996742,34.01232,34.03115,34.05088,34.060284,34.047676,34.01258,33.96702,33.919033,33.890163,33.894814,33.931305,33.976555,33.99414,33.95509,33.860657,33.721123,33.60838,33.57292,33.581364,33.540047,33.371178,32.99769,32.144753,30.363785,28.394703,27.06754,26.46574,26.35925,26.433884,26.573044,26.645859,26.571758,26.390583,26.208595,26.100056,26.093132,26.142496,26.241467,26.34548,26.414108,26.442707,26.45425,26.47023,26.495543,26.535635,26.576786,26.615059,26.65206,26.684345,26.709263,26.72827,26.735676,26.728607,26.708946,26.680372,26.647305,26.615383,26.585758,26.557209,26.530334,26.504353,26.47908,26.455294,26.43362,26.414192,26.396,26.381237,26.36604,26.343052,26.306854,26.254818,26.183247,26.11195,26.066814,26.077976,26.167439,26.313755,26.457607,26.55592,26.609625,26.616348,26.72727,27.077873,27.829098,29.143108,30.834814,31.382854,31.705406,31.760052,31.599026,31.379015,31.21619,31.118383,31.103994,31.128834,31.135494,31.105053,31.045174,30.971935,30.901161,30.843182,30.79136,30.73608,30.67635,30.612442,30.545355,30.475945,30.402979
35.40422,35.24781,35.04619,34.800903,34.520325,34.271667,34.04222,33.802876,33.554913,33.323223,33.12603,32.972313,32.879402,32.84813,32.86362,32.8788,32.842445,32.749844,32.61651,32.468224,32.370747,32.368538,32.446735,32.558914,32.672565,32.764,32.84369,32.935783,33.067574,33.228157,33.399544,33.582764,33.75538,33.910446,34.04949,34.13075,34.159485,34.16767,34.170227,34.177567,34.20736,34.28376,34.378006,34.45703,34.511124,34.545204,34.56208,34.5943,34.617577,34.637337,34.66324,34.69552,34.734528,34.785805,34.82949,34.85827,34.869133,34.861977,34.84855,34.839455,34.833897,34.833,34.83162,34.82949,34.823067,34.813805,34.801327,34.784157,34.770947,34.757248,34.742195,34.721428,34.696358,34.669773,34.642197,34.614746,34.58481,34.558292,34.534,34.510674,34.486946,34.45854,34.419373,34.3663,34.30867,34.254967,34.217026,34.20559,34.209213,34.20102,34.18405,34.136757,34.05262,33.97702,33.94266,33.940628,33.93686,33.895645,33.72398,33.36046,32.8039,31.790924,30.552996,29.67406,29.130337,28.820894,28.652943,28.549526,28.456928,28.353535,28.244236,28.154024,28.101707,28.093231,28.1246,28.19144,28.27922,28.366997,28.440193,28.495586,28.537773,28.5733,28.615269,28.67726,28.760906,28.856161,28.95417,29.04583,29.11082,29.145287,29.159397,29.16684,29.176167,29.188637,29.20108,29.20087,29.18143,29.143871,29.103842,29.077358,29.065754,29.073586,29.09731,29.123436,29.137074,29.134586,29.129658,29.143158,29.185148,29.261429,29.357725,29.426258,29.424667,29.334934,29.172585,28.989628,28.791063,28.573166,28.36734,28.209888,28.13334,28.154573,28.259012,28.404251,28.550901,28.623936,28.591557,28.527103,28.560585,28.782587,29.266716,30.18512,31.35306,32.151394,32.52706,32.777847,32.877155,32.902866,32.898216,32.903454,32.934402,32.98024,33.023666,33.05867,33.08909,33.124756,33.16909,33.220642,33.262123,33.278717,33.271545,33.249084,33.224533,33.21491,33.226303,33.256012,33.292084,33.320984,33.337578,33.347263,33.355568,33.365997,33.37686,33.379547,33.36513,33.333458,33.294155,33.252647,33.22534,33.223213,33.246384,33.279476,33.296135,33.274323,33.21422,33.126656,33.05982,33.05826,33.0921,33.070084,32.9273,32.59905,31.919985,30.270962,28.444992,27.22607,26.594194,26.474686,26.55341,26.70179,26.770712,26.707064,26.545773,26.368008,26.25811,26.248333,26.316895,26.433393,26.556778,26.639288,26.668869,26.677666,26.68881,26.705309,26.732718,26.766691,26.795065,26.81509,26.83287,26.845697,26.854874,26.855824,26.847229,26.830488,26.807493,26.7804,26.752563,26.724724,26.69597,26.667366,26.639042,26.611595,26.585808,26.561665,26.539042,26.517082,26.498623,26.481503,26.46101,26.431072,26.384834,26.317114,26.25103,26.207775,26.211773,26.278236,26.388752,26.499916,26.583603,26.62691,26.666458,26.79373,27.1259,27.819672,28.983006,30.402864,30.897411,31.146389,31.179268,31.03775,30.845615,30.70817,30.621864,30.602066,30.613127,30.605679,30.56381,30.495817,30.416958,30.342052,30.283756,30.228493,30.151112,30.072506,29.998772,29.926315,29.848621,29.739384
33.483177,33.308422,33.10486,32.886776,32.695053,32.540085,32.406586,32.27449,32.143555,32.027195,31.931526,31.86863,31.84386,31.86028,31.91477,31.980099,32.018005,32.015396,31.982471,31.932495,31.906406,31.935133,32.011093,32.105705,32.1998,32.277893,32.350166,32.43062,32.539284,32.667538,32.80477,32.95767,33.10833,33.251087,33.387817,33.48645,33.53788,33.56121,33.577095,33.594246,33.629997,33.70256,33.792633,33.873756,33.93586,33.980705,34.00747,34.036423,34.05854,34.07861,34.096634,34.108368,34.11587,34.128662,34.147575,34.15996,34.16224,34.15641,34.145447,34.131897,34.118835,34.10797,34.09752,34.085487,34.07018,34.052826,34.03201,34.00658,33.985657,33.96737,33.951088,33.93488,33.917423,33.89447,33.864937,33.83748,33.806755,33.77542,33.749557,33.726418,33.702023,33.673782,33.637558,33.590748,33.539204,33.488705,33.448677,33.42785,33.41889,33.40397,33.387047,33.350807,33.290344,33.238327,33.22101,33.241867,33.279396,33.286366,33.194717,32.94767,32.500465,31.78036,30.786036,29.78149,29.202957,28.858248,28.671282,28.575409,28.511147,28.44,28.35266,28.270412,28.214138,28.196522,28.220306,28.28458,28.375263,28.469505,28.549904,28.612434,28.66463,28.71553,28.777142,28.862286,28.97824,29.11287,29.22978,29.32951,29.394098,29.4175,29.414207,29.404284,29.39854,29.397537,29.394073,29.375172,29.335392,29.281654,29.228611,29.191603,29.18018,29.190517,29.214914,29.246151,29.264244,29.259586,29.247389,29.254387,29.293718,29.36517,29.459328,29.52576,29.520369,29.424797,29.252975,29.056393,28.854694,28.635439,28.434158,28.289288,28.230604,28.271046,28.393639,28.553623,28.710423,28.790787,28.762987,28.69915,28.72711,28.932852,29.378582,30.2655,31.206467,31.822067,32.13089,32.309216,32.359867,32.355343,32.327354,32.326656,32.359406,32.40789,32.45356,32.487297,32.510956,32.53356,32.5607,32.59444,32.62433,32.639725,32.63965,32.627655,32.61293,32.608032,32.61731,32.63877,32.663734,32.682243,32.69046,32.693115,32.69416,32.69674,32.699623,32.696198,32.6799,32.651184,32.617588,32.582626,32.558502,32.552513,32.565067,32.586033,32.596695,32.58091,32.537903,32.48594,32.447716,32.458134,32.502716,32.50402,32.392326,32.119404,31.581844,30.10086,28.45388,27.366196,26.756643,26.612457,26.702797,26.825377,26.885468,26.8335,26.699017,26.55726,26.469128,26.462574,26.55185,26.667421,26.77111,26.843498,26.88153,26.899284,26.914536,26.928322,26.944815,26.962242,26.97546,26.983898,26.990618,26.994122,26.994665,26.9892,26.977448,26.96086,26.940285,26.916105,26.89014,26.862701,26.832891,26.802223,26.771393,26.741709,26.714226,26.688478,26.66406,26.640003,26.618843,26.598995,26.576244,26.545483,26.50285,26.448103,26.393894,26.357128,26.353489,26.400082,26.485851,26.572468,26.637022,26.67266,26.72305,26.850977,27.164454,27.80225,28.80418,29.928577,30.37519,30.576271,30.583889,30.464216,30.305294,30.178493,30.10353,30.077255,30.06911,30.04626,29.99348,29.921322,29.849602,29.776022,29.661537,29.52467,29.386694,29.266464,29.161556,29.06387,28.96695,28.854645
31.843636,31.725132,31.587303,31.45544,31.37117,31.321554,31.292912,31.272787,31.251091,31.224499,31.20355,31.201153,31.221397,31.267208,31.338026,31.415813,31.474457,31.505219,31.514534,31.508492,31.513134,31.548817,31.611362,31.684435,31.75864,31.824669,31.892864,31.969624,32.06799,32.17864,32.293503,32.421604,32.55027,32.67488,32.79553,32.891502,32.95022,32.982254,33.00715,33.030083,33.065636,33.12523,33.196796,33.261566,33.311787,33.34935,33.374382,33.399242,33.419804,33.437813,33.452282,33.460213,33.461647,33.460606,33.458946,33.447838,33.426003,33.400726,33.374733,33.3488,33.327614,33.310966,33.29458,33.278015,33.26124,33.24575,33.22891,33.20775,33.18971,33.17315,33.156273,33.14118,33.12931,33.116302,33.09886,33.08282,33.064526,33.04476,33.019947,32.99464,32.96996,32.942028,32.91001,32.870186,32.826702,32.783073,32.746273,32.7228,32.70758,32.688446,32.669052,32.635815,32.585014,32.54042,32.523796,32.545586,32.59879,32.64863,32.618294,32.46795,32.12763,31.630604,30.854883,29.86028,29.267208,28.903053,28.705805,28.620815,28.585705,28.547874,28.484879,28.41335,28.355717,28.331161,28.34881,28.410769,28.50327,28.602032,28.68756,28.75549,28.817713,28.883167,28.97004,29.101505,29.26258,29.405537,29.51416,29.59317,29.636457,29.649448,29.645576,29.634605,29.619322,29.600655,29.581608,29.55255,29.5141,29.456593,29.388525,29.337212,29.317463,29.321396,29.339788,29.365034,29.376698,29.364136,29.341782,29.336718,29.36252,29.42702,29.50138,29.556293,29.570232,29.502172,29.328014,29.119999,28.918098,28.705875,28.517246,28.390335,28.352495,28.412247,28.550396,28.719156,28.882055,28.963585,28.937513,28.872898,28.886856,29.060719,29.443476,30.225262,30.959908,31.418938,31.652596,31.763037,31.770134,31.738565,31.701355,31.702888,31.742487,31.796791,31.847038,31.886152,31.911995,31.93305,31.95575,31.984167,32.011684,32.02958,32.035587,32.031487,32.022892,32.020374,32.02621,32.0389,32.05287,32.06218,32.065292,32.06482,32.06187,32.05849,32.05432,32.04541,32.02774,32.002045,31.973545,31.943657,31.92043,31.908195,31.908619,31.916233,31.91784,31.90191,31.86787,31.830433,31.804832,31.817171,31.862291,31.879107,31.793228,31.585005,31.143925,29.852673,28.421526,27.477737,26.919853,26.769909,26.843554,26.948124,27.013752,26.979202,26.86598,26.750473,26.683804,26.691511,26.766785,26.86872,26.967804,27.044868,27.10007,27.14479,27.173658,27.18856,27.194012,27.190075,27.179874,27.167915,27.156406,27.14576,27.1376,27.125858,27.110714,27.094074,27.075947,27.054798,27.030901,27.004019,26.973171,26.940418,26.90712,26.875414,26.846752,26.820244,26.795204,26.77032,26.747396,26.725,26.699066,26.665312,26.622217,26.572332,26.522202,26.48637,26.478996,26.514034,26.582487,26.649994,26.690062,26.721413,26.772343,26.902878,27.208155,27.765314,28.564869,29.438782,29.854414,30.00063,29.991304,29.890774,29.75632,29.649487,29.589693,29.555668,29.531649,29.494453,29.432362,29.33564,29.201418,29.04044,28.865772,28.700544,28.548294,28.414625,28.29634,28.186024,28.076546,27.961388
30.726267,30.687546,30.63186,30.57871,30.551073,30.555538,30.580791,30.614561,30.64946,30.681479,30.711838,30.752045,30.80365,30.86908,30.94873,31.02977,31.09407,31.137009,31.164284,31.179157,31.198446,31.234873,31.285854,31.342728,31.402077,31.458809,31.52317,31.596733,31.686836,31.78297,31.878155,31.98212,32.08589,32.18823,32.286896,32.36459,32.41419,32.444435,32.467422,32.487274,32.514114,32.55369,32.59845,32.63607,32.66308,32.68371,32.699097,32.716217,32.728542,32.737377,32.743454,32.74626,32.745277,32.7398,32.72557,32.69935,32.661087,32.6189,32.57978,32.546906,32.522003,32.504124,32.485924,32.469414,32.45559,32.44558,32.43609,32.423225,32.41239,32.40142,32.38994,32.38002,32.375023,32.37518,32.376793,32.375774,32.36488,32.353554,32.334286,32.316036,32.302856,32.28518,32.25669,32.223602,32.18786,32.15113,32.117767,32.093407,32.07512,32.053413,32.031284,31.998188,31.951084,31.906929,31.884993,31.896996,31.943316,32.00873,32.022392,31.943966,31.699251,31.326454,30.714264,29.869608,29.295458,28.937508,28.744843,28.67505,28.66668,28.65823,28.617624,28.557707,28.502214,28.4748,28.48917,28.549446,28.641592,28.7403,28.826683,28.901161,28.97357,29.058939,29.189396,29.35008,29.491688,29.5895,29.661137,29.707722,29.728693,29.734241,29.733353,29.727362,29.714123,29.694393,29.67521,29.651115,29.625317,29.583624,29.525234,29.470127,29.434153,29.42393,29.428562,29.437136,29.43226,29.4064,29.37278,29.35543,29.367054,29.415813,29.466858,29.512486,29.5477,29.51847,29.371971,29.16927,28.970451,28.76934,28.600159,28.49673,28.481184,28.557705,28.705246,28.883156,29.053665,29.131481,29.092798,29.015358,29.011229,29.141151,29.44498,30.069632,30.641098,30.981718,31.139183,31.198376,31.180702,31.139666,31.110275,31.105665,31.13499,31.196379,31.262957,31.304846,31.335098,31.359432,31.384716,31.411377,31.43644,31.457224,31.470345,31.470451,31.466377,31.459206,31.455864,31.457554,31.460167,31.45985,31.456078,31.450716,31.444088,31.438568,31.433275,31.423168,31.404236,31.378437,31.351143,31.324467,31.306145,31.298084,31.29572,31.292562,31.283997,31.267044,31.239782,31.200058,31.178627,31.186756,31.218372,31.241573,31.18589,31.032257,30.637072,29.546545,28.346968,27.546057,27.06919,26.928558,26.98177,27.08096,27.148125,27.125423,27.02956,26.926329,26.866577,26.876562,26.934181,27.029644,27.141289,27.244118,27.326565,27.38891,27.424294,27.434242,27.425098,27.400835,27.368637,27.336262,27.307922,27.284218,27.265089,27.245327,27.227594,27.212433,27.197403,27.179607,27.158016,27.1318,27.100048,27.065393,27.029964,26.996746,26.967566,26.941185,26.916496,26.891802,26.868057,26.843975,26.816256,26.78122,26.737556,26.687939,26.63868,26.603039,26.594234,26.621437,26.674198,26.722937,26.745548,26.772446,26.819733,26.943241,27.223228,27.679823,28.282593,28.962648,29.32256,29.443892,29.429165,29.337276,29.223509,29.122307,29.02192,28.9749,28.946808,28.901398,28.813217,28.668608,28.469221,28.246155,28.062698,27.910078,27.767359,27.636074,27.517292,27.40573,27.29279,27.171745
30.025885,30.023214,30.008589,29.995129,30.002592,30.036873,30.088207,30.146946,30.207874,30.266869,30.321646,30.381742,30.448273,30.524078,30.610294,30.696667,30.768993,30.824465,30.867653,30.901426,30.936153,30.978966,31.028004,31.078943,31.131027,31.18188,31.241564,31.309021,31.387775,31.467247,31.541805,31.621408,31.699888,31.777046,31.849564,31.90411,31.936256,31.953249,31.964092,31.97197,31.982918,31.999008,32.015823,32.025635,32.02824,32.029465,32.030807,32.03605,32.037704,32.0375,32.03403,32.024845,32.009895,31.990667,31.964886,31.930538,31.89044,31.851189,31.817486,31.79052,31.769867,31.754215,31.738417,31.72445,31.713581,31.707146,31.7019,31.693752,31.687546,31.68293,31.682728,31.685413,31.691204,31.700779,31.711767,31.718624,31.711212,31.702902,31.698425,31.697979,31.699112,31.692707,31.66817,31.640184,31.610285,31.579857,31.554161,31.533138,31.511667,31.487492,31.4637,31.431221,31.387135,31.342957,31.315031,31.315924,31.34771,31.398365,31.431627,31.397259,31.22784,30.941746,30.46256,29.79076,29.269407,28.944061,28.771507,28.720268,28.733368,28.747498,28.726454,28.679186,28.627354,28.599848,28.613758,28.672346,28.762785,28.861362,28.948164,29.025698,29.101456,29.206009,29.35402,29.48345,29.555008,29.604794,29.643272,29.671288,29.68477,29.684723,29.677332,29.668417,29.660202,29.652454,29.642775,29.62661,29.60356,29.578472,29.546333,29.502234,29.459942,29.437798,29.424824,29.414207,29.39111,29.35314,29.314468,29.291904,29.29475,29.325619,29.368263,29.413189,29.448523,29.439034,29.345718,29.176762,28.990969,28.803936,28.65813,28.581577,28.58721,28.676456,28.830439,29.01812,29.189817,29.26101,29.20208,29.099823,29.071651,29.154146,29.375679,29.831322,30.274532,30.538923,30.642096,30.667953,30.646313,30.615978,30.587143,30.566528,30.57883,30.643318,30.726974,30.776257,30.809166,30.832699,30.851412,30.867533,30.884201,30.903387,30.919144,30.918774,30.914093,30.898472,30.88406,30.87495,30.867636,30.858198,30.845444,30.83297,30.822685,30.81849,30.817783,30.811272,30.792395,30.764465,30.73487,30.707602,30.695358,30.69957,30.705687,30.701748,30.688019,30.662403,30.625443,30.576466,30.564846,30.582827,30.60455,30.620846,30.598454,30.495522,30.10432,29.208103,28.238203,27.571974,27.192253,27.070251,27.11686,27.207344,27.26926,27.250408,27.165386,27.071247,27.011917,27.010242,27.070107,27.168133,27.288849,27.413708,27.514397,27.571186,27.598412,27.595774,27.57088,27.53083,27.485435,27.443787,27.409695,27.381392,27.3544,27.32841,27.309086,27.295904,27.28433,27.270042,27.250288,27.224495,27.191854,27.1557,27.119066,27.085552,27.057018,27.03169,27.007689,26.982845,26.958267,26.933392,26.90558,26.871714,26.830938,26.785906,26.74075,26.708786,26.699287,26.71983,26.759043,26.79122,26.80759,26.82756,26.865696,26.963667,27.187592,27.542274,27.99258,28.501709,28.77779,28.902027,28.889774,28.805128,28.693712,28.555016,28.401546,28.344128,28.314075,28.26224,28.144276,27.965109,27.763447,27.572163,27.411077,27.253078,27.101768,26.963852,26.840157,26.725578,26.612343,26.494137
29.540562,29.558628,29.568773,29.57956,29.605198,29.651102,29.709476,29.773682,29.840832,29.907537,29.970245,30.036396,30.107931,30.188393,30.279531,30.372421,30.454327,30.522331,30.58025,30.631634,30.682178,30.735147,30.788822,30.84079,30.890903,30.938553,30.993544,31.053717,31.120323,31.183466,31.23895,31.296768,31.35278,31.4066,31.454357,31.485796,31.498291,31.498375,31.4937,31.486938,31.480995,31.475714,31.46899,31.456266,31.439316,31.42455,31.413408,31.407549,31.39917,31.390339,31.379562,31.36407,31.343533,31.31939,31.289871,31.253256,31.213566,31.176382,31.145481,31.12145,31.10299,31.088757,31.074787,31.063183,31.055408,31.05288,31.05231,31.049316,31.048067,31.04866,31.053345,31.060633,31.070084,31.080284,31.08941,31.098698,31.110355,31.123417,31.14064,31.151848,31.149899,31.138573,31.12266,31.099545,31.075123,31.05152,31.040617,31.030193,31.007435,30.983805,30.958752,30.926502,30.884768,30.840918,30.80862,30.800072,30.817532,30.850662,30.874828,30.856981,30.746593,30.543228,30.179438,29.647757,29.193592,28.916515,28.773243,28.740938,28.769428,28.80072,28.799063,28.766241,28.718098,28.691124,28.705956,28.7626,28.850254,28.948904,29.034225,29.100922,29.166914,29.269669,29.358494,29.422508,29.481667,29.531319,29.563396,29.582766,29.587446,29.580858,29.56955,29.558023,29.547178,29.53629,29.52363,29.504686,29.47945,29.44984,29.418411,29.387768,29.360268,29.335966,29.312004,29.288208,29.25254,29.210669,29.178581,29.159924,29.154865,29.18238,29.224411,29.263748,29.289703,29.287697,29.234293,29.113968,28.954695,28.790127,28.66932,28.617733,28.64101,28.739231,28.90013,29.08296,29.23389,29.296812,29.233873,29.113747,29.05355,29.092688,29.23953,29.542833,29.871922,30.09784,30.189386,30.197266,30.174953,30.147808,30.08979,30.06252,30.084696,30.143866,30.21983,30.290428,30.326107,30.342445,30.33842,30.334415,30.340263,30.35066,30.356476,30.351912,30.337996,30.32051,30.303455,30.289253,30.276632,30.262547,30.246593,30.232986,30.222996,30.220024,30.221226,30.216885,30.199762,30.172468,30.141548,30.109108,30.091972,30.094084,30.103306,30.107088,30.096184,30.05069,29.98216,29.9263,29.929401,29.982162,30.02767,30.03422,30.028042,29.985327,29.587944,28.862194,28.1142,27.57415,27.27015,27.184845,27.213821,27.297009,27.371134,27.359585,27.270784,27.176596,27.122171,27.121178,27.175283,27.269634,27.398304,27.525423,27.613966,27.66151,27.677584,27.663795,27.628063,27.57823,27.52532,27.479584,27.444489,27.41609,27.39109,27.366703,27.347366,27.335472,27.328392,27.319181,27.30157,27.2765,27.243206,27.206003,27.169273,27.137089,27.11066,27.087109,27.063568,27.037453,27.011307,26.986012,26.959148,26.927752,26.8913,26.850716,26.808327,26.778461,26.771397,26.789913,26.820656,26.843433,26.853714,26.865591,26.890598,26.960598,27.124624,27.383583,27.702545,28.05054,28.272118,28.3634,28.353573,28.279613,28.13142,27.946358,27.840115,27.786392,27.741667,27.67651,27.55989,27.38942,27.197952,27.020851,26.857077,26.698162,26.545193,26.405281,26.28003,26.165344,26.054628,25.94212
29.152784,29.176876,29.197277,29.21922,29.251144,29.2976,29.35284,29.413052,29.477343,29.543207,29.60688,29.673946,29.747547,29.831398,29.927523,30.027954,30.120464,30.20101,30.273098,30.341148,30.407284,30.472057,30.533726,30.590508,30.641914,30.688585,30.739784,30.793306,30.848938,30.897823,30.937288,30.977093,31.014545,31.048555,31.074608,31.085072,31.078705,31.061792,31.041574,31.02045,30.99914,30.976233,30.951462,30.922676,30.892708,30.867672,30.848429,30.835068,30.819927,30.804977,30.789055,30.769554,30.745857,30.719257,30.68861,30.652245,30.614857,30.581005,30.553585,30.532764,30.51672,30.504147,30.492128,30.482704,30.47739,30.477634,30.480232,30.48069,30.48261,30.486458,30.494326,30.504314,30.515858,30.52777,30.538254,30.547787,30.55568,30.563934,30.57835,30.594692,30.606525,30.611763,30.610443,30.60252,30.59093,30.570633,30.55164,30.5397,30.536257,30.536827,30.50845,30.471561,30.430523,30.390507,30.358326,30.340326,30.338634,30.349976,30.362793,30.352934,30.278496,30.143993,29.873869,29.442566,29.07927,28.857304,28.74667,28.731375,28.770786,28.816765,28.833559,28.812803,28.777744,28.758656,28.776154,28.835796,28.912086,28.973942,29.017647,29.0635,29.12659,29.206741,29.271927,29.322998,29.37162,29.407791,29.427326,29.435154,29.430584,29.417812,29.402763,29.38897,29.376743,29.365025,29.351875,29.333155,29.308857,29.280483,29.249691,29.218285,29.188602,29.161095,29.132755,29.105495,29.071926,29.030144,28.99198,28.971844,28.969246,28.991173,29.02961,29.063086,29.088388,29.096083,29.059708,28.977116,28.850979,28.720299,28.623247,28.58884,28.627203,28.731564,28.882788,29.027308,29.147053,29.209816,29.157444,29.038363,28.964031,28.96207,29.048428,29.227407,29.473804,29.66576,29.75741,29.777803,29.73361,29.648079,29.582487,29.560026,29.583515,29.639687,29.708187,29.76928,29.811882,29.830212,29.831596,29.827969,29.826935,29.82809,29.826813,29.819084,29.804136,29.784834,29.763924,29.744755,29.727722,29.710789,29.693705,29.67951,29.668085,29.661892,29.65803,29.647198,29.62439,29.594654,29.56061,29.527197,29.50482,29.496063,29.495352,29.491611,29.473148,29.433353,29.374157,29.324352,29.295181,29.322493,29.413548,29.501816,29.499823,29.447803,29.082342,28.527153,27.973974,27.553593,27.317635,27.25809,27.28088,27.370193,27.442165,27.42937,27.343119,27.249016,27.196323,27.19238,27.239895,27.333908,27.453964,27.567646,27.64693,27.683777,27.69097,27.669796,27.627785,27.57475,27.521347,27.47514,27.438438,27.40967,27.386086,27.365618,27.350348,27.341074,27.336988,27.332108,27.316597,27.29166,27.257328,27.218407,27.181187,27.150608,27.126902,27.106043,27.085121,27.062435,27.037766,27.01104,26.981236,26.948374,26.91307,26.872438,26.838154,26.816101,26.812424,26.826595,26.848576,26.864765,26.869045,26.872955,26.884096,26.925808,27.034523,27.209833,27.420658,27.644917,27.828766,27.90184,27.872406,27.75138,27.587025,27.449112,27.367268,27.312756,27.257648,27.182865,27.061777,26.89959,26.724007,26.553381,26.393692,26.236847,26.08434,25.94426,25.819048,25.705685,25.5988,25.493023
28.781353,28.804337,28.828056,28.854858,28.887354,28.9292,28.97675,29.02881,29.08612,29.147034,29.20819,29.27367,29.34758,29.433517,29.533413,29.640049,29.741629,29.832787,29.91666,29.998304,30.0773,30.152304,30.221563,30.283379,30.336313,30.381798,30.428345,30.474136,30.51844,30.553654,30.578407,30.6022,30.623356,30.639812,30.646477,30.637978,30.614145,30.581234,30.54655,30.512291,30.4778,30.441029,30.403397,30.364504,30.32731,30.29677,30.27296,30.254679,30.23484,30.215778,30.196712,30.175316,30.150791,30.124084,30.094738,30.061127,30.028156,29.999256,29.976326,29.959183,29.945883,29.935173,29.925339,29.91806,29.914778,29.916954,29.92147,29.923843,29.927364,29.932657,29.941645,29.952106,29.963474,29.974804,29.984528,29.993223,29.999928,30.006676,30.01562,30.024881,30.032986,30.038471,30.03761,30.030216,30.020504,30.008305,29.999601,29.999708,30.0074,30.015682,30.016548,30.005154,29.968922,29.913376,29.863453,29.839983,29.843449,29.863102,29.863693,29.852715,29.809582,29.711628,29.498623,29.176935,28.914534,28.754822,28.680576,28.68099,28.731482,28.789118,28.812416,28.794958,28.773218,28.768219,28.7871,28.827879,28.875046,28.9138,28.944012,28.975288,29.0274,29.07906,29.121563,29.158392,29.190056,29.209267,29.21423,29.209488,29.19542,29.176542,29.157822,29.141758,29.12827,29.11612,29.10331,29.086216,29.064735,29.039703,29.011948,28.98262,28.953611,28.925354,28.895206,28.866127,28.832294,28.790089,28.748913,28.723724,28.714676,28.725607,28.757732,28.797596,28.831701,28.84464,28.822094,28.767246,28.665443,28.566523,28.498466,28.48412,28.531971,28.631208,28.758923,28.86684,28.966467,29.004982,28.951265,28.85014,28.773254,28.743694,28.780422,28.87288,29.002707,29.119392,29.184826,29.193016,29.158768,29.109257,29.07309,29.064934,29.090027,29.141409,29.201595,29.252861,29.290825,29.309513,29.312094,29.307922,29.303394,29.298721,29.291306,29.279232,29.262848,29.243694,29.223448,29.204147,29.186485,29.168608,29.148478,29.129822,29.11161,29.095783,29.081121,29.062284,29.035854,29.00468,28.971996,28.9394,28.913637,28.899979,28.895103,28.887997,28.867802,28.83048,28.779566,28.730776,28.692287,28.68711,28.732002,28.797373,28.812637,28.753798,28.52105,28.171318,27.798845,27.500555,27.335546,27.291271,27.315441,27.402786,27.461395,27.441406,27.361984,27.27555,27.22152,27.215425,27.256313,27.341621,27.444149,27.533476,27.591011,27.613123,27.610344,27.583858,27.539738,27.488739,27.441744,27.40446,27.377151,27.358215,27.341953,27.326317,27.31571,27.310995,27.30864,27.30235,27.286396,27.260746,27.226013,27.187489,27.151447,27.12278,27.101944,27.0849,27.067453,27.046762,27.022736,26.99624,26.9686,26.938913,26.90495,26.867996,26.835785,26.810173,26.804789,26.818266,26.835773,26.845016,26.843624,26.838871,26.835232,26.84811,26.903376,27.001787,27.119299,27.238419,27.346226,27.380905,27.334717,27.219673,27.085976,26.982143,26.909473,26.853558,26.790665,26.705515,26.58608,26.437965,26.276485,26.113792,25.960243,25.807117,25.656364,25.517168,25.392914,25.281754,25.17942,25.080132
28.397339,28.4241,28.45504,28.489822,28.527164,28.5696,28.61513,28.66446,28.719288,28.77843,28.838764,28.903553,28.976753,29.061264,29.158464,29.262146,29.361753,29.451437,29.53434,29.615547,29.69336,29.765957,29.832058,29.890135,29.938227,29.97799,30.016865,30.053663,30.087597,30.111752,30.125196,30.136942,30.14582,30.149227,30.141949,30.120625,30.085892,30.043781,30.001429,29.96048,29.919666,29.876896,29.834766,29.793896,29.756569,29.726116,29.701889,29.681831,29.659622,29.635298,29.610754,29.586308,29.5609,29.534801,29.50816,29.477806,29.449814,29.427067,29.410585,29.399612,29.391901,29.386457,29.380974,29.377487,29.377193,29.380537,29.384666,29.386478,29.388973,29.39303,29.400463,29.408787,29.417595,29.426243,29.433407,29.439854,29.444736,29.449478,29.454239,29.457882,29.459038,29.456417,29.448853,29.436047,29.421738,29.40903,29.402473,29.404808,29.413116,29.42155,29.429735,29.428503,29.41109,29.375599,29.337679,29.317043,29.318687,29.333023,29.331884,29.327753,29.305159,29.237015,29.087057,28.872686,28.699053,28.597996,28.557589,28.573044,28.630928,28.69393,28.719967,28.703972,28.691063,28.690939,28.70693,28.735891,28.765934,28.786896,28.800144,28.814802,28.850334,28.875664,28.896652,28.91663,28.929218,28.930908,28.921669,28.905186,28.88251,28.858133,28.835999,28.81781,28.803375,28.79137,28.779846,28.765678,28.748676,28.728857,28.706188,28.681446,28.656437,28.631014,28.603329,28.572683,28.535023,28.493137,28.455976,28.429398,28.41243,28.41503,28.44099,28.48027,28.518429,28.53529,28.514294,28.463394,28.385605,28.31525,28.273338,28.276447,28.327436,28.41235,28.510101,28.588428,28.651318,28.657906,28.609123,28.534138,28.465256,28.429611,28.434608,28.4736,28.528946,28.585747,28.621727,28.62462,28.608599,28.59136,28.577778,28.579884,28.60445,28.648685,28.699749,28.742939,28.773443,28.790436,28.79385,28.788906,28.780806,28.771126,28.758904,28.74342,28.723839,28.701279,28.67784,28.6552,28.633827,28.6127,28.590706,28.569984,28.548773,28.528572,28.508991,28.486923,28.459839,28.429108,28.398052,28.366306,28.339127,28.32036,28.308258,28.295826,28.275578,28.244026,28.200459,28.154123,28.114908,28.093086,28.098066,28.123426,28.136452,28.09157,27.96389,27.775036,27.55825,27.370403,27.264223,27.241634,27.281082,27.352215,27.388077,27.36081,27.292557,27.222845,27.178513,27.175655,27.211285,27.27589,27.348375,27.407677,27.441582,27.448534,27.43584,27.40427,27.35843,27.309929,27.270235,27.243574,27.22765,27.219433,27.211702,27.20203,27.19571,27.193974,27.192429,27.18509,27.168839,27.143312,27.109447,27.072718,27.039299,27.013844,26.996761,26.98393,26.970402,26.952717,26.931128,26.907433,26.884697,26.863316,26.841057,26.818726,26.793911,26.770374,26.757229,26.75647,26.760536,26.759842,26.750994,26.743135,26.729301,26.718521,26.729818,26.766369,26.81343,26.85944,26.899029,26.891628,26.82864,26.725388,26.617027,26.528841,26.45867,26.401234,26.334103,26.24612,26.13276,25.997543,25.849415,25.698862,25.554049,25.40569,25.256153,25.11517,24.987366,24.872406,24.767546,24.668388
