15.660154,15.669205,15.678665,15.68866,15.699327,15.709568,15.718624,15.727106,15.734882,15.7427435,15.750937,15.759222,15.767279,15.7748785,15.781866,15.788048,15.79428,15.800748,15.807531,15.814344,15.820857,15.826981,15.832688,15.838131,15.843479,15.849006,15.854866,15.861438,15.868992,15.877207,15.885996,15.895677,15.905937,15.916318,15.92655,15.936556,15.946215,15.955328,15.964771,15.974603,15.984774,15.995454,16.005474,16.013527,16.02121,16.028717,16.0368,16.044716,16.052116,16.058903,16.065075,16.070936,16.076271,16.081985,16.087883,16.093834,16.099476,16.10455,16.109295,16.113924,16.119448,16.12503,16.131111,16.137938,16.145325,16.153214,16.161198,16.169933,16.179337,16.189426,16.19973,16.2099,16.220074,16.229986,16.240387,16.251297,16.262459,16.273603,16.284697,16.295925,16.307156,16.319271,16.332851,16.348671,16.36696,16.387741,16.410753,16.434788,16.458744,16.483099,16.504362,16.519882,16.5271,16.524826,16.514458,16.498375,16.476288,16.449173,16.419516,16.389435,16.360344,16.333012,16.307209,16.281216,16.256721,16.236288,16.223791,16.219925,16.221724,16.22699,16.233624,16.240126,16.24658,16.25279,16.2588,16.264606,16.269485,16.273357,16.275417,16.274635,16.270151,16.262028,16.251308,16.23942,16.227182,16.21441,16.201181,16.18789,16.175068,16.163406,16.153551,16.145695,16.138737,16.131954,16.124454,16.115517,16.105267,16.094513,16.084053,16.073357,16.061813,16.048141,16.030941,16.009602,15.984638,15.957512,15.929129,15.897856,15.864107,15.82807,15.790183,15.751476,15.713286,15.676498,15.638736,15.600223,15.561753,15.523886,15.486988,15.4516945,15.419292,15.387676,15.356865,15.327594,15.299807,15.273502,15.249254,15.227778,15.208534,15.190943,15.174778,15.158581,15.1404705,15.118502,15.091019,15.05681,15.011803,14.955025,14.889814,14.821959,14.756973,14.698324,14.645632,14.591787,14.533703,14.470195,14.403185,14.338079,14.281231,14.235961,14.199824,14.173208,14.154239,14.140494,14.130004,14.1218605,14.116987,14.11554,14.117619,14.122528,14.128294,14.133242,14.137026,14.140049,14.142096,14.143053,14.1405115,14.130756,14.111653,14.08403,14.051704,14.020952,13.996321,13.984984,13.99361,14.022999,14.069714,14.128752,14.19345,14.26824,14.35116,14.435377,14.510427,14.565098,14.592991,14.595688,14.574412,14.528503,14.456588,14.3687725,14.282463,14.216567,14.1870575,14.19976,14.253256,14.345306,14.450676,14.539207,14.591191,14.598759,14.561108,14.497262,14.4262905,14.381781,14.400102,14.488698,14.61333,14.727323,14.816971,14.853657,14.843895,14.8082285,14.768461,14.743409,14.743483,14.775488,14.836304,14.912885,14.990358,15.054607,15.0878105,15.075303,15.036133,14.986872,14.941991,14.912254,14.8969555,14.886763,14.8728485,14.850088,14.8161335,14.7747135,14.728334,14.681782,14.637902,14.595163,14.553995,14.511834,14.470277,14.430979,14.394068,14.35913,14.325697,14.292813,14.25675,14.216845,14.172929,14.128601,14.08844,14.053621,14.021902,13.989482,13.950258,13.901052,13.841845,13.78163,13.734947,13.711502,13.711599,13.7250595,13.74333,13.756168,13.757722,13.751045,13.743578,13.736715,13.727612,13.697655,13.639591
15.512211,15.521377,15.530964,15.541069,15.551804,15.5621395,15.571311,15.57983,15.587577,15.59532,15.603319,15.611345,15.619078,15.6263,15.6328945,15.638725,15.644697,15.651005,15.65769,15.664416,15.670786,15.67667,15.682072,15.687177,15.692213,15.697496,15.703205,15.709726,15.717304,15.725545,15.734308,15.743886,15.754001,15.764203,15.774265,15.78414,15.793682,15.802698,15.812042,15.821789,15.83186,15.842387,15.852253,15.86021,15.867804,15.875242,15.883264,15.891144,15.898507,15.905223,15.911301,15.917069,15.92234,15.928034,15.933979,15.940024,15.945751,15.9508705,15.9555855,15.960093,15.965393,15.970683,15.976438,15.982925,15.989996,15.997612,16.005398,16.013947,16.023216,16.03316,16.043268,16.053257,16.063284,16.073116,16.083529,16.094479,16.10556,16.116373,16.126774,16.136875,16.146656,16.157116,16.168797,16.182514,16.198586,16.217127,16.237938,16.259975,16.282635,16.306736,16.329613,16.349155,16.362686,16.368176,16.365753,16.35669,16.340721,16.318258,16.291365,16.26223,16.23248,16.203056,16.174084,16.144306,16.115427,16.090687,16.074316,16.067116,16.066265,16.069681,16.0751,16.081509,16.088636,16.09588,16.102818,16.108955,16.113478,16.11688,16.118511,16.11768,16.113682,16.10652,16.097069,16.086607,16.075878,16.06477,16.053204,16.041428,16.02988,16.019327,16.010593,16.003975,15.998555,15.993636,15.988226,15.981438,15.973251,15.964399,15.955639,15.946484,15.936411,15.924087,15.908123,15.887878,15.863838,15.837519,15.81002,15.779906,15.747894,15.714337,15.679516,15.64414,15.609298,15.575698,15.541137,15.505955,15.47097,15.436705,15.403484,15.371843,15.342775,15.314238,15.286082,15.258743,15.2321205,15.206362,15.182188,15.1604,15.140566,15.122102,15.104879,15.087876,15.069714,15.048676,15.023071,14.991704,14.950306,14.897121,14.834579,14.767391,14.700497,14.6378975,14.580274,14.521343,14.459448,14.394598,14.328809,14.266319,14.211903,14.167995,14.131826,14.103788,14.082433,14.065662,14.051691,14.039696,14.030533,14.024183,14.020761,14.020094,14.020794,14.021608,14.02227,14.0229,14.022762,14.02121,14.015434,14.001652,13.977909,13.945354,13.908083,13.872168,13.841017,13.821171,13.818807,13.835348,13.868893,13.916233,13.972446,14.042084,14.124065,14.213066,14.298542,14.368022,14.413174,14.43279,14.427397,14.394711,14.332203,14.249957,14.166014,14.100328,14.069998,14.080592,14.130724,14.218117,14.318554,14.402839,14.45215,14.459908,14.426264,14.37,14.310378,14.278972,14.309507,14.407908,14.539463,14.656763,14.750139,14.789366,14.777954,14.736843,14.690758,14.656809,14.637095,14.642502,14.679099,14.729889,14.784629,14.831194,14.853489,14.848032,14.826078,14.795708,14.770613,14.762144,14.768983,14.78006,14.7851095,14.777661,14.756551,14.72484,14.684614,14.64109,14.597869,14.55402,14.510899,14.465411,14.419943,14.376183,14.334431,14.294909,14.257806,14.222289,14.183756,14.140001,14.092548,14.0443945,13.999329,13.959375,13.923223,13.887712,13.847181,13.796083,13.734156,13.674505,13.633126,13.614875,13.620284,13.639108,13.662208,13.679129,13.684458,13.681215,13.676235,13.671482,13.663109,13.630526,13.567247
15.368725,15.378021,15.387719,15.397857,15.408535,15.418801,15.427923,15.436329,15.443914,15.451427,15.459141,15.466808,15.47414,15.480953,15.487156,15.492655,15.498379,15.504558,15.511192,15.517911,15.524264,15.530098,15.535408,15.540412,15.545376,15.550648,15.5564375,15.563118,15.570858,15.5792,15.58794,15.597382,15.607264,15.617192,15.627031,15.636772,15.646263,15.6553,15.664694,15.67452,15.684633,15.695112,15.704884,15.712791,15.720312,15.727701,15.735689,15.743546,15.750852,15.757447,15.76337,15.768973,15.774123,15.779755,15.785725,15.791859,15.797712,15.802934,15.807662,15.812088,15.817188,15.822193,15.827607,15.833734,15.840452,15.847773,15.855333,15.86368,15.872793,15.882547,15.892427,15.902194,15.912054,15.921795,15.932244,15.943245,15.954269,15.964804,15.9746,15.9837265,15.992254,16.001278,16.011335,16.023262,16.0374,16.053883,16.07254,16.092464,16.113392,16.136347,16.159344,16.180754,16.198078,16.209015,16.212978,16.21039,16.201145,16.185051,16.163406,16.137882,16.109798,16.080044,16.04913,16.016281,15.983278,15.953888,15.932636,15.920691,15.915804,15.916228,15.919746,15.925919,15.934071,15.943026,15.951601,15.958634,15.963147,15.966085,15.966969,15.965401,15.960941,15.953758,15.944825,15.935427,15.926212,15.917107,15.907835,15.898333,15.888821,15.880009,15.87281,15.867626,15.863741,15.860552,15.8570385,15.852207,15.845914,15.838772,15.831421,15.823424,15.81434,15.802842,15.787626,15.768103,15.744764,15.719126,15.692387,15.6632,15.632509,15.600761,15.568129,15.53507,15.50248,15.4709635,15.438447,15.405486,15.373019,15.341624,15.311588,15.283255,15.257315,15.231783,15.206437,15.181556,15.157048,15.133102,15.110382,15.089648,15.07053,15.052397,15.035162,15.018126,15.000219,14.979904,14.955607,14.926179,14.887281,14.836818,14.776644,14.710655,14.643322,14.579025,14.519201,14.458251,14.395462,14.3314,14.267788,14.207802,14.155071,14.111595,14.07466,14.044947,14.021664,14.003096,13.987442,13.973604,13.962072,13.952604,13.945316,13.940523,13.937471,13.935377,13.934021,13.933207,13.931736,13.928463,13.920259,13.903423,13.87634,13.840561,13.800401,13.761564,13.726451,13.700713,13.689772,13.6952505,13.716192,13.750671,13.795376,13.8546915,13.928551,14.013773,14.101444,14.179586,14.238677,14.2746105,14.286755,14.270475,14.221466,14.148902,14.070709,14.007427,13.977013,13.984788,14.029448,14.108786,14.200487,14.277664,14.323259,14.331764,14.303463,14.255922,14.207573,14.187419,14.226511,14.329718,14.462887,14.5793085,14.671478,14.710205,14.696259,14.650608,14.598066,14.553342,14.517305,14.498995,14.511881,14.5390625,14.5720005,14.60304,14.618656,14.612982,14.595115,14.573863,14.562295,14.571346,14.599102,14.633169,14.661159,14.674158,14.671614,14.655298,14.626402,14.590042,14.550344,14.507305,14.463383,14.415158,14.365725,14.316875,14.26932,14.224136,14.182188,14.142555,14.099758,14.052357,14.002149,13.95071,13.901109,13.856466,13.816752,13.7792845,13.7375345,13.682842,13.621614,13.56711,13.529793,13.515121,13.522831,13.542938,13.566301,13.583048,13.589598,13.589409,13.587225,13.583774,13.575581,13.540188,13.472134
15.234421,15.243818,15.253574,15.263695,15.274239,15.284321,15.29327,15.301498,15.308872,15.316139,15.323544,15.33087,15.337851,15.34432,15.3502035,15.355431,15.360952,15.367015,15.373641,15.380411,15.386834,15.392738,15.398117,15.40319,15.408243,15.413678,15.419716,15.426693,15.434709,15.443222,15.45198,15.461313,15.470942,15.480568,15.490154,15.499741,15.50918,15.518277,15.527756,15.537696,15.547874,15.558321,15.568005,15.5758295,15.583261,15.590586,15.598525,15.6063385,15.613551,15.620005,15.625774,15.631195,15.636211,15.641766,15.647732,15.653936,15.659906,15.66523,15.669998,15.674365,15.679287,15.684008,15.689077,15.694826,15.701159,15.708145,15.715458,15.723551,15.73245,15.741982,15.751613,15.761148,15.770847,15.780523,15.791019,15.802083,15.813074,15.823395,15.832722,15.84109,15.848652,15.856552,15.865305,15.875723,15.888149,15.90275,15.919388,15.93724,15.956331,15.977741,15.999989,16.021805,16.040995,16.055367,16.06402,16.066868,16.063986,16.054705,16.03946,16.019053,15.994199,15.965609,15.934101,15.899332,15.863196,15.82975,15.803687,15.786655,15.777193,15.774025,15.775127,15.780603,15.78944,15.7999,15.810069,15.818094,15.822801,15.825383,15.825553,15.823118,15.817849,15.810206,15.801403,15.792787,15.784937,15.777807,15.770963,15.764,15.756857,15.750093,15.744625,15.74094,15.738499,15.736824,15.734914,15.731735,15.72706,15.721373,15.715143,15.707981,15.699509,15.688475,15.673699,15.654665,15.631876,15.606862,15.580792,15.5524235,15.522795,15.492436,15.4614105,15.429966,15.398853,15.368577,15.337217,15.305534,15.274654,15.245293,15.217709,15.192028,15.168671,15.145747,15.122996,15.100676,15.078695,15.057194,15.036709,15.017805,15.000154,14.983097,14.966528,14.949934,14.932418,14.912616,14.88917,14.860975,14.823751,14.775387,14.717396,14.653067,14.586487,14.522236,14.462242,14.401401,14.339609,14.277576,14.216569,14.158882,14.107392,14.0639515,14.026099,13.994923,13.970266,13.950742,13.934426,13.919817,13.906952,13.895386,13.885271,13.877369,13.871533,13.867426,13.864836,13.863211,13.86097,13.856518,13.846544,13.827525,13.798232,13.760609,13.719103,13.678957,13.64174,13.612183,13.594855,13.59136,13.601328,13.623725,13.656557,13.703846,13.766443,13.843282,13.927792,14.009529,14.078529,14.128179,14.156708,14.156977,14.12268,14.061552,13.990849,13.931251,13.901268,13.905956,13.944103,14.013632,14.094618,14.163223,14.204559,14.213985,14.19147,14.15276,14.114689,14.103397,14.147261,14.250374,14.380317,14.493428,14.580048,14.6166,14.601431,14.552153,14.493359,14.440243,14.391488,14.355338,14.342689,14.351311,14.370132,14.386477,14.391069,14.380892,14.362738,14.34486,14.340357,14.360992,14.405352,14.460381,14.511706,14.547092,14.565868,14.568411,14.554718,14.5291195,14.495834,14.455912,14.412884,14.363253,14.310854,14.257353,14.203898,14.152513,14.104404,14.058222,14.009813,13.959689,13.907166,13.852478,13.798973,13.750561,13.708104,13.669729,13.623501,13.569651,13.512867,13.462504,13.428518,13.415791,13.423453,13.441931,13.462461,13.476478,13.48126,13.482559,13.48597,13.48374,13.475607,13.438205,13.364972
15.104162,15.113592,15.123352,15.133395,15.143738,15.15357,15.162291,15.170273,15.177401,15.184414,15.191574,15.198629,15.205347,15.211588,15.217262,15.222309,15.227684,15.233646,15.240239,15.2470665,15.2536125,15.259666,15.265212,15.270426,15.275646,15.281303,15.287635,15.294949,15.303282,15.312011,15.320824,15.33008,15.339455,15.348776,15.358095,15.367481,15.376823,15.385952,15.395507,15.405533,15.415766,15.426165,15.435713,15.443394,15.450674,15.45784,15.465637,15.473339,15.480436,15.486759,15.492398,15.497664,15.502588,15.508087,15.514074,15.520372,15.526485,15.531958,15.536817,15.541174,15.545975,15.55045,15.555185,15.560524,15.566421,15.5730095,15.579963,15.587719,15.596346,15.605581,15.614943,15.624312,15.633926,15.643614,15.654255,15.665458,15.676483,15.686689,15.6957035,15.703533,15.710392,15.717396,15.725065,15.734134,15.744879,15.75753,15.772072,15.787779,15.804926,15.824572,15.845608,15.867006,15.886898,15.903372,15.915458,15.9228,15.925717,15.923178,15.914818,15.900404,15.87989,15.853767,15.822983,15.787544,15.749427,15.712737,15.682237,15.660113,15.645796,15.638578,15.636721,15.640786,15.649605,15.66099,15.672359,15.681247,15.686288,15.688744,15.688491,15.685446,15.679543,15.671513,15.662808,15.65482,15.648209,15.642883,15.638357,15.633963,15.629335,15.624825,15.621244,15.619071,15.617977,15.617593,15.616997,15.615189,15.611857,15.607342,15.6019745,15.595372,15.587222,15.576394,15.561857,15.543194,15.520908,15.496484,15.471061,15.44349,15.414877,15.385788,15.356157,15.326015,15.295951,15.26646,15.235691,15.204666,15.174717,15.146727,15.120985,15.097431,15.076208,15.055548,15.035172,15.0154,14.996126,14.977388,14.959524,14.942839,14.927078,14.911497,14.89592,14.879978,14.862904,14.843464,14.820599,14.79334,14.757479,14.711008,14.655195,14.592883,14.527913,14.464939,14.406076,14.34664,14.286941,14.227661,14.169556,14.114231,14.064079,14.020899,13.982531,13.95043,13.924908,13.904803,13.888054,13.872783,13.858701,13.84523,13.832582,13.82195,13.813748,13.807982,13.804386,13.802081,13.799147,13.793601,13.782057,13.761225,13.730252,13.691438,13.6493225,13.608644,13.570274,13.538081,13.515816,13.5049715,13.505594,13.517285,13.5390625,13.574377,13.624792,13.691096,13.769259,13.850957,13.926474,13.987223,14.030357,14.046314,14.026815,13.977922,13.915827,13.86095,13.83202,13.833794,13.865071,13.923962,13.993191,14.052376,14.089061,14.099365,14.08268,14.052542,14.023685,14.019048,14.064182,14.162563,14.284758,14.392948,14.46973,14.501146,14.486996,14.438405,14.375437,14.314547,14.25489,14.207159,14.178098,14.166253,14.167166,14.171628,14.167148,14.1473675,14.119904,14.095497,14.092375,14.129926,14.197178,14.269383,14.338826,14.396591,14.438614,14.46267,14.467503,14.456144,14.432223,14.397812,14.35742,14.307777,14.253488,14.195857,14.136882,14.07803,14.020201,13.966824,13.914387,13.860903,13.80513,13.746822,13.68948,13.638048,13.594023,13.551956,13.505314,13.454751,13.402679,13.35635,13.324966,13.313005,13.319077,13.334138,13.350033,13.359734,13.36198,13.362837,13.368322,13.373861,13.365656,13.328121,13.248213
14.9670515,14.97643,14.986104,14.996002,15.006069,15.01557,15.024006,15.03172,15.0385895,15.04538,15.05232,15.059177,15.065739,15.071859,15.077425,15.082372,15.087658,15.093529,15.100071,15.106947,15.113647,15.119908,15.12567,15.131065,15.136471,15.142347,15.148966,15.156616,15.16527,15.174219,15.18309,15.19227,15.201389,15.210403,15.219456,15.22864,15.2378845,15.24699,15.256573,15.266626,15.276859,15.287153,15.296484,15.303913,15.310943,15.317817,15.325336,15.332804,15.339692,15.345843,15.3513565,15.356499,15.361399,15.366917,15.372978,15.379419,15.385719,15.39137,15.396362,15.4007845,15.405493,15.409769,15.414187,15.419088,15.42446,15.430528,15.4369545,15.444195,15.452356,15.461153,15.47019,15.479422,15.489048,15.498856,15.509747,15.521177,15.532322,15.542515,15.55135,15.558816,15.565187,15.571514,15.578297,15.586129,15.595243,15.605931,15.6182995,15.631808,15.646871,15.664492,15.683841,15.704027,15.723566,15.740978,15.755393,15.766424,15.774646,15.778856,15.777949,15.770608,15.755898,15.733939,15.705601,15.671133,15.632389,15.593305,15.5585785,15.531008,15.511148,15.49906,15.493372,15.495031,15.502876,15.51437,15.526377,15.535961,15.541554,15.544241,15.544054,15.540869,15.534659,15.526396,15.517811,15.510409,15.504917,15.501293,15.499075,15.4973755,15.495502,15.493521,15.492056,15.491457,15.491632,15.492392,15.492928,15.492296,15.490131,15.486612,15.481895,15.475645,15.467623,15.456812,15.442385,15.424032,15.402215,15.37835,15.353556,15.326804,15.299273,15.27153,15.243345,15.214506,15.1854315,15.156556,15.126154,15.0954895,15.0661125,15.039106,15.0147915,14.992941,14.973503,14.9547825,14.936588,14.91931,14.902832,14.887035,14.872009,14.857792,14.844153,14.830332,14.816044,14.800999,14.784489,14.765406,14.743031,14.716554,14.681906,14.637327,14.583891,14.52415,14.461786,14.401338,14.34482,14.28792,14.231232,14.1752825,14.120319,14.067402,14.018639,13.975857,13.937243,13.904537,13.878391,13.857788,13.840503,13.824379,13.808923,13.793514,13.778422,13.765314,13.755108,13.748051,13.743749,13.740982,13.737545,13.731159,13.718437,13.696352,13.664387,13.625087,13.583002,13.542381,13.5034485,13.4692955,13.4429245,13.425703,13.417974,13.4198265,13.431068,13.454474,13.492061,13.546333,13.615825,13.694611,13.77376,13.843327,13.89933,13.930086,13.925502,13.889706,13.837441,13.788456,13.761291,13.76034,13.784349,13.831651,13.887886,13.936464,13.967619,13.978292,13.967112,13.94503,13.924096,13.923588,13.965845,14.053745,14.162974,14.266867,14.332876,14.358284,14.343731,14.298144,14.233719,14.163212,14.099186,14.043564,14.002335,13.975035,13.959726,13.949252,13.931656,13.900349,13.862261,13.827387,13.817263,13.852375,13.931763,14.0331135,14.131259,14.211966,14.2777,14.326566,14.354164,14.360941,14.350135,14.324444,14.289178,14.241539,14.186903,14.126074,14.06126,13.993671,13.925376,13.865244,13.8074,13.748951,13.688471,13.625558,13.564798,13.511159,13.463605,13.420047,13.376116,13.330221,13.282785,13.239756,13.209663,13.196926,13.19987,13.209933,13.219908,13.224422,13.223755,13.224127,13.230764,13.239368,13.237472,13.199224,13.115751
14.827589,14.836788,14.846264,14.855915,14.865656,14.874805,14.882943,14.890411,14.897072,14.903706,14.910533,14.917312,14.923836,14.929951,14.935514,14.94046,14.945702,14.951483,14.957959,14.964857,14.971679,14.978121,14.984055,14.989576,14.9950485,15.001005,15.00775,15.015598,15.024477,15.033598,15.04253,15.051663,15.060589,15.069365,15.0781975,15.087191,15.096301,15.105328,15.11484,15.124816,15.134924,15.1449995,15.154003,15.161055,15.167696,15.174141,15.181253,15.188357,15.194946,15.200899,15.206306,15.211395,15.216338,15.221933,15.228088,15.234669,15.241138,15.246952,15.252085,15.256605,15.261298,15.265457,15.269613,15.27408,15.2788925,15.284342,15.290112,15.296682,15.304216,15.312461,15.3211,15.330145,15.339739,15.349628,15.360704,15.372336,15.383628,15.393902,15.402735,15.410084,15.416248,15.422195,15.428417,15.43531,15.44306,15.452025,15.462444,15.473959,15.487066,15.502676,15.5201435,15.538666,15.557123,15.574497,15.590109,15.60367,15.615954,15.625793,15.631673,15.631466,15.62351,15.607477,15.5838375,15.552892,15.516005,15.47654,15.438803,15.40609,15.380208,15.362253,15.351291,15.348631,15.353463,15.363268,15.37469,15.384539,15.391018,15.394709,15.395678,15.393511,15.387963,15.380089,15.371848,15.364927,15.360268,15.357888,15.357533,15.358205,15.358885,15.359318,15.359871,15.360691,15.361921,15.3635435,15.364905,15.365157,15.363899,15.36114,15.356882,15.3508415,15.34289,15.332113,15.317837,15.299807,15.2784395,15.255089,15.2309,15.205004,15.178695,15.152518,15.126048,15.098804,15.071001,15.042982,15.013128,14.982882,14.953969,14.927641,14.90429,14.883598,14.865406,14.848137,14.831682,14.816535,14.802525,14.789331,14.776802,14.764746,14.75295,14.740704,14.727644,14.713518,14.697615,14.678917,14.657006,14.631222,14.597725,14.555082,14.50428,14.447651,14.38867,14.331581,14.278129,14.224274,14.170718,14.117832,14.065509,14.014508,13.966856,13.924456,13.885731,13.85256,13.82572,13.804235,13.785839,13.768308,13.751173,13.733883,13.716811,13.702049,13.69085,13.683471,13.679272,13.676773,13.673565,13.66729,13.654636,13.63278,13.601255,13.562544,13.521074,13.480711,13.441208,13.405114,13.375008,13.352322,13.33774,13.331694,13.334476,13.348141,13.37485,13.418204,13.478773,13.552813,13.632455,13.707121,13.772158,13.814479,13.822604,13.798828,13.756316,13.713805,13.689196,13.686417,13.704052,13.740553,13.784269,13.822151,13.846956,13.856459,13.848529,13.831491,13.814545,13.813307,13.846899,13.918226,14.007761,14.096029,14.158009,14.182467,14.167912,14.121857,14.057079,13.987675,13.923855,13.864404,13.815153,13.776844,13.748681,13.724873,13.694942,13.652847,13.604479,13.560788,13.525553,13.535175,13.616608,13.748766,13.88073,13.986506,14.083105,14.156733,14.207443,14.236238,14.242594,14.230122,14.204191,14.162611,14.111214,14.04985,13.980845,13.905888,13.828306,13.760435,13.695032,13.629009,13.561723,13.493988,13.428682,13.370012,13.321646,13.281397,13.242513,13.201307,13.15694,13.1147375,13.0832615,13.06759,13.066053,13.070534,13.07497,13.075434,13.073257,13.074429,13.082917,13.09373,13.09639,13.0604515,12.980191
14.690385,14.699284,14.708448,14.717773,14.727154,14.735957,14.743826,14.7511,14.757623,14.764193,14.771006,14.777809,14.784388,14.790575,14.796203,14.801206,14.806431,14.812117,14.818484,14.825333,14.832195,14.838724,14.844729,14.850241,14.855612,14.861436,14.868083,14.875921,14.884879,14.894072,14.903032,14.912133,14.920927,14.929546,14.938229,14.947056,14.955999,14.96488,14.974232,14.984013,14.993898,15.003656,15.012237,15.018834,15.025006,15.030937,15.037563,15.044229,15.05048,15.056229,15.061562,15.066676,15.071714,15.077442,15.0837145,15.090398,15.096983,15.102927,15.108183,15.112826,15.117576,15.121716,15.125704,15.129812,15.134104,15.138897,15.143947,15.14978,15.156597,15.164228,15.1724205,15.1811905,15.190643,15.200486,15.211576,15.223281,15.234677,15.245071,15.254017,15.26145,15.2676525,15.273514,15.279499,15.285842,15.292654,15.300325,15.309203,15.31909,15.330524,15.344276,15.359854,15.376532,15.393514,15.410189,15.426072,15.440987,15.455826,15.469635,15.480832,15.486943,15.485884,15.476875,15.45974,15.434649,15.402127,15.364578,15.325584,15.2887,15.256949,15.232646,15.215314,15.206615,15.206422,15.212633,15.222071,15.23155,15.239004,15.244286,15.247346,15.247283,15.243416,15.236662,15.229103,15.222641,15.218534,15.216923,15.21788,15.220398,15.223202,15.2257,15.227974,15.22995,15.231984,15.23422,15.236165,15.237082,15.236509,15.234291,15.2303295,15.224401,15.216492,15.205833,15.19182,15.174187,15.153303,15.130476,15.106911,15.081919,15.056937,15.032518,15.008049,14.982786,14.956714,14.930025,14.901203,14.871769,14.843497,14.81775,14.79502,14.774992,14.757492,14.741085,14.725767,14.71213,14.699917,14.688612,14.677864,14.667322,14.656811,14.645721,14.633675,14.62043,14.605234,14.587086,14.5657625,14.540734,14.508459,14.467876,14.419952,14.366856,14.311793,14.258551,14.20852,14.157827,14.107114,14.056624,14.006099,13.956253,13.90922,13.866975,13.82807,13.794352,13.766545,13.743661,13.723503,13.704025,13.685007,13.666035,13.647621,13.632158,13.621025,13.614277,13.610948,13.609379,13.607117,13.601936,13.5906925,13.57065,13.541088,13.504082,13.463785,13.423797,13.383547,13.345341,13.31167,13.284292,13.264341,13.25251,13.249315,13.256079,13.274809,13.309538,13.362121,13.430494,13.50791,13.583843,13.653506,13.7033,13.720895,13.70702,13.67333,13.637335,13.6158695,13.612335,13.625067,13.652485,13.685213,13.713161,13.731228,13.73801,13.730738,13.715281,13.698196,13.691828,13.712389,13.763361,13.829607,13.895599,13.94968,13.972619,13.960853,13.91892,13.860167,13.799318,13.738464,13.678486,13.624687,13.578869,13.541534,13.508205,13.469391,13.419176,13.362945,13.309117,13.248232,13.232085,13.303186,13.44445,13.604163,13.73718,13.8565645,13.957264,14.03325,14.083199,14.1090145,14.1132145,14.100197,14.0687065,14.024306,13.965469,13.895561,13.816553,13.7313,13.655298,13.581137,13.506615,13.430223,13.353678,13.282251,13.22228,13.177959,13.144539,13.112196,13.075319,13.032198,12.988168,12.952672,12.932187,12.925369,12.924442,12.9245405,12.922769,12.920849,12.924065,12.935212,12.949099,12.954302,12.923653,12.851398
14.559328,14.5678625,14.576664,14.585634,14.594647,14.603119,14.610759,14.617897,14.624338,14.630903,14.637735,14.644578,14.651219,14.6574745,14.66317,14.6682205,14.673422,14.679005,14.685221,14.691947,14.698755,14.705265,14.711237,14.716614,14.721758,14.727303,14.733683,14.741345,14.750234,14.759378,14.768309,14.777353,14.78603,14.794533,14.803104,14.811782,14.820549,14.829227,14.838356,14.84787,14.857477,14.866879,14.87502,14.881186,14.886917,14.892382,14.898547,14.904804,14.9107485,14.9163265,14.921631,14.926817,14.931999,14.937896,14.944295,14.951041,14.957672,14.963687,14.969034,14.973802,14.978638,14.9828415,14.986776,14.990662,14.994552,14.998768,15.003147,15.008272,15.0143795,15.021414,15.02915,15.037582,15.046795,15.056445,15.067352,15.078932,15.090296,15.100731,15.109781,15.117376,15.123747,15.129721,15.135746,15.141929,15.148306,15.155218,15.163063,15.171767,15.181833,15.193888,15.207605,15.222336,15.237609,15.253192,15.268725,15.284103,15.300251,15.316498,15.331407,15.342536,15.347681,15.345661,15.3356285,15.3175535,15.290953,15.257137,15.218735,15.179245,15.142683,15.112549,15.088799,15.073398,15.06706,15.068396,15.074715,15.083061,15.091131,15.097992,15.103369,15.105815,15.104139,15.098959,15.092346,15.086441,15.082796,15.081726,15.083644,15.087596,15.09211,15.0962925,15.099937,15.102816,15.105469,15.108206,15.110666,15.11218,15.112186,15.110353,15.10655,15.100641,15.092722,15.082224,15.068598,15.051527,15.031291,15.009121,14.986267,14.962212,14.938538,14.9158745,14.893503,14.870455,14.846497,14.821611,14.7943945,14.766303,14.739047,14.714016,14.691771,14.6720705,14.654823,14.638708,14.623865,14.61097,14.59971,14.589436,14.579672,14.569989,14.56023,14.549943,14.538776,14.526451,14.512156,14.494848,14.474355,14.450266,14.419371,14.380972,14.336082,14.286764,14.235914,14.186781,14.140376,14.092926,14.044855,13.996269,13.94687,13.897516,13.850586,13.808159,13.768864,13.734419,13.705451,13.680935,13.658806,13.637311,13.616569,13.596313,13.577192,13.561756,13.551346,13.545709,13.543541,13.543098,13.542048,13.538428,13.529353,13.51214,13.485634,13.451257,13.412741,13.373461,13.332577,13.292334,13.2553425,13.2238655,13.19957,13.183414,13.175999,13.177965,13.1909275,13.218939,13.264521,13.326765,13.400019,13.474291,13.544966,13.59864,13.622667,13.616524,13.590428,13.560528,13.542318,13.538689,13.5477085,13.567732,13.591242,13.610506,13.622152,13.625528,13.617384,13.601431,13.581997,13.568693,13.575308,13.606052,13.6503105,13.696965,13.735336,13.752777,13.745651,13.71487,13.6679535,13.614953,13.558528,13.499952,13.444202,13.393974,13.350874,13.311539,13.267322,13.212389,13.151675,13.089491,13.020502,12.99399,13.048182,13.175684,13.342294,13.491172,13.620794,13.742048,13.842036,13.912495,13.956287,13.976965,13.978073,13.958729,13.923637,13.870016,13.80244,13.722765,13.632562,13.550068,13.46855,13.3843975,13.296974,13.209869,13.134348,13.079615,13.042458,13.017145,12.992245,12.959564,12.916569,12.869131,12.828108,12.801847,12.789606,12.783822,12.780677,12.777887,12.777023,12.782436,12.795982,12.812656,12.8209305,12.796251,12.733246
14.43743,14.445623,14.454086,14.462711,14.471376,14.479561,14.487019,14.49406,14.5004635,14.507019,14.513847,14.520666,14.527285,14.533546,14.539253,14.544312,14.549461,14.554933,14.560986,14.567556,14.574244,14.580655,14.5865345,14.591722,14.5966,14.60183,14.607896,14.615307,14.624022,14.633032,14.641866,14.650801,14.659351,14.667732,14.676174,14.684692,14.693249,14.70169,14.71055,14.719763,14.72905,14.738101,14.74588,14.751722,14.757139,14.762299,14.768151,14.774121,14.779853,14.785337,14.790667,14.79595,14.801302,14.807358,14.8138485,14.820604,14.827196,14.833187,14.838558,14.843391,14.848304,14.852616,14.856598,14.860399,14.864054,14.867883,14.871752,14.876294,14.881805,14.888325,14.895652,14.90374,14.91263,14.921956,14.932487,14.943729,14.954858,14.965173,14.974233,14.981958,14.98851,14.994675,15.000938,15.007279,15.013669,15.020362,15.027697,15.03567,15.044682,15.055247,15.0671835,15.079963,15.093439,15.107737,15.122589,15.137873,15.154465,15.171959,15.189133,15.2038,15.213847,15.217815,15.214342,15.203218,15.183049,15.154163,15.118118,15.078012,15.0384445,15.003862,14.974578,14.952787,14.940079,14.935919,14.9383335,14.944756,14.952742,14.960664,14.967951,14.972656,14.973152,14.969662,14.9641285,14.958919,14.955803,14.955265,14.957998,14.963097,14.968956,14.974432,14.979077,14.982631,14.985801,14.989012,14.992019,14.9941635,14.994729,14.993203,14.98947,14.983514,14.975565,14.965267,14.952181,14.935932,14.916647,14.895391,14.873419,14.850338,14.827896,14.806844,14.786456,14.765644,14.743983,14.72124,14.696087,14.669817,14.6439905,14.619926,14.598202,14.578678,14.561403,14.545165,14.530233,14.517372,14.506282,14.496265,14.48681,14.4775095,14.468141,14.458452,14.448115,14.4367695,14.423531,14.407318,14.387865,14.364897,14.335524,14.299328,14.257479,14.211952,14.165283,14.120218,14.077467,14.033318,13.987832,13.940939,13.892334,13.843082,13.795896,13.753029,13.71314,13.67787,13.647741,13.62171,13.59785,13.574698,13.552656,13.531586,13.512245,13.497217,13.487718,13.483162,13.481959,13.482397,13.482357,13.480186,13.473351,13.459284,13.436361,13.405238,13.369096,13.331016,13.289944,13.248028,13.208115,13.173035,13.145031,13.125344,13.114677,13.113053,13.12159,13.144124,13.183419,13.239347,13.307266,13.377953,13.447113,13.501932,13.529919,13.529608,13.5098095,13.485205,13.4699,13.466305,13.472317,13.486298,13.502249,13.514323,13.520468,13.520603,13.511184,13.494155,13.4720955,13.452461,13.447107,13.4609785,13.48724,13.518224,13.545143,13.558693,13.554947,13.532188,13.494286,13.448347,13.396416,13.340175,13.284357,13.232344,13.186529,13.144342,13.097841,13.0413475,12.978869,12.917984,12.854223,12.826477,12.870703,12.983183,13.130093,13.270203,13.40966,13.532549,13.645107,13.73695,13.79546,13.829319,13.843195,13.835724,13.810587,13.764309,13.70101,13.622883,13.5320015,13.446018,13.359236,13.263659,13.165722,13.074054,12.99987,12.950371,12.921007,12.90444,12.887383,12.858934,12.8158455,12.764713,12.717975,12.6859865,12.668773,12.65893,12.653357,12.650028,12.650024,12.656773,12.671562,12.689743,12.6999855,12.680693,12.626982
14.323386,14.331282,14.33943,14.347733,14.356091,14.364048,14.371376,14.378337,14.384705,14.391253,14.398039,14.404767,14.411301,14.417501,14.423172,14.4282055,14.43331,14.43866,14.444534,14.450929,14.457471,14.463747,14.469478,14.474476,14.479125,14.484074,14.489849,14.497011,14.505522,14.514362,14.523029,14.5318,14.540192,14.5484085,14.556666,14.564953,14.573236,14.581371,14.589881,14.598728,14.607677,14.616409,14.623916,14.629582,14.634832,14.639832,14.645543,14.651396,14.657048,14.662531,14.667944,14.673367,14.678894,14.685076,14.691608,14.698291,14.704752,14.71063,14.715922,14.720765,14.725719,14.730147,14.734219,14.738035,14.741606,14.745194,14.7487335,14.752881,14.757965,14.764109,14.771109,14.778873,14.787407,14.796293,14.806304,14.817042,14.827787,14.83786,14.846825,14.854607,14.861298,14.867664,14.87422,14.880871,14.887518,14.894309,14.901493,14.909073,14.917338,14.926737,14.937157,14.948217,14.960035,14.9730015,14.986948,15.001684,15.018028,15.035795,15.054003,15.070847,15.084445,15.0931835,15.09536,15.090662,15.077012,15.053879,15.021756,14.983074,14.942522,14.905125,14.871527,14.844038,14.82509,14.815115,14.813019,14.816755,14.823829,14.83206,14.840553,14.846993,14.849409,14.847612,14.843309,14.838978,14.836503,14.836519,14.839939,14.845885,14.852684,14.859026,14.86431,14.868326,14.871901,14.87557,14.879174,14.882008,14.883156,14.881962,14.878328,14.87233,14.864368,14.854349,14.84197,14.826824,14.8088455,14.788869,14.768061,14.746141,14.724973,14.705433,14.686914,14.668311,14.649019,14.628601,14.605793,14.5816765,14.557604,14.534767,14.513699,14.4943495,14.476988,14.460452,14.445113,14.431846,14.42043,14.410185,14.400646,14.391477,14.382353,14.373159,14.363609,14.353239,14.341099,14.326067,14.307773,14.286025,14.258236,14.22423,14.185313,14.143381,14.100632,14.059374,14.020136,13.979231,13.936283,13.890994,13.843073,13.793827,13.746308,13.702944,13.66242,13.626343,13.595106,13.56766,13.542237,13.51762,13.494468,13.472729,13.453222,13.438493,13.4296,13.42565,13.424818,13.42552,13.425922,13.424619,13.419551,13.408344,13.388983,13.361375,13.328064,13.291692,13.251041,13.208101,13.1658945,13.127849,13.0968,13.074298,13.061087,13.056667,13.061644,13.079426,13.112785,13.162159,13.223846,13.289585,13.355454,13.409511,13.439728,13.443865,13.429363,13.409386,13.396569,13.392931,13.396271,13.405063,13.41464,13.420731,13.42231,13.419695,13.409195,13.391328,13.367369,13.343092,13.328741,13.32979,13.342384,13.361378,13.379387,13.389696,13.388308,13.371677,13.341009,13.301177,13.253723,13.200641,13.146446,13.094921,13.048926,13.006365,12.959845,12.904003,12.842363,12.77951,12.7268715,12.709471,12.751763,12.8486805,12.966148,13.090353,13.220789,13.345783,13.458319,13.556565,13.633003,13.678137,13.70075,13.703475,13.688011,13.650171,13.592484,13.517187,13.428155,13.342408,13.246179,13.144615,13.042925,12.949505,12.877231,12.833591,12.812271,12.804602,12.795723,12.772129,12.72978,12.675896,12.624403,12.587538,12.566158,12.553105,12.545624,12.541769,12.5419445,12.548702,12.563147,12.581129,12.591789,12.576635,12.531406
14.2036915,14.211261,14.219067,14.227054,14.235142,14.242909,14.250135,14.25703,14.263361,14.26985,14.276527,14.283121,14.289515,14.295612,14.301233,14.306252,14.311345,14.316629,14.322382,14.328621,14.335,14.34112,14.346727,14.351593,14.3561,14.3608885,14.366479,14.373426,14.381716,14.390338,14.398779,14.40732,14.415482,14.423435,14.431387,14.439321,14.447178,14.454861,14.4628725,14.47122,14.47973,14.488121,14.495421,14.501013,14.506231,14.511221,14.516937,14.522799,14.528505,14.534112,14.5397005,14.54533,14.551067,14.5574,14.563953,14.570509,14.576746,14.58241,14.587547,14.592313,14.597267,14.601784,14.605967,14.609846,14.613397,14.616868,14.620205,14.624102,14.628918,14.634834,14.641648,14.649188,14.65741,14.665893,14.675378,14.685538,14.695787,14.7055025,14.714276,14.722038,14.728786,14.735291,14.742058,14.748973,14.755892,14.76285,14.77001,14.777349,14.785077,14.793547,14.802688,14.812231,14.822496,14.83406,14.846808,14.860561,14.876074,14.89333,14.911613,14.929544,14.9455,14.957815,14.964697,14.965855,14.958826,14.942551,14.916492,14.882078,14.843515,14.805825,14.7698,14.737665,14.712479,14.695797,14.687693,14.686929,14.691274,14.698229,14.706545,14.713774,14.717799,14.717954,14.715466,14.712713,14.711454,14.712418,14.716588,14.723115,14.7303705,14.737015,14.742422,14.746583,14.750423,14.754576,14.758987,14.762827,14.764898,14.764321,14.760944,14.754937,14.746895,14.737088,14.725515,14.711831,14.695742,14.677696,14.658663,14.63841,14.618824,14.6009865,14.584473,14.568235,14.551554,14.533791,14.51377,14.492295,14.470487,14.449326,14.429262,14.410362,14.39302,14.376188,14.360295,14.346344,14.334259,14.3235,14.313723,14.304644,14.29581,14.287185,14.278492,14.2691345,14.258154,14.244479,14.227603,14.207387,14.181526,14.149981,14.114139,14.07582,14.036936,13.9994335,13.963741,13.926193,13.886041,13.842733,13.795861,13.746868,13.699139,13.655322,13.614158,13.5772,13.544756,13.515747,13.488539,13.462164,13.437534,13.414635,13.394263,13.378901,13.369488,13.364895,13.363139,13.362822,13.362396,13.360669,13.356171,13.346953,13.330822,13.307034,13.277412,13.243921,13.20509,13.162544,13.119318,13.079327,13.045995,13.021191,13.005798,12.9988,13.000236,13.012987,13.039675,13.081243,13.135059,13.194042,13.254761,13.306412,13.337786,13.345943,13.336678,13.321221,13.310553,13.306349,13.306496,13.309745,13.312875,13.313261,13.310827,13.306111,13.295427,13.278103,13.254322,13.228291,13.208593,13.200899,13.203685,13.213671,13.224709,13.232019,13.231699,13.219384,13.194774,13.16115,13.119474,13.071882,13.022453,12.974752,12.931642,12.891219,12.846589,12.792967,12.733656,12.671686,12.624565,12.613669,12.649452,12.725866,12.826723,12.936209,13.051432,13.165297,13.27286,13.369485,13.448498,13.504475,13.5387745,13.548218,13.540226,13.509127,13.455444,13.383855,13.299266,13.21126,13.116503,13.016078,12.914841,12.822596,12.754009,12.717102,12.704466,12.706713,12.707731,12.691406,12.652489,12.598343,12.544092,12.503763,12.479112,12.463356,12.453813,12.448534,12.4471445,12.451408,12.462652,12.477604,12.486241,12.4735155,12.435915
14.079863,14.087093,14.094564,14.10226,14.110125,14.117765,14.124936,14.131776,14.138041,14.144423,14.1509495,14.157359,14.163567,14.169537,14.175113,14.18013,14.185252,14.190538,14.196238,14.202362,14.208591,14.214573,14.220081,14.224882,14.229368,14.234131,14.239654,14.246452,14.25451,14.262884,14.271044,14.279286,14.287137,14.294738,14.302277,14.309732,14.317057,14.324161,14.331533,14.339279,14.347283,14.3553295,14.362496,14.368124,14.37343,14.378568,14.384415,14.3904,14.396275,14.402099,14.407928,14.413809,14.419772,14.42625,14.432798,14.439163,14.445097,14.450453,14.455351,14.45997,14.464863,14.46943,14.473711,14.4776745,14.481264,14.48472,14.488003,14.491823,14.496566,14.502437,14.509218,14.51667,14.524679,14.532837,14.541843,14.551437,14.561136,14.570413,14.578913,14.586551,14.593255,14.599782,14.606649,14.613731,14.620863,14.628008,14.63524,14.642502,14.64991,14.657764,14.665983,14.674345,14.683261,14.693396,14.704721,14.717106,14.731224,14.747246,14.764711,14.782619,14.799603,14.814083,14.824399,14.830344,14.829545,14.820744,14.802528,14.775118,14.741677,14.70653,14.670458,14.635336,14.604586,14.580915,14.565751,14.558933,14.558812,14.562818,14.569374,14.5761795,14.581122,14.583078,14.582672,14.58192,14.582242,14.584392,14.589279,14.596033,14.603176,14.609503,14.614489,14.618454,14.622383,14.626991,14.632336,14.63742,14.640713,14.641063,14.638216,14.632418,14.624468,14.615039,14.60453,14.5927305,14.579117,14.5636635,14.5470295,14.528959,14.511311,14.49532,14.480849,14.467004,14.452987,14.438023,14.421019,14.402524,14.3834,14.364386,14.345817,14.327801,14.310856,14.29401,14.277716,14.263086,14.250273,14.238968,14.22898,14.220102,14.211706,14.20373,14.195893,14.187476,14.177546,14.165148,14.149717,14.131123,14.107307,14.07825,14.045348,14.01033,13.974913,13.940836,13.908474,13.87425,13.837128,13.796291,13.7511,13.7029705,13.655546,13.611692,13.570232,13.532639,13.499107,13.468533,13.439405,13.411014,13.384493,13.359859,13.33779,13.320683,13.309399,13.302677,13.298487,13.29564,13.292915,13.28919,13.283705,13.275154,13.261408,13.24127,13.215841,13.186174,13.150519,13.109943,13.067284,13.026774,12.992328,12.966118,12.949179,12.940022,12.938131,12.945736,12.965221,12.9980135,13.042592,13.093234,13.147017,13.194482,13.225603,13.236898,13.232349,13.220969,13.211918,13.206665,13.203279,13.200972,13.198045,13.193442,13.187866,13.181923,13.172024,13.156593,13.134937,13.109835,13.088282,13.075837,13.072599,13.076586,13.082725,13.087538,13.087259,13.077669,13.058111,13.030841,12.996195,12.956331,12.914615,12.873802,12.836344,12.800274,12.759147,12.709007,12.653214,12.594162,12.549404,12.538866,12.567974,12.63035,12.717064,12.810669,12.907435,13.002754,13.094967,13.179954,13.252384,13.309212,13.34757,13.363993,13.362503,13.33671,13.287717,13.221866,13.144984,13.064639,12.978237,12.884289,12.787485,12.698992,12.635132,12.604759,12.600276,12.612267,12.62392,12.616836,12.584125,12.532655,12.478267,12.436455,12.409828,12.392176,12.380623,12.373161,12.368538,12.367845,12.373091,12.382126,12.386161,12.373814,12.34252
13.954574,13.961473,13.968639,13.976101,13.983822,13.991409,13.998581,14.0054,14.011612,14.0179,14.024284,14.030529,14.036584,14.04245,14.047995,14.053047,14.058228,14.063562,14.069244,14.075268,14.081335,14.08716,14.092571,14.097352,14.101894,14.106729,14.11227,14.118971,14.126809,14.134928,14.1427765,14.150698,14.158201,14.165413,14.17251,14.179462,14.186224,14.192729,14.199445,14.20657,14.214069,14.221805,14.228888,14.234604,14.240047,14.245356,14.251328,14.257437,14.26346,14.269468,14.275513,14.281609,14.287769,14.294352,14.300863,14.307016,14.312622,14.317652,14.322293,14.326748,14.331565,14.336155,14.340506,14.344545,14.348203,14.351709,14.355043,14.358931,14.3637495,14.369718,14.376602,14.384098,14.392017,14.399963,14.4085865,14.417671,14.426855,14.435699,14.443901,14.451366,14.457966,14.4644375,14.471298,14.478431,14.485677,14.492956,14.50028,14.507561,14.514833,14.522406,14.5301075,14.537718,14.545599,14.554369,14.564089,14.574758,14.586991,14.601181,14.617121,14.634148,14.651125,14.666609,14.679161,14.688717,14.69331,14.691758,14.6820545,14.663286,14.637255,14.607061,14.573351,14.537367,14.502523,14.472551,14.450214,14.436539,14.430756,14.430442,14.433783,14.438845,14.443701,14.446869,14.448341,14.449595,14.451554,14.4549055,14.460316,14.466894,14.473412,14.478918,14.483112,14.486678,14.490586,14.495611,14.50191,14.508325,14.5130205,14.514601,14.512684,14.50751,14.500075,14.491386,14.482243,14.472621,14.461813,14.449352,14.435504,14.42,14.404537,14.3904705,14.377935,14.366258,14.354646,14.342265,14.328125,14.312597,14.296307,14.27977,14.263189,14.246651,14.230715,14.214483,14.198374,14.183547,14.170383,14.158838,14.148898,14.140434,14.1326475,14.12538,14.118313,14.110607,14.101397,14.089926,14.075657,14.05844,14.036421,14.00953,13.979086,13.946738,13.914108,13.882848,13.853352,13.822199,13.788221,13.750374,13.707707,13.661475,13.615386,13.572414,13.531449,13.493834,13.45961,13.427627,13.396533,13.365911,13.337124,13.310223,13.2857,13.26586,13.251522,13.241392,13.23348,13.226862,13.22061,13.213535,13.205627,13.196314,13.183749,13.166529,13.145161,13.11968,13.0881195,13.0508995,13.010452,12.9711075,12.937075,12.910727,12.893168,12.882566,12.87789,12.880651,12.892965,12.916673,12.95132,12.992596,13.038057,13.079665,13.108803,13.121683,13.12062,13.112408,13.104355,13.097752,13.09094,13.083655,13.075617,13.067148,13.059489,13.053116,13.044582,13.031671,13.013052,12.990349,12.969146,12.954685,12.948149,12.948385,12.951265,12.954226,12.953736,12.946232,12.931291,12.910521,12.883724,12.852902,12.8206,12.78849,12.758292,12.727781,12.690954,12.644808,12.592915,12.537395,12.494349,12.481838,12.505155,12.557915,12.630395,12.707906,12.786264,12.862083,12.934992,13.003511,13.063961,13.112623,13.14661,13.164679,13.166162,13.145437,13.104335,13.048747,12.984161,12.917871,12.843261,12.759111,12.669369,12.585861,12.526303,12.500739,12.502268,12.522142,12.543449,12.546286,12.522018,12.476242,12.42466,12.383657,12.356623,12.338046,12.324778,12.314704,12.305731,12.298464,12.295872,12.297039,12.2947235,12.281142,12.254707
13.831186,13.83778,13.844702,13.852015,13.859678,13.867289,13.874514,13.8813505,13.887554,13.893801,13.900091,13.906241,13.912228,13.918045,13.923592,13.928711,13.933958,13.939352,13.945015,13.9509115,13.956778,13.962399,13.967679,13.972425,13.977008,13.981918,13.98749,13.994095,14.001722,14.009581,14.017126,14.02474,14.031924,14.038794,14.045518,14.052049,14.058328,14.064329,14.070492,14.077078,14.084145,14.091618,14.098635,14.104418,14.109949,14.115335,14.121317,14.127419,14.133462,14.13953,14.145679,14.151899,14.158193,14.164835,14.171305,14.177284,14.182627,14.18739,14.191835,14.196167,14.200933,14.205548,14.209946,14.214039,14.21776,14.221343,14.224777,14.228792,14.233757,14.23989,14.24695,14.254576,14.262511,14.270357,14.278711,14.2874,14.296167,14.30465,14.312592,14.319902,14.326384,14.3327675,14.3395405,14.346618,14.353859,14.361166,14.368514,14.375796,14.383017,14.390507,14.398002,14.405227,14.412409,14.420005,14.4281025,14.436909,14.447026,14.459063,14.473085,14.488721,14.505018,14.520657,14.53444,14.546448,14.555248,14.559902,14.558143,14.548216,14.530569,14.506874,14.477539,14.442987,14.406221,14.371621,14.343064,14.322699,14.310808,14.3053665,14.304401,14.306538,14.310165,14.313631,14.316376,14.319244,14.322582,14.326937,14.332586,14.338661,14.344225,14.348654,14.35195,14.355092,14.358988,14.3644285,14.371614,14.379254,14.385327,14.388299,14.387638,14.383576,14.377193,14.369701,14.362206,14.354855,14.346838,14.337382,14.326385,14.313545,14.300322,14.288095,14.277238,14.267284,14.257544,14.247224,14.235428,14.222456,14.2087965,14.194796,14.180533,14.1660385,14.15176,14.136898,14.121784,14.107527,14.094655,14.083366,14.073834,14.066004,14.058954,14.052406,14.045961,14.038679,14.029798,14.018803,14.005276,13.989034,13.968361,13.943136,13.914541,13.884144,13.853552,13.824413,13.797198,13.768686,13.73778,13.703299,13.663982,13.620798,13.577297,13.536364,13.496912,13.460098,13.425793,13.392785,13.359917,13.327106,13.295973,13.266596,13.239258,13.216146,13.198077,13.183787,13.171406,13.160301,13.149784,13.138517,13.127164,13.115847,13.103136,13.087669,13.069549,13.047895,13.020599,12.987502,12.950505,12.913758,12.881548,12.85628,12.839016,12.827742,12.820988,12.8195915,12.825391,12.840551,12.865524,12.897308,12.933878,12.968529,12.994081,13.006733,13.007495,13.00125,12.993615,12.985644,12.97597,12.964819,12.953056,12.942068,12.933369,12.927158,12.920146,12.90966,12.8939495,12.87384,12.853771,12.838604,12.830271,12.828168,12.82892,12.830711,12.830371,12.825042,12.814635,12.800347,12.781603,12.7601,12.737616,12.714718,12.692213,12.667501,12.635027,12.592688,12.54436,12.49196,12.450621,12.436703,12.454546,12.497817,12.557461,12.6205015,12.682686,12.741856,12.798529,12.8519,12.899183,12.937593,12.964489,12.97853,12.979462,12.963177,12.93111,12.887866,12.837516,12.784729,12.722725,12.649525,12.567577,12.488756,12.4318695,12.408325,12.412596,12.437119,12.465359,12.477089,12.462202,12.424379,12.378178,12.340071,12.3140545,12.2954235,12.280769,12.2679,12.254107,12.239767,12.22887,12.221693,12.212637,12.197084,12.174291
13.71389,13.720251,13.72702,13.73427,13.741943,13.749617,13.756913,13.763784,13.769999,13.776226,13.782465,13.788576,13.794533,13.800331,13.805901,13.811085,13.816379,13.821804,13.827424,13.833164,13.838796,13.844172,13.849257,13.853891,13.858414,13.863312,13.868837,13.875296,13.882685,13.89027,13.897522,13.904844,13.911762,13.918389,13.924862,13.931112,13.937075,13.942732,13.948502,13.954702,13.961439,13.968706,13.975655,13.981453,13.986983,13.992342,13.998206,14.004155,14.0100765,14.016083,14.022226,14.028494,14.034864,14.041552,14.048015,14.053912,14.059106,14.063713,14.068062,14.072344,14.0770855,14.081732,14.086174,14.0903,14.094072,14.097731,14.101282,14.105431,14.11055,14.116837,14.12406,14.13183,14.139821,14.147633,14.1558,14.164211,14.172658,14.180839,14.188564,14.195749,14.20211,14.208393,14.215038,14.221998,14.229141,14.236372,14.243655,14.25086,14.258,14.265421,14.272814,14.279844,14.286566,14.293247,14.299958,14.30708,14.31524,14.325205,14.337286,14.351318,14.366491,14.381634,14.395767,14.409085,14.420717,14.429991,14.434668,14.432523,14.422916,14.406231,14.382566,14.351534,14.315414,14.278705,14.245928,14.220133,14.202597,14.1919,14.186043,14.1842985,14.185486,14.188033,14.191041,14.194728,14.198884,14.20388,14.209557,14.215042,14.21968,14.22316,14.225746,14.228634,14.232615,14.23844,14.246266,14.254734,14.26182,14.266001,14.2666645,14.264101,14.259303,14.253527,14.247979,14.242874,14.237379,14.230591,14.222197,14.211803,14.200636,14.190006,14.180445,14.171693,14.163187,14.154271,14.144087,14.132984,14.121431,14.109701,14.097802,14.085648,14.073487,14.060574,14.047127,14.034109,14.022126,14.011551,14.002718,13.995659,13.989384,13.983508,13.977544,13.970496,13.961679,13.950811,13.93766,13.922016,13.902269,13.878246,13.850994,13.8219795,13.792824,13.765244,13.739775,13.71343,13.685322,13.654266,13.618765,13.579434,13.539502,13.501577,13.464583,13.429429,13.395792,13.36244,13.328415,13.293957,13.260931,13.229448,13.199566,13.173336,13.151543,13.133009,13.116044,13.100309,13.085305,13.069517,13.05414,13.039877,13.025764,13.010649,12.994442,12.975588,12.9519005,12.9228,12.8896475,12.856199,12.8265705,12.803083,12.78664,12.77519,12.766987,12.76233,12.762825,12.770836,12.7874565,12.810717,12.838898,12.866414,12.887398,12.8983,12.89931,12.893862,12.886213,12.877173,12.865564,12.852027,12.838188,12.826076,12.817273,12.811671,12.806108,12.797636,12.784185,12.766098,12.747,12.731458,12.721989,12.71842,12.717914,12.719263,12.71965,12.716785,12.710827,12.702698,12.691587,12.678886,12.665731,12.651678,12.636574,12.6174135,12.589016,12.549993,12.50458,12.454496,12.414017,12.398156,12.41065,12.445431,12.494129,12.545143,12.594503,12.641028,12.685577,12.727708,12.76532,12.796242,12.817968,12.829262,12.829666,12.816208,12.790486,12.756557,12.7175865,12.67638,12.625433,12.561985,12.486713,12.4111595,12.354821,12.330313,12.333794,12.359063,12.390293,12.408179,12.401705,12.372435,12.333058,12.299239,12.2752075,12.25709,12.241275,12.225633,12.207192,12.18636,12.168036,12.153462,12.138496,12.121014,12.100932
13.605357,13.611621,13.618345,13.625603,13.633314,13.641041,13.648375,13.655244,13.661457,13.667652,13.673825,13.679872,13.68577,13.691516,13.697062,13.702278,13.707577,13.712984,13.718509,13.724067,13.729442,13.734524,13.739342,13.743763,13.7481,13.752844,13.758194,13.764408,13.771495,13.778767,13.785716,13.792752,13.799442,13.805899,13.812231,13.818347,13.824159,13.829638,13.8352,13.841172,13.847698,13.854817,13.861704,13.867481,13.872955,13.878225,13.88389,13.889603,13.895321,13.901186,13.907269,13.913557,13.919994,13.926752,13.933262,13.939182,13.944355,13.9489155,13.953254,13.957541,13.96229,13.966969,13.971443,13.975601,13.9794235,13.983171,13.986845,13.991139,13.996391,14.002776,14.010084,14.01792,14.025917,14.033661,14.041664,14.049806,14.057938,14.065832,14.0733385,14.080372,14.086623,14.092816,14.099352,14.106205,14.113259,14.120407,14.127598,14.134671,14.14166,14.148954,14.156206,14.163053,14.169401,14.175365,14.181003,14.186794,14.193394,14.201661,14.212024,14.224455,14.23831,14.252587,14.266464,14.280227,14.293439,14.305624,14.314744,14.318485,14.3155365,14.305325,14.287748,14.261763,14.228779,14.192909,14.158731,14.129721,14.1079235,14.092517,14.081669,14.075245,14.072676,14.0727825,14.074608,14.077918,14.082096,14.087291,14.092905,14.09807,14.102274,14.105377,14.107803,14.110785,14.114987,14.121046,14.128981,14.1375065,14.14484,14.149698,14.151533,14.150681,14.147991,14.144518,14.141287,14.138407,14.135065,14.130438,14.124126,14.11578,14.106344,14.097021,14.088404,14.080381,14.072555,14.064415,14.055109,14.045116,14.034983,14.025034,14.015269,14.005459,13.995574,13.984901,13.973467,13.962103,13.951413,13.941856,13.933872,13.927568,13.922018,13.916746,13.911212,13.904343,13.895493,13.884571,13.871511,13.856145,13.83696,13.8137665,13.787502,13.75955,13.731518,13.705165,13.681097,13.65658,13.630911,13.602985,13.571241,13.536016,13.500122,13.465829,13.432049,13.399361,13.367231,13.334433,13.300193,13.265033,13.231035,13.198321,13.166735,13.138168,13.113316,13.091063,13.069931,13.049885,13.030612,13.010384,12.990793,12.972978,12.956401,12.940244,12.924422,12.90696,12.885636,12.859664,12.829922,12.799664,12.772671,12.751045,12.735473,12.723997,12.714785,12.707838,12.704594,12.7074375,12.717741,12.734199,12.7552395,12.776176,12.792219,12.8003025,12.80032,12.794773,12.786928,12.777365,12.765011,12.750736,12.736494,12.724581,12.716484,12.711759,12.70743,12.700407,12.688322,12.671228,12.652267,12.635935,12.625329,12.620658,12.6195135,12.621183,12.623056,12.623152,12.621656,12.619207,12.614891,12.60989,12.604902,12.598722,12.590347,12.576353,12.551758,12.515591,12.472385,12.4235935,12.382756,12.363983,12.370855,12.397875,12.437489,12.479264,12.519502,12.557559,12.5944605,12.629935,12.662266,12.689578,12.709314,12.720252,12.721522,12.710772,12.689823,12.662512,12.631528,12.59863,12.555601,12.498991,12.427982,12.353661,12.295756,12.267685,12.267225,12.289429,12.319323,12.339472,12.338715,12.316848,12.28438,12.255392,12.233837,12.216515,12.19976,12.181693,12.159451,12.133634,12.109759,12.089673,12.070278,12.051348,12.033261
13.493788,13.500008,13.50676,13.514065,13.521814,13.529558,13.536894,13.543734,13.549917,13.556065,13.562162,13.5681305,13.5739565,13.579639,13.585152,13.590397,13.595678,13.601076,13.606499,13.611849,13.616953,13.621724,13.626216,13.630351,13.634413,13.638895,13.643961,13.64984,13.6565485,13.6634445,13.670048,13.676798,13.683289,13.689638,13.695921,13.7020035,13.70777,13.713181,13.718643,13.724489,13.730871,13.737858,13.744652,13.750358,13.755706,13.760801,13.766172,13.771545,13.776959,13.782601,13.788567,13.794849,13.801348,13.8082075,13.814835,13.820871,13.826138,13.83076,13.835172,13.83952,13.844324,13.849049,13.853555,13.85775,13.861639,13.865469,13.869274,13.87369,13.87904,13.885471,13.892799,13.900632,13.908571,13.91621,13.924037,13.931907,13.939711,13.94729,13.954561,13.961435,13.967562,13.9736595,13.980097,13.986842,13.993803,14.000856,14.007906,14.014802,14.021607,14.028712,14.035782,14.042437,14.04846,14.053825,14.058588,14.063309,14.068586,14.07535,14.0840435,14.094774,14.10708,14.120134,14.133305,14.146929,14.160902,14.174848,14.187055,14.195391,14.1981945,14.194238,14.183277,14.163685,14.135952,14.103355,14.070023,14.039543,14.014538,13.994805,13.978809,13.967051,13.959679,13.956127,13.955621,13.957592,13.961078,13.965953,13.971234,13.976049,13.979984,13.983017,13.985645,13.988996,13.99357,13.999815,14.007521,14.01557,14.022608,14.0276985,14.03051,14.031464,14.031181,14.030394,14.029749,14.029138,14.027826,14.025187,14.020817,14.014439,14.006712,13.998662,13.990864,13.983335,13.975864,13.968115,13.959187,13.949733,13.940472,13.931907,13.924082,13.916586,13.90909,13.900845,13.891691,13.88228,13.8731985,13.864933,13.857945,13.852463,13.847656,13.843032,13.837971,13.831354,13.822553,13.81159,13.7986,13.783481,13.764787,13.742367,13.717064,13.690153,13.663232,13.638077,13.61532,13.592518,13.569168,13.544268,13.5163555,13.485587,13.454237,13.424205,13.394371,13.364891,13.335014,13.303543,13.269901,13.234856,13.200666,13.167446,13.134884,13.104631,13.077227,13.051602,13.0265255,13.0023,12.978828,12.954123,12.930091,12.908186,12.8883,12.870035,12.853437,12.836319,12.816421,12.792885,12.766167,12.73893,12.714493,12.694671,12.679878,12.668348,12.658299,12.64959,12.64353,12.642376,12.647526,12.65809,12.672583,12.68709,12.697819,12.702354,12.700602,12.694438,12.686341,12.676693,12.664423,12.650527,12.636997,12.626122,12.619213,12.61553,12.612324,12.606438,12.595196,12.57848,12.559149,12.541746,12.529933,12.524326,12.5228,12.525078,12.528732,12.53194,12.534816,12.53779,12.539917,12.542196,12.545025,12.546486,12.544755,12.535983,12.5153,12.481981,12.440828,12.39296,12.35116,12.328823,12.329649,12.348917,12.379992,12.413576,12.446211,12.477607,12.508978,12.540192,12.569777,12.595995,12.616023,12.628523,12.631981,12.624279,12.60747,12.5854435,12.560715,12.534406,12.4977,12.446423,12.378354,12.304037,12.243099,12.209501,12.202748,12.219092,12.244574,12.264366,12.267691,12.252734,12.227525,12.203917,12.185173,12.168715,12.150975,12.130514,12.104918,12.075119,12.046974,12.022705,11.999939,11.979963,11.963492
13.3784485,13.384672,13.391499,13.398863,13.406622,13.414324,13.421568,13.428283,13.434359,13.440388,13.446338,13.452172,13.457895,13.463509,13.469007,13.47431,13.479615,13.485041,13.490418,13.49564,13.500556,13.505091,13.5093155,13.513195,13.516978,13.521175,13.525922,13.531418,13.537701,13.544185,13.550442,13.556904,13.5632105,13.569473,13.575736,13.581819,13.587576,13.592943,13.598339,13.604082,13.610336,13.617185,13.623847,13.62944,13.634615,13.6394825,13.644503,13.649475,13.654539,13.659937,13.665775,13.672071,13.67865,13.685635,13.692427,13.698635,13.704054,13.708817,13.71335,13.717803,13.72267,13.727448,13.731989,13.73622,13.740164,13.744055,13.747963,13.752468,13.757859,13.764282,13.771561,13.7793255,13.78718,13.794703,13.802348,13.809961,13.817455,13.824731,13.8317585,13.838467,13.844475,13.850459,13.856765,13.863384,13.870213,13.877129,13.884029,13.890742,13.897386,13.9043255,13.91127,13.9178295,13.923685,13.928696,13.932886,13.936823,13.941092,13.946556,13.95364,13.962545,13.973009,13.984425,13.996356,14.009197,14.023059,14.037642,14.051605,14.06315,14.07056,14.072268,14.06795,14.05567,14.035027,14.008058,13.977999,13.948187,13.921465,13.898273,13.877472,13.860115,13.847157,13.838859,13.83482,13.834299,13.836135,13.839885,13.8443365,13.848618,13.852344,13.855535,13.858667,13.862593,13.867643,13.874021,13.881212,13.888304,13.894466,13.899254,13.902629,13.90515,13.907192,13.909112,13.911083,13.912724,13.913374,13.912651,13.910212,13.905849,13.899919,13.893257,13.886384,13.87939,13.872227,13.864719,13.855888,13.846568,13.8376875,13.83,13.82368,13.818174,13.812803,13.80679,13.799758,13.792238,13.78479,13.777882,13.771982,13.767373,13.763378,13.759478,13.755029,13.748898,13.740433,13.729713,13.717051,13.702421,13.6844425,13.663023,13.638895,13.613203,13.587505,13.563603,13.542096,13.520855,13.499568,13.477402,13.453099,13.426666,13.399826,13.37409,13.348333,13.322325,13.295182,13.265758,13.233627,13.199725,13.16633,13.133553,13.10092,13.069776,13.040485,13.012077,12.983593,12.955635,12.928289,12.899378,12.870983,12.84477,12.821056,12.799902,12.78156,12.763803,12.744315,12.722271,12.697817,12.673033,12.650702,12.632332,12.618064,12.606341,12.59556,12.585579,12.577572,12.57354,12.574707,12.580368,12.58909,12.597643,12.603086,12.603779,12.5998535,12.592796,12.584487,12.575182,12.563736,12.551186,12.539347,12.530275,12.525002,12.522547,12.520399,12.515409,12.504683,12.488056,12.46825,12.449886,12.437094,12.430783,12.429005,12.4317665,12.436825,12.442535,12.449043,12.456749,12.464802,12.474002,12.484508,12.493706,12.498895,12.49576,12.479481,12.449478,12.410852,12.364314,12.321825,12.296116,12.291061,12.302753,12.3255,12.351127,12.376389,12.401343,12.427504,12.455028,12.482769,12.509062,12.530597,12.545882,12.552553,12.548271,12.535181,12.517314,12.497192,12.475711,12.443808,12.396711,12.33098,12.256463,12.192237,12.152433,12.138281,12.147114,12.166187,12.183747,12.189791,12.181114,12.16316,12.145123,12.129205,12.113501,12.094629,12.071842,12.0434885,12.010849,11.979799,11.952719,11.927658,11.906957,11.891586
13.262878,13.2691345,13.276039,13.283436,13.291145,13.298712,13.305742,13.312212,13.318081,13.323892,13.329615,13.335257,13.340844,13.346382,13.351887,13.357279,13.362677,13.368206,13.37366,13.378902,13.383791,13.38826,13.392366,13.396104,13.399715,13.403701,13.408178,13.413328,13.419208,13.4253,13.431204,13.437382,13.443508,13.449682,13.455906,13.461962,13.46768,13.472975,13.478289,13.483917,13.49004,13.496738,13.503259,13.508728,13.513713,13.5183525,13.5230255,13.527609,13.53234,13.537509,13.54324,13.549564,13.556225,13.563326,13.570276,13.57667,13.582266,13.587189,13.591866,13.596416,13.601339,13.606154,13.610714,13.614965,13.618941,13.622875,13.626845,13.631406,13.636801,13.643177,13.650364,13.658016,13.665762,13.673159,13.68062,13.687993,13.695196,13.702192,13.708988,13.715519,13.721419,13.727289,13.733471,13.739958,13.746647,13.753426,13.760202,13.766793,13.773337,13.780224,13.787167,13.793774,13.799655,13.804585,13.808535,13.812029,13.815649,13.82012,13.825791,13.832937,13.841471,13.851015,13.861356,13.872906,13.885896,13.900061,13.914419,13.927596,13.938069,13.944237,13.945823,13.940836,13.928157,13.9084835,13.883856,13.8569565,13.830489,13.805366,13.780851,13.758387,13.739704,13.7259655,13.71734,13.7132,13.712358,13.714059,13.71706,13.72053,13.724047,13.727556,13.731381,13.735955,13.741476,13.747869,13.754307,13.760114,13.765007,13.769041,13.772525,13.776111,13.779974,13.784142,13.788351,13.791979,13.794445,13.795544,13.795017,13.792722,13.788712,13.783642,13.777959,13.771781,13.765169,13.758039,13.749338,13.7400055,13.731173,13.723879,13.718475,13.714323,13.710479,13.706093,13.700632,13.694561,13.688447,13.6827545,13.677925,13.674224,13.671099,13.668055,13.664434,13.659142,13.651472,13.641478,13.629566,13.615813,13.598871,13.578697,13.55594,13.531616,13.507243,13.484622,13.464306,13.44443,13.424833,13.404885,13.383558,13.3607645,13.337766,13.315748,13.293556,13.270733,13.246418,13.2195015,13.189624,13.157783,13.126149,13.094771,13.063034,13.0319,13.001604,12.971333,12.940384,12.909582,12.879164,12.846834,12.814724,12.784618,12.757183,12.732909,12.712287,12.693176,12.673197,12.651603,12.62837,12.605076,12.584013,12.566416,12.552198,12.540017,12.528515,12.517666,12.508493,12.502635,12.501004,12.502892,12.506901,12.510405,12.511168,12.508329,12.502372,12.494534,12.486271,12.47777,12.4677925,12.45734,12.447905,12.441145,12.437756,12.436584,12.435333,12.430931,12.420361,12.403532,12.383133,12.363869,12.350203,12.343187,12.340925,12.343565,12.349041,12.355955,12.364622,12.375574,12.388135,12.402924,12.419865,12.435772,12.447193,12.449442,12.437813,12.411877,12.37683,12.333024,12.29137,12.263798,12.25426,12.259552,12.274799,12.292893,12.31072,12.328758,12.348946,12.372082,12.397614,12.423921,12.447109,12.465513,12.47579,12.475087,12.465421,12.450889,12.434101,12.415987,12.38764,12.343956,12.280558,12.20643,12.139704,12.094355,12.073084,12.074148,12.086154,12.100388,12.107878,12.104371,12.092901,12.079986,12.066572,12.051386,12.031411,12.00675,11.976646,11.94264,11.910289,11.881895,11.855673,11.834592,11.819766
13.148838,13.155081,13.161989,13.169329,13.17688,13.184196,13.190914,13.197062,13.202647,13.208204,13.213694,13.21916,13.224646,13.230162,13.235729,13.24126,13.246822,13.252544,13.258202,13.263615,13.268641,13.27323,13.277393,13.281158,13.284789,13.288722,13.293068,13.297996,13.303563,13.30933,13.314925,13.320837,13.326786,13.332856,13.339006,13.3449955,13.350632,13.355831,13.36104,13.366558,13.372545,13.379089,13.385477,13.390833,13.395648,13.400089,13.404451,13.408684,13.413108,13.418047,13.423643,13.429932,13.436598,13.4437275,13.450758,13.457288,13.463048,13.468126,13.472951,13.477594,13.482578,13.487438,13.492025,13.496304,13.500318,13.5042925,13.508316,13.51292,13.518314,13.524641,13.531746,13.539295,13.546934,13.554226,13.5615425,13.568731,13.575715,13.582494,13.589106,13.595493,13.601299,13.607085,13.613174,13.619566,13.62616,13.632856,13.639575,13.646132,13.652664,13.6595955,13.666635,13.673394,13.679452,13.684508,13.688478,13.691837,13.695145,13.698965,13.703551,13.7092,13.715988,13.723745,13.732453,13.742523,13.754223,13.767273,13.781004,13.794479,13.806483,13.815577,13.821574,13.822649,13.817253,13.804997,13.786787,13.764494,13.740355,13.715494,13.689411,13.66363,13.640345,13.621433,13.607733,13.599052,13.594429,13.592913,13.593473,13.595434,13.598335,13.601994,13.606446,13.611628,13.617617,13.62409,13.629986,13.634804,13.638655,13.641935,13.645212,13.649155,13.65384,13.659159,13.6646385,13.6696205,13.673637,13.676497,13.677946,13.677858,13.675964,13.672761,13.668627,13.66368,13.658056,13.651672,13.643412,13.6342125,13.625336,13.618092,13.613022,13.60947,13.606369,13.602772,13.598076,13.592787,13.58755,13.582851,13.579058,13.576372,13.574289,13.572348,13.569891,13.565873,13.559545,13.550848,13.540199,13.527729,13.51207,13.493204,13.471745,13.448681,13.425535,13.4041195,13.384909,13.366229,13.347985,13.329704,13.310573,13.2904625,13.270296,13.251029,13.2314625,13.211054,13.189077,13.164521,13.137081,13.107733,13.078413,13.049067,13.018963,12.988674,12.958326,12.92728,12.895069,12.862703,12.830511,12.796151,12.76169,12.72891,12.698715,12.671911,12.64916,12.628494,12.607438,12.585379,12.562242,12.539277,12.518431,12.500753,12.4860325,12.473067,12.460762,12.449236,12.43932,12.432255,12.428635,12.427676,12.428048,12.4277,12.424953,12.419586,12.412388,12.404382,12.396648,12.389399,12.381283,12.37323,12.366394,12.361991,12.360377,12.360295,12.359606,12.355321,12.344397,12.326917,12.305606,12.2852335,12.270461,12.262343,12.258894,12.260271,12.264569,12.270695,12.279246,12.290958,12.305325,12.322787,12.342934,12.362254,12.377016,12.382646,12.374934,12.353734,12.323916,12.285638,12.24832,12.222616,12.212159,12.214068,12.224016,12.235895,12.246581,12.257067,12.269883,12.286945,12.308735,12.3337555,12.357601,12.378359,12.391735,12.394388,12.388033,12.376671,12.362959,12.347784,12.322636,12.282244,12.2216,12.148821,12.080972,12.031694,12.004824,11.999321,12.005148,12.016131,12.024294,12.024638,12.01823,12.009311,11.997696,11.982685,11.961884,11.936237,11.905796,11.87216,11.840233,11.8120575,11.785893,11.764975,11.750435
13.038314,13.044462,13.05126,13.058426,13.06571,13.072693,13.079065,13.084879,13.09018,13.095524,13.100842,13.106214,13.111686,13.117256,13.122948,13.128658,13.134428,13.140388,13.146311,13.151974,13.157237,13.162062,13.166422,13.170373,13.174201,13.178252,13.182637,13.187496,13.192871,13.198403,13.203777,13.209475,13.215254,13.221203,13.2272625,13.233163,13.2387,13.243809,13.248915,13.254337,13.260197,13.266592,13.27286,13.278126,13.282813,13.287106,13.291218,13.295148,13.299282,13.303978,13.309374,13.3155155,13.322057,13.329074,13.3360615,13.34264,13.348513,13.353727,13.358688,13.36343,13.368483,13.373411,13.378058,13.382393,13.386473,13.390505,13.394604,13.39927,13.404691,13.410999,13.418058,13.425547,13.433117,13.4403515,13.447596,13.454693,13.461567,13.468229,13.474741,13.481058,13.486807,13.492547,13.498579,13.504929,13.511492,13.518175,13.52491,13.531502,13.538086,13.545092,13.552249,13.559197,13.565498,13.570795,13.574957,13.578398,13.581669,13.585164,13.5890255,13.59355,13.598945,13.605234,13.612509,13.621191,13.631537,13.643219,13.6558075,13.668739,13.681104,13.691673,13.700281,13.705431,13.7054615,13.699344,13.687229,13.670286,13.650101,13.627731,13.602684,13.576177,13.550369,13.527478,13.508969,13.495334,13.486082,13.480281,13.477346,13.476879,13.478469,13.481806,13.486584,13.492212,13.498644,13.5054,13.511299,13.51589,13.519402,13.522322,13.525299,13.528925,13.533325,13.5384655,13.544004,13.549524,13.5547085,13.559225,13.562676,13.564883,13.56524,13.564109,13.561819,13.558484,13.554275,13.54904,13.541632,13.532877,13.524081,13.516753,13.511616,13.508063,13.505009,13.501439,13.496749,13.491591,13.486767,13.482809,13.480009,13.478442,13.47758,13.476957,13.475932,13.473526,13.468943,13.461996,13.453024,13.442118,13.427851,13.410177,13.38974,13.367613,13.345425,13.325035,13.306799,13.289159,13.271994,13.254904,13.237259,13.218927,13.200594,13.183048,13.165081,13.146115,13.1256075,13.1027565,13.077399,13.050442,13.023485,12.996353,12.968246,12.939405,12.909836,12.8790245,12.846747,12.814196,12.781717,12.746992,12.711903,12.678118,12.646655,12.618472,12.594284,12.572321,12.550012,12.526886,12.50293,12.479271,12.457684,12.439146,12.423426,12.4093685,12.396101,12.383867,12.373272,12.365198,12.360001,12.35685,12.354544,12.351575,12.346685,12.340067,12.332665,12.325264,12.318533,12.312808,12.306634,12.300847,12.296345,12.2939625,12.293768,12.294432,12.293896,12.289249,12.27747,12.258879,12.236297,12.2145,12.198227,12.188433,12.182936,12.181806,12.183266,12.18655,12.192583,12.202295,12.2152815,12.231734,12.250776,12.268876,12.282679,12.288464,12.283057,12.266764,12.243688,12.213995,12.185167,12.165991,12.159166,12.161634,12.169291,12.176945,12.181377,12.184129,12.188482,12.19787,12.21417,12.236156,12.259117,12.280769,12.296103,12.301538,12.298433,12.290534,12.2803955,12.2685585,12.246945,12.210136,12.152771,12.082296,12.014811,11.963587,11.933273,11.923258,11.924751,11.933388,11.941944,11.944909,11.941917,11.935566,11.924877,11.909733,11.888549,11.862991,11.8336935,11.802067,11.772108,11.745474,11.720499,11.700366,11.6861515
12.9355135,12.941566,12.948206,12.955151,12.962135,12.968786,12.97484,12.980354,12.985439,12.9906025,12.99581,13.001145,13.006632,13.012262,13.018066,13.0239105,13.029858,13.036018,13.042179,13.048086,13.053589,13.05867,13.063272,13.067455,13.07155,13.075827,13.080356,13.085245,13.090534,13.095927,13.101131,13.106669,13.112302,13.1181345,13.1241,13.129902,13.13535,13.140364,13.145384,13.150706,13.1564455,13.162712,13.168879,13.174082,13.178711,13.182919,13.186868,13.19059,13.194491,13.198956,13.204145,13.210092,13.216424,13.22323,13.23008,13.236624,13.242543,13.247852,13.252908,13.257711,13.2628145,13.267781,13.27248,13.276878,13.281028,13.285141,13.28933,13.294082,13.299571,13.305899,13.312943,13.320405,13.327921,13.33512,13.342321,13.349381,13.356216,13.362839,13.369322,13.375616,13.3813505,13.38708,13.393097,13.399436,13.406004,13.412723,13.419508,13.426146,13.432792,13.4398575,13.447123,13.454243,13.460773,13.466347,13.4708,13.474478,13.477901,13.481335,13.484798,13.488561,13.492941,13.498114,13.504218,13.511696,13.520792,13.531086,13.54235,13.554312,13.566295,13.577269,13.587101,13.594593,13.598202,13.596694,13.589798,13.578114,13.562586,13.544013,13.521742,13.496466,13.469949,13.444424,13.421885,13.40362,13.389711,13.379371,13.37258,13.369281,13.369174,13.371819,13.376544,13.38232,13.388986,13.395972,13.402109,13.406923,13.410591,13.413521,13.416266,13.419318,13.422892,13.427124,13.431991,13.437466,13.443396,13.44923,13.454423,13.45866,13.4611,13.461983,13.461605,13.46007,13.457512,13.453679,13.447414,13.43938,13.430874,13.423552,13.418269,13.414473,13.411154,13.407215,13.402115,13.3966675,13.391882,13.38838,13.386389,13.38583,13.386108,13.386736,13.387092,13.386276,13.383486,13.378391,13.371191,13.361906,13.349007,13.332396,13.312786,13.291363,13.269901,13.250338,13.232915,13.2161045,13.199739,13.183437,13.166697,13.149431,13.132166,13.115587,13.09844,13.080164,13.060419,13.038664,13.014906,12.989997,12.965197,12.940159,12.914085,12.886995,12.858732,12.828873,12.797424,12.765717,12.734091,12.700281,12.665895,12.632456,12.60099,12.572466,12.547567,12.524729,12.501329,12.476986,12.451796,12.4268875,12.403988,12.384075,12.366997,12.35157,12.337137,12.324065,12.312773,12.303835,12.297422,12.2926655,12.288506,12.28388,12.277821,12.27077,12.263749,12.257302,12.251732,12.247515,12.243145,12.239346,12.236811,12.236076,12.236977,12.238144,12.237506,12.232268,12.219428,12.199544,12.175538,12.152168,12.13416,12.122343,12.114298,12.109999,12.1078,12.1072,12.109379,12.115387,12.12481,12.137575,12.152255,12.165611,12.175162,12.178524,12.173869,12.162009,12.145977,12.12613,12.107868,12.0977955,12.09734,12.102955,12.110533,12.115707,12.115175,12.110959,12.10713,12.108699,12.118947,12.136974,12.157981,12.179269,12.1954365,12.202976,12.202914,12.1986065,12.1923485,12.184142,12.166243,12.133173,12.079432,12.011967,11.946074,11.894621,11.862736,11.85005,11.848799,11.855829,11.86452,11.869059,11.868107,11.863199,11.852872,11.837513,11.816419,11.791835,11.764742,11.736187,11.709166,11.684891,11.66178,11.642774,11.628878
12.833115,12.839111,12.845615,12.852355,12.85906,12.865418,12.871222,12.876507,12.88142,12.886465,12.891619,12.8969555,12.902472,12.908142,12.913996,12.919901,12.925944,12.932232,12.938555,12.944627,12.950287,12.955532,12.960301,12.964687,12.968998,12.973476,12.9781685,12.983116,12.988341,12.993628,12.998709,13.004116,13.009638,13.015389,13.021299,13.02705,13.032431,13.03739,13.042336,13.047573,13.053198,13.059343,13.06541,13.070547,13.075132,13.079285,13.08312,13.086686,13.090406,13.094667,13.099642,13.105347,13.1114435,13.117985,13.124659,13.1311455,13.137104,13.142494,13.147626,13.15247,13.157597,13.162579,13.167298,13.171738,13.17595,13.180148,13.184437,13.189304,13.194885,13.20125,13.208292,13.215726,13.223196,13.230331,13.237499,13.244544,13.251384,13.258034,13.264553,13.270874,13.276619,13.28236,13.28837,13.294705,13.301281,13.308015,13.314814,13.321449,13.328077,13.335136,13.34242,13.349628,13.356348,13.362207,13.36699,13.370974,13.374641,13.3781595,13.381451,13.384752,13.388433,13.39275,13.39786,13.404207,13.412012,13.420876,13.430733,13.441521,13.452721,13.463459,13.473623,13.482315,13.4882145,13.490161,13.48771,13.481045,13.470573,13.456747,13.4386215,13.416283,13.390755,13.363978,13.3383465,13.315945,13.297487,13.282476,13.271444,13.264774,13.262365,13.26369,13.26778,13.2733,13.279891,13.28698,13.293489,13.298853,13.303066,13.306385,13.309169,13.311711,13.314325,13.317384,13.321234,13.326273,13.332554,13.339355,13.345932,13.351865,13.356148,13.358919,13.36043,13.360744,13.359922,13.357581,13.352573,13.345403,13.337354,13.330196,13.324892,13.320929,13.317344,13.313002,13.307362,13.301443,13.296486,13.293247,13.291917,13.292246,13.293545,13.295284,13.296862,13.297485,13.296389,13.293137,13.287742,13.280113,13.268621,13.253071,13.234228,13.213434,13.1926155,13.173777,13.157034,13.140901,13.125121,13.109348,13.093224,13.076704,13.060211,13.044331,13.027752,13.009922,12.99067,12.969702,12.947222,12.924073,12.901234,12.878233,12.854252,12.829119,12.802578,12.774311,12.744507,12.714527,12.684698,12.652831,12.620239,12.588215,12.557682,12.529531,12.504422,12.481022,12.456681,12.431072,12.4044075,12.377882,12.353203,12.331396,12.312485,12.295262,12.279296,12.265127,12.253067,12.24343,12.236183,12.230356,12.224997,12.219362,12.212677,12.205566,12.199108,12.193642,12.189202,12.186386,12.183626,12.181551,12.180671,12.181265,12.1829815,12.184436,12.183571,12.177655,12.163705,12.142509,12.117048,12.091988,12.071997,12.057833,12.046871,12.039028,12.032749,12.02774,12.025291,12.026388,12.030523,12.037299,12.044759,12.050272,12.052643,12.051237,12.0458355,12.037743,12.028702,12.019308,12.012795,12.0133705,12.020985,12.031479,12.0406065,12.044784,12.040704,12.030823,12.019953,12.014555,12.019167,12.033169,12.051731,12.071871,12.08807,12.097212,12.100162,12.09982,12.097992,12.093889,12.080067,12.051122,12.001373,11.937334,11.873665,11.82288,11.790336,11.775866,11.772577,11.778165,11.786553,11.791796,11.7918625,11.787604,11.777262,11.761682,11.741106,11.718245,11.69428,11.669798,11.64669,11.62558,11.604988,11.587444,11.573858
12.727333,12.733342,12.739746,12.746309,12.752789,12.758937,12.7645855,12.769754,12.774597,12.77962,12.784811,12.79022,12.795799,12.801495,12.807338,12.813221,12.819262,12.82556,12.831903,12.838,12.843683,12.848953,12.853769,12.858239,12.862686,12.867306,12.87211,12.877104,12.882298,12.887518,12.892513,12.897855,12.903325,12.909071,12.915005,12.920774,12.926158,12.931106,12.93602,12.941187,12.946697,12.952696,12.958626,12.963665,12.968182,12.972256,12.975966,12.97938,12.982911,12.986946,12.991667,12.997078,13.002877,13.009138,13.01562,13.02205,13.028067,13.033572,13.038803,13.043706,13.048862,13.053854,13.05859,13.06307,13.067346,13.071625,13.075998,13.080957,13.08662,13.093004,13.100017,13.107404,13.1148,13.121864,13.129005,13.136057,13.142944,13.149689,13.156315,13.162708,13.168491,13.174247,13.180239,13.186535,13.193067,13.199742,13.206458,13.212999,13.219497,13.226433,13.2336235,13.240816,13.247648,13.253755,13.258858,13.263159,13.267137,13.270834,13.27413,13.277229,13.280489,13.284182,13.288488,13.293812,13.300352,13.3078,13.316262,13.325761,13.335819,13.345715,13.355364,13.364138,13.371042,13.375223,13.3763275,13.374307,13.369116,13.360853,13.348274,13.330721,13.308198,13.281998,13.254638,13.2288885,13.206165,13.186331,13.170506,13.159653,13.154005,13.153087,13.155792,13.16057,13.166801,13.17393,13.180992,13.187223,13.192333,13.196352,13.199358,13.201471,13.203091,13.204828,13.207439,13.211771,13.218095,13.225561,13.233219,13.240562,13.246466,13.25099,13.254331,13.256472,13.257355,13.256449,13.252676,13.246401,13.238907,13.232095,13.227003,13.223087,13.219399,13.214736,13.208557,13.202079,13.1968,13.193646,13.192791,13.1938305,13.195951,13.198582,13.20113,13.202955,13.203388,13.201912,13.198334,13.192436,13.182461,13.168122,13.150187,13.130123,13.110009,13.091866,13.075764,13.060219,13.044899,13.029509,13.013826,12.997868,12.981972,12.96664,12.95046,12.932888,12.913904,12.893446,12.871918,12.850208,12.829124,12.808073,12.786224,12.763273,12.738939,12.713024,12.685823,12.6585865,12.631589,12.6028,12.573174,12.543707,12.515106,12.488104,12.463349,12.439756,12.414679,12.387796,12.359486,12.331045,12.304184,12.280012,12.258824,12.239303,12.221324,12.205646,12.192568,12.182241,12.174401,12.167875,12.161774,12.155539,12.148466,12.141299,12.135178,12.130357,12.126688,12.12491,12.123417,12.122722,12.123171,12.124836,12.127226,12.12894,12.127908,12.121483,12.106682,12.084465,12.057777,12.0311165,12.009071,11.992363,11.978197,11.966469,11.955754,11.945913,11.938215,11.93342,11.93087,11.929773,11.927677,11.922855,11.915718,11.907648,11.900125,11.894834,11.892139,11.892882,11.898193,11.909751,11.925934,11.941928,11.953329,11.957344,11.950896,11.936707,11.920235,11.909077,11.908646,11.918543,11.934092,11.952126,11.967472,11.977701,11.983707,11.987839,11.99106,11.991548,11.9823,11.958055,11.913034,11.853396,11.793201,11.744518,11.712721,11.697751,11.693451,11.698064,11.706024,11.711368,11.71166,11.707452,11.696825,11.681084,11.661476,11.641073,11.621164,11.601812,11.583684,11.566698,11.549379,11.533747,11.520563
12.622029,12.628153,12.634553,12.641067,12.647465,12.653557,12.659217,12.664436,12.66935,12.674461,12.679785,12.685317,12.690962,12.696637,12.702362,12.708057,12.713913,12.720019,12.726195,12.732142,12.737684,12.742836,12.747576,12.7520275,12.756504,12.761184,12.76605,12.771092,12.776311,12.781525,12.78653,12.791902,12.79742,12.803257,12.809298,12.8151455,12.82057,12.825504,12.830365,12.83543,12.84078,12.84658,12.85231,12.857179,12.861546,12.865478,12.869019,12.872246,12.875559,12.879349,12.883804,12.888908,12.894395,12.900373,12.906675,12.913073,12.919201,12.924883,12.930258,12.935259,12.94046,12.945461,12.950213,12.95472,12.959032,12.963366,12.96779,12.972792,12.9784775,12.984827,12.991764,12.999061,13.006353,13.013317,13.020418,13.027479,13.034433,13.041298,13.048042,13.054499,13.060305,13.06604,13.071974,13.078186,13.084618,13.091161,13.097719,13.104095,13.110418,13.117157,13.124176,13.131258,13.138096,13.14435,13.149706,13.154291,13.158558,13.162444,13.165802,13.168813,13.17181,13.175057,13.178726,13.183193,13.188636,13.194836,13.202017,13.210228,13.218988,13.227684,13.236298,13.244438,13.251437,13.256844,13.260465,13.262131,13.261545,13.258553,13.251745,13.23993,13.222067,13.198594,13.171766,13.144614,13.119093,13.095319,13.074829,13.059247,13.049345,13.044979,13.045191,13.048418,13.053678,13.06045,13.067811,13.074768,13.080744,13.085542,13.088974,13.091024,13.092127,13.093024,13.094782,13.09856,13.104789,13.112566,13.120813,13.129003,13.135981,13.141798,13.146597,13.150239,13.152504,13.152716,13.149902,13.144369,13.137487,13.131298,13.1268635,13.123524,13.120219,13.115697,13.10935,13.102495,13.096865,13.09355,13.092724,13.093901,13.096188,13.099003,13.10184,13.104282,13.105803,13.105823,13.103962,13.099844,13.091616,13.078892,13.062349,13.043463,13.024344,13.006998,12.991493,12.97641,12.96139,12.946257,12.930935,12.915479,12.900152,12.885353,12.869568,12.852215,12.833387,12.81321,12.792279,12.771576,12.751836,12.73238,12.712454,12.691738,12.669981,12.647061,12.623243,12.59956,12.576178,12.551304,12.525524,12.499502,12.473667,12.448537,12.424733,12.401464,12.3761425,12.348455,12.318922,12.288877,12.260005,12.233513,12.20995,12.18788,12.167461,12.149734,12.135142,12.123797,12.115221,12.107971,12.1010895,12.093961,12.0858555,12.077644,12.070665,12.065298,12.061432,12.059919,12.059116,12.059443,12.061051,12.063822,12.067144,12.069555,12.06902,12.062946,12.048338,12.026157,11.999176,11.971622,11.947973,11.928984,11.911831,11.896446,11.881637,11.867365,11.854746,11.844223,11.8349495,11.825768,11.813932,11.798752,11.782186,11.767406,11.757241,11.753433,11.755085,11.763089,11.776831,11.795818,11.817282,11.836199,11.848282,11.851597,11.843515,11.826735,11.807003,11.792274,11.78808,11.794067,11.805989,11.820748,11.834038,11.844494,11.8531475,11.861667,11.869978,11.875113,11.8706455,11.851682,11.812667,11.759457,11.705328,11.661548,11.63308,11.61993,11.616537,11.621415,11.62949,11.63495,11.635252,11.630996,11.620187,11.604584,11.586374,11.568853,11.553417,11.539682,11.527112,11.514835,11.50132,11.487898,11.475159
12.520369,12.526682,12.533184,12.539772,12.546228,12.552418,12.55825,12.563669,12.568777,12.574078,12.579605,12.585295,12.591005,12.596621,12.602144,12.607527,12.613028,12.618771,12.624603,12.630255,12.635536,12.640456,12.645021,12.649359,12.65375,12.658403,12.663278,12.668348,12.673616,12.678888,12.683983,12.689474,12.695146,12.70117,12.707394,12.713371,12.718861,12.723771,12.728572,12.733507,12.738663,12.744223,12.749695,12.754322,12.758461,12.762173,12.765486,12.768476,12.771545,12.775088,12.77928,12.784106,12.78931,12.795044,12.801207,12.807623,12.813929,12.819859,12.8254385,12.830597,12.83588,12.840914,12.845675,12.850185,12.854509,12.858858,12.863285,12.8682575,12.873881,12.880121,12.886916,12.894069,12.901222,12.908057,12.915093,12.92215,12.929156,12.936111,12.942934,12.949413,12.955196,12.960869,12.966694,12.972771,12.979024,12.985353,12.991688,12.997839,13.0039425,13.010435,13.017214,13.024087,13.030799,13.0370655,13.042555,13.047327,13.051786,13.055798,13.05918,13.062105,13.064899,13.06781,13.070988,13.074792,13.079385,13.084612,13.090715,13.097746,13.105247,13.112682,13.120098,13.127323,13.133965,13.139915,13.145094,13.149269,13.152103,13.153328,13.1516075,13.14554,13.133269,13.114329,13.090336,13.064059,13.0377035,13.011446,12.986971,12.966563,12.951706,12.942885,12.939642,12.940543,12.944203,12.950128,12.957325,12.964577,12.971083,12.9764805,12.980401,12.982754,12.98393,12.984687,12.986233,12.98987,12.996084,13.00396,13.012405,13.020924,13.0284195,13.034988,13.04075,13.0454235,13.048598,13.049492,13.04723,13.042182,13.035848,13.030426,13.026978,13.024645,13.022171,13.018274,13.012232,13.005358,12.999521,12.995916,12.994728,12.995464,12.997235,12.999501,13.001933,13.004406,13.006546,13.007711,13.007379,13.004999,12.998698,12.987986,12.9733715,12.956193,12.938454,12.922075,12.907191,12.892515,12.877729,12.862835,12.847909,12.833025,12.818347,12.804148,12.788849,12.771788,12.753115,12.733107,12.712527,12.692463,12.673628,12.655338,12.637003,12.618402,12.599365,12.579776,12.55974,12.539988,12.520546,12.499894,12.4783,12.4561,12.433445,12.410625,12.38822,12.365747,12.340771,12.313,12.283028,12.2521305,12.221899,12.193594,12.167973,12.14345,12.12046,12.100311,12.083723,12.070919,12.0612545,12.052974,12.044912,12.036177,12.025946,12.015274,12.005851,11.998419,11.993149,11.990931,11.9901,11.991017,11.993605,11.997576,12.002193,12.005877,12.00667,12.002024,11.988877,11.968047,11.941988,11.914581,11.890146,11.869537,11.850065,11.83173,11.813662,11.795898,11.779324,11.764056,11.749073,11.732925,11.712825,11.689073,11.6648445,11.644579,11.631899,11.628292,11.631807,11.643145,11.660376,11.68149,11.703236,11.721014,11.7310705,11.732366,11.722799,11.704805,11.683941,11.667675,11.660923,11.663218,11.670975,11.681428,11.691559,11.701321,11.71192,11.724254,11.73715,11.746555,11.746704,11.733318,11.701475,11.656794,11.611489,11.575596,11.553238,11.544421,11.544097,11.550795,11.559898,11.565874,11.566322,11.562159,11.551361,11.536163,11.519532,11.504929,11.493918,11.485828,11.479022,11.471817,11.462523,11.451638,11.439551
12.424362,12.430849,12.437477,12.444167,12.450726,12.457069,12.463133,12.468805,12.474152,12.479685,12.485441,12.491306,12.497102,12.502669,12.507985,12.513037,12.518137,12.523455,12.528862,12.534154,12.539139,12.54378,12.54812,12.552273,12.556501,12.561062,12.565887,12.570949,12.5762615,12.581611,12.586819,12.592464,12.598348,12.604612,12.611063,12.617219,12.622806,12.627724,12.632508,12.6373415,12.64233,12.64767,12.652891,12.657282,12.661188,12.664663,12.667744,12.6705,12.673351,12.676679,12.680641,12.685229,12.690197,12.695749,12.701818,12.708292,12.7148,12.721008,12.726839,12.732194,12.7376,12.742697,12.747473,12.751989,12.756327,12.7606735,12.765068,12.769956,12.775459,12.781532,12.788128,12.795089,12.802069,12.808752,12.815687,12.822697,12.829707,12.836696,12.843533,12.8499775,12.855703,12.861268,12.866949,12.872842,12.878853,12.884901,12.890951,12.89683,12.902666,12.908872,12.915353,12.921925,12.928394,12.934542,12.94003,12.944866,12.94941,12.953463,12.956827,12.959679,12.96233,12.965012,12.967865,12.97123,12.97524,12.979773,12.98504,12.991049,12.997396,13.003658,13.009901,13.016176,13.022302,13.028385,13.034395,13.040085,13.045185,13.049419,13.051735,13.050739,13.044092,13.030551,13.01088,12.987219,12.961769,12.934566,12.9072,12.882516,12.862726,12.849134,12.842039,12.840178,12.841817,12.846464,12.852997,12.859993,12.86652,12.872123,12.8763485,12.879105,12.880676,12.88177,12.8836,12.887489,12.893908,12.901928,12.910509,12.91922,12.927013,12.934058,12.940465,12.945822,12.949539,12.950773,12.948734,12.943905,12.937904,12.933079,12.930496,12.9291115,12.927492,12.924362,12.918911,12.912385,12.906647,12.902887,12.901276,12.90135,12.902322,12.903736,12.905483,12.907733,12.910223,12.912243,12.913149,12.912281,12.907812,12.899181,12.886713,12.871538,12.85545,12.840218,12.826082,12.811915,12.797477,12.782944,12.768532,12.754297,12.740305,12.726715,12.711905,12.695177,12.676706,12.656887,12.636612,12.617024,12.598843,12.58142,12.564354,12.54761,12.531134,12.514764,12.498388,12.482403,12.466684,12.449966,12.4322815,12.4137,12.394136,12.3737,12.3529215,12.331598,12.307505,12.28038,12.250822,12.219994,12.189309,12.160014,12.133017,12.106562,12.081318,12.058798,12.040031,12.025471,12.014378,12.004694,11.995003,11.984007,11.970779,11.956594,11.943571,11.932943,11.92532,11.921568,11.920015,11.921026,11.924295,11.929381,11.93543,11.940668,11.943243,11.940641,11.929721,11.911091,11.886829,11.8604355,11.836042,11.814606,11.793657,11.773249,11.752858,11.732609,11.713152,11.694342,11.675059,11.653634,11.627422,11.597515,11.567883,11.543682,11.528856,11.524452,11.527746,11.539045,11.555508,11.574265,11.592176,11.605511,11.611334,11.609424,11.598114,11.579416,11.558368,11.5414295,11.5325165,11.531032,11.534216,11.539774,11.5461445,11.55459,11.566442,11.581779,11.598389,11.61129,11.615456,11.607397,11.58317,11.548256,11.513622,11.487743,11.473623,11.471139,11.47568,11.485567,11.49654,11.50341,11.504096,11.500004,11.489195,11.474398,11.459185,11.4471855,11.440247,11.437545,11.43647,11.434594,11.4299345,11.422061,11.411123
12.335264,12.341827,12.348497,12.355225,12.361839,12.368288,12.37451,12.380388,12.385929,12.391657,12.397608,12.403627,12.409519,12.415087,12.420242,12.425022,12.429771,12.434708,12.439721,12.444677,12.449401,12.453798,12.457929,12.4619,12.46596,12.470406,12.475157,12.480194,12.485548,12.490944,12.496252,12.502026,12.508102,12.514592,12.521262,12.527608,12.533331,12.538301,12.543098,12.547902,12.552809,12.558009,12.563072,12.567316,12.571077,12.574402,12.577354,12.579977,12.582696,12.585894,12.589701,12.594101,12.598883,12.60429,12.610281,12.616783,12.623458,12.629907,12.635958,12.641501,12.647013,12.652174,12.656992,12.661545,12.665922,12.670292,12.674653,12.67947,12.684849,12.690744,12.697137,12.703885,12.710666,12.717167,12.7239485,12.730852,12.737797,12.744741,12.751521,12.75787,12.763508,12.768934,12.774451,12.780148,12.785918,12.791677,12.797423,12.80303,12.808625,12.814538,12.820705,12.826942,12.833113,12.839058,12.844443,12.84926,12.853815,12.857852,12.861197,12.864021,12.866622,12.8692255,12.871929,12.875079,12.878735,12.8827915,12.887409,12.892548,12.897862,12.903061,12.908262,12.913689,12.91932,12.92537,12.9317875,12.938296,12.944726,12.950871,12.9560375,12.958952,12.957119,12.948804,12.933952,12.913906,12.890717,12.86408,12.835293,12.807536,12.783634,12.765695,12.754835,12.750068,12.749388,12.752306,12.757566,12.763659,12.769611,12.774926,12.779144,12.782202,12.784239,12.785891,12.788303,12.792708,12.799541,12.807909,12.816788,12.825867,12.834082,12.841648,12.848671,12.854614,12.858746,12.86021,12.858267,12.853495,12.847566,12.842941,12.840731,12.839806,12.83864,12.836079,12.831299,12.825407,12.820128,12.816542,12.814716,12.81423,12.814475,12.815142,12.816314,12.818378,12.821136,12.823776,12.825569,12.825825,12.822814,12.81599,12.805542,12.792372,12.778019,12.764086,12.75086,12.737383,12.723502,12.709526,12.69574,12.6821785,12.66881,12.655714,12.641285,12.624837,12.606615,12.587102,12.56723,12.548147,12.530563,12.513857,12.497784,12.482534,12.46819,12.454524,12.441208,12.428363,12.415715,12.402182,12.387667,12.3720665,12.355146,12.336897,12.3178005,12.297898,12.275158,12.249335,12.22101,12.191162,12.161003,12.13171,12.104227,12.076689,12.04986,12.025393,12.004597,11.988172,11.975388,11.963978,11.9523,11.938643,11.921994,11.903891,11.886837,11.872543,11.862124,11.856368,11.853615,11.854284,11.85791,11.863897,11.871235,11.877935,11.882255,11.881674,11.873049,11.856777,11.834606,11.809673,11.785904,11.764317,11.742645,11.720993,11.699129,11.677256,11.655863,11.634645,11.612483,11.587587,11.557528,11.523924,11.491116,11.464508,11.448007,11.442183,11.443825,11.452734,11.465523,11.479019,11.490633,11.497683,11.498112,11.492326,11.478849,11.45919,11.437729,11.419802,11.408312,11.402648,11.400991,11.401533,11.404079,11.410999,11.423563,11.441034,11.460295,11.4756565,11.482906,11.479429,11.462507,11.437605,11.414383,11.399628,11.395033,11.400201,11.41087,11.424952,11.438391,11.4463825,11.447283,11.44306,11.43202,11.417395,11.403191,11.393237,11.389763,11.391905,11.396223,11.399672,11.39992,11.395564,11.386415
12.249914,12.256456,12.263096,12.269787,12.276392,12.282873,12.289183,12.295185,12.300838,12.306685,12.31275,12.318872,12.324833,12.330406,12.33547,12.340046,12.344515,12.349113,12.353784,12.358458,12.362971,12.367194,12.371172,12.374989,12.378911,12.383248,12.387926,12.392933,12.398287,12.403694,12.409053,12.414909,12.42112,12.427784,12.434633,12.441142,12.446998,12.452025,12.456875,12.461692,12.466596,12.4717655,12.476781,12.481003,12.484747,12.488072,12.491032,12.493666,12.496382,12.499548,12.503284,12.507578,12.512226,12.517502,12.523397,12.529887,12.536646,12.543236,12.549426,12.555088,12.5606575,12.565853,12.570705,12.575306,12.579743,12.584159,12.588528,12.593293,12.598576,12.604322,12.610521,12.617058,12.623618,12.629902,12.636488,12.643218,12.650016,12.656832,12.663474,12.669677,12.675176,12.680455,12.685812,12.691317,12.696848,12.702342,12.707813,12.713155,12.718525,12.724159,12.730005,12.735895,12.741733,12.747425,12.752649,12.757389,12.761895,12.76589,12.7692175,12.7720585,12.774693,12.777313,12.7800045,12.783046,12.786474,12.790205,12.794319,12.798744,12.803217,12.807553,12.811914,12.816669,12.821894,12.827816,12.834309,12.841076,12.848078,12.855228,12.862196,12.867952,12.870084,12.86658,12.856676,12.840911,12.821043,12.796324,12.767589,12.738099,12.711077,12.689344,12.67484,12.666952,12.663551,12.664147,12.667463,12.6720295,12.676904,12.681572,12.685587,12.688879,12.691404,12.693731,12.696842,12.701865,12.70923,12.718051,12.7273245,12.736893,12.7456665,12.753872,12.7616005,12.768213,12.772848,12.774637,12.772912,12.768249,12.762303,12.757563,12.755214,12.754183,12.753029,12.750742,12.746599,12.741571,12.737109,12.7340355,12.732289,12.731451,12.731137,12.73122,12.731957,12.733887,12.736826,12.739866,12.742233,12.74329,12.741455,12.7362,12.727612,12.716396,12.703821,12.691267,12.679087,12.666452,12.65331,12.640069,12.627052,12.614254,12.601551,12.5889435,12.574911,12.558765,12.540856,12.521759,12.5024,12.483866,12.466835,12.4507065,12.435396,12.421284,12.408603,12.397087,12.386204,12.375872,12.365674,12.354631,12.342571,12.329319,12.314587,12.298299,12.280912,12.262658,12.241665,12.217712,12.1913185,12.163237,12.134443,12.106009,12.078828,12.050978,12.023247,11.997333,11.974754,11.956457,11.941778,11.928364,11.914379,11.897732,11.877428,11.855251,11.834062,11.8160095,11.80266,11.794659,11.790363,11.790281,11.793852,11.800367,11.808657,11.816532,11.822332,11.823559,11.817051,11.803044,11.783022,11.759792,11.737045,11.715841,11.694096,11.671946,11.649383,11.626644,11.604095,11.581364,11.557367,11.530327,11.49802,11.462452,11.428032,11.400065,11.382214,11.374598,11.373697,11.378768,11.386147,11.392801,11.396955,11.397029,11.3917675,11.381941,11.365938,11.3448105,11.322179,11.302351,11.287502,11.277163,11.270416,11.265988,11.264807,11.270115,11.283019,11.30195,11.322999,11.340027,11.349576,11.349922,11.339676,11.324414,11.312606,11.309347,11.314901,11.32852,11.346195,11.365253,11.381693,11.391054,11.392149,11.387551,11.375984,11.361185,11.347458,11.338945,11.338336,11.344791,11.354192,11.3629875,11.368442,11.368212,11.361633
12.159788,12.16622,12.172728,12.179291,12.185792,12.192196,12.19846,12.204459,12.210105,12.215939,12.221989,12.2281,12.234078,12.239685,12.244746,12.249247,12.253573,12.257982,12.262388,12.26681,12.271128,12.275161,12.278953,12.282578,12.286306,12.290455,12.29497,12.299862,12.305134,12.310464,12.315788,12.32162,12.327893,12.334681,12.341684,12.34837,12.354389,12.359554,12.364544,12.36948,12.374502,12.379789,12.384934,12.389322,12.393226,12.396727,12.399871,12.402697,12.405579,12.408852,12.412634,12.416901,12.421478,12.426653,12.432441,12.4388485,12.445578,12.452183,12.45838,12.464053,12.469593,12.474762,12.479601,12.484215,12.488694,12.493159,12.497543,12.502296,12.507509,12.513149,12.519195,12.525528,12.531874,12.537946,12.544314,12.550838,12.557455,12.564116,12.570614,12.576675,12.582069,12.587225,12.59244,12.597742,12.603003,12.60817,12.6133,12.618333,12.623398,12.628687,12.63416,12.63967,12.645172,12.650618,12.655703,12.660372,12.664864,12.668888,12.672304,12.675282,12.678051,12.680756,12.6834755,12.686447,12.689699,12.693161,12.696854,12.700677,12.704435,12.708033,12.711647,12.715727,12.720403,12.725894,12.732058,12.73866,12.745779,12.75341,12.761597,12.769459,12.774829,12.775644,12.770622,12.759613,12.744028,12.722696,12.695894,12.666594,12.638045,12.613527,12.59569,12.584389,12.577571,12.574858,12.575184,12.577303,12.580373,12.583824,12.58717,12.59026,12.592871,12.595539,12.5991535,12.604776,12.612819,12.622348,12.632343,12.64278,12.652441,12.661589,12.670324,12.677935,12.683473,12.68601,12.684922,12.680645,12.674633,12.669317,12.665995,12.663841,12.661792,12.659078,12.655251,12.651189,12.647944,12.645927,12.644831,12.644136,12.643749,12.643666,12.644255,12.646135,12.649111,12.652235,12.654779,12.656206,12.65517,12.651195,12.644309,12.635037,12.624376,12.613466,12.602638,12.591192,12.579166,12.567014,12.555067,12.543279,12.531426,12.519425,12.505877,12.49013,12.472659,12.45414,12.435478,12.417653,12.401289,12.385776,12.371119,12.357895,12.346535,12.33677,12.327902,12.319658,12.311438,12.302311,12.292095,12.28059,12.267548,12.252951,12.237267,12.220833,12.201973,12.180417,12.156567,12.130924,12.104218,12.077398,12.051299,12.0239935,11.996231,11.969621,11.945791,11.925856,11.90925,11.8937,11.877256,11.857599,11.833814,11.807911,11.782947,11.761333,11.745003,11.734405,11.727913,11.726198,11.728763,11.734902,11.743334,11.751678,11.758333,11.760714,11.755762,11.7436285,11.725615,11.704255,11.682957,11.662765,11.641729,11.619967,11.597585,11.574795,11.551868,11.528444,11.503543,11.475487,11.442244,11.405994,11.370962,11.342108,11.32276,11.312762,11.308479,11.308725,11.309883,11.309418,11.306389,11.300062,11.289664,11.275971,11.256889,11.233013,11.207275,11.18335,11.163231,11.146953,11.134483,11.12501,11.120274,11.124085,11.137147,11.157074,11.179364,11.197571,11.20886,11.212316,11.207825,11.20119,11.199961,11.207835,11.223731,11.246492,11.272242,11.297426,11.317766,11.328941,11.330189,11.32477,11.312022,11.296285,11.282118,11.274143,11.275691,11.286024,11.3004265,11.314986,11.326527,11.3317585,11.32938
