1.2483194,1.2483969,1.2490163,1.249871,1.2507054,1.2514019,1.2519151,1.2521559,1.2522889,1.2523773,1.2524297,1.2524116,1.2523434,1.2522248,1.2520748,1.2519348,1.2518952,1.2519224,1.2521338,1.2524581,1.2528434,1.2532597,1.2536972,1.2541099,1.2544854,1.2548685,1.2553217,1.2558036,1.2562656,1.2566856,1.2570703,1.257453,1.2576814,1.2578578,1.2579911,1.2580692,1.2580556,1.2580074,1.2579372,1.2578274,1.2576199,1.25735,1.2570354,1.2566684,1.2561892,1.2555537,1.2547827,1.2538593,1.2528398,1.2517931,1.2507498,1.2497176,1.24873,1.247889,1.2473054,1.2468587,1.2466071,1.2464873,1.2464056,1.2462544,1.2458972,1.2453201,1.2445955,1.2438369,1.2431116,1.2424147,1.241726,1.240985,1.240186,1.2393687,1.2385457,1.2377703,1.2370332,1.2362645,1.2354088,1.2344269,1.2332914,1.2319167,1.2303324,1.2285738,1.2266014,1.2244134,1.222095,1.219618,1.2169433,1.21417,1.2113762,1.208631,1.2061236,1.2039392,1.2020596,1.2003806,1.1988269,1.197438,1.1962314,1.1952275,1.1944509,1.1939188,1.193536,1.1933417,1.1933029,1.1935205,1.1940372,1.1947495,1.1957309,1.1970599,1.1986451,1.2001648,1.2011971,1.2012241,1.2013164,1.2020123,1.2032948,1.2050104,1.2070019,1.2091697,1.2114965,1.2139983,1.2167659,1.2199079,1.2233953,1.2271564,1.231055,1.2349987,1.2389189,1.2427514,1.2463758,1.2499106,1.2533839,1.2567831,1.2601917,1.2635201,1.2666854,1.2697184,1.272723,1.2758148,1.27901,1.2822522,1.2853936,1.2881802,1.2905128,1.2924567,1.294106,1.295629,1.2971067,1.2985666,1.3000188,1.3013643,1.3025243,1.3035142,1.3043462,1.3050721,1.3056953,1.3062551,1.3067269,1.3070598,1.3072217,1.3072166,1.3070636,1.3067758,1.3064573,1.3061517,1.3059392,1.3057601,1.305664,1.3056749,1.3057272,1.3056406,1.3053191,1.304811,1.3041451,1.3032405,1.3021166,1.3009377,1.2998625,1.2990556,1.2985424,1.2982213,1.2979851,1.2977,1.2973337,1.2968366,1.296207,1.295512,1.2947762,1.2939572,1.2930453,1.2920778,1.2911938,1.2905104,1.2900128,1.2896552,1.2893541,1.2889326,1.2884326,1.28781,1.2868906,1.2856891,1.2843156,1.282856,1.2814224,1.2800045,1.2785156,1.276878,1.275048,1.2731957,1.2715334,1.2701747,1.2689929,1.2678039,1.2665527,1.2652254,1.2638936,1.2625654,1.2612445,1.2599525,1.2586529,1.2572792,1.2558194,1.2543514,1.2527986,1.2512696,1.2499888,1.2490423,1.2482144,1.2473261,1.2462327,1.244946,1.2435912,1.2422667,1.2409481,1.2398775,1.2389925,1.2381519,1.2372108,1.2362721,1.235575,1.2352238,1.235158,1.2351544,1.2350388,1.2346451,1.2339412,1.2330477,1.2322478,1.2316427,1.2312315,1.2308404,1.2303897,1.2298465,1.2292571,1.2287252,1.2283304,1.2280976,1.2279269,1.2276866,1.22731,1.2267905,1.2262654,1.2257736,1.2252922,1.2247901,1.2242118,1.2235188,1.2227559,1.2219126,1.220996,1.2201563,1.2195549,1.2191671,1.2188516,1.2184224,1.2177777,1.217042,1.2164788,1.2161987,1.2162426,1.2163241,1.2161815,1.2158222,1.2153037,1.214797,1.2143404,1.2140563,1.2140714,1.2143056,1.2145002,1.2144694,1.2141278,1.2138023,1.2138143,1.2140558,1.2141755,1.2139553,1.2134233,1.2127342,1.2120198,1.2113999,1.2110765,1.2112124,1.2116122,1.2119417,1.2118303,1.2111603,1.2103071,1.2097208,1.2093256
1.2451448,1.2452714,1.2461219,1.247391,1.2487259,1.2499806,1.2510843,1.251862,1.2524639,1.2529343,1.2532682,1.2534225,1.2534235,1.2532749,1.2529993,1.2526724,1.2524134,1.2522173,1.2522309,1.2523968,1.2527,1.2530981,1.2535709,1.2540348,1.2544701,1.2549285,1.255485,1.2561013,1.256721,1.2573005,1.2578361,1.2583549,1.2587008,1.2589942,1.2592509,1.2594733,1.2596011,1.2596886,1.2597237,1.2596931,1.2595367,1.2593045,1.2590157,1.2586601,1.258167,1.2574902,1.2566557,1.2556516,1.2545466,1.2534162,1.2522871,1.2511611,1.2500757,1.2491357,1.2484492,1.2479123,1.247579,1.2474,1.2472731,1.2470765,1.2466464,1.2459648,1.2451098,1.2442183,1.2433386,1.2424576,1.2416127,1.2407696,1.2399244,1.2391002,1.2383027,1.2375476,1.2368252,1.2360706,1.2352173,1.234201,1.2329799,1.2315528,1.2299544,1.2282414,1.2264352,1.224555,1.2226686,1.220629,1.2183297,1.2160673,1.2137467,1.2115617,1.2094698,1.207504,1.2056248,1.2037971,1.201938,1.200124,1.1984081,1.1968958,1.1956437,1.1945819,1.1936386,1.1928866,1.1922663,1.191906,1.191823,1.1920664,1.1927012,1.193691,1.1949291,1.19608,1.1967981,1.1968228,1.1965849,1.1965699,1.1969535,1.1976843,1.1985923,1.1996324,1.2008567,1.2023158,1.2041054,1.2063165,1.2088876,1.2117267,1.2147088,1.2177233,1.2208263,1.2240002,1.2271602,1.2302682,1.233408,1.2366326,1.2398915,1.2431024,1.2461646,1.2491035,1.2520547,1.2551959,1.2585977,1.2622216,1.2658777,1.2692003,1.2719977,1.2742512,1.2760406,1.2775595,1.2789547,1.2803308,1.2817345,1.283076,1.2842796,1.2853822,1.2863929,1.2873669,1.2883154,1.2892932,1.2902732,1.291194,1.2920172,1.292719,1.2932873,1.2937195,1.2940643,1.2943659,1.2946626,1.2949634,1.2952795,1.295589,1.2958479,1.2959907,1.2959981,1.2958925,1.295701,1.2953067,1.2946777,1.2939076,1.2931142,1.2924331,1.2918782,1.291387,1.2908778,1.2902743,1.289518,1.2885748,1.2875769,1.2865984,1.2856643,1.2847338,1.2837913,1.282862,1.2820594,1.2814622,1.2810118,1.2806319,1.2802701,1.2798455,1.279341,1.2787414,1.2779505,1.276983,1.2759032,1.2747598,1.2736083,1.2724442,1.271192,1.2697835,1.2681742,1.2665153,1.2649364,1.2635453,1.2622724,1.2609575,1.2595478,1.2580516,1.2565339,1.2550099,1.2534877,1.2519846,1.2504588,1.2488271,1.2470853,1.2452976,1.2435999,1.2420572,1.2407305,1.2396736,1.2386758,1.2375895,1.2362958,1.2348099,1.2332677,1.2318074,1.2305276,1.2294538,1.22854,1.2276831,1.2267535,1.2258387,1.225121,1.224654,1.2243719,1.224114,1.2237539,1.2231753,1.2223477,1.2213655,1.2204739,1.219745,1.2191637,1.2185847,1.2179658,1.2172937,1.216614,1.2160172,1.2155468,1.2151973,1.2148707,1.2144791,1.2139719,1.2133491,1.2127066,1.2121019,1.2115222,1.2109494,1.2103167,1.209583,1.2087982,1.2079813,1.2071227,1.2062943,1.2056377,1.2051182,1.2046154,1.2039919,1.2031772,1.2023041,1.2016226,1.2012113,1.2011044,1.2010313,1.2008162,1.2004333,1.1998736,1.1992593,1.1986116,1.1980284,1.197551,1.1971136,1.1965828,1.195868,1.1948867,1.193896,1.1931906,1.1927514,1.1922896,1.191597,1.1907073,1.1897658,1.1888653,1.1880767,1.1875885,1.1874807,1.1875286,1.1874619,1.1871233,1.186564,1.1860734,1.18592,1.1861727
1.2400578,1.2403336,1.2412623,1.2427244,1.2443477,1.2460033,1.2475986,1.2489293,1.2501072,1.2510964,1.2518387,1.2522615,1.2523855,1.2522317,1.251828,1.2513027,1.250804,1.2503564,1.2501307,1.2500894,1.2502592,1.2505872,1.2510557,1.2515427,1.2520211,1.2525373,1.2531853,1.2539233,1.2546873,1.255408,1.256075,1.2567132,1.2571651,1.257561,1.2579274,1.2582715,1.2585287,1.2587435,1.2588906,1.2589612,1.2588941,1.2587512,1.2585437,1.258256,1.2578053,1.2571454,1.2563086,1.2552872,1.2541702,1.253039,1.2519159,1.2508097,1.2497549,1.2488034,1.2480657,1.2475026,1.2471285,1.2469034,1.2467241,1.2464607,1.2459297,1.2451098,1.2440834,1.2430046,1.2419413,1.2408774,1.2398155,1.2388012,1.2378612,1.237014,1.2362428,1.2355292,1.2348495,1.2341427,1.2333442,1.2324107,1.231314,1.2300448,1.2286408,1.2272139,1.2258546,1.2245233,1.2231318,1.2215133,1.2196529,1.2177724,1.2157557,1.2137687,1.2118602,1.2100925,1.2083249,1.2065418,1.2047005,1.202742,1.2007368,1.1988604,1.1972307,1.1957695,1.1943212,1.1930047,1.1919358,1.1911714,1.1905982,1.1903973,1.1906283,1.1912647,1.1921842,1.193083,1.1938136,1.1941713,1.1941369,1.1941206,1.1942112,1.1943653,1.1945717,1.1949565,1.1955259,1.1962636,1.1972829,1.1986327,1.2002563,1.202077,1.204032,1.2060688,1.2082965,1.210716,1.2132154,1.2157488,1.2183423,1.22103,1.2237965,1.2265773,1.2292866,1.231947,1.2346969,1.2377335,1.2411828,1.2450068,1.2490283,1.2528777,1.2562668,1.2590083,1.2610769,1.2627964,1.2643263,1.2657933,1.2672489,1.268666,1.2699922,1.2712247,1.2724024,1.2735927,1.27482,1.2761418,1.2775288,1.2789162,1.2802762,1.2815673,1.2827456,1.2837948,1.2847321,1.2855759,1.2863164,1.2869459,1.2875057,1.2879854,1.2883561,1.2885594,1.2885859,1.288484,1.2882941,1.2880018,1.2875822,1.2870083,1.2863277,1.2856677,1.2850276,1.2843549,1.2835816,1.2826838,1.2816477,1.2804625,1.279246,1.2780693,1.2769593,1.2758951,1.2748778,1.2739214,1.2731209,1.272538,1.2721009,1.2717323,1.2713691,1.2709194,1.2704111,1.2698305,1.2691065,1.2682843,1.267414,1.2665122,1.2655983,1.2646875,1.2637401,1.2626808,1.2614859,1.2602544,1.2590683,1.2579983,1.2569466,1.2557907,1.2544549,1.2529781,1.2514386,1.2499055,1.2483853,1.2469127,1.2454515,1.2439061,1.2422656,1.2405936,1.2389787,1.2374673,1.2361385,1.2350137,1.2339206,1.2327018,1.2312585,1.2296056,1.2279015,1.2263021,1.2248907,1.2237267,1.2227528,1.221864,1.2209142,1.2199737,1.2192136,1.218689,1.2183237,1.2179587,1.2174633,1.2167411,1.2157736,1.2146883,1.2137282,1.2129257,1.2122734,1.2116393,1.2109771,1.210268,1.2095408,1.2088605,1.2082682,1.2077645,1.2072778,1.2067337,1.2060623,1.2052459,1.2043687,1.20351,1.202679,1.2019016,1.2011038,1.200249,1.1993749,1.198478,1.1975276,1.1965923,1.1958055,1.1951468,1.1945069,1.193759,1.1928384,1.1918509,1.1910114,1.1904056,1.1900651,1.1897907,1.1894351,1.1889522,1.1883341,1.1876519,1.1869178,1.1861717,1.185415,1.184635,1.1837497,1.1826904,1.18152,1.1803772,1.1794195,1.1787062,1.1780169,1.1771904,1.1762831,1.175421,1.174594,1.1738324,1.1733124,1.1730688,1.1728894,1.1725769,1.1720777,1.1714957,1.1710135,1.1707585,1.1706524
1.2292187,1.2294931,1.2301702,1.2314157,1.232965,1.2349797,1.2373173,1.2394881,1.241205,1.2427435,1.2440112,1.2448716,1.2453147,1.2453711,1.24507,1.2445898,1.2440938,1.2436326,1.2433698,1.2432909,1.2434485,1.2437882,1.2443047,1.2448584,1.2454202,1.2460268,1.2467849,1.2476463,1.2485387,1.2493781,1.250154,1.2508984,1.2514546,1.2519577,1.2524397,1.2529056,1.2532978,1.253648,1.253935,1.2541522,1.2542378,1.254257,1.2542112,1.2540808,1.2537727,1.2532398,1.2525163,1.2515969,1.2505863,1.2495852,1.248599,1.2476199,1.2466744,1.2458115,1.2451439,1.2446246,1.2442796,1.244071,1.2439008,1.2436393,1.2430971,1.2422445,1.2411618,1.2400084,1.238878,1.2377881,1.2367306,1.2357421,1.234843,1.2340565,1.2333738,1.2327974,1.232302,1.2318029,1.2312195,1.2304842,1.2295752,1.2285188,1.2273695,1.226227,1.225185,1.2242327,1.2233157,1.2223289,1.2211916,1.2198565,1.2183509,1.2167084,1.2150598,1.2134659,1.2118413,1.2101293,1.2082083,1.2060093,1.2038784,1.2019901,1.2002585,1.1985314,1.1966643,1.1948382,1.1931784,1.191835,1.1908085,1.1902039,1.1900535,1.1903418,1.1909411,1.1915836,1.1921384,1.1925867,1.1929348,1.1933047,1.1936044,1.1938131,1.1940005,1.1942353,1.1945045,1.1948082,1.19527,1.1958553,1.1965468,1.1973138,1.198159,1.1990979,1.2003309,1.2018504,1.2035517,1.2053764,1.207315,1.2093804,1.2115598,1.2137982,1.2160213,1.2182553,1.2206488,1.2234243,1.2267568,1.2306652,1.2350023,1.239393,1.2434752,1.2470005,1.2497127,1.2519883,1.2539725,1.2558317,1.2576262,1.259339,1.2609853,1.2625663,1.2640646,1.2655687,1.2671213,1.268784,1.2705116,1.2722399,1.2738755,1.2754357,1.2768738,1.278173,1.2793388,1.280383,1.2812923,1.2820473,1.2826716,1.2831659,1.2835091,1.2836517,1.2835922,1.2833886,1.2830944,1.2827046,1.2822127,1.2815764,1.2808218,1.2800363,1.2792134,1.2783074,1.2772524,1.2760514,1.2747617,1.2734277,1.2720557,1.2707038,1.2694364,1.2682514,1.2671635,1.2661774,1.265359,1.2647523,1.2642746,1.263859,1.2634587,1.2630172,1.2625694,1.2621238,1.2616222,1.2610741,1.2604275,1.2596774,1.2588949,1.2581407,1.2573619,1.2565209,1.2555687,1.2545342,1.2534696,1.2524198,1.2512925,1.2500234,1.248556,1.2469687,1.2452986,1.243521,1.2418399,1.240287,1.2388217,1.2373466,1.2358414,1.2343507,1.2329222,1.2315686,1.2303423,1.2292461,1.228128,1.2268416,1.2253388,1.2236388,1.2219238,1.2203602,1.2190292,1.2179993,1.2172049,1.2165153,1.2157654,1.2149787,1.2142804,1.2137312,1.2132804,1.2128239,1.2122483,1.2114651,1.2104682,1.2093179,1.208299,1.2074332,1.2067235,1.2060595,1.2053825,1.2046626,1.203905,1.2031478,1.2024332,1.2017703,1.2011101,1.2004008,1.199574,1.1986179,1.1976037,1.1966124,1.1956673,1.1948268,1.1940166,1.1931937,1.1923733,1.1915276,1.1906117,1.1896836,1.1888624,1.1881318,1.1873935,1.1865333,1.1854954,1.1843917,1.1833957,1.1825844,1.1819998,1.1814952,1.180935,1.18026,1.1794692,1.1786063,1.1776956,1.1767471,1.1757643,1.1747644,1.1736861,1.1724474,1.1710654,1.1696749,1.168434,1.1673969,1.1664023,1.1653202,1.1642202,1.1632156,1.1622189,1.1612401,1.1604669,1.1599463,1.1594975,1.1589679,1.1583145,1.157655,1.1571577,1.1568823,1.156643
1.210446,1.2113936,1.2111042,1.2112164,1.2119644,1.2139368,1.2167983,1.2197987,1.2223544,1.2246864,1.2268121,1.2284467,1.2295274,1.2301004,1.2301846,1.230016,1.2297772,1.2295179,1.2294006,1.2294552,1.2297773,1.2303351,1.2310928,1.231859,1.2325562,1.2332511,1.2341248,1.2351546,1.2362583,1.2373095,1.2382796,1.239192,1.2398822,1.2405163,1.2411499,1.2418206,1.2424859,1.2431517,1.2437584,1.2442747,1.2446475,1.2449639,1.2452223,1.245363,1.245312,1.2450383,1.2445757,1.2439189,1.2431767,1.2423608,1.2415693,1.2408273,1.2401156,1.2394595,1.2389691,1.238598,1.2383832,1.23827,1.2381947,1.2380372,1.2376237,1.2369094,1.2359662,1.234946,1.2339275,1.2329499,1.2320448,1.2312288,1.2305098,1.2299383,1.2294941,1.2292079,1.2290344,1.2288506,1.2285656,1.2280924,1.227426,1.226635,1.2257949,1.2249829,1.224284,1.2237124,1.2232127,1.2227049,1.2220765,1.2212777,1.2203286,1.219254,1.2180718,1.2168248,1.2154988,1.2140038,1.2122357,1.2101974,1.2081021,1.2060657,1.2040248,1.2018576,1.199593,1.1974692,1.195459,1.193691,1.1922421,1.191196,1.1906013,1.1904659,1.1906693,1.1909899,1.1913066,1.1916139,1.1919911,1.192462,1.1929855,1.1935012,1.1939677,1.194345,1.1946276,1.1947925,1.1948714,1.1949377,1.1950655,1.1952049,1.1953675,1.1955664,1.1957735,1.1963322,1.1971704,1.1982172,1.1994267,1.2007987,1.2023153,1.203923,1.2055582,1.2072453,1.2091396,1.2114794,1.2144718,1.218194,1.2225612,1.2272565,1.2320174,1.2364846,1.2399433,1.2429957,1.2457731,1.248363,1.2507521,1.2529545,1.2550476,1.2569776,1.2587662,1.2604964,1.2622197,1.2639984,1.2658842,1.2678009,1.2696768,1.2714988,1.2731893,1.2747264,1.2761022,1.2773199,1.278373,1.279226,1.2798766,1.2803389,1.280598,1.2806042,1.2803591,1.2799413,1.2794238,1.2788157,1.2781105,1.2772615,1.2762985,1.275282,1.2742134,1.2730435,1.2716944,1.270165,1.2685137,1.2668047,1.2651105,1.2635787,1.2622173,1.2609782,1.2598975,1.258981,1.2582664,1.2577477,1.2573285,1.2569199,1.2565353,1.2560577,1.2555934,1.2551832,1.2547047,1.2540648,1.2533288,1.2524936,1.2516396,1.250842,1.2500825,1.2492967,1.2484024,1.247377,1.2462502,1.2450542,1.2437016,1.2421815,1.2404616,1.2386833,1.2368454,1.2349641,1.2331767,1.2315348,1.2300235,1.2285731,1.2271609,1.2258073,1.2245052,1.2232331,1.222024,1.2208787,1.2196741,1.2183375,1.2168584,1.2153065,1.2138078,1.2124445,1.2112956,1.2104194,1.2097626,1.2092211,1.208627,1.2079655,1.2073063,1.2067041,1.2061342,1.2055495,1.2049023,1.2041167,1.2031734,1.2020774,1.2009773,1.2000337,1.1992557,1.1985592,1.1978935,1.197202,1.1964433,1.1956484,1.1948688,1.1941097,1.1933422,1.1925523,1.1916574,1.1906023,1.1895158,1.1884832,1.1875129,1.1866741,1.1859056,1.1851857,1.1845062,1.1837878,1.1829318,1.1820624,1.1812623,1.180505,1.1797167,1.1788036,1.1777261,1.1764938,1.1753211,1.1742973,1.1734744,1.1727521,1.1720178,1.1711947,1.1702602,1.1692547,1.1682315,1.1672039,1.166157,1.1650777,1.1639335,1.1626728,1.1613257,1.1599827,1.1587458,1.1576648,1.1566283,1.1555141,1.1544294,1.1534772,1.1525154,1.1515396,1.1507409,1.1501606,1.1496177,1.1490011,1.1482685,1.147531,1.1469119,1.1464081,1.1458255
1.1866672,1.1884868,1.1872976,1.1858671,1.1850237,1.1857828,1.1878147,1.1905208,1.1933937,1.1964161,1.1993282,1.2016745,1.2033318,1.2043724,1.2048573,1.2050953,1.2052728,1.205427,1.2056816,1.2060862,1.206783,1.2077627,1.2089701,1.2101576,1.2111826,1.2121464,1.2132614,1.214507,1.2157815,1.2169449,1.2179532,1.2188641,1.2195315,1.2201439,1.2207956,1.2215674,1.222433,1.2234032,1.2244008,1.2253726,1.2262366,1.227043,1.2277957,1.2284667,1.2289838,1.2293196,1.2294178,1.2292131,1.2288924,1.2285222,1.228177,1.2278645,1.2275761,1.2273015,1.2271202,1.2269504,1.2269766,1.2271626,1.2274572,1.2277285,1.2277782,1.2275333,1.2270355,1.2263771,1.2256565,1.2249839,1.2244215,1.2240038,1.2237493,1.223597,1.2236207,1.2237284,1.2239659,1.2241834,1.2242789,1.2241467,1.2237997,1.22333,1.2228283,1.2223891,1.2220875,1.2219306,1.2218583,1.2217839,1.2215998,1.2212539,1.220751,1.2201018,1.2193204,1.2184458,1.2174525,1.2162669,1.2148468,1.2132242,1.2114551,1.2095952,1.2076547,1.2055453,1.2032275,1.2008233,1.1983836,1.1960611,1.1940958,1.1925828,1.1914835,1.1908346,1.1905341,1.1904113,1.1903658,1.1903887,1.1905345,1.1908412,1.1912768,1.1917323,1.1921413,1.1924584,1.1926637,1.1927356,1.192673,1.192627,1.1926215,1.192432,1.1922185,1.1920159,1.1918643,1.1919544,1.1921234,1.1924574,1.1930463,1.193795,1.1946836,1.1956737,1.1967218,1.1978514,1.1992023,1.2009839,1.2033883,1.2065148,1.2103322,1.2146142,1.219212,1.2241185,1.2284307,1.2320849,1.235425,1.2387648,1.2420785,1.2450719,1.2478356,1.2503939,1.2527864,1.2550547,1.2572501,1.2594342,1.2616451,1.2638195,1.2659652,1.2680358,1.2699556,1.2717009,1.2732499,1.2745968,1.2757257,1.2766054,1.2772472,1.2776744,1.2778673,1.277765,1.2773569,1.2767239,1.2759435,1.2750406,1.2740089,1.2728064,1.2715456,1.2702359,1.2688713,1.2673949,1.2657175,1.2638416,1.2618353,1.2597852,1.2577794,1.2559354,1.2542756,1.252825,1.2516371,1.2507385,1.2501161,1.2497005,1.2493558,1.2490724,1.248806,1.2484555,1.248063,1.2476065,1.2470183,1.2462784,1.2454499,1.2445413,1.2436293,1.2428,1.2420768,1.241349,1.240486,1.2394454,1.2382538,1.236945,1.2354325,1.233723,1.2317913,1.2297714,1.2277267,1.2257831,1.223939,1.2222515,1.2207239,1.219291,1.2179246,1.2166278,1.2153609,1.2140855,1.212829,1.2115885,1.2102826,1.208879,1.2074202,1.2059932,1.2046063,1.2033556,1.2023079,1.2015109,1.2009132,1.2004257,1.1998763,1.1992369,1.1985624,1.1978996,1.1972282,1.1965213,1.1957716,1.1949304,1.19398,1.192941,1.1919162,1.1909933,1.1901929,1.1894612,1.1887592,1.1880474,1.1872859,1.1864748,1.1856557,1.1848358,1.1840048,1.183169,1.1822743,1.1812836,1.1802824,1.1793158,1.1783853,1.1775608,1.176795,1.1760731,1.1753885,1.1746862,1.1738851,1.1730602,1.1722727,1.1714914,1.170676,1.1697781,1.1687622,1.1676574,1.1665822,1.1655724,1.1646813,1.1638565,1.1630409,1.1621823,1.1612568,1.1602738,1.1592822,1.1582519,1.1571338,1.1560147,1.1548445,1.1535873,1.1522968,1.1510255,1.1498389,1.1487737,1.1477549,1.1466607,1.1456305,1.144757,1.1438589,1.1429012,1.1420834,1.1414512,1.1408432,1.1401712,1.1393964,1.1386286,1.1379594,1.1373408,1.13659
1.1635611,1.1669331,1.1658452,1.163326,1.1609818,1.1602013,1.1607509,1.162276,1.1643493,1.1669884,1.1697417,1.172075,1.1738234,1.175034,1.175786,1.1763804,1.1769586,1.1775872,1.1782947,1.1790814,1.1801196,1.1814101,1.1828887,1.1843158,1.1855392,1.1866686,1.187911,1.1892332,1.1905227,1.1916652,1.1926527,1.1935201,1.1941268,1.194675,1.1952903,1.196112,1.1971176,1.1983234,1.1996441,1.2010183,1.2023466,1.2036624,1.204965,1.2062517,1.2074157,1.2083846,1.2091157,1.2095402,1.2097943,1.2099893,1.2101628,1.210306,1.2103833,1.2104295,1.2105563,1.2107267,1.2110844,1.2116058,1.2122515,1.2129259,1.2134714,1.2137692,1.2138348,1.2137216,1.2134763,1.2132163,1.2130319,1.2129755,1.213094,1.2133662,1.2138069,1.2144198,1.215205,1.2159932,1.2166538,1.2170517,1.2171932,1.2171755,1.2171354,1.217155,1.2173212,1.2175894,1.2178433,1.2180532,1.2181596,1.2181256,1.2179334,1.2176154,1.2171688,1.2165947,1.2158623,1.2149235,1.2137779,1.2124925,1.2111691,1.2098103,1.208358,1.2066793,1.2046602,1.2023375,1.1998198,1.1972561,1.1949074,1.1929166,1.1912822,1.1900741,1.189243,1.1886275,1.188143,1.1877788,1.1875868,1.1875904,1.1877289,1.1879022,1.1880531,1.188138,1.1881526,1.1881547,1.1881149,1.1880748,1.1879983,1.1876748,1.1873105,1.1869452,1.1867762,1.1867318,1.1867502,1.186849,1.1869689,1.1871929,1.1875517,1.1880113,1.1885422,1.1891549,1.1899514,1.1910889,1.1927131,1.194936,1.197777,1.201127,1.2048434,1.2089039,1.2132045,1.2172846,1.2213621,1.2251787,1.2288675,1.2325194,1.236078,1.239352,1.2424479,1.245404,1.248232,1.2509975,1.2537429,1.2563698,1.2589173,1.2613287,1.2635425,1.2655351,1.2672888,1.2687964,1.2700443,1.2710102,1.2717185,1.2722044,1.2724472,1.2723775,1.2719753,1.2713166,1.2704713,1.2694721,1.2682962,1.2669122,1.2654034,1.2638273,1.2621943,1.260437,1.2584698,1.2563078,1.2540381,1.2517548,1.249521,1.2474067,1.2454653,1.2437818,1.2424979,1.2416602,1.2411599,1.2408842,1.2406645,1.2404401,1.2402463,1.2400117,1.2397325,1.2393239,1.238761,1.2380676,1.2372478,1.2363155,1.2354629,1.2347543,1.2341318,1.2334936,1.2326784,1.2316362,1.2303977,1.2290142,1.2274005,1.2255979,1.2235911,1.2214891,1.2193716,1.2173369,1.2154131,1.2136681,1.2121129,1.2106948,1.2093714,1.2081144,1.2068717,1.2055904,1.204301,1.2030079,1.2016457,1.2002003,1.1987027,1.1972271,1.195878,1.1946769,1.1936738,1.1929238,1.1923633,1.1918998,1.1913571,1.1907014,1.1899912,1.1892737,1.1885295,1.1877416,1.18692,1.1860323,1.1850739,1.1840551,1.1831038,1.1822267,1.181444,1.180711,1.1799909,1.1792599,1.1784863,1.1776594,1.1768134,1.1759561,1.1750851,1.17421,1.1733056,1.1723709,1.1714437,1.1705451,1.1696677,1.1688764,1.1681331,1.1674142,1.1667268,1.1660293,1.165266,1.1644688,1.1636839,1.1628795,1.1620281,1.1611099,1.1601121,1.1590984,1.1581204,1.1571643,1.1562827,1.155441,1.1546032,1.1537378,1.1528108,1.151833,1.1508405,1.1498191,1.1487386,1.1476331,1.1464572,1.1452136,1.1439716,1.1427834,1.1416724,1.1406474,1.1396103,1.1384978,1.1375055,1.1367269,1.1358725,1.134995,1.1342385,1.1336365,1.1330347,1.1324055,1.1316547,1.1308744,1.1301997,1.1295582,1.1288059
1.1448905,1.1520758,1.1527736,1.1502618,1.147305,1.1454668,1.1446694,1.1448423,1.1456926,1.1473267,1.1495154,1.1515493,1.1529074,1.1538136,1.1543663,1.1547976,1.1553059,1.1559386,1.1566131,1.1574248,1.1584729,1.1597508,1.1611826,1.1625421,1.1636832,1.1647122,1.1658304,1.1669986,1.1681111,1.1690868,1.169938,1.1706805,1.1711618,1.1715736,1.1720233,1.1727281,1.1736654,1.1748536,1.1762085,1.1776675,1.1791174,1.180579,1.1820467,1.1835238,1.1849499,1.1862669,1.1873949,1.1882474,1.1888909,1.189426,1.1899085,1.1903316,1.1906399,1.190899,1.1912287,1.1916397,1.1922569,1.1930537,1.1939744,1.1949395,1.1958685,1.1966218,1.1971914,1.1975757,1.1977549,1.1978338,1.1979208,1.1980816,1.1983786,1.1988311,1.1994216,1.200252,1.2013149,1.2024506,1.203515,1.2043221,1.2048743,1.2052804,1.2056823,1.2061828,1.2068245,1.2075462,1.2082363,1.208846,1.2092795,1.2093796,1.2093022,1.2090958,1.2087737,1.2083387,1.2077086,1.206827,1.205736,1.2045827,1.2035366,1.2025863,1.2016444,1.200536,1.1991382,1.1973972,1.195399,1.193299,1.1912582,1.189301,1.1875298,1.1860616,1.1848896,1.1839359,1.1831527,1.1825354,1.182096,1.1818068,1.1816497,1.1815093,1.1813498,1.1811743,1.1810036,1.1808755,1.1807548,1.1806386,1.1805122,1.1803514,1.180197,1.1800324,1.1799037,1.1797993,1.1796881,1.1794834,1.1793079,1.179214,1.1792264,1.1793251,1.1794899,1.1797125,1.1800518,1.1806055,1.1814594,1.182717,1.1844354,1.1866109,1.1891718,1.1920124,1.195112,1.1983788,1.2019275,1.2056893,1.2094363,1.2132437,1.2171137,1.2207947,1.2242074,1.227634,1.2310792,1.2344913,1.2375994,1.2406379,1.2436302,1.24646,1.2490354,1.2513697,1.2534585,1.2552593,1.2567644,1.2579606,1.2588836,1.2595866,1.2600563,1.2602259,1.2600824,1.2596977,1.259136,1.2584255,1.2575145,1.256371,1.2550395,1.2536168,1.2521238,1.25049,1.2486323,1.2465725,1.2444057,1.2422253,1.2400796,1.2380173,1.2360866,1.2343864,1.2330036,1.232025,1.2313969,1.2310207,1.2307264,1.2304584,1.2303345,1.2303151,1.2304155,1.2305014,1.2304969,1.230368,1.2300261,1.2293669,1.2285389,1.2276437,1.2269604,1.2263339,1.2254686,1.2243385,1.2229903,1.2214743,1.2198764,1.218149,1.2162664,1.214313,1.2123394,1.2103932,1.2085176,1.2068042,1.2052679,1.2038465,1.2025046,1.2012126,1.1999376,1.1986511,1.1973529,1.1960504,1.1946943,1.1932867,1.1918387,1.1904027,1.1890517,1.1878616,1.1869099,1.1861911,1.1856358,1.1851597,1.1845978,1.1839194,1.1831852,1.1824367,1.1816533,1.1808295,1.1799915,1.1791174,1.1782057,1.1772469,1.1763543,1.1755035,1.1747663,1.1740818,1.1733778,1.1726542,1.1718822,1.1710547,1.1702027,1.1693357,1.1684589,1.1675887,1.1667085,1.1657724,1.1648567,1.1640103,1.1632009,1.1624758,1.1618111,1.1611738,1.1605163,1.1598434,1.1591014,1.1583203,1.157533,1.1567099,1.155832,1.1548973,1.1539149,1.1528802,1.1519178,1.1509953,1.1501427,1.1493354,1.1485362,1.1477134,1.1468087,1.1458201,1.1447957,1.143749,1.1426498,1.1414819,1.1402491,1.1389914,1.1377542,1.1365784,1.1354706,1.1344223,1.1333802,1.1322691,1.1313081,1.1305618,1.1297224,1.1288869,1.128161,1.1275804,1.1270223,1.1264849,1.125875,1.1252043,1.124599,1.1239855,1.1232748
1.129502,1.1415869,1.146358,1.1462332,1.1436049,1.1412238,1.1393464,1.1382701,1.1379796,1.138766,1.1404033,1.1419094,1.1426609,1.1429591,1.142986,1.1429816,1.1430569,1.1432108,1.1434153,1.1437355,1.1444408,1.1453929,1.1465123,1.1475749,1.1484329,1.1491754,1.1499889,1.1508613,1.1516917,1.1524105,1.1530393,1.1535919,1.1538978,1.1541476,1.1544266,1.1549397,1.1556741,1.1566553,1.157815,1.1590967,1.1603773,1.1616554,1.1629244,1.1641997,1.1654735,1.1667149,1.1678356,1.168745,1.1694806,1.1700999,1.1706442,1.1711105,1.1714685,1.1718025,1.1722203,1.1727374,1.1734698,1.1743867,1.1754236,1.1765174,1.1776171,1.1786029,1.1794401,1.180065,1.1804372,1.1806555,1.1808296,1.1810277,1.1813128,1.181693,1.1821674,1.182869,1.1838385,1.1849592,1.1861,1.1870536,1.1877968,1.1884152,1.1890173,1.1896915,1.1904314,1.1911619,1.1918039,1.1923265,1.192724,1.1929318,1.1929879,1.1928715,1.19257,1.1921048,1.1914172,1.190554,1.1895552,1.1885566,1.187749,1.18714,1.1866472,1.1860995,1.1854804,1.184676,1.1836092,1.1822956,1.1807878,1.1791532,1.1775665,1.1761833,1.1750419,1.1741087,1.1733346,1.1727011,1.1722391,1.1719208,1.1716818,1.1714128,1.171109,1.1708065,1.1705422,1.1703409,1.1701772,1.1700659,1.1700368,1.1700946,1.1701874,1.1702431,1.1702185,1.1701193,1.1699419,1.1696887,1.1694398,1.1692228,1.1690693,1.1689751,1.1689274,1.168906,1.1689351,1.1690569,1.1693009,1.1697404,1.1704307,1.1713706,1.1726587,1.1742826,1.176168,1.1783357,1.1808276,1.1836334,1.1866276,1.1897533,1.1929479,1.1961722,1.1993968,1.2026399,1.2058945,1.209178,1.2124135,1.2158375,1.219306,1.2227172,1.2261095,1.2290294,1.2314017,1.2334876,1.2352495,1.2366862,1.2378361,1.2387835,1.2395419,1.2400604,1.2403357,1.2404304,1.2404108,1.2403021,1.2400153,1.2395067,1.2387955,1.2379556,1.2370274,1.2359436,1.2346389,1.2331374,1.2315354,1.229819,1.227994,1.226207,1.2244608,1.2228556,1.2214568,1.2204118,1.2196915,1.2191347,1.2185295,1.2178844,1.2174575,1.2174151,1.2179238,1.2188759,1.2200859,1.2211293,1.2217076,1.2218871,1.2216876,1.2211814,1.2206008,1.2199123,1.2189302,1.2176487,1.2161589,1.2146883,1.2131041,1.2114089,1.2095835,1.2076907,1.2057846,1.2040142,1.2023251,1.2007337,1.1992666,1.1978858,1.1965764,1.1953214,1.1940745,1.1927943,1.1915267,1.1902878,1.1890132,1.1877195,1.1864063,1.1851141,1.183857,1.1827247,1.1817698,1.1810596,1.1804879,1.1799778,1.17939,1.1786988,1.177974,1.1772449,1.1764827,1.1756921,1.1749036,1.1740994,1.173276,1.1723995,1.1715858,1.1708118,1.1701076,1.1694251,1.1687152,1.1679871,1.1672175,1.1664011,1.1655624,1.1647124,1.1638565,1.1630192,1.1621487,1.1612508,1.1603844,1.1595981,1.158845,1.1581533,1.1575112,1.156888,1.1562492,1.1555755,1.1548431,1.1540743,1.15329,1.1524651,1.1515882,1.150646,1.1496391,1.1486319,1.147743,1.1469054,1.146133,1.1453929,1.1446468,1.1438475,1.1429155,1.1419184,1.1408869,1.1398201,1.1386983,1.1374937,1.1361896,1.1348851,1.13362,1.1324279,1.1313076,1.1302531,1.1292284,1.1281402,1.127217,1.1264038,1.1255825,1.1247728,1.1240692,1.123504,1.1229634,1.1224445,1.1218696,1.1212534,1.1206956,1.1201651,1.1196209
1.1138501,1.1327534,1.1428432,1.146472,1.1464598,1.1449516,1.1424071,1.13995,1.1385467,1.1384904,1.1393125,1.140234,1.1405888,1.1405334,1.1402853,1.1400394,1.1398758,1.1397482,1.1396203,1.1395316,1.139729,1.1401843,1.1409183,1.141607,1.1421003,1.1425064,1.1430244,1.1435764,1.1440723,1.1444972,1.1448829,1.1452526,1.1454043,1.1455,1.1456347,1.14596,1.1464493,1.1471448,1.1479902,1.1489434,1.1498628,1.1507636,1.1516743,1.1525731,1.1534598,1.1543216,1.1551242,1.1557971,1.156363,1.1568451,1.1572471,1.1575537,1.1577663,1.1579773,1.158303,1.1587274,1.1593333,1.1600813,1.1609155,1.1617987,1.1626976,1.1635395,1.1642976,1.1648977,1.1652787,1.1655068,1.1656712,1.1658249,1.1660218,1.1662555,1.1665223,1.1669583,1.1676376,1.1684861,1.1694058,1.1702099,1.1708648,1.1714647,1.1720772,1.1726851,1.1732605,1.1737336,1.1740615,1.1742541,1.1743677,1.1743882,1.1742992,1.1740563,1.1736454,1.1730905,1.1724128,1.1715806,1.1706159,1.169764,1.1691797,1.1687462,1.1684152,1.168078,1.1676497,1.167183,1.1666071,1.165827,1.1648321,1.1636609,1.1624606,1.1613687,1.1604521,1.1597182,1.1591303,1.1586642,1.1583433,1.1581185,1.1579087,1.1576743,1.1574267,1.1572027,1.157027,1.1569006,1.1568083,1.156791,1.1568999,1.1571333,1.1574295,1.1576954,1.1578659,1.1579282,1.1578735,1.1577215,1.1575102,1.1572853,1.1570971,1.1569498,1.1568341,1.156727,1.1566381,1.1565751,1.1565154,1.1565127,1.1566259,1.1569073,1.1574297,1.1582129,1.1592219,1.1604605,1.1619176,1.1635506,1.1653345,1.1672342,1.1692019,1.1712533,1.1734102,1.1756332,1.1779146,1.1803138,1.182876,1.1856499,1.1885952,1.191521,1.1943147,1.1968566,1.1990905,1.2010272,1.202672,1.2040124,1.2051828,1.20625,1.2071545,1.2078755,1.2084925,1.2091854,1.209985,1.2108378,1.2115831,1.2120824,1.2123652,1.2125677,1.2126312,1.2124631,1.2120059,1.2113271,1.2105829,1.2098567,1.2091293,1.2083588,1.2074573,1.2064023,1.2052438,1.204118,1.2030381,1.2017753,1.2002641,1.1986355,1.1974027,1.1969914,1.1977332,1.1996928,1.2024827,1.2057813,1.2088903,1.2109253,1.2118096,1.2121506,1.2121271,1.2118247,1.2111297,1.2100654,1.208773,1.2074025,1.2059302,1.204383,1.2027397,1.201041,1.1992925,1.1975381,1.1957662,1.1941504,1.1927984,1.1915483,1.1903634,1.1892486,1.1881468,1.1870177,1.1858971,1.1848214,1.1837208,1.1826171,1.1815069,1.1804287,1.1793686,1.1783876,1.1775072,1.1768126,1.1762509,1.175738,1.1751604,1.1745014,1.1738428,1.1731945,1.1725109,1.1717968,1.1710813,1.1703563,1.169625,1.1688347,1.1680981,1.1673875,1.166714,1.1660433,1.1653297,1.1645992,1.1638341,1.1630354,1.162219,1.1613917,1.1605568,1.1597317,1.158895,1.1580565,1.1572316,1.1564577,1.1556935,1.1549647,1.154268,1.1535699,1.1528914,1.1521988,1.1514639,1.150706,1.1499342,1.1491282,1.1482694,1.1473591,1.1464363,1.1455194,1.1447057,1.1439251,1.1431947,1.1424736,1.1417122,1.1408933,1.1399562,1.138966,1.1379435,1.1368802,1.1357596,1.1345842,1.1333485,1.1321125,1.1308651,1.1296687,1.1285605,1.1274915,1.1264317,1.1252954,1.1242746,1.1234303,1.1226219,1.121839,1.1211622,1.1206198,1.1200936,1.1195743,1.1189828,1.1183404,1.1177555,1.1172159,1.1167014
1.0944309,1.1221936,1.1387423,1.1469945,1.1500498,1.1497941,1.1475217,1.1447463,1.1426415,1.1417305,1.1415658,1.1417704,1.1418955,1.1417903,1.1415441,1.1413245,1.1411768,1.141039,1.1408525,1.1406552,1.1405312,1.140609,1.140927,1.1412723,1.1415057,1.1416386,1.1418312,1.1420503,1.1422558,1.1424627,1.1426958,1.1429701,1.1430597,1.1430907,1.1431483,1.1433591,1.143645,1.1440545,1.1445706,1.1451807,1.1457458,1.1462393,1.1466529,1.1470039,1.147388,1.1478088,1.1481946,1.1484809,1.1486683,1.1487617,1.1487777,1.1488001,1.1487708,1.1487751,1.1489099,1.1491493,1.1495588,1.1500692,1.1505849,1.1511065,1.1516356,1.1521323,1.1526382,1.1531398,1.1535041,1.1537342,1.1538975,1.1540387,1.1541983,1.1543447,1.1544716,1.1547045,1.1551411,1.155735,1.1564066,1.1570103,1.1575148,1.1579669,1.15839,1.1587532,1.1590061,1.1590934,1.15904,1.1589139,1.158736,1.1584897,1.1581726,1.1577417,1.1571988,1.1567025,1.1561384,1.1554885,1.1547592,1.1540648,1.1534748,1.1529708,1.152521,1.1520805,1.1515996,1.1510918,1.1505382,1.1498978,1.1492019,1.1484303,1.1476141,1.1468425,1.1461844,1.1456347,1.1452175,1.1449056,1.1447091,1.1445985,1.1445193,1.1444361,1.1443622,1.1443232,1.1443139,1.1443266,1.1443498,1.1444206,1.1445994,1.1448823,1.1452177,1.14552,1.1457443,1.1458858,1.1459186,1.1458409,1.1456854,1.1455021,1.1453469,1.1452255,1.1451141,1.1449951,1.1448746,1.1447783,1.1447011,1.1446518,1.1446702,1.144788,1.1450356,1.1454213,1.1459037,1.146481,1.1471376,1.1478325,1.1485224,1.1492124,1.1498966,1.1506039,1.1513882,1.1522658,1.1532489,1.1543947,1.1557431,1.1573292,1.1591628,1.1611094,1.163,1.1648059,1.1664805,1.1679556,1.1691649,1.170078,1.170782,1.1714025,1.1720004,1.1725667,1.17315,1.1738672,1.1748208,1.175949,1.1771028,1.1780951,1.1789144,1.179623,1.1802473,1.1809137,1.1813555,1.1816802,1.1820521,1.1825523,1.1831801,1.1838381,1.184281,1.184314,1.1839242,1.1831633,1.1819966,1.1801581,1.1776842,1.1748401,1.1727676,1.1717851,1.1723077,1.1746149,1.1784441,1.1835599,1.1887807,1.1931401,1.1963365,1.1985061,1.1999145,1.2004117,1.2001293,1.1993524,1.1983328,1.1972201,1.1960688,1.1949046,1.1937301,1.1925428,1.1912978,1.1899643,1.1884797,1.1869469,1.1855713,1.1843674,1.1832644,1.1822655,1.1813877,1.180515,1.1796384,1.1788034,1.1779468,1.1770874,1.1762309,1.1754186,1.1746027,1.1738358,1.1731277,1.1725274,1.1720195,1.1715566,1.17105,1.1704943,1.1699784,1.1694882,1.1689545,1.1683733,1.1677694,1.1671481,1.1665103,1.1658022,1.1651331,1.1644763,1.163832,1.1631668,1.1624538,1.1617298,1.1609778,1.160203,1.1594164,1.1586177,1.1578066,1.156988,1.1561561,1.1553154,1.1544747,1.1536708,1.1528691,1.1520875,1.1513371,1.1505852,1.1498647,1.1491516,1.1484191,1.1476853,1.1469455,1.1461821,1.1453673,1.1445074,1.1436493,1.1427975,1.1420316,1.1412978,1.1406024,1.139904,1.1391551,1.1383467,1.1374309,1.1364653,1.1354725,1.1344379,1.1333473,1.132204,1.1310107,1.1298072,1.1286054,1.1274433,1.126329,1.1252544,1.1241984,1.1230555,1.1220114,1.1211692,1.12037,1.1196065,1.1189486,1.1184237,1.1179082,1.1173928,1.1167879,1.1161146,1.1154937,1.114919,1.114378
1.0707636,1.1049955,1.1300468,1.1443238,1.1517143,1.1534996,1.151932,1.1490074,1.1463833,1.1449599,1.1443231,1.1439981,1.143481,1.1429698,1.1425372,1.1422336,1.1420623,1.1419449,1.1418016,1.1416514,1.1416515,1.1417751,1.1419078,1.1419991,1.1419561,1.1418655,1.1418589,1.1418874,1.1419308,1.1420276,1.1422031,1.1424563,1.1425402,1.1425555,1.1425879,1.1427035,1.1428282,1.1430204,1.1433016,1.1436889,1.1440513,1.1443579,1.1445421,1.1446298,1.1446793,1.1447043,1.144696,1.1446018,1.1444211,1.1441567,1.1438079,1.143384,1.14295,1.1426542,1.1425815,1.142664,1.1428745,1.1431,1.1432488,1.1433557,1.1434635,1.143584,1.1437835,1.1440547,1.144279,1.1445551,1.1448982,1.1452634,1.1456083,1.1458709,1.1460314,1.1462091,1.146522,1.1469566,1.1474857,1.1479374,1.1482822,1.148569,1.1488185,1.1489962,1.1490469,1.1489327,1.1486772,1.1483293,1.1480385,1.1477629,1.14746,1.1470716,1.146606,1.1461542,1.1457384,1.14535,1.1449552,1.144568,1.1441716,1.1437562,1.1432929,1.1427773,1.1422141,1.1416271,1.1410263,1.1404071,1.1398368,1.1392146,1.138567,1.1379385,1.1373835,1.1369298,1.1365767,1.1363078,1.1361146,1.1359895,1.1359735,1.1359904,1.1360497,1.136162,1.1362762,1.1363606,1.1364233,1.1365044,1.1366556,1.1368759,1.137125,1.1373241,1.1374456,1.1374819,1.1374328,1.1372987,1.1371117,1.1369202,1.1367769,1.1366787,1.1365898,1.1364805,1.1363516,1.1362437,1.1361709,1.1361337,1.1361623,1.1362567,1.1364214,1.1366392,1.1368628,1.1370702,1.1372402,1.1373537,1.1373986,1.1373799,1.1372966,1.1371878,1.1370537,1.1369522,1.136935,1.1370367,1.1372864,1.1377256,1.1383852,1.1391981,1.1400595,1.1409433,1.1418003,1.1425651,1.1431348,1.1434643,1.1436024,1.1436791,1.1438022,1.1439748,1.1442368,1.1446681,1.145362,1.1462672,1.1472602,1.1481743,1.1489795,1.1496952,1.150336,1.1509137,1.151382,1.1518774,1.1525536,1.1534629,1.1545718,1.1557319,1.1567318,1.157377,1.1576006,1.1573842,1.1566597,1.1551828,1.1529878,1.1502554,1.1479211,1.1466204,1.1468878,1.1489875,1.1527623,1.158045,1.1640589,1.1696048,1.1739645,1.1774944,1.1802177,1.1820543,1.1829593,1.1831048,1.1828085,1.1823115,1.1816819,1.1810038,1.180316,1.1796415,1.1789366,1.1781368,1.1772147,1.1763831,1.1756525,1.1748965,1.174186,1.1735328,1.172925,1.1724117,1.1719562,1.1714481,1.1709061,1.1703551,1.1697903,1.1692421,1.1686687,1.1681204,1.1676028,1.1671551,1.1667682,1.1664112,1.1660181,1.165595,1.1652397,1.1649233,1.1645586,1.1641362,1.1636755,1.1631899,1.162672,1.1620668,1.1614919,1.1609265,1.1603599,1.1597579,1.1590879,1.1583977,1.1576838,1.1569536,1.1562155,1.1554637,1.1546935,1.1538955,1.153069,1.1522183,1.1513578,1.15052,1.14968,1.1488532,1.1480626,1.147285,1.1465476,1.1458377,1.1451308,1.1444478,1.1437731,1.1430895,1.1423597,1.1415894,1.1408153,1.1400397,1.1393316,1.1386487,1.1379849,1.1373148,1.1365976,1.1358261,1.1349607,1.1340513,1.1331217,1.1321507,1.1311275,1.1300486,1.1289167,1.1277685,1.1266184,1.1254989,1.1244161,1.1233675,1.1223297,1.1211987,1.1201627,1.1193345,1.1185548,1.117815,1.1171792,1.1166732,1.1161745,1.1156716,1.1150665,1.1143801,1.1137385,1.1131369,1.1125612
1.0447836,1.0814319,1.1157641,1.1368575,1.149802,1.1543438,1.1543081,1.1520541,1.1496838,1.1480755,1.1468824,1.1458473,1.144748,1.1437613,1.1431382,1.1427433,1.1424723,1.14227,1.1420201,1.1417389,1.1415867,1.1415422,1.141608,1.1417208,1.141815,1.1418035,1.1416702,1.1415672,1.1415118,1.1415464,1.1416955,1.1419376,1.1420116,1.1420035,1.1419857,1.1420091,1.1419922,1.1420014,1.142096,1.1423602,1.1426084,1.1427808,1.1428163,1.1427343,1.1425846,1.1423879,1.1421403,1.141792,1.1413383,1.1407847,1.1401377,1.1393971,1.1386678,1.138087,1.13777,1.1376339,1.1376135,1.1375585,1.1373739,1.137126,1.136892,1.136729,1.1367486,1.136981,1.1373328,1.1377964,1.1384594,1.139166,1.1398283,1.140367,1.1407418,1.1410506,1.1414111,1.1418049,1.1422033,1.1425073,1.1427329,1.142931,1.1430902,1.143155,1.143079,1.1428517,1.1425304,1.1421893,1.1419154,1.1416914,1.1414683,1.1411859,1.1408749,1.1406276,1.1405113,1.1405144,1.1405692,1.1406226,1.1405898,1.1404297,1.1400967,1.1396135,1.1390332,1.1384201,1.1378114,1.1372329,1.1366835,1.136103,1.135515,1.1349314,1.1343864,1.1338987,1.1334515,1.1330336,1.1326649,1.1323929,1.1322455,1.1321584,1.1321524,1.1322306,1.1323637,1.1324912,1.1325794,1.1326532,1.1327851,1.132951,1.1331033,1.1331723,1.1331437,1.1330382,1.132844,1.1325618,1.1322327,1.1319089,1.1316967,1.1316092,1.1315558,1.1314753,1.1313646,1.1312551,1.1311632,1.1311076,1.1311193,1.1311796,1.131276,1.131371,1.1314152,1.1313895,1.1312708,1.1310692,1.1307847,1.1304367,1.129991,1.1294477,1.128871,1.1283121,1.1277848,1.1272743,1.1267259,1.1262486,1.1259091,1.1257112,1.125619,1.1256406,1.1257354,1.1258368,1.1258235,1.1256323,1.125284,1.1248897,1.1245494,1.1242824,1.1241201,1.1241084,1.124303,1.124669,1.1251211,1.1255361,1.1258883,1.1261827,1.1264299,1.1266232,1.1267668,1.126997,1.1274453,1.1281431,1.129072,1.1301224,1.1311417,1.1319633,1.1324958,1.1326475,1.132315,1.1312696,1.1295443,1.1272782,1.1252329,1.1239967,1.1241058,1.1258671,1.1292758,1.1341906,1.1397681,1.1453662,1.1504681,1.1546364,1.1578114,1.1601899,1.1618657,1.1628165,1.1632994,1.1635242,1.1635464,1.1634781,1.1633755,1.1632848,1.1632978,1.1632371,1.1630169,1.1627723,1.1625532,1.1623465,1.1621922,1.1621346,1.162176,1.1622214,1.1622487,1.1622597,1.1621664,1.1620076,1.1618235,1.1616488,1.1614286,1.1611776,1.1608961,1.1606414,1.1604328,1.1602473,1.1600268,1.1597834,1.1596206,1.1594994,1.1593174,1.159059,1.1587398,1.1583819,1.1579762,1.1574769,1.1570004,1.1565297,1.1560497,1.1555252,1.1549282,1.1543081,1.1536655,1.1530087,1.1523443,1.1516674,1.1509674,1.1502221,1.1494371,1.1486104,1.1477702,1.1469376,1.1460993,1.1452732,1.1444848,1.143724,1.143008,1.1423318,1.1416723,1.1410542,1.1404558,1.1398594,1.1392235,1.1385515,1.1378645,1.137169,1.1365151,1.1358783,1.1352437,1.1346054,1.1339345,1.1332207,1.1324302,1.1315986,1.1307535,1.1298654,1.1289281,1.1279322,1.126882,1.1258057,1.1247206,1.1236544,1.1226189,1.1216034,1.1205853,1.119465,1.1184365,1.117626,1.1168692,1.1161568,1.1155434,1.1150556,1.1145751,1.11409,1.1134909,1.1128078,1.1121653,1.1115527,1.1109529
1.0191205,1.0547309,1.0917609,1.1229486,1.1421546,1.151659,1.1544397,1.1535556,1.1516429,1.149859,1.1481491,1.1465554,1.1450205,1.143714,1.1427429,1.1420524,1.1416637,1.1413949,1.1410763,1.1407099,1.140424,1.1402037,1.1401049,1.1400377,1.1399443,1.1398995,1.1398613,1.1397241,1.1396108,1.1395941,1.1396873,1.1398537,1.1398356,1.1397321,1.1396124,1.1395133,1.1393781,1.1392498,1.1392108,1.1393566,1.1394974,1.1395671,1.1395025,1.1393223,1.1390742,1.1387801,1.138422,1.1379402,1.1373255,1.1365898,1.1357639,1.1348504,1.1339562,1.1332103,1.1327257,1.1324139,1.1321996,1.1319261,1.1315125,1.1310556,1.130657,1.1303794,1.1303394,1.130587,1.1310347,1.1317196,1.1326783,1.1336823,1.1346194,1.1353886,1.1359355,1.1363553,1.1367664,1.1371608,1.1375198,1.137769,1.1379246,1.138055,1.1381814,1.138254,1.1382276,1.1380914,1.1378982,1.1377089,1.1375773,1.137476,1.1373905,1.1372979,1.1372035,1.1372063,1.137373,1.1377003,1.1381154,1.1385381,1.1388116,1.1388049,1.1385438,1.1381338,1.1376451,1.1371484,1.1366854,1.1362779,1.1359091,1.135531,1.1351562,1.1347821,1.1344006,1.1339889,1.1335683,1.1331283,1.1327034,1.1323428,1.132086,1.1319456,1.1319344,1.1320431,1.1322006,1.1323471,1.1324513,1.1325271,1.1326034,1.1326619,1.1326526,1.1325147,1.1322572,1.1319263,1.1315305,1.1310804,1.1306236,1.1302152,1.1299107,1.129693,1.1295404,1.1294062,1.129243,1.1290525,1.1288438,1.1286403,1.1284862,1.1283659,1.1282709,1.1281515,1.127955,1.1276935,1.1273978,1.127049,1.1266544,1.126226,1.1257403,1.1251941,1.1246133,1.124026,1.1234361,1.1228323,1.1221932,1.1215488,1.1209586,1.1204586,1.120065,1.1197506,1.1195012,1.1193223,1.1190844,1.1187034,1.1181643,1.1175675,1.1170156,1.1165271,1.1161182,1.1157931,1.1155683,1.1154263,1.11532,1.1151829,1.1150055,1.1147933,1.1145513,1.1142588,1.113911,1.1136109,1.1134593,1.1134672,1.1136342,1.1139317,1.1142875,1.114603,1.114799,1.1147711,1.1144261,1.1136487,1.1124649,1.110975,1.1096714,1.108901,1.1090282,1.1102996,1.1128327,1.1166383,1.1211281,1.1257309,1.129985,1.1336784,1.1367662,1.1393217,1.1411878,1.1424502,1.143369,1.1440835,1.1446253,1.145145,1.1457397,1.1463158,1.1468571,1.1472948,1.1475441,1.1477376,1.1479628,1.1482131,1.1485213,1.148927,1.149354,1.1497366,1.1500863,1.1504016,1.1506319,1.1507943,1.1509331,1.1510905,1.1511807,1.1511923,1.151148,1.1511326,1.151176,1.1512372,1.1512266,1.1511757,1.1512278,1.1513536,1.1513991,1.1513255,1.1511717,1.1509857,1.1507725,1.1504622,1.1501684,1.1498756,1.1495409,1.1491313,1.1486492,1.1481293,1.1475742,1.1469984,1.1464353,1.1458845,1.1453156,1.1447033,1.1440631,1.1433961,1.1427201,1.1420314,1.1413254,1.1406443,1.1400163,1.1394072,1.1388092,1.1382167,1.137628,1.1370888,1.1365743,1.1360548,1.1355017,1.1349301,1.1343594,1.1337862,1.1332369,1.1326894,1.1321454,1.1315887,1.1309803,1.1303449,1.1296501,1.1289126,1.1281614,1.1273661,1.1265172,1.1256063,1.124636,1.1236295,1.1226076,1.1215949,1.120607,1.1196289,1.1186391,1.1175437,1.1165414,1.1157653,1.1150472,1.1143726,1.1137936,1.1133318,1.1128765,1.112416,1.1118373,1.1111808,1.1105653,1.1099709,1.1093779
0.99878854,1.0281857,1.0644836,1.101053,1.1295891,1.1456531,1.1525674,1.1541073,1.1532056,1.1513594,1.1490736,1.1467941,1.1448269,1.1432748,1.142125,1.1412904,1.14071,1.1403005,1.1399112,1.1394925,1.1391337,1.1388011,1.1385164,1.1382289,1.1379488,1.137768,1.1376264,1.1374269,1.1372881,1.1372006,1.1371574,1.1371453,1.1369338,1.1366606,1.1364024,1.1361966,1.1359642,1.1357433,1.1356438,1.135702,1.135757,1.1357418,1.135596,1.1353431,1.1350362,1.1347021,1.1343123,1.1337941,1.1331289,1.1323335,1.1314561,1.1304946,1.1295393,1.1286999,1.1280737,1.1275797,1.1271579,1.1266737,1.1260791,1.1254956,1.125031,1.1247294,1.1246903,1.1249695,1.1254859,1.1263653,1.1275561,1.1287757,1.1298932,1.1307857,1.1313944,1.131829,1.1322198,1.1325765,1.1328914,1.1331055,1.1332387,1.1333694,1.133537,1.1337054,1.133831,1.1338936,1.1339273,1.1339748,1.1340702,1.1341884,1.1342766,1.1342891,1.1342785,1.1343585,1.134665,1.1350648,1.1353927,1.1356639,1.1358392,1.135905,1.1358035,1.1355718,1.1352651,1.1349429,1.1346455,1.134386,1.134162,1.1339426,1.1337403,1.1335391,1.1333334,1.1331189,1.1328838,1.1326125,1.1323096,1.1320343,1.13184,1.1317594,1.1317325,1.1317402,1.1317794,1.1318145,1.1318359,1.1318568,1.1319029,1.1319649,1.1319934,1.1319234,1.1316687,1.1312559,1.1308129,1.1303616,1.1299453,1.1295882,1.1293147,1.1291001,1.128907,1.1286724,1.1283835,1.1280788,1.1277632,1.1275029,1.1272976,1.1270771,1.1267775,1.1264316,1.1260258,1.1255758,1.1251012,1.1246314,1.1242114,1.1238549,1.1234633,1.1230354,1.1225932,1.1221459,1.1216862,1.1211913,1.1206365,1.1200297,1.1194209,1.1188619,1.1183966,1.1180525,1.1178291,1.1176875,1.1175185,1.1172343,1.1167982,1.1162925,1.1158062,1.115364,1.1149702,1.1145964,1.1142218,1.1138436,1.1134431,1.1129973,1.1124613,1.1118996,1.111317,1.1106735,1.1099102,1.109129,1.1084026,1.1077428,1.1071804,1.1067401,1.1063981,1.1061008,1.1057701,1.1053071,1.1046493,1.1038396,1.1029623,1.1021241,1.1015313,1.1012585,1.1014199,1.1021279,1.1035852,1.105923,1.1088796,1.1120878,1.1152103,1.118052,1.1205511,1.1227047,1.1244116,1.1257373,1.1268611,1.1278068,1.1285784,1.1293646,1.1302773,1.1312622,1.1322937,1.1332197,1.1339451,1.1345292,1.1350372,1.1355377,1.1360892,1.1367389,1.1374048,1.1380229,1.138603,1.1391301,1.1395612,1.1399093,1.1402164,1.1405239,1.1407413,1.1408515,1.1408955,1.1409783,1.1411356,1.141326,1.1414471,1.1415274,1.1417074,1.1419642,1.1421419,1.1421998,1.1421851,1.1421418,1.1420666,1.1418743,1.1416728,1.1414559,1.1412106,1.1409433,1.1406287,1.1402969,1.1399386,1.1395398,1.1391447,1.1387823,1.1384234,1.1380457,1.1376381,1.1372012,1.1367595,1.1363037,1.1358128,1.1353254,1.1348937,1.1344914,1.1341002,1.1336935,1.1332588,1.1328487,1.132458,1.13205,1.1315886,1.1310763,1.1305509,1.1300173,1.1294932,1.1289663,1.1284575,1.1279829,1.12752,1.1270354,1.1264992,1.1259166,1.1253275,1.1246873,1.1239649,1.1231475,1.1222348,1.1212769,1.1202993,1.1193262,1.1183761,1.1174331,1.116475,1.1154121,1.1144474,1.1137137,1.1130435,1.1124152,1.1118815,1.1114572,1.1110418,1.1106199,1.110081,1.1094766,1.1089203,1.1083786,1.1078329
0.98541856,1.0054696,1.037287,1.0741739,1.1109271,1.1351494,1.1487641,1.1539016,1.154839,1.1532642,1.150516,1.1475992,1.1452516,1.1436348,1.1424532,1.1415627,1.1409092,1.1404448,1.1400392,1.1396096,1.1391985,1.1387565,1.138304,1.1378318,1.1373882,1.1370509,1.136857,1.1366025,1.136255,1.1359556,1.1357045,1.1354886,1.1351084,1.134625,1.1341661,1.1338415,1.13357,1.1333756,1.1332431,1.133237,1.1332148,1.1331043,1.1328555,1.132499,1.132097,1.1316903,1.1312654,1.1307448,1.1301057,1.1293573,1.1285399,1.1276395,1.1267138,1.1258429,1.1250975,1.1244111,1.1237695,1.1230676,1.1222819,1.1215751,1.121075,1.1207707,1.1207362,1.1210356,1.1216042,1.1225722,1.1239264,1.1253049,1.1265305,1.1274571,1.1280274,1.1283677,1.1286308,1.1288611,1.129067,1.1292056,1.1292951,1.1294153,1.1296161,1.1298761,1.1301458,1.1303885,1.130611,1.1308341,1.1310816,1.1313318,1.1315247,1.1316111,1.1316278,1.1315954,1.131579,1.1316268,1.131747,1.131913,1.132072,1.1321731,1.1321466,1.13201,1.1318014,1.1315743,1.1313605,1.1312034,1.1311104,1.1310306,1.1309704,1.1309185,1.1308658,1.1308026,1.1307142,1.1305845,1.1304353,1.1302894,1.1301761,1.1301134,1.1301075,1.1301603,1.1302329,1.1302941,1.130331,1.1303588,1.1304104,1.1304808,1.1305323,1.1305008,1.1303577,1.1301312,1.1298523,1.1295199,1.1291428,1.1288269,1.1285899,1.1284096,1.128252,1.1280526,1.127797,1.1275208,1.1272292,1.1269271,1.1266286,1.1263025,1.125982,1.1256638,1.1253171,1.1249518,1.1245083,1.1240804,1.1236815,1.1232941,1.1229148,1.1225075,1.1220875,1.1216819,1.1212785,1.1208516,1.1204432,1.120008,1.1195483,1.1191083,1.1187394,1.118516,1.1184728,1.1185321,1.1185441,1.1184125,1.1180944,1.1176893,1.1173158,1.1170146,1.1167774,1.1165291,1.1162064,1.115799,1.1153065,1.1147623,1.1141896,1.1136236,1.1130558,1.1124189,1.1116687,1.1108437,1.109992,1.1091478,1.1083467,1.1076225,1.1069412,1.1062672,1.1055417,1.104584,1.1033703,1.1020803,1.1009645,1.1002247,1.0999641,1.1000242,1.1001365,1.1003523,1.1009662,1.1021092,1.1037393,1.1055735,1.1074133,1.1091213,1.1106386,1.1120228,1.1132267,1.114284,1.1153154,1.1162505,1.1170805,1.1179948,1.1190917,1.1202987,1.1215794,1.122753,1.1237108,1.1244965,1.1251563,1.12578,1.1264594,1.1272533,1.1280773,1.128871,1.129633,1.130341,1.130943,1.1314383,1.1318648,1.1322644,1.1325505,1.1327035,1.1327784,1.1328948,1.1330943,1.1333399,1.1335236,1.1336673,1.1339052,1.1342208,1.1344631,1.1345934,1.1346648,1.1347111,1.1347136,1.1345751,1.1344011,1.1341882,1.1339331,1.1336715,1.1333935,1.133134,1.1328728,1.1325774,1.1322978,1.1320769,1.1318827,1.1316879,1.1314652,1.131208,1.1309385,1.1306506,1.130322,1.1299932,1.1297147,1.129456,1.1291869,1.1288779,1.1285187,1.128156,1.12779,1.1273801,1.1269145,1.1264045,1.125867,1.1253166,1.1247869,1.1242615,1.1237745,1.1233609,1.1230229,1.1227064,1.122354,1.1219326,1.1214662,1.1209176,1.1202599,1.1195099,1.1186757,1.1177955,1.1168926,1.1159911,1.1151137,1.1142561,1.1134017,1.1124526,1.1116028,1.110909,1.1102798,1.1096915,1.1092001,1.1088216,1.1084591,1.1080948,1.1076238,1.1071076,1.1066531,1.1062129,1.1057689
0.9771406,0.99051225,1.0130811,1.0472958,1.0857047,1.1209795,1.1423562,1.1526628,1.1565096,1.1558957,1.1530689,1.1498916,1.1473718,1.1456807,1.1445367,1.1436614,1.142959,1.1424329,1.141989,1.1415153,1.1410221,1.1404449,1.1398141,1.1391494,1.1385183,1.137992,1.1375718,1.1371818,1.1367229,1.1361446,1.1355525,1.1350033,1.1342995,1.1337185,1.1332021,1.1328597,1.1325842,1.1323645,1.1322097,1.1321671,1.1320927,1.1319075,1.1315669,1.1311085,1.1306058,1.1301146,1.1296567,1.1291562,1.1285923,1.1279583,1.1272655,1.1264815,1.1256316,1.1247666,1.1239328,1.1231086,1.1222622,1.1213462,1.1204017,1.1195741,1.1190045,1.1186962,1.1186538,1.1189532,1.1195679,1.1204975,1.1219358,1.1234596,1.1247892,1.1257405,1.126263,1.1264927,1.1266055,1.1266881,1.126764,1.1268153,1.1268504,1.1269453,1.1271584,1.1274769,1.1278468,1.1282146,1.1285613,1.1288913,1.1292226,1.1295371,1.129761,1.1297688,1.1296442,1.1294949,1.1293826,1.1293225,1.1293167,1.1293585,1.1294264,1.1294818,1.1294512,1.1293542,1.1292422,1.1291375,1.1290574,1.1290052,1.128979,1.1289611,1.128966,1.1290302,1.1291074,1.129184,1.1292446,1.1292653,1.1292617,1.1292425,1.1292338,1.1292526,1.1293073,1.1294053,1.1295081,1.12959,1.1296363,1.1296601,1.1297067,1.1297755,1.1298463,1.1298556,1.1297709,1.1296134,1.1293986,1.1291534,1.1289153,1.128705,1.1285391,1.1284081,1.1282938,1.1281621,1.1280037,1.1278248,1.1276155,1.1273968,1.127182,1.1269324,1.126646,1.1263579,1.1260617,1.1257632,1.1254842,1.1252215,1.1249288,1.1245348,1.1240668,1.1235886,1.1231179,1.1226883,1.1222936,1.121974,1.1217024,1.1214601,1.1212316,1.1210365,1.1208744,1.1207964,1.1208391,1.1209509,1.1210535,1.121039,1.1208715,1.1206601,1.1204913,1.1203988,1.1203799,1.1203645,1.1202981,1.1201268,1.1197588,1.1192627,1.1187383,1.1182481,1.1177907,1.1172755,1.1166408,1.1159065,1.1151104,1.114301,1.113539,1.1128736,1.1122729,1.1116153,1.1106913,1.1093285,1.1075661,1.1056724,1.1040577,1.1030852,1.1027343,1.1027731,1.1027858,1.1025747,1.1024401,1.1026552,1.1031556,1.1038548,1.1045965,1.1052204,1.1056988,1.1061894,1.1067379,1.1073627,1.1081418,1.1089668,1.1097996,1.1107929,1.1120142,1.1133585,1.1147733,1.1160247,1.1170294,1.1178548,1.1185565,1.1192243,1.1199572,1.1208305,1.1217563,1.1226782,1.1235886,1.1244545,1.1252074,1.1258299,1.1263535,1.1268198,1.12715,1.1273229,1.1274042,1.127523,1.1277264,1.1279814,1.1281819,1.1283464,1.1286037,1.12894,1.1292117,1.1293813,1.1295065,1.1296058,1.129644,1.1295183,1.129328,1.1290741,1.1287596,1.1284466,1.1281409,1.1278876,1.1276603,1.1274093,1.1271865,1.1270425,1.1269372,1.126837,1.1267059,1.1265333,1.1263409,1.1261334,1.1258883,1.1256447,1.1254535,1.1252747,1.12507,1.1248049,1.1244698,1.1241019,1.1237066,1.1232443,1.1227119,1.1221251,1.1215079,1.1208794,1.1202832,1.1197069,1.1191963,1.1187798,1.1184607,1.1181741,1.1178508,1.1174558,1.1170161,1.1165088,1.1158967,1.1151683,1.1143181,1.1133903,1.112437,1.1115097,1.1106504,1.1098449,1.1090401,1.1081524,1.1074225,1.1069666,1.1065463,1.1060333,1.1055907,1.1052454,1.1049254,1.1046191,1.1042267,1.1038247,1.1035099,1.1032133,1.1029074
0.9733943,0.9816984,0.9962584,1.02264,1.058439,1.0976903,1.130127,1.1475205,1.1554656,1.156881,1.1547184,1.1516049,1.1491685,1.1476611,1.1466677,1.1458399,1.145035,1.1443435,1.1437145,1.1430436,1.1423404,1.1415405,1.1406873,1.1398094,1.1389682,1.1382164,1.137528,1.1368384,1.1361401,1.135371,1.134562,1.1339042,1.1330247,1.132212,1.1316054,1.1312094,1.130897,1.1306545,1.1304815,1.130419,1.1303207,1.1300989,1.1297075,1.1291882,1.1286209,1.1280787,1.1276221,1.1271803,1.1267287,1.1262357,1.1256588,1.1249592,1.1241486,1.1232694,1.1223589,1.12137,1.1203197,1.1192262,1.1181755,1.1173214,1.1167586,1.1164249,1.1163478,1.1166323,1.1172838,1.1183376,1.1197078,1.1213865,1.1229291,1.1240344,1.1246494,1.1249024,1.1249853,1.1250198,1.1250428,1.1250567,1.125066,1.1251371,1.1253338,1.1256506,1.1260362,1.126435,1.1268201,1.1271894,1.127561,1.1279101,1.1280844,1.1281241,1.128027,1.1278787,1.127742,1.1276362,1.127559,1.1274977,1.1274748,1.1274807,1.1274734,1.1274551,1.1274458,1.1274705,1.1275432,1.1276095,1.1276898,1.1277723,1.1278698,1.1279814,1.1280988,1.128223,1.128376,1.1284997,1.1286006,1.1286774,1.1287498,1.1288319,1.1289356,1.1290724,1.1292078,1.1293201,1.1293905,1.1294296,1.1294794,1.129545,1.1296234,1.1296561,1.1296146,1.1295135,1.1293588,1.1291723,1.1289883,1.1288205,1.1286862,1.1285777,1.1284808,1.1283696,1.1282352,1.1280978,1.127954,1.1278081,1.1276727,1.1275169,1.1273351,1.127127,1.1269083,1.1266683,1.1264229,1.1261686,1.1258706,1.1254804,1.1250052,1.1244762,1.1239384,1.1234359,1.1229848,1.1226301,1.1223439,1.1221042,1.1218886,1.1217122,1.1215875,1.1215227,1.1215237,1.1216158,1.121647,1.1215761,1.1213892,1.1211724,1.1210176,1.1209557,1.1209799,1.1210072,1.1209726,1.1208367,1.1205962,1.1203046,1.119993,1.1197066,1.1194417,1.119114,1.1186652,1.11808,1.1174357,1.1168463,1.1163952,1.1160953,1.1158464,1.11549,1.1147358,1.1133755,1.1114199,1.1091456,1.1071143,1.1056855,1.105025,1.1050106,1.1050134,1.1045935,1.1039959,1.1036777,1.1036762,1.1038266,1.103941,1.1038928,1.1036906,1.103548,1.1035527,1.1037843,1.1043377,1.1050751,1.1059346,1.107011,1.1082914,1.1096449,1.1110275,1.1122866,1.113302,1.1141286,1.1148319,1.1155046,1.1162567,1.1171725,1.1181633,1.119184,1.1202183,1.1212215,1.1221063,1.1228383,1.123446,1.1239758,1.1243619,1.1245768,1.1246929,1.1248398,1.1250591,1.1253221,1.1255269,1.1256945,1.1259569,1.1263027,1.1265882,1.1267751,1.1269195,1.1270313,1.1270664,1.1269255,1.1267115,1.1264182,1.1260514,1.1256831,1.1253242,1.1250359,1.1247922,1.1245375,1.1243225,1.1241903,1.1240883,1.1239755,1.1238151,1.1236053,1.1233761,1.1231496,1.1228995,1.122663,1.1224852,1.1223228,1.1221244,1.1218498,1.1214869,1.1210663,1.120599,1.1200528,1.1194258,1.1187389,1.1180291,1.1173182,1.1166592,1.1160355,1.1154869,1.1150346,1.1146778,1.1143503,1.1139793,1.1135421,1.1130686,1.1125346,1.1118958,1.1111209,1.1102027,1.1091945,1.1081585,1.1071503,1.1062112,1.105324,1.1044395,1.1034788,1.1026752,1.1021374,1.1016536,1.1011271,1.1006978,1.1004155,1.1001923,1.0999801,1.0996432,1.0993067,1.0991011,1.0989206,1.0987267
0.9739444,0.976929,0.9860623,1.0040457,1.0331833,1.0712984,1.1100656,1.1373154,1.1507496,1.1550782,1.1543097,1.1516323,1.149409,1.1480756,1.1471826,1.1463537,1.1453798,1.1444547,1.1435616,1.1426303,1.1416924,1.140697,1.1396918,1.1386976,1.1377563,1.1368693,1.1360446,1.1352581,1.1344421,1.1336567,1.1327292,1.1318231,1.1308655,1.1300752,1.1295077,1.129128,1.128813,1.1285632,1.1283854,1.1283296,1.1282473,1.1280475,1.1276776,1.1271803,1.1266294,1.1261066,1.125701,1.1253392,1.1249906,1.1246017,1.1240767,1.1233888,1.1225623,1.121652,1.1207094,1.1196826,1.1185784,1.117434,1.1163869,1.1155584,1.1150126,1.1146805,1.1145713,1.114825,1.1154824,1.116599,1.1180967,1.1197126,1.1214334,1.1227555,1.1235518,1.1239178,1.1240633,1.1241378,1.124181,1.1242145,1.1242418,1.1243129,1.124491,1.1247756,1.1251267,1.1254973,1.1258668,1.1262364,1.1266,1.1269065,1.1271164,1.1271696,1.1271176,1.1270263,1.1269379,1.1268713,1.1268276,1.126819,1.1268554,1.1269255,1.1269932,1.1270595,1.1271319,1.1272256,1.1273599,1.1275167,1.127686,1.127842,1.1279943,1.1281455,1.1282955,1.1284475,1.1286104,1.1287656,1.128899,1.1290059,1.1291015,1.1291988,1.1293142,1.1294637,1.1296201,1.1297643,1.1298705,1.1299413,1.1300073,1.1300719,1.1301453,1.1301765,1.1301506,1.1300764,1.1299533,1.1298008,1.1296453,1.1294981,1.1293764,1.1292746,1.1291828,1.1290796,1.1289544,1.1288198,1.1286702,1.1285187,1.1283784,1.1282358,1.1280899,1.1279268,1.1277395,1.1275461,1.1273685,1.1271734,1.1269231,1.1265613,1.1260877,1.1255342,1.1249804,1.1244645,1.1240036,1.1236197,1.1233022,1.123039,1.1228089,1.1226223,1.1224885,1.1224103,1.1223645,1.1223321,1.1222646,1.1220886,1.1218169,1.12154,1.1213467,1.1212643,1.1212788,1.1213005,1.1212618,1.1211015,1.1208122,1.1204519,1.1200677,1.1197289,1.1194289,1.1190684,1.118592,1.1180494,1.117511,1.1170692,1.1168191,1.1167457,1.1167257,1.1166003,1.1161144,1.1151345,1.1135261,1.1111072,1.108653,1.1067898,1.1057911,1.1055005,1.1054347,1.1051052,1.1046137,1.1042297,1.1040773,1.104115,1.1040676,1.1037687,1.1031852,1.102597,1.1022004,1.1021287,1.1024971,1.1031848,1.1040943,1.1052699,1.1066442,1.1080561,1.1094623,1.1107281,1.1117492,1.1125798,1.1132847,1.113962,1.114727,1.1156654,1.1166887,1.1177658,1.1188743,1.1199566,1.120908,1.1216838,1.1223168,1.1228607,1.1232569,1.1234726,1.1235858,1.1237226,1.1239179,1.1241415,1.1242983,1.1244177,1.1246403,1.1249555,1.125219,1.1253908,1.125519,1.1256096,1.1256182,1.1254516,1.1252184,1.1249025,1.124506,1.1240989,1.1236918,1.1233611,1.1230869,1.1228175,1.1226028,1.1224697,1.1223531,1.122201,1.1219821,1.1217055,1.1214123,1.1211374,1.1208515,1.1205914,1.120395,1.1202229,1.1200128,1.1197149,1.1193132,1.1188357,1.1182996,1.1176802,1.1169724,1.1162033,1.1154214,1.1146511,1.1139479,1.1132908,1.1127036,1.112204,1.1117871,1.1113904,1.1109439,1.1104405,1.109911,1.1093278,1.1086435,1.1078092,1.1068186,1.1057353,1.1046247,1.103539,1.102514,1.1015301,1.1005423,1.0994862,1.0985842,1.0979416,1.0973623,1.0967466,1.0962381,1.0959084,1.0956622,1.0954581,1.095161,1.0948954,1.0947769,1.094684,1.0945821
0.97707933,0.9770744,0.98086476,0.9925262,1.0130986,1.0456527,1.0840254,1.11939,1.1413388,1.1494812,1.1508344,1.1489012,1.1468419,1.145399,1.14429,1.143214,1.1419444,1.1407405,1.1395918,1.138459,1.1374078,1.1363957,1.1354663,1.1345785,1.1338658,1.1331615,1.1324263,1.1316724,1.1308581,1.1300688,1.1292543,1.1285529,1.1278181,1.1272455,1.1268699,1.1266229,1.1263899,1.1261951,1.1260691,1.1260797,1.1260815,1.1259905,1.1257452,1.1253887,1.1249781,1.1245943,1.1243258,1.1240808,1.1238198,1.1234767,1.1229267,1.1221763,1.1212862,1.1203394,1.1194155,1.1184566,1.1174496,1.1164364,1.1155546,1.1148775,1.1144426,1.1141566,1.1140039,1.1141608,1.1147056,1.1157277,1.1171939,1.1188226,1.1204243,1.1218777,1.122833,1.123255,1.1234869,1.1236521,1.1237788,1.1238683,1.123959,1.1240764,1.124247,1.1244898,1.1247793,1.125096,1.1254339,1.1257648,1.1260756,1.1263719,1.1266062,1.1267436,1.1267922,1.126811,1.126834,1.1268768,1.1269281,1.1269969,1.127099,1.1272357,1.127389,1.1275592,1.1277473,1.1279547,1.1281947,1.1284444,1.1286922,1.1289117,1.1291038,1.1292682,1.1294196,1.1295669,1.1297053,1.1298182,1.1299076,1.129972,1.1300273,1.130087,1.1301717,1.1303034,1.1304655,1.1306427,1.1307999,1.1309272,1.1310287,1.1311063,1.1311727,1.1311864,1.131149,1.1310699,1.1309469,1.130799,1.1306467,1.130499,1.1303718,1.1302688,1.1301861,1.130097,1.1299839,1.1298428,1.1296618,1.1294601,1.1292605,1.1290736,1.1289046,1.1287384,1.1285682,1.1283879,1.1281973,1.1279815,1.1277267,1.1274064,1.127002,1.1265289,1.1260483,1.1256016,1.12519,1.1248295,1.124526,1.1242743,1.1240559,1.1238844,1.1237733,1.1237054,1.1236421,1.123535,1.1233262,1.1229944,1.1225967,1.1222472,1.1219977,1.1218708,1.121846,1.1218314,1.1217599,1.1215539,1.1212034,1.1207666,1.1203015,1.1198919,1.1195261,1.1190922,1.1185192,1.1178567,1.117154,1.1165378,1.1162745,1.116392,1.1166182,1.1167357,1.1164887,1.1158801,1.1146333,1.112129,1.1093946,1.1071658,1.1058582,1.1053245,1.1048698,1.1046593,1.1042919,1.1038216,1.1038016,1.1039548,1.1040046,1.103825,1.1032447,1.1025207,1.101959,1.1017716,1.1020918,1.1028252,1.10384,1.1051522,1.1066523,1.1081457,1.1095926,1.1108787,1.1119237,1.1127926,1.1135442,1.1142677,1.1150715,1.116024,1.1170359,1.118094,1.1191754,1.1202097,1.1210878,1.1217674,1.1222949,1.1227323,1.1230228,1.1231313,1.1231465,1.1231917,1.1232889,1.1234031,1.1234403,1.1234379,1.1235509,1.1237698,1.1239505,1.1240516,1.1241195,1.124155,1.1241214,1.1239331,1.1237035,1.1234026,1.1230257,1.1226286,1.1222157,1.1218722,1.1215906,1.1213335,1.1211479,1.1210456,1.1209531,1.1208084,1.120583,1.1202991,1.1199995,1.1197243,1.1194432,1.119189,1.1189942,1.1188289,1.1186237,1.1183184,1.117893,1.1173768,1.116797,1.116137,1.1153877,1.114578,1.1137658,1.1129742,1.1122582,1.111592,1.110982,1.1104438,1.1099751,1.109519,1.109009,1.1084498,1.1078696,1.1072388,1.1065104,1.1056266,1.1045899,1.1034712,1.1023338,1.101218,1.1001501,1.0991085,1.0980551,1.0969371,1.095971,1.095258,1.0946075,1.0939126,1.0933232,1.0929223,1.0926179,1.0923809,1.0920804,1.0918391,1.0917621,1.0917082,1.0916462
0.98077273,0.97998786,0.98030585,0.98601615,0.999076,1.0232223,1.0577435,1.0948212,1.125183,1.1403704,1.1445382,1.143791,1.1418716,1.139653,1.1374054,1.1355247,1.1339422,1.1327745,1.1317606,1.1307545,1.1299284,1.1292914,1.1290169,1.1288291,1.1286637,1.1285253,1.1282113,1.1277068,1.1270449,1.1263553,1.1257861,1.1253974,1.1249728,1.1246836,1.1245518,1.1244771,1.1243625,1.1242527,1.1242058,1.1243098,1.1244256,1.124481,1.1244068,1.1242421,1.1240264,1.1238358,1.1237347,1.1236031,1.123394,1.1230409,1.1224141,1.1215608,1.1205771,1.1195686,1.1186545,1.117781,1.1169307,1.1161346,1.1155266,1.1150874,1.1148334,1.1146464,1.1144822,1.1144984,1.1148081,1.1155765,1.1168308,1.1183537,1.1199166,1.1212524,1.1222572,1.1228001,1.1231229,1.1232903,1.1234194,1.1235534,1.1236948,1.1238422,1.1240304,1.1242493,1.1244932,1.1247624,1.1250495,1.1253562,1.1256783,1.1260058,1.1262902,1.1264975,1.1266372,1.1267583,1.1268878,1.1270382,1.1271868,1.127339,1.1275086,1.1277058,1.1279283,1.12818,1.1284611,1.1287606,1.1290871,1.1294198,1.1297343,1.1300269,1.13026,1.1304326,1.1305653,1.1306773,1.1307707,1.1308322,1.1308615,1.1308641,1.1308599,1.1308677,1.1309153,1.1310303,1.1312051,1.1314242,1.1316414,1.1318314,1.1319765,1.1320733,1.1321384,1.1321385,1.1320899,1.1319991,1.1318672,1.1317118,1.1315498,1.1313751,1.1312085,1.1310916,1.1310246,1.13097,1.130895,1.1307762,1.1305709,1.1303185,1.1300561,1.1298141,1.1296022,1.129405,1.129219,1.1290324,1.1288503,1.1286669,1.1284578,1.1281886,1.1278665,1.1275117,1.1271548,1.1268128,1.1264777,1.1261673,1.1259022,1.1256819,1.1254905,1.1253431,1.125227,1.1251339,1.1250242,1.1248515,1.1245738,1.1241759,1.1236936,1.1232176,1.1228471,1.122616,1.1225045,1.1224108,1.12227,1.1219876,1.1215464,1.121011,1.1204522,1.1199663,1.1195259,1.1190028,1.118278,1.1173562,1.1163923,1.1156102,1.1152127,1.1152358,1.1156206,1.1161418,1.1163642,1.1160617,1.1147988,1.1123189,1.1094497,1.1069299,1.105351,1.1048286,1.1044482,1.1040211,1.1036513,1.1031921,1.10305,1.1032577,1.1034949,1.103503,1.1030753,1.1024767,1.1020501,1.1020305,1.102409,1.1032441,1.1043773,1.1058159,1.1074278,1.1090045,1.1105082,1.1118436,1.112956,1.1139178,1.1147728,1.1155908,1.1164734,1.1174035,1.1183047,1.1192205,1.120138,1.1209812,1.1216724,1.1221945,1.1225846,1.1228948,1.1230557,1.123044,1.1229666,1.1229291,1.122931,1.1229446,1.1228726,1.1227405,1.1227176,1.1228049,1.1228669,1.1228645,1.1228387,1.122792,1.1227005,1.1224865,1.1222693,1.122002,1.1216711,1.1213118,1.1209197,1.1205802,1.1202984,1.1200554,1.119894,1.119813,1.1197344,1.1195941,1.1193717,1.1190969,1.118798,1.1185229,1.1182504,1.1179867,1.1177704,1.1175861,1.11737,1.1170557,1.1166214,1.1161003,1.115526,1.1148834,1.1141541,1.1133628,1.1125684,1.1117976,1.1111,1.1104438,1.1098229,1.1092523,1.1087348,1.1082237,1.1076572,1.1070447,1.1064138,1.1057358,1.1049676,1.1040509,1.1029956,1.1018755,1.1007504,1.0996457,1.0985768,1.0975227,1.096451,1.0953201,1.0943401,1.0936024,1.0929203,1.092178,1.0915293,1.0910629,1.090696,1.0904117,1.0900879,1.089847,1.0897853,1.0897443,1.0896986
0.98459494,0.9834695,0.98292416,0.9848506,0.9920276,1.008167,1.0351241,1.0701313,1.1036656,1.1263123,1.1354694,1.1364793,1.1348531,1.1314507,1.1281108,1.1255621,1.1238842,1.1230433,1.1226292,1.1224446,1.122647,1.1231608,1.1237553,1.1244413,1.1251268,1.1255698,1.1256219,1.125351,1.1249211,1.1244967,1.1241597,1.1239831,1.1237545,1.1236371,1.1236489,1.1236804,1.123646,1.1236033,1.1236284,1.1238238,1.1240473,1.1242278,1.1243091,1.1243129,1.1242635,1.1242301,1.1242458,1.1241655,1.1239498,1.1235564,1.1228797,1.1219664,1.1209147,1.1198282,1.1188495,1.1179439,1.1171273,1.1164277,1.1160122,1.1157103,1.1156249,1.1156449,1.1156998,1.1157031,1.1157584,1.1161577,1.1170342,1.118267,1.1196386,1.1208673,1.1217325,1.1222662,1.122601,1.1228216,1.1229945,1.1231704,1.1233596,1.1235449,1.1237404,1.1239303,1.1241221,1.1243318,1.1245673,1.124837,1.1251279,1.125433,1.1257136,1.12594,1.1261144,1.1262777,1.1264482,1.1266391,1.1268244,1.1270032,1.1271858,1.1273887,1.1276233,1.1279011,1.1282258,1.1285801,1.128962,1.129376,1.1297686,1.130083,1.1303198,1.1304884,1.1306188,1.1307285,1.1308162,1.1308656,1.1308715,1.1308417,1.1308026,1.1307715,1.130785,1.1308894,1.1310807,1.1313367,1.1316009,1.1318357,1.132014,1.132138,1.132226,1.1322472,1.1322192,1.1321392,1.1320088,1.1318495,1.1316538,1.1314336,1.131288,1.1312138,1.1311889,1.1311653,1.1310997,1.1309633,1.1307559,1.1304982,1.1302223,1.1299596,1.1297226,1.1294949,1.1292734,1.1290562,1.1288598,1.1287001,1.1285632,1.1284056,1.1281995,1.1279356,1.1276493,1.1273642,1.1270788,1.126822,1.1266031,1.126424,1.1262648,1.126137,1.1260242,1.1259191,1.1257885,1.1255865,1.1252782,1.1248486,1.1243392,1.123838,1.1234369,1.1231728,1.1230232,1.1228887,1.1226721,1.1222708,1.1216877,1.1210239,1.1203845,1.1198536,1.1193845,1.1188118,1.1179831,1.1169685,1.115917,1.1150273,1.1145211,1.1144449,1.1147366,1.1153505,1.1159196,1.1158355,1.1145976,1.1121597,1.1092122,1.1064639,1.1046897,1.1041856,1.1040481,1.1035674,1.1029353,1.1024554,1.1023521,1.1026573,1.1031177,1.1033598,1.1030896,1.1024245,1.1017625,1.1014817,1.1019895,1.1030183,1.1042578,1.1057055,1.107302,1.1089051,1.1104908,1.1119819,1.1133039,1.1144862,1.1155326,1.1165006,1.1174418,1.118409,1.1193367,1.1202282,1.1210674,1.1217477,1.1222645,1.1226246,1.122849,1.122997,1.1230057,1.1228566,1.1226573,1.1225059,1.1224062,1.1223226,1.1221728,1.1219976,1.1218972,1.1218693,1.1218175,1.1217115,1.1215914,1.1214628,1.1213069,1.1210518,1.12082,1.1205595,1.1202476,1.1199098,1.1195323,1.1191996,1.1189239,1.1186947,1.1185412,1.1184418,1.1183202,1.1181567,1.1179569,1.1177279,1.1174285,1.117115,1.1167676,1.1164237,1.1161355,1.1158787,1.1156015,1.1152643,1.1148474,1.1143776,1.1138924,1.1133636,1.1127417,1.1120396,1.11131,1.1106007,1.1099573,1.1093318,1.1087068,1.1080971,1.1075168,1.1069427,1.1063107,1.1056302,1.1049266,1.1041799,1.1033638,1.1024246,1.1013687,1.1002703,1.0991844,1.0981255,1.0970986,1.096087,1.0950613,1.0939844,1.0930578,1.0923636,1.0917059,1.0909736,1.0903177,1.0898226,1.0894227,1.089113,1.0887864,1.0885656,1.088537,1.0885302,1.0885302
0.98737884,0.98705566,0.98606384,0.9863799,0.98943484,0.9993144,1.0182134,1.0487088,1.0823393,1.1103542,1.1258025,1.1298025,1.1294264,1.1261828,1.1223118,1.1191828,1.1175458,1.1171541,1.1174135,1.1181206,1.1191587,1.12028,1.1214795,1.1227083,1.1237037,1.1244481,1.1247774,1.1247741,1.1245753,1.12433,1.1241376,1.124079,1.1239383,1.1238835,1.1239412,1.124012,1.124016,1.1240163,1.1240802,1.1243205,1.1245785,1.1247692,1.1249187,1.1250104,1.1250489,1.1250994,1.1251571,1.1250861,1.1248591,1.1244714,1.1238782,1.123004,1.121929,1.1206927,1.1194825,1.1182559,1.1171913,1.1164701,1.1160352,1.1158683,1.1159282,1.1160154,1.1159918,1.1160461,1.1162368,1.1164255,1.1169977,1.1179626,1.1191483,1.1203256,1.1213093,1.1218567,1.122185,1.1223942,1.1225562,1.1227314,1.1229453,1.1231794,1.1234025,1.1235827,1.1237376,1.1238974,1.1240833,1.1243138,1.1245577,1.1248055,1.1250343,1.1252444,1.125425,1.125597,1.1257749,1.1259708,1.1261605,1.1263343,1.1264975,1.1266679,1.1268666,1.1271201,1.1274412,1.1278076,1.128216,1.1286371,1.1290246,1.1293244,1.1295371,1.1296943,1.1298218,1.1299536,1.130081,1.1301692,1.1301941,1.130157,1.1300967,1.1300113,1.1299596,1.1300507,1.1302707,1.1305672,1.1308639,1.1311116,1.1313009,1.1314545,1.1315956,1.13169,1.1317291,1.1316905,1.131558,1.131357,1.1311486,1.1309814,1.1308923,1.1308787,1.1309066,1.1309171,1.1308601,1.1307173,1.1305027,1.1302536,1.1300049,1.1297727,1.1295563,1.1293242,1.129075,1.1288218,1.1285987,1.1284391,1.1283182,1.1281917,1.1280298,1.1278105,1.1275536,1.1273003,1.1270721,1.12692,1.1267838,1.1266737,1.1265688,1.1264557,1.126332,1.1262058,1.126059,1.1258454,1.1255293,1.1250911,1.1245644,1.1240352,1.1235938,1.1232847,1.1230901,1.1229081,1.1226301,1.1221538,1.121496,1.1207222,1.1199899,1.1193954,1.1189082,1.1183559,1.1175389,1.1165091,1.115416,1.1145104,1.1140091,1.1139127,1.1141376,1.114636,1.1150923,1.1152108,1.1143041,1.1119157,1.1089139,1.106055,1.1042193,1.1036532,1.1036983,1.1032457,1.1025033,1.1016837,1.1015387,1.1018926,1.1025426,1.1029412,1.1027848,1.10206,1.1012301,1.1008098,1.1010789,1.1019217,1.1030496,1.1044431,1.1061363,1.1079648,1.1098828,1.1117206,1.1133366,1.1147512,1.1159785,1.1170937,1.118077,1.1189739,1.1198145,1.1206092,1.1213491,1.1219702,1.122422,1.1226778,1.1227958,1.1228297,1.1227427,1.1225462,1.1223197,1.1220998,1.1219418,1.1218152,1.1216283,1.1214151,1.1213138,1.1212618,1.1211417,1.1209648,1.1207691,1.1205623,1.1203415,1.1200333,1.1197648,1.1194849,1.1191647,1.1188296,1.1184591,1.1181418,1.117904,1.1177057,1.1175499,1.117379,1.1171715,1.1169232,1.116627,1.1163019,1.1159106,1.1154718,1.1149856,1.1145246,1.1141095,1.1137319,1.1133559,1.1129327,1.1124523,1.1120075,1.1116295,1.1112509,1.1107811,1.1102307,1.109626,1.1090002,1.1083984,1.1077852,1.107158,1.1065474,1.105969,1.1053956,1.1047543,1.1040609,1.1033332,1.102561,1.1017036,1.1007235,1.0996468,1.0985475,1.0974844,1.0964674,1.0954854,1.0945239,1.0935478,1.09253,1.0916708,1.0910295,1.0903863,1.0896993,1.089082,1.0885938,1.088184,1.0878859,1.0876234,1.087502,1.0875857,1.0877061,1.0878164
0.9880932,0.98962915,0.98929226,0.9891219,0.9902296,0.99528384,1.0077341,1.0313418,1.0636642,1.0953923,1.1164098,1.1249232,1.1268289,1.1250334,1.1218789,1.1188693,1.1174452,1.1174722,1.1181564,1.1191738,1.1204083,1.1216447,1.1227796,1.1237602,1.1245502,1.1251493,1.1254442,1.1255474,1.1255022,1.1253965,1.1253161,1.1253241,1.1252086,1.1251333,1.1251464,1.125195,1.125205,1.1252377,1.1252983,1.1254811,1.1256721,1.1258837,1.126052,1.126179,1.1262512,1.1262994,1.1263272,1.1261914,1.1259072,1.125495,1.1249408,1.1242397,1.1232629,1.1218448,1.1201972,1.1185524,1.1171495,1.1162765,1.1159848,1.1159284,1.1161221,1.1162946,1.1162579,1.1161864,1.1162179,1.1162174,1.1165452,1.1173272,1.118453,1.119655,1.1206845,1.1213734,1.121692,1.1218652,1.1220078,1.1222038,1.122458,1.1227351,1.1230047,1.1232076,1.123363,1.1235131,1.1236699,1.1238339,1.1239883,1.1241641,1.1243496,1.1245315,1.1247125,1.1248912,1.1250753,1.1252774,1.1254768,1.1256527,1.1257974,1.1259267,1.1260492,1.1262255,1.1265037,1.1268477,1.1272495,1.1276472,1.1279833,1.1281922,1.1282811,1.1283545,1.1284237,1.128572,1.1287718,1.1289399,1.1290059,1.1289434,1.1288044,1.1286694,1.1286451,1.1287973,1.1290945,1.1294508,1.1297582,1.1299601,1.130074,1.1301644,1.1302994,1.1304567,1.1306067,1.130688,1.1306417,1.1304877,1.1303138,1.1301923,1.1301677,1.1302238,1.1303031,1.1303294,1.1302483,1.1300652,1.1298239,1.1295837,1.1293794,1.1292026,1.1290401,1.1288216,1.128546,1.128248,1.1280012,1.127861,1.127774,1.1276836,1.1275468,1.127322,1.1270334,1.1267397,1.1264884,1.1263427,1.1263074,1.1263347,1.126349,1.1262677,1.1261246,1.1259569,1.125785,1.1255639,1.1252472,1.1248021,1.124249,1.123673,1.1231685,1.1227927,1.1225369,1.1222847,1.1219056,1.1212943,1.1204436,1.1193368,1.1182938,1.1175812,1.1171179,1.1166062,1.1159031,1.1150856,1.1142292,1.1135387,1.1131881,1.1130352,1.1131024,1.1134932,1.1139528,1.1141019,1.1134534,1.1114314,1.1085048,1.105622,1.1036606,1.1031325,1.1032026,1.1029111,1.1020939,1.101126,1.1007313,1.1011319,1.1019976,1.1025417,1.1024249,1.1016471,1.1005509,1.099848,1.0998609,1.1004763,1.101408,1.1026341,1.1043086,1.1062775,1.1084547,1.1106528,1.1127579,1.1145945,1.1160443,1.11725,1.1182872,1.1192042,1.119981,1.1206632,1.1213243,1.121882,1.1222863,1.122514,1.1225966,1.1225958,1.1224728,1.1222389,1.1219978,1.1218371,1.121736,1.1216567,1.121505,1.1213334,1.1212432,1.1212046,1.1211393,1.121031,1.1208732,1.1206572,1.1204107,1.1200793,1.1197877,1.119496,1.1191666,1.1188103,1.1184318,1.1181061,1.1178428,1.1175796,1.1172976,1.1170185,1.1167194,1.1163685,1.1159569,1.1155022,1.1149585,1.1143465,1.1136792,1.1130383,1.112421,1.1118128,1.1112375,1.1106503,1.1100855,1.1096431,1.1093575,1.1091342,1.1088197,1.1083794,1.1078496,1.1072783,1.1066973,1.1060771,1.1054335,1.104805,1.104208,1.1036108,1.1029375,1.1022103,1.1014428,1.1006355,1.0997542,1.098774,1.0977211,1.0966616,1.0956366,1.0946488,1.0936893,1.0927618,1.0918369,1.0908833,1.09009,1.0894086,1.0887913,1.0881648,1.0876212,1.0872002,1.0868301,1.0865569,1.0863094,1.0862023,1.0863049,1.0864356,1.0865905
0.98835903,0.9904689,0.99217653,0.99215513,0.9924889,0.99427533,1.0014125,1.0182962,1.0466058,1.0806324,1.1068851,1.1208665,1.126241,1.1259779,1.1239649,1.1220868,1.1211846,1.1215405,1.1222901,1.1229959,1.1237599,1.1245222,1.1251054,1.1256456,1.1262028,1.1266874,1.1269603,1.1270566,1.1270425,1.1269852,1.126936,1.1269677,1.1268791,1.1268094,1.1267781,1.1267719,1.1267278,1.126735,1.1268265,1.1270664,1.1273181,1.1275783,1.1277809,1.127914,1.1279597,1.1279444,1.1278799,1.1276233,1.1272427,1.126792,1.1262897,1.1256641,1.1247199,1.1232991,1.1211334,1.118856,1.1170006,1.1158631,1.1156194,1.1157069,1.1160069,1.1162653,1.1162275,1.1161038,1.1159257,1.1157427,1.1159136,1.1167005,1.1178923,1.119143,1.1202356,1.1209147,1.1211822,1.1212647,1.1213667,1.1215756,1.1218703,1.1222243,1.1225564,1.1227896,1.1229434,1.1230645,1.1231794,1.1232622,1.1233141,1.1234437,1.1236573,1.1239352,1.1241715,1.1244051,1.124649,1.1249195,1.125186,1.1254058,1.1255561,1.125649,1.1256782,1.125736,1.1259284,1.1262217,1.1265917,1.1269624,1.1272572,1.1274105,1.1274035,1.1273563,1.1273768,1.1275364,1.1277729,1.1279845,1.1280882,1.1280532,1.1279345,1.1278147,1.1278028,1.1279775,1.1282895,1.1286294,1.1288867,1.1290119,1.1290557,1.1291099,1.1292567,1.1294675,1.129678,1.1297996,1.1297824,1.1296539,1.1294878,1.1293874,1.1294193,1.1295481,1.129681,1.1297189,1.1295948,1.1293364,1.1290311,1.1287762,1.1286254,1.1285436,1.1284528,1.1282592,1.1279683,1.1276354,1.1273547,1.1272068,1.1271625,1.127134,1.1270466,1.1268327,1.1265213,1.1261995,1.125941,1.1258185,1.125814,1.1258636,1.1258572,1.1257638,1.1255896,1.1253467,1.1251154,1.1248562,1.1245116,1.1240388,1.1234486,1.1228232,1.1222575,1.1218038,1.121476,1.1211418,1.1206105,1.1197661,1.1185209,1.1172825,1.1163146,1.1156548,1.1151853,1.1146331,1.1139114,1.1132154,1.112686,1.1123798,1.1122699,1.1122067,1.1122556,1.1125225,1.1129036,1.1131829,1.1127683,1.1109772,1.1081645,1.1052082,1.103123,1.1025958,1.1027155,1.1025441,1.101723,1.1006362,1.1001211,1.1004376,1.1013174,1.1019762,1.1019522,1.1012726,1.100132,1.099173,1.0988666,1.0991595,1.0997257,1.100663,1.102188,1.104239,1.1067319,1.1094713,1.1120855,1.1142058,1.1158453,1.1171373,1.1182611,1.1193299,1.1201909,1.1209037,1.1215178,1.12198,1.1223297,1.1225624,1.1226695,1.1226816,1.1225672,1.122337,1.1220908,1.1219103,1.121789,1.1217251,1.1216549,1.1215837,1.1215606,1.1215441,1.1214821,1.1213717,1.1212246,1.1210423,1.1207944,1.1204507,1.1201298,1.119811,1.1194705,1.1191208,1.1187484,1.1184028,1.1180937,1.1178205,1.1175683,1.1172905,1.1169536,1.116525,1.1160153,1.115441,1.1147666,1.1140088,1.1131607,1.1123176,1.111493,1.1106904,1.109926,1.1091902,1.1085246,1.108047,1.1077578,1.1075239,1.1072166,1.1067941,1.1062889,1.1057427,1.1051731,1.104547,1.1038961,1.1032641,1.102664,1.1020539,1.101352,1.1005957,1.0997932,1.0989535,1.0980471,1.0970575,1.0960175,1.0949873,1.0939937,1.0930271,1.0920848,1.0911651,1.0902624,1.0893469,1.0885541,1.0878795,1.0872993,1.0867065,1.0861895,1.0857971,1.0854836,1.0852549,1.0850391,1.0849593,1.0850906,1.0852451,1.0854151
0.9880632,0.99040544,0.9931071,0.99441415,0.99428123,0.9944489,0.99779165,1.0092571,1.0322943,1.066242,1.0969728,1.1167369,1.1263132,1.1286775,1.127785,1.1262171,1.1258163,1.1263123,1.1270256,1.1274589,1.1273366,1.1274028,1.1276335,1.1279006,1.1281823,1.1285417,1.1287637,1.1288428,1.1288218,1.1287649,1.1287112,1.1287403,1.1286477,1.1285846,1.1285714,1.1285906,1.1285759,1.1286104,1.1287262,1.1289828,1.129242,1.1294961,1.1296804,1.1297822,1.1297774,1.1296828,1.1295146,1.1291314,1.1286482,1.1281528,1.1276956,1.1271558,1.1262302,1.124716,1.1221931,1.1191761,1.1167197,1.1153035,1.1150185,1.115288,1.1156638,1.1159725,1.115915,1.115726,1.1153097,1.1149714,1.1152971,1.1163497,1.1177988,1.1191988,1.1202774,1.120827,1.1209035,1.1208372,1.120816,1.1209712,1.1212518,1.1216234,1.1219772,1.1222172,1.1223679,1.1224728,1.1225339,1.1225392,1.122591,1.1227415,1.1230295,1.1234603,1.1238663,1.1242296,1.1246333,1.125089,1.1255233,1.1258606,1.1260481,1.1261048,1.1260786,1.1260674,1.1261495,1.1263463,1.1266627,1.1270162,1.1273109,1.1274883,1.1275573,1.1275663,1.127564,1.1276903,1.1278894,1.1280601,1.1281407,1.1281104,1.1280221,1.1279447,1.1279716,1.1281564,1.1284485,1.1287518,1.128967,1.1290534,1.129069,1.1291001,1.1292176,1.1293883,1.129542,1.1295902,1.1295279,1.1293705,1.1291811,1.1290743,1.129096,1.1292018,1.1293043,1.1293302,1.1292198,1.128997,1.1287326,1.1285324,1.1284423,1.1284074,1.1283331,1.12813,1.1278274,1.1274822,1.1271892,1.1270235,1.1269517,1.1268914,1.126791,1.1265814,1.1262797,1.1259692,1.1257228,1.1256068,1.1255894,1.1255982,1.1255045,1.1252649,1.1249436,1.1246002,1.1242758,1.1239399,1.123534,1.1230097,1.1223559,1.1216391,1.1209795,1.12043,1.1200236,1.1196394,1.11905,1.1181371,1.1170044,1.1159246,1.1151258,1.1145761,1.1141136,1.1134956,1.1127026,1.1120406,1.111671,1.1116176,1.1117656,1.1118397,1.111855,1.1119628,1.1121919,1.1124544,1.1121686,1.1106424,1.1080492,1.1050706,1.102916,1.1021925,1.1022317,1.1021218,1.1013081,1.1001067,1.0994146,1.0996644,1.1005931,1.1013441,1.1014361,1.1009538,1.0999038,1.0988542,1.0982836,1.0982008,1.0983379,1.0989013,1.1002226,1.102303,1.1051377,1.1083709,1.1114557,1.113967,1.1158447,1.1172386,1.1183592,1.1194403,1.1203794,1.1211269,1.1217399,1.1222321,1.1225734,1.1227399,1.1228262,1.1228516,1.122747,1.1225126,1.1222486,1.1220415,1.1218941,1.1218038,1.1217113,1.1216137,1.1215868,1.1215825,1.1215348,1.1214445,1.1213015,1.1211035,1.1208231,1.1204348,1.12007,1.1197195,1.1193631,1.1190023,1.1186247,1.1182826,1.1179824,1.1177224,1.1174927,1.1172322,1.1168978,1.116483,1.1159956,1.1154346,1.1147838,1.1140842,1.1132534,1.1123586,1.1114337,1.1105404,1.1096678,1.1087668,1.1079152,1.1072595,1.1068188,1.1064556,1.1060537,1.1055849,1.1050856,1.104563,1.1040084,1.1033913,1.1027452,1.1021205,1.101536,1.1009325,1.1002176,1.0994394,1.0986085,1.0977454,1.0968287,1.0958434,1.0948162,1.0938041,1.0928316,1.0918789,1.0909436,1.090009,1.0890865,1.0881615,1.0873249,1.086664,1.0861056,1.0855377,1.0850446,1.084672,1.0843699,1.0841458,1.0839443,1.0838962,1.0840569,1.0842351,1.0844169
0.98747027,0.98989636,0.99292326,0.9953872,0.9955014,0.99441636,0.9952971,1.0023519,1.0200205,1.0507226,1.0847151,1.1103935,1.1246727,1.130477,1.1315227,1.1308155,1.1306934,1.1311154,1.1314981,1.1312764,1.1308328,1.1303998,1.1301788,1.1301584,1.1302202,1.1303968,1.1305411,1.1306047,1.1306012,1.1305461,1.1304781,1.1304886,1.1303792,1.1303146,1.1303139,1.1303544,1.1303638,1.1304095,1.1305246,1.1307561,1.1309797,1.1312033,1.1313372,1.1313843,1.1313218,1.1311631,1.1309144,1.130436,1.1298712,1.1293368,1.1289167,1.1284461,1.127543,1.1259,1.1231756,1.1195209,1.1164912,1.114736,1.1144521,1.1148299,1.1152897,1.1156032,1.1154877,1.1151304,1.1144905,1.1141915,1.1147606,1.1161345,1.1178727,1.1193943,1.1203904,1.1207166,1.120631,1.1204159,1.120245,1.1202798,1.1205084,1.1208334,1.1211413,1.1213382,1.121443,1.1214664,1.1214353,1.1214267,1.1214794,1.1216376,1.1219523,1.1224599,1.1230502,1.1236242,1.1242114,1.1248319,1.1254184,1.1258594,1.1260823,1.126113,1.1260029,1.1258812,1.1258605,1.1259835,1.1262612,1.1266032,1.126903,1.1270872,1.1271629,1.1271913,1.1272447,1.1273425,1.1274705,1.1275529,1.127578,1.1275512,1.1275141,1.127507,1.1275785,1.1277652,1.1280274,1.128305,1.1285331,1.128676,1.1287649,1.1288428,1.128942,1.1290312,1.1290696,1.1290228,1.1288662,1.1286385,1.1284392,1.1283447,1.1283469,1.1284165,1.1284978,1.1285272,1.1284659,1.1283445,1.1281636,1.1280055,1.1279204,1.1278583,1.1277206,1.1274724,1.1271515,1.1268158,1.1265132,1.1263092,1.126177,1.1260623,1.1259303,1.1257467,1.125525,1.1252917,1.1250738,1.124936,1.1248538,1.1247652,1.1245828,1.1242704,1.1238599,1.1233804,1.1229236,1.1224945,1.1220217,1.1214423,1.1207085,1.1198899,1.1191676,1.1186439,1.1182903,1.1179359,1.1173782,1.1165482,1.1155696,1.1147134,1.1141655,1.1137967,1.1134002,1.112763,1.1119297,1.1113007,1.1110547,1.1111887,1.1115227,1.1116903,1.111656,1.1115923,1.11163,1.111752,1.1114097,1.1100299,1.1077358,1.1050007,1.102806,1.1019769,1.1019354,1.1017671,1.1009669,1.099802,1.0989041,1.0989461,1.0998657,1.1006687,1.1008408,1.1005292,1.0997097,1.0986972,1.097925,1.0975025,1.0972086,1.0973818,1.0983803,1.1004726,1.1037188,1.107487,1.1111922,1.1142055,1.1164134,1.117957,1.1190667,1.1200675,1.1209323,1.121685,1.1223034,1.1227745,1.1231076,1.1232908,1.1233065,1.1232892,1.1231627,1.1228883,1.1225688,1.122293,1.1220791,1.1219282,1.1217858,1.1216419,1.1215566,1.1214936,1.1213931,1.121248,1.1210737,1.1208501,1.1205323,1.1200888,1.1196611,1.1192465,1.118832,1.1184053,1.1179552,1.1175339,1.1171496,1.1168163,1.1165507,1.1162767,1.115985,1.1156645,1.1152393,1.1147288,1.1142033,1.1136413,1.1129603,1.1121722,1.1112791,1.1103556,1.1094146,1.1083782,1.107404,1.1066425,1.1060421,1.1055043,1.1049781,1.1044772,1.1040148,1.103524,1.1029851,1.1023905,1.1017559,1.1011336,1.1005462,1.099932,1.0991979,1.0984013,1.0975554,1.096683,1.0957755,1.0948061,1.0937915,1.092788,1.0918286,1.0908809,1.0899317,1.0890045,1.088066,1.0871066,1.0862644,1.0856106,1.0850601,1.0845058,1.0840245,1.0836651,1.0833734,1.0831534,1.0829525,1.0829084,1.0830749,1.0832503,1.0834157
0.9863555,0.9888472,0.9921277,0.9949236,0.99591845,0.99414694,0.9934095,0.99679005,1.0091784,1.0346334,1.0690157,1.100409,1.1205728,1.130285,1.1337423,1.1343231,1.1345654,1.1347325,1.1346943,1.1343882,1.1337479,1.1331303,1.1327046,1.1323944,1.1323342,1.1324748,1.1325188,1.1325121,1.1324828,1.132405,1.132293,1.1322367,1.1320589,1.1319464,1.1319214,1.131953,1.1319587,1.1319776,1.1320422,1.1322137,1.1323752,1.1325307,1.1325796,1.1325545,1.132446,1.1322757,1.1320128,1.1315002,1.1308856,1.1302971,1.129888,1.1294742,1.1286037,1.1268497,1.1239209,1.1198885,1.1164236,1.1144632,1.1141483,1.1145517,1.115035,1.1153171,1.1150832,1.1145535,1.113802,1.1135435,1.114315,1.1159711,1.1179471,1.1195266,1.1204264,1.1205279,1.1202931,1.1199462,1.119642,1.1195663,1.1196876,1.1198869,1.1200676,1.1201661,1.1201305,1.119999,1.1198933,1.1198218,1.1198001,1.1198857,1.1201392,1.1205916,1.1212409,1.1220758,1.1228871,1.1236725,1.1243596,1.1248813,1.1251423,1.1251575,1.1249862,1.1247811,1.1246871,1.1247604,1.1250106,1.1253579,1.1256905,1.125928,1.1260828,1.1261921,1.1263044,1.1264359,1.1265304,1.1265762,1.126579,1.126558,1.1265482,1.1265757,1.1266806,1.1268933,1.1271741,1.1274672,1.1277139,1.1278826,1.1279962,1.1280887,1.1281805,1.1282437,1.1282494,1.1281738,1.1280134,1.1278039,1.1276146,1.1275134,1.1275054,1.1275659,1.1276425,1.1276791,1.127641,1.1275464,1.1274343,1.1273077,1.1272032,1.1270957,1.1269193,1.1266456,1.1262884,1.125907,1.1255587,1.1253192,1.1251588,1.1250167,1.1248636,1.1246707,1.1244469,1.1242073,1.1239731,1.123799,1.1236513,1.1234612,1.123148,1.1226768,1.1220974,1.1214341,1.1208256,1.1203133,1.1197975,1.1192003,1.1184937,1.1177685,1.1171708,1.1167421,1.116432,1.1160777,1.1155066,1.1147208,1.1138952,1.1132829,1.1130172,1.1128726,1.1126044,1.1120234,1.1112206,1.1106589,1.1105165,1.1107862,1.1112075,1.1113939,1.1113162,1.1111004,1.110941,1.1108272,1.1104213,1.1091962,1.107138,1.1047368,1.1026347,1.1017311,1.1016021,1.1014012,1.1005673,1.0994473,1.0984226,1.0982335,1.0989981,1.0997792,1.1000087,1.099761,1.0991149,1.0982473,1.0974188,1.096718,1.0960382,1.0958352,1.0964844,1.0985513,1.1022003,1.106697,1.1112309,1.1148784,1.1175427,1.119312,1.1204317,1.1213274,1.1220369,1.1226263,1.123209,1.12365,1.1239438,1.1240889,1.1240537,1.1239997,1.1238209,1.1234727,1.1230319,1.1226358,1.1223183,1.1220808,1.1218545,1.1216183,1.1214314,1.121275,1.1210904,1.1208649,1.1206045,1.1202669,1.119816,1.119271,1.1187758,1.1182935,1.1177688,1.1172163,1.116622,1.1160307,1.1154509,1.1149209,1.1144872,1.1141787,1.113991,1.113843,1.113576,1.1132822,1.1130738,1.1127665,1.1123111,1.1116958,1.1108704,1.1099651,1.1089953,1.107903,1.1067986,1.1058695,1.1050922,1.1044292,1.1038048,1.1032293,1.1027124,1.1021879,1.1016496,1.1010793,1.1004779,1.0998822,1.0992836,1.0986323,1.0978656,1.0970626,1.0962312,1.0953691,1.0944622,1.0934844,1.0924824,1.0915191,1.0906105,1.0897074,1.0887898,1.0878593,1.0869297,1.0859847,1.0851474,1.0844929,1.0839427,1.0833905,1.0829133,1.0825593,1.0822742,1.0820558,1.081851,1.0818039,1.0819612,1.0821128,1.0822408
0.9853898,0.9876249,0.9910072,0.9939592,0.99559426,0.9939302,0.9921156,0.9927674,1.0003798,1.019629,1.0508273,1.0862958,1.1131542,1.1281152,1.134609,1.1365495,1.1371493,1.1371212,1.1368829,1.1364143,1.135715,1.135078,1.1346262,1.1343354,1.1342895,1.1343915,1.1344551,1.1344082,1.1342835,1.1341305,1.1339471,1.1338217,1.1335608,1.1333628,1.1332694,1.1332655,1.1332437,1.133225,1.1332641,1.133398,1.1334913,1.1335268,1.1334789,1.1334062,1.1333058,1.1331973,1.1330147,1.1325504,1.1319224,1.1313167,1.1309311,1.1305299,1.1295683,1.1276901,1.1244776,1.1202295,1.1164079,1.114346,1.1140544,1.1144536,1.1149533,1.115186,1.1147984,1.114138,1.1133094,1.1130168,1.1138663,1.1156659,1.1177849,1.1193655,1.1200918,1.1200829,1.1197474,1.1193488,1.1189883,1.1188114,1.1187942,1.118838,1.1188877,1.1188886,1.1187388,1.1184928,1.1182872,1.118104,1.11795,1.1178926,1.1180205,1.1183515,1.1188889,1.1196926,1.1206794,1.1216903,1.1225204,1.1230729,1.1233077,1.1232839,1.1230712,1.122858,1.1227264,1.1227679,1.1230392,1.1234262,1.1237817,1.1240475,1.124264,1.1244714,1.1246893,1.1248654,1.124958,1.1249948,1.1250174,1.125054,1.1251261,1.1252346,1.1254122,1.1256847,1.1260109,1.1263268,1.1265926,1.1268003,1.1269727,1.1271093,1.1272235,1.1272818,1.1272787,1.1272182,1.1271057,1.1269681,1.12683,1.1267337,1.12671,1.1267421,1.1267843,1.1267872,1.1267316,1.1266347,1.1265209,1.1263918,1.1262589,1.1261035,1.1258943,1.1255984,1.1252184,1.1247842,1.1243826,1.1240754,1.1238403,1.1236303,1.1234076,1.1231626,1.1229124,1.1226629,1.1224095,1.1221883,1.1219559,1.1216335,1.1211604,1.1205115,1.1197784,1.1190732,1.11849,1.118012,1.1175545,1.1170468,1.1164598,1.1158724,1.1154084,1.1150733,1.1147866,1.1143885,1.113744,1.1129293,1.1121705,1.1117039,1.1116221,1.111634,1.111481,1.1109977,1.1102973,1.1098585,1.1098353,1.1101766,1.1105266,1.1106473,1.1105876,1.1102474,1.1098981,1.1096443,1.1092086,1.1081132,1.106302,1.1041728,1.1022894,1.1012807,1.1010284,1.1008513,1.100042,1.0989239,1.0978773,1.0975206,1.0980747,1.0987725,1.0990214,1.0988156,1.0982066,1.0974069,1.0966201,1.0957546,1.0947495,1.0941613,1.0945424,1.0966139,1.1006119,1.1058033,1.1112621,1.1157007,1.1189971,1.1210659,1.1221908,1.122879,1.1233035,1.1236854,1.1241176,1.1245148,1.1247898,1.1248963,1.1248362,1.1247718,1.1245296,1.1240742,1.1234765,1.1229384,1.1225045,1.1221709,1.1218412,1.1214851,1.1211843,1.1209253,1.1206479,1.1203375,1.1199751,1.1195076,1.1189313,1.1182843,1.1177287,1.1171987,1.1165849,1.115903,1.1151636,1.1143961,1.1135948,1.1128097,1.1121235,1.1115998,1.111265,1.1110661,1.1109194,1.1109316,1.1111087,1.1112113,1.1110363,1.1106808,1.1101272,1.1094582,1.1086283,1.1075125,1.106224,1.105016,1.1040263,1.1032066,1.1024718,1.1018331,1.1012905,1.1007798,1.1002598,1.0997007,1.099098,1.0984952,1.0978861,1.0972186,1.0964351,1.0956211,1.0947948,1.0939474,1.0930656,1.092118,1.091146,1.090213,1.0893363,1.08846,1.0875614,1.0866408,1.0857108,1.0847642,1.0839202,1.0832565,1.0826962,1.0821347,1.0816499,1.0812908,1.0810037,1.0807791,1.0805612,1.0804989,1.0806333,1.0807467,1.0808271
0.9849544,0.9866791,0.98968077,0.99270356,0.99457395,0.9936003,0.9912801,0.990167,0.99382895,1.0067871,1.0322623,1.0679033,1.101187,1.1232219,1.1338181,1.137875,1.1390349,1.1386467,1.1379794,1.1372685,1.136626,1.1361467,1.1358006,1.1355782,1.1355805,1.1357577,1.1358888,1.135875,1.1357629,1.1355653,1.1353168,1.1351196,1.134768,1.1344668,1.1342788,1.1342115,1.1341476,1.1341035,1.1341395,1.1342251,1.1342527,1.1342428,1.1341553,1.1340699,1.1340055,1.1339873,1.1339192,1.1335654,1.1330261,1.1325305,1.1322253,1.1318228,1.1306758,1.1284305,1.1248603,1.1204383,1.1163194,1.1142182,1.1139582,1.1144083,1.1149645,1.1151652,1.11464,1.1138788,1.1130164,1.1127193,1.113481,1.1152062,1.1172624,1.118674,1.1193211,1.1192074,1.1188195,1.1184113,1.1180556,1.1178327,1.117728,1.117672,1.1176329,1.1175468,1.1173751,1.1170944,1.1168041,1.1165123,1.1162205,1.1160043,1.1159691,1.1161199,1.1164727,1.1170816,1.1179311,1.1189425,1.1198748,1.1204286,1.1205952,1.1204858,1.1202052,1.1199856,1.1198965,1.1200035,1.1203612,1.1208013,1.1211526,1.1214051,1.1216367,1.121904,1.1222034,1.1224476,1.1225812,1.122674,1.1227877,1.1229482,1.1231534,1.1233763,1.1236439,1.1239841,1.124371,1.1247311,1.125035,1.1252937,1.1255337,1.1257305,1.1258903,1.1259813,1.1260219,1.126037,1.1260089,1.1259362,1.125843,1.1257658,1.1257261,1.1257145,1.1256924,1.1256256,1.125515,1.1253848,1.1252477,1.1250944,1.1249357,1.1247439,1.1245075,1.1242096,1.1238401,1.123395,1.1229486,1.12256,1.122215,1.1218772,1.1215372,1.1212091,1.1209257,1.120691,1.1204367,1.1201633,1.1198305,1.1193881,1.1188287,1.1181587,1.1174681,1.1168485,1.1163635,1.1159922,1.1156509,1.1152663,1.1148081,1.1143495,1.1140001,1.113735,1.1134474,1.1129758,1.1122141,1.1113024,1.1105001,1.1100323,1.1099671,1.1100018,1.1098993,1.109526,1.108999,1.108753,1.1089084,1.109235,1.1094029,1.1094582,1.1094431,1.1090484,1.1085598,1.108208,1.1077703,1.1068134,1.1052339,1.1033002,1.1016124,1.1004397,1.1000078,1.0998411,1.0992086,1.0981895,1.0972493,1.0968316,1.0971811,1.0977418,1.0979687,1.0977683,1.0972025,1.0964186,1.0955895,1.0946901,1.0934279,1.0924649,1.092597,1.0946143,1.0988684,1.1046665,1.111014,1.1165583,1.120675,1.1231167,1.1241672,1.1244956,1.1244857,1.124583,1.1249256,1.1252956,1.1255517,1.1256232,1.1255946,1.1255102,1.1252165,1.1246839,1.1239986,1.1233721,1.1228505,1.1224263,1.1219949,1.1215296,1.1211177,1.1207552,1.1203908,1.1200039,1.1195542,1.1189833,1.1183293,1.1176066,1.1169653,1.1163456,1.1156703,1.1148895,1.1140628,1.1131825,1.112206,1.1111598,1.1101534,1.109277,1.1086161,1.1082146,1.1079787,1.1080024,1.1083764,1.1089017,1.1091022,1.1091185,1.1089272,1.1085389,1.1079109,1.1068931,1.1055696,1.1042057,1.1029975,1.1019485,1.1010745,1.1003476,1.0997648,1.0992267,1.0986915,1.0981243,1.0975189,1.0969172,1.0963068,1.0956333,1.0948408,1.0940231,1.0932021,1.0923624,1.0914873,1.0905459,1.0895851,1.088675,1.0878236,1.0869656,1.086076,1.0851549,1.084218,1.0832628,1.0824074,1.08173,1.0811539,1.0805739,1.0800735,1.0796999,1.0794019,1.0791622,1.0789227,1.0788354,1.0789373,1.0790055,1.0790365
0.98492944,0.98607033,0.9885004,0.99132866,0.99333113,0.9931003,0.99100554,0.9889002,0.9896076,0.9970094,1.0159545,1.0479388,1.0848515,1.1146396,1.1308296,1.1380239,1.1402605,1.1396339,1.1384206,1.1373265,1.136719,1.136447,1.1362679,1.136141,1.1361582,1.1363537,1.1365275,1.1365772,1.1365517,1.1364439,1.1362458,1.1360302,1.1356326,1.1352704,1.1350108,1.1348691,1.1347573,1.1346884,1.1346858,1.1347697,1.1348228,1.1348454,1.134783,1.1347129,1.1346937,1.1347821,1.1348448,1.1346254,1.1342247,1.1338356,1.1336142,1.133282,1.1321026,1.1294229,1.1252885,1.1205544,1.1162157,1.1141171,1.1139174,1.1144488,1.115087,1.1152744,1.1146557,1.1138291,1.1129408,1.1126089,1.1132722,1.114795,1.1165516,1.1177348,1.1182741,1.1180646,1.1176392,1.1172101,1.1168377,1.1166062,1.1164657,1.1163573,1.1162641,1.1161349,1.115984,1.1157541,1.1154828,1.1151865,1.1148691,1.114608,1.114505,1.1145568,1.1148024,1.1152978,1.1160376,1.1168747,1.1175939,1.1180136,1.1180575,1.1178466,1.1175344,1.1173353,1.1174097,1.1177034,1.1181417,1.1185774,1.1188858,1.1190958,1.1193129,1.1195955,1.119929,1.1202261,1.1204345,1.1206336,1.1208835,1.1211882,1.121525,1.12185,1.1221796,1.1225418,1.1229272,1.1232922,1.1236178,1.1239069,1.12417,1.1243937,1.1245618,1.1246586,1.1247226,1.1247805,1.1248193,1.1248237,1.1247935,1.1247467,1.1246947,1.1246331,1.1245471,1.1244335,1.124309,1.1241882,1.1240615,1.1238993,1.123709,1.1234965,1.1232703,1.1230009,1.1226678,1.1222681,1.1218317,1.1213999,1.120974,1.1205463,1.1201344,1.1197666,1.119466,1.1192126,1.1189159,1.1185634,1.1181195,1.1175561,1.1169016,1.1161889,1.1155076,1.1149378,1.1145089,1.114187,1.1138877,1.1135426,1.1131331,1.1127417,1.1124811,1.112304,1.1120758,1.1116172,1.1108301,1.1098971,1.1090884,1.1086032,1.108485,1.1084497,1.1083089,1.1079962,1.10764,1.107624,1.1079606,1.1082613,1.1083294,1.1082947,1.1081617,1.107751,1.1071916,1.1067672,1.106339,1.1055048,1.1041133,1.1023223,1.100682,1.0993366,1.0986923,1.0985057,1.0980712,1.0973583,1.0966196,1.0962029,1.0963993,1.0968608,1.0970696,1.0968721,1.096348,1.0955966,1.094732,1.093843,1.0923707,1.0910602,1.0908929,1.0927079,1.096986,1.1031797,1.1104522,1.1173339,1.1222653,1.1251314,1.1262053,1.1262621,1.1257869,1.125504,1.1256602,1.1260798,1.1263841,1.1264411,1.1263218,1.1261371,1.1257713,1.1251984,1.1244905,1.1238241,1.1232259,1.1227249,1.1222055,1.1216444,1.1211379,1.1206921,1.120264,1.1198237,1.119343,1.1187485,1.118063,1.1172996,1.1165931,1.1158845,1.1151273,1.1143186,1.1135099,1.1126337,1.1115872,1.1103349,1.1089923,1.1077176,1.1066859,1.1059788,1.1055108,1.1054025,1.1056527,1.1061784,1.1066827,1.1070881,1.1072853,1.1071196,1.1066912,1.1058009,1.1045501,1.1031935,1.1019042,1.1007357,1.0997665,1.0989501,1.0982995,1.097705,1.0971291,1.0965338,1.0959193,1.0953181,1.0947127,1.0940416,1.0932481,1.0924323,1.0916176,1.0907855,1.089915,1.0889773,1.088018,1.0871112,1.0862615,1.0854051,1.0845122,1.083582,1.0826304,1.0816584,1.0807822,1.0800741,1.07947,1.0788708,1.0783529,1.0779622,1.0776479,1.0773864,1.0771163,1.0769961,1.0770612,1.077086,1.0770746
