39.790676,39.833824,39.871376,39.90534,39.942818,39.978447,40.008385,40.04196,40.07776,40.109215,40.13476,40.161938,40.187656,40.20929,40.229294,40.253624,40.27851,40.299644,40.32191,40.34754,40.373253,40.396244,40.423004,40.451736,40.477066,40.497704,40.52128,40.54505,40.56585,40.587463,40.611443,40.633705,40.651962,40.671204,40.690475,40.70743,40.722454,40.741558,40.762836,40.782906,40.803726,40.829834,40.85693,40.880226,40.906364,40.936295,40.96409,40.98627,41.009506,41.0322,41.052242,41.071136,41.09252,41.112495,41.12828,41.143894,41.15937,41.172844,41.184235,41.198227,41.21479,41.231964,41.249535,41.272232,41.29632,41.316944,41.33761,41.36001,41.380203,41.396053,41.41349,41.431534,41.44731,41.46035,41.47374,41.48507,41.493225,41.500134,41.50712,41.51432,41.521603,41.53164,41.54486,41.559303,41.57325,41.59268,41.610313,41.621544,41.633163,41.647392,41.661633,41.673096,41.6845,41.695038,41.70235,41.70667,41.709366,41.70984,41.708954,41.707638,41.70535,41.70272,41.70059,41.69877,41.6973,41.697067,41.697998,41.70028,41.703712,41.707367,41.71112,41.71629,41.722477,41.72837,41.734657,41.74167,41.747337,41.750626,41.752766,41.75329,41.7525,41.751373,41.749134,41.746326,41.743896,41.741714,41.739723,41.739243,41.740532,41.74372,41.7489,41.75481,41.760414,41.766987,41.77363,41.779358,41.78489,41.791603,41.798683,41.805122,41.81233,41.819756,41.8257,41.82995,41.831734,41.829494,41.824444,41.818466,41.809937,41.80157,41.79605,41.79239,41.78938,41.786255,41.782738,41.775986,41.764896,41.75159,41.7381,41.72036,41.700523,41.68238,41.663887,41.64191,41.61988,41.600853,41.57727,41.54958,41.521954,41.49626,41.463642,41.428074,41.396454,41.367107,41.333145,41.2987,41.267696,41.229507,41.175735,41.105988,41.026115,40.935562,40.853107,40.794212,40.748177,40.69476,40.630386,40.55839,40.458237,40.296806,40.09986,39.916313,39.69045,39.441246,39.22331,39.05184,38.852085,38.64352,38.459534,38.28968,38.107693,37.946293,37.82472,37.702034,37.59459,37.52145,37.47721,37.4388,37.411446,37.390507,37.36415,37.31549,37.248116,37.180107,37.089954,36.98594,36.890495,36.808113,36.718903,36.66214,36.660423,36.71878,36.75993,36.668915,36.4263,35.910454,35.165207,34.39572,33.73323,33.02643,32.48095,32.235237,32.18479,32.404533,32.853836,33.31867,33.814526,34.375336,34.841606,35.131554,35.35467,35.46296,35.48117,35.475277,35.477577,35.48956,35.500904,35.49953,35.497696,35.49194,35.47817,35.460625,35.441956,35.42654,35.41387,35.396973,35.37998,35.367672,35.358837,35.353,35.348083,35.34133,35.33309,35.326115,35.325676,35.332695,35.342262,35.356213,35.372326,35.388252,35.412888,35.43829,35.455276,35.46906,35.47396,35.469154,35.461147,35.45065,35.44175,35.43966,35.442734,35.462944,35.518555,35.59987,35.69999,35.839172,35.98217,36.093422,36.191887,36.270493,36.322617,36.35487,36.384586,36.39862,36.395237,36.38556,36.3553,36.301563,36.23873,36.157013,36.067177,36.00257,35.97297,35.97328,36.00695,36.042652,36.056293,36.002686,35.84576,35.62904
39.85622,39.89794,39.934525,39.967857,40.00475,40.039738,40.068893,40.10075,40.134315,40.16382,40.188004,40.214138,40.239136,40.260155,40.2794,40.302807,40.326862,40.347466,40.369278,40.394863,40.420654,40.44339,40.46943,40.49741,40.522514,40.54357,40.56758,40.59191,40.61341,40.63603,40.661163,40.68453,40.70371,40.724037,40.74447,40.762356,40.77794,40.797565,40.81939,40.840046,40.861576,40.88851,40.916138,40.939507,40.9653,40.994133,41.02111,41.04376,41.068916,41.09291,41.112656,41.131416,41.15258,41.17246,41.188408,41.20437,41.22023,41.233765,41.244843,41.257996,41.273193,41.288902,41.30515,41.326385,41.34912,41.368675,41.388363,41.40986,41.429478,41.44509,41.462364,41.480247,41.495766,41.50842,41.521286,41.53221,41.540245,41.547314,41.55481,41.562622,41.57036,41.58065,41.594093,41.6088,41.62316,41.64081,41.656105,41.666054,41.67618,41.68937,41.70345,41.715324,41.727222,41.738613,41.746895,41.752003,41.75555,41.756863,41.756756,41.756203,41.754974,41.75354,41.752487,41.751762,41.75149,41.752327,41.754124,41.757298,41.761635,41.766087,41.770496,41.77642,41.783424,41.79013,41.7973,41.80536,41.812065,41.816246,41.819363,41.82097,41.821262,41.821182,41.82033,41.819122,41.818146,41.817345,41.81698,41.818077,41.820667,41.825233,41.831924,41.839287,41.846146,41.854286,41.862816,41.87052,41.878075,41.887157,41.896507,41.904755,41.91366,41.92282,41.930347,41.93596,41.93935,41.93888,41.935482,41.930984,41.924324,41.918064,41.914547,41.91313,41.912773,41.912216,41.91083,41.90638,41.897614,41.886345,41.87458,41.858734,41.840446,41.823196,41.80504,41.782856,41.76021,41.740547,41.71657,41.689217,41.66272,41.63845,41.607925,41.574753,41.545227,41.517815,41.485798,41.45289,41.42297,41.38797,41.32895,41.25157,41.17517,41.088104,41.008312,40.951073,40.907158,40.856743,40.797943,40.734146,40.64554,40.506966,40.33703,40.17302,39.976913,39.7592,39.55995,39.38688,39.192223,39.009796,38.861137,38.696068,38.487892,38.282085,38.122234,37.955276,37.805634,37.699844,37.627785,37.55706,37.498783,37.45426,37.408543,37.34562,37.27279,37.205173,37.12094,37.02021,36.923645,36.841652,36.757122,36.701355,36.69831,36.77019,36.833572,36.76333,36.530647,36.00521,35.22982,34.421143,33.72424,32.97915,32.399887,32.131065,32.062866,32.26229,32.704704,33.17911,33.67656,34.232353,34.70218,35.015438,35.27025,35.409824,35.447273,35.450584,35.454075,35.45901,35.46129,35.45117,35.444016,35.436058,35.419582,35.399727,35.37947,35.36371,35.351723,35.33728,35.32438,35.316326,35.31166,35.30995,35.308067,35.30327,35.298176,35.295944,35.2997,35.30818,35.32,35.339108,35.36296,35.38733,35.423374,35.461533,35.489944,35.51569,35.53215,35.535965,35.533817,35.527752,35.52156,35.520878,35.52466,35.544968,35.60125,35.68471,35.790043,35.932076,36.077896,36.196392,36.31134,36.411404,36.48635,36.545433,36.61596,36.677025,36.71396,36.741745,36.7515,36.731113,36.69062,36.628918,36.552578,36.494694,36.46991,36.477547,36.51445,36.54329,36.53946,36.44134,36.21452,35.924587
39.92171,39.961784,39.997116,40.029545,40.06549,40.09943,40.12741,40.15745,40.188667,40.216103,40.23892,40.26443,40.289047,40.30931,40.327194,40.349712,40.37334,40.393517,40.414825,40.440876,40.467285,40.48951,40.514957,40.542446,40.56746,40.5888,40.61373,40.63936,40.66194,40.684975,40.711082,40.73581,40.75608,40.777718,40.799576,40.81864,40.835045,40.8555,40.878155,40.89962,40.92196,40.94982,40.97815,41.0018,41.027527,41.055996,41.08258,41.104973,41.130463,41.154602,41.17393,41.192314,41.213127,41.232883,41.24895,41.265232,41.281544,41.295353,41.30636,41.31903,41.333355,41.348053,41.36328,41.38333,41.404926,41.42356,41.442314,41.462936,41.481953,41.497215,41.514214,41.53179,41.546944,41.559204,41.571617,41.582233,41.590256,41.59762,41.605732,41.614265,41.62252,41.633232,41.646904,41.661896,41.67727,41.691555,41.704113,41.714897,41.725346,41.737995,41.750603,41.76085,41.77137,41.78292,41.792492,41.798363,41.802723,41.804855,41.80555,41.805847,41.805763,41.805588,41.80563,41.806065,41.80706,41.809006,41.811607,41.815605,41.82073,41.82585,41.83081,41.83735,41.845024,41.852394,41.86033,41.869324,41.87699,41.882027,41.88617,41.888947,41.890408,41.891434,41.89209,41.892586,41.89315,41.89385,41.895206,41.897926,41.901768,41.907654,41.915695,41.924274,41.93221,41.941612,41.951622,41.960815,41.96986,41.980698,41.991707,42.001232,42.011322,42.021675,42.030304,42.03688,42.041527,42.04254,42.040604,42.03753,42.03269,42.02848,42.026924,42.02757,42.029594,42.03131,42.03177,42.029274,42.022514,42.01301,42.002808,41.98862,41.97174,41.955368,41.93755,41.915283,41.89218,41.871964,41.847626,41.82052,41.794968,41.771965,41.74338,41.712494,41.684967,41.659477,41.62926,41.59739,41.56808,41.540154,41.47853,41.392437,41.316822,41.23122,41.15406,41.09994,41.05919,41.01307,40.96026,40.903667,40.8251,40.704132,40.55737,40.41654,40.236908,40.037895,39.858635,39.697662,39.509933,39.324768,39.16926,39.01242,38.799557,38.569183,38.378475,38.181396,38.001884,37.869865,37.774555,37.678825,37.598434,37.537655,37.47814,37.40313,37.321938,37.248978,37.160065,37.056343,36.958843,36.877007,36.793953,36.741234,36.741753,36.815212,36.893005,36.841988,36.618965,36.08725,35.287807,34.446156,33.71949,32.9365,32.32724,32.04203,31.954504,32.13248,32.569542,33.056454,33.553566,34.102623,34.57601,34.913044,35.19741,35.365265,35.419804,35.4308,35.434284,35.431454,35.42447,35.40692,35.39459,35.38391,35.365234,35.34363,35.32242,35.306755,35.29567,35.283722,35.27472,35.270657,35.269985,35.272263,35.273407,35.270622,35.268044,35.26915,35.276943,35.2897,35.308025,35.331894,35.358658,35.39084,35.438065,35.489067,35.529366,35.56791,35.597515,35.611935,35.617397,35.61789,35.61666,35.619427,35.625835,35.648483,35.707394,35.794174,35.903954,36.052395,36.207516,36.337555,36.466682,36.58676,36.686794,36.773914,36.884823,36.993683,37.074432,37.144302,37.199493,37.21776,37.20423,37.164997,37.104362,37.052597,37.02626,37.02676,37.043987,37.040985,36.993374,36.826294,36.51705,36.15261
40.005768,40.043575,40.07714,40.10827,40.142952,40.175457,40.20175,40.229286,40.25761,40.282715,40.304035,40.328056,40.351578,40.37112,40.38821,40.408962,40.431137,40.45121,40.473156,40.500053,40.526897,40.54905,40.574364,40.601875,40.627304,40.649445,40.675888,40.703358,40.727436,40.751595,40.778748,40.804512,40.825882,40.84891,40.872448,40.893097,40.91076,40.93251,40.95643,40.979004,41.002388,41.031418,41.060738,41.08502,41.111122,41.139694,41.16634,41.189163,41.212753,41.234894,41.25359,41.271057,41.290817,41.309803,41.32557,41.34179,41.358337,41.37243,41.383514,41.395996,41.4098,41.42382,41.438293,41.45729,41.47768,41.495235,41.51289,41.532387,41.550552,41.56531,41.581806,41.598778,41.61322,41.624737,41.636284,41.646236,41.654003,41.661434,41.670055,41.679348,41.68827,41.69953,41.714424,41.72959,41.74181,41.753815,41.765697,41.776833,41.78736,41.799637,41.8115,41.82103,41.830933,41.84143,41.850006,41.855545,41.860588,41.863873,41.86552,41.86676,41.868076,41.869568,41.871143,41.873154,41.875877,41.87934,41.883095,41.888187,41.894283,41.9002,41.90586,41.91317,41.92168,41.929897,41.93879,41.948914,41.957687,41.96368,41.96886,41.9728,41.975456,41.977608,41.979866,41.982285,41.984657,41.98713,41.990562,41.995216,42.00052,42.007904,42.01745,42.027367,42.03647,42.04724,42.058853,42.069656,42.08023,42.09278,42.10529,42.11586,42.126816,42.138016,42.14747,42.154808,42.16066,42.16333,42.163185,42.161858,42.159332,42.157696,42.158432,42.16147,42.166103,42.1702,42.172565,42.17208,42.167446,42.159935,42.1515,42.139282,42.124157,42.10895,42.091698,42.069614,42.0463,42.02571,42.001213,41.974625,41.95034,41.928963,41.90283,41.87481,41.849804,41.826435,41.7994,41.77221,41.747696,41.717003,41.651314,41.56465,41.491783,41.41072,41.339806,41.292072,41.257446,41.218594,41.173744,41.125076,41.056477,40.95174,40.825783,40.70554,40.546696,40.36463,40.19557,40.04067,39.85853,39.67206,39.508774,39.348183,39.137802,38.89521,38.664875,38.445114,38.242104,38.08251,37.96379,37.84176,37.736336,37.655594,37.578247,37.48607,37.39144,37.308983,37.211052,37.100113,36.9982,36.913673,36.82869,36.77735,36.780006,36.84498,36.93441,36.907043,36.697838,36.166626,35.347458,34.472466,33.714737,32.87204,32.20319,31.890322,31.810978,31.97774,32.396915,32.881973,33.394447,33.957275,34.441704,34.79601,35.114166,35.31688,35.39128,35.410694,35.41301,35.39968,35.38096,35.355774,35.337204,35.322548,35.301727,35.27861,35.25675,35.241417,35.23146,35.222267,35.21753,35.217953,35.221916,35.229134,35.23432,35.23437,35.23524,35.240746,35.25376,35.27215,35.29852,35.33087,35.3649,35.404587,35.46547,35.53441,35.591484,35.64866,35.698593,35.73066,35.74948,35.7628,35.772644,35.784027,35.79771,35.828117,35.895226,35.990257,36.10932,36.27137,36.444664,36.59456,36.74611,36.895298,37.02946,37.152115,37.31846,37.493324,37.632736,37.757774,37.88138,37.964024,37.994884,37.990185,37.95194,37.89967,37.847137,37.794323,37.730522,37.64321,37.526627,37.244488,36.79882,36.323277
40.097816,40.133038,40.164574,40.19419,40.227448,40.258453,40.28305,40.308014,40.33349,40.356247,40.3758,40.397728,40.41972,40.438625,40.455414,40.474495,40.495262,40.5157,40.53898,40.566864,40.594124,40.61687,40.642754,40.67095,40.697273,40.72056,40.748577,40.777683,40.80307,40.828747,40.856964,40.883316,40.905293,40.929184,40.953987,40.975998,40.994812,41.01774,41.042717,41.06614,41.09028,41.120113,41.15015,41.17499,41.20153,41.23065,41.257256,41.27888,41.299725,41.319485,41.33723,41.353424,41.37173,41.38955,41.40468,41.420486,41.436962,41.451233,41.46247,41.47503,41.488785,41.50258,41.516663,41.53489,41.55425,41.570816,41.58747,41.60591,41.62327,41.63759,41.653572,41.6699,41.68358,41.6943,41.70494,41.714195,41.721664,41.729065,41.738087,41.748093,41.757698,41.769966,41.78524,41.799023,41.807682,41.819145,41.831604,41.842377,41.85255,41.864464,41.876183,41.88579,41.895767,41.905205,41.912163,41.916924,41.921707,41.92536,41.927765,41.930008,41.932823,41.936127,41.9394,41.94319,41.947853,41.95302,41.958023,41.964264,41.971325,41.977974,41.98427,41.99228,42.001553,42.010536,42.02027,42.03136,42.041054,42.047817,42.053783,42.05859,42.06215,42.065178,42.068764,42.072838,42.076836,42.080944,42.086285,42.092674,42.099266,42.107857,42.11857,42.1295,42.13945,42.151222,42.164017,42.17597,42.18759,42.201218,42.21451,42.225487,42.23667,42.2481,42.257923,42.265736,42.27258,42.276924,42.27874,42.279366,42.279503,42.28074,42.283882,42.289375,42.296593,42.302963,42.307198,42.30873,42.30639,42.301125,42.294693,42.284805,42.271873,42.2583,42.242226,42.221127,42.198425,42.17816,42.154224,42.128716,42.106018,42.086414,42.06284,42.037735,42.01539,41.99459,41.97172,41.950294,41.93122,41.89779,41.831474,41.74913,41.680443,41.605892,41.543095,41.503075,41.47567,41.4449,41.407726,41.365562,41.304356,41.210632,41.09797,40.99019,40.848923,40.679565,40.513695,40.35945,40.17659,39.988235,39.822075,39.651085,39.446472,39.20494,38.94584,38.710445,38.49062,38.310425,38.173798,38.030457,37.90302,37.803345,37.708305,37.598145,37.488533,37.395004,37.28645,37.165855,37.05641,36.966095,36.875072,36.82078,36.82118,36.870495,36.965004,36.95778,36.76174,36.234966,35.40328,34.501472,33.71643,32.80973,32.074806,31.730207,31.650564,31.820095,32.231434,32.70198,33.239048,33.828285,34.32766,34.693207,35.04284,35.278946,35.371338,35.39753,35.39698,35.37178,35.340656,35.308502,35.283802,35.265053,35.242817,35.219177,35.197746,35.18352,35.175156,35.168728,35.167862,35.17234,35.180557,35.192497,35.201744,35.20472,35.209103,35.218857,35.236656,35.26013,35.29358,35.33515,35.37822,35.42385,35.497726,35.585304,35.6603,35.737988,35.81157,35.865463,35.901627,35.932987,35.959957,35.985756,36.012352,36.05725,36.13871,36.246284,36.377464,36.55933,36.75643,36.92621,37.10148,37.28051,37.448677,37.609283,37.811302,38.027725,38.217194,38.404083,38.581413,38.702255,38.76615,38.795002,38.772774,38.707405,38.62325,38.509167,38.352745,38.168083,37.965965,37.57756,37.005745,36.404625
40.18237,40.21519,40.24485,40.273033,40.30494,40.334656,40.357994,40.380966,40.404095,40.424652,40.442207,40.462296,40.48304,40.501328,40.517647,40.536064,40.55666,40.577667,40.601814,40.630516,40.658497,40.682068,40.708855,40.73799,40.76523,40.789497,40.81861,40.848656,40.87475,40.901596,40.93088,40.95775,40.979794,41.003944,41.029343,41.052124,41.071575,41.09508,41.12049,41.1442,41.16854,41.198517,41.22866,41.253643,41.280235,41.3099,41.33577,41.353424,41.37278,41.39195,41.408554,41.4236,41.440697,41.457584,41.47215,41.487534,41.503876,41.518253,41.529587,41.542274,41.556152,41.569927,41.58377,41.601414,41.619965,41.63581,41.651726,41.66941,41.68625,41.70034,41.716026,41.73193,41.745117,41.755375,41.765495,41.7744,41.781822,41.78935,41.798843,41.809525,41.819725,41.83338,41.846977,41.857716,41.867004,41.87847,41.8905,41.900845,41.910576,41.92193,41.93318,41.942562,41.952324,41.961914,41.969112,41.97377,41.977367,41.980156,41.98294,41.98618,41.990387,41.995296,42.00007,42.005455,42.011883,42.018555,42.02459,42.031765,42.039597,42.0468,42.05346,42.061905,42.0717,42.081192,42.091415,42.103073,42.113335,42.120552,42.127052,42.132446,42.136597,42.14026,42.14479,42.1501,42.155315,42.16067,42.16741,42.17505,42.18254,42.19187,42.203224,42.21468,42.225014,42.23726,42.250584,42.263035,42.275078,42.289062,42.302467,42.313328,42.324318,42.335617,42.34556,42.35369,42.361397,42.367256,42.37092,42.373466,42.376217,42.380226,42.385643,42.393394,42.402977,42.411488,42.417484,42.421085,42.421127,42.41823,42.41391,42.4065,42.395985,42.384323,42.369934,42.3505,42.329144,42.30983,42.28706,42.263023,42.241974,42.22399,42.20264,42.179977,42.159954,42.14212,42.123123,42.10474,42.08733,42.062576,42.001556,41.920082,41.854973,41.78585,41.729633,41.695667,41.67385,41.649216,41.617493,41.579514,41.52289,41.435574,41.330357,41.22944,41.096474,40.93602,40.77619,40.623356,40.433495,40.238388,40.07247,39.89749,39.696938,39.459755,39.19395,38.943428,38.707954,38.516663,38.368587,38.211212,38.06868,37.955482,37.847397,37.72354,37.602055,37.49935,37.381763,37.252342,37.135185,37.038254,36.939648,36.879314,36.874344,36.90918,37.003643,37.008087,36.82026,36.295288,35.45453,34.533264,33.72601,32.772224,31.99477,31.626026,31.505217,31.681713,32.11054,32.568157,33.123512,33.731453,34.2426,34.620438,34.995308,35.25679,35.36238,35.392735,35.388298,35.35203,35.30986,35.2715,35.241653,35.219868,35.196987,35.17377,35.153793,35.141453,35.135063,35.13131,35.13366,35.141308,35.15281,35.16838,35.180756,35.18598,35.193054,35.205803,35.226803,35.25371,35.292038,35.339752,35.388847,35.43922,35.523087,35.625183,35.714752,35.8096,35.903824,35.97766,36.03027,36.079727,36.124977,36.166958,36.208557,36.270523,36.36801,36.48821,36.62999,36.831932,37.05092,37.232555,37.424644,37.625362,37.818764,38.012894,38.21286,38.424835,38.640392,38.884144,39.074993,39.177475,39.2436,39.292572,39.272327,39.186546,39.09039,38.953938,38.75418,38.509148,38.22412,37.78346,37.150642,36.44314
40.286877,40.316788,40.344166,40.370613,40.40075,40.429016,40.451263,40.472477,40.49263,40.510136,40.525944,40.544144,40.56334,40.58058,40.59581,40.61396,40.635323,40.657433,40.682327,40.712006,40.741272,40.766247,40.794624,40.825413,40.853996,40.87921,40.909615,40.941536,40.96959,40.99745,41.02725,41.05423,41.0763,41.100628,41.12646,41.149803,41.169716,41.193504,41.21895,41.242493,41.26648,41.295807,41.325226,41.349663,41.376274,41.403435,41.42533,41.440853,41.45861,41.476414,41.491615,41.505333,41.521103,41.536987,41.55094,41.565826,41.581963,41.59635,41.607704,41.620415,41.634277,41.64792,41.661423,41.67829,41.6958,41.710724,41.725693,41.742474,41.758682,41.77243,41.787712,41.803116,41.81579,41.825592,41.83531,41.844063,41.851593,41.859436,41.869545,41.88113,41.89223,41.905087,41.91719,41.926994,41.936363,41.9476,41.959183,41.969044,41.97827,41.98901,41.99973,42.008785,42.018295,42.027786,42.035065,42.039845,42.04367,42.046627,42.04942,42.05239,42.057774,42.064762,42.071243,42.07842,42.086792,42.09511,42.102283,42.110447,42.11903,42.12674,42.133755,42.142513,42.15261,42.162415,42.172874,42.184822,42.195366,42.202793,42.20955,42.215294,42.219883,42.22403,42.229355,42.235764,42.24214,42.248634,42.25668,42.265457,42.273727,42.283672,42.295532,42.307373,42.318016,42.33066,42.344437,42.35724,42.369522,42.38358,42.396797,42.407322,42.417896,42.428944,42.439026,42.44757,42.456387,42.46422,42.470253,42.475204,42.48123,42.48874,42.497074,42.507706,42.520428,42.53189,42.54039,42.547012,42.550568,42.551086,42.549828,42.546047,42.539124,42.53038,42.518692,42.50211,42.483265,42.46585,42.445126,42.423336,42.404484,42.388515,42.36979,42.349976,42.33228,42.316143,42.298176,42.28155,42.267715,42.248764,42.207634,42.145397,42.07734,42.009266,41.957207,41.928528,41.912403,41.894394,41.868404,41.83423,41.78074,41.696213,41.594666,41.4991,41.372272,41.2174,41.06076,40.908733,40.718456,40.51664,40.33954,40.16025,39.95561,39.71698,39.454483,39.190018,38.941017,38.743946,38.587463,38.41972,38.265633,38.141552,38.022503,37.886883,37.754883,37.643745,37.517532,37.37879,37.25242,37.14679,37.037403,36.966568,36.952354,36.972797,37.061657,37.070465,36.8879,36.36174,35.50994,34.567764,33.73648,32.72355,31.901058,31.520912,31.373596,31.542091,31.972279,32.426765,33.003483,33.631474,34.155884,34.549168,34.951157,35.23836,35.35614,35.388844,35.37756,35.326656,35.270523,35.22441,35.188324,35.163223,35.140266,35.11875,35.10208,35.093445,35.090588,35.091057,35.097965,35.109814,35.12554,35.14586,35.162437,35.17076,35.18132,35.197624,35.222008,35.252323,35.29541,35.349045,35.4041,35.45984,35.553337,35.66966,35.774677,35.888077,36.005424,36.10246,36.174713,36.246643,36.31552,36.379166,36.441444,36.52732,36.646446,36.782867,36.943928,37.166016,37.400036,37.590202,37.79333,38.011253,38.216957,38.399406,38.614326,38.867798,39.11774,39.334377,39.510292,39.6196,39.691433,39.74105,39.735477,39.67326,39.591232,39.446568,39.193733,38.866646,38.495625,37.964214,37.24968,36.473343
40.40857,40.435715,40.4609,40.485477,40.514046,40.541412,40.56317,40.583237,40.60125,40.616226,40.629936,40.645916,40.663284,40.679424,40.69391,40.7119,40.73385,40.756844,40.78267,40.81394,40.845306,40.87233,40.902916,40.935722,40.96601,40.993202,41.025364,41.058624,41.087543,41.11544,41.144814,41.17121,41.192818,41.21668,41.242035,41.264885,41.284275,41.307182,41.33164,41.35435,41.377396,41.405476,41.4337,41.45723,41.482147,41.50556,41.5237,41.538193,41.554558,41.570847,41.584732,41.59733,41.61212,41.627396,41.64103,41.655624,41.671577,41.685844,41.697014,41.709454,41.722954,41.736145,41.7491,41.76496,41.781235,41.795105,41.80905,41.82483,41.840256,41.853493,41.86816,41.88289,41.894993,41.90439,41.91391,41.922813,41.930733,41.939045,41.949867,41.962234,41.97386,41.98484,41.99568,42.005714,42.01498,42.02587,42.036934,42.046288,42.054993,42.06512,42.075275,42.083946,42.093163,42.10251,42.109894,42.115005,42.11965,42.123497,42.12687,42.13022,42.136307,42.14471,42.153053,42.162025,42.172318,42.18224,42.19053,42.19964,42.208885,42.216984,42.22424,42.23311,42.24318,42.252934,42.263252,42.275,42.285362,42.2927,42.299454,42.305313,42.310127,42.31456,42.32039,42.327515,42.334633,42.34189,42.35083,42.360367,42.36908,42.37931,42.391357,42.403336,42.414085,42.42691,42.44082,42.45363,42.465767,42.47944,42.492035,42.501938,42.511932,42.522705,42.53306,42.542206,42.55246,42.562668,42.571457,42.579224,42.58898,42.600433,42.612045,42.62597,42.642357,42.65741,42.66906,42.679577,42.68777,42.692852,42.69571,42.696815,42.694824,42.690224,42.68255,42.670403,42.655617,42.64135,42.623924,42.605377,42.58931,42.575745,42.55986,42.543015,42.527794,42.513634,42.496727,42.480015,42.466057,42.45023,42.425594,42.38604,42.3322,42.276993,42.232124,42.204346,42.1858,42.16363,42.134212,42.099274,42.04899,41.975536,41.883923,41.787354,41.661163,41.50734,41.351288,41.19908,41.009716,40.804695,40.6193,40.432762,40.22016,39.979263,39.722763,39.45308,39.193626,38.988503,38.82896,38.65672,38.496094,38.36459,38.237396,38.092163,37.950745,37.831604,37.696632,37.547554,37.410065,37.293396,37.169815,37.083775,37.056305,37.062737,37.143444,37.150883,36.96792,36.43631,35.5698,34.60458,33.749084,32.675278,31.807411,31.418571,31.252716,31.396545,31.819351,32.29138,32.889988,33.53724,34.077614,34.490303,34.920464,35.232376,35.360474,35.39324,35.37153,35.302116,35.22906,35.172306,35.128258,35.09987,35.07773,35.05951,35.048492,35.04583,35.048203,35.054226,35.06628,35.082363,35.10205,35.12681,35.147453,35.158905,35.173035,35.19281,35.220108,35.253044,35.299393,35.356865,35.415977,35.476128,35.575935,35.702904,35.82203,35.95292,36.09371,36.21591,36.310444,36.409756,36.509224,36.601944,36.692696,36.811485,36.959064,37.115204,37.301945,37.54113,37.780285,37.97293,38.179596,38.405487,38.617203,38.78936,39.025497,39.316742,39.582542,39.74582,39.90048,40.02528,40.10372,40.149734,40.15049,40.100952,40.018166,39.869225,39.572342,39.164608,38.712498,38.085728,37.296295,36.480953
40.521286,40.54688,40.57081,40.59434,40.62243,40.64987,40.671738,40.69149,40.7091,40.723152,40.735023,40.74902,40.764606,40.779633,40.79367,40.81112,40.832706,40.855865,40.882904,40.916378,40.950424,40.980003,41.013367,41.048454,41.08037,41.10955,41.142715,41.174934,41.201603,41.227737,41.25535,41.28028,41.30077,41.3234,41.34738,41.36889,41.387077,41.408592,41.43154,41.452904,41.474804,41.501724,41.529083,41.55201,41.574345,41.595398,41.612537,41.62657,41.642174,41.657593,41.670815,41.682976,41.697647,41.71308,41.726913,41.74166,41.757645,41.77171,41.7825,41.79438,41.807198,41.819687,41.83194,41.846783,41.86196,41.874947,41.888115,41.903038,41.9177,41.93035,41.94426,41.958183,41.969685,41.978706,41.98816,41.997383,42.005768,42.014507,42.025925,42.0384,42.04933,42.058907,42.0691,42.079365,42.08844,42.09899,42.10963,42.11862,42.126965,42.136673,42.146446,42.154816,42.16382,42.173077,42.18061,42.18611,42.1914,42.19627,42.20086,42.205673,42.212227,42.221058,42.230705,42.241028,42.25277,42.26389,42.27302,42.282845,42.292564,42.300884,42.308243,42.317078,42.32692,42.33635,42.3463,42.357536,42.367462,42.37458,42.381264,42.3872,42.39216,42.396767,42.402847,42.41025,42.417618,42.425175,42.43448,42.44428,42.45308,42.46326,42.47519,42.487076,42.497726,42.510456,42.524178,42.536667,42.548347,42.561295,42.573074,42.58229,42.591797,42.602432,42.613167,42.623016,42.63468,42.64705,42.658257,42.66854,42.68154,42.696365,42.710808,42.727604,42.74726,42.765617,42.78025,42.794556,42.80732,42.816963,42.82396,42.83001,42.833023,42.832726,42.829296,42.821953,42.8116,42.80079,42.786953,42.77172,42.758263,42.746887,42.73341,42.719048,42.706165,42.694622,42.68036,42.663673,42.646965,42.631607,42.609207,42.5809,42.55329,42.518623,42.482845,42.453224,42.4271,42.39409,42.355568,42.316925,42.269512,42.210995,42.13403,42.037827,41.91307,41.759678,41.603127,41.450783,41.26139,41.05783,40.874077,40.680817,40.463703,40.224068,39.971138,39.704662,39.43943,39.22392,39.062904,38.88793,38.723164,38.58689,38.453728,38.300514,38.150497,38.02379,37.880173,37.720673,37.57196,37.444183,37.306347,37.204445,37.163597,37.16038,37.234497,37.237427,37.049194,36.509243,35.62568,34.637512,33.761307,32.640717,31.734024,31.331593,31.15184,31.266886,31.682476,32.183254,32.796726,33.45976,34.01876,34.451054,34.90664,35.239708,35.37599,35.40769,35.374817,35.287018,35.19748,35.12879,35.076347,35.04538,35.024708,35.010628,35.00638,35.01068,35.01883,35.030373,35.046734,35.065704,35.087673,35.114925,35.137993,35.151466,35.16813,35.19034,35.219353,35.25346,35.300583,35.358536,35.418297,35.479866,35.58046,35.71159,35.839775,35.982613,36.141438,36.28491,36.39939,36.52531,36.65641,36.78025,36.902008,37.056225,37.23427,37.41079,37.619434,37.86815,38.104507,38.29445,38.499535,38.72554,38.944283,39.136734,39.396008,39.688286,39.930923,40.072624,40.222515,40.356285,40.439835,40.487316,40.47889,40.408398,40.297478,40.134987,39.805084,39.336224,38.824074,38.134636,37.301327,36.464844
40.62972,40.65487,40.678467,40.702564,40.73197,40.76068,40.783085,40.80351,40.82167,40.83569,40.846848,40.8591,40.871983,40.884354,40.896378,40.912315,40.932934,40.955624,40.98426,41.02054,41.058113,41.09151,41.13002,41.170433,41.20556,41.235153,41.267136,41.29431,41.313675,41.33452,41.35743,41.378956,41.397186,41.417503,41.439537,41.459824,41.477318,41.499268,41.521732,41.54106,41.56174,41.58779,41.61482,41.637665,41.65882,41.679245,41.696556,41.710564,41.726105,41.74152,41.754894,41.767406,41.782852,41.799255,41.81383,41.82918,41.845463,41.85933,41.869583,41.880688,41.892582,41.904205,41.91562,41.92948,41.943768,41.956123,41.96872,41.983032,41.997055,42.00908,42.022125,42.035065,42.04579,42.054337,42.063683,42.07316,42.081863,42.090893,42.103035,42.114723,42.122536,42.131447,42.141632,42.151688,42.16056,42.170853,42.181263,42.190094,42.198296,42.207855,42.217495,42.225773,42.23467,42.243965,42.251785,42.25772,42.263702,42.269535,42.275116,42.280838,42.288567,42.29812,42.307835,42.31913,42.332024,42.34401,42.35376,42.364098,42.374138,42.382584,42.389977,42.39869,42.408253,42.4173,42.42678,42.437447,42.446934,42.453888,42.46061,42.46679,42.472054,42.476917,42.483223,42.490776,42.498264,42.505974,42.515385,42.525192,42.53394,42.543938,42.55561,42.567245,42.577682,42.590164,42.603508,42.615467,42.626495,42.638527,42.649384,42.65796,42.66708,42.67772,42.688904,42.69946,42.71238,42.726654,42.739998,42.752457,42.768288,42.786118,42.80313,42.82251,42.84517,42.866646,42.884174,42.902184,42.91947,42.9336,42.944607,42.95548,42.963394,42.967243,42.967915,42.965126,42.958946,42.95141,42.940826,42.92845,42.917152,42.907524,42.89602,42.88385,42.873207,42.864037,42.852867,42.839752,42.826126,42.808464,42.784626,42.758938,42.73619,42.70669,42.675106,42.647785,42.622757,42.591118,42.553673,42.51533,42.46788,42.40709,42.33715,42.26549,42.158485,42.00973,41.84929,41.69819,41.51125,41.31066,41.12937,40.937775,40.72379,40.48915,40.241714,39.977406,39.71278,39.494904,39.325348,39.1396,38.96694,38.827198,38.688366,38.527283,38.368088,38.23257,38.078804,37.907257,37.74608,37.60639,37.453655,37.33493,37.280716,37.27401,37.341255,37.334793,37.138596,36.587776,35.683838,34.670345,33.773434,32.61492,31.67305,31.251778,31.05766,31.151253,31.563477,32.085754,32.70299,33.382313,33.96801,34.42038,34.901787,35.256203,35.40085,35.43152,35.38742,35.281162,35.175034,35.09339,35.032112,34.998947,34.98024,34.971107,34.974846,34.987297,35.002026,35.019497,35.039787,35.060703,35.083694,35.11193,35.13614,35.15084,35.16929,35.193176,35.222954,35.25702,35.302856,35.35824,35.415146,35.474304,35.57007,35.699043,35.830864,35.97962,36.15028,36.310295,36.441765,36.59269,36.75593,36.912964,37.068413,37.26046,37.47497,37.679802,37.90384,38.154213,38.383934,38.569695,38.77233,38.996803,39.22529,39.45339,39.759434,40.03022,40.190422,40.338245,40.497055,40.63092,40.71676,40.76207,40.745007,40.658607,40.526237,40.339867,39.96018,39.42456,38.86465,38.135963,37.280037,36.432453
40.750412,40.77734,40.802902,40.82912,40.85925,40.886658,40.90709,40.927055,40.945904,40.961277,40.973793,40.98813,41.00273,41.015034,41.02424,41.038303,41.058586,41.081837,41.112534,41.153923,41.1984,41.237938,41.281006,41.31984,41.348244,41.3715,41.396217,41.417557,41.433636,41.45176,41.472458,41.492508,41.509754,41.528786,41.54911,41.56782,41.584614,41.603535,41.62224,41.639153,41.658287,41.68348,41.710457,41.73366,41.75654,41.77778,41.794792,41.809105,41.82496,41.840767,41.8547,41.86804,41.88486,41.902817,41.9186,41.934933,41.95169,41.965298,41.974876,41.98503,41.99578,42.006355,42.01686,42.02978,42.04329,42.05511,42.06727,42.081024,42.09429,42.10543,42.117332,42.128975,42.138683,42.146652,42.15589,42.165665,42.174706,42.184265,42.19522,42.204693,42.211105,42.219543,42.22947,42.23916,42.247787,42.257805,42.267998,42.27672,42.284897,42.29441,42.303967,42.31215,42.320953,42.330276,42.338356,42.34473,42.3515,42.35839,42.364998,42.371666,42.3806,42.390816,42.400482,42.4125,42.4263,42.439034,42.44935,42.460197,42.470627,42.479294,42.4868,42.49551,42.50483,42.513477,42.522457,42.53254,42.54164,42.548523,42.555458,42.562084,42.567818,42.573067,42.57964,42.58723,42.59461,42.60222,42.61142,42.62089,42.629257,42.638733,42.649773,42.660797,42.670715,42.682552,42.695023,42.70598,42.71589,42.726524,42.736088,42.743813,42.752434,42.76307,42.774788,42.786118,42.800262,42.816353,42.831783,42.84635,42.864883,42.885597,42.90512,42.927063,42.952698,42.977333,42.997902,43.01989,43.04206,43.06108,43.076584,43.09289,43.10646,43.115234,43.120876,43.12372,43.122795,43.11944,43.112953,43.10418,43.09558,43.088104,43.079002,43.069633,43.062027,43.056206,43.049606,43.04189,43.0333,43.01905,42.99694,42.971268,42.947487,42.919613,42.89147,42.86727,42.84423,42.81465,42.778572,42.740574,42.692688,42.629395,42.560745,42.49855,42.407112,42.282295,42.142876,41.99685,41.812527,41.6136,41.434372,41.244972,41.028763,40.806664,40.597527,40.333595,40.058144,39.833817,39.654526,39.46095,39.279503,39.128304,38.976234,38.797073,38.620804,38.474068,38.30837,38.12295,37.94744,37.794777,37.625977,37.487587,37.41806,37.41593,37.476,37.453392,37.245094,36.67977,35.74955,34.705322,33.786663,32.58986,31.609707,31.164598,30.954666,31.024658,31.432362,31.976715,32.595737,33.29274,33.909615,34.385468,34.89785,35.279778,35.43681,35.466072,35.40854,35.28069,35.155155,35.056503,34.984436,34.949806,34.934334,34.932106,34.946335,34.969116,34.99194,35.016144,35.039993,35.0617,35.084106,35.11132,35.134926,35.14971,35.168903,35.193497,35.22302,35.255894,35.298546,35.349064,35.40113,35.45617,35.545372,35.671196,35.806767,35.9629,36.14923,36.33166,36.486504,36.671715,36.879066,37.08111,37.280464,37.527702,37.783203,38.00161,38.231342,38.485397,38.712654,38.886158,39.08353,39.30891,39.54974,39.81263,40.126705,40.36595,40.483864,40.629463,40.782566,40.904808,40.98325,41.013916,40.975204,40.862846,40.703346,40.470486,40.019646,39.41321,38.811836,38.06471,37.205208,36.350594
40.854393,40.88481,40.913193,40.939743,40.968586,40.99397,41.01305,41.033276,41.053917,41.07202,41.08728,41.105457,41.124386,41.140057,41.15119,41.166725,41.188522,41.213806,41.248,41.292454,41.338364,41.378365,41.419556,41.452057,41.47197,41.488274,41.505947,41.524033,41.540993,41.5598,41.581375,41.602005,41.61935,41.638184,41.657616,41.674103,41.687172,41.69971,41.712776,41.727234,41.744583,41.76883,41.79582,41.819576,41.84532,41.86962,41.88809,41.90249,41.918587,41.93476,41.949215,41.963364,41.981483,42.00087,42.017757,42.034996,42.052177,42.065598,42.07469,42.0842,42.09419,42.104095,42.114075,42.126507,42.139656,42.151215,42.163166,42.17659,42.189198,42.19941,42.21012,42.220436,42.229122,42.236504,42.24555,42.25551,42.264786,42.274746,42.28395,42.291466,42.298187,42.306297,42.31573,42.32502,42.33335,42.34305,42.352978,42.36155,42.369675,42.37913,42.388557,42.39658,42.405212,42.41443,42.4226,42.42926,42.436646,42.44438,42.45182,42.459274,42.46904,42.479828,42.489708,42.501877,42.51612,42.529495,42.540283,42.55163,42.562508,42.571526,42.579346,42.588318,42.59771,42.606255,42.61506,42.62494,42.634026,42.641148,42.648613,42.656013,42.66249,42.668335,42.67536,42.68308,42.690323,42.697765,42.706627,42.715553,42.723297,42.73197,42.741997,42.751972,42.76097,42.7716,42.782562,42.79194,42.800232,42.80896,42.816822,42.823418,42.831253,42.841583,42.8535,42.86526,42.880127,42.897377,42.914223,42.93026,42.950672,42.9734,42.994713,43.01846,43.04618,43.073082,43.095913,43.120987,43.147087,43.170128,43.18947,43.210564,43.22928,43.24269,43.253174,43.26164,43.266106,43.26712,43.264946,43.26002,43.25437,43.24926,43.24278,43.236526,43.23237,43.230415,43.22912,43.227493,43.22464,43.218357,43.20256,43.179173,43.155365,43.12905,43.10334,43.081215,43.059685,43.031193,42.995346,42.956917,42.90795,42.84286,42.770386,42.701534,42.61377,42.508842,42.39402,42.25985,42.086388,41.897263,41.72671,41.54635,41.3292,41.1155,40.94065,40.692787,40.416653,40.182476,39.994125,39.79147,39.59587,39.4256,39.254333,39.050175,38.85058,38.688393,38.506775,38.30712,38.120354,37.95777,37.776226,37.623764,37.545193,37.550175,37.602486,37.56127,37.33928,36.759747,35.80487,34.73345,33.79859,32.571648,31.559418,31.092485,30.86847,30.9156,31.313766,31.87106,32.49263,33.206314,33.850037,34.34604,34.888573,35.295822,35.463898,35.499058,35.43215,35.284718,35.14213,35.026535,34.94493,34.911022,34.900135,34.905983,34.931427,34.964684,34.99534,35.025394,35.05127,35.071983,35.091743,35.115395,35.135933,35.14885,35.16674,35.18991,35.217247,35.24726,35.28469,35.328506,35.37464,35.42487,35.509556,35.634647,35.774372,35.94078,36.147835,36.358932,36.54329,36.770386,37.030014,37.283813,37.534378,37.826378,38.101494,38.31768,38.543217,38.803528,39.031586,39.18226,39.369896,39.599785,39.85369,40.133785,40.4187,40.633892,40.76497,40.897243,41.028,41.127083,41.18655,41.189148,41.116375,40.9712,40.786034,40.47191,39.935932,39.2902,38.67302,37.92997,37.080013,36.22513
40.930763,40.96457,40.994354,41.017323,41.043373,41.069176,41.090904,41.113907,41.137917,41.159058,41.17651,41.196144,41.217102,41.237114,41.257057,41.278595,41.303337,41.331223,41.370636,41.41311,41.449585,41.48024,41.51255,41.541714,41.56326,41.57966,41.597374,41.615334,41.63223,41.65195,41.6745,41.69542,41.712376,41.730774,41.74983,41.76366,41.768974,41.775143,41.784096,41.79615,41.811653,41.834793,41.861652,41.885834,41.912643,41.941555,41.964676,41.978462,41.994396,42.010635,42.025253,42.039806,42.05863,42.078827,42.09632,42.11405,42.131454,42.144806,42.153725,42.16307,42.17292,42.182747,42.19265,42.20506,42.2182,42.229736,42.24164,42.25493,42.267105,42.27656,42.28628,42.2955,42.30332,42.310123,42.31888,42.328854,42.33821,42.34813,42.35722,42.364548,42.371056,42.378853,42.38791,42.396843,42.40486,42.414192,42.423798,42.432144,42.440063,42.449333,42.458565,42.46636,42.474724,42.48371,42.49183,42.498627,42.50638,42.51467,42.522686,42.530697,42.541004,42.552345,42.562748,42.574623,42.589035,42.603065,42.614265,42.6261,42.63743,42.646835,42.655098,42.664547,42.674324,42.683105,42.692123,42.70223,42.711678,42.719322,42.727573,42.735977,42.74338,42.749966,42.757652,42.765728,42.77305,42.78047,42.78914,42.79762,42.804745,42.81263,42.82154,42.83027,42.838135,42.84725,42.85638,42.863914,42.87039,42.876984,42.88296,42.888268,42.89508,42.904728,42.91637,42.9281,42.94316,42.96093,42.978508,42.995415,43.016945,43.04091,43.063316,43.088066,43.11695,43.145172,43.16932,43.196358,43.225075,43.250957,43.27307,43.29783,43.320583,43.337685,43.352154,43.36535,43.37444,43.37927,43.3809,43.37946,43.376526,43.373634,43.369637,43.36631,43.36537,43.366947,43.37056,43.374672,43.37727,43.377304,43.36882,43.35225,43.334038,43.311546,43.287403,43.265778,43.24546,43.217896,43.182045,43.142708,43.09175,43.023026,42.946304,42.87397,42.781166,42.6687,42.552383,42.435043,42.28413,42.118187,41.966507,41.805428,41.597023,41.37803,41.193382,40.98526,40.736908,40.493755,40.296272,40.076668,39.859608,39.67002,39.480515,39.253906,39.03134,38.850037,38.648163,38.434563,38.241463,38.072987,37.88286,37.725227,37.646965,37.65377,37.697403,37.640694,37.406548,36.81597,35.843136,34.752853,33.808453,32.560722,31.525688,31.0429,30.807632,30.834492,31.218388,31.777496,32.403275,33.13212,33.795647,34.30543,34.873207,35.29745,35.470943,35.522316,35.45244,35.28952,35.13485,35.005844,34.917774,34.886436,34.880688,34.89442,34.93004,34.97233,35.009468,35.043884,35.070473,35.08925,35.10542,35.12437,35.14057,35.150383,35.165592,35.18576,35.209496,35.235596,35.26688,35.303432,35.343582,35.389122,35.472427,35.599518,35.742897,35.920853,36.150383,36.39171,36.606873,36.876526,37.18766,37.49132,37.794785,38.101036,38.366226,38.580864,38.800827,39.067223,39.293976,39.416096,39.590664,39.825962,40.092155,40.375427,40.636543,40.842266,40.99357,41.114166,41.222046,41.2955,41.33235,41.30379,41.195267,41.019005,40.815857,40.39782,39.776527,39.13079,38.522255,37.789116,36.945377,36.095474
41.018127,41.05081,41.07714,41.099663,41.126022,41.153297,41.17742,41.20363,41.231926,41.257336,41.278168,41.301033,41.324883,41.34762,41.370567,41.397785,41.427685,41.456978,41.492928,41.53203,41.566322,41.594185,41.623722,41.651314,41.672436,41.688007,41.704903,41.722427,41.739464,41.76021,41.78383,41.805176,41.82191,41.840263,41.855473,41.862137,41.860542,41.86229,41.8687,41.87847,41.89175,41.91274,41.937912,41.96093,41.98735,42.017532,42.044037,42.06298,42.079876,42.095238,42.109932,42.124954,42.14462,42.16581,42.184128,42.20262,42.22062,42.234375,42.24365,42.2535,42.263954,42.274315,42.284615,42.29744,42.310963,42.322815,42.335167,42.34799,42.35924,42.368378,42.376797,42.38437,42.391014,42.3972,42.405643,42.415596,42.42505,42.43521,42.444412,42.451645,42.457966,42.46553,42.474247,42.482796,42.490456,42.49939,42.5086,42.51661,42.524254,42.53325,42.54212,42.549465,42.557335,42.565865,42.57375,42.58055,42.588547,42.597336,42.605904,42.614433,42.625282,42.637173,42.64801,42.65979,42.67443,42.68902,42.700607,42.71293,42.72483,42.73478,42.743553,42.753647,42.764038,42.773285,42.782734,42.793343,42.803474,42.811943,42.821335,42.831154,42.83988,42.847546,42.856236,42.865013,42.87268,42.880283,42.88886,42.896854,42.903255,42.910206,42.917694,42.924747,42.93107,42.938065,42.944588,42.949566,42.953533,42.95729,42.9608,42.96443,42.969925,42.978645,42.989838,43.001373,43.016373,43.034416,43.052544,43.07012,43.092514,43.117416,43.14067,43.166145,43.195847,43.22502,43.250187,43.27883,43.309746,43.338078,43.36271,43.39088,43.41764,43.43863,43.45746,43.47599,43.49047,43.49987,43.50609,43.50896,43.50955,43.509594,43.508926,43.509518,43.512814,43.51906,43.5291,43.540703,43.55037,43.558624,43.559303,43.55082,43.538918,43.52216,43.501823,43.481926,43.462482,43.4352,43.398926,43.35878,43.306522,43.235893,43.157265,43.083538,42.98936,42.875645,42.759655,42.646126,42.500565,42.340176,42.193336,42.03769,41.84455,41.644485,41.471794,41.280685,41.05926,40.843178,40.661327,40.445885,40.205906,39.97667,39.756042,39.497345,39.246117,39.041595,38.81842,38.58938,38.387928,38.213535,38.01786,37.857624,37.77826,37.780815,37.80979,37.732742,37.482327,36.879105,35.886692,34.776943,33.825058,32.56594,31.512856,31.010185,30.761776,30.765995,31.125782,31.671387,32.30173,33.047997,33.730583,34.251736,34.848618,35.287025,35.45338,35.504055,35.45362,35.300423,35.128952,34.984673,34.889874,34.862427,34.862823,34.885788,34.932976,34.985176,35.028984,35.06729,35.093796,35.109825,35.121174,35.13345,35.143066,35.14789,35.158485,35.17341,35.191326,35.211636,35.234917,35.262703,35.2962,35.337585,35.42101,35.553616,35.705727,35.901363,36.162285,36.444443,36.700684,37.02594,37.40722,37.771854,38.107346,38.432106,38.7053,38.925797,39.14557,39.402954,39.617733,39.73294,39.896458,40.15943,40.45189,40.660843,40.927326,41.148254,41.262413,41.360203,41.43354,41.46537,41.46541,41.388332,41.22546,41.00187,40.76778,40.213963,39.49812,38.876427,38.286133,37.577007,36.7553,35.922493
41.110336,41.13989,41.163498,41.186417,41.213684,41.242336,41.26838,41.29771,41.330666,41.36114,41.3863,41.413795,41.441845,41.46762,41.492416,41.524277,41.558647,41.588875,41.62079,41.656937,41.690456,41.717037,41.745018,41.77059,41.78967,41.803574,41.81896,41.835724,41.852814,41.874283,41.89881,41.920677,41.937405,41.955517,41.966236,41.965958,41.9601,41.959045,41.963177,41.970238,41.980774,41.99877,42.021294,42.042305,42.067047,42.095554,42.122124,42.144325,42.164192,42.18088,42.19548,42.211044,42.23163,42.25393,42.27324,42.2927,42.31173,42.326508,42.336803,42.348007,42.360016,42.371727,42.38305,42.397,42.41092,42.422203,42.433468,42.44516,42.455788,42.464813,42.473495,42.48114,42.487373,42.49293,42.50101,42.51098,42.520477,42.529858,42.538567,42.545723,42.551987,42.559395,42.56781,42.575977,42.58329,42.591797,42.60053,42.608116,42.61541,42.623985,42.632324,42.639076,42.646317,42.65423,42.66178,42.668564,42.6768,42.6861,42.695267,42.704384,42.715828,42.728256,42.739536,42.751575,42.766563,42.781586,42.79351,42.806244,42.818657,42.829163,42.83847,42.849266,42.860367,42.870174,42.88015,42.891403,42.902313,42.911644,42.922226,42.93353,42.94372,42.952637,42.962585,42.97236,42.9806,42.988556,42.99716,43.00468,43.010307,43.016148,43.021957,43.027046,43.031464,43.03589,43.039337,43.04135,43.042492,43.043175,43.044125,43.04609,43.050316,43.058197,43.068985,43.080334,43.095245,43.113464,43.132034,43.150146,43.173214,43.198875,43.22281,43.24883,43.279053,43.308746,43.334473,43.36398,43.396164,43.426037,43.4524,43.48314,43.513332,43.538017,43.561226,43.58541,43.605865,43.620483,43.632088,43.640285,43.64541,43.64924,43.65296,43.65856,43.667007,43.678745,43.696136,43.716057,43.73345,43.750473,43.760845,43.760918,43.755634,43.74552,43.730103,43.71268,43.694305,43.66738,43.630814,43.59014,43.53714,43.465416,43.385735,43.311302,43.216705,43.10344,42.987747,42.872437,42.72457,42.561714,42.41304,42.25609,42.07212,41.887157,41.724453,41.53315,41.32058,41.122158,40.948624,40.73649,40.493534,40.2567,40.01986,39.74331,39.472847,39.2471,39.008404,38.76517,38.554867,38.381653,38.18602,38.027046,37.947296,37.938774,37.94539,37.840958,37.56831,36.95173,35.941067,34.81507,33.861282,32.60893,31.547585,31.019531,30.756226,30.737164,31.06627,31.584877,32.20913,32.96504,33.66088,34.186424,34.808865,35.263313,35.424843,35.467518,35.44566,35.314404,35.12729,34.968216,34.86804,34.846077,34.852898,34.885017,34.943054,35.004498,35.05519,35.09859,35.124413,35.1346,35.138115,35.14094,35.14149,35.138752,35.14194,35.148438,35.15769,35.17009,35.183823,35.202553,35.23062,35.270683,35.359154,35.50483,35.674316,35.89606,36.199005,36.533493,36.84105,37.234665,37.70556,38.141144,38.475853,38.826405,39.133553,39.367233,39.593864,39.839256,40.05104,40.198048,40.385414,40.628963,40.873497,41.060066,41.310135,41.502724,41.573914,41.63817,41.65833,41.624474,41.565727,41.419304,41.19813,40.900818,40.521034,39.860313,39.125378,38.545704,37.98162,37.311546,36.534683,35.74064
41.19286,41.220627,41.24518,41.26755,41.294384,41.32334,41.350426,41.38189,41.41842,41.453094,41.48207,41.51383,41.546196,41.57573,41.60402,41.638977,41.675423,41.706814,41.739594,41.774666,41.805344,41.829025,41.85373,41.87609,41.892715,41.9047,41.91842,41.934307,41.95126,41.97276,41.997562,42.019676,42.036385,42.053818,42.06182,42.058155,42.05083,42.047844,42.049454,42.053856,42.061874,42.07721,42.097496,42.11689,42.1399,42.166077,42.190174,42.210182,42.23297,42.253258,42.268604,42.284668,42.305977,42.329197,42.34935,42.369637,42.38965,42.405567,42.417038,42.42978,42.443535,42.456757,42.46926,42.484573,42.49859,42.508354,42.51735,42.52784,42.538467,42.547306,42.55748,42.56681,42.573586,42.578735,42.58643,42.596222,42.605442,42.613155,42.620735,42.62768,42.63391,42.641155,42.649284,42.657112,42.66416,42.672314,42.680664,42.687935,42.694942,42.70315,42.711033,42.71733,42.724094,42.731544,42.73887,42.74573,42.754265,42.764084,42.773815,42.783516,42.795506,42.808372,42.820026,42.832546,42.84793,42.863197,42.875366,42.88836,42.901108,42.912018,42.921776,42.933136,42.944817,42.955086,42.9655,42.97725,42.988724,42.998634,43.010017,43.02237,43.03363,43.043507,43.054504,43.065125,43.07388,43.08217,43.090797,43.097927,43.102924,43.107773,43.112156,43.115585,43.11834,43.120575,43.121407,43.120937,43.119774,43.118034,43.117073,43.11786,43.121246,43.128624,43.139214,43.15052,43.165474,43.18396,43.202965,43.221592,43.24533,43.27175,43.296387,43.323006,43.353752,43.383858,43.40992,43.43981,43.47251,43.503113,43.530376,43.5627,43.59532,43.622894,43.649696,43.678734,43.70446,43.723763,43.74036,43.753677,43.763283,43.77086,43.778976,43.789497,43.80281,43.819534,43.84336,43.870346,43.894146,43.918217,43.936333,43.943314,43.943436,43.93875,43.927486,43.91237,43.895355,43.869293,43.832947,43.7921,43.73871,43.665947,43.5849,43.50931,43.41362,43.299942,43.184525,43.069565,42.92182,42.758827,42.609917,42.453056,42.267475,42.079155,41.912918,41.716896,41.493984,41.281334,41.093834,40.870827,40.63981,40.43112,40.20201,39.92784,39.65238,39.415623,39.170822,38.919357,38.704155,38.53858,38.347965,38.192173,38.110672,38.085655,38.066006,37.933846,37.640644,37.01268,35.990044,34.856155,33.905945,32.672783,31.611238,31.05756,30.780605,30.742393,31.0446,31.535654,32.14367,32.899063,33.60134,34.124847,34.763065,35.23658,35.406223,35.444458,35.44125,35.324627,35.1281,34.95893,34.85527,34.837624,34.84942,34.88817,34.95352,35.021408,35.078255,35.126534,35.15073,35.153343,35.148308,35.141724,35.133556,35.12332,35.11912,35.117317,35.11836,35.123604,35.129383,35.141598,35.167164,35.209183,35.30651,35.469406,35.65998,35.90895,36.252884,36.63669,36.991497,37.449562,37.9998,38.49346,38.821404,39.206223,39.560097,39.811966,40.052147,40.29928,40.52533,40.717796,40.936424,41.11259,41.260418,41.49827,41.6957,41.81365,41.869034,41.896034,41.85579,41.750015,41.627377,41.413338,41.13074,40.73625,40.152294,39.45473,38.77629,38.22896,37.68818,37.05935,36.333908,35.58355
41.27849,41.30585,41.329903,41.351517,41.37767,41.406513,41.434128,41.466995,41.506153,41.544044,41.57596,41.61106,41.64698,41.67977,41.71119,41.749622,41.788895,41.821846,41.855057,41.88909,41.91751,41.938705,41.96054,41.980167,41.99481,42.00537,42.0179,42.033257,42.050087,42.07077,42.094955,42.11671,42.133026,42.150517,42.156,42.148293,42.139084,42.134293,42.13399,42.1364,42.142433,42.15553,42.173714,42.19147,42.21318,42.23762,42.25982,42.278442,42.299614,42.322178,42.34237,42.358597,42.380196,42.40403,42.424652,42.445473,42.466133,42.48288,42.49534,42.509384,42.52462,42.539135,42.552647,42.569168,42.582954,42.590996,42.599854,42.610405,42.620865,42.629375,42.639053,42.6485,42.656002,42.661785,42.66927,42.67793,42.685837,42.692627,42.699474,42.706,42.712017,42.718937,42.72667,42.734146,42.740932,42.748886,42.757095,42.76426,42.771187,42.77932,42.78707,42.793144,42.799675,42.806953,42.81427,42.82127,42.830116,42.8404,42.850574,42.860664,42.87304,42.88616,42.897987,42.91116,42.926903,42.942192,42.95449,42.967728,42.980835,42.992153,43.002357,43.014343,43.026688,43.03749,43.04842,43.06073,43.072777,43.083237,43.095257,43.10836,43.120358,43.130936,43.142647,43.153885,43.16306,43.171547,43.180145,43.18692,43.191383,43.195557,43.1989,43.20103,43.202484,43.20291,43.201504,43.198833,43.1957,43.19188,43.18924,43.188988,43.191563,43.198357,43.208637,43.219784,43.234642,43.253326,43.272808,43.291973,43.316452,43.343765,43.369263,43.39669,43.42827,43.459076,43.485664,43.516098,43.54934,43.58053,43.608513,43.64216,43.67685,43.706894,43.736794,43.770042,43.800385,43.8238,43.84481,43.862778,43.87658,43.887726,43.900047,43.915314,43.933323,43.954826,43.984734,44.018322,44.048054,44.07856,44.103745,44.117043,44.122086,44.122414,44.11512,44.10236,44.086784,44.06176,44.02588,43.98511,43.93151,43.857956,43.77569,43.698944,43.602203,43.48812,43.37303,43.258644,43.11161,42.94931,42.80102,42.645157,42.460815,42.272858,42.10565,41.906624,41.677055,41.45508,41.257507,41.021614,40.77645,40.55832,40.33663,40.058914,39.777946,39.549145,39.303547,39.051956,38.840626,38.67967,38.49836,38.346786,38.254654,38.19655,38.139473,37.984097,37.684902,37.047424,36.01893,34.886826,33.943657,32.732285,31.67189,31.093384,30.803679,30.748997,31.026955,31.491312,32.08332,32.838875,33.546894,34.064735,34.71425,35.209213,35.393875,35.428368,35.43761,35.33031,35.126278,34.953274,34.845684,34.82747,34.843346,34.886986,34.95694,35.029232,35.093136,35.14248,35.16154,35.15735,35.14625,35.132133,35.11653,35.100533,35.091164,35.083702,35.07903,35.07926,35.07949,35.08744,35.11226,35.157803,35.26519,35.445885,35.65753,35.931488,36.311672,36.738438,37.133987,37.656612,38.250515,38.76319,39.144577,39.58358,39.97927,40.258842,40.519005,40.79872,41.059025,41.26948,41.40515,41.549812,41.727333,41.896954,42.045418,42.131798,42.154285,42.13093,42.023674,41.849304,41.669662,41.40526,40.99716,40.447716,39.781807,39.084686,38.43646,37.894997,37.373512,36.791306,36.115395,35.391663
41.375908,41.4031,41.426537,41.44736,41.47269,41.50108,41.52874,41.562332,41.603046,41.64291,41.676643,41.71389,41.752445,41.7881,41.822548,41.864616,41.907295,41.94265,41.977272,42.01145,42.038685,42.058167,42.078003,42.095753,42.109196,42.119164,42.13129,42.146584,42.163353,42.183205,42.20603,42.226166,42.24082,42.2545,42.25355,42.240234,42.22972,42.223778,42.222588,42.224354,42.22992,42.24256,42.260323,42.277664,42.29904,42.322777,42.34409,42.362106,42.382183,42.406174,42.429943,42.447834,42.470314,42.494324,42.514984,42.5358,42.556488,42.573425,42.58626,42.60093,42.616966,42.632217,42.646324,42.663525,42.67842,42.687756,42.696663,42.707123,42.717415,42.72544,42.734295,42.743015,42.749783,42.754112,42.75987,42.766663,42.77308,42.77946,42.78649,42.792686,42.797264,42.803116,42.81002,42.81698,42.823444,42.831226,42.8395,42.846867,42.854046,42.86251,42.87056,42.87683,42.88355,42.89108,42.898712,42.90606,42.91539,42.926186,42.936745,42.94715,42.95974,42.972855,42.98459,42.998177,43.013992,43.029015,43.04124,43.05452,43.067856,43.079536,43.090103,43.102608,43.1155,43.12673,43.138058,43.15074,43.163063,43.173664,43.1858,43.19899,43.21106,43.22168,43.23342,43.244637,43.253693,43.26194,43.27012,43.276367,43.28035,43.284035,43.286774,43.28819,43.28886,43.288055,43.284973,43.280617,43.275967,43.2706,43.2668,43.2659,43.268013,43.27453,43.284714,43.29589,43.310905,43.330124,43.350456,43.370564,43.396317,43.425148,43.452118,43.48105,43.514297,43.546623,43.5744,43.605915,43.640045,43.671986,43.700752,43.73571,43.772408,43.804817,43.837658,43.874924,43.909706,43.93711,43.96251,43.985184,44.00331,44.018215,44.035084,44.055573,44.07879,44.10559,44.14213,44.182735,44.21866,44.25564,44.28778,44.307327,44.31738,44.32283,44.319756,44.309677,44.295753,44.272026,44.23683,44.196285,44.142662,44.068417,43.984886,43.906765,43.80878,43.694214,43.579636,43.46638,43.321133,43.160713,43.013905,42.859993,42.677452,42.48974,42.321033,42.11754,41.87851,41.64352,41.432045,41.177723,40.910065,40.672897,40.448547,40.16443,39.86582,39.613747,39.36245,39.11676,38.91703,38.769615,38.606216,38.454216,38.338608,38.25271,38.16433,37.980335,37.659122,37.009514,35.98994,34.879932,33.952362,32.776306,31.721628,31.113754,30.81535,30.748125,31.00283,31.439093,32.01601,32.769615,33.48108,33.995575,34.653973,35.179176,35.39511,35.430725,35.4385,35.328506,35.12194,34.946976,34.83526,34.814327,34.83203,34.877007,34.949684,35.024612,35.088943,35.13407,35.14469,35.132057,35.115173,35.09375,35.07168,35.052303,35.04148,35.03373,35.029125,35.029396,35.03002,35.039566,35.06844,35.122017,35.244213,35.44612,35.680153,35.97851,36.3897,36.849625,37.27464,37.844666,38.486637,39.041065,39.47946,39.983574,40.440754,40.772064,41.10961,41.402596,41.61328,41.78162,41.915462,42.069466,42.232597,42.35254,42.454693,42.491035,42.45716,42.375195,42.194557,41.944893,41.701817,41.395603,40.81962,40.073532,39.398285,38.696083,38.046185,37.50859,37.013878,36.475708,35.827614,35.101925
41.465233,41.49237,41.515556,41.536022,41.560898,41.588844,41.61619,41.64966,41.69027,41.73015,41.764145,41.801765,41.84111,41.878,41.91396,41.95849,42.004093,42.0419,42.07849,42.114025,42.14167,42.160873,42.180336,42.1978,42.211334,42.221786,42.234562,42.25029,42.267006,42.28609,42.30693,42.324497,42.3369,42.341637,42.33219,42.31586,42.305653,42.30047,42.30059,42.30388,42.311104,42.325615,42.3449,42.363155,42.385174,42.409576,42.43141,42.449463,42.469772,42.494328,42.518906,42.537857,42.560616,42.584015,42.60388,42.623833,42.6436,42.659836,42.67222,42.686493,42.702248,42.71737,42.73145,42.748665,42.765293,42.77777,42.787926,42.798668,42.80857,42.816093,42.824093,42.83094,42.835052,42.83663,42.839542,42.843742,42.848206,42.853436,42.859993,42.86621,42.870773,42.875923,42.88181,42.888016,42.89414,42.901825,42.910343,42.91816,42.925896,42.935093,42.943924,42.950848,42.958252,42.96653,42.97484,42.98271,42.99259,43.0038,43.014572,43.025085,43.03763,43.05052,43.06198,43.075478,43.09099,43.105576,43.11755,43.130672,43.14405,43.15591,43.16666,43.179417,43.19259,43.20404,43.215523,43.228287,43.24046,43.250694,43.262245,43.27465,43.28591,43.29576,43.306656,43.317,43.325268,43.33271,43.340004,43.34556,43.349155,43.352627,43.355362,43.356827,43.357418,43.356293,43.352554,43.347435,43.34214,43.336205,43.33211,43.331146,43.333275,43.33986,43.350185,43.361576,43.37707,43.397255,43.418873,43.440395,43.468033,43.499065,43.528137,43.55932,43.595123,43.629807,43.659454,43.692635,43.72805,43.760902,43.79047,43.826546,43.86472,43.898796,43.933662,43.973644,44.01143,44.041573,44.070168,44.0964,44.11792,44.135895,44.15659,44.181515,44.209106,44.24034,44.282272,44.32835,44.3689,44.410446,44.44732,44.471123,44.48473,44.493843,44.4939,44.48593,44.473373,44.450768,44.416348,44.376274,44.32306,44.248745,44.164505,44.08538,43.98645,43.8715,43.757477,43.645615,43.50277,43.34503,43.200348,43.04908,42.868286,42.680016,42.50892,42.300255,42.051636,41.803146,41.57543,41.299164,41.00759,40.750954,40.51548,40.207207,39.868195,39.573143,39.308037,39.069767,38.887688,38.759285,38.617485,38.47203,38.34519,38.2493,38.139313,37.920135,37.56243,36.90117,35.904385,34.832893,33.92843,32.78213,31.742268,31.127771,30.817268,30.740112,30.978697,31.391281,31.956417,32.70295,33.41369,33.933456,34.596325,35.14839,35.39968,35.442436,35.43808,35.3162,35.112766,34.937096,34.82278,34.79899,34.815308,34.857468,34.928497,35.001305,35.058853,35.094795,35.096985,35.078884,35.056816,35.03002,35.005516,34.987682,34.981415,34.98123,34.98475,34.991886,35.000282,35.01828,35.05636,35.12191,35.261967,35.485214,35.73887,36.05701,36.486794,36.96055,37.394993,37.974407,38.667324,39.298965,39.776817,40.34162,40.878113,41.281017,41.664906,41.940845,42.090996,42.2146,42.404907,42.581226,42.69275,42.788124,42.844,42.813934,42.714245,42.577263,42.33245,42.01745,41.717342,41.337845,40.600388,39.704597,39.046288,38.318283,37.64196,37.10794,36.625187,36.06504,35.400673,34.706253
41.53913,41.566414,41.589695,41.610237,41.635063,41.662773,41.689747,41.72262,41.762115,41.800957,41.834637,41.871902,41.91087,41.947495,41.9833,42.028934,42.07661,42.1163,42.15452,42.191597,42.22027,42.239937,42.25988,42.277885,42.292095,42.303497,42.3173,42.333622,42.350216,42.368332,42.386818,42.402107,42.413475,42.40664,42.39019,42.376045,42.367374,42.364532,42.367523,42.373474,42.383198,42.400253,42.421364,42.440536,42.463234,42.48886,42.51177,42.529556,42.549896,42.57515,42.600212,42.617325,42.638638,42.660896,42.67936,42.697865,42.716194,42.731293,42.74289,42.756313,42.771282,42.785835,42.799606,42.81675,42.834072,42.84809,42.861607,42.873688,42.88279,42.889942,42.897026,42.901093,42.90183,42.90193,42.902397,42.90351,42.905113,42.907413,42.911316,42.917976,42.926315,42.932068,42.936947,42.942085,42.947914,42.955578,42.96441,42.972694,42.981026,42.99109,43.000877,43.008636,43.016968,43.026222,43.035347,43.043816,43.054153,43.065636,43.07652,43.086945,43.099335,43.112034,43.12326,43.136395,43.15148,43.165726,43.17746,43.190453,43.20378,43.215652,43.22649,43.239365,43.25267,43.264267,43.275814,43.288536,43.300415,43.310127,43.320786,43.332,43.34207,43.350826,43.360497,43.369644,43.376877,43.383293,43.38951,43.394287,43.39753,43.40093,43.403885,43.405647,43.406425,43.40542,43.401535,43.396126,43.390717,43.38479,43.380836,43.38006,43.382347,43.38904,43.399487,43.41108,43.427155,43.448452,43.471558,43.4947,43.524487,43.557987,43.589394,43.623104,43.661785,43.699097,43.730797,43.765854,43.802673,43.83644,43.866745,43.903675,43.9428,43.977844,44.013855,44.055298,44.094666,44.126297,44.156815,44.185394,44.20932,44.22957,44.253143,44.28138,44.312134,44.346466,44.392036,44.44159,44.484856,44.528862,44.56815,44.594116,44.609604,44.62069,44.622505,44.6158,44.604095,44.582264,44.54857,44.50924,44.456833,44.383087,44.29889,44.21942,44.12006,44.004913,43.891357,43.78069,43.640003,43.484936,43.342636,43.194275,43.01483,42.825058,42.650818,42.4375,42.18196,41.922813,41.679066,41.38002,41.065662,40.792793,40.550064,40.19469,39.797596,39.478584,39.196106,38.9626,38.80071,38.68778,38.56406,38.442474,38.335625,38.2389,38.10458,37.84505,37.45298,36.78312,35.811012,34.778816,33.900234,32.761284,31.74451,31.160456,30.824745,30.734352,30.963497,31.35717,31.91154,32.64585,33.3528,33.88511,34.549347,35.116436,35.39284,35.443916,35.42994,35.298615,35.09974,34.924034,34.809044,34.783615,34.79716,34.83528,34.90074,34.96698,35.017242,35.042637,35.038986,35.021355,34.9943,34.96389,34.940575,34.927616,34.929287,34.94053,34.955833,34.972736,34.991512,35.020157,35.06903,35.1473,35.30517,35.54815,35.818665,36.15351,36.594612,37.07149,37.50522,38.069935,38.811314,39.53673,40.040512,40.654873,41.2791,41.763367,42.072166,42.321987,42.517616,42.668358,42.851757,43.019024,43.11945,43.165367,43.165054,43.074654,42.91845,42.73194,42.433548,42.06803,41.72294,41.21319,40.345894,39.38526,38.705925,37.943016,37.253006,36.72783,36.23156,35.55667,34.836987,34.25953
41.625504,41.653,41.676704,41.6978,41.724426,41.75418,41.782154,41.81553,41.854675,41.892227,41.924118,41.959503,41.996952,42.0327,42.067974,42.112743,42.1596,42.19908,42.238453,42.277966,42.309284,42.330788,42.352577,42.3724,42.388264,42.40128,42.416588,42.43354,42.449623,42.46598,42.482903,42.491623,42.489426,42.476326,42.460197,42.450157,42.44545,42.44845,42.45804,42.469788,42.485542,42.508972,42.53488,42.55667,42.581028,42.60721,42.629818,42.64696,42.66822,42.691414,42.71148,42.7268,42.745857,42.76542,42.781406,42.79761,42.81396,42.827766,42.838516,42.851135,42.86535,42.879387,42.89292,42.910305,42.928493,42.94368,42.95881,42.972824,42.982605,42.98848,42.99311,42.994236,42.992447,42.990276,42.98751,42.984833,42.983032,42.98207,42.982918,42.98786,42.99604,43.005936,43.014297,43.019722,43.024776,43.03222,43.041374,43.050205,43.059227,43.070232,43.081074,43.08979,43.099106,43.109383,43.119278,43.128185,43.138714,43.150105,43.160706,43.17075,43.182632,43.1948,43.20556,43.217773,43.232086,43.245895,43.25727,43.269974,43.28316,43.295013,43.305862,43.318817,43.33232,43.34417,43.355904,43.368748,43.380463,43.389717,43.39944,43.409233,43.417774,43.425117,43.43309,43.440536,43.44639,43.45148,43.456398,43.46039,43.463448,43.467117,43.47083,43.473442,43.474854,43.47426,43.470413,43.46482,43.459267,43.45332,43.4495,43.448875,43.45127,43.45797,43.468468,43.480286,43.497185,43.520187,43.5455,43.570972,43.603973,43.641136,43.675915,43.71334,43.756195,43.797295,43.831924,43.869595,43.908375,43.94337,43.974625,44.012543,44.052654,44.08863,44.125626,44.16826,44.20896,44.241905,44.274155,44.30489,44.331024,44.35333,44.379456,44.410492,44.443825,44.48065,44.528908,44.580772,44.625675,44.67082,44.711006,44.737823,44.7542,44.766243,44.768982,44.763046,44.75198,44.73098,44.698486,44.66057,44.60988,44.537567,44.453835,44.374054,44.27397,44.158104,44.0446,43.935074,43.79756,43.644608,43.501633,43.353153,43.173798,42.98338,42.80724,42.58957,42.324272,42.051323,41.793625,41.473267,41.1308,40.83129,40.57736,40.168457,39.704857,39.354736,39.05009,38.807655,38.6519,38.556396,38.457027,38.361008,38.271706,38.186363,38.031746,37.735634,37.32228,36.649147,35.707,34.71292,33.84422,32.727566,31.736359,31.167116,30.8288,30.737213,30.95536,31.32604,31.86574,32.587337,33.29463,33.845413,34.50561,35.070477,35.361732,35.443157,35.417046,35.26616,35.07483,34.899673,34.7846,34.75722,34.766285,34.79817,34.852875,34.906395,34.94561,34.96353,34.955032,34.93319,34.90243,34.8721,34.855854,34.854607,34.872505,34.90483,34.94062,34.974,35.009422,35.05373,35.11709,35.211395,35.391216,35.657806,35.947594,36.300182,36.747192,37.215157,37.634598,38.17453,38.9057,39.677353,40.327503,41.070675,41.737488,42.197613,42.51372,42.801174,43.046043,43.229195,43.411674,43.54976,43.604736,43.59282,43.510704,43.336,43.116524,42.877525,42.520554,42.095295,41.69291,40.99256,39.96929,38.952217,38.21579,37.453766,36.65818,35.91082,35.274403,34.60267,34.020386,33.58804
41.71295,41.74226,41.767918,41.791183,41.820602,41.852783,41.882057,41.916042,41.954712,41.990677,42.020416,42.053715,42.089645,42.12459,42.159332,42.202866,42.248444,42.287407,42.326965,42.36754,42.400623,42.42404,42.448097,42.470177,42.48778,42.502213,42.518673,42.535694,42.550636,42.565117,42.577404,42.576992,42.563103,42.549683,42.539642,42.53714,42.540073,42.55262,42.572464,42.593094,42.6169,42.648144,42.679245,42.70327,42.72831,42.753506,42.774567,42.79084,42.80979,42.82752,42.84135,42.85462,42.870705,42.886665,42.899685,42.913353,42.927814,42.94062,42.95085,42.962936,42.9766,42.990196,43.00358,43.02127,43.040146,43.055992,43.0715,43.08658,43.09678,43.101227,43.103493,43.102215,43.098423,43.09382,43.08776,43.08141,43.076393,43.072487,43.070557,43.07315,43.079475,43.091488,43.104717,43.11386,43.118835,43.126102,43.135258,43.14442,43.153885,43.165524,43.177113,43.186527,43.196568,43.207527,43.217834,43.22681,43.2371,43.247917,43.257835,43.267147,43.278202,43.289623,43.29973,43.310806,43.324024,43.33715,43.348114,43.36043,43.373344,43.38505,43.395782,43.408703,43.422337,43.43441,43.446396,43.459427,43.471046,43.47992,43.488766,43.49717,43.504143,43.510033,43.516235,43.52188,43.526222,43.529926,43.5335,43.536705,43.53966,43.543755,43.54843,43.55211,43.554337,43.55432,43.55065,43.545025,43.53945,43.53367,43.53015,43.529793,43.532345,43.539124,43.54978,43.56196,43.579964,43.605164,43.63332,43.661804,43.698936,43.740795,43.77987,43.822006,43.870155,43.91605,43.95439,43.99549,44.03694,44.07373,44.106457,44.145832,44.18725,44.22426,44.262184,44.30577,44.347397,44.381256,44.414864,44.44744,44.475494,44.4995,44.527676,44.56076,44.595703,44.633873,44.683197,44.73546,44.780174,44.824436,44.863144,44.888527,44.90396,44.914955,44.91683,44.910458,44.899338,44.87874,44.84754,44.811573,44.76349,44.69388,44.6119,44.53283,44.43291,44.316803,44.203415,44.09514,43.958153,43.80485,43.661385,43.51303,43.335144,43.14572,42.968323,42.74565,42.466038,42.17083,41.88881,41.534737,41.15483,40.816788,40.496788,40.016747,39.510094,39.150078,38.832474,38.579926,38.42462,38.34281,38.27462,38.212955,38.14463,38.073578,37.910713,37.59592,37.175438,36.503563,35.589897,34.63272,33.777176,32.69715,31.736023,31.174248,30.842075,30.748117,30.951595,31.303062,31.831573,32.54246,33.24952,33.81696,34.468666,35.020504,35.314735,35.42154,35.387592,35.223145,35.03955,34.865543,34.750893,34.721214,34.72435,34.747734,34.78933,34.828754,34.856537,34.86682,34.8524,34.825005,34.792103,34.76492,34.759987,34.775024,34.81427,34.87372,34.93566,34.990036,35.04653,35.110603,35.192448,35.307713,35.51607,35.813454,36.128773,36.505684,36.964554,37.426888,37.832222,38.36686,39.0823,39.87899,40.714138,41.58873,42.26084,42.66373,43.034966,43.39058,43.6775,43.88423,44.06659,44.167572,44.155334,44.06024,43.873283,43.59903,43.307354,43.0056,42.573578,42.073105,41.604145,40.6354,39.4327,38.392693,37.594994,36.622055,35.5945,34.736843,34.072517,33.515953,33.117195,32.80825
41.78759,41.81988,41.848465,41.87484,41.90657,41.93993,41.969902,42.004,42.041874,42.07656,42.10528,42.13786,42.173553,42.208538,42.243233,42.286736,42.332596,42.37203,42.411133,42.450798,42.48348,42.507473,42.53253,42.55556,42.57366,42.5884,42.604946,42.62124,42.63466,42.647667,42.65294,42.64577,42.63215,42.621414,42.6181,42.62465,42.636677,42.659264,42.689312,42.718445,42.748123,42.78392,42.817158,42.841396,42.86532,42.88843,42.90748,42.9225,42.936016,42.94806,42.95912,42.970436,42.983833,42.996883,43.007675,43.01963,43.033096,43.04567,43.05597,43.06802,43.081493,43.09484,43.108147,43.12595,43.145123,43.161255,43.176895,43.191566,43.200912,43.20456,43.20587,43.20321,43.19773,43.191414,43.18304,43.174164,43.167015,43.16124,43.157593,43.15898,43.16452,43.17422,43.189625,43.203735,43.20964,43.216896,43.225677,43.23481,43.244293,43.256058,43.267864,43.277485,43.287766,43.298897,43.309143,43.317856,43.32759,43.33761,43.346695,43.35518,43.365356,43.376015,43.385498,43.39574,43.40792,43.420216,43.43078,43.442745,43.455357,43.466824,43.477394,43.49019,43.503845,43.51608,43.528282,43.5415,43.553085,43.561703,43.56993,43.577362,43.583256,43.588074,43.593063,43.597435,43.600628,43.60328,43.60578,43.608326,43.611122,43.61548,43.620796,43.62518,43.627953,43.628296,43.624725,43.61906,43.613564,43.6081,43.605034,43.605038,43.607864,43.61487,43.625824,43.63842,43.65753,43.68482,43.715668,43.747078,43.788162,43.83452,43.877716,43.924324,43.97749,44.027916,44.069817,44.114304,44.15856,44.19742,44.231956,44.273186,44.316204,44.354443,44.393394,44.437866,44.480194,44.51468,44.5493,44.583397,44.61308,44.63846,44.66828,44.70281,44.7386,44.77723,44.826508,44.877922,44.921303,44.963608,44.999554,45.022175,45.035515,45.044144,45.04389,45.036182,45.024418,45.00367,44.973465,44.93944,44.89411,44.827873,44.74881,44.6717,44.573326,44.45813,44.345184,44.237648,44.097916,43.942383,43.800495,43.654583,43.480644,43.29368,43.115288,42.886566,42.589294,42.264977,41.94707,41.546574,41.12565,40.747623,40.313843,39.756195,39.240067,38.89559,38.580368,38.33038,38.183224,38.112343,38.07527,38.05099,38.006744,37.946037,37.78651,37.46982,37.047516,36.379074,35.484924,34.558968,33.731934,32.69113,31.759937,31.20694,30.874311,30.768908,30.955849,31.2955,31.81828,32.520184,33.22222,33.797173,34.439713,34.980537,35.27249,35.381958,35.347466,35.184113,35.005417,34.832764,34.718582,34.68662,34.68412,34.698967,34.72983,34.759308,34.778915,34.780205,34.758728,34.727913,34.69375,34.669777,34.674946,34.704197,34.761734,34.844543,34.92916,35.001568,35.07633,35.158752,35.259403,35.396965,35.636017,35.967705,36.313297,36.72152,37.206,37.682312,38.093685,38.65919,39.40751,40.244164,41.18306,42.11124,42.78282,43.18177,43.595318,43.995865,44.30407,44.51204,44.682384,44.747208,44.67285,44.489555,44.20908,43.848824,43.48571,43.11487,42.599396,42.005108,41.43966,40.217094,38.85669,37.788963,36.903336,35.5545,34.31571,33.62626,33.1335,32.71257,32.39296,32.148457
41.872047,41.90615,41.936783,41.96543,41.999725,42.03528,42.06671,42.10177,42.140022,42.174767,42.203644,42.237015,42.273895,42.309902,42.345276,42.38897,42.434555,42.473663,42.512474,42.552147,42.5847,42.607956,42.631325,42.651848,42.667805,42.68165,42.697212,42.711952,42.723274,42.733696,42.735756,42.727036,42.714626,42.708393,42.714096,42.731976,42.755157,42.789948,42.831573,42.86847,42.89891,42.931774,42.9616,42.984627,43.00679,43.027016,43.04206,43.052536,43.06292,43.07331,43.08329,43.093082,43.104362,43.11535,43.124825,43.136158,43.149918,43.163445,43.17472,43.187683,43.201733,43.2153,43.22875,43.24667,43.265923,43.282047,43.297413,43.311413,43.319847,43.322647,43.322945,43.319153,43.312542,43.305,43.29508,43.284542,43.276,43.269165,43.26458,43.26525,43.270226,43.279144,43.293873,43.307995,43.314888,43.322075,43.330303,43.33914,43.348373,43.35994,43.371574,43.381042,43.391216,43.402138,43.41198,43.420155,43.429035,43.437958,43.44599,43.453465,43.462517,43.4722,43.481003,43.490562,43.501785,43.513123,43.523067,43.534546,43.54688,43.558174,43.56856,43.58127,43.595062,43.607574,43.620125,43.633766,43.64563,43.65427,43.662216,43.669075,43.6743,43.678524,43.68271,43.686214,43.688644,43.690475,43.692078,43.693985,43.696564,43.700966,43.70656,43.711205,43.714096,43.714325,43.71042,43.704445,43.698822,43.69352,43.69084,43.6912,43.694378,43.70166,43.712917,43.725937,43.746147,43.77552,43.809082,43.843445,43.888596,43.939583,43.987045,44.0382,44.09634,44.151207,44.196587,44.244446,44.2916,44.332726,44.3694,44.412937,44.458084,44.497993,44.53841,44.584084,44.62733,44.662655,44.698406,44.73413,44.765587,44.792477,44.82409,44.86007,44.896545,44.935394,44.984222,45.034294,45.07585,45.11567,45.148293,45.16759,45.178276,45.1839,45.180984,45.1716,45.15901,45.1381,45.109234,45.07779,45.036064,44.974457,44.899757,44.82595,44.73036,44.61693,44.50405,44.394222,44.252243,44.095276,43.95311,43.809174,43.639503,43.456944,43.280968,43.044487,42.72158,42.35842,41.99879,41.541016,41.085945,40.691086,40.13942,39.50356,38.979183,38.645393,38.33596,38.1018,37.98076,37.93746,37.93171,37.93936,37.922844,37.890644,37.742195,37.41915,36.99026,36.333057,35.44622,34.534424,33.749504,32.747925,31.840693,31.292412,30.95657,30.837608,31.004972,31.327877,31.837112,32.520615,33.208794,33.783688,34.413147,34.940998,35.229473,35.341625,35.309,35.14843,34.9738,34.802643,34.688934,34.654434,34.64612,34.651863,34.67086,34.68918,34.699844,34.692165,34.66375,34.629135,34.59326,34.571495,34.58593,34.629288,34.70395,34.808266,34.912674,34.99874,35.087105,35.186703,35.308586,35.46968,35.742764,36.115658,36.500793,36.95342,37.482506,38.000412,38.45361,39.07743,39.93109,40.86554,41.795708,42.6998,43.382046,43.83358,44.27659,44.716454,45.045177,45.23094,45.331097,45.303677,45.154335,44.915665,44.5795,44.149704,43.704704,43.250603,42.648537,41.888695,41.06131,39.705933,38.27321,37.029427,35.702534,34.208954,33.07995,32.5517,32.22834,31.927889,31.667028,31.467564
41.97879,42.015247,42.048344,42.079582,42.11699,42.155254,42.188416,42.224754,42.263855,42.299267,42.328957,42.36393,42.40288,42.440586,42.477074,42.5211,42.56613,42.604416,42.64241,42.681343,42.71311,42.735332,42.75682,42.77502,42.788704,42.800095,42.812466,42.823822,42.83232,42.8396,42.84082,42.83677,42.83326,42.83673,42.85268,42.879044,42.90879,42.948303,42.99134,43.027466,43.05697,43.088745,43.117935,43.140892,43.16265,43.181713,43.194912,43.203316,43.212856,43.223026,43.232388,43.2408,43.250107,43.259315,43.26782,43.27893,43.293434,43.308277,43.320686,43.33456,43.34899,43.362476,43.37576,43.39325,43.411896,43.427475,43.442165,43.455402,43.463314,43.466003,43.466293,43.46252,43.455715,43.447678,43.436943,43.42546,43.416183,43.408836,43.403893,43.404198,43.408695,43.4169,43.430344,43.443245,43.44986,43.456543,43.464195,43.47256,43.48134,43.49239,43.50354,43.512604,43.522293,43.532562,43.541573,43.548805,43.556347,43.56363,43.57007,43.576088,43.583527,43.59178,43.599552,43.608154,43.618355,43.628746,43.637943,43.648766,43.660614,43.671688,43.682,43.694748,43.7088,43.72173,43.734802,43.74907,43.76142,43.77027,43.778168,43.784725,43.789566,43.79344,43.797203,43.800217,43.80218,43.803497,43.804474,43.8059,43.808304,43.81269,43.818428,43.82322,43.826115,43.826206,43.82213,43.816124,43.8107,43.806,43.804127,43.805107,43.808784,43.816444,43.828033,43.841454,43.86278,43.89435,43.93082,43.96841,44.01813,44.074417,44.126705,44.182983,44.246765,44.306732,44.356163,44.40821,44.459343,44.5039,44.543816,44.59099,44.639484,44.68186,44.724205,44.77135,44.815456,44.851322,44.887844,44.92482,44.957794,44.98603,45.019188,45.05619,45.09275,45.131023,45.17839,45.22605,45.264805,45.30117,45.329384,45.344246,45.351242,45.35258,45.345695,45.333588,45.31921,45.297215,45.269104,45.24008,45.202232,45.146523,45.078293,45.010056,44.92012,44.81139,44.70028,44.587822,44.44387,44.2866,44.145927,44.007416,43.85066,43.676422,43.49437,43.24109,42.88003,42.460197,42.03277,41.50807,40.966484,40.462955,39.77565,39.03132,38.46057,38.118,37.83316,37.643734,37.56877,37.570896,37.602745,37.65321,37.682518,37.67982,37.542843,37.214855,36.780426,36.126686,35.274986,34.419468,33.681206,32.745003,31.892735,31.368942,31.043167,30.91801,31.067152,31.372011,31.857601,32.516754,33.19153,33.766373,34.379627,34.890823,35.173157,35.284317,35.254303,35.09896,34.929096,34.76168,34.650146,34.61331,34.59842,34.59382,34.599796,34.606544,34.608505,34.592873,34.558548,34.52038,34.48243,34.462975,34.48406,34.535316,34.62622,34.752285,34.876526,34.97709,35.08077,35.19964,35.34722,35.54467,35.867535,36.301323,36.748558,37.27088,37.878754,38.486553,39.04226,39.824688,40.775734,41.706326,42.628983,43.51255,44.207825,44.709877,45.155758,45.540543,45.78998,45.92486,45.962555,45.865677,45.65213,45.35759,44.9545,44.455,43.938286,43.36284,42.657707,41.65999,40.397293,38.981163,37.344826,35.72985,34.2113,32.833992,31.952364,31.563332,31.323944,31.099083,30.910374,30.77972
42.09251,42.131424,42.166824,42.200356,42.24009,42.28013,42.31433,42.35118,42.390427,42.426064,42.45632,42.49261,42.533417,42.572727,42.610237,42.654575,42.699043,42.73638,42.77325,42.81073,42.841156,42.862495,42.882816,42.900093,42.912777,42.922073,42.93164,42.94012,42.9464,42.951363,42.952805,42.95433,42.960262,42.97251,42.995308,43.025017,43.055923,43.093773,43.13176,43.16286,43.19207,43.225937,43.257587,43.281555,43.30377,43.323887,43.338814,43.348755,43.35977,43.370758,43.380024,43.387665,43.39567,43.403618,43.411392,43.42221,43.43689,43.452057,43.464615,43.47818,43.491795,43.504272,43.516678,43.53288,43.55018,43.56479,43.578735,43.59176,43.60041,43.604553,43.60682,43.605152,43.599827,43.59256,43.582184,43.57069,43.561333,43.553963,43.54905,43.549187,43.553192,43.560574,43.57293,43.584713,43.59018,43.596054,43.603127,43.610947,43.61921,43.62962,43.640152,43.648735,43.6578,43.66721,43.67517,43.68125,43.687225,43.69256,43.69711,43.7014,43.70694,43.713486,43.71997,43.727386,43.73656,43.74615,43.75468,43.764847,43.776115,43.78682,43.797035,43.80979,43.824013,43.837204,43.850643,43.86534,43.877964,43.88688,43.894627,43.90087,43.905396,43.909035,43.91265,43.915604,43.917507,43.918762,43.919624,43.920967,43.923386,43.927864,43.933807,43.93887,43.942,43.942463,43.939056,43.93397,43.929626,43.926483,43.926163,43.92823,43.932713,43.940907,43.95283,43.96653,43.988678,44.021976,44.060844,44.10112,44.154823,44.215813,44.272408,44.333282,44.402283,44.46717,44.520668,44.57717,44.632977,44.68181,44.72567,44.77722,44.82955,44.874527,44.918594,44.966713,45.0109,45.046394,45.082664,45.119835,45.153473,45.18245,45.216568,45.254036,45.29017,45.327324,45.37276,45.41774,45.45363,45.48658,45.51055,45.521114,45.524345,45.521137,45.509773,45.49425,45.477177,45.452835,45.42401,45.39606,45.36097,45.31086,45.25003,45.188965,45.10756,45.006645,44.899826,44.787434,44.643707,44.488434,44.35221,44.223785,44.081734,43.912727,43.719193,43.4413,43.028755,42.534023,42.018776,41.41292,40.669052,39.87398,39.040955,38.20712,37.606953,37.267845,37.0244,36.89569,36.87506,36.922783,36.994774,37.083973,37.146828,37.1594,37.025932,36.694107,36.26077,35.63948,34.874203,34.11161,33.411278,32.57085,31.819,31.352581,31.060383,30.94923,31.094011,31.38908,31.85249,32.490074,33.158073,33.740692,34.335594,34.827385,35.104584,35.2136,35.18611,35.035847,34.8702,34.709286,34.601368,34.56207,34.541,34.52709,34.522346,34.520798,34.517532,34.498035,34.46352,34.42856,34.395878,34.384506,34.41156,34.46395,34.55827,34.69457,34.834496,34.95026,35.07229,35.21796,35.401615,35.648376,36.023033,36.513924,37.025486,37.627514,38.34768,39.094063,39.797512,40.724,41.709625,42.58502,43.510784,44.40026,45.088085,45.562836,45.956978,46.226986,46.35839,46.44078,46.44461,46.318977,46.066208,45.721016,45.246277,44.674286,44.087296,43.377937,42.465073,41.17299,39.578564,38.01493,36.101307,34.2556,32.956417,31.863062,31.205774,30.899195,30.65569,30.465078,30.353909,30.29454
42.202072,42.243057,42.28017,42.315346,42.35594,42.396103,42.430313,42.46621,42.5039,42.53836,42.56837,42.60519,42.647194,42.68766,42.725914,42.770584,42.814724,42.851345,42.887268,42.9234,42.95246,42.97276,42.99189,43.008278,43.020638,43.029945,43.039886,43.048256,43.05359,43.057407,43.057877,43.05909,43.06529,43.07895,43.104008,43.136097,43.169212,43.20932,43.249493,43.282494,43.313423,43.348732,43.38127,43.40568,43.427063,43.448452,43.466324,43.477745,43.49054,43.502895,43.51258,43.51975,43.526924,43.53401,43.54115,43.55133,43.565197,43.579338,43.59078,43.60264,43.614174,43.624763,43.635635,43.649918,43.665474,43.679,43.69229,43.705673,43.716164,43.722992,43.728767,43.730843,43.728333,43.7228,43.71369,43.702797,43.69365,43.686436,43.681595,43.681496,43.68489,43.691338,43.702473,43.713272,43.718338,43.72352,43.72986,43.73713,43.744858,43.754665,43.76464,43.772785,43.78131,43.789963,43.796906,43.801884,43.806328,43.80974,43.81239,43.81494,43.818573,43.82338,43.828545,43.83481,43.842934,43.851734,43.85972,43.869408,43.88018,43.890408,43.90027,43.91279,43.92691,43.940067,43.953533,43.96821,43.98066,43.989277,43.9965,44.00211,44.006134,44.00944,44.0129,44.015953,44.018074,44.01951,44.02056,44.0221,44.02468,44.029392,44.03566,44.041153,44.04486,44.046265,44.044373,44.041084,44.038666,44.037903,44.039787,44.043377,44.049034,44.05799,44.07025,44.08413,44.10681,44.14131,44.18193,44.224174,44.280907,44.345566,44.405594,44.47017,44.543556,44.612843,44.67012,44.730934,44.79148,44.84479,44.892685,44.948517,45.004356,45.051476,45.096764,45.145077,45.188423,45.222748,45.257843,45.29432,45.32794,45.357193,45.391926,45.429718,45.46543,45.5016,45.545383,45.588223,45.621925,45.652145,45.67278,45.679924,45.679977,45.672775,45.657196,45.638145,45.61802,45.590527,45.559776,45.531673,45.49812,45.452656,45.399036,45.345596,45.274162,45.18253,45.081463,44.972343,44.83162,44.680305,44.55002,44.435135,44.298935,44.125496,43.92601,43.622833,43.149513,42.566727,41.955215,41.2782,40.23486,38.96663,37.96454,37.100628,36.556885,36.270237,36.069454,35.994804,36.02795,36.108,36.222897,36.331905,36.3858,36.40037,36.260727,35.919285,35.49019,34.97236,34.340786,33.665054,32.986614,32.25679,31.634567,31.247524,31.003754,30.92285,31.077522,31.372822,31.824697,32.445995,33.110744,33.71019,34.28315,34.752724,35.02853,35.137794,35.1123,34.964687,34.80185,34.649525,34.545403,34.502544,34.475838,34.45412,34.441475,34.43512,34.43009,34.409386,34.3806,34.358944,34.34439,34.351044,34.38784,34.44069,34.518257,34.6466,34.797344,34.928535,35.06998,35.252777,35.487785,35.791862,36.20534,36.7269,37.28338,37.958454,38.80979,39.724186,40.59417,41.513893,42.488663,43.417713,44.314884,45.218323,45.871933,46.22337,46.5109,46.710365,46.811527,46.867447,46.83722,46.678787,46.395126,46.010925,45.47978,44.82891,44.14427,43.31816,42.02986,40.403625,38.809692,36.84613,34.715717,33.058975,32.07848,31.214325,30.687752,30.452312,30.226095,30.08672,30.042133,30.02137
42.334694,42.37522,42.411736,42.44641,42.48696,42.52762,42.562565,42.60006,42.641228,42.678665,42.708595,42.745205,42.787285,42.828163,42.86657,42.911095,42.954704,42.990593,43.025627,43.060444,43.08825,43.107803,43.12626,43.142517,43.155445,43.165707,43.176933,43.18634,43.1922,43.196426,43.197777,43.20015,43.207253,43.22191,43.2476,43.27976,43.312607,43.352768,43.39372,43.427044,43.45472,43.484283,43.5114,43.53299,43.55369,43.576042,43.59665,43.612606,43.631294,43.649895,43.664818,43.677467,43.686485,43.69197,43.69728,43.705936,43.718246,43.73076,43.74048,43.750023,43.75901,43.767555,43.77694,43.789536,43.803837,43.816956,43.8305,43.84563,43.85964,43.870834,43.882145,43.889977,43.891693,43.888775,43.881496,43.87142,43.86255,43.855392,43.850418,43.84977,43.852234,43.857304,43.866856,43.876488,43.881042,43.88523,43.890495,43.89705,43.90412,43.913258,43.92265,43.930344,43.938255,43.94596,43.951656,43.955246,43.95764,43.95848,43.958603,43.95874,43.959698,43.962204,43.965725,43.97043,43.977062,43.98468,43.991787,44.000565,44.01063,44.020363,44.02969,44.041626,44.055252,44.06808,44.081238,44.09548,44.10736,44.115345,44.121723,44.126396,44.12971,44.132576,44.135868,44.139183,44.1418,44.14377,44.145554,44.147835,44.15101,44.156372,44.16349,44.170055,44.174934,44.178215,44.17904,44.17872,44.179173,44.18181,44.186695,44.192253,44.199257,44.20906,44.22174,44.235764,44.259,44.29476,44.33722,44.381523,44.44152,44.51024,44.574104,44.642834,44.721336,44.795853,44.857674,44.923767,44.990124,45.04872,45.101093,45.16157,45.220955,45.269913,45.31587,45.36357,45.405212,45.43766,45.47104,45.506447,45.54,45.569756,45.60547,45.644066,45.679787,45.71521,45.757587,45.798508,45.830215,45.85779,45.875114,45.87873,45.87534,45.86374,45.84355,45.820663,45.79711,45.766045,45.732895,45.7042,45.672024,45.631897,45.58716,45.54339,45.485153,45.40586,45.312424,45.208084,45.07127,44.925545,44.803272,44.69846,44.569145,44.39437,44.187218,43.844097,43.273872,42.574806,41.926414,40.76152,39.115906,37.542076,36.426155,35.551044,35.074287,34.876633,34.752026,34.723892,34.776016,34.878143,35.021355,35.1583,35.232338,35.258316,35.139763,34.841682,34.468647,33.98279,33.38968,32.797234,32.256393,31.704483,31.253956,30.983803,30.823618,30.804272,30.989002,31.295757,31.749773,32.363487,33.029648,33.652763,34.204575,34.651855,34.92836,35.038696,35.029778,34.89518,34.72941,34.579315,34.47664,34.4316,34.39956,34.370148,34.350853,34.342247,34.337715,34.326088,34.313473,34.30757,34.305534,34.325775,34.376896,34.443558,34.535286,34.67414,34.836266,34.98655,35.172813,35.418198,35.712776,36.073994,36.53781,37.108727,37.72262,38.460632,39.48922,40.60083,41.54139,42.483517,43.51395,44.505585,45.32158,46.105213,46.64498,46.919342,47.136307,47.266052,47.3089,47.321205,47.24826,47.036636,46.696663,46.272346,45.66779,44.89544,44.06545,43.118423,41.432724,39.30873,37.419,35.26783,33.304127,32.022312,31.253185,30.64606,30.272667,30.057816,29.901901,29.82415,29.813393,29.80776
42.474472,42.513863,42.549156,42.582787,42.622974,42.664047,42.6997,42.738922,42.783424,42.824036,42.85522,42.890373,42.930195,42.969807,43.00702,43.050392,43.093094,43.128345,43.162853,43.197037,43.224464,43.24417,43.26323,43.28087,43.295784,43.308346,43.32215,43.33393,43.341644,43.347572,43.351036,43.3553,43.363495,43.378586,43.403633,43.43416,43.464905,43.502747,43.54113,43.57109,43.592125,43.61438,43.63607,43.654755,43.674873,43.697453,43.7194,43.738926,43.762352,43.7862,43.805813,43.823235,43.83669,43.84552,43.853104,43.86267,43.873703,43.88363,43.891254,43.898396,43.905174,43.912277,43.92093,43.93302,43.94758,43.961823,43.977303,43.996414,44.016335,44.033882,44.05189,44.066307,44.072983,44.073196,44.067833,44.058395,44.049664,44.04236,44.036884,44.035294,44.036552,44.0401,44.04827,44.056816,44.060135,44.06299,44.067146,44.072987,44.07952,44.088142,44.097137,44.10452,44.111862,44.11855,44.122883,44.125046,44.125626,44.124107,44.121696,44.119263,44.117264,44.11701,44.118393,44.120964,44.125496,44.13144,44.13731,44.144814,44.15383,44.162796,44.171337,44.182274,44.19491,44.206917,44.21923,44.232414,44.243137,44.25003,44.255085,44.25839,44.26065,44.262802,44.2657,44.269157,44.27232,44.275024,44.27794,44.28151,44.28582,44.29246,44.301254,44.30983,44.31677,44.323105,44.32794,44.331657,44.33583,44.342537,44.35073,44.358253,44.36647,44.376957,44.38992,44.404,44.427673,44.46456,44.508682,44.55484,44.617844,44.690407,44.758003,44.830925,44.914795,44.994957,45.06169,45.133415,45.205826,45.269638,45.326077,45.390503,45.45245,45.502213,45.547802,45.593864,45.63308,45.66324,45.69478,45.729324,45.763268,45.79418,45.83175,45.87217,45.908875,45.944458,45.98645,46.026413,46.05684,46.082302,46.096725,46.09704,46.090214,46.074272,46.04964,46.02315,45.996353,45.961937,45.926384,45.89678,45.865456,45.830223,45.794205,45.760155,45.715595,45.64862,45.562172,45.462307,45.32881,45.189438,45.07653,44.97441,44.855267,44.687935,44.472828,44.079044,43.39437,42.534718,41.764427,39.794067,37.432083,35.785282,34.57239,33.690376,33.291668,33.188084,33.160454,33.19995,33.270878,33.367805,33.504936,33.643135,33.726116,33.755203,33.65346,33.3991,33.085045,32.63913,32.111126,31.643303,31.281399,30.933342,30.674511,30.542606,30.48545,30.552448,30.791115,31.127596,31.609951,32.236015,32.906937,33.545296,34.09526,34.537098,34.815292,34.930595,34.942078,34.825928,34.663517,34.51908,34.41411,34.362175,34.327137,34.293793,34.271164,34.263107,34.26391,34.268578,34.27644,34.285667,34.295044,34.329247,34.39926,34.48803,34.61107,34.779243,34.966545,35.14594,35.387283,35.70254,36.059055,36.472633,36.996765,37.637875,38.328735,39.17582,40.413795,41.683857,42.5773,43.54579,44.591362,45.533554,46.253757,46.902233,47.33464,47.5643,47.730354,47.78811,47.75672,47.71747,47.579853,47.297165,46.89701,46.435516,45.752533,44.813255,43.74508,42.493584,40.348988,37.812172,35.73513,33.78495,32.249466,31.333187,30.748867,30.300093,30.01345,29.835814,29.753891,29.721672,29.718782,29.711918
42.59568,42.635155,42.67044,42.70414,42.744316,42.78537,42.821064,42.860077,42.903763,42.944176,42.97717,43.01021,43.046593,43.083977,43.119213,43.16091,43.202614,43.23745,43.271866,43.306213,43.33416,43.354744,43.3753,43.395195,43.41269,43.427975,43.444717,43.459053,43.468636,43.476215,43.481438,43.487095,43.496048,43.511314,43.535606,43.564526,43.593224,43.628067,43.661957,43.68685,43.70265,43.722187,43.743546,43.761818,43.781303,43.8034,43.825115,43.844406,43.867615,43.891403,43.911083,43.927704,43.945366,43.961998,43.97602,43.98935,44.000557,44.00837,44.01461,44.02016,44.02574,44.032467,44.041355,44.054245,44.070503,44.087097,44.105732,44.130173,44.15693,44.18107,44.20498,44.22438,44.23471,44.2378,44.234528,44.226006,44.2174,44.209892,44.20377,44.20112,44.201206,44.20343,44.21067,44.218273,44.219574,44.22103,44.224392,44.229713,44.235916,44.244286,44.253113,44.260326,44.267334,44.2733,44.276604,44.277702,44.27715,44.274048,44.269653,44.265163,44.260597,44.257645,44.256683,44.256912,44.259144,44.263237,44.26777,44.273983,44.2818,44.289757,44.297417,44.30726,44.31871,44.329666,44.34087,44.352722,44.362064,44.36773,44.371338,44.37316,44.374252,44.375557,44.377823,44.381138,44.38459,44.387886,44.39181,44.396698,44.40232,44.4105,44.42136,44.432354,44.441715,44.451447,44.460426,44.468086,44.4758,44.486137,44.497,44.505943,44.514946,44.52574,44.538742,44.55277,44.5767,44.614384,44.6597,44.707195,44.77239,44.847824,44.918343,44.994724,45.083145,45.168182,45.239185,45.315678,45.39301,45.46087,45.520206,45.58721,45.65045,45.70015,45.744797,45.78904,45.826096,45.854435,45.88482,45.919327,45.95441,45.987133,46.027275,46.07032,46.108826,46.145508,46.18822,46.228256,46.25821,46.28225,46.29443,46.292027,46.282276,46.262756,46.23462,46.20542,46.176254,46.139507,46.102264,46.071915,46.04109,46.009415,45.979942,45.953262,45.919174,45.860897,45.778404,45.68077,45.548782,45.413494,45.307037,45.204002,45.09845,44.945335,44.724304,44.283062,43.504333,42.46157,41.390305,38.706493,35.842102,34.22484,32.92344,32.037262,31.705688,31.65486,31.696562,31.813986,31.92746,32.005814,32.11794,32.22736,32.287743,32.3048,32.196465,31.948103,31.657047,31.305641,30.92611,30.608574,30.363297,30.173054,30.074179,30.060709,30.091942,30.240654,30.537758,30.910648,31.43631,32.092506,32.77283,33.411865,33.9817,34.436836,34.71486,34.837364,34.860336,34.759014,34.610428,34.478924,34.370888,34.30822,34.27216,34.238262,34.21487,34.20862,34.217518,34.23638,34.259415,34.280342,34.3035,34.35452,34.443443,34.551235,34.697765,34.898968,35.124107,35.338882,35.623867,35.99395,36.405518,36.86148,37.443897,38.163815,38.94667,39.96273,41.373466,42.699226,43.50657,44.47529,45.44745,46.237183,46.893326,47.502014,47.902145,48.08806,48.19658,48.181267,48.08369,47.999863,47.79168,47.443512,46.997574,46.493675,45.732704,44.613014,43.256218,41.517593,38.933887,36.284813,34.397316,32.85754,31.67967,30.9435,30.560787,30.142855,29.861843,29.768055,29.715654,29.699558,29.70234,29.696743
42.72901,42.76803,42.802734,42.83596,42.875656,42.916367,42.951866,42.99067,43.034653,43.074486,43.104652,43.13482,43.16854,43.203854,43.237312,43.277626,43.318695,43.353462,43.388206,43.423218,43.45213,43.473846,43.49616,43.518425,43.53848,43.556446,43.575977,43.592712,43.604057,43.61316,43.620033,43.626926,43.636368,43.65119,43.67375,43.700043,43.725857,43.757095,43.789326,43.814476,43.82778,43.844677,43.86397,43.88063,43.89874,43.91927,43.939335,43.957172,43.978485,44.00167,44.02226,44.039314,44.057846,44.075546,44.090546,44.10574,44.121056,44.13302,44.1408,44.145996,44.150963,44.158276,44.168365,44.183342,44.202694,44.22294,44.246563,44.27893,44.314198,44.344635,44.37671,44.398643,44.40744,44.41432,44.41889,44.41629,44.40806,44.399864,44.392372,44.388138,44.38672,44.387325,44.393543,44.399742,44.39737,44.396885,44.39947,44.40416,44.409973,44.41786,44.426056,44.43272,44.440147,44.44684,44.45036,44.451027,44.4488,44.443134,44.436172,44.429077,44.42126,44.414955,44.41118,44.408592,44.40796,44.40969,44.41252,44.417084,44.423447,44.4302,44.4368,44.44529,44.455284,44.464943,44.474716,44.484943,44.49271,44.49704,44.499092,44.499382,44.49925,44.499573,44.501022,44.504032,44.507675,44.511414,44.516296,44.522625,44.529762,44.53983,44.55326,44.567215,44.5795,44.59314,44.60672,44.6186,44.629932,44.643776,44.657093,44.66726,44.676727,44.68752,44.700333,44.71416,44.73812,44.77619,44.822166,44.870342,44.936768,45.014046,45.086636,45.16565,45.25789,45.34725,45.42212,45.502888,45.584652,45.656082,45.717846,45.786903,45.85109,45.900642,45.944397,45.987183,46.022808,46.05017,46.080597,46.1165,46.154114,46.189953,46.234154,46.281364,46.32308,46.36219,46.407,46.44819,46.478348,46.5014,46.51159,46.506638,46.494133,46.47142,46.440445,46.409393,46.378807,46.34087,46.3029,46.27237,46.242558,46.214645,46.19159,46.172043,46.14778,46.09686,46.016514,45.918934,45.7891,45.650337,45.535786,45.443073,45.36055,45.225677,45.005337,44.507374,43.64455,42.330696,40.530457,37.412888,34.35552,32.621243,31.431896,30.647713,30.330647,30.249218,30.237915,30.351704,30.516281,30.636295,30.76629,30.872194,30.924086,30.930037,30.8366,30.642323,30.42163,30.125698,29.797714,29.55201,29.41666,29.354908,29.388113,29.485336,29.614601,29.85519,30.205992,30.598888,31.174366,31.893906,32.615902,33.258152,33.86327,34.337036,34.606308,34.73195,34.76612,34.68058,34.544632,34.421104,34.318314,34.25572,34.215313,34.17536,34.150368,34.149437,34.166092,34.197136,34.235283,34.27078,34.309395,34.37872,34.48813,34.61689,34.790173,35.026665,35.29203,35.547558,35.885117,36.32824,36.810432,37.293617,37.921944,38.743256,39.67765,41.002975,42.490257,43.662697,44.398552,45.293015,46.230057,47.00383,47.577423,48.128944,48.49402,48.637234,48.66141,48.548912,48.372475,48.23362,48.000076,47.61815,47.094406,46.466007,45.54662,44.22942,42.594204,40.131557,37.214294,34.811783,33.32241,32.09246,31.220247,30.69628,30.338013,30.00055,29.800007,29.740799,29.706932,29.69664,29.702105,29.704544
42.885983,42.924187,42.95793,42.990242,43.02902,43.06932,43.105087,43.144943,43.18884,43.225708,43.250343,43.278625,43.311985,43.34649,43.379105,43.41889,43.46001,43.495213,43.530716,43.566914,43.597267,43.620396,43.644733,43.669483,43.69197,43.712326,43.734016,43.75228,43.764565,43.77441,43.781967,43.789032,43.79797,43.811058,43.830315,43.852432,43.873905,43.900253,43.928963,43.953827,43.972782,43.990616,44.006493,44.02082,44.037224,44.055885,44.07385,44.089706,44.10874,44.12934,44.147934,44.164852,44.18301,44.200043,44.214596,44.230217,44.247704,44.26329,44.274963,44.281677,44.287956,44.29785,44.3111,44.33075,44.35602,44.38262,44.4159,44.45923,44.50418,44.542442,44.575584,44.597286,44.608757,44.620205,44.631134,44.63586,44.633987,44.630936,44.626984,44.622883,44.619003,44.616306,44.61602,44.615677,44.611088,44.60895,44.610466,44.614395,44.61965,44.627907,44.637085,44.644455,44.652313,44.65899,44.66191,44.661606,44.657314,44.64871,44.638687,44.628456,44.616577,44.60589,44.598255,44.59175,44.58705,44.585407,44.585808,44.58809,44.592545,44.59787,44.60328,44.61035,44.618828,44.62711,44.635483,44.64415,44.65049,44.65367,44.654503,44.65351,44.652252,44.65164,44.65213,44.65448,44.65793,44.66176,44.667313,44.674946,44.683662,44.695824,44.712242,44.729645,44.745285,44.763206,44.781517,44.797447,44.81199,44.82859,44.843422,44.85399,44.86307,44.873077,44.885143,44.898365,44.921814,44.95955,45.00533,45.05327,45.11963,45.197334,45.27083,45.35128,45.446175,45.538918,45.616905,45.701057,45.786263,45.860367,45.923676,45.99408,46.058975,46.108627,46.15216,46.19482,46.230865,46.25916,46.291878,46.331715,46.37419,46.4151,46.4655,46.518883,46.565414,46.608555,46.657055,46.700676,46.731976,46.75493,46.76384,46.75698,46.742477,46.717667,46.68531,46.653862,46.623226,46.58561,46.547962,46.517555,46.488403,46.463223,46.44493,46.430546,46.413383,46.365967,46.283386,46.182053,46.043983,45.89154,45.76573,45.684677,45.635006,45.523598,45.293724,44.722324,43.774197,42.209206,39.711796,36.08566,32.87007,31.208414,30.143753,29.437515,29.121536,29.021858,28.968819,29.017948,29.124352,29.212608,29.319637,29.429367,29.503654,29.520582,29.454824,29.302504,29.124018,28.89,28.64069,28.474327,28.409317,28.436375,28.564238,28.745491,28.957859,29.28477,29.71513,30.174957,30.80352,31.614948,32.418648,33.07197,33.726143,34.229095,34.49135,34.613583,34.659393,34.591904,34.466736,34.348557,34.25149,34.19198,34.1493,34.10588,34.081696,34.087902,34.11418,34.157845,34.210564,34.260212,34.31367,34.40352,34.537643,34.690907,34.894646,35.17727,35.497086,35.801304,36.217865,36.741318,37.281906,37.80986,38.56984,39.632137,40.823097,42.269203,43.625656,44.596436,45.338417,46.2378,47.130516,47.82042,48.347084,48.84552,49.13011,49.174026,49.11274,48.910675,48.65445,48.45308,48.168938,47.710686,47.068558,46.30123,45.193665,43.311157,40.880142,38.03038,35.33368,33.523514,32.449036,31.560207,30.928928,30.52463,30.20549,29.947836,29.806562,29.755676,29.733212,29.727581,29.729107,29.723656
