20.27241,20.271652,20.269487,20.265656,20.260218,20.25229,20.242657,20.232576,20.222916,20.214565,20.205706,20.196585,20.18708,20.177479,20.167892,20.158627,20.150566,20.143448,20.137308,20.130716,20.123806,20.116882,20.110155,20.104134,20.098633,20.093418,20.088095,20.082912,20.077723,20.072493,20.067638,20.063334,20.059446,20.055502,20.051731,20.048138,20.044819,20.041874,20.038887,20.036617,20.0348,20.03336,20.031778,20.029629,20.027027,20.024391,20.022236,20.019964,20.017593,20.015186,20.012764,20.01041,20.00808,20.005754,20.002666,19.998667,19.993546,19.987648,19.981411,19.97499,19.968515,19.961523,19.954136,19.946789,19.940216,19.934753,19.930246,19.926573,19.923492,19.920874,19.91858,19.916645,19.914955,19.91335,19.911854,19.909908,19.907352,19.903866,19.899239,19.89351,19.88726,19.881496,19.876484,19.872095,19.86787,19.86335,19.8585,19.85384,19.850002,19.847095,19.8444,19.84122,19.83785,19.832773,19.825775,19.81844,19.810787,19.802258,19.792313,19.781507,19.770496,19.760105,19.751093,19.743607,19.736942,19.73035,19.723646,19.716846,19.71019,19.703907,19.69794,19.69207,19.685493,19.677673,19.668585,19.658243,19.64681,19.634663,19.622253,19.608606,19.593761,19.578,19.561863,19.546106,19.531176,19.516962,19.502577,19.487446,19.471798,19.456295,19.441628,19.427664,19.41357,19.399204,19.383173,19.367691,19.35535,19.347137,19.343794,19.346802,19.354992,19.381578,19.418465,19.453571,19.473705,19.475052,19.460897,19.426428,19.386114,19.350533,19.3282,19.32034,19.308125,19.258297,19.149776,18.975399,18.721758,18.46411,18.249405,18.08633,17.974144,17.910904,17.8741,17.852955,17.836903,17.818357,17.79684,17.775951,17.759087,17.749378,17.745674,17.74932,17.758747,17.774647,17.801888,17.846167,17.910435,17.999329,18.137634,18.317417,18.501131,18.651066,18.751919,18.805754,18.823235,18.822262,18.813461,18.806396,18.801863,18.793396,18.776493,18.748833,18.712383,18.675676,18.644188,18.6173,18.591356,18.563057,18.526882,18.491333,18.469091,18.45784,18.444172,18.394747,18.263596,18.026848,17.69474,17.346237,17.02807,16.791666,16.652311,16.574,16.523209,16.469906,16.392258,16.277287,16.135998,15.996223,15.873113,15.757395,15.647697,15.525335,15.3800125,15.222103,15.078293,14.973178,14.913945,14.886926,14.888582,14.902781,14.911696,14.904093,14.879484,14.845596,14.811909,14.776086,14.731506,14.656519,14.532494,14.361864,14.16901,13.984604,13.82196,13.687307,13.584881,13.503223,13.428816,13.3533745,13.271465,13.182569,13.084412,12.973496,12.851776,12.724232,12.597343,12.479712,12.37696,12.282347,12.199976,12.130122,12.072828,12.027224,11.990446,11.961564,11.935082,11.908903,11.883522,11.860998,11.8436775,11.832037,11.823839,11.815094,11.805258,11.793987,11.781078,11.76731,11.753452,11.739037,11.724004,11.708183,11.69292,11.673902,11.646205,11.607424,11.557536,11.499542,11.435274,11.3687105,11.3062525,11.251249,11.201639,11.153946,11.108654,11.060192,11.009029,10.958687,10.913145,10.871399,10.8292675,10.787445,10.743065,10.695968,10.647301,10.597885,10.5450945,10.4854355,10.420256,10.347492,10.264171
20.004528,20.003063,20.000582,19.996403,19.990536,19.982248,19.972393,19.962284,19.952839,19.944939,19.936886,19.928812,19.920559,19.912373,19.9043,19.896524,19.889755,19.883717,19.87841,19.872437,19.865927,19.859201,19.852535,19.846487,19.840939,19.835789,19.830751,19.826122,19.821793,19.817663,19.813984,19.810843,19.808151,19.805428,19.802742,19.799957,19.797075,19.794167,19.790894,19.788105,19.785631,19.783497,19.781296,19.778704,19.77584,19.773039,19.770767,19.76839,19.76603,19.763802,19.761803,19.760103,19.7585,19.756855,19.754387,19.750847,19.746025,19.740301,19.734165,19.727825,19.721432,19.71449,19.707111,19.699703,19.692986,19.687351,19.682735,19.679005,19.675941,19.673428,19.671326,19.669634,19.668156,19.666645,19.665106,19.663033,19.660288,19.656578,19.651745,19.645807,19.639301,19.633228,19.627851,19.623085,19.618599,19.614038,19.609415,19.605228,19.602009,19.599731,19.598272,19.597107,19.595928,19.594036,19.591124,19.587204,19.58184,19.574112,19.564192,19.55326,19.542091,19.531467,19.522236,19.51456,19.507677,19.500872,19.494038,19.487226,19.480698,19.474659,19.469,19.463467,19.457321,19.450027,19.441517,19.431763,19.420898,19.409264,19.397274,19.38404,19.369595,19.354193,19.33838,19.322903,19.308205,19.294205,19.28001,19.265003,19.249367,19.233776,19.219032,19.205305,19.192158,19.179605,19.166504,19.154823,19.146292,19.141237,19.139816,19.14287,19.150112,19.164736,19.185677,19.211853,19.230513,19.229666,19.21064,19.178583,19.14484,19.12166,19.118565,19.138449,19.164886,19.165257,19.114548,18.999866,18.803848,18.55951,18.34419,18.185768,18.066105,17.991795,17.944683,17.914682,17.89172,17.868607,17.84459,17.822853,17.806818,17.799381,17.799316,17.807743,17.822586,17.843895,17.87623,17.925554,17.99543,18.09882,18.253016,18.436134,18.610573,18.74466,18.825855,18.861423,18.863853,18.851717,18.835876,18.824223,18.81571,18.802996,18.78121,18.74698,18.704334,18.662424,18.627495,18.599735,18.575132,18.548885,18.515442,18.480667,18.45909,18.453255,18.454208,18.424946,18.310055,18.083393,17.74655,17.382744,17.054144,16.814754,16.677486,16.607128,16.564629,16.520287,16.44958,16.337486,16.194477,16.050621,15.925402,15.811425,15.695793,15.561937,15.40974,15.243406,15.090463,14.9830265,14.925683,14.9021845,14.907554,14.924034,14.933041,14.924074,14.898632,14.866073,14.835438,14.798376,14.753732,14.6790695,14.5522785,14.374511,14.173208,13.983572,13.818719,13.684095,13.583115,13.502829,13.428883,13.353388,13.271652,13.183313,13.08639,12.977154,12.856867,12.730044,12.603237,12.485371,12.382603,12.288523,12.207176,12.138342,12.081376,12.035089,11.9969015,11.966409,11.938717,11.912239,11.887382,11.865886,11.849487,11.837998,11.82908,11.819137,11.807449,11.794245,11.779829,11.765085,11.750595,11.735668,11.720153,11.7037735,11.688083,11.669783,11.64436,11.608944,11.562897,11.508245,11.445829,11.379441,11.315567,11.2583885,11.206888,11.158001,11.112042,11.06331,11.011898,10.961311,10.915564,10.873587,10.831144,10.788963,10.74394,10.696319,10.647821,10.599544,10.548792,10.491621,10.428558,10.357227,10.27474
19.72865,19.726988,19.724297,19.719896,19.713833,19.70546,19.695684,19.68585,19.676908,19.669758,19.662693,19.655834,19.649002,19.642399,19.635983,19.629786,19.624367,19.619408,19.614876,19.609417,19.603191,19.59657,19.589874,19.583729,19.578056,19.572878,19.568,19.563816,19.560242,19.557106,19.554531,19.552502,19.550968,19.549416,19.547768,19.545738,19.543201,19.540218,19.536568,19.533195,19.529987,19.527136,19.524351,19.521355,19.518255,19.515339,19.512983,19.510578,19.508305,19.506351,19.504879,19.50391,19.503094,19.502186,19.500364,19.497322,19.492859,19.487396,19.481482,19.475372,19.46918,19.46244,19.45521,19.447884,19.441164,19.435476,19.43081,19.427069,19.424046,19.421675,19.419785,19.418331,19.417046,19.415607,19.413998,19.411732,19.40878,19.404858,19.399841,19.393726,19.386988,19.380571,19.374775,19.369528,19.364637,19.35989,19.355362,19.35151,19.348747,19.346905,19.34599,19.34552,19.344997,19.343948,19.342041,19.339077,19.33509,19.32956,19.322327,19.314186,19.30587,19.297623,19.289352,19.281166,19.273802,19.26642,19.259327,19.252544,19.246132,19.240229,19.234726,19.229317,19.223297,19.216179,19.207882,19.198381,19.187828,19.176552,19.164902,19.152094,19.138165,19.123367,19.108248,19.09348,19.079414,19.066021,19.052357,19.037785,19.022438,19.00684,18.991776,18.977676,18.964489,18.952457,18.94093,18.932,18.927052,18.926039,18.928427,18.933996,18.942192,18.952904,18.965664,18.977795,18.981586,18.970032,18.94365,18.908861,18.872944,18.84384,18.83949,18.865145,18.907373,18.942116,18.946415,18.898073,18.77761,18.594307,18.40647,18.255014,18.1409,18.061789,18.007423,17.969727,17.9403,17.913118,17.887424,17.86597,17.852049,17.848011,17.852623,17.866108,17.885525,17.912045,17.950733,18.005512,18.07835,18.190252,18.339817,18.504807,18.651934,18.754347,18.8055,18.81837,18.806335,18.786839,18.769344,18.75819,18.749546,18.735392,18.711365,18.676296,18.63102,18.586605,18.55027,18.522562,18.499172,18.474232,18.441849,18.40776,18.388279,18.390175,18.408009,18.405039,18.319975,18.113811,17.78763,17.414734,17.079144,16.838633,16.702972,16.640797,16.606358,16.570557,16.507679,16.40086,16.259476,16.114285,15.986312,15.869087,15.751832,15.6088915,15.443968,15.267155,15.106756,14.994694,14.938526,14.918205,14.926829,14.944794,14.95229,14.940245,14.912897,14.880649,14.850999,14.815587,14.772755,14.697061,14.568228,14.386404,14.17647,13.981472,13.814657,13.680307,13.581153,13.502642,13.429455,13.354145,13.272804,13.185185,13.089642,12.982305,12.86371,12.737865,12.611351,12.4934025,12.390689,12.297165,12.216814,12.1489105,12.092142,12.045019,12.005241,11.972944,11.943853,11.916907,11.892426,11.871847,11.856268,11.844782,11.835038,11.823818,11.810299,11.795287,11.779539,11.764002,11.74904,11.73366,11.717701,11.70076,11.684565,11.666881,11.643657,11.611611,11.569521,11.518387,11.457996,11.391888,11.326538,11.266967,11.213312,11.16305,11.1163845,11.067551,11.016195,10.965663,10.919854,10.877623,10.834763,10.792143,10.746464,10.698393,10.650133,10.603004,10.5542755,10.499581,10.438639,10.368656,10.286753
19.45601,19.454084,19.451061,19.446415,19.440258,19.432,19.422583,19.413338,19.405176,19.398975,19.393017,19.387424,19.382006,19.376905,19.372002,19.367218,19.36296,19.35885,19.35485,19.349651,19.343502,19.33683,19.330013,19.323727,19.31791,19.312653,19.307869,19.304043,19.301107,19.29881,19.297188,19.296116,19.295599,19.295105,19.29441,19.293087,19.290882,19.287834,19.283867,19.280006,19.27621,19.272799,19.269579,19.26633,19.26316,19.260284,19.257998,19.255766,19.253777,19.252258,19.251406,19.251213,19.251202,19.251015,19.249863,19.247349,19.243288,19.23816,19.232561,19.226753,19.220844,19.21439,19.207397,19.200245,19.193613,19.187931,19.183228,19.179466,19.176449,19.174152,19.172424,19.171146,19.169977,19.168554,19.166817,19.164337,19.161161,19.15705,19.151897,19.145708,19.138853,19.13217,19.126034,19.120354,19.115067,19.110092,19.105568,19.101902,19.099422,19.097876,19.097164,19.0968,19.096264,19.09503,19.0928,19.08965,19.085958,19.0815,19.075863,19.069439,19.062798,19.056305,19.050045,19.044098,19.038929,19.034176,19.028038,19.021023,19.014162,19.007877,19.00217,18.99654,18.990217,18.982788,18.97424,18.9646,18.954052,18.942947,18.93156,18.919168,18.905836,18.891857,18.877724,18.863972,18.850853,18.838358,18.825508,18.81165,18.796913,18.781658,18.766602,18.752348,18.739105,18.727215,18.716433,18.708916,18.705906,18.707193,18.711742,18.718493,18.726473,18.7357,18.744593,18.748087,18.741852,18.723934,18.695248,18.660263,18.623808,18.592043,18.579716,18.592815,18.62975,18.678017,18.709452,18.709686,18.656292,18.546108,18.406357,18.276142,18.176146,18.101292,18.04625,18.005775,17.973461,17.944786,17.919294,17.899477,17.888475,17.8881,17.896353,17.915388,17.941776,17.973644,18.013742,18.067337,18.140053,18.24643,18.376265,18.51054,18.621239,18.687256,18.708532,18.7019,18.680355,18.658638,18.643589,18.635437,18.62778,18.612701,18.587124,18.551355,18.506994,18.463888,18.428864,18.403128,18.381882,18.357412,18.324656,18.290585,18.27286,18.28181,18.315285,18.339497,18.29063,18.114336,17.811672,17.439888,17.103355,16.864183,16.729214,16.672188,16.644615,16.614304,16.557869,16.457588,16.32134,16.1792,16.051453,15.930393,15.808538,15.662287,15.483295,15.295258,15.129293,15.011214,14.955822,14.93804,14.948804,14.966517,14.970154,14.952591,14.921371,14.888192,14.859472,14.827166,14.787163,14.710621,14.58126,14.3977375,14.179461,13.9786,13.811598,13.678251,13.581312,13.504977,13.432747,13.357584,13.276493,13.189344,13.094972,12.989477,12.872663,12.747948,12.621877,12.503929,12.401169,12.307952,12.22823,12.160854,12.10397,12.055834,12.014379,11.980179,11.949542,11.921889,11.897499,11.877585,11.862656,11.8511305,11.840715,11.828526,11.813715,11.7975445,11.78101,11.764996,11.749622,11.733683,11.717133,11.699494,11.682724,11.6655855,11.644474,11.615698,11.577465,11.52985,11.471579,11.405933,11.339274,11.277365,11.221523,11.169876,11.122562,11.073821,11.022821,10.972583,10.926744,10.884114,10.840706,10.797652,10.751549,10.703369,10.655565,10.609499,10.562391,10.509608,10.450264,10.381108,10.299303
19.195621,19.193216,19.189796,19.184948,19.17882,19.170862,19.162022,19.15358,19.146385,19.141207,19.13636,19.13197,19.127798,19.12395,19.120255,19.116552,19.113106,19.109533,19.105766,19.100567,19.094288,19.087454,19.080498,19.074085,19.068161,19.062862,19.058159,19.054623,19.052177,19.050533,19.049648,19.049313,19.049591,19.049965,19.050072,19.049349,19.04746,19.04441,19.04026,19.03608,19.031914,19.028158,19.024689,19.021341,19.018238,19.015533,19.013466,19.011559,19.009998,19.009003,19.008785,19.009315,19.010017,19.01046,19.00992,19.007921,19.00427,18.9995,18.994244,18.988756,18.983158,18.977009,18.970299,18.96336,18.956863,18.951225,18.946495,18.9427,18.939648,18.937355,18.935703,18.934525,18.933407,18.931961,18.930096,18.927418,18.92404,18.919785,18.914598,18.908463,18.90164,18.894867,18.888554,18.882595,18.876999,18.871807,18.867168,18.86347,18.860994,18.85946,18.858723,18.858276,18.857588,18.85612,18.853643,18.85032,18.846493,18.841938,18.836357,18.83009,18.823559,18.817482,18.812565,18.808903,18.805902,18.803486,18.799334,18.794073,18.789011,18.78397,18.778034,18.771692,18.76447,18.756155,18.746887,18.736755,18.725967,18.714857,18.70364,18.691635,18.67893,18.665878,18.652897,18.640371,18.628435,18.617044,18.605232,18.592373,18.578594,18.564148,18.549648,18.535765,18.522844,18.511164,18.500675,18.493408,18.49052,18.49183,18.49625,18.502502,18.509518,18.516907,18.523502,18.525793,18.520035,18.504265,18.479424,18.44896,18.416462,18.38852,18.372074,18.372879,18.395887,18.435097,18.467487,18.48798,18.475227,18.419937,18.333004,18.240265,18.16183,18.099812,18.05196,18.015314,17.985237,17.958645,17.935616,17.91865,17.910767,17.913227,17.926004,17.950409,17.981106,18.013458,18.0495,18.09645,18.160957,18.248562,18.350927,18.45068,18.524954,18.559334,18.558275,18.539597,18.514956,18.4955,18.48496,18.480007,18.472591,18.45578,18.428322,18.390856,18.348036,18.30733,18.274471,18.250992,18.232151,18.209644,18.178963,18.145697,18.128578,18.141972,18.187885,18.234997,18.21912,18.081905,17.812416,17.45359,17.124868,16.890888,16.756226,16.700737,16.676682,16.647629,16.595055,16.501646,16.37366,16.238838,16.115177,15.993205,15.864843,15.713743,15.524269,15.32738,15.156143,15.033573,14.978679,14.962797,14.974466,14.990364,14.988203,14.962971,14.926001,14.890877,14.863499,14.834414,14.79747,14.721526,14.591353,14.406018,14.183334,13.976874,13.810976,13.679349,13.58504,13.511183,13.439964,13.364697,13.283485,13.196316,13.102669,12.99873,12.883568,12.75997,12.63439,12.516426,12.413428,12.320137,12.240538,12.173197,12.115867,12.0666275,12.023557,11.98753,11.955334,11.926779,11.90217,11.882586,11.868053,11.856463,11.845612,11.8328705,11.817436,11.800854,11.784109,11.767876,11.752079,11.735432,11.718109,11.699715,11.682426,11.665875,11.646793,11.621071,11.58638,11.542086,11.485924,11.42095,11.353319,11.289373,11.231527,11.178623,11.13078,11.082287,11.031832,10.98197,10.935959,10.892642,10.84847,10.804953,10.758698,10.710809,10.663708,10.618583,10.5725765,10.520987,10.462599,10.393732,10.31164
18.953938,18.95098,18.947166,18.942173,18.936197,18.928717,18.920614,18.913097,18.906929,18.90276,18.898922,18.895569,18.892403,18.8895,18.886692,18.883724,18.880764,18.877468,18.87371,18.868366,18.861883,18.854895,18.847878,18.841438,18.835514,18.830242,18.825651,18.822346,18.820257,18.819057,18.818676,18.818844,18.819658,18.82066,18.821358,18.821089,18.81945,18.81645,18.812237,18.807905,18.803566,18.799662,18.7961,18.79275,18.78973,18.787209,18.785395,18.78381,18.782648,18.782112,18.78241,18.783484,18.784714,18.785633,18.785568,18.783989,18.780708,18.77627,18.77131,18.76612,18.76083,18.755005,18.748611,18.741932,18.73563,18.730091,18.72537,18.721552,18.718464,18.71614,18.714516,18.713383,18.7123,18.710846,18.708916,18.706106,18.702606,18.698288,18.693188,18.687233,18.680584,18.673912,18.667614,18.66156,18.65582,18.650501,18.645733,18.641865,18.639208,18.637453,18.636454,18.635677,18.634575,18.632643,18.629728,18.626064,18.622025,18.617481,18.61213,18.60625,18.600212,18.59454,18.58972,18.585808,18.58245,18.579174,18.576315,18.573921,18.57206,18.569536,18.56443,18.558285,18.550983,18.542253,18.532223,18.52135,18.510143,18.498882,18.487755,18.476116,18.464031,18.451908,18.440125,18.428915,18.418278,18.408113,18.39748,18.385815,18.373215,18.359818,18.34612,18.33281,18.32035,18.30891,18.298538,18.291111,18.28772,18.288296,18.29192,18.297327,18.303493,18.309948,18.316109,18.319395,18.31678,18.306358,18.2883,18.264679,18.237686,18.212128,18.195042,18.192211,18.20351,18.22405,18.249218,18.270428,18.273874,18.252096,18.20844,18.15448,18.101978,18.0573,18.021603,17.993294,17.969107,17.947136,17.928062,17.914532,17.90947,17.914022,17.931961,17.958584,17.98648,18.012833,18.041721,18.078896,18.126228,18.189522,18.262312,18.329243,18.372587,18.383537,18.368711,18.344667,18.32127,18.306091,18.300005,18.297197,18.289036,18.270035,18.240902,18.203102,18.16109,18.122066,18.091148,18.069382,18.05263,18.03376,18.007624,17.977287,17.96154,17.977722,18.031574,18.094446,18.105572,18.013145,17.784517,17.451595,17.14043,16.9162,16.783386,16.727901,16.703539,16.672794,16.622131,16.535501,16.417679,16.292868,16.175413,16.054127,15.921406,15.759621,15.563314,15.35994,15.183213,15.060202,15.005695,14.991428,15.003738,15.016342,15.007212,14.97437,14.932059,14.894682,14.867624,14.841917,14.806688,14.731264,14.599055,14.411316,14.188588,13.977314,13.812832,13.683409,13.5921135,13.520887,13.450584,13.374855,13.293055,13.205341,13.111959,13.009223,12.895442,12.772793,12.647629,12.529577,12.426184,12.332516,12.252668,12.185045,12.1271515,12.076944,12.032553,11.99502,11.961466,11.9319935,11.906983,11.887435,11.873032,11.86129,11.850098,11.837019,11.821304,11.804677,11.787954,11.771554,11.7553215,11.737981,11.71991,11.701006,11.683536,11.667757,11.65063,11.62764,11.595985,11.554633,11.500497,11.436407,11.368273,11.302797,11.243298,11.189332,11.141071,11.092839,11.042907,10.993235,10.94666,10.902182,10.856835,10.812597,10.766211,10.718735,10.67239,10.628042,10.5827465,10.531872,10.474066,10.405308,10.322916
18.7346,18.731167,18.727121,18.722128,18.716457,18.709587,18.702332,18.695782,18.690605,18.687363,18.68437,18.681835,18.679422,18.677181,18.674944,18.672438,18.669739,18.666527,18.662651,18.657124,18.650486,18.64344,18.636482,18.630177,18.624382,18.61922,18.614792,18.61171,18.609875,18.608938,18.608833,18.60932,18.61045,18.611847,18.612947,18.613007,18.611576,18.60868,18.604527,18.600235,18.595943,18.59208,18.58857,18.585285,18.582367,18.579979,18.578348,18.576988,18.576096,18.575842,18.576427,18.577805,18.579346,18.580536,18.580786,18.57951,18.576511,18.572327,18.567616,18.562683,18.557686,18.5522,18.546143,18.539791,18.533741,18.528334,18.523647,18.519817,18.516685,18.514313,18.512665,18.511543,18.51049,18.509068,18.507107,18.504269,18.500744,18.496471,18.491537,18.485868,18.479538,18.473118,18.46702,18.461098,18.455399,18.450085,18.445267,18.441242,18.43832,18.436245,18.434845,18.433582,18.4319,18.429317,18.425755,18.421535,18.417126,18.412394,18.407066,18.401388,18.395662,18.390324,18.385769,18.382008,18.378702,18.375427,18.372221,18.36921,18.366417,18.363716,18.360744,18.357018,18.351915,18.344429,18.334372,18.323036,18.311682,18.30046,18.28957,18.27831,18.266823,18.255592,18.244917,18.234903,18.22548,18.216469,18.207008,18.196507,18.185047,18.172638,18.159695,18.146961,18.135021,18.124002,18.113956,18.106625,18.102926,18.102793,18.105434,18.109734,18.11473,18.120003,18.125381,18.129124,18.128975,18.123175,18.111225,18.094128,18.072868,18.05075,18.03353,18.026138,18.030342,18.043816,18.061256,18.077347,18.086775,18.08424,18.066795,18.038204,18.006794,17.978745,17.95549,17.936337,17.918926,17.902164,17.887241,17.87688,17.87392,17.880299,17.898808,17.921967,17.944387,17.963799,17.98191,18.00329,18.03223,18.07288,18.119621,18.159904,18.180641,18.176754,18.155197,18.13008,18.109398,18.097866,18.094246,18.091637,18.081806,18.060751,18.030735,17.993782,17.954073,17.918201,17.890547,17.871893,17.857998,17.841497,17.817724,17.791798,17.779808,17.798283,17.854748,17.926613,17.961184,17.910067,17.727005,17.433245,17.147795,16.93705,16.809612,16.754265,16.728104,16.694887,16.645365,16.565044,16.4575,16.34296,16.231613,16.110958,15.973995,15.802651,15.600509,15.390007,15.208902,15.089152,15.035344,15.02283,15.035425,15.042511,15.026112,14.988651,14.944199,14.905188,14.877386,14.854324,14.817917,14.740894,14.607265,14.41823,14.194721,13.9786215,13.816166,13.6893635,13.601276,13.532684,13.463091,13.386507,13.303613,13.21487,13.121424,13.019588,12.906893,12.784946,12.660049,12.541834,12.437955,12.343769,12.263502,12.195496,12.137154,12.086342,12.041121,12.002595,11.968075,11.937874,11.912467,11.892809,11.878363,11.86639,11.854837,11.841408,11.825416,11.808696,11.791891,11.775226,11.758559,11.740723,11.722141,11.703187,11.686038,11.671268,11.655983,11.635338,11.606136,11.567287,11.515077,11.452127,11.384059,11.317701,11.257013,11.202208,11.153597,11.105465,11.055804,11.0058975,10.958202,10.911983,10.864922,10.819504,10.772715,10.725429,10.679635,10.635818,10.590945,10.540536,10.483154,10.414588,10.332167
18.528675,18.524925,18.520828,18.515993,18.51078,18.504637,18.498291,18.492746,18.488527,18.4861,18.483807,18.481892,18.480007,18.478172,18.476238,18.473938,18.471298,18.468021,18.46394,18.458221,18.451498,18.444504,18.437723,18.431664,18.426092,18.42114,18.416924,18.414032,18.412361,18.411573,18.411608,18.412197,18.413471,18.415058,18.41638,18.416676,18.415455,18.412725,18.408798,18.404736,18.400661,18.397026,18.393711,18.390575,18.38779,18.385544,18.384045,18.382812,18.382055,18.381908,18.38255,18.383972,18.385578,18.386847,18.387241,18.38615,18.383347,18.379374,18.374886,18.370186,18.365482,18.36031,18.354614,18.348595,18.342789,18.337517,18.332855,18.328983,18.325775,18.323286,18.321545,18.32034,18.319244,18.317833,18.315907,18.313086,18.30962,18.305496,18.300825,18.295532,18.289646,18.28365,18.277908,18.272305,18.26688,18.261744,18.25698,18.252861,18.249678,18.247238,18.245348,18.24348,18.241106,18.237747,18.233402,18.228516,18.223576,18.21849,18.213007,18.207317,18.201687,18.19651,18.192097,18.188374,18.185047,18.181679,18.178263,18.174942,18.171734,18.168447,18.16468,18.159985,18.153893,18.146408,18.137945,18.129322,18.120722,18.111572,18.102077,18.091072,18.079895,18.069292,18.059483,18.050465,18.042103,18.034134,18.025757,18.016392,18.006065,17.994732,17.982708,17.970734,17.9595,17.949093,17.939472,17.93219,17.927979,17.926777,17.92801,17.93085,17.934483,17.938599,17.943459,17.94803,17.950745,17.949965,17.944588,17.934685,17.920258,17.903183,17.887703,17.877645,17.875172,17.880154,17.889908,17.900936,17.910244,17.914173,17.909634,17.89762,17.882645,17.868633,17.856773,17.84653,17.836006,17.82451,17.813564,17.805931,17.803938,17.80846,17.823544,17.841425,17.855585,17.863665,17.868368,17.875011,17.887932,17.909554,17.935692,17.956602,17.9627,17.951012,17.927711,17.904186,17.88699,17.878197,17.875637,17.872225,17.86037,17.837431,17.806965,17.771372,17.734379,17.702848,17.679424,17.664125,17.653435,17.6404,17.620804,17.60207,17.59224,17.608395,17.6646,17.74332,17.793898,17.772293,17.64122,17.39666,17.143957,16.951431,16.832977,16.778772,16.749966,16.714052,16.665241,16.591002,16.493896,16.389751,16.284372,16.164433,16.02344,15.843555,15.635973,15.420453,15.237732,15.121948,15.068943,15.059612,15.063974,15.0625,15.041855,15.004246,14.960638,14.921301,14.895763,14.870506,14.834072,14.755979,14.619173,14.4275875,14.2023735,13.981194,13.8208275,13.696845,13.612118,13.546144,13.4770775,13.399335,13.314976,13.224915,13.131283,13.030228,12.91839,12.796928,12.672186,12.553726,12.449295,12.354469,12.273643,12.205181,12.146481,12.095337,12.049692,12.010599,11.975477,11.944753,11.919012,11.899192,11.884598,11.872356,11.860414,11.846571,11.830229,11.81332,11.796361,11.7794075,11.762362,11.744217,11.725331,11.706604,11.690054,11.676373,11.662728,11.644059,11.616888,11.580269,11.530029,11.468584,11.401148,11.33448,11.273001,11.217524,11.168556,11.120352,11.070679,11.02013,10.970848,10.922436,10.873235,10.826284,10.778834,10.73149,10.686028,10.642509,10.597813,10.547664,10.490576,10.422253,10.340021
18.315868,18.312157,18.308327,18.303925,18.299385,18.294132,18.28878,18.284218,18.280884,18.279161,18.277435,18.275963,18.274408,18.272768,18.270931,18.268652,18.265928,18.262527,18.258274,18.252457,18.245773,18.238958,18.232458,18.226723,18.22144,18.216732,18.212729,18.210009,18.208443,18.207705,18.207767,18.208355,18.209612,18.21126,18.212673,18.213108,18.212097,18.209654,18.206087,18.202423,18.198769,18.195515,18.192524,18.189632,18.18702,18.184896,18.183487,18.182316,18.18157,18.18135,18.181824,18.183002,18.184366,18.185453,18.185751,18.18467,18.181973,18.178165,18.173872,18.169395,18.164936,18.160084,18.154724,18.149044,18.143517,18.138418,18.133835,18.129967,18.126688,18.124065,18.12216,18.12079,18.11956,18.118095,18.11619,18.113453,18.110146,18.106285,18.10203,18.097298,18.092045,18.086674,18.08153,18.076492,18.071594,18.066908,18.062458,18.058422,18.055056,18.052261,18.049805,18.04721,18.043978,18.039688,18.034431,18.028727,18.023113,18.017517,18.01166,18.005747,18.000008,17.994804,17.99039,17.986645,17.983238,17.979744,17.97609,17.972443,17.968792,17.964905,17.960417,17.954908,17.947975,17.939854,17.93113,17.922539,17.91438,17.906437,17.898827,17.890947,17.8835,17.8758,17.867779,17.85975,17.851925,17.844719,17.837225,17.828909,17.819641,17.8093,17.798143,17.786892,17.776289,17.766418,17.757154,17.74981,17.744995,17.742676,17.742464,17.743818,17.746086,17.749023,17.753132,17.757881,17.762287,17.7649,17.764189,17.759632,17.75066,17.737942,17.72445,17.713108,17.706154,17.704775,17.708244,17.71449,17.721973,17.728462,17.731392,17.730156,17.72651,17.722612,17.719328,17.715954,17.71095,17.70383,17.696146,17.690453,17.688637,17.691483,17.69909,17.70718,17.711395,17.710274,17.70581,17.701687,17.701595,17.706928,17.714886,17.719427,17.715012,17.700258,17.679365,17.66002,17.646538,17.638523,17.633144,17.625378,17.611557,17.591293,17.566717,17.539131,17.510387,17.484686,17.46466,17.45124,17.44209,17.432053,17.418015,17.402905,17.394524,17.403866,17.45068,17.528362,17.589922,17.593328,17.511654,17.325405,17.11659,16.950172,16.845537,16.794518,16.765215,16.72819,16.681026,16.613476,16.527487,16.434357,16.3353,16.216545,16.072258,15.885269,15.670288,15.453232,15.272327,15.1588,15.111263,15.094114,15.091238,15.085476,15.062208,15.023226,14.980859,14.944815,14.920229,14.896215,14.86038,14.779182,14.636803,14.440693,14.211788,13.984083,13.825888,13.70513,13.624182,13.561066,13.492513,13.413473,13.32761,13.236254,13.142544,13.042388,12.931503,12.810535,12.685831,12.566922,12.461695,12.365953,12.284292,12.215169,12.156076,12.104786,12.059015,12.019707,11.984263,11.953157,11.927102,11.907005,11.892069,11.879359,11.866786,11.85228,11.8352995,11.817947,11.800671,11.783389,11.766054,11.747816,11.728839,11.710527,11.69466,11.6818905,11.669527,11.652481,11.627104,11.592761,11.544943,11.485697,11.419671,11.353338,11.291416,11.235338,11.185948,11.137434,11.087418,11.035785,10.984428,10.933376,10.881645,10.832838,10.784458,10.736807,10.691415,10.647927,10.603165,10.5531025,10.496243,10.428259,10.346466
18.102272,18.098923,18.09563,18.091904,18.088215,18.083925,18.079552,18.075886,18.073292,18.072086,18.070738,18.069515,18.068085,18.066433,18.064486,18.062067,18.059164,18.055618,18.05125,18.045462,18.038956,18.032433,18.02629,18.02091,18.015951,18.011515,18.007736,18.005154,18.003641,18.002888,18.002884,18.003384,18.004507,18.006054,18.007421,18.00792,18.00713,18.005058,18.001984,17.998898,17.995811,17.993093,17.990543,17.987984,17.985594,17.98362,17.982292,17.981148,17.980335,17.979916,17.98003,17.980726,17.981579,17.982225,17.982208,17.980972,17.978277,17.974567,17.970402,17.966068,17.961803,17.957169,17.952084,17.946705,17.941437,17.936527,17.932056,17.928207,17.924868,17.922077,17.919922,17.91827,17.916805,17.915209,17.913292,17.910652,17.907547,17.904022,17.900269,17.896208,17.891724,17.887135,17.882713,17.87843,17.874268,17.870272,17.866375,17.862633,17.859257,17.85619,17.8532,17.849874,17.845758,17.84053,17.834362,17.827827,17.821495,17.815304,17.808928,17.802614,17.796581,17.791164,17.78659,17.78271,17.779167,17.775486,17.771557,17.767534,17.763422,17.758991,17.753944,17.747921,17.740501,17.731918,17.722757,17.713753,17.705368,17.697622,17.690613,17.684021,17.678108,17.672657,17.667685,17.663048,17.658205,17.65288,17.647095,17.639576,17.631008,17.621452,17.61109,17.600634,17.590677,17.581379,17.572489,17.565117,17.559732,17.556313,17.55463,17.554348,17.555012,17.556383,17.559002,17.562656,17.566845,17.570412,17.571789,17.570232,17.564892,17.555775,17.54488,17.534395,17.526281,17.522045,17.52193,17.5248,17.5297,17.535387,17.540108,17.542835,17.543983,17.54477,17.54573,17.545864,17.543903,17.539406,17.533674,17.52882,17.526306,17.526886,17.528854,17.529556,17.526299,17.518541,17.507927,17.497143,17.489576,17.48589,17.484089,17.480286,17.471012,17.45541,17.436214,17.41874,17.40554,17.396332,17.388767,17.37954,17.366413,17.3492,17.329521,17.308134,17.28574,17.264893,17.248177,17.23691,17.229378,17.221615,17.211277,17.19867,17.191605,17.19921,17.233273,17.294447,17.357113,17.376709,17.33299,17.212172,17.058182,16.924417,16.838226,16.793888,16.765873,16.730064,16.685905,16.62569,16.551167,16.46931,16.377037,16.26064,16.114925,15.923725,15.70395,15.488745,15.312956,15.200332,15.151229,15.128088,15.121668,15.113966,15.089247,15.049886,15.00971,14.97797,14.956469,14.9353695,14.899109,14.812128,14.661497,14.457727,14.221716,13.988039,13.831541,13.714073,13.637125,13.576947,13.508879,13.428516,13.341216,13.248745,13.155119,13.055933,12.946043,12.82556,12.70075,12.58116,12.474907,12.377996,12.295235,12.225242,12.165725,12.114449,12.068832,12.029671,11.994225,11.96295,11.936659,11.916231,11.900817,11.887492,11.8741,11.858713,11.840859,11.822862,11.805195,11.787674,11.770265,11.752259,11.733463,11.715708,11.700488,11.688292,11.676624,11.660634,11.636689,11.604557,11.559554,11.503229,11.439487,11.374271,11.312397,11.255895,11.206082,11.157011,11.106287,11.0531845,10.99938,10.94537,10.890864,10.839918,10.7902565,10.7418785,10.696111,10.652212,10.60701,10.5568,10.500074,10.432514,10.351446
17.892612,17.889816,17.887203,17.884264,17.881443,17.878077,17.874577,17.87165,17.869621,17.868748,17.86761,17.866459,17.864988,17.8632,17.861038,17.858387,17.855282,17.851616,17.847223,17.841589,17.83538,17.82924,17.823505,17.818504,17.813904,17.809786,17.806255,17.803818,17.802345,17.801533,17.8014,17.801731,17.802631,17.803934,17.805126,17.805595,17.804987,17.80331,17.800776,17.798298,17.795835,17.793674,17.791592,17.789396,17.787277,17.785492,17.784277,17.783173,17.782286,17.781622,17.7813,17.781408,17.78162,17.781677,17.781218,17.779728,17.77697,17.773312,17.769234,17.764996,17.760849,17.756382,17.751509,17.746365,17.741322,17.736595,17.73223,17.728405,17.724977,17.721973,17.719479,17.717426,17.715607,17.71378,17.711788,17.709183,17.706247,17.70305,17.699787,17.696363,17.692617,17.688786,17.685055,17.681479,17.678034,17.674726,17.6714,17.668,17.664684,17.661417,17.657978,17.654034,17.649208,17.643265,17.63644,17.629328,17.622475,17.615818,17.60899,17.60226,17.595871,17.590157,17.585342,17.58126,17.577545,17.573656,17.569447,17.56506,17.5605,17.555595,17.550125,17.543806,17.53623,17.527643,17.518585,17.509727,17.50143,17.493645,17.486498,17.479591,17.47329,17.46837,17.46501,17.462727,17.460602,17.457756,17.454523,17.449436,17.44276,17.435009,17.426102,17.416294,17.406986,17.398232,17.389776,17.382435,17.376507,17.371979,17.368778,17.366793,17.365719,17.365305,17.366032,17.367899,17.370731,17.373676,17.375362,17.375057,17.371902,17.365683,17.357672,17.349422,17.342367,17.33774,17.336094,17.336788,17.339012,17.342072,17.344948,17.346897,17.348011,17.349112,17.350628,17.351297,17.350052,17.346478,17.341505,17.336674,17.333035,17.331142,17.329807,17.32632,17.318613,17.306734,17.2925,17.27847,17.26786,17.26083,17.255737,17.249516,17.239227,17.223867,17.205399,17.18813,17.173725,17.162752,17.153816,17.144606,17.132828,17.117722,17.100971,17.0832,17.064621,17.047401,17.033627,17.024364,17.018208,17.011837,17.003326,16.992878,16.986765,16.994545,17.020496,17.063673,17.113468,17.140636,17.121803,17.053635,16.956974,16.86472,16.800198,16.763788,16.738037,16.705772,16.666111,16.61405,16.551619,16.481941,16.398315,16.287636,16.144695,15.954676,15.736359,15.525496,15.355473,15.24456,15.190901,15.166017,15.157945,15.148535,15.122959,15.08478,15.048089,15.021215,15.004769,14.9867935,14.948868,14.853933,14.691596,14.476031,14.230904,13.993692,13.838073,13.723711,13.650785,13.593412,13.5257015,13.44405,13.355449,13.262142,13.168777,13.070616,12.961773,12.841837,12.716937,12.596647,12.489347,12.391222,12.3071995,12.236122,12.176012,12.124666,12.079209,12.040316,12.004952,11.973557,11.947017,11.926181,11.910211,11.896253,11.882045,11.865793,11.847108,11.828514,11.8106165,11.79315,11.776011,11.758602,11.740277,11.723093,11.7083,11.696142,11.684387,11.668676,11.645612,11.615381,11.573321,11.520404,11.45969,11.396384,11.335178,11.2786045,11.228539,11.178835,11.127179,11.072399,11.016016,10.958996,10.901704,10.84848,10.797184,10.747555,10.700812,10.655952,10.609923,10.559394,10.502829,10.435879,10.355883
17.691998,17.689808,17.687862,17.685658,17.68359,17.680994,17.678196,17.675825,17.674173,17.67347,17.672405,17.671204,17.669624,17.667667,17.665297,17.662434,17.659195,17.655483,17.651201,17.645832,17.640015,17.634315,17.629007,17.624409,17.620195,17.616428,17.613176,17.6109,17.609463,17.608582,17.60828,17.608383,17.608997,17.60997,17.610884,17.611225,17.610714,17.609373,17.607311,17.605343,17.603405,17.601692,17.599985,17.598118,17.596264,17.594677,17.593597,17.592548,17.59161,17.59073,17.589994,17.589523,17.589077,17.588535,17.587593,17.585833,17.58299,17.579361,17.575356,17.571186,17.567106,17.562775,17.558071,17.553123,17.548279,17.543722,17.539469,17.535667,17.532152,17.52892,17.526043,17.523533,17.521275,17.519135,17.516987,17.514332,17.51148,17.508535,17.505657,17.502745,17.499596,17.496357,17.49316,17.49007,17.487118,17.484274,17.481335,17.478168,17.474869,17.47143,17.46764,17.463264,17.458017,17.451733,17.444681,17.43742,17.430426,17.423592,17.416538,17.40955,17.402874,17.396889,17.39184,17.387543,17.383635,17.379543,17.37509,17.370373,17.365406,17.360096,17.354328,17.347889,17.340385,17.332058,17.323381,17.31491,17.306934,17.299372,17.292374,17.285543,17.279263,17.274137,17.270287,17.267534,17.265593,17.26404,17.262472,17.26025,17.256413,17.2515,17.245108,17.236885,17.228851,17.2213,17.213383,17.205988,17.19949,17.19397,17.189474,17.186008,17.183407,17.181358,17.18032,17.180382,17.181526,17.183147,17.184124,17.18385,17.18166,17.177387,17.171848,17.166069,17.1609,17.15709,17.155151,17.15466,17.154858,17.155247,17.155283,17.154644,17.153538,17.15271,17.15269,17.1521,17.150099,17.146334,17.141386,17.136242,17.131607,17.127884,17.123962,17.117617,17.107403,17.093742,17.078407,17.063656,17.052298,17.044212,17.037996,17.03116,17.021141,17.006706,16.989187,16.972313,16.957264,16.944548,16.93348,16.922737,16.910942,16.89759,16.883709,16.869434,16.854347,16.84007,16.828255,16.81986,16.813967,16.808107,16.800798,16.791706,16.785873,16.79101,16.81275,16.846447,16.879608,16.905674,16.90132,16.864742,16.81329,16.76162,16.7201,16.693626,16.672585,16.645683,16.611752,16.568544,16.518631,16.4627,16.391117,16.289852,16.155487,15.973812,15.764183,15.561139,15.39733,15.289953,15.235576,15.209436,15.199305,15.187872,15.161871,15.125868,15.093811,15.072861,15.061808,15.046844,15.006491,14.902187,14.725334,14.495059,14.2404175,14.001158,13.845824,13.734318,13.665255,13.610446,13.542961,13.460117,13.3703985,13.276501,13.183434,13.086189,12.978329,12.858997,12.734132,12.613319,12.50518,12.406025,12.320742,12.248434,12.187452,12.135687,12.090082,12.05126,12.015785,11.984128,11.9572315,11.935903,11.919369,11.904898,11.8900585,11.873194,11.8539715,11.835049,11.8172245,11.800183,11.78367,11.767141,11.749512,11.732816,11.718128,11.705438,11.692824,11.676608,11.653795,11.624976,11.585663,11.53628,11.47903,11.418269,11.35836,11.302198,11.252237,11.2020855,11.149555,11.093227,11.034502,10.974743,10.914903,10.8594475,10.806211,10.754784,10.706406,10.659983,10.6127405,10.56179,10.505529,10.4394655,10.360911
17.506088,17.50444,17.503067,17.501442,17.499935,17.497904,17.495605,17.493595,17.492146,17.491463,17.490353,17.48906,17.487362,17.485271,17.48276,17.479801,17.476551,17.472927,17.468887,17.463875,17.4585,17.453266,17.448402,17.444212,17.440384,17.436962,17.433992,17.431868,17.430443,17.429482,17.429018,17.42887,17.429184,17.429789,17.430363,17.430511,17.430016,17.428902,17.427189,17.425571,17.423985,17.42255,17.421085,17.419441,17.41779,17.416367,17.415375,17.414375,17.41338,17.412315,17.411226,17.41022,17.409174,17.408083,17.406696,17.404688,17.40177,17.398167,17.394209,17.390089,17.38606,17.381824,17.37728,17.37254,17.367905,17.363527,17.359406,17.355648,17.352104,17.348679,17.34549,17.342583,17.33992,17.337456,17.335114,17.33237,17.329533,17.326744,17.324148,17.32163,17.318956,17.316168,17.313324,17.310528,17.307827,17.305206,17.302456,17.29941,17.296108,17.292551,17.288553,17.283962,17.27859,17.272335,17.265453,17.258427,17.251629,17.24491,17.237865,17.230778,17.22393,17.217724,17.212423,17.20789,17.203732,17.199406,17.194683,17.189625,17.184275,17.178612,17.172636,17.16617,17.15883,17.150837,17.142609,17.134605,17.12701,17.119753,17.112976,17.106293,17.100048,17.094852,17.090832,17.087807,17.08551,17.083546,17.081547,17.079329,17.076843,17.073889,17.070042,17.06506,17.059368,17.054155,17.047293,17.040194,17.033592,17.027603,17.022259,17.01772,17.013948,17.010525,17.00792,17.006231,17.005484,17.005253,17.004723,17.003504,17.001106,16.997625,16.993711,16.990013,16.986883,16.984531,16.983234,16.982582,16.981785,16.98034,16.977943,16.974636,16.970894,16.967575,16.965324,16.96276,16.959385,16.954897,16.949614,16.944134,16.938873,16.934082,16.92875,16.921127,16.91018,16.896427,16.881535,16.867464,16.856634,16.848783,16.842648,16.836065,16.826656,16.812988,16.795923,16.778858,16.762579,16.747746,16.734346,16.721903,16.709743,16.697477,16.68559,16.673845,16.661259,16.648949,16.638222,16.629948,16.62365,16.617691,16.610983,16.602697,16.596825,16.599442,16.614899,16.640728,16.667515,16.685259,16.687706,16.672676,16.646389,16.619005,16.598679,16.585941,16.572931,16.552172,16.524479,16.490103,16.452164,16.41053,16.353508,16.26434,16.143745,15.97706,15.782534,15.592693,15.438303,15.335773,15.282341,15.255363,15.2431755,15.229956,15.204182,15.171158,15.144344,15.129601,15.123969,15.111659,15.068172,14.95369,14.761835,14.5168915,14.252794,14.010617,13.855303,13.746342,13.680792,13.628298,13.561028,13.477173,13.386501,13.292044,13.199004,13.102145,12.994779,12.875811,12.750967,12.62982,12.521177,12.421339,12.334986,12.261458,12.199392,12.146787,12.100615,12.061528,12.02567,11.993629,11.966356,11.944586,11.927639,11.912893,11.897707,11.880569,11.8611555,11.842184,11.824669,11.8083,11.792643,11.777147,11.760345,11.744061,11.7292595,11.715688,11.701734,11.684469,11.661406,11.63348,11.596472,11.550371,11.496606,11.438675,11.380519,11.325249,11.275832,11.225626,11.172591,11.115238,11.054805,10.9928875,10.930938,10.873434,10.817986,10.764223,10.71352,10.664904,10.616045,10.564558,10.508719,10.443808,10.367011
17.33297,17.331749,17.330788,17.329582,17.328442,17.326767,17.324776,17.32296,17.321575,17.320826,17.319607,17.318172,17.316349,17.314169,17.311619,17.30869,17.305538,17.302124,17.298407,17.293827,17.288925,17.284191,17.279804,17.276035,17.272625,17.26957,17.266891,17.264915,17.2635,17.262447,17.26179,17.261398,17.261406,17.261616,17.26181,17.261703,17.26115,17.260159,17.258657,17.257277,17.255878,17.254581,17.253216,17.251678,17.250132,17.248783,17.247814,17.246815,17.245735,17.244473,17.243042,17.241575,17.240028,17.238476,17.23671,17.2345,17.231552,17.227995,17.224125,17.220112,17.216192,17.212116,17.20781,17.203342,17.198992,17.194859,17.19091,17.18726,17.18372,17.180225,17.17684,17.173676,17.170752,17.168056,17.165588,17.162786,17.15998,17.157352,17.155022,17.152863,17.15062,17.14822,17.145672,17.14308,17.140507,17.137978,17.13531,17.132328,17.129082,17.125534,17.121536,17.116976,17.111767,17.105846,17.099434,17.092907,17.086535,17.080086,17.073189,17.066078,17.059067,17.052605,17.046997,17.042124,17.037605,17.032879,17.027744,17.02224,17.016445,17.010426,17.0042,16.997654,16.99041,16.982677,16.974808,16.96718,16.959957,16.953045,16.946548,16.940086,16.93398,16.92878,16.924603,16.921318,16.918701,16.91644,16.914137,16.911655,16.909004,16.905975,16.90252,16.898811,16.895004,16.89122,16.887169,16.882877,16.878319,16.872772,16.866419,16.860882,16.855942,16.851322,16.847359,16.84423,16.841953,16.840176,16.83833,16.836094,16.833094,16.829659,16.82629,16.82336,16.820923,16.818935,16.817532,16.816322,16.814646,16.812035,16.808256,16.803486,16.798286,16.793432,16.789614,16.785568,16.781023,16.775848,16.770264,16.764606,16.759102,16.753855,16.747952,16.74001,16.729212,16.71605,16.701979,16.688725,16.678402,16.670677,16.66444,16.657862,16.648722,16.635508,16.618847,16.60179,16.58472,16.568424,16.553242,16.539219,16.526226,16.51411,16.503035,16.492601,16.481415,16.470234,16.460068,16.451647,16.444777,16.438477,16.43201,16.424294,16.41848,16.419254,16.429897,16.44864,16.468853,16.483795,16.489098,16.483898,16.473072,16.462711,16.456474,16.452953,16.445854,16.430378,16.408459,16.382257,16.355541,16.326069,16.282108,16.211079,16.107998,15.961501,15.787694,15.615875,15.474466,15.379263,15.328418,15.301619,15.288362,15.274328,15.249615,15.2199955,15.19828,15.189154,15.188181,15.177399,15.129896,15.005561,14.7995205,14.54104,14.269066,14.023456,13.867495,13.760532,13.698079,13.647653,13.580608,13.495907,13.404255,13.308954,13.215284,13.117792,13.009803,12.890379,12.765287,12.64398,12.53528,12.435266,12.348227,12.273644,12.21038,12.156591,12.109474,12.069841,12.033436,12.001047,11.973587,11.9516735,11.934673,11.920039,11.904898,11.887827,11.868526,11.849687,11.832582,11.816994,11.802338,11.787998,11.77218,11.756363,11.741425,11.7269,11.711454,11.692871,11.669193,11.641653,11.6063175,11.562929,11.512299,11.457146,11.400962,11.346986,11.29854,11.248797,11.195857,11.138233,11.076981,11.013723,10.9501705,10.890776,10.832799,10.776031,10.7221775,10.670622,10.619704,10.567577,10.512241,10.448773,10.374039
17.154465,17.15361,17.152975,17.152067,17.151161,17.149706,17.147884,17.146145,17.144733,17.143822,17.142443,17.140842,17.138882,17.136658,17.134167,17.131363,17.12845,17.125328,17.122032,17.11795,17.113586,17.109379,17.10549,17.10218,17.099201,17.09652,17.094116,17.092262,17.090832,17.089664,17.088806,17.088158,17.087826,17.0876,17.087376,17.086964,17.086285,17.085327,17.08395,17.082687,17.081379,17.080097,17.078735,17.077232,17.07573,17.074394,17.0734,17.072357,17.07117,17.069687,17.067913,17.066006,17.063953,17.061981,17.059875,17.057486,17.054523,17.051067,17.04734,17.043465,17.039688,17.035852,17.031826,17.02771,17.023716,17.019897,17.016203,17.012697,17.009232,17.00573,17.002243,16.998917,16.99582,16.992964,16.990377,16.987516,16.98471,16.982197,16.980093,16.978256,16.97638,16.97431,16.971985,16.969511,16.966948,16.964386,16.961693,16.958736,16.95556,16.952124,16.948263,16.943913,16.939083,16.933743,16.92802,16.9222,16.916435,16.910404,16.90374,16.896667,16.889532,16.882801,16.876827,16.871555,16.866596,16.861383,16.855755,16.849754,16.84349,16.837082,16.830597,16.823956,16.81676,16.8092,16.801624,16.794325,16.787415,16.78083,16.774668,16.768494,16.762562,16.757397,16.753086,16.749498,16.746479,16.74378,16.740993,16.738003,16.73491,16.731556,16.727997,16.724487,16.721046,16.7176,16.713978,16.7104,16.706924,16.703342,16.699636,16.696167,16.69289,16.68763,16.682165,16.677273,16.673138,16.669655,16.666512,16.663258,16.659435,16.65541,16.65159,16.648258,16.64541,16.642942,16.640911,16.63898,16.636696,16.63372,16.62977,16.6249,16.619507,16.61419,16.609552,16.604574,16.599236,16.593576,16.587814,16.582142,16.576683,16.571465,16.56559,16.55801,16.547981,16.53584,16.522795,16.510338,16.500362,16.492489,16.485764,16.478668,16.469208,16.455935,16.439352,16.422253,16.404556,16.387127,16.370464,16.3549,16.340778,16.328228,16.31724,16.307388,16.296986,16.28648,16.276615,16.267935,16.26046,16.253788,16.247515,16.240374,16.23481,16.2342,16.240711,16.25295,16.266453,16.277008,16.2821,16.281885,16.280262,16.280634,16.28357,16.286251,16.283657,16.272926,16.256737,16.238564,16.222544,16.205986,16.177511,16.125656,16.044386,15.924115,15.7778225,15.6303,15.506689,15.421927,15.375374,15.349752,15.336199,15.322176,15.299427,15.27399,15.25781,15.2541485,15.256451,15.251772,15.205685,15.065521,14.838684,14.568188,14.289305,14.040186,13.883247,13.778128,13.718823,13.670714,13.604295,13.51914,13.42665,13.330269,13.235247,13.135939,13.026052,12.905233,12.779512,12.658224,12.549906,12.450172,12.362745,12.28714,12.222361,12.166819,12.118197,12.077581,12.040355,12.007584,11.980052,11.958227,11.941516,11.92737,11.912645,11.895994,11.877121,11.858581,11.841946,11.827177,11.813545,11.80035,11.785524,11.770103,11.754879,11.73921,11.722036,11.701858,11.677269,11.64975,11.61573,11.574835,11.527315,11.475126,11.421291,11.369095,11.322142,11.273474,11.221327,11.164268,11.103141,11.039415,10.974829,10.913786,10.852991,10.792508,10.734528,10.679049,10.625376,10.572316,10.517452,10.455662,10.383315
16.974606,16.974041,16.97359,16.972813,16.971937,16.970505,16.96869,16.966904,16.965382,16.964287,16.962725,16.960955,16.958897,16.956697,16.95434,16.951775,16.949186,16.94643,16.943584,16.939999,16.936115,16.932343,16.928856,16.925884,16.92321,16.920778,16.918545,16.916721,16.915218,16.91391,16.912859,16.911972,16.911324,16.910704,16.910078,16.909351,16.9085,16.907536,16.90623,16.905025,16.903742,16.902433,16.90102,16.899492,16.898008,16.896704,16.895706,16.894657,16.89339,16.891722,16.889652,16.887348,16.884872,16.882538,16.880154,16.877632,16.87467,16.871298,16.867687,16.863945,16.860298,16.856653,16.852898,16.849113,16.84548,16.842003,16.838593,16.83529,16.831993,16.828587,16.82514,16.821802,16.81864,16.815695,16.813023,16.810078,16.80723,16.804737,16.802729,16.801083,16.799461,16.797623,16.795479,16.793118,16.790596,16.788048,16.785425,16.782642,16.779701,16.776514,16.772926,16.768867,16.764442,16.759644,16.75457,16.74939,16.744175,16.738491,16.732008,16.72493,16.717623,16.710617,16.7043,16.698627,16.693241,16.687553,16.681456,16.67501,16.668354,16.661654,16.654991,16.648285,16.641119,16.63366,16.62621,16.619051,16.612324,16.60598,16.600075,16.594166,16.588432,16.583334,16.578918,16.575058,16.571629,16.568447,16.56507,16.56141,16.557629,16.55365,16.549627,16.545849,16.542278,16.538807,16.53516,16.531723,16.528618,16.525856,16.5233,16.520657,16.517868,16.513714,16.50932,16.505362,16.501915,16.498035,16.49297,16.48796,16.482435,16.476974,16.472067,16.467804,16.464031,16.460676,16.457825,16.455095,16.452316,16.44934,16.445831,16.441628,16.43686,16.43188,16.427124,16.42183,16.416153,16.410276,16.404474,16.39893,16.393661,16.388676,16.383118,16.376205,16.367218,16.356289,16.344372,16.332737,16.323101,16.315077,16.307846,16.300175,16.290293,16.276878,16.260391,16.243372,16.22543,16.207409,16.189837,16.173187,16.158154,16.145138,16.134027,16.124489,16.11465,16.104698,16.095135,16.086353,16.078503,16.071613,16.065567,16.059048,16.053877,16.052315,16.05555,16.06229,16.069542,16.075073,16.077726,16.078232,16.080051,16.085117,16.092205,16.09776,16.097794,16.090492,16.078922,16.067225,16.059523,16.053493,16.039083,16.005854,15.947947,15.857594,15.743986,15.62639,15.525656,15.455217,15.415641,15.393199,15.381046,15.368631,15.349349,15.329283,15.318989,15.321236,15.332065,15.340282,15.293186,15.128948,14.877709,14.597063,14.312077,14.062395,13.90362,13.80011,13.744335,13.69936,13.634693,13.550136,13.457397,13.359745,13.262407,13.1595,13.045595,12.921623,12.794315,12.6728325,12.56521,12.466161,12.378635,12.302006,12.235367,12.177553,12.126989,12.085171,12.047149,12.014313,11.987149,11.965866,11.949832,11.936447,11.922346,11.906249,11.88785,11.869503,11.853073,11.838776,11.825795,11.813337,11.799183,11.783817,11.768051,11.7511015,11.732128,11.710294,11.684743,11.657074,11.6241,11.585403,11.540796,11.491556,11.440256,11.390179,11.345095,11.298075,11.247495,11.192094,11.132485,11.069713,11.005269,10.943422,10.880054,10.815638,10.752846,10.692486,10.635108,10.580351,10.525375,10.464962,10.394782
16.801231,16.800825,16.800404,16.799582,16.79855,16.796951,16.794987,16.793049,16.791372,16.790115,16.788395,16.786503,16.784405,16.782284,16.780125,16.777863,16.775639,16.77327,16.77081,16.76762,16.764063,16.760551,16.757269,16.754438,16.751873,16.749496,16.747253,16.745338,16.74369,16.74223,16.741005,16.739933,16.739037,16.738083,16.73711,16.736084,16.73504,16.734013,16.732712,16.731506,16.730206,16.72884,16.727379,16.725838,16.724386,16.723167,16.722237,16.721252,16.719978,16.718212,16.715948,16.713364,16.710575,16.707993,16.705406,16.702784,16.699802,16.696436,16.692833,16.689121,16.68552,16.68196,16.678364,16.674805,16.671432,16.668224,16.665073,16.661999,16.658905,16.655678,16.652386,16.649172,16.646065,16.64309,16.640324,16.637253,16.634254,16.631622,16.629505,16.627815,16.62622,16.624445,16.622404,16.620136,16.617714,16.615316,16.612946,16.61053,16.608027,16.605251,16.602036,16.598284,16.59415,16.589682,16.584976,16.580162,16.575226,16.569656,16.563152,16.555916,16.54836,16.541069,16.534443,16.528429,16.522701,16.516644,16.510212,16.503485,16.496635,16.489838,16.483149,16.476454,16.469316,16.461845,16.454342,16.447117,16.440365,16.43409,16.42831,16.422573,16.417019,16.412014,16.407566,16.403522,16.399757,16.396118,16.392143,16.387766,16.383144,16.378307,16.373554,16.369259,16.365387,16.361797,16.35822,16.354988,16.352161,16.349663,16.347275,16.344711,16.341787,16.338482,16.334915,16.33143,16.328148,16.324299,16.319267,16.314259,16.308788,16.303055,16.296799,16.290644,16.28518,16.280373,16.2764,16.272945,16.26995,16.2674,16.264788,16.261692,16.258026,16.25393,16.249619,16.244518,16.2389,16.233032,16.227282,16.22187,16.2168,16.212078,16.206898,16.200676,16.192696,16.182919,16.172056,16.161171,16.151844,16.14368,16.136002,16.127813,16.117563,16.10408,16.087872,16.071226,16.053587,16.035719,16.018063,16.001099,15.985711,15.972492,15.961334,15.9520645,15.942756,15.933362,15.924204,15.915556,15.907632,15.900757,15.895035,15.889209,15.884624,15.882659,15.883701,15.886345,15.888449,15.88921,15.888212,15.886425,15.887182,15.891907,15.898753,15.904078,15.90469,15.899157,15.890478,15.882839,15.880056,15.880547,15.876369,15.858776,15.822445,15.761766,15.682264,15.597398,15.522957,15.470087,15.440168,15.4230995,15.414299,15.405279,15.390963,15.377139,15.372977,15.382582,15.408977,15.42629,15.374716,15.188135,14.914938,14.625173,14.337223,14.090058,13.929255,13.82736,13.775503,13.734723,13.673359,13.590742,13.498701,13.399777,13.29922,13.190776,13.070406,12.941139,12.810934,12.688823,12.582037,12.48394,12.396604,12.318982,12.250231,12.189822,12.137133,12.094052,12.055446,12.022957,11.996621,11.976305,11.961283,11.948839,11.935463,11.91992,11.90185,11.883368,11.866573,11.852009,11.838912,11.82644,11.812304,11.796516,11.779938,11.761686,11.741063,11.717737,11.691324,11.663455,11.631268,11.59438,11.552295,11.505745,11.456921,11.409056,11.365985,11.32099,11.272641,11.219965,11.163366,11.103266,11.040586,10.979284,10.914254,10.846407,10.7787075,10.712894,10.651006,10.593641,10.537664,10.477888,10.409185
16.635527,16.635086,16.634544,16.633522,16.632233,16.630371,16.628181,16.626055,16.62421,16.622814,16.62098,16.619024,16.616926,16.61491,16.612976,16.611015,16.609129,16.60709,16.6049,16.601948,16.59856,16.59513,16.591858,16.588987,16.58635,16.583847,16.581442,16.579334,16.577497,16.57587,16.574512,16.57331,16.572243,16.571049,16.56981,16.56854,16.567312,16.56618,16.564835,16.56359,16.562262,16.560879,16.55943,16.557968,16.55666,16.555624,16.554895,16.554096,16.552948,16.551239,16.54895,16.546257,16.543324,16.540627,16.537933,16.535248,16.532227,16.52879,16.52509,16.521275,16.517595,16.51398,16.510386,16.506884,16.503616,16.500546,16.497555,16.494665,16.491756,16.488735,16.485659,16.482649,16.479671,16.476688,16.473787,16.470526,16.467236,16.464252,16.461767,16.459724,16.457832,16.455853,16.453712,16.451416,16.449047,16.446833,16.444782,16.442806,16.440817,16.43853,16.435738,16.432276,16.428318,16.42396,16.419325,16.414543,16.409576,16.403898,16.397198,16.389698,16.381887,16.374363,16.367514,16.361305,16.355404,16.349209,16.342709,16.336016,16.3293,16.322708,16.316223,16.309704,16.30268,16.295204,16.287613,16.280249,16.273355,16.267015,16.261261,16.255621,16.250202,16.24531,16.240894,16.236757,16.232765,16.22877,16.224283,16.219252,16.213825,16.208115,16.202553,16.19763,16.193352,16.189571,16.186022,16.183031,16.180634,16.17871,16.17696,16.174961,16.172443,16.16905,16.164885,16.160217,16.155434,16.150858,16.146578,16.142239,16.137394,16.131985,16.125315,16.1184,16.112427,16.10732,16.10291,16.098942,16.095692,16.093397,16.091663,16.089863,16.087543,16.084608,16.081074,16.076508,16.071236,16.065598,16.060013,16.05476,16.049862,16.04535,16.040482,16.034775,16.027536,16.018625,16.008575,15.998274,15.98921,15.980986,15.973022,15.964506,15.95406,15.940675,15.924893,15.908817,15.891802,15.874525,15.857301,15.840559,15.825254,15.812088,15.800999,15.791971,15.78311,15.77421,15.765455,15.757029,15.749184,15.74242,15.736986,15.7317295,15.72761,15.72538,15.724861,15.724512,15.722685,15.719576,15.715038,15.710112,15.708008,15.710083,15.714546,15.71808,15.7181225,15.71331,15.706336,15.701014,15.700571,15.704124,15.705921,15.699069,15.679278,15.643059,15.593299,15.538434,15.489298,15.454239,15.4348755,15.424171,15.419676,15.414829,15.405837,15.397865,15.39996,15.418462,15.458698,15.477955,15.422968,15.226457,14.941143,14.645415,14.360259,14.1182375,13.957191,13.857345,13.809464,13.773079,13.716224,13.637796,13.547646,13.448154,13.344286,13.229222,13.100719,12.964542,12.830313,12.707069,12.601051,12.503975,12.416985,12.338385,12.267372,12.204228,12.149327,12.104879,12.065705,12.033596,12.0081,11.9887905,11.9748535,11.963429,11.950914,11.93603,11.918304,11.899523,11.881861,11.866203,11.852035,11.838559,11.823544,11.806689,11.788937,11.769377,11.747372,11.722893,11.695885,11.667912,11.636374,11.600972,11.560978,11.516709,11.47003,11.424089,11.382784,11.339708,11.293738,11.244316,11.19171,11.135675,11.076401,11.017265,10.952223,10.882511,10.810986,10.740219,10.673759,10.613209,10.555379,10.495263,10.42698
16.476196,16.47554,16.474735,16.473438,16.471878,16.46976,16.467365,16.465076,16.463085,16.461567,16.45966,16.45765,16.455574,16.45367,16.451931,16.45023,16.448605,16.446785,16.44476,16.44193,16.438595,16.435123,16.431744,16.428724,16.425915,16.42318,16.420528,16.418194,16.416153,16.414366,16.412907,16.411629,16.41047,16.409157,16.40777,16.406334,16.404964,16.403736,16.40234,16.401062,16.399736,16.398418,16.397087,16.395823,16.394798,16.394058,16.393665,16.393185,16.392326,16.390842,16.388699,16.38607,16.38316,16.380466,16.37777,16.375065,16.371998,16.368465,16.364601,16.360613,16.356762,16.35297,16.349236,16.345638,16.342327,16.339264,16.336323,16.333534,16.330763,16.32793,16.325098,16.322317,16.319477,16.316494,16.313435,16.309925,16.306248,16.302738,16.299656,16.296991,16.294521,16.292076,16.289595,16.287098,16.284649,16.282501,16.28069,16.279097,16.277538,16.2757,16.273315,16.270136,16.2663,16.26192,16.257156,16.25217,16.246973,16.241053,16.2341,16.226376,16.218376,16.210724,16.203808,16.197582,16.19172,16.18564,16.179398,16.173088,16.166847,16.160759,16.154718,16.14856,16.141813,16.134483,16.126923,16.119501,16.11251,16.106098,16.100353,16.094784,16.089489,16.08472,16.080368,16.076202,16.072083,16.067871,16.063038,16.05753,16.051487,16.045097,16.03889,16.03344,16.028795,16.024822,16.021252,16.018421,16.01636,16.014925,16.013763,16.012348,16.01028,16.007141,16.002874,15.997717,15.992086,15.98632,15.980589,15.974852,15.968417,15.962021,15.956055,15.950758,15.94641,15.942885,15.939392,15.9356365,15.932501,15.930685,15.929716,15.928861,15.927671,15.925816,15.923125,15.919249,15.914562,15.909378,15.904137,15.89915,15.894409,15.890003,15.885277,15.879777,15.872884,15.864435,15.854857,15.844959,15.8361635,15.828072,15.8201275,15.811621,15.801304,15.788272,15.773037,15.757539,15.741135,15.724452,15.707706,15.691305,15.676254,15.663277,15.652322,15.64347,15.634897,15.626308,15.617798,15.609499,15.601695,15.594958,15.5896,15.58452,15.5803795,15.57748,15.5753975,15.572645,15.5679455,15.562168,15.555236,15.548153,15.543879,15.543677,15.545945,15.54781,15.547263,15.542953,15.537327,15.533672,15.53437,15.538815,15.542972,15.541676,15.531841,15.511801,15.483126,15.450827,15.421709,15.401422,15.391294,15.386429,15.3859005,15.384699,15.380046,15.3764515,15.383727,15.409363,15.453652,15.474619,15.421277,15.228636,14.9454565,14.651779,14.374806,14.140949,13.983896,13.886923,13.842569,13.809267,13.75676,13.685202,13.598748,13.499878,13.3934355,13.271821,13.134743,12.991003,12.852127,12.7273035,12.621822,12.525682,12.439064,12.359501,12.286224,12.220346,12.163137,12.117061,12.076958,12.044707,12.019495,12.000776,11.987736,11.977353,11.965929,11.9520235,11.934967,11.916074,11.897372,11.880055,11.864007,11.848608,11.831842,11.813242,11.793892,11.772953,11.749815,11.724573,11.697323,11.669449,11.638567,11.604456,11.5661955,11.523752,11.478712,11.434135,11.394028,11.352331,11.308342,11.262054,11.213672,11.162393,11.107716,11.052224,10.989151,10.919864,10.84663,10.772512,10.70231,10.638577,10.578413,10.517079,10.448114
16.32771,16.326763,16.325663,16.324093,16.322304,16.319992,16.317442,16.315046,16.312965,16.311352,16.309376,16.307327,16.305271,16.303463,16.301891,16.300392,16.29895,16.297298,16.295368,16.292587,16.289234,16.285686,16.282183,16.278984,16.275974,16.273014,16.270102,16.267532,16.265306,16.263386,16.26186,16.260555,16.259356,16.258022,16.256588,16.25507,16.253609,16.2523,16.250845,16.249546,16.248234,16.247002,16.245838,16.244825,16.24411,16.243706,16.243624,16.243504,16.242973,16.241768,16.239838,16.237356,16.234554,16.23194,16.229282,16.22657,16.22345,16.219799,16.215757,16.211555,16.20749,16.203472,16.19954,16.195774,16.192339,16.189203,16.186241,16.183472,16.180794,16.17812,16.175514,16.172966,16.170279,16.167309,16.1641,16.16034,16.156261,16.152206,16.148472,16.14511,16.141953,16.138939,16.136063,16.13327,16.130669,16.128517,16.126862,16.125553,16.12436,16.122902,16.12088,16.11797,16.11424,16.10978,16.104774,16.09946,16.09391,16.08769,16.08045,16.072517,16.06438,16.056656,16.049736,16.04356,16.037827,16.032005,16.026146,16.020367,16.014748,16.00927,16.003777,15.998034,15.991608,15.984507,15.9770565,15.969661,15.962656,15.956221,15.950495,15.945002,15.939854,15.935238,15.930994,15.926878,15.922749,15.918432,15.913423,15.907618,15.901173,15.894325,15.887661,15.881802,15.876866,15.872728,15.869104,15.866373,15.864536,15.863477,15.862823,15.861912,15.860256,15.857382,15.853096,15.847648,15.841505,15.835101,15.828732,15.822418,15.8154335,15.808453,15.8017845,15.795737,15.790615,15.786533,15.783514,15.781595,15.781179,15.783084,15.784021,15.783085,15.78222,15.780942,15.778946,15.7758045,15.771797,15.767181,15.762395,15.757706,15.753044,15.748592,15.743803,15.73822,15.731305,15.722943,15.713541,15.7038765,15.695309,15.687414,15.679655,15.671368,15.661411,15.648935,15.6343975,15.619593,15.603905,15.587936,15.571835,15.555954,15.54129,15.528584,15.517788,15.509005,15.50054,15.492052,15.483591,15.475279,15.467422,15.460614,15.455119,15.449913,15.445438,15.441722,15.438267,15.433787,15.427295,15.419949,15.411701,15.403416,15.397738,15.395838,15.396326,15.396762,15.39566,15.391701,15.387044,15.384403,15.38529,15.38909,15.393063,15.393599,15.38872,15.378195,15.363062,15.346214,15.33156,15.32246,15.319702,15.319755,15.322583,15.324295,15.322786,15.32236,15.331356,15.35646,15.400759,15.42429,15.377563,15.1973,14.928859,14.647633,14.380774,14.157993,14.010576,13.917551,13.875868,13.843525,13.793459,13.729741,13.649732,13.552081,13.443628,13.315799,13.170224,13.018786,12.874994,12.748341,12.643183,12.547906,12.461745,12.381378,12.306036,12.2375965,12.178066,12.130049,12.088483,12.055332,12.029629,12.010954,11.998594,11.989322,11.979312,11.966797,11.950786,11.932072,11.912363,11.893146,11.874855,11.857095,11.838097,11.817421,11.79626,11.773899,11.749779,11.724009,11.696681,11.668985,11.638697,11.605693,11.568864,11.527861,11.4840145,11.440341,11.400948,11.360166,11.317738,11.274275,11.229984,11.183628,11.1341,11.083109,11.02345,10.956452,10.883459,10.807703,10.734903,10.668466,10.606009,10.54306,10.472792
16.174522,16.17331,16.171986,16.17022,16.168293,16.165909,16.163319,16.160889,16.158768,16.157104,16.15509,16.153019,16.150986,16.14928,16.147882,16.146576,16.145323,16.143831,16.141996,16.139286,16.135973,16.132416,16.128845,16.125546,16.122381,16.119247,16.116154,16.113409,16.111061,16.109089,16.107553,16.106293,16.105145,16.103882,16.102505,16.101002,16.09951,16.098137,16.096634,16.095293,16.093994,16.092852,16.091858,16.09107,16.090622,16.090508,16.09072,16.090908,16.090698,16.089798,16.088139,16.08589,16.083271,16.080769,16.078178,16.075441,16.072218,16.068394,16.064138,16.05973,16.055481,16.051266,16.047153,16.043251,16.039715,16.036518,16.033527,16.030787,16.028196,16.025703,16.023369,16.021103,16.018631,16.015743,16.012459,16.008495,16.004082,15.999548,15.995227,15.991208,15.987396,15.983825,15.980525,15.977409,15.974592,15.972347,15.970715,15.969528,15.968553,15.96739,15.965681,15.963047,15.959471,15.954981,15.94977,15.944136,15.9382515,15.931735,15.924259,15.916155,15.907909,15.900115,15.89317,15.887051,15.881461,15.875914,15.870501,15.865309,15.860334,15.855457,15.850462,15.845091,15.838956,15.832081,15.824782,15.817477,15.810532,15.804157,15.798504,15.793138,15.7881565,15.783747,15.779705,15.775746,15.771704,15.76741,15.76236,15.756426,15.749731,15.742538,15.735487,15.729263,15.724052,15.719727,15.716017,15.713316,15.71161,15.710791,15.710478,15.709934,15.708588,15.705927,15.7016945,15.696127,15.689726,15.682995,15.676282,15.669617,15.662258,15.6548815,15.647808,15.641388,15.635908,15.6314335,15.628027,15.625734,15.624861,15.626002,15.628445,15.631487,15.634091,15.634277,15.632206,15.629067,15.62528,15.620983,15.61647,15.611982,15.607483,15.603096,15.598246,15.592421,15.585227,15.57667,15.567186,15.557553,15.54911,15.541376,15.533835,15.525803,15.516266,15.504501,15.490898,15.477091,15.462504,15.447645,15.432579,15.417604,15.403631,15.391361,15.380781,15.372034,15.363586,15.355143,15.346718,15.338419,15.330534,15.323603,15.317859,15.312344,15.307364,15.3027725,15.298095,15.2922325,15.284414,15.275965,15.2667675,15.257596,15.25075,15.247317,15.246212,15.245478,15.244062,15.240646,15.237154,15.23554,15.236515,15.239357,15.24222,15.242845,15.240279,15.235195,15.228571,15.222062,15.217471,15.216315,15.218835,15.222304,15.227195,15.23044,15.230404,15.231363,15.239361,15.258451,15.294205,15.321206,15.286522,15.129189,14.889433,14.63279,14.38345,14.177595,14.038157,13.953175,13.912619,13.879813,13.832621,13.773421,13.700573,13.605734,13.495772,13.361475,13.207285,13.048275,12.899544,12.771026,12.666219,12.571938,12.48641,12.405367,12.327883,12.256434,12.193684,12.142335,12.097504,12.061529,12.033676,12.014145,12.002497,11.995092,11.98777,11.978069,11.964546,11.947248,11.927324,11.906555,11.886112,11.865871,11.84438,11.821324,11.798025,11.773911,11.748522,11.7220125,11.694458,11.666833,11.637062,11.605096,11.569627,11.529986,11.487228,11.4442425,11.405286,11.365145,11.3240185,11.283186,11.242943,11.201723,11.157882,11.11217,11.05728,10.994301,10.923491,10.847956,10.774069,10.70598,10.641943,10.577593,10.505943
16.015041,16.013666,16.01222,16.010405,16.008492,16.006191,16.003704,16.001354,15.999281,15.997612,15.995598,15.993533,15.991533,15.989929,15.988699,15.987583,15.986496,15.985178,15.983486,15.9809065,15.977722,15.974271,15.970764,15.967472,15.964272,15.961058,15.957885,15.955088,15.952724,15.950785,15.949332,15.948196,15.947211,15.946138,15.944939,15.943567,15.942137,15.940767,15.939232,15.93788,15.936601,15.935551,15.934717,15.934128,15.933891,15.933994,15.934408,15.93486,15.934933,15.934343,15.932997,15.931028,15.928642,15.926281,15.92375,15.920958,15.917593,15.913585,15.90913,15.904566,15.900196,15.8958645,15.891658,15.88768,15.884092,15.880865,15.877873,15.875185,15.872692,15.870392,15.868342,15.866382,15.864164,15.861419,15.8581295,15.854061,15.849424,15.844519,15.839721,15.835152,15.8307705,15.826698,15.822992,15.819524,15.816408,15.8139305,15.812122,15.810839,15.809868,15.80883,15.807301,15.804907,15.8015175,15.797071,15.791754,15.785911,15.779787,15.77309,15.765509,15.757376,15.749132,15.741341,15.734422,15.72838,15.7229595,15.717729,15.712796,15.708191,15.703809,15.699456,15.694853,15.689743,15.683826,15.677138,15.670013,15.6628685,15.6560755,15.649833,15.644303,15.639109,15.634331,15.630158,15.626364,15.622639,15.618793,15.614651,15.6097145,15.603855,15.597114,15.589781,15.582521,15.576044,15.570612,15.566109,15.562241,15.559417,15.557619,15.556768,15.556514,15.556053,15.554794,15.552229,15.548036,15.542475,15.5360775,15.529343,15.522609,15.515873,15.508381,15.500766,15.493388,15.486669,15.480869,15.475969,15.471983,15.468895,15.466927,15.466667,15.468435,15.471655,15.474906,15.476975,15.477776,15.477505,15.475166,15.470995,15.466181,15.461473,15.456759,15.452038,15.446814,15.440481,15.432738,15.423719,15.413946,15.404197,15.395785,15.38817,15.380817,15.373117,15.364182,15.35334,15.340893,15.328328,15.3150625,15.301575,15.287854,15.274101,15.261092,15.249404,15.239012,15.230238,15.221727,15.213305,15.204962,15.196762,15.188931,15.181892,15.175816,15.169782,15.164108,15.158584,15.1528225,15.145954,15.137367,15.1283865,15.11879,15.109238,15.101642,15.09705,15.094743,15.093235,15.09182,15.089278,15.087179,15.086662,15.087679,15.089276,15.090159,15.089214,15.086321,15.082607,15.0792465,15.0774555,15.077897,15.080855,15.08603,15.091099,15.096456,15.099569,15.098974,15.098709,15.1045685,15.118617,15.14031,15.16544,15.143721,15.022592,14.826032,14.60253,14.379652,14.198607,14.0681305,13.990746,13.949093,13.913188,13.866644,13.809446,13.741346,13.649156,13.540955,13.405279,13.244837,13.078133,12.924805,12.794584,12.690314,12.597385,12.512948,12.431715,12.352341,12.277618,12.210762,12.154541,12.104385,12.063284,12.031321,12.009806,11.998713,11.993832,11.990431,11.985001,11.975481,11.960962,11.941828,11.920138,11.897915,11.875313,11.851234,11.825487,11.799572,11.773159,11.745985,11.718317,11.690269,11.662567,11.633254,11.602364,11.568322,11.530092,11.48841,11.445975,11.407211,11.367392,11.32719,11.288567,11.252039,11.215861,11.177887,11.137949,11.089008,11.031769,10.965334,10.892406,10.819599,10.751586,10.687284,10.62225,10.549497
15.854223,15.852848,15.851458,15.849756,15.848003,15.845924,15.843669,15.841516,15.839586,15.837989,15.8360405,15.83404,15.832111,15.830629,15.8295765,15.828651,15.827747,15.826614,15.825102,15.822712,15.819738,15.816503,15.813172,15.809998,15.806885,15.803715,15.8006,15.797887,15.795634,15.7938385,15.792555,15.791613,15.79087,15.790096,15.789207,15.788112,15.786886,15.78562,15.784132,15.78283,15.781612,15.780666,15.779972,15.779527,15.779425,15.779656,15.780186,15.7808075,15.781096,15.780766,15.779708,15.778019,15.775873,15.773684,15.771216,15.7683735,15.76487,15.7606945,15.756104,15.751453,15.747061,15.742727,15.738535,15.734603,15.731061,15.727867,15.724931,15.722315,15.719923,15.717799,15.716014,15.714356,15.712413,15.709864,15.706657,15.702595,15.697891,15.692818,15.687759,15.682861,15.678118,15.673689,15.669674,15.665905,15.662473,15.659673,15.657549,15.656004,15.654881,15.6538105,15.652351,15.650143,15.646933,15.642577,15.637245,15.631316,15.62511,15.61838,15.61087,15.602876,15.594788,15.587125,15.580305,15.57438,15.569124,15.564152,15.559584,15.555415,15.551451,15.547432,15.543057,15.538093,15.53227,15.525699,15.518716,15.511749,15.505153,15.499096,15.493723,15.488711,15.48415,15.480212,15.476674,15.473215,15.469629,15.465736,15.461077,15.4554825,15.448956,15.441759,15.434547,15.428022,15.422496,15.417849,15.413763,15.41065,15.408489,15.407247,15.406633,15.405872,15.404379,15.401662,15.39739,15.391862,15.385632,15.379148,15.372644,15.366013,15.358503,15.350628,15.342772,15.33547,15.329046,15.323459,15.318739,15.314749,15.311626,15.309963,15.309988,15.3112755,15.313117,15.315159,15.317051,15.318224,15.317768,15.315744,15.312845,15.309223,15.304525,15.299426,15.293445,15.286224,15.277622,15.26788,15.257587,15.247555,15.238995,15.231318,15.223961,15.216435,15.208029,15.198149,15.187005,15.175875,15.164175,15.152314,15.140143,15.127781,15.115904,15.104988,15.095076,15.086547,15.078259,15.07015,15.062172,15.054342,15.046846,15.039983,15.033871,15.027677,15.021756,15.015793,15.00947,15.002115,14.993189,14.983908,14.974033,14.964136,14.955852,14.95025,14.94693,14.944781,14.943327,14.941404,14.940212,14.940195,14.940805,14.940962,14.939749,14.936897,14.932821,14.928736,14.925866,14.92538,14.927431,14.931604,14.937297,14.94239,14.946979,14.948853,14.946545,14.943665,14.946271,14.956549,14.971163,14.988209,14.976997,14.894365,14.743913,14.557635,14.367815,14.213927,14.100653,14.02906,13.986001,13.948301,13.901881,13.8452015,13.7783575,13.689911,13.5808325,13.444391,13.279892,13.106306,12.948418,12.816507,12.712817,12.621585,12.539148,12.459207,12.379565,12.302752,12.23218,12.170604,12.113913,12.065956,12.028143,12.00329,11.991909,11.989166,11.9896345,11.988524,11.983133,11.971568,11.95355,11.931485,11.908148,11.883838,11.857643,11.829335,11.800629,11.771437,11.7418585,11.712513,11.683588,11.655563,11.62666,11.596963,11.56461,11.528147,11.487907,11.446353,11.408003,11.368607,11.329252,11.292409,11.258845,11.226826,11.193939,11.159319,11.116451,11.065609,11.004958,10.936626,10.867095,10.801313,10.738674,10.674308,10.601353
15.696682,15.69549,15.694327,15.692884,15.691413,15.689644,15.6876955,15.685813,15.684114,15.682676,15.680876,15.679018,15.677231,15.6759205,15.675074,15.67436,15.67367,15.672741,15.671431,15.669274,15.666582,15.663633,15.660555,15.657593,15.654657,15.651652,15.648727,15.646228,15.644213,15.642658,15.641615,15.640907,15.640438,15.640024,15.63953,15.6388235,15.637905,15.636834,15.635481,15.634289,15.6331835,15.632357,15.631779,15.631419,15.631384,15.631675,15.632263,15.632984,15.633432,15.633308,15.632488,15.631058,15.629144,15.627134,15.624756,15.621894,15.618292,15.614006,15.60936,15.604712,15.600405,15.596174,15.592107,15.588338,15.584941,15.581863,15.579039,15.57651,15.574202,15.57222,15.570648,15.569248,15.567568,15.5652485,15.562201,15.558256,15.55363,15.548592,15.543516,15.538546,15.533672,15.529067,15.524878,15.5208845,15.517162,15.514009,15.5114975,15.509581,15.508186,15.506961,15.505484,15.503373,15.500303,15.49606,15.490788,15.4848995,15.478771,15.472183,15.464932,15.457249,15.449478,15.442093,15.435474,15.429697,15.4245825,15.4197445,15.415344,15.411373,15.4075985,15.403706,15.399412,15.394503,15.388689,15.382168,15.375292,15.368486,15.362084,15.356224,15.351013,15.34618,15.341797,15.338053,15.334734,15.331526,15.328215,15.324619,15.320327,15.315142,15.309044,15.302246,15.295334,15.288979,15.283508,15.278776,15.274453,15.270922,15.268154,15.266182,15.264817,15.263386,15.261341,15.258202,15.253679,15.248123,15.242102,15.235977,15.229809,15.223362,15.215851,15.207584,15.198961,15.190674,15.183203,15.176607,15.170977,15.166002,15.161717,15.158606,15.156923,15.156415,15.156506,15.156809,15.157078,15.157096,15.157076,15.156763,15.15574,15.153387,15.149311,15.14448,15.138428,15.130932,15.121982,15.111907,15.101305,15.090995,15.082281,15.0745735,15.067314,15.060152,15.052347,15.04332,15.03337,15.023651,15.013544,15.003366,14.992801,14.981874,14.971185,14.961206,14.952068,14.944124,14.936432,14.929047,14.921883,14.914906,14.908247,14.902088,14.896502,14.890781,14.885278,14.879605,14.873417,14.866098,14.857138,14.847605,14.837324,14.826886,14.817833,14.811277,14.807035,14.804209,14.8024,14.800476,14.799311,14.79889,14.798498,14.797134,14.794208,14.789964,14.7850485,14.780459,14.777166,14.776379,14.778107,14.781617,14.786297,14.790232,14.7932,14.793222,14.788749,14.782869,14.781417,14.78775,14.80125,14.813015,14.80916,14.756461,14.646328,14.498602,14.344938,14.218128,14.126586,14.063307,14.022495,13.985791,13.939745,13.8826685,13.814789,13.729609,13.617857,13.477664,13.30962,13.131431,12.968853,12.83523,12.732119,12.642984,12.563845,12.487495,12.4103985,12.334063,12.261583,12.195593,12.132572,12.077351,12.032915,12.003752,11.990938,11.989029,11.991947,11.993555,11.990639,11.9805355,11.9627,11.940067,11.915985,11.890625,11.862982,11.832511,11.8011,11.768854,11.736376,11.704882,11.6747,11.646076,11.61751,11.589098,11.558726,11.524483,11.486224,11.446132,11.4087105,11.370093,11.331696,11.296219,11.264587,11.235298,11.206037,11.175531,11.137918,11.093063,11.038578,10.975986,10.911411,10.849863,10.790889,10.7288265,10.656897
15.546686,15.545782,15.544923,15.543798,15.542649,15.541204,15.53956,15.5379715,15.536557,15.535332,15.533749,15.532106,15.530532,15.529438,15.528817,15.52833,15.527845,15.527122,15.526018,15.524109,15.521708,15.519066,15.516274,15.513573,15.51087,15.508112,15.505468,15.503289,15.501608,15.500366,15.499594,15.499125,15.498921,15.498837,15.498729,15.498399,15.497787,15.496935,15.495739,15.494685,15.493715,15.493021,15.492542,15.492239,15.492231,15.492546,15.49317,15.4939575,15.494521,15.494551,15.4939165,15.492696,15.490988,15.489126,15.486849,15.483997,15.480354,15.476044,15.471432,15.4669,15.462778,15.458754,15.454908,15.451376,15.4481945,15.445282,15.442585,15.440142,15.43788,15.435987,15.434536,15.433312,15.43185,15.429741,15.42688,15.423126,15.418667,15.413797,15.408869,15.403996,15.399157,15.39452,15.390255,15.386099,15.382126,15.378634,15.3757105,15.373365,15.371622,15.370156,15.36857,15.366465,15.363487,15.359369,15.3542385,15.348527,15.342625,15.336353,15.329526,15.322308,15.314986,15.307985,15.301641,15.296029,15.291019,15.286216,15.281802,15.277807,15.274014,15.270106,15.265785,15.260866,15.25504,15.248541,15.241755,15.235105,15.228905,15.223242,15.218199,15.213543,15.209303,15.205689,15.202527,15.199507,15.196421,15.193094,15.189157,15.184436,15.178869,15.172626,15.166203,15.160188,15.154894,15.150177,15.1456585,15.141663,15.138177,15.135313,15.133009,15.130709,15.12795,15.124244,15.119368,15.113727,15.107899,15.102142,15.096334,15.09015,15.082684,15.074018,15.064556,15.055126,15.046431,15.038731,15.032157,15.026279,15.020981,15.016605,15.013376,15.011147,15.009488,15.008156,15.007013,15.005772,15.00449,15.002911,15.000819,14.998034,14.994381,14.990007,14.984535,14.9774475,14.968721,14.958782,14.948235,14.937874,14.929222,14.921697,14.914795,14.908268,14.901263,14.893188,14.884517,14.87635,14.86808,14.859638,14.850731,14.841308,14.831864,14.822895,14.814618,14.807459,14.80056,14.79406,14.787907,14.782051,14.776541,14.771439,14.766757,14.761892,14.75716,14.752226,14.746656,14.739763,14.731049,14.721472,14.710903,14.700044,14.690375,14.683054,14.678037,14.674524,14.6721115,14.669706,14.667896,14.666454,14.664702,14.661851,14.657576,14.652373,14.646876,14.641693,14.637396,14.635244,14.635345,14.636948,14.639572,14.641563,14.642378,14.640236,14.633476,14.624643,14.619301,14.62145,14.63159,14.6448965,14.646518,14.613745,14.536409,14.42571,14.307598,14.208487,14.136076,14.086116,14.0524435,14.0185375,13.973199,13.915649,13.846521,13.761429,13.651082,13.506548,13.33478,13.154116,12.986818,12.851456,12.749002,12.66256,12.588406,12.518526,12.44765,12.375599,12.304578,12.236915,12.169832,12.10895,12.058788,12.025255,12.0098505,12.00669,12.009211,12.010121,12.0058975,11.993617,11.973154,11.94825,11.92266,11.896223,11.867441,11.835163,11.801296,11.766025,11.730494,11.696611,11.664928,11.635511,11.607156,11.580004,11.551722,11.51993,11.484003,11.445835,11.409796,11.372257,11.334877,11.300331,11.269632,11.241692,11.214558,11.186821,11.15328,11.113447,11.064692,11.008015,10.9491005,10.892883,10.838817,10.780208,10.71019
15.408304,15.407655,15.4070425,15.406178,15.405264,15.404061,15.402668,15.401333,15.400179,15.399197,15.39786,15.396469,15.395125,15.394255,15.393856,15.3935585,15.393242,15.392669,15.391724,15.390013,15.387833,15.385432,15.382907,15.380463,15.377995,15.375509,15.37319,15.371376,15.370068,15.369167,15.368661,15.3684025,15.368399,15.368559,15.368719,15.368643,15.368242,15.367542,15.366468,15.365543,15.364708,15.36414,15.36376,15.363508,15.363511,15.363848,15.364486,15.365303,15.365925,15.36602,15.365471,15.364372,15.362798,15.361034,15.35882,15.355993,15.3523655,15.348116,15.343646,15.339346,15.335495,15.331771,15.328222,15.324977,15.322029,15.319272,15.316674,15.314283,15.312026,15.310135,15.30871,15.307565,15.306231,15.3042755,15.301576,15.298017,15.293766,15.289111,15.284386,15.279676,15.2749405,15.270342,15.266051,15.261806,15.257658,15.253893,15.250622,15.247907,15.245827,15.244112,15.24238,15.240225,15.237293,15.233308,15.228383,15.222955,15.217405,15.211554,15.205231,15.198537,15.191706,15.185108,15.179033,15.173572,15.168608,15.163762,15.159214,15.155045,15.151089,15.147047,15.14263,15.137647,15.131785,15.125303,15.11861,15.112133,15.106163,15.100743,15.095915,15.091438,15.087353,15.083847,15.080778,15.077858,15.074878,15.07173,15.068064,15.063744,15.058716,15.053072,15.047225,15.041679,15.036661,15.032061,15.027438,15.0230665,15.0189495,15.015268,15.012085,15.00899,15.005558,15.001335,14.996149,14.990416,14.984745,14.979351,14.973958,14.968115,14.960816,14.951946,14.941857,14.931474,14.921722,14.913088,14.905747,14.899185,14.8932,14.88793,14.883538,14.879933,14.876791,14.874004,14.871534,14.86906,14.866674,14.864143,14.861203,14.8575735,14.853052,14.8478565,14.841555,14.833694,14.824282,14.813822,14.803073,14.792852,14.784327,14.776903,14.770052,14.763559,14.757057,14.750303,14.743565,14.737577,14.732014,14.725695,14.718637,14.710875,14.702772,14.694863,14.687553,14.6813965,14.675473,14.669736,14.664315,14.659318,14.654749,14.650589,14.646761,14.6428,14.638969,14.6349,14.630111,14.623865,14.615648,14.606353,14.595934,14.585072,14.575118,14.567265,14.561586,14.55735,14.554249,14.551107,14.548284,14.545531,14.542309,14.538076,14.532717,14.526779,14.520769,14.514954,14.50956,14.5058,14.503913,14.503294,14.503622,14.503504,14.502201,14.498126,14.489563,14.478556,14.470228,14.468844,14.475674,14.487549,14.4937315,14.475487,14.422981,14.343346,14.256382,14.183415,14.130457,14.094067,14.069098,14.040347,13.997772,13.941437,13.87225,13.785202,13.6796,13.534181,13.359808,13.1765995,13.004568,12.867241,12.765512,12.68243,12.615179,12.554901,12.494364,12.431311,12.366473,12.301615,12.234789,12.171823,12.11841,12.0812645,12.062059,12.054831,12.052767,12.047943,12.036695,12.016636,11.988984,11.958639,11.929601,11.901311,11.871241,11.837453,11.801555,11.763658,11.72532,11.689108,11.655899,11.625616,11.597348,11.571317,11.54501,11.515625,11.482122,11.44612,11.411755,11.375517,11.339195,11.305271,11.274858,11.247364,11.221287,11.195251,11.164639,11.12866,11.08461,11.033073,10.979334,10.928229,10.879074,10.824059,10.756102
15.271833,15.271383,15.270963,15.270279,15.269518,15.268473,15.267267,15.266163,15.265278,15.264569,15.263487,15.262367,15.261273,15.260624,15.260422,15.260303,15.260124,15.259672,15.258839,15.25727,15.255264,15.253072,15.250779,15.248564,15.24633,15.244124,15.242151,15.240726,15.239816,15.239265,15.239025,15.238961,15.239113,15.239422,15.23974,15.239809,15.239509,15.23889,15.237894,15.237059,15.236336,15.235851,15.23551,15.235248,15.235202,15.235494,15.236119,15.236924,15.237539,15.237638,15.237108,15.23605,15.2345295,15.232826,15.230655,15.227861,15.224292,15.220173,15.215934,15.211945,15.2084465,15.205088,15.20189,15.19896,15.196259,15.193663,15.191162,15.188799,15.186516,15.184584,15.183131,15.181997,15.180727,15.1788845,15.176338,15.172974,15.1689415,15.164525,15.160038,15.155547,15.150988,15.146503,15.142279,15.138031,15.133804,15.129872,15.126356,15.12335,15.120985,15.119043,15.117149,15.11492,15.11203,15.108189,15.10351,15.098419,15.09326,15.087837,15.08201,15.075792,15.069394,15.063146,15.057287,15.051907,15.0469055,15.041908,15.037105,15.032629,15.028381,15.024094,15.019489,15.014395,15.008472,15.001993,14.995398,14.989142,14.983475,14.978369,14.9738245,14.969597,14.9656925,14.962303,14.959309,14.95644,14.953507,14.950439,14.94697,14.942989,14.938442,14.933397,14.928163,14.92313,14.918463,14.914049,14.909422,14.904781,14.900154,14.895779,14.891815,14.887995,14.883977,14.87928,14.873789,14.867943,14.862379,14.857277,14.852249,14.846762,14.839705,14.830765,14.820259,14.809147,14.798534,14.789143,14.781225,14.774167,14.767721,14.761842,14.756602,14.7519245,14.747559,14.7435055,14.739798,14.736076,14.732488,14.72886,14.724963,14.720528,14.715364,14.709678,14.702953,14.694803,14.685219,14.674632,14.663723,14.653234,14.644247,14.636148,14.628536,14.621368,14.61447,14.607784,14.601593,14.596382,14.591689,14.5870495,14.581885,14.575878,14.569332,14.562807,14.556787,14.551783,14.547401,14.543177,14.539227,14.535957,14.533396,14.530961,14.527683,14.524399,14.5213585,14.518258,14.514463,14.509081,14.501598,14.492807,14.482746,14.472076,14.462174,14.454174,14.448032,14.44301,14.438957,14.4346485,14.430456,14.426205,14.421561,14.416226,14.410209,14.40399,14.397816,14.391672,14.385363,14.380088,14.376249,14.373396,14.371446,14.369282,14.365999,14.360272,14.350384,14.337862,14.327251,14.322752,14.326086,14.335396,14.343277,14.335287,14.302599,14.249401,14.190503,14.142202,14.108557,14.087385,14.073216,14.051844,14.014318,13.961104,13.893377,13.806601,13.699518,13.558517,13.387027,13.200596,13.024025,12.884403,12.783464,12.704557,12.64628,12.598942,12.553154,12.504173,12.450584,12.39324,12.331163,12.269811,12.215645,12.175673,12.151512,12.13734,12.126315,12.110308,12.085725,12.051573,12.011456,11.971912,11.937106,11.905933,11.874347,11.839343,11.801863,11.761732,11.720829,11.682333,11.647537,11.616346,11.588089,11.563116,11.538763,11.511822,11.480873,11.447281,11.4149,11.380256,11.345165,11.311794,11.281334,11.25374,11.228038,11.202985,11.174475,11.141462,11.10124,11.054029,11.00482,10.958504,10.914255,10.862947,10.797123
15.131448,15.131235,15.130982,15.130429,15.12973,15.128723,15.127583,15.126606,15.125912,15.125458,15.124647,15.123819,15.123005,15.122592,15.12258,15.12262,15.122576,15.122262,15.121565,15.12018,15.118396,15.116434,15.114376,15.1124,15.110416,15.108511,15.106916,15.105925,15.105467,15.105335,15.105425,15.105593,15.105919,15.106337,15.1067095,15.1068,15.106503,15.105881,15.104914,15.104099,15.103397,15.1028805,15.102413,15.101971,15.101739,15.101868,15.102373,15.103098,15.10367,15.10375,15.103222,15.102169,15.100659,15.098959,15.096792,15.094048,15.09062,15.086751,15.082863,15.079296,15.076233,15.073306,15.070532,15.06797,15.065548,15.063134,15.060719,15.058384,15.056076,15.054075,15.05253,15.051317,15.050033,15.048267,15.045898,15.04277,15.039053,15.034988,15.030866,15.026735,15.022514,15.018332,15.014381,15.010349,15.006269,15.002386,14.998802,14.995626,14.993028,14.990835,14.9887085,14.986309,14.983389,14.979681,14.975267,14.970535,14.965773,14.960765,14.955341,14.949505,14.94342,14.937387,14.931639,14.926262,14.921177,14.915962,14.910816,14.905926,14.901252,14.896589,14.89171,14.886449,14.880463,14.873997,14.867519,14.861475,14.856089,14.85129,14.847045,14.843102,14.839433,14.836225,14.833378,14.8306465,14.827847,14.824917,14.821665,14.817997,14.813887,14.809389,14.804741,14.800216,14.7959175,14.7917385,14.787201,14.782412,14.777447,14.772594,14.768084,14.763773,14.75937,14.754389,14.748722,14.74278,14.737198,14.732178,14.727303,14.722014,14.715113,14.70616,14.695425,14.68383,14.672586,14.662592,14.6541195,14.646549,14.639569,14.633051,14.627056,14.621515,14.616198,14.611186,14.606457,14.601596,14.5967865,14.591952,14.586975,14.581676,14.5759115,14.569845,14.562895,14.554723,14.545295,14.534943,14.524233,14.513798,14.504633,14.49612,14.487946,14.48023,14.472973,14.466258,14.460379,14.455656,14.451545,14.44765,14.443276,14.438032,14.43217,14.426216,14.420679,14.415985,14.411791,14.408221,14.405338,14.403333,14.402214,14.401541,14.400812,14.400412,14.399667,14.397558,14.394076,14.389226,14.382461,14.374266,14.364744,14.354479,14.344782,14.336702,14.330198,14.324589,14.319702,14.314271,14.308672,14.302846,14.296685,14.290106,14.283232,14.27649,14.269877,14.263187,14.255885,14.249173,14.243632,14.238924,14.235053,14.231178,14.2263,14.21936,14.2087145,14.195466,14.183527,14.176813,14.17722,14.183807,14.191809,14.190641,14.172743,14.140511,14.104945,14.077542,14.061014,14.053726,14.050082,14.037045,14.006563,13.959109,13.895918,13.813016,13.707965,13.572502,13.406138,13.221979,13.045874,12.904503,12.805298,12.731953,12.684818,12.65321,12.6256275,12.594877,12.557119,12.512218,12.460687,12.406261,12.355482,12.314926,12.285733,12.262197,12.237423,12.203836,12.158005,12.101791,12.042534,11.988949,11.945351,11.909964,11.876369,11.840505,11.802132,11.760456,11.717449,11.6768,11.640348,11.608183,11.57981,11.555735,11.533169,11.508522,11.480059,11.448956,11.418698,11.385835,11.352137,11.319414,11.288965,11.261309,11.235975,11.211834,11.185146,11.154552,11.11736,11.073601,11.028168,10.986103,10.946464,10.89883,10.83522
14.992267,14.992271,14.992131,14.991616,14.990869,14.989754,14.988535,14.987563,14.986959,14.986705,14.986134,14.985573,14.985033,14.984829,14.984961,14.985123,14.985176,14.984985,14.9844475,14.983271,14.981716,14.979971,14.978116,14.976347,14.974581,14.972961,14.971721,14.97114,14.971115,14.971403,14.971849,14.972282,14.972782,14.973259,14.973592,14.973586,14.973182,14.972479,14.971506,14.970643,14.969847,14.969139,14.968367,14.967559,14.966975,14.9668,14.967079,14.967642,14.968132,14.968185,14.967651,14.966579,14.965012,14.963259,14.961055,14.958366,14.955143,14.951621,14.9481735,14.945082,14.942493,14.940044,14.937724,14.93555,14.933415,14.931185,14.928869,14.926579,14.924276,14.922211,14.920544,14.919202,14.917841,14.916116,14.913932,14.911108,14.907785,14.904165,14.900518,14.896883,14.8931675,14.889498,14.886032,14.882467,14.878805,14.875223,14.871795,14.86862,14.8658695,14.863434,14.861029,14.858376,14.855331,14.851692,14.847506,14.843065,14.838593,14.833855,14.828634,14.8229475,14.816951,14.810928,14.805126,14.799637,14.7943945,14.788941,14.78343,14.778076,14.772898,14.767778,14.7625675,14.757137,14.751108,14.744698,14.73835,14.732492,14.727343,14.722826,14.718893,14.715261,14.711897,14.708967,14.706384,14.703913,14.701364,14.698691,14.695707,14.692354,14.688625,14.684582,14.68042,14.676342,14.672392,14.66847,14.664076,14.659273,14.654176,14.6490965,14.644312,14.639793,14.635252,14.630207,14.624498,14.618473,14.612753,14.60758,14.602581,14.5972595,14.590395,14.581474,14.570726,14.558966,14.547394,14.537,14.528019,14.519899,14.512268,14.505016,14.498307,14.492115,14.486179,14.480572,14.475149,14.469376,14.463446,14.457397,14.451314,14.445182,14.438904,14.432618,14.425673,14.417765,14.40886,14.39918,14.389151,14.379293,14.370455,14.362034,14.353769,14.345896,14.338539,14.3318815,14.326233,14.321789,14.317977,14.314257,14.309999,14.304892,14.299147,14.293222,14.2876,14.282604,14.277815,14.27375,14.270563,14.2684,14.267315,14.267038,14.267457,14.268335,14.269333,14.269549,14.268787,14.266169,14.260453,14.25325,14.244716,14.235448,14.226352,14.218348,14.211557,14.205429,14.199795,14.193405,14.18668,14.179575,14.172157,14.16453,14.156877,14.149595,14.142477,14.135223,14.127152,14.11948,14.112879,14.107086,14.1021805,14.097366,14.091597,14.084127,14.073526,14.060584,14.048527,14.040751,14.039085,14.042971,14.049472,14.051123,14.041889,14.023394,14.003963,13.991268,13.987133,13.990126,13.99492,13.989957,13.967963,13.928976,13.873882,13.799267,13.701769,13.573887,13.416733,13.241688,13.070187,12.928182,12.831907,12.765358,12.730799,12.716318,12.708569,12.698715,12.680891,12.653323,12.615713,12.573929,12.533649,12.497906,12.465391,12.430498,12.386551,12.327337,12.25181,12.165843,12.081242,12.009159,11.954027,11.913314,11.877342,11.841127,11.802766,11.760456,11.716017,11.673544,11.635523,11.602434,11.573872,11.550513,11.529433,11.506728,11.480465,11.4517,11.423523,11.392498,11.360315,11.328445,11.298315,11.270973,11.246356,11.223398,11.198511,11.169949,11.135002,11.0936985,11.051054,11.012337,10.976492,10.932005,10.870386
14.857118,14.857302,14.857228,14.8567,14.855858,14.854582,14.8532295,14.852205,14.851635,14.851519,14.851145,14.850819,14.850517,14.850479,14.850704,14.850939,14.851051,14.850964,14.850598,14.849654,14.84833,14.846787,14.845107,14.843492,14.841898,14.840521,14.839554,14.839284,14.839605,14.840241,14.840992,14.841664,14.842308,14.842804,14.843044,14.842901,14.842374,14.841602,14.840628,14.839708,14.838761,14.837767,14.836581,14.835305,14.834286,14.83374,14.833754,14.834139,14.834557,14.834627,14.834129,14.833043,14.83139,14.829541,14.827266,14.824614,14.821585,14.81839,14.815334,14.812653,14.810462,14.80843,14.80651,14.804686,14.802813,14.800762,14.798575,14.79637,14.794136,14.792059,14.7903,14.788826,14.787357,14.785635,14.783613,14.781092,14.77817,14.774997,14.771821,14.76869,14.765539,14.762474,14.759606,14.756651,14.753576,14.7504635,14.747351,14.74431,14.74148,14.738821,14.736113,14.733152,14.729914,14.7262535,14.722191,14.717918,14.7135725,14.708911,14.703701,14.697979,14.69192,14.685822,14.679934,14.674356,14.669022,14.663448,14.657721,14.65202,14.646423,14.640896,14.63538,14.629811,14.623772,14.617448,14.6112385,14.605546,14.60059,14.59632,14.5926895,14.589378,14.586353,14.583745,14.581477,14.579334,14.577125,14.574783,14.572117,14.569077,14.565695,14.562038,14.558286,14.554606,14.550989,14.547316,14.543084,14.538353,14.533253,14.5281105,14.523245,14.51869,14.514162,14.509165,14.503489,14.497374,14.491409,14.48588,14.480516,14.474939,14.467964,14.459085,14.448476,14.43681,14.425178,14.414519,14.405053,14.396282,14.387815,14.379652,14.37215,14.365366,14.358996,14.35306,14.347218,14.340792,14.333963,14.3268795,14.319843,14.313027,14.306371,14.2999935,14.293188,14.28567,14.277445,14.268652,14.259581,14.250644,14.242495,14.234558,14.226625,14.218978,14.211817,14.205382,14.199978,14.195707,14.191986,14.18824,14.183916,14.1787815,14.173025,14.167015,14.161182,14.155733,14.150253,14.145208,14.140947,14.13782,14.135962,14.135086,14.134996,14.135359,14.136621,14.138409,14.139955,14.139532,14.135718,14.130276,14.123461,14.115803,14.107724,14.100203,14.093637,14.087516,14.081715,14.07512,14.067726,14.059743,14.051476,14.043129,14.034929,14.027262,14.019842,14.012268,14.003807,13.995707,13.988732,13.982655,13.977475,13.972423,13.966537,13.959295,13.949545,13.937843,13.9267235,13.91894,13.916056,13.917553,13.921672,13.923108,13.917536,13.90641,13.896016,13.89159,13.894205,13.902782,13.912449,13.913364,13.89919,13.869483,13.82464,13.761797,13.676767,13.560928,13.418093,13.25673,13.092973,12.954578,12.8623295,12.802907,12.780224,12.781174,12.79109,12.79822,12.793413,12.7782135,12.753977,12.725153,12.695637,12.6655655,12.631762,12.589045,12.531984,12.45714,12.352484,12.233925,12.121729,12.029629,11.9621725,11.915973,11.877666,11.841656,11.8041,11.76196,11.716773,11.672941,11.63356,11.599691,11.570917,11.548052,11.528062,11.506826,11.48232,11.455555,11.429253,11.399986,11.369324,11.338484,11.309032,11.282465,11.259062,11.237761,11.214967,11.188545,11.15571,11.116524,11.076262,11.0405035,11.008021,10.966332,10.906422
14.727991,14.728336,14.728336,14.727825,14.726937,14.725576,14.724157,14.723116,14.722579,14.722565,14.722357,14.722243,14.722144,14.7222395,14.722528,14.722799,14.722963,14.722982,14.722809,14.722115,14.721038,14.719704,14.718182,14.716696,14.715252,14.714069,14.713305,14.713234,14.713773,14.714634,14.715588,14.716423,14.717175,14.717661,14.717798,14.717543,14.716965,14.716213,14.715286,14.714368,14.713299,14.71202,14.710428,14.7087145,14.7073,14.706429,14.7062235,14.706497,14.706908,14.707069,14.706667,14.705585,14.703851,14.70187,14.699478,14.696808,14.693879,14.690873,14.688047,14.685611,14.683662,14.681902,14.680284,14.678726,14.677065,14.675182,14.673139,14.671064,14.668966,14.666958,14.665161,14.663565,14.661976,14.660221,14.658307,14.656027,14.653429,14.6506195,14.647808,14.645079,14.64241,14.6399,14.637613,14.635258,14.632775,14.6301565,14.627392,14.624525,14.621659,14.618791,14.615768,14.612476,14.608992,14.605235,14.601198,14.596983,14.59265,14.587948,14.58267,14.576889,14.570805,14.564718,14.558886,14.553408,14.54818,14.542718,14.537035,14.531248,14.5254345,14.519646,14.513922,14.508263,14.502253,14.496036,14.489967,14.484417,14.47962,14.475563,14.472197,14.469187,14.466466,14.464148,14.46216,14.460318,14.4584465,14.456434,14.454088,14.451333,14.448261,14.444958,14.441584,14.438284,14.434985,14.431545,14.427488,14.4228525,14.417788,14.412647,14.407772,14.403227,14.398738,14.393783,14.388124,14.381889,14.375593,14.369566,14.363672,14.357672,14.350448,14.341572,14.331162,14.319742,14.30822,14.297396,14.287472,14.277971,14.268522,14.259298,14.25087,14.243393,14.236576,14.230402,14.224283,14.217442,14.21002,14.202238,14.194559,14.187298,14.180435,14.174038,14.167365,14.160173,14.152519,14.144513,14.136361,14.1283655,14.120991,14.113695,14.1063,14.09911,14.092357,14.086306,14.081211,14.07712,14.073454,14.06963,14.065218,14.060071,14.054354,14.048346,14.0424,14.036623,14.030608,14.024817,14.019733,14.015833,14.013286,14.011814,14.011242,14.011162,14.011944,14.013157,14.014112,14.013941,14.011892,14.008144,14.00301,13.996776,13.989826,13.983246,13.97751,13.972107,13.966913,13.960724,13.953209,13.9449215,13.936392,13.927904,13.919758,13.912318,13.904864,13.897217,13.888663,13.880474,13.873554,13.867681,13.862635,13.857781,13.852333,13.845869,13.837546,13.827739,13.818306,13.811346,13.808054,13.807827,13.8095,13.809225,13.804179,13.795804,13.788885,13.787334,13.791577,13.801144,13.811596,13.814936,13.806074,13.784392,13.749981,13.700537,13.63119,13.532404,13.407436,13.261922,13.110195,12.981646,12.894235,12.841331,12.827874,12.839464,12.859429,12.873049,12.870062,12.858599,12.843782,12.823588,12.800186,12.773767,12.741177,12.697311,12.637584,12.560112,12.440083,12.295586,12.157906,12.047766,11.969322,11.918352,11.87808,11.842615,11.806272,11.764783,11.719379,11.674674,11.634228,11.599756,11.570772,11.54814,11.528801,11.50852,11.485255,11.460039,11.435293,11.407575,11.378296,11.348547,11.320015,11.294583,11.272865,11.253746,11.233566,11.209888,11.179762,11.143185,11.105707,11.073227,11.044237,11.005325,10.946823
