30.602562,30.612267,30.618973,30.624477,30.62872,30.63293,30.638138,30.64501,30.653343,30.661507,30.666685,30.666737,30.659466,30.644402,30.624409,30.60579,30.59401,30.58865,30.588577,30.593842,30.603302,30.613712,30.622265,30.627048,30.626148,30.62191,30.615154,30.60775,30.603827,30.606182,30.615135,30.629799,30.648304,30.67123,30.697111,30.72242,30.745258,30.763218,30.772785,30.775421,30.772583,30.765686,30.758213,30.752552,30.748882,30.746372,30.744339,30.740555,30.734364,30.725647,30.714588,30.703133,30.693443,30.684998,30.678936,30.674221,30.669926,30.665138,30.660042,30.65498,30.649502,30.644753,30.639715,30.632359,30.621346,30.604704,30.581903,30.555355,30.527943,30.498482,30.468243,30.438005,30.4095,30.383839,30.360981,30.341925,30.324848,30.311226,30.301857,30.298935,30.302917,30.311474,30.322754,30.337715,30.356182,30.376034,30.396233,30.415567,30.433002,30.448772,30.462626,30.47652,30.490065,30.50287,30.514046,30.523579,30.532995,30.54271,30.554947,30.569492,30.58654,30.605247,30.624226,30.642578,30.659481,30.675629,30.690603,30.703163,30.712126,30.717434,30.720236,30.721794,30.723667,30.726269,30.729511,30.732021,30.734755,30.739716,30.745537,30.748608,30.747906,30.7393,30.719025,30.685017,30.638859,30.58449,30.522408,30.445827,30.345697,30.21098,30.035694,29.832539,29.625217,29.422642,29.213032,29.008831,28.823032,28.667376,28.547272,28.458529,28.39276,28.342758,28.28977,28.228369,28.167086,28.12082,28.100063,28.104181,28.115618,28.09604,28.010466,27.845152,27.623066,27.400257,27.232513,27.128624,27.086664,27.122509,27.222874,27.37693,27.594618,27.813702,27.812237,27.779312,27.660877,27.502886,27.310772,27.08255,26.835934,26.567318,26.354214,26.365276,26.441368,25.910227,23.833452,20.75976,18.970604,18.037218,18.06884,18.930017,21.41673,23.916584,24.582172,24.535534,24.505684,24.457123,24.203655,23.906908,23.662056,23.482014,23.415062,23.399265,23.342552,23.247545,23.128284,23.007881,22.90177,22.81089,22.730267,22.652004,22.569908,22.478968,22.379955,22.278559,22.18196,22.096495,22.01822,21.93856,21.858446,21.776089,21.69054,21.604372,21.521568,21.44181,21.361195,21.28106,21.197525,21.110569,21.022964,20.935871,20.85154,20.764248,20.672768,20.579775,20.488417,20.400484,20.316784,20.239105,20.16181,20.082308,20.003983,19.929579,19.860817,19.799465,19.746866,19.696327,19.642475,19.581799,19.513302,19.44122,19.371971,19.310013,19.257313,19.211813,19.171516,19.13733,19.10812,19.081108,19.05569,19.034117,19.015049,18.999575,18.988623,18.979338,18.968117,18.953392,18.934383,18.909866,18.88298,18.855608,18.830486,18.810663,18.796192,18.783562,18.77263,18.759754,18.74268,18.721756,18.697376,18.671165,18.646938,18.623615,18.5987,18.57219,18.545227,18.519432,18.49651,18.4777,18.462845,18.448568,18.433361,18.41586,18.39316,18.363829,18.32825,18.285656,18.236618,18.181517,18.123285,18.064625,18.006767,17.948822,17.889343,17.827698,17.758253,17.6834,17.60621,17.529373,17.455948,17.389122,17.327389,17.263947,17.200264,17.136395,17.073433,17.013798
30.106606,30.114983,30.120039,30.123774,30.126434,30.12961,30.134136,30.140257,30.147581,30.154507,30.158026,30.156178,30.146347,30.128738,30.106419,30.08546,30.071335,30.063854,30.061916,30.065992,30.075127,30.086514,30.09726,30.104881,30.107372,30.10691,30.104427,30.101715,30.102356,30.108603,30.120289,30.136116,30.15458,30.17648,30.20078,30.224749,30.24674,30.264381,30.274357,30.277725,30.275982,30.270306,30.263779,30.258396,30.254332,30.25115,30.2485,30.24443,30.238354,30.229733,30.218487,30.206272,30.195148,30.18513,30.177317,30.17077,30.164875,30.158777,30.152676,30.14592,30.136536,30.127773,30.11814,30.105919,30.089891,30.06929,30.044449,30.016832,29.98823,29.957542,29.926031,29.894339,29.864277,29.837215,29.81329,29.793625,29.776428,29.763508,29.756521,29.757427,29.766054,29.779753,29.796135,29.81617,29.839575,29.863186,29.886425,29.908257,29.927074,29.943123,29.9566,29.969868,29.982868,29.995573,30.007244,30.01782,30.028698,30.04023,30.054672,30.071537,30.090616,30.110806,30.130508,30.14869,30.164715,30.179049,30.19104,30.199406,30.203331,30.203426,30.20145,30.199,30.197506,30.196976,30.197012,30.195904,30.192398,30.186539,30.179085,30.17189,30.160393,30.141277,30.110985,30.068247,30.015335,29.95573,29.889633,29.808853,29.703882,29.56306,29.384449,29.182932,28.978914,28.780407,28.585838,28.408173,28.259567,28.14553,28.064472,28.008244,27.966576,27.93471,27.897923,27.851805,27.802242,27.759499,27.731348,27.719063,27.711319,27.681053,27.60149,27.46695,27.29512,27.123055,26.988846,26.89801,26.84893,26.855753,26.91263,27.01836,27.181398,27.347317,27.34385,27.322407,27.203217,27.03547,26.834246,26.596334,26.334461,26.047344,25.775734,25.504768,25.338898,24.283363,22.082954,19.904552,18.722775,17.978489,18.04624,18.905289,21.349934,23.793896,24.435444,24.376537,24.360846,24.30163,24.053164,23.75617,23.514008,23.353027,23.298561,23.28107,23.22606,23.135159,23.020844,22.904003,22.799088,22.707603,22.625328,22.54496,22.46088,22.367847,22.26664,22.1627,22.062672,21.972876,21.890217,21.806246,21.72273,21.638584,21.552925,21.467644,21.385727,21.306187,21.224901,21.14016,21.050379,20.958694,20.868732,20.781197,20.698801,20.61523,20.52964,20.44318,20.357714,20.274689,20.195034,20.12074,20.047022,19.971691,19.897917,19.82838,19.764547,19.707813,19.65954,19.613337,19.56392,19.507603,19.44244,19.371735,19.30154,19.236412,19.178974,19.127087,19.0793,19.036392,18.997478,18.960222,18.924297,18.892656,18.863602,18.838743,18.820324,18.805977,18.792328,18.77789,18.760885,18.739883,18.71761,18.69589,18.677269,18.664774,18.658447,18.654144,18.651394,18.646027,18.634842,18.61824,18.597084,18.573547,18.55193,18.5312,18.50892,18.485336,18.4617,18.439045,18.418133,18.399574,18.382887,18.365225,18.345642,18.323977,18.299358,18.271433,18.239775,18.202272,18.15869,18.107872,18.05246,17.995808,17.940258,17.885593,17.829994,17.77221,17.706684,17.635487,17.562435,17.49072,17.42345,17.363848,17.30938,17.253166,17.195889,17.136288,17.075222,17.015488
29.64155,29.64745,29.650137,29.65178,29.652714,29.654795,29.658585,29.663864,29.670044,29.675585,29.677395,29.673824,29.662098,29.642925,29.61942,29.597305,29.581944,29.57343,29.570805,29.575,29.58508,29.598446,29.611992,29.622707,29.62851,29.63144,29.632683,29.633976,29.638481,29.647945,29.661749,29.678326,29.696407,29.716946,29.739113,29.76087,29.780846,29.796766,29.805668,29.808472,29.806543,29.801126,29.794865,29.789444,29.785088,29.78157,29.778683,29.774878,29.768631,29.758966,29.746471,29.732985,29.720078,29.70808,29.697704,29.688126,29.678936,29.669615,29.660292,29.65107,29.641401,29.631868,29.62117,29.607758,29.590528,29.568947,29.543428,29.515255,29.486202,29.455124,29.423145,29.390844,29.360056,29.332314,29.307972,29.288147,29.27129,29.259308,29.254131,29.257706,29.26957,29.286709,29.306383,29.3294,29.355778,29.383297,29.410267,29.43451,29.454365,29.47025,29.482822,29.495043,29.507137,29.519634,29.531998,29.543858,29.556221,29.56939,29.585539,29.604115,29.624657,29.64589,29.665543,29.681835,29.694761,29.705719,29.713598,29.71696,29.715511,29.71061,29.704426,29.69873,29.69489,29.692734,29.691399,29.688425,29.681747,29.671066,29.65696,29.638031,29.613424,29.581753,29.54007,29.48732,29.425755,29.358974,29.289349,29.205612,29.097805,28.95607,28.784029,28.592747,28.394646,28.209753,28.03674,27.888882,27.77671,27.700459,27.653097,27.623661,27.600609,27.578644,27.546955,27.505108,27.45851,27.413647,27.375942,27.348309,27.32386,27.281385,27.205942,27.09483,26.96028,26.826862,26.718765,26.638441,26.583586,26.564354,26.585625,26.654575,26.779633,26.916782,26.928978,26.908188,26.790003,26.615484,26.403957,26.16502,25.890642,25.515444,25.072567,24.497673,23.65506,22.521822,20.962109,19.291576,18.468866,17.945358,18.037392,18.871132,21.28004,23.691282,24.31747,24.243982,24.237728,24.177723,23.93378,23.63881,23.399397,23.249039,23.204466,23.184206,23.13129,23.047665,22.940472,22.828346,22.726261,22.635803,22.553127,22.47147,22.385708,22.29039,22.18643,22.079645,21.97662,21.883156,21.796661,21.70906,21.622929,21.53772,21.45259,21.368782,21.288319,21.209854,21.12843,21.045109,20.954731,20.86058,20.769188,20.681625,20.600792,20.519962,20.438625,20.356941,20.275715,20.196003,20.118872,20.046492,19.974771,19.901855,19.830729,19.764095,19.70332,19.649591,19.604382,19.5616,19.516214,19.464329,19.40324,19.335308,19.265913,19.199524,19.139294,19.08291,19.029346,18.979198,18.931694,18.884876,18.838829,18.79721,18.757912,18.723133,18.69645,18.676128,18.659119,18.64405,18.628311,18.610065,18.59159,18.574596,18.561443,18.55506,18.555355,18.55778,18.561552,18.562138,18.555634,18.542465,18.523872,18.502361,18.482552,18.46352,18.442928,18.421227,18.399704,18.37896,18.359093,18.340176,18.321404,18.300308,18.276207,18.249836,18.222115,18.19381,18.164078,18.129955,18.090359,18.042736,17.989521,17.934427,17.88059,17.828371,17.775555,17.7205,17.657333,17.58794,17.517006,17.448364,17.385513,17.33207,17.284353,17.235554,17.1853,17.130932,17.072876,17.014103
29.15244,29.155384,29.155685,29.15549,29.15509,29.156467,29.15983,29.164352,29.169327,29.173477,29.1734,29.168106,29.154804,29.134636,29.110767,29.088562,29.073238,29.065252,29.063587,29.069702,29.082653,29.099651,29.117195,29.131819,29.141283,29.14766,29.15239,29.157001,29.164127,29.175095,29.189098,29.204502,29.220497,29.238144,29.256784,29.27502,29.29169,29.304667,29.311405,29.31274,29.310186,29.302437,29.293018,29.284498,29.27723,29.271088,29.265873,29.260002,29.252642,29.242739,29.230236,29.216488,29.20308,29.190552,29.17939,29.16883,29.158644,29.146984,29.134378,29.122654,29.11134,29.10062,29.088966,29.075203,29.05814,29.037235,29.012882,28.986046,28.95826,28.928463,28.897675,28.866413,28.836647,28.810238,28.787712,28.76997,28.75573,28.746864,28.745388,28.753178,28.769552,28.791216,28.815174,28.842014,28.871887,28.902634,28.932175,28.957905,28.978123,28.993496,29.004965,29.01586,29.02689,29.037792,29.047592,29.056473,29.06602,29.076344,29.089138,29.103775,29.119827,29.136154,29.1511,29.1636,29.173569,29.181416,29.186165,29.18689,29.18334,29.176613,29.168737,29.161486,29.155827,29.151257,29.146421,29.138523,29.125427,29.107147,29.085136,29.059109,29.029198,28.994526,28.953117,28.899525,28.83168,28.75586,28.678263,28.587955,28.478958,28.34441,28.184032,28.006023,27.825594,27.662766,27.516605,27.400133,27.321783,27.274843,27.245468,27.223064,27.203146,27.183321,27.155964,27.119862,27.078465,27.035389,26.99383,26.957167,26.92068,26.869102,26.794992,26.699142,26.591873,26.489124,26.403305,26.331995,26.274883,26.237892,26.225529,26.273151,26.388718,26.504864,26.536324,26.504028,26.382711,26.202797,25.99905,25.70034,25.217747,24.610756,23.649284,22.65196,21.738579,20.842247,19.852535,18.884853,18.256401,17.92376,18.040483,18.835596,21.200157,23.589016,24.21106,24.122044,24.122223,24.072735,23.833466,23.53656,23.295555,23.151777,23.118654,23.094109,23.040249,22.958204,22.855925,22.748554,22.648165,22.557661,22.47496,22.393478,22.308504,22.215088,22.112946,22.005772,21.900064,21.804142,21.71538,21.625324,21.537014,21.45068,21.36583,21.28329,21.204365,21.127438,21.046825,20.963737,20.87705,20.785406,20.692478,20.605314,20.5256,20.446571,20.368145,20.289696,20.211174,20.133305,20.057224,19.985277,19.914047,19.841988,19.772058,19.706991,19.64799,19.596027,19.552647,19.512085,19.469635,19.42146,19.364567,19.300606,19.234165,19.169292,19.109222,19.051334,18.994701,18.939587,18.885244,18.830074,18.774597,18.723299,18.67358,18.628407,18.592688,18.565386,18.543816,18.526724,18.510756,18.493668,18.47728,18.463196,18.453568,18.451077,18.455488,18.462082,18.470018,18.47462,18.471848,18.46223,18.44719,18.429214,18.412716,18.396763,18.379253,18.36065,18.342163,18.324059,18.30592,18.287378,18.267315,18.24382,18.216026,18.185303,18.154125,18.124344,18.095062,18.06303,18.026348,17.98127,17.930035,17.876251,17.823448,17.77242,17.720669,17.666353,17.602982,17.532612,17.460896,17.392525,17.331814,17.28309,17.241432,17.200268,17.157866,17.110119,17.056728,17.00053
28.656944,28.657059,28.655357,28.653862,28.65269,28.653748,28.65698,28.660988,28.663826,28.66367,28.659662,28.651127,28.636208,28.616522,28.595304,28.576557,28.563618,28.55709,28.55756,28.56694,28.584116,28.605865,28.62811,28.646954,28.66004,28.669672,28.677422,28.6846,28.693169,28.703865,28.715986,28.728558,28.74107,28.754265,28.767536,28.779715,28.789963,28.796741,28.798256,28.795586,28.789356,28.779089,28.767653,28.757246,28.748333,28.740786,28.734386,28.726135,28.716282,28.70434,28.690174,28.67489,28.660093,28.646275,28.63367,28.621418,28.609333,28.596107,28.582348,28.569603,28.55756,28.546566,28.534958,28.521833,28.505962,28.486736,28.464403,28.43961,28.413696,28.385864,28.357151,28.328308,28.301514,28.27878,28.260647,28.247646,28.238752,28.235815,28.240696,28.255047,28.27795,28.305866,28.335476,28.367245,28.401175,28.43479,28.465794,28.491547,28.510529,28.523766,28.532383,28.539724,28.54662,28.553307,28.559216,28.564337,28.569801,28.575836,28.583736,28.592888,28.60312,28.613663,28.623383,28.631666,28.638378,28.6432,28.645294,28.644178,28.639599,28.63232,28.624044,28.616224,28.609426,28.60278,28.594578,28.581982,28.563002,28.53803,28.509308,28.477642,28.442913,28.40443,28.359816,28.30497,28.238293,28.162424,28.078106,27.98422,27.877338,27.752884,27.608875,27.45229,27.298702,27.163893,27.047749,26.954353,26.892208,26.856041,26.832876,26.812885,26.792065,26.770645,26.743784,26.710335,26.672592,26.632412,26.590126,26.54671,26.500948,26.443432,26.371317,26.287252,26.199974,26.119736,26.051844,25.992537,25.93969,25.895878,25.864737,25.90598,26.023666,26.127583,26.186169,26.12566,25.99043,25.8096,25.594269,25.203884,24.461208,23.42104,22.015179,20.956308,20.26613,19.706713,19.136517,18.58536,18.115047,17.89153,18.051655,18.807364,21.095997,23.462822,24.113863,24.008965,24.013746,23.991692,23.752888,23.462597,23.229057,23.078108,23.045002,23.0145,22.95707,22.87362,22.773125,22.668627,22.56975,22.479435,22.396587,22.314833,22.229767,22.13696,22.036621,21.932598,21.830585,21.737083,21.647007,21.555317,21.46542,21.377728,21.292347,21.2104,21.13262,21.057186,20.977913,20.895397,20.81134,20.72428,20.634327,20.547098,20.468128,20.389896,20.312866,20.235924,20.158459,20.080948,20.004524,19.931698,19.85958,19.786936,19.716831,19.651993,19.593431,19.54187,19.49885,19.458923,19.417809,19.372028,19.318882,19.259687,19.198193,19.13771,19.081009,19.02503,18.96857,18.911404,18.852757,18.791292,18.72795,18.668205,18.608852,18.553684,18.508816,18.473942,18.446766,18.426134,18.408165,18.390234,18.37369,18.36005,18.351288,18.349783,18.355068,18.362545,18.371658,18.37789,18.37764,18.371613,18.361237,18.34859,18.337248,18.326256,18.313774,18.30014,18.286293,18.272205,18.257156,18.240477,18.220795,18.196877,18.167156,18.1334,18.099152,18.067127,18.036884,18.005482,17.970331,17.926914,17.877228,17.824364,17.77174,17.720413,17.667704,17.611816,17.545567,17.471395,17.395992,17.325016,17.263885,17.217896,17.180904,17.146782,17.11232,17.072071,17.024738,16.972675
28.168583,28.16489,28.160278,28.156498,28.153372,28.152575,28.153816,28.155321,28.154903,28.151024,28.143559,28.13235,28.116684,28.098633,28.081268,28.067518,28.059414,28.057446,28.062466,28.076593,28.098434,28.124247,28.149662,28.17088,28.18574,28.19682,28.20576,28.213566,28.221676,28.230556,28.239813,28.249088,28.258081,28.267117,28.27565,28.282547,28.287212,28.288567,28.285025,28.277033,28.265842,28.25254,28.23902,28.226784,28.216331,28.20744,28.199783,28.190163,28.178719,28.165152,28.149532,28.133049,28.117195,28.102394,28.088657,28.074999,28.061245,28.047087,28.033112,28.020151,28.008177,27.997583,27.986637,27.97461,27.9603,27.943,27.92278,27.90007,27.87614,27.85056,27.824493,27.799091,27.776705,27.759312,27.747292,27.740696,27.738628,27.742767,27.754509,27.775196,27.803839,27.836918,27.871065,27.906616,27.943413,27.978798,28.010294,28.03534,28.052734,28.063717,28.06947,28.07323,28.075798,28.07826,28.080639,28.08245,28.084038,28.085848,28.088902,28.092728,28.09752,28.102982,28.10822,28.112597,28.115984,28.117987,28.117777,28.115149,28.109917,28.102642,28.094625,28.08687,28.079529,28.071543,28.060986,28.045097,28.022047,27.992384,27.958645,27.921803,27.881363,27.837013,27.785685,27.72633,27.66008,27.58698,27.504967,27.415274,27.315674,27.203571,27.078617,26.946598,26.819115,26.708485,26.613974,26.53624,26.481937,26.44727,26.422985,26.401672,26.378277,26.353786,26.32502,26.29177,26.255611,26.216808,26.174282,26.128534,26.07988,26.022243,25.955433,25.88292,25.81211,25.749622,25.6968,25.64991,25.604143,25.559004,25.523497,25.563896,25.683071,25.788353,25.85811,25.768959,25.620052,25.430933,25.218067,24.733967,23.640644,22.068512,20.65258,19.812304,19.36144,19.077003,18.78482,18.409945,18.061974,17.887753,18.05237,18.740387,20.95063,23.318748,24.021069,23.90329,23.91261,23.93493,23.697691,23.416805,23.1957,23.030827,22.98615,22.94889,22.887062,22.80186,22.701948,22.599262,22.501976,22.412174,22.32909,22.246637,22.16058,22.067017,21.967175,21.865856,21.767944,21.677479,21.589302,21.49879,21.407331,21.31733,21.230766,21.148586,21.071186,20.996857,20.918762,20.837444,20.754599,20.670998,20.586426,20.502388,20.42405,20.346375,20.270054,20.193806,20.116764,20.039185,19.962093,19.888126,19.814775,19.741112,19.670307,19.605072,19.546223,19.494204,19.450508,19.410007,19.368809,19.323982,19.273598,19.218971,19.163078,19.108334,19.056664,19.004549,18.95029,18.893192,18.832436,18.766827,18.69762,18.631151,18.563568,18.499435,18.445787,18.403,18.369219,18.34343,18.321526,18.300549,18.281433,18.265694,18.255173,18.251953,18.255405,18.261192,18.269268,18.275497,18.277163,18.275055,18.2704,18.26461,18.260021,18.255558,18.249763,18.242733,18.23499,18.226257,18.215721,18.202518,18.185059,18.162783,18.133053,18.097683,18.060686,18.0255,17.992634,17.959925,17.924253,17.880835,17.83146,17.778477,17.724869,17.67175,17.61636,17.557085,17.486029,17.406197,17.325241,17.249763,17.186335,17.141228,17.10728,17.078884,17.051487,17.018559,16.977776,16.930807
27.688164,27.680904,27.673481,27.667313,27.661953,27.658886,27.657606,27.656242,27.65367,27.649542,27.641708,27.630878,27.616898,27.60141,27.587442,27.578068,27.575218,27.57926,27.589573,27.608276,27.63377,27.661861,27.688164,27.709423,27.723875,27.734343,27.74255,27.749203,27.75541,27.761776,27.768024,27.773563,27.778511,27.7833,27.787563,27.790325,27.791134,27.789078,27.78252,27.771332,27.757565,27.741875,27.726223,27.71219,27.700249,27.690052,27.681047,27.67133,27.660244,27.647087,27.63183,27.615675,27.600101,27.585508,27.571896,27.558182,27.544247,27.529617,27.515072,27.501823,27.489876,27.479717,27.46949,27.458565,27.44574,27.430182,27.411848,27.391106,27.369202,27.34607,27.323128,27.301819,27.284634,27.273464,27.268356,27.2688,27.273888,27.284882,27.302404,27.327477,27.359253,27.3946,27.430527,27.467224,27.504457,27.539694,27.570421,27.594282,27.610409,27.620026,27.624187,27.626045,27.626476,27.626469,27.626083,27.624826,27.622854,27.620693,27.619066,27.617733,27.617332,27.617998,27.61913,27.620152,27.620796,27.620537,27.618603,27.615097,27.60987,27.603184,27.595905,27.588646,27.581112,27.572308,27.560127,27.541946,27.516087,27.48302,27.445301,27.4043,27.359177,27.31012,27.254337,27.190565,27.120369,27.046242,26.970741,26.888144,26.797752,26.698936,26.592339,26.482227,26.376581,26.284176,26.202406,26.136406,26.088886,26.054077,26.024662,25.996784,25.96854,25.940739,25.910774,25.878521,25.844618,25.807907,25.767483,25.725657,25.68146,25.629799,25.57149,25.510693,25.454271,25.406637,25.36633,25.328629,25.288477,25.24247,25.206375,25.242966,25.363842,25.485249,25.538576,25.432655,25.273983,25.088135,24.904099,24.308874,22.823044,20.864792,19.710495,19.073397,18.803864,18.703844,18.58633,18.360435,18.09312,17.935646,18.04333,18.631443,20.760975,23.147324,23.926167,23.805,23.821121,23.874077,23.663483,23.398067,23.178768,23.002321,22.942017,22.897993,22.832048,22.745428,22.646423,22.545631,22.44973,22.360298,22.27708,22.194221,22.107536,22.013748,21.914135,21.813087,21.71525,21.625,21.539642,21.451181,21.359488,21.267826,21.179535,21.096209,21.018578,20.94482,20.867573,20.787617,20.706495,20.62503,20.544418,20.46636,20.390732,20.314644,20.2393,20.163841,20.087471,20.010254,19.933058,19.85855,19.784489,19.710165,19.638882,19.573284,19.514,19.461285,19.41651,19.374851,19.33268,19.287636,19.238718,19.187511,19.136406,19.08693,19.04007,18.991913,18.940262,18.884153,18.822758,18.754902,18.681961,18.610771,18.536888,18.465467,18.404057,18.353586,18.312683,18.280582,18.25322,18.227402,18.203754,18.18388,18.169546,18.16263,18.162464,18.165062,18.170874,18.176311,18.179615,18.181536,18.182938,18.184483,18.18721,18.189802,18.191301,18.191467,18.19035,18.18756,18.182344,18.173721,18.159914,18.141079,18.112736,18.077,18.037903,17.998993,17.961962,17.926044,17.88768,17.842255,17.79148,17.737015,17.681313,17.625372,17.566391,17.50294,17.426521,17.340755,17.254028,17.173698,17.107296,17.061827,17.029419,17.004997,16.982952,16.956041,16.921118,16.879143
27.221247,27.213371,27.205742,27.199532,27.194254,27.191374,27.190416,27.189604,27.187786,27.184582,27.178364,27.170235,27.160309,27.148937,27.139378,27.134735,27.135704,27.142715,27.15547,27.175991,27.202663,27.231052,27.256721,27.276747,27.289675,27.298508,27.30505,27.309864,27.3138,27.31742,27.320232,27.321209,27.320976,27.320293,27.319036,27.316431,27.312256,27.30598,27.296795,27.285965,27.272694,27.257874,27.243353,27.23061,27.220053,27.211239,27.203451,27.194729,27.184387,27.171822,27.15704,27.14124,27.125916,27.111423,27.097847,27.084026,27.06987,27.054989,27.040289,27.027119,27.015566,27.00611,26.996922,26.987236,26.97585,26.961859,26.945154,26.92622,26.906342,26.885754,26.866234,26.849463,26.838036,26.833668,26.835936,26.84372,26.856052,26.873684,26.896376,26.924732,26.958073,26.993816,27.029442,27.065193,27.100677,27.13368,27.161846,27.18318,27.197216,27.205126,27.207706,27.207922,27.206556,27.20456,27.20205,27.198467,27.19374,27.188433,27.18306,27.177593,27.173122,27.170134,27.168217,27.166843,27.165592,27.163815,27.160765,27.15681,27.151785,27.145714,27.13917,27.132404,27.124887,27.11578,27.102848,27.083633,27.05643,27.021355,26.980745,26.936386,26.887196,26.834042,26.77478,26.708672,26.637453,26.563343,26.488377,26.40884,26.324627,26.236134,26.144566,26.053528,25.968378,25.89364,25.82584,25.766886,25.718742,25.679089,25.644127,25.611328,25.579834,25.550148,25.520191,25.490137,25.460323,25.429214,25.395206,25.359558,25.321724,25.27787,25.229023,25.179247,25.134697,25.098322,25.067165,25.036476,25.000683,24.954536,24.914612,24.942797,25.068623,25.21487,25.245228,25.128305,24.954601,24.809603,24.638699,23.894348,22.158085,20.116463,19.108543,18.61589,18.477867,18.493214,18.469704,18.334358,18.165972,17.996109,18.04077,18.538513,20.553097,22.934631,23.827456,23.714516,23.74028,23.78278,23.635883,23.404083,23.171371,22.984745,22.909077,22.85858,22.788757,22.700813,22.602581,22.50341,22.40876,22.31983,22.236763,22.153858,22.066881,21.972961,21.873459,21.772682,21.675114,21.584698,21.498022,21.408188,21.318378,21.227802,21.138258,21.053886,20.975876,20.902306,20.825924,20.747545,20.668583,20.589615,20.511696,20.437042,20.366966,20.293877,20.220211,20.14603,20.070974,19.994865,19.918198,19.843739,19.769487,19.694857,19.623268,19.55729,19.49746,19.443962,19.39803,19.355076,19.311596,19.265713,19.217178,19.167953,19.120106,19.074413,19.031075,18.98589,18.93629,18.881315,18.820198,18.751705,18.677135,18.603466,18.52575,18.449425,18.38216,18.32529,18.277897,18.23948,18.206299,18.174978,18.14589,18.120766,18.101368,18.089481,18.084545,18.08297,18.085615,18.089428,18.093409,18.098213,18.104378,18.11191,18.120758,18.129387,18.137234,18.143764,18.14857,18.151257,18.151276,18.147583,18.138298,18.123692,18.097479,18.062683,18.023094,17.981514,17.940434,17.900501,17.858294,17.809597,17.756178,17.699306,17.641014,17.582056,17.519596,17.45236,17.371517,17.28115,17.190037,17.105965,17.037039,16.990658,16.958641,16.936369,16.917553,16.894615,16.863846,16.825653
26.789867,26.782158,26.77454,26.768085,26.762342,26.75877,26.757065,26.755835,26.754147,26.751623,26.746883,26.741087,26.73476,26.72934,26.726833,26.728378,26.734116,26.744411,26.75911,26.779747,26.804806,26.830002,26.851408,26.866905,26.875488,26.880085,26.882195,26.88242,26.881523,26.880056,26.878227,26.876156,26.87417,26.87194,26.869522,26.866081,26.861362,26.854874,26.845816,26.835438,26.822937,26.80914,26.795815,26.784351,26.775122,26.767605,26.760975,26.753471,26.744322,26.732859,26.719042,26.704016,26.689226,26.67505,26.661663,26.647919,26.633827,26.619036,26.60456,26.591879,26.581081,26.572666,26.564827,26.55658,26.546837,26.534643,26.519829,26.503124,26.485844,26.468565,26.453426,26.442188,26.437366,26.440403,26.450329,26.46541,26.484629,26.508102,26.534801,26.564842,26.597712,26.631483,26.664257,26.696415,26.72742,26.755585,26.778954,26.796026,26.80678,26.812336,26.813084,26.81166,26.80877,26.805254,26.801235,26.796104,26.789612,26.782326,26.774605,26.766518,26.759485,26.754265,26.75059,26.747889,26.745548,26.742867,26.739096,26.734753,26.729641,26.72373,26.717525,26.711094,26.703789,26.695158,26.682808,26.664265,26.637512,26.601982,26.55959,26.512596,26.45986,26.403133,26.341408,26.274681,26.204731,26.133312,26.062042,25.987793,25.910706,25.831612,25.751839,25.674114,25.602005,25.538282,25.479004,25.424805,25.377262,25.335243,25.296803,25.260996,25.227945,25.197685,25.1684,25.140438,25.113852,25.086876,25.0577,25.027122,24.994713,24.957594,24.916859,24.876442,24.841934,24.815208,24.792236,24.768059,24.736473,24.690594,24.64487,24.660301,24.78838,24.962435,24.979286,24.851685,24.665154,24.54461,24.384172,23.503536,21.555353,19.605915,18.739735,18.348543,18.330235,18.375694,18.333302,18.275509,18.19777,18.036758,18.029276,18.462929,20.37571,22.739655,23.733242,23.630505,23.66489,23.699692,23.61345,23.411484,23.164673,22.969173,22.880302,22.824451,22.751276,22.662008,22.564262,22.466595,22.373497,22.285816,22.203941,22.12211,22.035873,21.942467,21.843224,21.742466,21.644756,21.553967,21.46661,21.375889,21.284218,21.194162,21.108418,21.02711,20.94842,20.875118,20.799633,20.722862,20.646267,20.570034,20.494736,20.422352,20.353882,20.283625,20.212868,20.141396,20.069622,19.99662,19.921133,19.846775,19.77245,19.697533,19.625343,19.558468,19.497566,19.44291,19.395798,19.351772,19.307323,19.260769,19.212261,19.16395,19.11768,19.073767,19.03201,18.988026,18.939217,18.884853,18.824306,18.756287,18.681938,18.607925,18.52895,18.450397,18.379698,18.318445,18.266102,18.22244,18.1842,18.147758,18.113352,18.082706,18.057606,18.039959,18.029463,18.02291,18.02143,18.022215,18.024885,18.02993,18.03767,18.047838,18.059723,18.07163,18.08333,18.094124,18.103222,18.110281,18.114916,18.11599,18.111822,18.099129,18.07534,18.042723,18.004383,17.963493,17.921974,17.878494,17.8326,17.780365,17.723766,17.664097,17.603167,17.541546,17.476482,17.406761,17.323471,17.230892,17.137812,17.052036,16.981815,16.934631,16.902416,16.880787,16.863138,16.841883,16.813099,16.776838
26.346348,26.339098,26.331573,26.324785,26.318342,26.31382,26.311184,26.309654,26.308651,26.307652,26.305565,26.3035,26.301939,26.302082,26.305195,26.31138,26.320066,26.331615,26.346,26.364292,26.385334,26.405235,26.420647,26.430218,26.433453,26.433228,26.430843,26.42708,26.42266,26.418108,26.41375,26.409801,26.40646,26.40323,26.400183,26.39651,26.391851,26.385662,26.377182,26.36763,26.356255,26.343822,26.33207,26.322258,26.314638,26.308706,26.303661,26.29779,26.290392,26.280626,26.268356,26.254616,26.240747,26.227192,26.21431,26.200974,26.187328,26.173111,26.15942,26.147802,26.138319,26.131413,26.125387,26.118961,26.111122,26.100906,26.08818,26.073948,26.059723,26.046272,26.03622,26.031275,26.033802,26.044857,26.06279,26.085232,26.111166,26.139954,26.169743,26.200108,26.230728,26.26048,26.288166,26.314384,26.338509,26.359543,26.376202,26.387583,26.394047,26.396658,26.395294,26.392216,26.387959,26.383259,26.37822,26.372177,26.364742,26.356441,26.347538,26.338161,26.329916,26.323742,26.31947,26.31647,26.313887,26.311024,26.307095,26.302654,26.297523,26.29171,26.285799,26.279806,26.273102,26.265736,26.25521,26.238882,26.214188,26.179562,26.136217,26.086994,26.030828,25.97062,25.906925,25.840618,25.77333,25.706127,25.639734,25.571432,25.501194,25.429996,25.359278,25.291248,25.228287,25.172144,25.118624,25.067665,25.020744,24.977772,24.93816,24.90187,24.869347,24.840216,24.812716,24.78725,24.763744,24.740383,24.71538,24.689342,24.661827,24.630857,24.597588,24.5658,24.540592,24.523022,24.508202,24.490799,24.463987,24.418947,24.36758,24.368214,24.496973,24.702,24.706532,24.569702,24.373276,24.262928,24.142323,23.197203,21.069561,19.212122,18.466824,18.170368,18.186085,18.265274,18.272589,18.24001,18.177422,18.048826,18.000937,18.376682,20.20264,22.55575,23.638363,23.542578,23.585308,23.611414,23.596756,23.42514,23.157053,22.953442,22.854492,22.790813,22.714046,22.622993,22.525112,22.428543,22.337051,22.251116,22.171183,22.091347,22.006647,21.914276,21.815453,21.71458,21.616472,21.525131,21.437202,21.346018,21.253815,21.163828,21.07872,20.999245,20.925026,20.85587,20.783035,20.707779,20.63308,20.5598,20.487782,20.41807,20.351452,20.28313,20.214138,20.144394,20.07423,20.003416,19.931686,19.861778,19.789673,19.714283,19.640675,19.572304,19.509861,19.453733,19.405416,19.360474,19.315298,19.268192,19.219357,19.171013,19.124863,19.080969,19.03908,18.994698,18.945438,18.891094,18.83127,18.764654,18.692177,18.61975,18.54187,18.463554,18.391663,18.327892,18.271997,18.223976,18.18124,18.139866,18.100033,18.063313,18.031578,18.007,17.989656,17.97688,17.969868,17.965916,17.965137,17.967834,17.974289,17.984234,17.996479,18.009354,18.02271,18.035828,18.047665,18.058004,18.066654,18.072186,18.072346,18.063757,18.04432,18.015503,17.979418,17.938904,17.896902,17.85403,17.80499,17.749271,17.689465,17.627071,17.563885,17.500336,17.433779,17.363007,17.279205,17.186676,17.093819,17.00813,16.937645,16.889706,16.856705,16.83442,16.816109,16.794502,16.765768,16.729784
25.901035,25.894333,25.88691,25.879772,25.872587,25.867083,25.86361,25.862095,25.862293,25.86346,25.8647,25.866928,25.870388,25.875689,25.883448,25.893082,25.9035,25.915012,25.927807,25.942318,25.957893,25.971272,25.979809,25.98294,25.980637,25.975632,25.968979,25.961666,25.954403,25.947626,25.94159,25.936388,25.932133,25.928373,25.925186,25.921764,25.917652,25.912197,25.904604,25.896015,25.885866,25.874823,25.864643,25.856506,25.850555,25.846292,25.842907,25.83878,25.833254,25.825356,25.814793,25.802475,25.789669,25.776867,25.76466,25.75201,25.739231,25.726128,25.713814,25.703863,25.696255,25.691296,25.687565,25.683346,25.677715,25.669762,25.65937,25.647858,25.637028,25.627813,25.62331,25.625048,25.635054,25.653885,25.679188,25.708014,25.73943,25.772034,25.803343,25.832453,25.859245,25.88343,25.904606,25.923609,25.939808,25.952938,25.96244,25.967972,25.970184,25.970055,25.966862,25.96246,25.957237,25.95179,25.94618,25.939732,25.93201,25.9235,25.914356,25.904736,25.896303,25.890114,25.886055,25.883396,25.881104,25.878511,25.874779,25.870413,25.865263,25.85948,25.853798,25.848299,25.842484,25.836905,25.829025,25.815933,25.794382,25.761703,25.718311,25.66758,25.608603,25.545502,25.480446,25.41513,25.350967,25.28825,25.226715,25.163868,25.099514,25.034594,24.97063,24.909544,24.853,24.80219,24.752949,24.704956,24.659657,24.61758,24.578884,24.543875,24.512928,24.485374,24.459505,24.435814,24.414196,24.393064,24.370932,24.348309,24.324795,24.299103,24.272484,24.248507,24.2319,24.22324,24.217007,24.207321,24.18692,24.144648,24.09137,24.081963,24.199795,24.408579,24.429476,24.287981,24.085464,23.981064,23.883091,22.898476,20.674137,18.912018,18.257076,18.044975,18.090277,18.18436,18.218208,18.197327,18.13083,18.020672,17.943748,18.280647,20.045422,22.393038,23.54338,23.451061,23.501854,23.527431,23.533508,23.40009,23.150581,22.936886,22.82925,22.755945,22.674833,22.581161,22.48231,22.38631,22.296343,22.212444,22.13485,22.057514,21.974813,21.883776,21.78558,21.684753,21.586376,21.49469,21.406574,21.315445,21.22359,21.134329,21.05019,20.97226,20.900776,20.834034,20.764572,20.693687,20.624023,20.555925,20.488144,20.420883,20.356148,20.289257,20.221416,20.152771,20.083609,20.013977,19.944017,19.876041,19.80627,19.733974,19.662174,19.592598,19.52729,19.469109,19.419487,19.373634,19.327843,19.280216,19.230776,19.181675,19.134583,19.089539,19.046413,19.000702,18.950375,18.895855,18.837044,18.772728,18.703678,18.634754,18.560518,18.485306,18.415077,18.351446,18.29432,18.243786,18.197964,18.152645,18.107952,18.06509,18.026077,17.993486,17.967861,17.94726,17.932796,17.921713,17.914654,17.911894,17.913902,17.920624,17.930544,17.941986,17.95462,17.967688,17.980064,17.991776,18.002872,18.011986,18.017391,18.013317,17.99892,17.975138,17.942852,17.904255,17.862816,17.82029,17.772404,17.715048,17.653252,17.589767,17.526089,17.462448,17.39627,17.32632,17.244167,17.15386,17.063108,16.978865,16.90868,16.859503,16.824629,16.799904,16.778812,16.75476,16.724197,16.686935
25.469208,25.46309,25.455803,25.44837,25.440529,25.43423,25.430248,25.429123,25.430843,25.434402,25.439024,25.445316,25.453117,25.46247,25.473377,25.484818,25.495504,25.50573,25.515892,25.52581,25.53534,25.541996,25.543892,25.541132,25.534088,25.525255,25.515354,25.50551,25.49641,25.488327,25.481388,25.475647,25.471024,25.46725,25.464382,25.46163,25.458424,25.453993,25.44749,25.439877,25.430878,25.421028,25.41215,25.405397,25.400856,25.397997,25.395983,25.393272,25.389309,25.382967,25.373852,25.362785,25.350956,25.338882,25.327408,25.315636,25.304077,25.29258,25.282167,25.274334,25.268972,25.266207,25.264956,25.26313,25.259893,25.254444,25.246687,25.238153,25.23102,25.226347,25.227627,25.236061,25.253075,25.278603,25.309654,25.342808,25.377367,25.411324,25.441864,25.46783,25.48938,25.50705,25.521152,25.53278,25.541393,25.547348,25.550697,25.551476,25.55043,25.548393,25.544136,25.539135,25.533619,25.528053,25.522457,25.51619,25.50885,25.50085,25.492317,25.483368,25.475628,25.470173,25.466896,25.464993,25.463348,25.46128,25.457909,25.453588,25.448265,25.44231,25.436668,25.43161,25.42683,25.42329,25.41842,25.40907,25.391258,25.361198,25.31855,25.26706,25.206022,25.140665,25.074566,25.01011,24.948526,24.889454,24.831764,24.77309,24.713142,24.652771,24.593552,24.537315,24.48538,24.438625,24.393234,24.34885,24.306805,24.267738,24.231895,24.199425,24.170479,24.144253,24.119156,24.095821,24.074348,24.053589,24.032494,24.01162,23.99068,23.968903,23.94766,23.930328,23.921412,23.921288,23.923994,23.922998,23.910852,23.873634,23.823505,23.809868,23.911177,24.107138,24.157238,24.015343,23.811584,23.711063,23.612068,22.600952,20.358814,18.69258,18.101465,17.96696,18.0293,18.116581,18.159203,18.141932,18.06863,17.957495,17.863773,18.186514,19.914942,22.254505,23.446598,23.356731,23.415764,23.446548,23.44793,23.35213,23.138988,22.917099,22.802261,22.719503,22.632933,22.5358,22.435303,22.33942,22.250893,22.169104,22.093945,22.019299,21.938799,21.849325,21.752048,21.651592,21.55326,21.46156,21.37361,21.282925,21.191992,21.10422,21.022049,20.946148,20.876259,20.810923,20.744102,20.676994,20.611477,20.54771,20.484535,20.421833,20.361313,20.297768,20.231003,20.16249,20.093662,20.02449,19.954704,19.886768,19.818077,19.74781,19.677626,19.608948,19.54365,19.48424,19.432766,19.385818,19.339375,19.29121,19.240997,19.190691,19.14198,19.095085,19.050144,19.002617,18.950947,18.896118,18.838371,18.77677,18.71202,18.647816,18.579067,18.509212,18.443197,18.382347,18.326523,18.27581,18.228859,18.181198,18.132877,18.08456,18.03841,17.997416,17.962675,17.933105,17.909615,17.88929,17.873438,17.862514,17.857384,17.858326,17.863575,17.871368,17.880955,17.891499,17.901962,17.912703,17.924059,17.935003,17.944763,17.94606,17.936909,17.918442,17.891117,17.856403,17.81755,17.776255,17.73095,17.67617,17.61583,17.553745,17.492191,17.43089,17.367268,17.300121,17.221495,17.135075,17.047653,16.965534,16.895695,16.844547,16.80656,16.77767,16.751926,16.723728,16.68996,16.650387
25.060448,25.054918,25.047924,25.040543,25.032593,25.026278,25.02268,25.022652,25.02618,25.032001,25.039375,25.048645,25.059135,25.070454,25.08215,25.093071,25.102127,25.109703,25.116352,25.121452,25.125315,25.126175,25.12279,25.1157,25.105545,25.09452,25.082996,25.072166,25.0626,25.05436,25.047451,25.0419,25.037453,25.034061,25.031746,25.02977,25.027496,25.024046,25.018553,25.01178,25.003704,24.994808,24.986923,24.981256,24.97784,24.976074,24.975094,24.973375,24.970448,24.965109,24.95693,24.946714,24.935612,24.924133,24.91336,24.9026,24.892548,24.88308,24.87503,24.869661,24.866768,24.866257,24.867409,24.867952,24.867123,24.86427,24.859344,24.853931,24.850582,24.850418,24.857132,24.871508,24.894136,24.924204,24.958277,24.992672,25.02708,25.059223,25.086355,25.107397,25.122883,25.134048,25.141693,25.147045,25.149715,25.150444,25.149635,25.14751,25.14473,25.141937,25.137585,25.132858,25.127836,25.122883,25.11797,25.112514,25.106209,25.09935,25.092133,25.084566,25.078163,25.073944,25.07179,25.070896,25.070097,25.06871,25.065815,25.061594,25.056112,25.050014,25.044418,25.039806,25.036064,25.034435,25.032383,25.026585,25.012417,24.985098,24.943607,24.891897,24.829414,24.762243,24.695045,24.630774,24.570522,24.513468,24.45792,24.401604,24.344286,24.286777,24.230705,24.177883,24.129421,24.085938,24.044119,24.00362,23.965542,23.930376,23.898098,23.868473,23.84144,23.81617,23.791248,23.767422,23.745117,23.72369,23.702509,23.68224,23.662733,23.643581,23.626266,23.614033,23.611275,23.618366,23.629128,23.636486,23.633095,23.602802,23.55955,23.545494,23.63234,23.815937,23.894371,23.755077,23.555416,23.45158,23.336035,22.304491,20.08255,18.538197,17.989697,17.915741,17.974209,18.04778,18.10085,18.078253,17.99632,17.880026,17.782467,18.10883,19.81157,22.12901,23.338182,23.256481,23.32462,23.362537,23.366623,23.301224,23.116928,22.892628,22.77177,22.68112,22.588612,22.487953,22.385925,22.290245,22.203207,22.123352,22.05026,21.977943,21.899357,21.81138,21.715218,21.615456,21.517448,21.425884,21.338074,21.24768,21.157478,21.071009,20.99066,20.916847,20.848959,20.785488,20.7205,20.655144,20.591377,20.529938,20.470427,20.412573,20.356503,20.297129,20.232971,20.166233,20.098064,20.028664,19.95902,19.891468,19.823147,19.752518,19.682201,19.61502,19.551756,19.492847,19.440899,19.393528,19.346588,19.29765,19.246313,19.194454,19.143791,19.094776,19.047825,18.998226,18.94497,18.889458,18.832277,18.77293,18.712147,18.652576,18.589554,18.525648,18.464891,18.408247,18.355444,18.306477,18.260271,18.212112,18.16194,18.109795,18.057873,18.009453,17.966106,17.927692,17.894829,17.864544,17.83889,17.818695,17.805298,17.79927,17.798569,17.80126,17.805983,17.811787,17.817915,17.82513,17.834166,17.844393,17.855543,17.862719,17.858517,17.844894,17.822922,17.793472,17.75944,17.722107,17.680016,17.631039,17.576675,17.519806,17.463203,17.406723,17.347637,17.28505,17.211315,17.12972,17.04604,16.965979,16.89608,16.84224,16.800175,16.766026,16.734573,16.701462,16.664074,16.622019
24.68166,24.676674,24.670248,24.663506,24.656384,24.651258,24.649311,24.651283,24.65689,24.66462,24.673672,24.684273,24.69532,24.706158,24.71611,24.72419,24.729855,24.733711,24.736408,24.737083,24.736378,24.733097,24.726389,24.716965,24.705572,24.69404,24.682507,24.672102,24.663227,24.655746,24.649548,24.644657,24.640755,24.637913,24.63614,24.634745,24.633104,24.630333,24.625534,24.61937,24.611982,24.60382,24.59676,24.592035,24.589624,24.588797,24.588633,24.5876,24.585217,24.580341,24.57256,24.562712,24.551987,24.540924,24.530758,24.521038,24.512638,24.505478,24.500092,24.497368,24.497002,24.498653,24.501974,24.504698,24.506123,24.505772,24.50364,24.501255,24.501453,24.505331,24.51649,24.535316,24.561447,24.593271,24.62719,24.659542,24.690506,24.717922,24.739485,24.75457,24.764128,24.769754,24.772556,24.77362,24.772743,24.77072,24.768059,24.764996,24.76205,24.759668,24.756142,24.75248,24.748693,24.745018,24.741371,24.737268,24.73249,24.727234,24.721752,24.715939,24.711166,24.708351,24.707382,24.70752,24.707558,24.706898,24.704588,24.700665,24.695305,24.689352,24.684036,24.679909,24.677006,24.676785,24.676811,24.673702,24.662376,24.637325,24.59694,24.545223,24.481709,24.412994,24.344513,24.279604,24.219276,24.162447,24.10718,24.051361,23.995008,23.939041,23.885143,23.83501,23.789427,23.748734,23.709969,23.672802,23.638046,23.606018,23.576519,23.549042,23.523376,23.498718,23.473877,23.449627,23.42662,23.404654,23.383423,23.363632,23.345192,23.327904,23.313377,23.3047,23.306196,23.318377,23.335106,23.349045,23.35322,23.331455,23.29635,23.28365,23.35846,23.530712,23.643177,23.509182,23.318024,23.201342,23.053074,21.995983,19.810585,18.42902,17.906736,17.862848,17.919117,17.983658,18.03801,18.00911,17.922306,17.80621,17.715853,18.05364,19.727297,22.00204,23.208548,23.1447,23.225895,23.273537,23.282812,23.242653,23.085838,22.86544,22.737698,22.641045,22.543278,22.43996,22.337303,22.242453,22.157063,22.07877,22.00698,21.936083,21.858597,21.771656,21.67659,21.577755,21.480238,21.388752,21.30074,21.20999,21.119602,21.033394,20.953846,20.881245,20.81471,20.752693,20.689451,20.626066,20.564468,20.505363,20.448116,20.392056,20.337244,20.279842,20.21943,20.156696,20.090357,20.021126,19.952381,19.885914,19.818497,19.748802,19.679264,19.612076,19.548756,19.49103,19.440844,19.393963,19.34661,19.296543,19.24368,19.190098,19.1376,19.086826,19.038292,18.987125,18.932514,18.875896,18.818367,18.760132,18.70198,18.64579,18.587244,18.52819,18.472012,18.419426,18.370083,18.323849,18.279636,18.232574,18.1824,18.12857,18.07315,18.019432,17.96928,17.923422,17.882215,17.842873,17.808147,17.779364,17.758255,17.745518,17.7388,17.735867,17.734722,17.734257,17.734097,17.735565,17.739895,17.746925,17.756641,17.767138,17.767254,17.758205,17.74139,17.717884,17.690186,17.658838,17.622934,17.58052,17.534897,17.48685,17.437626,17.388107,17.33547,17.27858,17.21043,17.133907,17.053766,16.975288,16.904812,16.847813,16.801292,16.761623,16.7244,16.686607,16.646095,16.602165
24.338272,24.333866,24.328215,24.3225,24.316769,24.313541,24.3139,24.31823,24.32582,24.334908,24.3447,24.35534,24.365398,24.374062,24.38057,24.384369,24.385633,24.38519,24.383806,24.380562,24.376268,24.370174,24.361645,24.351332,24.339987,24.329058,24.318556,24.309443,24.30198,24.29585,24.290821,24.28693,24.283844,24.281744,24.280598,24.27975,24.278627,24.276398,24.272186,24.266602,24.25985,24.252377,24.24604,24.242142,24.240593,24.240475,24.240868,24.240211,24.237991,24.233168,24.2254,24.215576,24.20496,24.19412,24.184467,24.175632,24.168758,24.16384,24.16103,24.160767,24.16267,24.166178,24.171257,24.175812,24.179205,24.181114,24.181595,24.18203,24.185469,24.19286,24.20753,24.229523,24.25751,24.289122,24.320843,24.34918,24.374878,24.396114,24.411205,24.420235,24.424534,24.42579,24.42524,24.423756,24.42125,24.418423,24.41571,24.413223,24.411304,24.410229,24.408264,24.40635,24.404388,24.402496,24.400589,24.398254,24.395302,24.391905,24.38837,24.384476,24.381393,24.379921,24.379995,24.380993,24.381767,24.381723,24.379944,24.37632,24.371113,24.365305,24.360176,24.356295,24.353817,24.354355,24.355598,24.354172,24.34473,24.32122,24.281605,24.22977,24.165335,24.095211,24.025276,23.95913,23.89777,23.839998,23.783869,23.727509,23.671232,23.616196,23.564121,23.516441,23.473534,23.435446,23.399479,23.365257,23.333284,23.303703,23.276215,23.250187,23.225332,23.200958,23.176052,23.151405,23.12782,23.105452,23.084288,23.064949,23.047403,23.031578,23.01916,23.013075,23.017553,23.03328,23.0543,23.07328,23.083553,23.072134,23.044497,23.032478,23.097187,23.258787,23.409286,23.282887,23.102352,22.969719,22.772505,21.690742,19.57584,18.352364,17.854029,17.82125,17.870136,17.925016,17.975605,17.940418,17.85101,17.737408,17.660082,18.015123,19.65377,21.868324,23.059608,23.01824,23.122349,23.181925,23.197838,23.178398,23.049377,22.839388,22.701786,22.601254,22.499205,22.394207,22.291761,22.19831,22.114727,22.037611,21.966488,21.89618,21.819057,21.732746,21.638685,21.540854,21.443913,21.352444,21.263905,21.172298,21.081043,20.994228,20.914587,20.8424,20.776573,20.715506,20.653639,20.59193,20.532207,20.475193,20.42015,20.366058,20.312727,20.256313,20.196022,20.132425,20.067137,20.001484,19.936123,19.872677,19.806805,19.738714,19.670774,19.604763,19.542057,19.48442,19.433735,19.385986,19.337454,19.286182,19.232018,19.176998,19.123257,19.071781,19.022972,18.972092,18.917511,18.859808,18.80104,18.74281,18.685896,18.631632,18.575922,18.520107,18.467148,18.417696,18.3714,18.328,18.286215,18.241142,18.192173,18.138329,18.08139,18.024452,17.969543,17.918034,17.87014,17.823328,17.780994,17.744953,17.717186,17.698364,17.685944,17.677292,17.669903,17.66257,17.65532,17.650032,17.648495,17.651014,17.65779,17.665613,17.670094,17.666357,17.654211,17.636763,17.61592,17.591534,17.563091,17.528719,17.491077,17.451588,17.411192,17.370045,17.3261,17.2751,17.212467,17.140793,17.063892,16.98669,16.915447,16.855328,16.804556,16.759697,16.717249,16.675499,16.632679,16.587643
23.990612,23.986881,23.982233,23.977829,23.973883,23.972916,23.97587,23.982622,23.99195,24.001942,24.011814,24.02174,24.029999,24.035736,24.038183,24.037167,24.033611,24.028675,24.023144,24.016174,24.008781,24.000534,23.990898,23.980394,23.969738,23.959915,23.950905,23.943428,23.937635,23.933086,23.929428,23.926723,23.92464,23.923353,23.922852,23.922474,23.921757,23.919998,23.916355,23.911404,23.905376,23.89872,23.89325,23.890255,23.889585,23.890167,23.891077,23.89075,23.888662,23.883884,23.876202,23.866516,23.8561,23.845612,23.836544,23.828703,23.823433,23.820807,23.820583,23.822731,23.826782,23.831999,23.838547,23.84475,23.849985,23.854084,23.857176,23.860401,23.866814,23.877312,23.894756,23.9189,23.947517,23.97757,24.005758,24.028988,24.04845,24.062874,24.071283,24.074497,24.07421,24.072037,24.069191,24.066277,24.063251,24.060669,24.058802,24.05762,24.05727,24.057892,24.057766,24.057835,24.057957,24.058119,24.05822,24.057934,24.057064,24.055761,24.054375,24.052593,24.05131,24.05125,24.052425,24.054321,24.055883,24.056526,24.055319,24.05201,24.046926,24.041191,24.036123,24.03231,24.029984,24.030819,24.032724,24.032394,24.024242,24.001793,23.962639,23.91047,23.844898,23.773138,23.701397,23.633533,23.57061,23.511402,23.454054,23.396862,23.340477,23.286236,23.23584,23.190475,23.150043,23.114304,23.080738,23.04889,23.019016,22.991177,22.965061,22.939999,22.915691,22.891499,22.86658,22.84169,22.817764,22.795225,22.774237,22.755367,22.73872,22.72424,22.713764,22.709969,22.716894,22.735346,22.759674,22.782875,22.798874,22.796188,22.776134,22.76614,22.81933,22.969276,23.173313,23.054295,22.885408,22.738731,22.474566,21.359297,19.350578,18.301388,17.833014,17.795444,17.831438,17.876625,17.919266,17.875656,17.783108,17.6744,17.612457,17.987438,19.573288,21.701824,22.872702,22.864643,23.001503,23.076363,23.10198,23.097553,22.99539,22.808775,22.66949,22.559055,22.452778,22.346254,22.24391,22.151867,22.070091,21.993916,21.923122,21.852905,21.775679,21.689701,21.596539,21.49973,21.403425,21.311975,21.222855,21.130302,21.037975,20.950281,20.870203,20.798096,20.732738,20.672523,20.612026,20.552078,20.494312,20.4394,20.386503,20.334309,20.282366,20.226896,20.166931,20.10305,20.037605,19.972443,19.908253,19.847025,19.785313,19.721489,19.65743,19.594639,19.533936,19.476925,19.426224,19.377825,19.328041,19.275188,19.219559,19.163185,19.107986,19.055084,19.00476,18.952066,18.896488,18.839108,18.780666,18.721895,18.664669,18.611122,18.556946,18.503014,18.452076,18.404766,18.360872,18.320103,18.280823,18.238176,18.191225,18.138626,18.08176,18.023327,17.965336,17.909723,17.856522,17.803635,17.754885,17.712505,17.67854,17.65354,17.634916,17.619781,17.60519,17.590105,17.575012,17.562304,17.554201,17.551311,17.553944,17.558477,17.562084,17.561604,17.555965,17.546124,17.532856,17.515783,17.495556,17.470047,17.441315,17.410194,17.377254,17.342562,17.304556,17.262663,17.209314,17.143822,17.07065,16.99577,16.924782,16.862482,16.808228,16.75893,16.712078,16.667202,16.622887,16.577398
23.634907,23.63189,23.628391,23.625496,23.623617,23.625172,23.630802,23.63977,23.650398,23.660706,23.669922,23.678299,23.683994,23.686207,23.684198,23.678219,23.669933,23.660763,23.651466,23.641415,23.631765,23.622292,23.612473,23.602592,23.593224,23.584969,23.577797,23.57219,23.568172,23.565235,23.56295,23.561405,23.560299,23.559727,23.559635,23.559439,23.558851,23.557358,23.554195,23.549873,23.544674,23.538986,23.534548,23.532614,23.532936,23.53432,23.53583,23.53595,23.534092,23.529533,23.522137,23.512793,23.5028,23.492853,23.4845,23.477762,23.474152,23.473806,23.476093,23.480536,23.486622,23.493473,23.501352,23.509075,23.516083,23.522299,23.527885,23.533682,23.542545,23.555412,23.574486,23.599268,23.626852,23.653778,23.677185,23.694502,23.70728,23.714914,23.717163,23.715572,23.712065,23.70803,23.704433,23.701553,23.699373,23.698174,23.698013,23.698696,23.700222,23.702633,23.70432,23.706312,23.708466,23.710663,23.712801,23.714624,23.715918,23.71679,23.71765,23.71801,23.71856,23.719893,23.722092,23.72484,23.727169,23.728527,23.727951,23.72506,23.720192,23.714567,23.709541,23.705685,23.703299,23.704052,23.706047,23.706104,23.69849,23.676434,23.637325,23.584558,23.517723,23.444298,23.370499,23.300503,23.235764,23.175007,23.116228,23.058054,23.001427,22.947844,22.898952,22.855612,22.817284,22.783342,22.75144,22.721008,22.692127,22.664948,22.63932,22.614624,22.590626,22.566708,22.542137,22.517529,22.49383,22.471563,22.450937,22.432564,22.41669,22.403353,22.394459,22.392437,22.401066,22.421223,22.447697,22.474144,22.495342,22.49995,22.487318,22.48025,22.5219,22.654144,22.88728,22.810783,22.664906,22.503506,22.124786,20.988632,19.218502,18.275082,17.837887,17.778706,17.800373,17.839115,17.869339,17.815578,17.719673,17.618614,17.574734,17.970707,19.485495,21.498283,22.64373,22.697668,22.857666,22.94955,22.989758,22.995571,22.920452,22.771822,22.64177,22.524654,22.40397,22.294643,22.193283,22.102167,22.022013,21.946445,21.875515,21.80478,21.726856,21.640898,21.548567,21.45289,21.357471,21.266296,21.17675,21.083374,20.98994,20.901182,20.82037,20.747955,20.68277,20.623253,20.564087,20.505959,20.450222,20.397448,20.34671,20.296425,20.245884,20.191374,20.131786,20.067738,20.002098,19.937248,19.874054,19.814491,19.755386,19.694458,19.633366,19.573326,19.515224,19.460564,19.411257,19.36391,19.315224,19.263641,19.207539,19.149147,19.092148,19.037666,18.985561,18.930668,18.872976,18.813751,18.754307,18.695889,18.639683,18.58583,18.531439,18.477592,18.427076,18.380554,18.337978,18.29914,18.262035,18.221916,18.177486,18.127193,18.071886,18.013693,17.954483,17.896492,17.839703,17.782452,17.728836,17.681332,17.641869,17.610779,17.585617,17.563385,17.540916,17.51752,17.494164,17.473743,17.458778,17.44997,17.447603,17.447914,17.449173,17.449352,17.447636,17.444447,17.439598,17.431475,17.419525,17.40302,17.383286,17.360336,17.334417,17.30575,17.273205,17.237564,17.192715,17.136543,17.069904,16.998493,16.929352,16.86633,16.80992,16.75743,16.707512,16.660881,16.616356,16.571379
23.282597,23.2806,23.278465,23.277134,23.277164,23.280762,23.288307,23.298605,23.309635,23.319511,23.327517,23.333935,23.336988,23.335945,23.330112,23.320087,23.308079,23.295727,23.283699,23.271606,23.260658,23.250763,23.241346,23.232456,23.22453,23.217834,23.212357,23.208351,23.205782,23.204086,23.202827,23.202106,23.201622,23.2014,23.201366,23.201061,23.20038,23.199024,23.196383,23.192842,23.188671,23.184223,23.181067,23.180363,23.181774,23.184006,23.186138,23.186773,23.185291,23.18114,23.17425,23.165495,23.156181,23.147049,23.139637,23.134148,23.132202,23.133936,23.138401,23.144787,23.15258,23.160854,23.169884,23.178997,23.187733,23.19603,23.20393,23.211897,23.222664,23.236912,23.256063,23.279541,23.304245,23.32671,23.3447,23.356323,23.363232,23.365383,23.36316,23.358574,23.353573,23.349174,23.346039,23.344189,23.343584,23.344278,23.346138,23.348824,23.352198,23.356256,23.359562,23.36327,23.367247,23.371319,23.375393,23.37923,23.38258,23.385513,23.388504,23.3909,23.393196,23.395824,23.398956,23.402483,23.405533,23.407612,23.4077,23.405313,23.400738,23.395245,23.39027,23.386328,23.383738,23.384094,23.385616,23.385273,23.377298,23.354828,23.315231,23.261644,23.193554,23.118553,23.04295,22.971188,22.90496,22.842966,22.783127,22.724064,22.667048,22.613808,22.565872,22.523735,22.486526,22.453379,22.42197,22.391647,22.36241,22.334652,22.308573,22.283737,22.259956,22.23662,22.213093,22.18973,22.167168,22.145735,22.125618,22.107563,22.092054,22.079334,22.07138,22.070503,22.080189,22.101288,22.129078,22.157963,22.183702,22.193523,22.18768,22.184845,22.218369,22.327854,22.541666,22.561226,22.45615,22.257837,21.74889,20.62791,19.14891,18.261131,17.853756,17.769848,17.776817,17.808744,17.824379,17.759966,17.660881,17.56686,17.54078,17.96088,19.382519,21.252289,22.380089,22.520332,22.691662,22.80147,22.85867,22.878902,22.831982,22.723606,22.616615,22.499912,22.36655,22.245714,22.140583,22.05009,21.970274,21.894464,21.822918,21.75134,21.672668,21.586998,21.495945,21.401957,21.308125,21.217983,21.12878,21.03546,20.941628,20.852123,20.770412,20.697178,20.631498,20.572006,20.513533,20.456661,20.40243,20.351265,20.302204,20.253452,20.204102,20.150448,20.091372,20.027445,19.962048,19.898018,19.836134,19.778107,19.72069,19.66169,19.602783,19.545025,19.489363,19.437134,19.389427,19.343306,19.295685,19.245092,19.190285,19.133373,19.076935,19.021078,18.966982,18.909794,18.84971,18.787777,18.726131,18.66679,18.610403,18.556553,18.502335,18.448135,18.396605,18.349106,18.306341,18.268173,18.2323,18.19416,18.152142,18.10453,18.051651,17.995079,17.936455,17.878033,17.81978,17.760376,17.70391,17.652878,17.608932,17.572247,17.540733,17.511452,17.481232,17.449842,17.41876,17.391262,17.369995,17.35555,17.34811,17.34388,17.34223,17.341434,17.341341,17.34261,17.344265,17.34386,17.339447,17.330902,17.319061,17.30334,17.283684,17.260513,17.23307,17.20211,17.163307,17.116257,17.057812,16.99179,16.92624,16.864204,16.807133,16.75285,16.701292,16.654396,16.611126,16.567959
22.94382,22.943096,22.942352,22.942348,22.943707,22.948322,22.95654,22.966944,22.977367,22.986156,22.992691,22.997252,22.998203,22.994877,22.986626,22.974236,22.960182,22.946228,22.932934,22.920097,22.908882,22.89924,22.890558,22.882742,22.87611,22.87067,22.866436,22.863491,22.861748,22.860683,22.85988,22.859444,22.859085,22.858723,22.858349,22.857662,22.85673,22.855463,22.8534,22.850784,22.847822,22.844816,22.843098,22.843685,22.846165,22.84917,22.851858,22.852985,22.851952,22.848335,22.842133,22.834188,22.825796,22.81775,22.811531,22.807484,22.807232,22.810818,22.817062,22.824999,22.834156,22.843624,22.853668,22.864119,22.874498,22.8847,22.894703,22.904617,22.916683,22.931223,22.948929,22.969326,22.989658,23.006939,23.019642,23.026619,23.02936,23.028194,23.023865,23.018509,23.013813,23.01038,23.008575,23.0083,23.009459,23.011986,23.01564,23.01997,23.024775,23.030046,23.034492,23.039433,23.044764,23.050299,23.055935,23.06141,23.066418,23.071024,23.075748,23.079834,23.083565,23.087257,23.09114,23.09531,23.098995,23.101727,23.102474,23.100655,23.096466,23.091213,23.086386,23.082481,23.079744,23.079622,23.080372,23.079079,23.070065,23.046547,23.006035,22.951504,22.882294,22.805935,22.729092,22.656343,22.589275,22.526608,22.466278,22.406696,22.349457,22.295734,22.247269,22.20496,22.167606,22.134045,22.101799,22.070152,22.039062,22.00929,21.981594,21.956009,21.932663,21.91119,21.889706,21.868336,21.847439,21.827087,21.807384,21.789188,21.773357,21.760403,21.75252,21.752033,21.762169,21.783646,21.81216,21.842821,21.872272,21.885923,21.885582,21.887356,21.916622,22.004864,22.179253,22.302666,22.244072,21.990528,21.375074,20.30906,19.092266,18.251953,17.873943,17.768438,17.760414,17.783972,17.785206,17.71084,17.609344,17.523714,17.513554,17.960075,19.265327,20.973537,22.099447,22.329315,22.50623,22.633831,22.711235,22.742432,22.717499,22.649721,22.573788,22.475498,22.340746,22.202328,22.086964,21.99546,21.91482,21.838045,21.76581,21.693642,21.614885,21.530396,21.441526,21.350117,21.25885,21.170782,21.083088,20.991104,20.897999,20.808361,20.725733,20.651138,20.584148,20.523726,20.46493,20.40831,20.354607,20.304132,20.25594,20.208145,20.159649,20.106731,20.048374,19.985027,19.920437,19.857716,19.79741,19.740993,19.685238,19.627918,19.57082,19.515018,19.461342,19.410892,19.3645,19.319267,19.272121,19.221619,19.168278,19.113846,19.058931,19.00343,18.94916,18.891321,18.829483,18.765163,18.70118,18.639677,18.581436,18.527212,18.472734,18.417877,18.36517,18.316307,18.272392,18.23344,18.197218,18.159618,18.11904,18.074036,18.024467,17.970827,17.914038,17.85658,17.798527,17.73885,17.681332,17.628212,17.580826,17.53931,17.50206,17.466373,17.429176,17.39075,17.353065,17.319633,17.293032,17.273643,17.261555,17.252956,17.24802,17.245459,17.245571,17.248909,17.253914,17.258036,17.259651,17.257156,17.251377,17.241444,17.226976,17.208506,17.185562,17.159153,17.125134,17.084667,17.034126,16.975399,16.914955,16.855501,16.799183,16.744478,16.692623,16.64683,16.606215,16.566174
22.626728,22.627144,22.627478,22.628323,22.630322,22.635025,22.64287,22.652447,22.661617,22.669008,22.674074,22.677109,22.676628,22.672024,22.662708,22.649544,22.635052,22.620972,22.60778,22.59539,22.58485,22.576048,22.568378,22.561686,22.556135,22.551662,22.54826,22.545897,22.54446,22.543512,22.542688,22.542078,22.541466,22.54064,22.539654,22.538416,22.537182,22.536007,22.534534,22.532845,22.531134,22.529562,22.529228,22.530996,22.534367,22.53796,22.54107,22.54259,22.541935,22.538868,22.533424,22.526382,22.519047,22.512264,22.507374,22.504894,22.506363,22.51164,22.519396,22.528633,22.538939,22.549465,22.560436,22.572083,22.583893,22.595669,22.607445,22.619064,22.631737,22.645622,22.660889,22.677235,22.692587,22.704754,22.7129,22.716553,22.716892,22.71447,22.710138,22.705847,22.702885,22.7014,22.701477,22.703018,22.705875,22.709915,22.71484,22.720186,22.725782,22.731651,22.736624,22.742176,22.748243,22.75468,22.761347,22.767914,22.774027,22.779758,22.785673,22.790928,22.795658,22.800085,22.804485,22.809113,22.813301,22.816605,22.818008,22.816822,22.813187,22.808414,22.804005,22.800432,22.797852,22.797485,22.79758,22.795288,22.78504,22.760254,22.71871,22.663256,22.59311,22.515713,22.438112,22.364944,22.297598,22.234829,22.174473,22.114439,22.056221,22.000723,21.95029,21.906399,21.86752,21.832188,21.797604,21.763065,21.728552,21.695305,21.664814,21.637768,21.614832,21.59601,21.5777,21.559746,21.542057,21.523537,21.503803,21.484993,21.468204,21.454329,21.445848,21.445143,21.455204,21.476639,21.505419,21.537216,21.56927,21.586727,21.58945,21.593735,21.62043,21.693298,21.844193,22.010609,21.990261,21.704021,21.039541,20.054516,19.03815,18.25058,17.902834,17.775291,17.752144,17.768162,17.75647,17.673584,17.570854,17.49999,17.504208,17.971989,19.158855,20.703197,21.818375,22.127024,22.306498,22.453259,22.541576,22.563793,22.557398,22.542645,22.497011,22.430103,22.311043,22.164257,22.035183,21.938105,21.857336,21.779697,21.707382,21.635529,21.55803,21.476223,21.390911,21.303272,21.215631,21.130604,21.045383,20.955667,20.864017,20.774586,20.69085,20.61422,20.545013,20.482582,20.42226,20.364634,20.310268,20.259422,20.21124,20.16383,20.115906,20.063696,20.006262,19.943933,19.880642,19.819584,19.761013,19.706228,19.651972,19.59597,19.540207,19.485851,19.433777,19.384987,19.340012,19.295998,19.250023,19.20055,19.147697,19.092995,19.038105,18.98435,18.931774,18.875147,18.813187,18.748213,18.683144,18.61995,18.560019,18.504156,18.447674,18.391262,18.337551,18.28762,18.24215,18.201439,18.163641,18.125296,18.085068,18.042128,17.995888,17.945538,17.89114,17.835426,17.778736,17.719921,17.662426,17.60819,17.558298,17.512913,17.470913,17.429876,17.386866,17.342575,17.2994,17.261002,17.229801,17.20598,17.189644,17.176905,17.168488,17.16347,17.162369,17.165703,17.171692,17.177626,17.183067,17.184856,17.18352,17.178053,17.167858,17.153378,17.134314,17.11179,17.08242,17.046793,17.002777,16.951574,16.897026,16.841125,16.786606,16.732594,16.681541,16.637943,16.601028,16.565077
22.337746,22.338984,22.34,22.341259,22.343424,22.347717,22.354664,22.363018,22.370792,22.37683,22.380627,22.382454,22.381012,22.375723,22.3661,22.353067,22.339035,22.325705,22.313395,22.302105,22.292725,22.285042,22.27847,22.272823,22.268139,22.264374,22.261497,22.259438,22.258064,22.25703,22.256027,22.255108,22.254103,22.252762,22.251211,22.249561,22.24818,22.247221,22.246408,22.24565,22.245132,22.244867,22.245743,22.24847,22.252476,22.256409,22.25972,22.261448,22.26103,22.258389,22.253574,22.247318,22.240995,22.235481,22.231907,22.230968,22.234077,22.240887,22.249985,22.260395,22.271679,22.28312,22.294838,22.307268,22.320175,22.333275,22.346334,22.358936,22.37162,22.384396,22.396992,22.409302,22.420044,22.427849,22.43248,22.434006,22.433262,22.430866,22.427622,22.425175,22.424387,22.425007,22.42688,22.429974,22.434101,22.439114,22.444717,22.450512,22.456392,22.462416,22.467567,22.4734,22.479893,22.486927,22.494314,22.501637,22.50848,22.514936,22.521635,22.52768,22.533096,22.538036,22.542809,22.547775,22.552399,22.556263,22.558338,22.557878,22.554977,22.550945,22.547287,22.544395,22.54235,22.542156,22.541992,22.539032,22.52778,22.501919,22.459494,22.403255,22.33235,22.254179,22.176071,22.102726,22.035442,21.972973,21.91293,21.851698,21.78992,21.731644,21.679417,21.633083,21.59122,21.552631,21.514107,21.475014,21.435677,21.397995,21.364145,21.33525,21.311977,21.294125,21.279861,21.268158,21.257175,21.242374,21.22227,21.202806,21.185024,21.170216,21.161089,21.160065,21.169992,21.19136,21.220295,21.25278,21.286255,21.307705,21.310547,21.31363,21.337814,21.398872,21.534014,21.671524,21.683067,21.420368,20.789085,19.896112,18.992825,18.260021,17.941402,17.791456,17.753582,17.763529,17.741081,17.651384,17.548536,17.498507,17.515722,17.992176,19.093338,20.487099,21.540771,21.922523,22.101788,22.26538,22.327343,22.324785,22.356258,22.412678,22.397167,22.346056,22.265467,22.131409,21.988647,21.880486,21.801216,21.723583,21.65231,21.582218,21.507812,21.43063,21.350704,21.268318,21.185345,21.104092,21.021767,20.93452,20.8443,20.754795,20.669333,20.589779,20.517258,20.451574,20.388294,20.328197,20.271809,20.219439,20.170385,20.122776,20.075186,20.023659,19.967289,19.90625,19.84452,19.785297,19.728615,19.67556,19.62284,19.568134,19.513565,19.46039,19.40958,19.362148,19.31842,19.275604,19.2309,19.182682,19.130974,19.07716,19.022697,18.968805,18.915741,18.85897,18.79917,18.737621,18.673979,18.609592,18.54845,18.491264,18.433369,18.375252,18.31937,18.266993,18.2192,18.176567,18.137363,18.09842,18.0583,18.016167,17.971003,17.922188,17.87013,17.81679,17.76248,17.705193,17.648266,17.593605,17.542124,17.494005,17.448517,17.403454,17.355986,17.306988,17.25917,17.216354,17.180845,17.15274,17.132338,17.11557,17.103542,17.095577,17.092234,17.094028,17.099262,17.1053,17.112144,17.117348,17.119665,17.117838,17.111435,17.100502,17.084806,17.065485,17.039803,17.008448,16.969318,16.923798,16.87484,16.822489,16.770073,16.717243,16.667543,16.626644,16.593842,16.562412
22.054901,22.056664,22.058002,22.059273,22.061127,22.064564,22.070225,22.07708,22.08337,22.088116,22.090824,22.0918,22.089893,22.08451,22.075314,22.063215,22.050392,22.038422,22.027554,22.017796,22.009846,22.003414,21.997923,21.993176,21.98914,21.985828,21.983192,21.981178,21.979656,21.978363,21.977081,21.975784,21.974415,21.972637,21.970709,21.968891,21.967619,21.96709,21.967066,21.967316,21.967964,21.968966,21.970936,21.974405,21.978798,21.982857,21.986168,21.987915,21.98759,21.985254,21.980978,21.975485,21.970158,21.965885,21.963657,21.964344,21.969143,21.977528,21.987919,21.99928,22.011341,22.023478,22.035896,22.049055,22.06277,22.076664,22.090424,22.103508,22.11582,22.127205,22.137173,22.145765,22.152458,22.15669,22.15876,22.15908,22.158224,22.15675,22.155317,22.155119,22.156548,22.15908,22.162388,22.166504,22.171246,22.176514,22.182135,22.187832,22.1936,22.199554,22.204735,22.210762,22.217628,22.225214,22.233232,22.241135,22.24849,22.255407,22.262589,22.269146,22.275028,22.280327,22.285355,22.290562,22.295555,22.299957,22.302742,22.303143,22.301199,22.298191,22.29561,22.293766,22.29266,22.293045,22.292992,22.289667,22.277683,22.250946,22.207767,22.15086,22.079163,22.000292,21.921764,21.848347,21.78146,21.719688,21.659132,21.59565,21.53289,21.473465,21.418892,21.369312,21.32355,21.280853,21.238106,21.19233,21.14581,21.102184,21.064354,21.033808,21.011158,20.996113,20.986652,20.978132,20.968502,20.9557,20.938591,20.920475,20.904015,20.887993,20.877604,20.876154,20.886292,20.907978,20.936888,20.969704,21.003784,21.027134,21.033398,21.033947,21.050125,21.105251,21.224445,21.34905,21.366833,21.130852,20.556856,19.75594,18.951965,18.277771,17.981567,17.812653,17.762617,17.767109,17.735424,17.640223,17.538055,17.511871,17.540165,18.021446,19.030941,20.24892,21.213552,21.689533,21.903364,21.98869,21.971954,21.99231,22.105019,22.231628,22.281078,22.250267,22.195389,22.083162,21.944597,21.827179,21.741182,21.665714,21.597351,21.53245,21.46327,21.392578,21.319937,21.244389,21.167233,21.090534,21.01152,20.926846,20.837915,20.747887,20.65995,20.57646,20.499424,20.429173,20.361385,20.297253,20.237415,20.182333,20.13154,20.08326,20.035835,19.985098,19.930058,19.87072,19.810978,19.75391,19.699368,19.648272,19.597187,19.5438,19.490353,19.438168,19.388351,19.342007,19.299316,19.25758,19.214127,19.167282,19.116985,19.064404,19.01086,18.957577,18.904835,18.848297,18.788773,18.727222,18.665298,18.604689,18.545935,18.488369,18.428928,18.368847,18.310673,18.255688,18.205105,18.159733,18.118317,18.07795,18.037159,17.995102,17.95057,17.90258,17.851366,17.799072,17.745731,17.690231,17.635544,17.582878,17.531689,17.481642,17.43339,17.384985,17.33384,17.280777,17.228733,17.18164,17.141754,17.10921,17.084572,17.063553,17.047539,17.036057,17.029564,17.028566,17.031628,17.036432,17.04292,17.050133,17.055815,17.057472,17.054333,17.046608,17.033901,17.017313,16.994865,16.96618,16.930988,16.891085,16.847357,16.798603,16.748507,16.697212,16.649246,16.611366,16.582928,16.556343
21.762486,21.764301,21.765554,21.766472,21.7677,21.770071,21.774292,21.779556,21.784367,21.787907,21.789684,21.79005,21.787998,21.782953,21.774708,21.764107,21.753002,21.742855,21.733824,21.725914,21.719614,21.714558,21.710182,21.706278,21.702778,21.699821,21.697304,21.695206,21.693436,21.691809,21.69018,21.688538,21.68687,21.684856,21.682816,21.681105,21.680197,21.680283,21.681133,21.682384,21.684141,21.686222,21.689041,21.692947,21.697395,21.701328,21.704403,21.706017,21.705715,21.703718,21.700108,21.695557,21.69142,21.688534,21.687706,21.690054,21.696545,21.706314,21.717894,21.730461,21.743498,21.7565,21.769693,21.783474,21.797636,21.811693,21.825315,21.838024,21.84924,21.858913,21.866348,21.87175,21.87528,21.877056,21.877674,21.877789,21.877663,21.877777,21.87857,21.880768,21.884382,21.888712,21.893282,21.898176,21.90326,21.908459,21.91375,21.919048,21.924463,21.930157,21.935268,21.941423,21.94859,21.956608,21.965065,21.973326,21.980963,21.988113,21.995527,22.002365,22.008535,22.014088,22.01933,22.024765,22.030119,22.035097,22.038694,22.040125,22.039425,22.037785,22.036606,22.036167,22.036327,22.037724,22.038284,22.035131,22.022942,21.995766,21.952076,21.89452,21.821705,21.741627,21.661976,21.587925,21.520863,21.458378,21.39566,21.332403,21.269714,21.20922,21.152172,21.098457,21.04678,20.996881,20.946503,20.894503,20.842731,20.7947,20.753628,20.72104,20.697449,20.682419,20.673237,20.666685,20.659023,20.646828,20.629322,20.609833,20.591892,20.577782,20.5708,20.572407,20.58371,20.605274,20.635147,20.66893,20.703821,20.728664,20.737522,20.738457,20.749172,20.792637,20.895096,21.010262,21.033081,20.83014,20.32232,19.612347,18.903515,18.300592,17.999325,17.829872,17.778961,17.77713,17.738205,17.639553,17.539013,17.533014,17.573803,18.053116,18.972748,20.018017,20.861116,21.355854,21.543968,21.552723,21.528454,21.59495,21.76482,21.960903,22.09669,22.118057,22.090382,22.00196,21.883373,21.77081,21.678616,21.6029,21.541,21.482368,21.422451,21.361935,21.298351,21.230509,21.160107,21.088686,21.0133,20.931229,20.843517,20.752975,20.662577,20.575008,20.493153,20.417732,20.344534,20.27513,20.210459,20.151312,20.097626,20.047852,20.000185,19.950043,19.896378,19.83904,19.781755,19.727394,19.675533,19.626892,19.57775,19.525772,19.473303,19.42179,19.372574,19.326939,19.284933,19.243977,19.201448,19.155704,19.106688,19.055452,19.003143,18.95094,18.899092,18.843391,18.784668,18.72376,18.662731,18.603256,18.545433,18.489666,18.431454,18.371758,18.313105,18.255762,18.20121,18.152039,18.107191,18.064362,18.021881,17.978842,17.934021,17.886093,17.835037,17.78341,17.730972,17.676666,17.623308,17.571512,17.520868,17.471302,17.423004,17.37453,17.321548,17.265007,17.209148,17.158192,17.11396,17.076796,17.047619,17.021828,17.000984,16.984804,16.973597,16.967972,16.967062,16.968918,16.973476,16.980415,16.987587,16.992018,16.991894,16.986626,16.97593,16.96093,16.940132,16.914116,16.883335,16.849009,16.810616,16.766058,16.719105,16.670242,16.62481,16.590422,16.56645,16.5446
21.469788,21.471226,21.472057,21.472425,21.472916,21.474285,21.477211,21.481087,21.484676,21.48727,21.488407,21.488436,21.486526,21.482159,21.4752,21.466383,21.457218,21.449009,21.441853,21.435768,21.431047,21.427258,21.423851,21.420618,21.417496,21.414722,21.412193,21.409918,21.407837,21.405853,21.40391,21.40202,21.400211,21.398232,21.396387,21.395102,21.39481,21.395647,21.397377,21.399559,21.402237,21.405125,21.408478,21.412495,21.416702,21.42027,21.422958,21.424332,21.42407,21.42248,21.41969,21.416285,21.413519,21.41225,21.412914,21.41681,21.424688,21.435642,21.448402,21.462212,21.476246,21.490051,21.503769,21.51773,21.5317,21.5451,21.557667,21.5691,21.57864,21.58636,21.59162,21.594837,21.596642,21.597515,21.598095,21.598976,21.600197,21.602283,21.605408,21.609724,21.614819,21.61998,21.62498,21.62986,21.63464,21.639336,21.64415,21.649193,21.654617,21.660532,21.666084,21.67245,21.679815,21.68808,21.69675,21.705112,21.712757,21.719893,21.72734,21.73427,21.740595,21.746346,21.751802,21.757484,21.763226,21.768791,21.773237,21.775848,21.77663,21.776665,21.77721,21.778454,21.78017,21.782982,21.784714,21.782402,21.770695,21.743687,21.69989,21.64184,21.567722,21.485949,21.404518,21.328848,21.259739,21.194431,21.13148,21.069443,21.00776,20.946163,20.885216,20.825546,20.767147,20.710869,20.653877,20.596775,20.541187,20.490177,20.446701,20.411968,20.38625,20.368927,20.356903,20.348309,20.338604,20.323273,20.301867,20.278614,20.257309,20.242653,20.238197,20.246647,20.266218,20.29331,20.325756,20.35978,20.395348,20.421677,20.432701,20.43584,20.444122,20.474918,20.557627,20.666386,20.697525,20.530687,20.089748,19.469875,18.855518,18.318657,18.009377,17.846378,17.798157,17.790901,17.747326,17.648031,17.5499,17.550224,17.611118,18.081947,18.903854,19.79398,20.511898,20.937893,21.07622,21.058323,21.052822,21.150501,21.354183,21.601456,21.804459,21.89732,21.91295,21.86617,21.783754,21.694822,21.61401,21.5439,21.488392,21.434683,21.38255,21.333694,21.28337,21.226715,21.163954,21.098057,21.026573,20.946978,20.86035,20.769436,20.676952,20.585697,20.499268,20.418623,20.339556,20.264034,20.193413,20.12899,20.071278,20.01908,19.970528,19.920551,19.86806,19.812853,19.75842,19.707314,19.658773,19.613144,19.566286,19.51586,19.464228,19.413004,19.36388,19.318409,19.276546,19.235836,19.19365,19.148441,19.100311,19.050278,18.999352,18.948654,18.89822,18.843967,18.786701,18.727186,18.667162,18.608116,18.550537,18.495718,18.438221,18.378681,18.318905,18.259594,18.202826,18.151299,18.104445,18.059223,18.013897,17.968409,17.922,17.873268,17.821966,17.770569,17.718946,17.665642,17.613441,17.56252,17.512627,17.463898,17.415989,17.367542,17.315063,17.259697,17.202358,17.147474,17.099102,17.05754,17.023813,16.993,16.966686,16.944773,16.927452,16.915565,16.90901,16.906307,16.907364,16.912167,16.918644,16.923708,16.92483,16.920647,16.91097,16.896955,16.877525,16.854145,16.827475,16.79817,16.764862,16.724808,16.681658,16.635984,16.59369,16.562916,16.543026,16.525333
21.18425,21.18517,21.1855,21.185305,21.185123,21.185686,21.18758,21.190351,21.19299,21.194862,21.195583,21.195488,21.193905,21.190388,21.184832,21.177818,21.170542,21.164108,21.158638,21.154118,21.150732,21.147991,21.145336,21.142567,21.139671,21.136936,21.134285,21.131763,21.129341,21.127007,21.12479,21.122744,21.120947,21.11921,21.117813,21.117168,21.117634,21.119272,21.121792,21.12476,21.128132,21.13155,21.135136,21.138988,21.142742,21.14581,21.148024,21.149124,21.148972,21.14795,21.146278,21.144424,21.143127,21.142677,21.144241,21.149063,21.158405,21.171085,21.18534,21.200203,21.214838,21.228905,21.242691,21.256348,21.26954,21.281654,21.292519,21.30208,21.30972,21.315588,21.319294,21.321499,21.322422,21.322582,21.323357,21.325264,21.327957,21.331367,21.33588,21.341412,21.347248,21.352745,21.357723,21.362228,21.366432,21.370483,21.374819,21.37975,21.385456,21.391975,21.398417,21.405668,21.413906,21.422901,21.432072,21.440744,21.448542,21.45551,21.462818,21.469725,21.476149,21.482082,21.487778,21.493729,21.499851,21.506,21.511333,21.515234,21.517689,21.51965,21.522205,21.52539,21.528946,21.53352,21.536877,21.535965,21.525352,21.499096,21.455688,21.397488,21.322254,21.23856,21.15524,21.076202,21.0024,20.935095,20.873158,20.812534,20.750599,20.686905,20.622107,20.557201,20.493397,20.432724,20.371487,20.310638,20.252344,20.199425,20.154167,20.117271,20.088676,20.06759,20.050886,20.03658,20.020533,19.998777,19.971336,19.942959,19.917564,19.899658,19.894718,19.907051,19.935482,19.972965,20.011864,20.050793,20.088219,20.115784,20.12899,20.135002,20.144493,20.16919,20.229904,20.331673,20.372684,20.241613,19.86775,19.334862,18.80265,18.323112,18.019188,17.862865,17.8159,17.80481,17.759274,17.662413,17.568237,17.565538,17.654531,18.10486,18.820702,19.5737,20.178722,20.509075,20.604992,20.583904,20.59733,20.713482,20.92376,21.179363,21.415209,21.564651,21.633514,21.643513,21.61258,21.566654,21.519585,21.47179,21.429981,21.386555,21.34292,21.301987,21.262754,21.219011,21.16653,21.10866,21.04095,20.963707,20.878319,20.787601,20.694029,20.600403,20.510757,20.426056,20.34211,20.261091,20.184767,20.114944,20.05273,19.997417,19.947266,19.896719,19.844784,19.791443,19.739964,19.692444,19.647663,19.605473,19.561123,19.512245,19.461218,19.40985,19.36029,19.314465,19.272234,19.23127,19.188877,19.143654,19.09592,19.046734,18.997025,18.947876,18.898977,18.846443,18.790966,18.733221,18.674751,18.616829,18.55985,18.505077,18.447319,18.387177,18.325872,18.264868,18.20642,18.152525,18.103537,18.056276,18.008926,17.96202,17.913994,17.863482,17.811356,17.76,17.70902,17.65665,17.605682,17.556011,17.507172,17.459217,17.411736,17.363157,17.311613,17.257965,17.201817,17.146736,17.096344,17.050926,17.013199,16.977726,16.945927,16.917858,16.893679,16.874552,16.861235,16.852814,16.849056,16.850239,16.854168,16.857689,16.858047,16.853558,16.844025,16.83051,16.812286,16.790981,16.767488,16.74225,16.713352,16.677654,16.638487,16.59628,16.557247,16.529654,16.512896,16.498293
20.912876,20.91339,20.913351,20.912746,20.912094,20.912094,20.913221,20.91513,20.917007,20.918293,20.918705,20.918571,20.91735,20.914679,20.910439,20.90504,20.899403,20.894463,20.890377,20.887096,20.884758,20.882835,20.880745,20.878304,20.875542,20.872799,20.870007,20.867235,20.864513,20.861858,20.859377,20.857233,20.855509,20.85411,20.853268,20.853317,20.854542,20.856903,20.860054,20.863617,20.867466,20.871178,20.874771,20.8783,20.88153,20.884106,20.885899,20.8868,20.886734,20.886177,20.885273,20.884369,20.883844,20.883335,20.88501,20.89027,20.901129,20.916004,20.932365,20.94865,20.96371,20.977978,20.991648,21.004644,21.0167,21.027245,21.036179,21.043728,21.04951,21.053398,21.055225,21.056107,21.056007,21.055416,21.05632,21.059147,21.063152,21.06765,21.07275,21.07854,21.08466,21.090485,21.095482,21.09977,21.103619,21.107254,21.111187,21.116014,21.122154,21.129463,21.136894,21.145622,21.155403,21.165674,21.175745,21.185032,21.193262,21.200314,21.207762,21.214779,21.221252,21.227318,21.233253,21.239464,21.245956,21.252686,21.258934,21.264175,21.2684,21.272423,21.277151,21.282454,21.288057,21.294636,21.299911,21.300789,21.291748,21.266785,21.22432,21.166481,21.090649,21.005322,20.91943,20.835443,20.756432,20.688847,20.62696,20.566435,20.502754,20.436998,20.370369,20.303028,20.236073,20.172216,20.10809,20.045006,19.985365,19.931484,19.884869,19.845695,19.813656,19.787788,19.764984,19.743492,19.719639,19.690075,19.655502,19.621212,19.59124,19.570118,19.563507,19.574356,19.604763,19.650017,19.698185,19.746346,19.788557,19.82037,19.837097,19.84591,19.859222,19.885048,19.929379,20.018421,20.067535,19.969852,19.661945,19.209011,18.739956,18.311863,18.02563,17.877426,17.830769,17.817028,17.771988,17.680378,17.592304,17.587072,17.702164,18.115479,18.730476,19.365582,19.868587,20.12656,20.189018,20.161562,20.195541,20.325058,20.518417,20.746513,20.979736,21.151379,21.262022,21.325466,21.353394,21.363777,21.365852,21.359154,21.347553,21.327892,21.30114,21.268837,21.23581,21.200079,21.156414,21.106853,21.043858,20.97004,20.88682,20.797405,20.704338,20.610367,20.51976,20.433195,20.346672,20.262213,20.18185,20.107729,20.041372,19.98266,19.93026,19.878216,19.825895,19.773754,19.724937,19.680973,19.640049,19.601412,19.559538,19.512018,19.46128,19.409363,19.358953,19.31239,19.269463,19.227934,19.18497,19.139368,19.091644,19.042883,18.994001,18.946053,18.89844,18.84748,18.793766,18.737883,18.681152,18.62461,18.568613,18.514458,18.456976,18.396694,18.334843,18.272432,18.21135,18.153915,18.101322,18.051659,18.003,17.955505,17.90652,17.854946,17.802528,17.750982,17.700237,17.648434,17.598312,17.549644,17.501938,17.455229,17.40889,17.361237,17.310173,17.255768,17.201376,17.149403,17.099655,17.052616,17.012619,16.973934,16.937687,16.903996,16.873035,16.846443,16.825928,16.811234,16.801876,16.798271,16.798325,16.798965,16.797318,16.791515,16.781418,16.767786,16.750053,16.729977,16.708652,16.686375,16.660923,16.62902,16.593536,16.5546,16.518509,16.493298,16.478447,16.465641
20.663036,20.663223,20.662924,20.662085,20.661167,20.66083,20.661415,20.662659,20.66392,20.664722,20.664902,20.664724,20.663803,20.661825,20.658651,20.654541,20.650196,20.646404,20.643349,20.640995,20.639421,20.638096,20.63644,20.634262,20.63161,20.628864,20.626007,20.623081,20.620176,20.617321,20.614641,20.612442,20.610819,20.609745,20.609406,20.610088,20.611958,20.614853,20.618408,20.62234,20.626438,20.630226,20.633682,20.636803,20.639454,20.64154,20.64297,20.643715,20.643543,20.642918,20.641628,20.63995,20.638943,20.638954,20.64082,20.646803,20.658566,20.674967,20.69377,20.712414,20.728422,20.743637,20.757317,20.769403,20.780025,20.788841,20.795803,20.801321,20.805195,20.806446,20.805105,20.803001,20.801708,20.801926,20.804014,20.807919,20.813097,20.819813,20.826107,20.83203,20.83808,20.84369,20.848375,20.852272,20.855747,20.859081,20.862696,20.867607,20.874641,20.8832,20.89183,20.901833,20.912807,20.924084,20.934853,20.944511,20.953007,20.960678,20.968966,20.976446,20.983086,20.98927,20.995396,21.001884,21.00875,21.016064,21.023174,21.02974,21.035707,21.041746,21.04861,21.056013,21.063686,21.072392,21.079792,21.082764,21.075739,21.05262,21.011711,20.954863,20.879093,20.792965,20.702873,20.613827,20.532257,20.462814,20.40041,20.336891,20.2729,20.207855,20.14109,20.072792,20.00441,19.939205,19.873951,19.810097,19.750103,19.695778,19.647947,19.606396,19.570736,19.539845,19.510607,19.481514,19.449356,19.411524,19.369492,19.329056,19.294231,19.26949,19.260689,19.270515,19.29961,19.345287,19.399471,19.451643,19.500877,19.542751,19.56577,19.577541,19.594465,19.622736,19.663933,19.734482,19.78775,19.71981,19.47158,19.09112,18.677513,18.29118,18.030224,17.891008,17.844114,17.828663,17.785826,17.70131,17.620718,17.614841,17.742546,18.108479,18.639534,19.180885,19.592056,19.793571,19.830395,19.816805,19.859278,19.979088,20.154903,20.356617,20.552582,20.720966,20.849497,20.950241,21.02848,21.094059,21.151104,21.196293,21.229176,21.246475,21.2485,21.237518,21.214457,21.180027,21.13738,21.090542,21.03418,20.965591,20.885723,20.798538,20.70721,20.614552,20.52476,20.438126,20.351055,20.265232,20.18276,20.10587,20.036297,19.97443,19.919426,19.8652,19.811579,19.759834,19.713078,19.672237,19.63487,19.599493,19.55983,19.51342,19.462746,19.410093,19.358616,19.31108,19.267284,19.22497,19.181234,19.135075,19.087124,19.038479,18.99005,18.942875,18.896156,18.84642,18.794191,18.739964,18.684874,18.629745,18.57484,18.521523,18.464706,18.404877,18.342909,18.279636,18.216957,18.157291,18.1021,18.049412,17.997463,17.946522,17.896069,17.845726,17.79483,17.742828,17.692005,17.640244,17.59043,17.542315,17.49543,17.449806,17.40462,17.358093,17.308464,17.255299,17.201347,17.149487,17.100784,17.055712,17.015808,16.975986,16.93708,16.899147,16.862438,16.829144,16.801945,16.781199,16.766153,16.757275,16.752766,16.74976,16.745392,16.737722,16.72664,16.71252,16.69482,16.67533,16.655262,16.634857,16.61182,16.582874,16.550472,16.514336,16.480686,16.457125,16.44321,16.431185
20.426811,20.426449,20.425648,20.42433,20.422903,20.422009,20.421879,20.42231,20.422848,20.423103,20.422997,20.422707,20.421928,20.420431,20.418049,20.414913,20.411568,20.408667,20.406433,20.40479,20.403826,20.402996,20.401691,20.399738,20.397236,20.394623,20.391834,20.388935,20.386024,20.383175,20.380594,20.378654,20.377453,20.376614,20.37661,20.377752,20.380043,20.383158,20.386684,20.3905,20.394424,20.397984,20.401054,20.403236,20.404478,20.40522,20.405535,20.405254,20.404528,20.403795,20.40327,20.403015,20.403149,20.403772,20.406189,20.412868,20.425655,20.443386,20.46347,20.483318,20.500666,20.515467,20.528584,20.539906,20.548668,20.555046,20.559517,20.561718,20.562304,20.561272,20.55913,20.557034,20.556087,20.556902,20.559673,20.564228,20.569986,20.576925,20.584282,20.59119,20.597271,20.602448,20.606358,20.60923,20.611654,20.613962,20.617256,20.622608,20.63044,20.64035,20.650894,20.662952,20.675953,20.688847,20.700417,20.710228,20.718864,20.726614,20.734852,20.742952,20.750809,20.75776,20.764046,20.770973,20.778204,20.786087,20.794073,20.801937,20.809616,20.81763,20.826572,20.836071,20.845867,20.856913,20.86679,20.872356,20.867992,20.847483,20.808977,20.753994,20.679205,20.592972,20.499752,20.406343,20.321898,20.25005,20.184761,20.120571,20.057434,19.993887,19.9286,19.861485,19.793997,19.729519,19.664955,19.601624,19.54182,19.486958,19.437511,19.393246,19.353899,19.318254,19.283138,19.247143,19.207455,19.162048,19.113022,19.06668,19.026941,18.99799,18.985722,18.99247,19.018486,19.06083,19.112469,19.167456,19.22248,19.26685,19.296005,19.318432,19.34232,19.370552,19.413841,19.47181,19.521263,19.476788,19.286621,18.977173,18.619041,18.275587,18.038597,17.908089,17.860931,17.843798,17.80348,17.726564,17.653847,17.647976,17.776443,18.097473,18.55304,19.008358,19.339695,19.497555,19.516376,19.52585,19.566002,19.667969,19.821888,19.997147,20.169064,20.313576,20.439898,20.55475,20.658485,20.75827,20.863665,20.97081,21.057953,21.125101,21.16937,21.188826,21.185373,21.162914,21.127224,21.084305,21.02964,20.962284,20.884417,20.798372,20.708021,20.617332,20.52843,20.44174,20.35447,20.268127,20.184916,20.106922,20.035648,19.971611,19.914398,19.857853,19.802338,19.750156,19.704529,19.665874,19.631275,19.59857,19.560745,19.515297,19.464684,19.411327,19.358742,19.310045,19.265144,19.221834,19.17717,19.130371,19.082071,19.033304,18.984957,18.938055,18.891735,18.842793,18.791689,18.738918,18.68538,18.631683,18.57806,18.525806,18.470032,18.411095,18.349613,18.286242,18.222713,18.161451,18.1043,18.049213,17.994507,17.94071,17.887554,17.834759,17.782724,17.732746,17.68433,17.63206,17.581387,17.53303,17.486462,17.44165,17.3975,17.35215,17.30381,17.252079,17.19962,17.148914,17.100836,17.056042,17.015987,16.975418,16.934721,16.894123,16.854176,16.817204,16.785856,16.760483,16.739845,16.72548,16.716145,16.70923,16.701893,16.692142,16.67979,16.664852,16.646645,16.62703,16.607311,16.58773,16.566088,16.539234,16.509182,16.475346,16.443714,16.421389,16.408037,16.396513
20.181503,20.180416,20.178888,20.176878,20.174713,20.172981,20.171875,20.171276,20.170898,20.170452,20.16992,20.16938,20.16861,20.167454,20.165733,20.163454,20.161007,20.158947,20.157486,20.156536,20.15616,20.155806,20.154888,20.153233,20.150864,20.148132,20.145166,20.14207,20.138962,20.135963,20.133026,20.130138,20.128103,20.12706,20.127182,20.12866,20.13142,20.135021,20.138975,20.143177,20.14721,20.150423,20.152672,20.153893,20.154303,20.154366,20.154203,20.15366,20.153198,20.153131,20.153603,20.154434,20.155376,20.156525,20.159489,20.166887,20.180817,20.20013,20.221672,20.242233,20.259386,20.272657,20.283493,20.292053,20.298267,20.302237,20.304367,20.304916,20.304142,20.302197,20.29974,20.297703,20.297009,20.298191,20.30135,20.306213,20.312195,20.319168,20.32651,20.333185,20.338778,20.343475,20.346954,20.34946,20.351635,20.35379,20.357225,20.363085,20.37173,20.382755,20.394588,20.407978,20.422192,20.436115,20.448769,20.459719,20.469196,20.477615,20.486423,20.495201,20.503582,20.511677,20.519264,20.526297,20.53432,20.543133,20.552206,20.561485,20.570927,20.580933,20.591972,20.603588,20.615574,20.629147,20.641876,20.650602,20.64966,20.632706,20.597618,20.545536,20.472801,20.387253,20.291695,20.194252,20.106522,20.03186,19.962946,19.898554,19.83692,19.775927,19.713715,19.649717,19.585155,19.5232,19.460882,19.399136,19.339886,19.284252,19.232718,19.185295,19.14208,19.101765,19.061077,19.018616,18.971867,18.91932,18.863634,18.81152,18.7668,18.733147,18.71632,18.718233,18.738796,18.77518,18.821138,18.872177,18.924925,18.9697,19.00154,19.0267,19.05846,19.103184,19.150978,19.200836,19.247185,19.225868,19.091125,18.850878,18.55302,18.257704,18.047895,17.927582,17.880585,17.862003,17.824928,17.756887,17.693146,17.68784,17.802725,18.079582,18.46131,18.834728,19.097235,19.210604,19.237988,19.250208,19.281908,19.362583,19.489101,19.635103,19.775719,19.896048,20.009892,20.122244,20.23874,20.366543,20.507488,20.65794,20.811703,20.941166,21.041706,21.104057,21.129154,21.124634,21.10117,21.068813,21.023972,20.966297,20.896235,20.811548,20.717525,20.623104,20.53143,20.443329,20.357218,20.27164,20.188967,20.11141,20.039803,19.974483,19.915314,19.856194,19.798117,19.744598,19.69911,19.661713,19.629097,19.598488,19.562132,19.517508,19.466995,19.41303,19.359299,19.309235,19.263046,19.218517,19.17278,19.12526,19.076488,19.02734,18.97865,18.931423,18.884916,18.836166,18.785748,18.734142,18.682,18.629715,18.577515,18.526564,18.472244,18.414703,18.35433,18.291588,18.228016,18.16597,18.107578,18.050602,17.993391,17.936684,17.880491,17.824783,17.770412,17.719173,17.669563,17.61826,17.569069,17.52132,17.474667,17.429996,17.38657,17.342527,17.295763,17.2458,17.19518,17.146263,17.099804,17.056305,17.016998,16.97665,16.935184,16.892626,16.849583,16.808563,16.77266,16.743073,16.718493,16.699774,16.685478,16.674011,16.663296,16.651169,16.637268,16.621105,16.601925,16.58162,16.561516,16.54191,16.520813,16.495296,16.466969,16.434994,16.404991,16.383495,16.37031,16.358969
19.93478,19.932718,19.930254,19.927422,19.924393,19.921692,19.91949,19.917788,19.916435,19.915247,19.914314,19.913532,19.912764,19.91174,19.910297,19.908428,19.906376,19.90461,19.903334,19.902487,19.902199,19.901957,19.901093,19.899294,19.896599,19.893658,19.89051,19.88728,19.883984,19.88063,19.877335,19.874367,19.872368,19.871754,19.872517,19.874708,19.878164,19.882307,19.886578,19.890913,19.894806,19.897545,19.89906,19.899532,19.89937,19.899052,19.898708,19.898205,19.8982,19.898855,19.90017,19.90182,19.903393,19.904953,19.908508,19.916714,19.931911,19.95288,19.975796,19.99667,20.01289,20.023952,20.03168,20.0368,20.040083,20.041918,20.042685,20.04264,20.04151,20.039387,20.036829,20.034737,20.034126,20.035564,20.03901,20.044086,20.050217,20.057133,20.064144,20.07032,20.075478,20.07996,20.08343,20.086117,20.088615,20.091171,20.095093,20.101585,20.111023,20.12294,20.135666,20.149872,20.164753,20.179169,20.192366,20.204006,20.214092,20.22314,20.232552,20.241776,20.25071,20.259848,20.269318,20.278496,20.286755,20.296432,20.30663,20.31725,20.328262,20.340015,20.352884,20.366348,20.380325,20.396301,20.411886,20.423931,20.426792,20.414055,20.383247,20.335026,20.265541,20.181717,20.08503,19.984486,19.89333,19.815216,19.74371,19.679493,19.61982,19.562187,19.504202,19.444698,19.384474,19.326294,19.267242,19.207685,19.149101,19.09251,19.038643,18.987976,18.941101,18.896622,18.851122,18.803165,18.750544,18.69225,18.631378,18.574883,18.5263,18.488575,18.467022,18.462997,18.476116,18.50392,18.541119,18.583956,18.629738,18.671104,18.702196,18.726664,18.758095,18.807087,18.867136,18.922642,18.966335,18.96048,18.876432,18.703733,18.46429,18.22379,18.046204,17.939516,17.894337,17.874857,17.841427,17.78289,17.728544,17.723541,17.819696,18.050016,18.359035,18.655098,18.86134,18.948925,18.979734,18.989422,19.013866,19.075676,19.172218,19.283688,19.39133,19.488598,19.5848,19.687935,19.804653,19.9447,20.109089,20.288986,20.476755,20.670155,20.832584,20.944172,21.004642,21.025202,21.021488,21.008102,20.98283,20.945717,20.894169,20.824438,20.738552,20.643288,20.545536,20.45324,20.361126,20.274788,20.193642,20.117035,20.045954,19.98061,19.9206,19.859955,19.799873,19.745052,19.69918,19.662056,19.630302,19.600737,19.565048,19.520725,19.470024,19.415272,19.360144,19.30832,19.260406,19.214207,19.166975,19.118385,19.068823,19.018948,18.969467,18.921383,18.874216,18.825153,18.774958,18.724096,18.673023,18.622002,18.571264,18.521816,18.469357,18.413765,18.355198,18.293913,18.231178,18.169197,18.110338,18.052094,17.992842,17.93348,17.874245,17.815441,17.758179,17.704296,17.65216,17.599783,17.549767,17.501747,17.455973,17.413204,17.372066,17.329105,17.283852,17.23588,17.187511,17.140835,17.09645,17.054718,17.0167,16.977234,16.935724,16.892044,16.846745,16.802368,16.762432,16.728918,16.700352,16.677074,16.65852,16.643404,16.629715,16.615444,16.60009,16.582859,16.562523,16.541033,16.519857,16.499474,16.478134,16.45308,16.42564,16.394848,16.365908,16.344822,16.331482,16.32008
19.695572,19.692303,19.688602,19.6846,19.680367,19.676357,19.67278,19.669731,19.667244,19.665216,19.663486,19.662085,19.660835,19.659454,19.657772,19.655766,19.653614,19.651781,19.650448,19.649563,19.649258,19.648975,19.647993,19.646011,19.643284,19.640575,19.637783,19.635063,19.632267,19.629253,19.626328,19.624134,19.622923,19.623133,19.62474,19.62775,19.631866,19.636372,19.640644,19.644712,19.64814,19.650246,19.6511,19.650974,19.650352,19.64984,19.649551,19.649292,19.649803,19.651106,19.65311,19.655428,19.657557,19.659546,19.66381,19.672943,19.689354,19.711697,19.73548,19.756092,19.770952,19.779507,19.784027,19.785969,19.786655,19.787067,19.787613,19.787811,19.786953,19.785084,19.782562,19.780321,19.779638,19.781208,19.784857,19.790102,19.796299,19.803053,19.809711,19.815512,19.820473,19.825058,19.828873,19.832113,19.83532,19.83861,19.843273,19.850502,19.860628,19.87318,19.886448,19.901024,19.916073,19.930452,19.943544,19.95523,19.965607,19.975128,19.985146,19.994944,20.004639,20.014551,20.025269,20.03677,20.046904,20.057434,20.068531,20.080215,20.092403,20.105392,20.119537,20.134308,20.149786,20.167694,20.185734,20.200851,20.2075,20.199238,20.173239,20.129635,20.06444,19.983429,19.887016,19.784655,19.690422,19.608578,19.535713,19.471859,19.414192,19.360077,19.306644,19.252071,19.19661,19.142555,19.087002,19.029682,18.971653,18.91399,18.85783,18.804245,18.754356,18.706673,18.657654,18.605862,18.549454,18.487907,18.424553,18.366245,18.316036,18.275951,18.250565,18.24057,18.245275,18.262701,18.28881,18.320946,18.35698,18.391073,18.417889,18.439152,18.464046,18.50344,18.563007,18.627588,18.674942,18.68607,18.644028,18.528152,18.346693,18.165318,18.02478,17.935835,17.894775,17.875042,17.845112,17.795765,17.75042,17.745241,17.822182,18.004578,18.245153,18.471548,18.63031,18.705044,18.731583,18.741589,18.765148,18.815144,18.885553,18.963135,19.03907,19.111706,19.189293,19.280918,19.388699,19.523815,19.694426,19.89008,20.088303,20.308876,20.51936,20.67773,20.775158,20.825676,20.848907,20.86375,20.87032,20.86818,20.849768,20.810162,20.747715,20.665522,20.572393,20.477615,20.378122,20.283936,20.19875,20.122196,20.052578,19.988186,19.928898,19.868534,19.80791,19.752525,19.706074,19.668207,19.63593,19.606064,19.569988,19.525251,19.473892,19.418018,19.361126,19.307018,19.25681,19.208359,19.1591,19.10892,19.058104,19.0071,18.956446,18.907078,18.858929,18.809174,18.758823,18.708336,18.658009,18.608055,18.55873,18.51086,18.460506,18.407307,18.351143,18.292042,18.230965,18.169895,18.111319,18.052511,17.991867,17.930344,17.868359,17.806541,17.746315,17.689621,17.634752,17.579563,17.5269,17.477383,17.431747,17.39029,17.35101,17.310387,17.268002,17.222822,17.176882,17.132347,17.089943,17.049973,17.013325,16.974894,16.933659,16.889473,16.842934,16.796576,16.753944,16.717182,16.684805,16.657158,16.634773,16.616482,16.600153,16.583944,16.567211,16.548893,16.527668,16.505407,16.483418,16.462,16.439644,16.414177,16.386765,16.35635,16.327744,16.30655,16.292776,16.281164
