31.856506,32.075027,32.299522,32.5234,32.740967,32.956474,33.17077,33.378105,33.569218,33.735806,33.884827,34.020554,34.149437,34.28337,34.42505,34.563873,34.672012,34.767067,34.851486,34.92968,35.001804,35.0714,35.137783,35.20105,35.268745,35.343674,35.423786,35.502594,35.57222,35.63172,35.678307,35.705284,35.718407,35.719955,35.715263,35.71589,35.73397,35.7707,35.821392,35.871994,35.915367,35.95099,35.981655,36.0103,36.037228,36.068443,36.10169,36.142174,36.183624,36.22562,36.266727,36.31195,36.36326,36.414673,36.45965,36.49649,36.527145,36.55323,36.58286,36.623627,36.675907,36.731583,36.785633,36.8341,36.875526,36.909767,36.939835,36.970543,37.004128,37.039375,37.07332,37.10596,37.136726,37.166313,37.192932,37.21399,37.236176,37.262558,37.292366,37.327446,37.36624,37.405422,37.443085,37.479332,37.517654,37.562813,37.61561,37.677162,37.741608,37.80114,37.852806,37.901165,37.949615,37.997128,38.042328,38.0855,38.12947,38.17817,38.230896,38.287468,38.345608,38.404945,38.46768,38.533203,38.597908,38.658615,38.711555,38.758728,38.80316,38.84711,38.890762,38.925194,38.951603,38.975933,38.997498,39.015987,39.031036,39.044796,39.058685,39.071236,39.080048,39.084087,39.084305,39.082226,39.07861,39.071663,39.063065,39.058655,39.06702,39.090687,39.11596,39.113922,39.10691,39.093887,39.069588,39.03264,38.986084,38.936478,38.892647,38.85529,38.821022,38.788383,38.7581,38.73388,38.717842,38.706924,38.695778,38.680115,38.659184,38.63457,38.608253,38.580048,38.549988,38.51882,38.488403,38.46003,38.4327,38.404488,38.380157,38.362617,38.351044,38.341774,38.331154,38.31595,38.29531,38.268936,38.239914,38.210693,38.17966,38.145935,38.108223,38.065628,38.021187,37.97657,37.933784,37.89548,37.861168,37.828625,37.793472,37.75654,37.71939,37.680164,37.62137,37.54638,37.480698,37.431488,37.397545,37.366966,37.323555,37.25727,37.178364,37.105034,37.04875,37.013184,36.989433,36.96704,36.937347,36.892242,36.83168,36.760773,36.694733,36.64609,36.622353,36.62133,36.63179,36.650406,36.666977,36.676285,36.680626,36.678993,36.6761,36.675056,36.675507,36.679543,36.686546,36.697754,36.71563,36.744354,36.79608,36.869125,36.95433,37.039074,37.106346,37.148033,37.16619,37.171593,37.17434,37.17806,37.18528,37.195404,37.20691,37.21689,37.23121,37.26335,37.34042,37.485474,37.694714,37.98481,38.33628,38.66716,38.88044,38.954998,38.968185,38.943733,38.907753,38.89791,38.898804,38.885685,38.86461,38.84896,38.85105,38.86611,38.88423,38.897747,38.90915,38.917194,38.91875,38.908554,38.890347,38.8653,38.835594,38.80633,38.779526,38.756634,38.731674,38.70833,38.688313,38.665813,38.637527,38.607513,38.576683,38.54144,38.4927,38.430637,38.36264,38.298805,38.24243,38.190548,38.13755,38.08494,38.036896,37.994705,37.953938,37.90748,37.861816,37.81814,37.760635,37.68422,37.606155,37.52365,37.43667,37.349457,37.267075,37.192986,37.127705,37.066986,37.00959,36.950256,36.885216,36.822426,36.76632,36.718597,36.672935,36.629997,36.5889,36.550423,36.51099,36.471462,36.43032
31.916416,32.099564,32.286457,32.47309,32.658836,32.852303,33.053288,33.25752,33.45399,33.6305,33.790634,33.933296,34.06356,34.19648,34.337784,34.479042,34.591263,34.691334,34.782875,34.872623,34.960655,35.048607,35.134186,35.217392,35.305855,35.402027,35.502678,35.6018,35.690598,35.769135,35.833424,35.875214,35.89904,35.908382,35.909973,35.917713,35.94554,35.99301,36.05213,36.11266,36.165802,36.20929,36.246784,36.28003,36.30943,36.341286,36.37393,36.413143,36.452126,36.489845,36.524986,36.56377,36.608616,36.652992,36.69024,36.719116,36.741608,36.759777,36.78305,36.820343,36.87175,36.92798,36.98211,37.026016,37.059425,37.084503,37.106636,37.131554,37.162243,37.19641,37.22898,37.257454,37.280357,37.29991,37.316563,37.329445,37.345474,37.36651,37.391262,37.42191,37.457268,37.494377,37.530807,37.566227,37.603638,37.64732,37.697258,37.754288,37.813347,37.867645,37.9154,37.961517,38.009003,38.05632,38.102207,38.146957,38.193127,38.244217,38.299202,38.357513,38.41671,38.475544,38.535866,38.59799,38.659775,38.71932,38.77292,38.821648,38.86767,38.913338,38.958717,38.998276,39.024796,39.047256,39.066048,39.081306,39.091995,39.10028,39.108612,39.1168,39.12336,39.127262,39.128273,39.12686,39.123352,39.115654,39.107635,39.099483,39.11039,39.164047,39.17254,39.1766,39.17849,39.17224,39.15094,39.113342,39.063957,39.01046,38.962196,38.92041,38.881584,38.844536,38.810364,38.783195,38.765564,38.753708,38.74121,38.722805,38.697662,38.667717,38.635418,38.60186,38.566513,38.530247,38.495514,38.4618,38.42653,38.393257,38.36692,38.3484,38.336933,38.32863,38.31948,38.305763,38.28634,38.26223,38.23564,38.207462,38.17893,38.148117,38.113274,38.072823,38.029842,37.98606,37.94359,37.905365,37.87111,37.839462,37.808167,37.775852,37.742535,37.710888,37.678963,37.63688,37.58577,37.544765,37.511,37.479065,37.441063,37.389153,37.32753,37.261063,37.20233,37.164757,37.136612,37.109,37.07741,37.036324,36.98645,36.92795,36.87113,36.825256,36.79743,36.78607,36.781338,36.782516,36.782745,36.778786,36.775696,36.771954,36.770775,36.77444,36.781715,36.7946,36.810486,36.82818,36.848927,36.8774,36.927704,36.998512,37.080086,37.160664,37.22451,37.26541,37.28502,37.294014,37.30191,37.3137,37.33146,37.349392,37.366184,37.378174,37.3909,37.419388,37.491802,37.630493,37.833054,38.11805,38.47764,38.822594,39.03846,39.118603,39.11229,39.095673,39.058376,39.03202,39.02382,39.005043,38.980927,38.962875,38.96268,38.97557,38.992252,39.005455,39.017277,39.025887,39.027946,39.018402,39.00157,38.97789,38.949062,38.92041,38.894154,38.872055,38.85321,38.838814,38.82652,38.811584,38.790024,38.765488,38.73832,38.702553,38.651928,38.588135,38.518154,38.450325,38.387474,38.32899,38.272495,38.22026,38.175735,38.138676,38.103195,38.062653,38.01671,37.956383,37.89016,37.80887,37.7282,37.644897,37.558426,37.472363,37.39063,37.3179,37.252586,37.18566,37.121407,37.059902,36.997486,36.937195,36.88235,36.83425,36.789238,36.74933,36.712234,36.67882,36.645176,36.611603,36.576126
32.040092,32.19394,32.34806,32.50078,32.65602,32.826828,33.012474,33.20986,33.407448,33.588657,33.754612,33.898804,34.02603,34.15339,34.289658,34.427834,34.538498,34.63787,34.731495,34.8283,34.928703,35.032104,35.13468,35.23535,35.34182,35.455406,35.572144,35.686546,35.791023,35.8869,35.969536,36.028347,36.06602,36.086823,36.098675,36.11746,36.157898,36.218872,36.287743,36.3534,36.414642,36.466034,36.509888,36.54747,36.580414,36.615063,36.649837,36.690002,36.728645,36.76397,36.795723,36.830788,36.871483,36.910633,36.941277,36.96252,36.976505,36.98611,37.002266,37.035374,37.08542,37.142895,37.19285,37.228928,37.252346,37.267414,37.2819,37.30144,37.32946,37.36212,37.391876,37.413857,37.42591,37.432484,37.43711,37.4411,37.451244,37.467865,37.488853,37.516884,37.551003,37.588356,37.625397,37.66097,37.697525,37.738663,37.78387,37.833836,37.884884,37.931923,37.974567,38.017883,38.064278,38.111515,38.158318,38.204994,38.253613,38.306847,38.363583,38.42319,38.483162,38.541428,38.599213,38.65757,38.71619,38.774796,38.829742,38.880615,38.92859,38.975807,39.022278,39.067688,39.09546,39.115356,39.130516,39.141884,39.14807,39.151093,39.154312,39.158646,39.163727,39.16826,39.170532,39.170197,39.167435,39.160126,39.153786,39.140625,39.15973,39.213753,39.231422,39.24609,39.257797,39.25769,39.236397,39.193417,39.135498,39.07253,39.015217,38.965477,38.91945,38.876717,38.838894,38.81018,38.793106,38.782356,38.77028,38.75034,38.721786,38.6873,38.65003,38.612278,38.573135,38.53352,38.495453,38.457497,38.416077,38.37617,38.343452,38.31817,38.29986,38.285088,38.269928,38.251125,38.228012,38.20182,38.17644,38.153114,38.127373,38.10067,38.07025,38.03382,37.9946,37.95434,37.915276,37.880257,37.84905,37.8199,37.790096,37.758446,37.725555,37.693733,37.665604,37.63894,37.595222,37.550583,37.511955,37.477272,37.441933,37.398125,37.34836,37.299423,37.257095,37.224594,37.197113,37.17137,37.150692,37.133762,37.099075,37.05693,37.012085,36.967567,36.929207,36.89758,36.86834,36.84639,36.829384,36.81473,36.806896,36.801468,36.799904,36.80522,36.817234,36.839058,36.86586,36.892895,36.919006,36.94807,36.99548,37.060463,37.134007,37.206184,37.263817,37.303497,37.325912,37.341278,37.35855,37.38606,37.421303,37.45329,37.480885,37.498405,37.5122,37.5403,37.613247,37.752388,37.955704,38.244984,38.616737,38.981236,39.197273,39.269955,39.26287,39.247414,39.205086,39.164818,39.147644,39.12371,39.096817,39.076046,39.07255,39.082108,39.096703,39.10913,39.120884,39.129204,39.130905,39.121365,39.10604,39.08441,39.057625,39.031136,39.007164,38.98791,38.97307,38.96292,38.954407,38.944122,38.92894,38.91119,38.889378,38.85727,38.80878,38.745728,38.67518,38.60446,38.538612,38.47753,38.417503,38.364273,38.322514,38.289646,38.261036,38.218445,38.161674,38.09462,38.023487,37.936817,37.853287,37.769943,37.68421,37.594193,37.507595,37.427242,37.35501,37.288013,37.222427,37.161167,37.101234,37.042732,36.989098,36.94178,36.896973,36.857944,36.82338,36.794056,36.765915,36.73848,36.7095
32.22266,32.356762,32.48819,32.616993,32.750595,32.90509,33.079697,33.272224,33.471603,33.65648,33.825996,33.96856,34.090263,34.209606,34.33777,34.46839,34.572586,34.666256,34.756866,34.85527,34.961967,35.07413,35.187004,35.29779,35.414177,35.536194,35.659157,35.77849,35.889923,35.996193,36.092728,36.165886,36.21672,36.249912,36.27433,36.30644,36.360466,36.434753,36.515236,36.588776,36.65295,36.704605,36.749306,36.789124,36.82493,36.863243,36.901817,36.945084,36.98574,37.0215,37.053394,37.088326,37.128166,37.16523,37.191948,37.207527,37.214287,37.215866,37.22504,37.253757,37.30098,37.35582,37.39975,37.427624,37.442146,37.449074,37.45743,37.47238,37.497395,37.527374,37.552475,37.56593,37.565372,37.557945,37.550507,37.546555,37.552372,37.566437,37.585648,37.61299,37.647797,37.686996,37.725616,37.76162,37.797173,37.834885,37.87426,37.9159,37.957916,37.99717,38.034706,38.075623,38.12143,38.169304,38.217655,38.26677,38.318123,38.373352,38.431,38.490845,38.55043,38.60724,38.661873,38.715942,38.77112,38.82892,38.885773,38.939632,38.990402,39.03978,39.08814,39.134563,39.168312,39.185444,39.196285,39.203136,39.20459,39.20262,39.201385,39.202744,39.20699,39.212852,39.217293,39.219353,39.219383,39.21472,39.212242,39.205967,39.24093,39.280903,39.302124,39.328537,39.350784,39.35576,39.330612,39.27641,39.202984,39.12316,39.050266,38.987427,38.929977,38.878708,38.83587,38.805542,38.789673,38.780518,38.768738,38.746735,38.714066,38.67404,38.630432,38.586754,38.542114,38.497883,38.454872,38.41243,38.370987,38.3265,38.282204,38.2467,38.21814,38.193237,38.168022,38.140533,38.111214,38.081882,38.056404,38.036926,38.020035,38.00022,37.9756,37.945,37.91147,37.87688,37.84395,37.815613,37.787983,37.75916,37.729355,37.697567,37.664665,37.63328,37.606445,37.583313,37.56031,37.514122,37.472755,37.43686,37.404354,37.368668,37.33121,37.296303,37.26646,37.241417,37.217735,37.195374,37.181778,37.184677,37.17331,37.146378,37.112625,37.06891,37.01951,36.967926,36.91871,36.883743,36.863537,36.853592,36.852364,36.851448,36.85138,36.857376,36.872704,36.902267,36.939056,36.974953,37.006195,37.0355,37.079178,37.137363,37.202065,37.265457,37.31693,37.35518,37.379395,37.399216,37.42322,37.457508,37.503635,37.549355,37.586166,37.604687,37.61362,37.63524,37.704727,37.842857,38.048325,38.35015,38.735233,39.12326,39.346786,39.415585,39.41397,39.396484,39.351604,39.304604,39.27916,39.250175,39.21975,39.194935,39.186447,39.191315,39.202896,39.213844,39.224506,39.231346,39.231667,39.221756,39.208366,39.19005,39.16722,39.14502,39.125507,39.110977,39.100754,39.094112,39.087933,39.08023,39.068527,39.055977,39.04005,39.01306,38.968597,38.908638,38.840057,38.769005,38.701073,38.639595,38.580704,38.52706,38.488045,38.458324,38.41425,38.35831,38.298378,38.232906,38.161522,38.071087,37.98031,37.88829,37.79583,37.70459,37.617073,37.53463,37.459724,37.39267,37.326958,37.265724,37.20718,37.14935,37.09529,37.04687,37.00023,36.96057,36.927414,36.901405,36.87845,36.85723,36.835396
32.469864,32.599117,32.7247,32.847343,32.975723,33.12683,33.29994,33.494286,33.69941,33.889713,34.062046,34.20114,34.315086,34.424385,34.541595,34.660103,34.75189,34.83365,34.914497,35.006653,35.110268,35.22043,35.331596,35.439846,35.552464,35.6683,35.7823,35.89077,35.994457,36.09748,36.196846,36.27613,36.335587,36.380325,36.41919,36.46732,36.536438,36.62464,36.717426,36.800648,36.87166,36.926632,36.970627,37.005486,37.036747,37.071205,37.10859,37.15566,37.199753,37.23787,37.27211,37.309456,37.35133,37.389656,37.416157,37.429543,37.43216,37.42831,37.432358,37.457306,37.50132,37.547035,37.58447,37.606216,37.615677,37.618774,37.623947,37.635666,37.656998,37.68261,37.70106,37.704628,37.69138,37.671177,37.6538,37.644436,37.648212,37.661728,37.68075,37.7085,37.744804,37.786087,37.8263,37.862694,37.89746,37.932293,37.96678,38.001503,38.03614,38.069378,38.103416,38.143227,38.18947,38.2388,38.28927,38.341415,38.395515,38.452194,38.50953,38.567795,38.62497,38.67863,38.729004,38.778275,38.82985,38.88704,38.94635,39.004097,39.05896,39.11183,39.16338,39.211327,39.249107,39.263374,39.26971,39.271965,39.26896,39.26285,39.257954,39.257736,39.26492,39.276207,39.28616,39.293953,39.300064,39.30079,39.30173,39.31279,39.346436,39.36466,39.393456,39.431442,39.461685,39.472015,39.44056,39.37052,39.275116,39.1706,39.07366,38.98932,38.912888,38.847103,38.79499,38.759903,38.74295,38.73306,38.718834,38.691727,38.650826,38.600296,38.543983,38.486916,38.429214,38.373978,38.321262,38.270073,38.220825,38.174686,38.1344,38.099007,38.06521,38.03384,38.003193,37.97219,37.941757,37.913963,37.89199,37.877415,37.86728,37.85774,37.841534,37.817272,37.790306,37.76261,37.734917,37.70928,37.68576,37.662094,37.63685,37.60936,37.581062,37.55428,37.53168,37.512012,37.494553,37.47534,37.431805,37.395676,37.366768,37.340687,37.31723,37.296608,37.277817,37.25857,37.23672,37.214867,37.2034,37.214874,37.217613,37.205666,37.18947,37.158455,37.1044,37.04647,36.998566,36.978554,36.98584,37.009598,37.036896,37.053665,37.061,37.06888,37.086174,37.12081,37.163857,37.205147,37.238934,37.26773,37.3086,37.362236,37.421448,37.479233,37.526516,37.562523,37.58442,37.601227,37.621944,37.655228,37.70075,37.740864,37.761402,37.762535,37.74913,37.745644,37.795425,37.919807,38.119083,38.435005,38.82775,39.236946,39.47593,39.55825,39.565296,39.54823,39.513412,39.469906,39.434982,39.399467,39.36302,39.331326,39.315132,39.313046,39.319813,39.327667,39.335743,39.33989,39.338337,39.328453,39.31829,39.3051,39.28846,39.272636,39.259365,39.25045,39.245064,39.241203,39.2364,39.22911,39.218357,39.198578,39.17294,39.142273,39.101936,39.054855,39.00187,38.944263,38.881718,38.819286,38.763233,38.707314,38.65189,38.600403,38.54837,38.490196,38.427906,38.359848,38.285538,38.19187,38.098587,38.004913,37.911747,37.820396,37.732353,37.649162,37.572075,37.50302,37.43769,37.375572,37.31667,37.258488,37.20308,37.1528,37.103973,37.063747,37.03218,37.009712,36.991802,36.976753,36.962097
32.74999,32.88347,33.01397,33.142212,33.27665,33.43302,33.610645,33.810966,34.024265,34.221638,34.39724,34.533684,34.64081,34.742023,34.850117,34.95796,35.038467,35.110153,35.18255,35.26866,35.367348,35.47174,35.576027,35.675938,35.77777,35.879482,35.975487,36.06321,36.149124,36.23837,36.330105,36.40621,36.46724,36.51862,36.569134,36.630978,36.71208,36.810356,36.911617,37.001923,37.079338,37.139023,37.186237,37.22386,37.259003,37.2992,37.33932,37.383564,37.422348,37.45484,37.492355,37.53109,37.57347,37.61185,37.637356,37.648148,37.64631,37.63665,37.63481,37.654297,37.69268,37.730446,37.757294,37.772034,37.7789,37.781464,37.785294,37.79449,37.81184,37.832497,37.84409,37.83877,37.81534,37.785927,37.762314,37.75045,37.75425,37.76842,37.78784,37.815956,37.853424,37.896297,37.93785,37.974636,38.00908,38.042007,38.073303,38.103355,38.132996,38.162468,38.194546,38.23392,38.280685,38.331226,38.383446,38.437885,38.49388,38.55104,38.606956,38.66246,38.716198,38.766212,38.812614,38.857887,38.906776,38.963867,39.02587,39.08777,39.14705,39.20395,39.2592,39.310455,39.34155,39.3526,39.355125,39.3535,39.346893,39.33864,39.335808,39.33854,39.348106,39.362293,39.37665,39.390762,39.405136,39.414513,39.42435,39.44377,39.45321,39.474396,39.51664,39.569683,39.611954,39.6211,39.57688,39.480354,39.34208,39.18879,39.04951,38.933258,38.831917,38.747463,38.682808,38.6382,38.613667,38.59546,38.57073,38.530922,38.474533,38.406456,38.333893,38.26075,38.18811,38.120087,38.056904,37.99788,37.943886,37.896782,37.859604,37.83355,37.813217,37.79499,37.750797,37.68641,37.63211,37.601467,37.599384,37.616764,37.633045,37.636032,37.633682,37.626488,37.614426,37.59469,37.56978,37.547455,37.528633,37.513657,37.500805,37.4878,37.47353,37.45794,37.44348,37.426186,37.402367,37.371964,37.33482,37.301437,37.27749,37.26227,37.25296,37.24562,37.235073,37.21705,37.191097,37.164795,37.15677,37.134277,37.111412,37.111435,37.117405,37.109283,37.07733,37.034874,37.010044,37.025173,37.07805,37.151207,37.219337,37.263153,37.28468,37.298607,37.319298,37.357117,37.401764,37.443115,37.475174,37.50128,37.539,37.58944,37.645786,37.700653,37.74582,37.779144,37.79543,37.802933,37.811756,37.834923,37.874428,37.90953,37.9179,37.883533,37.82715,37.78791,37.808083,37.90985,38.09916,38.421524,38.831764,39.28691,39.58475,39.705833,39.726948,39.713936,39.679077,39.643494,39.614143,39.571655,39.52672,39.486916,39.461674,39.451626,39.45278,39.45687,39.46171,39.46289,39.45955,39.4502,39.443775,39.436268,39.42641,39.417305,39.41032,39.406967,39.406403,39.405766,39.39254,39.374435,39.352104,39.32679,39.299423,39.268005,39.228188,39.183605,39.134247,39.08103,39.024384,38.966766,38.908577,38.849808,38.793236,38.739254,38.685425,38.62563,38.561123,38.490517,38.413574,38.3173,38.222786,38.128815,38.036064,37.944885,37.856434,37.77231,37.693672,37.622936,37.55674,37.494705,37.43573,37.376656,37.319763,37.267853,37.217278,37.176884,37.14687,37.127434,37.11357,37.103577,37.094994
33.03606,33.179474,33.32135,33.462105,33.609337,33.775703,33.96077,34.168304,34.388947,34.591965,34.768974,34.90197,35.001778,35.096397,35.197845,35.299107,35.37391,35.44339,35.51573,35.60393,35.704025,35.8076,35.90905,36.004623,36.098534,36.187958,36.26573,36.330753,36.39434,36.462723,36.537186,36.600193,36.65307,36.70204,36.755753,36.82283,36.906956,37.006706,37.10885,37.20186,37.285706,37.354954,37.413376,37.463337,37.510902,37.563995,37.614708,37.667282,37.71093,37.74122,37.764282,37.78923,37.824524,37.857597,37.877228,37.881676,37.872643,37.85491,37.844925,37.856075,37.885925,37.914284,37.933235,37.943726,37.947968,37.948685,37.9508,37.95798,37.97181,37.98819,37.994473,37.982964,37.953255,37.91894,37.89292,37.88101,37.885612,37.899994,37.918316,37.94474,37.981422,38.024437,38.0667,38.104294,38.139587,38.1726,38.20321,38.231606,38.259262,38.287323,38.31855,38.3575,38.403847,38.454266,38.50644,38.56116,38.617203,38.673286,38.726944,38.779396,38.829994,38.877426,38.921745,38.965458,39.01381,39.072052,39.13698,39.202667,39.26587,39.3263,39.386314,39.42475,39.44806,39.457764,39.458603,39.45582,39.449287,39.442093,39.43865,39.4421,39.45326,39.470146,39.488472,39.50892,39.53229,39.55385,39.56214,39.56093,39.570007,39.599716,39.654087,39.723633,39.782303,39.79129,39.71013,39.570843,39.371956,39.14692,38.945488,38.78251,38.65335,38.55465,38.477077,38.418495,38.380096,38.34671,38.305042,38.24711,38.170563,38.078014,37.878136,37.653374,37.424644,37.238262,37.090412,36.974834,36.889,36.832996,36.808365,36.811863,36.825615,36.83511,36.830658,36.815887,36.808857,36.822746,36.861217,36.912746,36.95916,36.99154,37.00723,37.012054,37.013535,37.014465,37.018074,37.024597,37.03144,37.035423,37.034836,37.031754,37.02942,37.03177,37.03946,37.046474,37.05176,37.05613,37.06044,37.072113,37.084232,37.07762,37.07965,37.08123,37.073353,37.05018,37.020325,36.940987,36.836895,36.765427,36.748337,36.775238,36.82141,36.85917,36.873493,36.876022,36.895737,36.95809,37.06125,37.183987,37.292915,37.36612,37.40676,37.431656,37.45777,37.496094,37.536182,37.57099,37.596428,37.61795,37.65291,37.701706,37.757507,37.811546,37.85579,37.88569,37.893894,37.88768,37.879036,37.887085,37.917984,37.94976,37.9504,37.89601,37.802246,37.716827,37.700836,37.77217,37.940857,38.264763,38.713356,39.258373,39.67753,39.858284,39.900276,39.894325,39.85417,39.809097,39.774887,39.749214,39.707462,39.659363,39.625046,39.607285,39.603203,39.603977,39.606277,39.605377,39.601257,39.593277,39.59069,39.58822,39.58415,39.580482,39.579376,39.574806,39.5617,39.546204,39.52983,39.510883,39.488068,39.46251,39.435184,39.404068,39.364685,39.321335,39.273697,39.22265,39.167664,39.11106,39.05275,38.993057,38.93531,38.879898,38.824547,38.763176,38.696857,38.624367,38.545635,38.44776,38.352608,38.258835,38.16677,38.07605,37.98736,37.90233,37.82247,37.750603,37.684708,37.623924,37.56498,37.505257,37.44756,37.394936,37.343834,37.30394,37.275414,37.258064,37.24663,37.2396,37.234886
33.299976,33.456238,33.612858,33.769775,33.93372,34.112984,34.306915,34.521217,34.746937,34.953766,35.131752,35.263588,35.359917,35.453644,35.555313,35.657837,35.735268,35.81167,35.893032,35.991913,36.101784,36.21296,36.320686,36.42175,36.516357,36.60066,36.665443,36.711452,36.753357,36.798897,36.850853,36.89485,36.93354,36.974045,37.024883,37.09073,37.170578,37.262875,37.35511,37.441257,37.524895,37.60218,37.67414,37.74081,37.805256,37.874863,37.93816,37.999718,38.047764,38.077225,38.095955,38.110558,38.126377,38.14377,38.153057,38.146576,38.12606,38.095787,38.072765,38.070076,38.08639,38.10179,38.110664,38.115425,38.116364,38.11458,38.112762,38.115383,38.126022,38.141438,38.146637,38.13421,38.10396,38.069817,38.044754,38.034115,38.039375,38.052887,38.068565,38.09146,38.125645,38.167625,38.210182,38.24904,38.286316,38.321,38.352943,38.38218,38.40999,38.437706,38.467876,38.505104,38.549343,38.59768,38.648014,38.701023,38.75535,38.809254,38.860325,38.91053,38.95961,39.006973,39.052517,39.098305,39.149384,39.21094,39.279575,39.34948,39.41205,39.46557,39.512955,39.550907,39.57405,39.583046,39.583374,39.580475,39.574265,39.567764,39.56524,39.570023,39.582764,39.601517,39.622437,39.64772,39.68148,39.694115,39.690475,39.691208,39.704536,39.739594,39.803185,39.890068,39.957397,39.94364,39.821377,39.61213,39.33158,38.916473,38.398186,38.067444,37.92668,37.87696,37.84563,37.80578,37.77378,37.667244,37.519295,37.33003,37.09059,36.82012,36.540398,36.27619,36.042698,35.852577,35.703964,35.594105,35.52452,35.49642,35.51023,35.559982,35.62488,35.688313,35.739117,35.777805,35.818832,35.873657,35.943954,36.01813,36.08141,36.12702,36.15464,36.17057,36.180252,36.18541,36.188766,36.19194,36.19465,36.196045,36.195568,36.194862,36.19671,36.206314,36.226185,36.25142,36.27794,36.29927,36.3114,36.320747,36.333954,36.355755,36.38437,36.405052,36.394527,36.335705,36.23243,36.10433,35.995113,35.940025,35.959473,36.0522,36.181305,36.308826,36.403328,36.468296,36.533165,36.6259,36.751995,36.893314,37.019333,37.11017,37.16926,37.21075,37.24807,37.289116,37.324688,37.352463,37.37171,37.390015,37.422546,37.46856,37.521294,37.571377,37.611095,37.634,37.631245,37.608887,37.580887,37.572475,37.59459,37.626434,37.62862,37.569736,37.47158,37.37973,37.34729,37.403267,37.57522,37.90037,38.414238,39.100876,39.735687,40.018417,40.092537,40.09732,40.048,39.98784,39.943855,39.91018,39.894226,39.848434,39.806633,39.78293,39.775,39.773556,39.77437,39.77256,39.76853,39.762,39.762035,39.7622,39.761444,39.7556,39.74074,39.723476,39.7071,39.691174,39.674812,39.656265,39.634468,39.610023,39.583958,39.55376,39.514748,39.47148,39.42369,39.372604,39.317223,39.260002,39.20039,39.1389,39.079163,39.021904,38.96493,38.90203,38.83427,38.760506,38.680862,38.582314,38.487305,38.394226,38.30306,38.212967,38.124176,38.038254,37.95835,37.886497,37.823868,37.765903,37.706512,37.64663,37.58895,37.53657,37.4859,37.446854,37.4192,37.402496,37.391533,37.38556,37.38262
33.493443,33.66262,33.834,34.006863,34.190174,34.38743,34.59513,34.817883,35.047176,35.253754,35.43084,35.563667,35.662952,35.765694,35.879875,35.99819,36.093597,36.191322,36.293633,36.413837,36.544533,36.675785,36.803265,36.922768,37.027626,37.113052,37.168568,37.19874,37.22219,37.24736,37.27649,37.2996,37.320747,37.34841,37.391365,37.45038,37.51953,37.596085,37.666603,37.732098,37.80281,37.879295,37.96064,38.043747,38.12713,38.217743,38.299614,38.375656,38.431686,38.461224,38.474014,38.477905,38.47979,38.476242,38.46461,38.44226,38.403736,38.353024,38.307953,38.282368,38.27746,38.274204,38.26861,38.262886,38.255188,38.2455,38.237625,38.237087,38.246277,38.260178,38.26787,38.261055,38.23605,38.206154,38.183838,38.174217,38.17883,38.19005,38.20165,38.21962,38.24993,38.289886,38.332306,38.372467,38.41189,38.44877,38.482723,38.513237,38.541176,38.5677,38.595028,38.62812,38.667873,38.712082,38.758698,38.80822,38.859352,38.91027,38.95932,39.008827,39.0591,39.109707,39.160545,39.21268,39.27059,39.33613,39.399628,39.458916,39.516376,39.569977,39.61776,39.655785,39.67913,39.68927,39.691936,39.69201,39.688766,39.684814,39.684395,39.69094,39.705,39.72442,39.74582,39.77485,39.804035,39.807472,39.806427,39.81253,39.82886,39.867218,39.93788,40.041912,40.09159,40.06247,39.88418,39.56923,39.02272,38.04101,37.2044,36.65573,36.38806,36.27866,36.226963,36.162895,36.069862,35.956253,35.822884,35.660892,35.461975,35.243877,35.03972,34.855896,34.695908,34.575172,34.477055,34.40243,34.358894,34.349346,34.37526,34.432163,34.503403,34.577576,34.646454,34.707466,34.76677,34.829826,34.903023,34.974762,35.036903,35.080868,35.10852,35.124523,35.131073,35.12809,35.118057,35.10511,35.09223,35.081047,35.07128,35.06272,35.056587,35.057774,35.070107,35.089966,35.11193,35.125362,35.12316,35.111214,35.09883,35.094994,35.100212,35.100853,35.074802,35.011246,34.923153,34.831245,34.783226,34.794483,34.874565,35.036488,35.24814,35.463165,35.647694,35.77012,35.85597,35.937492,36.03522,36.142864,36.244934,36.329872,36.40072,36.463043,36.51938,36.56964,36.60624,36.63172,36.649063,36.66708,36.696953,36.73694,36.780724,36.82023,36.849136,36.860565,36.845062,36.807613,36.76319,36.740543,36.753716,36.791214,36.813683,36.78891,36.724655,36.655865,36.641136,36.736763,36.941387,37.310608,37.884087,38.767815,39.708473,40.156807,40.27571,40.29647,40.233826,40.152122,40.094162,40.054268,40.033802,40.016273,39.977234,39.95074,39.94114,39.938705,39.938675,39.936226,39.932045,39.925636,39.92588,39.920597,39.904037,39.88694,39.869087,39.850746,39.83336,39.817062,39.80089,39.782784,39.761646,39.737953,39.712708,39.68281,39.64312,39.598354,39.548584,39.49569,39.43878,39.38038,39.319366,39.256126,39.195316,39.13743,39.078953,39.01356,38.94346,38.86873,38.78872,38.69052,38.596535,38.50476,38.414978,38.325745,38.236977,38.150913,38.071915,38.004425,37.94575,37.887756,37.82789,37.76757,37.709587,37.657177,37.60695,37.568268,37.540535,37.52288,37.51066,37.504158,37.5016
33.66706,33.853447,34.046177,34.240196,34.442528,34.652897,34.8686,35.094208,35.322666,35.527878,35.70677,35.84549,35.954468,36.071037,36.201706,36.337627,36.45108,36.567917,36.68865,36.82764,36.97831,37.131615,37.284294,37.429634,37.555523,37.65618,37.71775,37.74096,37.75415,37.765785,37.779335,37.791397,37.80667,37.833244,37.880196,37.943542,38.010452,38.073196,38.11557,38.1478,38.189213,38.24749,38.322647,38.409286,38.501022,38.602745,38.693077,38.77401,38.83213,38.862698,38.87458,38.875336,38.87005,38.856487,38.826836,38.780796,38.7181,38.6397,38.56391,38.508793,38.479713,38.455734,38.43326,38.413773,38.393078,38.371464,38.35543,38.351173,38.361588,38.379166,38.389782,38.388863,38.372147,38.34815,38.32891,38.31987,38.32341,38.332687,38.340935,38.35447,38.38074,38.417847,38.45877,38.49884,38.538887,38.576538,38.611134,38.64174,38.668465,38.69199,38.714363,38.741375,38.775215,38.81433,38.856583,38.901848,38.949097,38.99681,39.044117,39.093246,39.145058,39.19835,39.253464,39.30945,39.367786,39.428516,39.49124,39.552734,39.611015,39.66415,39.7109,39.74816,39.77191,39.784706,39.792175,39.79773,39.799805,39.80018,39.80314,39.811966,39.826942,39.845673,39.8656,39.895737,39.914604,39.914673,39.91983,39.93003,39.947773,39.987198,40.0633,40.168877,40.202377,40.151997,39.890697,39.397003,38.311516,36.429665,35.160194,34.63295,34.54882,34.559013,34.562412,34.536934,34.47988,34.407833,34.331047,34.243763,34.13433,34.013626,33.896477,33.793415,33.706833,33.634926,33.57396,33.52556,33.49863,33.499275,33.530083,33.58809,33.661278,33.74022,33.8178,33.889137,33.956856,34.024185,34.088757,34.14557,34.190037,34.22048,34.23922,34.248276,34.247482,34.236477,34.21811,34.19776,34.179527,34.16535,34.154495,34.145065,34.136566,34.131508,34.132286,34.135483,34.136482,34.127327,34.10247,34.06877,34.035473,34.012077,34.000534,33.991493,33.969395,33.926186,33.86953,33.8152,33.79612,33.84124,33.966675,34.18371,34.453888,34.725292,34.934654,35.068363,35.143997,35.188225,35.235718,35.293514,35.35592,35.418922,35.48562,35.55616,35.624138,35.681934,35.72364,35.753967,35.777504,35.801773,35.832077,35.865437,35.8963,35.920784,35.93862,35.94066,35.915436,35.871704,35.830833,35.812153,35.825493,35.8599,35.881966,35.87301,35.846176,35.828655,35.86616,35.984158,36.210327,36.626976,37.295128,38.34027,39.56189,40.275963,40.450916,40.506298,40.430717,40.316166,40.239063,40.192215,40.171196,40.155617,40.14205,40.12477,40.11562,40.112778,40.11184,40.108257,40.102093,40.08688,40.068504,40.049873,40.031097,40.01226,39.99232,39.97262,39.954464,39.937973,39.92187,39.903664,39.88214,39.858025,39.832508,39.801903,39.760757,39.713455,39.66166,39.607895,39.550995,39.493607,39.433636,39.371117,39.309196,39.249268,39.18892,39.121723,39.04979,38.97297,38.89247,38.79498,38.70228,38.61168,38.52265,38.43411,38.34639,38.261734,38.186733,38.123886,38.064903,38.006134,37.945255,37.883713,37.824924,37.772026,37.72197,37.683098,37.654655,37.635185,37.620956,37.61344,37.611004
33.89024,34.08802,34.29121,34.49861,34.71275,34.929893,35.147747,35.372032,35.5967,35.800224,35.98232,36.129475,36.25226,36.385635,36.53442,36.686188,36.81353,36.942684,37.074936,37.224857,37.387077,37.554363,37.722134,37.880066,38.029045,38.16015,38.231052,38.253246,38.257645,38.262306,38.27471,38.295406,38.327126,38.37829,38.461563,38.564438,38.66163,38.730473,38.745506,38.729546,38.717377,38.728962,38.770123,38.834,38.908993,38.99872,39.07759,39.14722,39.196045,39.222908,39.235306,39.23926,39.23559,39.21909,39.18139,39.12733,39.055656,38.964195,38.87275,38.79548,38.74215,38.697243,38.654686,38.612938,38.56495,38.519096,38.488205,38.47941,38.489365,38.509483,38.524246,38.529354,38.520004,38.50174,38.48533,38.477,38.48066,38.490364,38.498367,38.509895,38.533188,38.566742,38.604263,38.641464,38.679054,38.714287,38.746544,38.774452,38.797264,38.815228,38.830605,38.850197,38.877785,38.912003,38.950058,38.991135,39.034325,39.078438,39.12112,39.159485,39.206024,39.261993,39.324085,39.38573,39.446815,39.51014,39.57421,39.635624,39.692093,39.738194,39.77719,39.810394,39.836555,39.858925,39.878452,39.89191,39.90139,39.90848,39.91622,39.927525,39.94288,39.95964,39.97668,40.000603,40.01242,40.013138,40.022312,40.034943,40.05253,40.0923,40.17502,40.267593,40.30406,40.22425,39.87142,39.04949,36.98288,34.608215,33.340263,32.859787,32.945908,33.116997,33.20662,33.23307,33.2098,33.179287,33.1612,33.14384,33.102585,33.04745,32.99971,32.968204,32.948868,32.931118,32.90628,32.878395,32.86295,32.872208,32.90952,32.969162,33.042328,33.12335,33.20703,33.278084,33.342125,33.40267,33.45669,33.50126,33.53482,33.55774,33.571976,33.578465,33.57605,33.56398,33.54474,33.524487,33.50739,33.494778,33.484962,33.4745,33.46209,33.45001,33.440575,33.43103,33.417194,33.39135,33.346626,33.291023,33.236427,33.19606,33.174324,33.162346,33.142998,33.106308,33.05858,33.012817,33.00537,33.07341,33.211357,33.50329,33.869522,34.192898,34.448112,34.59481,34.644047,34.643524,34.635754,34.63626,34.655567,34.692745,34.74765,34.814346,34.882027,34.941765,34.99105,35.032295,35.06595,35.096924,35.12755,35.157333,35.184013,35.20582,35.2183,35.21794,35.197067,35.158203,35.112633,35.08247,35.079002,35.09304,35.099888,35.08646,35.064964,35.065872,35.12659,35.23317,35.40979,35.838852,36.598087,37.86122,39.387318,40.373642,40.62033,40.719055,40.63051,40.48958,40.388668,40.327568,40.306572,40.293266,40.27835,40.26802,40.264015,40.26145,40.25896,40.252106,40.238297,40.21694,40.197495,40.176254,40.15426,40.132843,40.111122,40.091316,40.073784,40.057533,40.043922,40.026344,40.002876,39.97588,39.94892,39.918106,39.87699,39.828682,39.774414,39.718372,39.66108,39.60472,39.545662,39.483353,39.420513,39.35882,39.296432,39.22679,39.1529,39.074776,38.994102,38.897514,38.806602,38.718124,38.63124,38.544456,38.459747,38.38044,38.307648,38.242584,38.182343,38.122303,38.05936,37.995525,37.935074,37.881035,37.830963,37.791718,37.762505,37.741463,37.72568,37.717842,37.716194
34.16257,34.36204,34.569508,34.781704,34.981888,35.169903,35.359703,35.562576,35.781044,35.990837,36.18412,36.346996,36.48999,36.64582,36.81359,36.97352,37.102364,37.234764,37.3796,37.54173,37.708237,37.869083,38.033493,38.201416,38.355503,38.481922,38.56314,38.59851,38.620144,38.652107,38.706093,38.77671,38.851547,38.952133,39.095367,39.260986,39.406998,39.499355,39.512268,39.45958,39.39062,39.339546,39.316406,39.323357,39.350815,39.403328,39.449802,39.49056,39.515747,39.528008,39.534973,39.542152,39.55032,39.547348,39.518982,39.466812,39.390053,39.291855,39.191566,39.10173,39.03271,38.970688,38.91126,38.85383,38.790627,38.724022,38.669178,38.645134,38.647263,38.66258,38.676487,38.682556,38.676224,38.662323,38.648247,38.64174,38.64885,38.663486,38.67635,38.690285,38.713066,38.74363,38.776596,38.80831,38.839745,38.86918,38.896324,38.91906,38.93599,38.946968,38.954014,38.96521,38.985825,39.014465,39.04744,39.08355,39.120667,39.155388,39.184853,39.22572,39.27517,39.33277,39.39492,39.457664,39.520065,39.583405,39.64498,39.697613,39.74453,39.78889,39.82859,39.86243,39.889565,39.914085,39.93763,39.960712,39.98201,40.002445,40.01917,40.03399,40.04969,40.063118,40.07582,40.08975,40.095947,40.098145,40.109543,40.124302,40.142616,40.184547,40.2745,40.359524,40.39809,40.285805,39.83409,38.674305,35.842728,33.3206,32.010525,31.627281,31.78555,32.018433,32.151443,32.216118,32.21598,32.211403,32.2312,32.26516,32.29085,32.307846,32.331566,32.368942,32.412712,32.44811,32.46409,32.464226,32.464638,32.478516,32.51197,32.565018,32.629917,32.701042,32.77478,32.848457,32.918896,32.978218,33.023796,33.057743,33.08233,33.09986,33.113018,33.11995,33.116524,33.1016,33.07959,33.059685,33.047054,33.04096,33.036842,33.028286,33.01316,32.994408,32.974613,32.9523,32.924355,32.884155,32.82765,32.7639,32.704117,32.662056,32.643005,32.639313,32.635563,32.621464,32.598927,32.57157,32.5762,32.649097,32.82209,33.116333,33.532104,33.89009,34.163322,34.309685,34.33154,34.290985,34.24088,34.203438,34.19314,34.20874,34.24854,34.304855,34.364727,34.418213,34.463943,34.50451,34.54203,34.5781,34.61323,34.646423,34.675613,34.69989,34.714207,34.713844,34.690475,34.64763,34.59584,34.55559,34.53732,34.532417,34.51911,34.489807,34.462673,34.469994,34.547676,34.653633,34.835186,35.26242,36.052406,37.461693,39.264374,40.46306,40.78514,40.92514,40.834335,40.66706,40.54898,40.483315,40.462456,40.447998,40.428547,40.41713,40.41252,40.40874,40.40497,40.396423,40.38083,40.35722,40.33425,40.308716,40.282566,40.258392,40.236015,40.220406,40.209435,40.19962,40.186653,40.166477,40.1391,40.108376,40.078346,40.04418,40.00146,39.949646,39.892586,39.836075,39.780685,39.727966,39.671783,39.610733,39.546875,39.482346,39.415745,39.34095,39.26248,39.180817,39.09915,39.00354,38.91581,38.8317,38.750034,38.667976,38.585526,38.5052,38.43115,38.364918,38.303123,38.241055,38.17486,38.107506,38.044376,37.98861,37.93817,37.898273,37.868057,37.84559,37.82864,37.821075,37.820618
34.475224,34.666096,34.85969,35.037903,35.21308,35.392937,35.57211,35.765327,35.976795,36.184517,36.380928,36.5515,36.706112,36.871216,37.047318,37.215427,37.352283,37.491417,37.64273,37.813873,37.99022,38.161964,38.3325,38.500893,38.651447,38.771038,38.844402,38.87336,38.89753,38.937775,39.00388,39.09881,39.228134,39.39239,39.604893,39.82777,39.981636,40.070522,40.1243,40.086155,40.015846,39.95289,39.87645,39.818024,39.785545,39.7864,39.78675,39.785988,39.77275,39.746147,39.728867,39.732292,39.753006,39.78289,39.79329,39.768177,39.715454,39.6315,39.52887,39.432438,39.35009,39.27038,39.193344,39.11913,39.040154,38.959805,38.88993,38.84252,38.83526,38.84381,38.854073,38.85955,38.849815,38.831207,38.812965,38.805786,38.81738,38.83875,38.85697,38.874428,38.897034,38.9232,38.94957,38.972725,38.992897,39.013435,39.03357,39.049843,39.061104,39.068077,39.069115,39.073288,39.08753,39.110477,39.137337,39.16825,39.19378,39.220345,39.252197,39.29042,39.33788,39.39386,39.454605,39.515392,39.574856,39.630535,39.68225,39.732193,39.779808,39.824417,39.86444,39.898922,39.92723,39.954422,39.982704,40.01181,40.039566,40.066414,40.09243,40.11757,40.137665,40.14796,40.15555,40.161583,40.162155,40.163082,40.175,40.191635,40.211918,40.25791,40.34792,40.433296,40.474255,40.337296,39.76818,38.258064,35.2221,32.746735,31.490837,31.271542,31.361084,31.53788,31.708609,31.775352,31.774818,31.779657,31.819817,31.87944,31.930542,31.970177,32.01512,32.074455,32.141243,32.200073,32.238552,32.25876,32.27485,32.297867,32.33297,32.379547,32.432423,32.488243,32.54585,32.603645,32.659004,32.710327,32.753456,32.78658,32.810905,32.82698,32.84059,32.8497,32.85081,32.84383,32.83249,32.82531,32.82623,32.832848,32.84017,32.84149,32.83481,32.82231,32.805763,32.783928,32.754894,32.71399,32.658295,32.596893,32.54009,32.501392,32.487408,32.492687,32.503918,32.511726,32.509315,32.497025,32.505753,32.57567,32.729786,33.018715,33.425827,33.81111,34.0869,34.220547,34.216705,34.143593,34.063805,34.001907,33.971115,33.96634,33.983906,34.017075,34.055016,34.090904,34.125244,34.159798,34.1957,34.232727,34.27054,34.30773,34.342125,34.37255,34.393944,34.400833,34.38331,34.344734,34.295403,34.254776,34.23159,34.216095,34.187927,34.14396,34.10697,34.09956,34.170795,34.335815,34.53756,34.96003,35.813126,37.257084,39.202374,40.54178,40.92975,41.109764,41.02717,40.84091,40.706093,40.635826,40.619183,40.61086,40.5968,40.581833,40.573463,40.56637,40.560875,40.550987,40.53463,40.50992,40.484154,40.454147,40.423683,40.398247,40.37754,40.363907,40.35453,40.345425,40.332935,40.311302,40.2808,40.249355,40.22052,40.18607,40.139618,40.08365,40.023064,39.964966,39.90982,39.85954,39.805706,39.74556,39.680214,39.612312,39.541473,39.462,39.38035,39.296776,39.213783,39.11877,39.03154,38.947906,38.866993,38.785553,38.70359,38.62327,38.54873,38.481827,38.41893,38.354797,38.28483,38.213356,38.147076,38.089363,38.038208,37.9973,37.965717,37.941746,37.92381,37.916656,37.917625
34.845837,35.00659,35.16407,35.332634,35.50207,35.668297,35.834858,36.02262,36.23491,36.45174,36.660706,36.842636,37.007515,37.180325,37.360744,37.53013,37.666954,37.805557,37.95323,38.12011,38.29225,38.46236,38.632225,38.798203,38.942005,39.05171,39.115753,39.13892,39.166122,39.21721,39.301514,39.41912,39.570087,39.761795,40.000298,40.19274,40.332275,40.452415,40.50206,40.499256,40.475136,40.401505,40.32895,40.26384,40.211044,40.18006,40.14717,40.114944,40.075798,40.040962,40.01759,40.019657,40.043278,40.07598,40.10131,40.11415,40.10582,40.053787,39.968857,39.867485,39.763935,39.657097,39.55623,39.45899,39.357533,39.2496,39.15461,39.083084,39.04975,39.043564,39.043633,39.044075,39.033165,39.013226,38.99366,38.98195,38.981453,38.988827,38.9889,38.993294,39.00275,39.015038,39.02884,39.043488,39.0606,39.076393,39.090137,39.10105,39.109055,39.11421,39.1175,39.124664,39.1389,39.159973,39.18341,39.209015,39.238155,39.272255,39.31063,39.348175,39.394436,39.447693,39.503815,39.556133,39.605614,39.65725,39.70893,39.75836,39.805798,39.8507,39.891174,39.926132,39.955452,39.984936,40.017593,40.052876,40.087814,40.1216,40.152836,40.18112,40.205772,40.21968,40.22348,40.22355,40.219204,40.217617,40.229893,40.249313,40.273895,40.326622,40.41198,40.499107,40.5411,40.383728,39.71444,37.95413,34.958595,32.57615,31.457073,31.193378,31.238476,31.4831,31.664375,31.720665,31.705196,31.701916,31.74083,31.800228,31.847971,31.880514,31.916967,31.970175,32.035294,32.098434,32.146954,32.18084,32.210487,32.24299,32.281662,32.325165,32.370155,32.414894,32.459816,32.505264,32.549576,32.59059,32.625206,32.653065,32.676353,32.6977,32.716873,32.731316,32.739693,32.74314,32.743004,32.74701,32.75905,32.775993,32.793205,32.80404,32.80646,32.801826,32.79056,32.771694,32.74466,32.707153,32.657207,32.60264,32.55162,32.51614,32.50376,32.512142,32.533157,32.55813,32.582016,32.59253,32.60796,32.659412,32.793648,33.064972,33.467056,33.845703,34.119404,34.238853,34.213226,34.116165,34.016563,33.93964,33.894787,33.87191,33.866135,33.872826,33.884804,33.899918,33.92016,33.946266,33.978195,34.01401,34.05278,34.09242,34.131504,34.16725,34.194435,34.208134,34.19825,34.16667,34.124146,34.08941,34.069363,34.052734,34.018917,33.96895,33.90965,33.89599,33.97359,34.14982,34.415894,34.853256,35.709602,37.209793,39.21926,40.631016,41.082428,41.296425,41.22275,41.023556,40.873955,40.80088,40.78854,40.7862,40.776756,40.764942,40.758453,40.75089,40.74386,40.731674,40.71247,40.684265,40.65393,40.61866,40.58361,40.555782,40.53499,40.52472,40.520363,40.51432,40.506294,40.48725,40.45812,40.42366,40.390633,40.352215,40.302433,40.242653,40.178993,40.119648,40.064735,40.01652,39.964256,39.90382,39.835342,39.761814,39.684006,39.597183,39.509586,39.42107,39.334373,39.23696,39.148064,39.06345,38.982925,38.90229,38.821487,38.74179,38.667526,38.600616,38.537086,38.471115,38.397507,38.321968,38.252495,38.192776,38.14052,38.098335,38.065273,38.040382,38.022057,38.01586,38.017994
35.211136,35.366844,35.538246,35.71277,35.882366,36.044617,36.204594,36.39734,36.62597,36.860733,37.083008,37.274216,37.44272,37.609955,37.775116,37.924583,38.040752,38.161385,38.293488,38.447983,38.610527,38.775703,38.944023,39.101246,39.23383,39.337975,39.408028,39.429493,39.46199,39.523098,39.619823,39.749626,39.90985,40.111958,40.333145,40.502827,40.67234,40.80606,40.866295,40.861855,40.814575,40.75817,40.72378,40.667427,40.627327,40.61133,40.595493,40.57466,40.540833,40.504124,40.477074,40.4759,40.498238,40.529915,40.554245,40.569927,40.570137,40.541447,40.480965,40.39226,40.283062,40.15635,40.025925,39.899082,39.767952,39.61576,39.478596,39.364998,39.296364,39.262566,39.24729,39.237682,39.218513,39.188408,39.156456,39.11771,39.0878,39.071266,39.06524,39.06546,39.071716,39.08091,39.09158,39.10282,39.116318,39.1291,39.1404,39.149918,39.157066,39.161533,39.165237,39.172028,39.184097,39.200825,39.221024,39.245544,39.273075,39.30532,39.343643,39.388508,39.436222,39.484512,39.53225,39.58029,39.62935,39.679535,39.730003,39.779015,39.82643,39.871513,39.912033,39.94695,39.976646,40.007866,40.044422,40.08555,40.12786,40.16923,40.207146,40.24058,40.269173,40.286247,40.29055,40.28549,40.27675,40.27322,40.28752,40.312355,40.34487,40.40823,40.48693,40.57063,40.606747,40.423637,39.681892,37.789585,34.869644,32.679497,31.576807,31.238064,31.369436,31.650475,31.832043,31.871298,31.835934,31.816881,31.842747,31.886778,31.914238,31.92288,31.934353,31.96582,32.015118,32.071075,32.12126,32.163204,32.202904,32.24301,32.28499,32.32682,32.366543,32.403618,32.43941,32.475414,32.51091,32.54428,32.573326,32.598705,32.622726,32.647285,32.6705,32.688454,32.699356,32.70604,32.71369,32.72818,32.748466,32.771446,32.794235,32.81114,32.82051,32.82249,32.816116,32.8004,32.775665,32.741177,32.69628,32.647663,32.601185,32.566833,32.552383,32.558254,32.58105,32.61583,32.655754,32.68731,32.712563,32.75954,32.881508,33.139656,33.53692,33.90522,34.178383,34.28895,34.247986,34.136925,34.02558,33.940002,33.885193,33.846497,33.818718,33.79995,33.786987,33.782578,33.78925,33.80639,33.83237,33.864494,33.902542,33.94287,33.983593,34.020927,34.05001,34.066208,34.060287,34.03582,34.00266,33.978146,33.968014,33.960114,33.933525,33.883408,33.826,33.819054,33.90269,34.08417,34.380966,34.87551,35.720642,37.235435,39.31949,40.72998,41.24884,41.48629,41.421127,41.21681,41.0552,40.98076,40.97297,40.976463,40.97159,40.96217,40.95697,40.948845,40.940567,40.92684,40.90577,40.87476,40.84015,40.79947,40.760406,40.732323,40.71374,40.711067,40.717358,40.720398,40.71419,40.691925,40.658695,40.620422,40.584435,40.543167,40.49063,40.427475,40.361153,40.3004,40.245064,40.197876,40.145866,40.083736,40.01059,39.929688,39.843117,39.747093,39.6513,39.555145,39.46164,39.35869,39.2654,39.177986,39.096603,39.01622,38.936325,38.85729,38.783264,38.71643,38.652695,38.58571,38.509666,38.43134,38.359642,38.298424,38.245003,38.201164,38.166344,38.14038,38.1217,38.115925,38.11817
35.51133,35.69932,35.88777,36.074127,36.26562,36.452354,36.6295,36.84168,37.09188,37.34803,37.59018,37.798035,37.977245,38.14852,38.309437,38.43447,38.5064,38.589325,38.689884,38.820293,38.96408,39.118313,39.275833,39.401196,39.508286,39.61197,39.716766,39.759514,39.800095,39.871506,39.97814,40.1138,40.27115,40.45232,40.639114,40.80195,40.97432,41.11666,41.185196,41.187046,41.146793,41.08766,41.0518,41.05387,41.065712,41.087936,41.10522,41.10877,41.0942,41.070423,41.0517,41.052143,41.068565,41.091537,41.10961,41.12272,41.129234,41.1131,41.06248,40.977665,40.86162,40.71672,40.558273,40.395176,40.22529,40.047714,39.86503,39.691982,39.567368,39.483837,39.435616,39.39846,39.352127,39.305412,39.25988,39.20524,39.164948,39.140224,39.12618,39.119602,39.120697,39.12536,39.132248,39.14032,39.15161,39.163795,39.17578,39.18782,39.19895,39.205696,39.20932,39.2155,39.22726,39.243557,39.262737,39.284653,39.31006,39.34056,39.3771,39.4189,39.4636,39.50905,39.55465,39.599792,39.646233,39.695045,39.74463,39.79344,39.840973,39.886066,39.926353,39.960976,39.990852,40.0234,40.063065,40.109146,40.15819,40.206863,40.25245,40.294815,40.33125,40.348763,40.353363,40.35093,40.339935,40.33348,40.348022,40.379086,40.421833,40.497635,40.570885,40.651764,40.67501,40.456802,39.655342,37.69159,34.82081,32.75444,31.669846,31.37695,31.558426,31.85213,32.023384,32.046253,32.00054,31.975342,31.993195,32.02384,32.032265,32.018612,32.007202,32.0181,32.051353,32.098106,32.14672,32.192642,32.238503,32.283737,32.328796,32.37182,32.411156,32.446304,32.478317,32.508583,32.537277,32.563896,32.588135,32.611458,32.636078,32.66274,32.687996,32.706802,32.717358,32.72403,32.73207,32.748077,32.773453,32.79937,32.822952,32.84132,32.85296,32.857086,32.8516,32.835842,32.810894,32.777145,32.735275,32.69059,32.64731,32.612785,32.593887,32.59284,32.61037,32.64582,32.69401,32.738483,32.774605,32.825836,32.94438,33.19632,33.591057,33.955124,34.230034,34.33606,34.28647,34.1669,34.047688,33.95465,33.89156,33.83942,33.79325,33.754917,33.72576,33.710785,33.710964,33.723934,33.74724,33.777267,33.813423,33.85186,33.890457,33.925156,33.952244,33.96768,33.96306,33.942482,33.916348,33.902107,33.903946,33.908997,33.895508,33.857033,33.81036,33.815216,33.909622,34.0973,34.393723,34.907005,35.770485,37.32405,39.478603,40.839516,41.42266,41.68068,41.61911,41.4124,41.24521,41.17073,41.167854,41.17693,41.17599,41.168167,41.16351,41.154877,41.146217,41.13202,41.110268,41.0774,41.04075,40.997135,40.957005,40.93302,40.92271,40.92621,40.935143,40.938637,40.931282,40.90621,40.87032,40.830452,40.793083,40.75036,40.695778,40.629623,40.561,40.49839,40.441692,40.39414,40.341103,40.276237,40.19802,40.109688,40.014263,39.908836,39.803528,39.69757,39.59427,39.4827,39.382843,39.291374,39.208458,39.127777,39.047745,38.968094,38.892624,38.824524,38.76008,38.69255,38.615738,38.536858,38.46495,38.403652,38.34999,38.30506,38.26918,38.24282,38.224007,38.21827,38.219673
35.766865,35.954994,36.149864,36.343224,36.53753,36.73858,36.95324,37.19966,37.47258,37.745377,38.00755,38.243454,38.454422,38.660446,38.85366,38.98315,39.0303,39.08831,39.153267,39.243393,39.356514,39.47946,39.59456,39.69628,39.799168,39.902023,40.00384,40.097,40.16445,40.25425,40.368004,40.500237,40.640457,40.781166,40.92355,41.081924,41.244865,41.38551,41.45687,41.46518,41.43579,41.38831,41.36381,41.371986,41.40887,41.47043,41.512924,41.535034,41.5409,41.53577,41.52996,41.533417,41.544144,41.55739,41.56491,41.56643,41.569443,41.560226,41.520714,41.44942,41.3443,41.20729,41.05127,40.879677,40.688404,40.470573,40.231388,40.008728,39.813286,39.670143,39.56907,39.497673,39.436916,39.37718,39.32415,39.262768,39.21122,39.175396,39.15181,39.137024,39.131653,39.13134,39.135536,39.142815,39.155067,39.171143,39.18878,39.203926,39.21572,39.223732,39.22872,39.236313,39.24917,39.265938,39.28524,39.307045,39.332172,39.362076,39.39782,39.43841,39.481995,39.52552,39.56637,39.60589,39.647415,39.69338,39.742172,39.79153,39.83953,39.884773,39.925037,39.95987,39.99039,40.024323,40.066494,40.116287,40.170517,40.225903,40.28202,40.336105,40.37618,40.390926,40.39648,40.404972,40.402725,40.392952,40.40333,40.434204,40.488186,40.572002,40.649284,40.7339,40.740807,40.47815,39.6167,37.592957,34.72335,32.759674,31.716112,31.473194,31.665989,31.951584,32.106506,32.12144,32.07961,32.06403,32.089798,32.121048,32.1242,32.102688,32.082733,32.08516,32.111015,32.15296,32.20091,32.249588,32.299004,32.34701,32.394745,32.44153,32.486614,32.52807,32.56369,32.593285,32.6175,32.63783,32.656586,32.676453,32.69889,32.72368,32.746506,32.761658,32.768967,32.77388,32.781097,32.796097,32.81736,32.8386,32.85855,32.873444,32.881638,32.882614,32.874054,32.85457,32.825615,32.790215,32.74919,32.70649,32.665585,32.631237,32.608192,32.598747,32.606087,32.633755,32.680527,32.730797,32.776688,32.83686,32.959503,33.21103,33.603462,33.968605,34.243156,34.351845,34.299454,34.175518,34.050728,33.950947,33.87912,33.815273,33.75698,33.709133,33.67563,33.661713,33.66562,33.682064,33.70678,33.73669,33.770714,33.80521,33.838295,33.866447,33.887825,33.899185,33.89295,33.873672,33.851997,33.845203,33.85665,33.873962,33.874397,33.85362,33.823467,33.837654,33.940777,34.134888,34.434196,34.933968,35.81389,37.429897,39.63282,40.94941,41.5914,41.8674,41.805267,41.596626,41.427155,41.353096,41.354927,41.36829,41.36991,41.36205,41.35674,41.347973,41.340614,41.330593,41.313103,41.283348,41.25035,41.210308,41.170887,41.144012,41.132584,41.137756,41.148434,41.151463,41.141113,41.112335,41.073936,41.033672,40.995533,40.951294,40.894093,40.82391,40.75231,40.686592,40.627213,40.57766,40.522377,40.454723,40.372658,40.278923,40.177204,40.06504,39.951733,39.836304,39.722527,39.600937,39.49375,39.39832,39.31399,39.232758,39.151142,39.068596,38.988693,38.916656,38.849506,38.78087,38.704285,38.62674,38.556793,38.497025,38.444458,38.399162,38.363125,38.336784,38.31768,38.311203,38.310833
36.01435,36.21261,36.41665,36.616623,36.817554,37.028214,37.256348,37.524532,37.825035,38.124855,38.410667,38.66317,38.884087,39.083298,39.2547,39.387665,39.47611,39.55558,39.619514,39.68508,39.767883,39.844616,39.927162,40.021126,40.122345,40.22651,40.33071,40.424488,40.530617,40.638622,40.748257,40.86158,40.97208,41.087627,41.222237,41.369095,41.52109,41.651463,41.719883,41.731834,41.713097,41.680084,41.668945,41.692574,41.741478,41.813324,41.867958,41.899544,41.909042,41.89942,41.886463,41.883347,41.891716,41.90837,41.925007,41.94391,41.965992,41.97686,41.955753,41.89743,41.79445,41.649742,41.47748,41.282173,41.05787,40.807484,40.560116,40.30767,40.042725,39.831715,39.69314,39.596275,39.517685,39.442436,39.37401,39.30983,39.24838,39.20051,39.166115,39.14228,39.13008,39.125214,39.127808,39.13636,39.151398,39.169277,39.18811,39.205315,39.21941,39.229637,39.236668,39.24627,39.260696,39.27838,39.298206,39.32013,39.34525,39.374664,39.40965,39.449097,39.491344,39.533363,39.57225,39.609375,39.646263,39.68638,39.73231,39.781876,39.8317,39.878677,39.92066,39.957527,39.990456,40.026894,40.071587,40.12413,40.182964,40.247185,40.313454,40.373802,40.424442,40.45275,40.461678,40.467598,40.467896,40.460487,40.474213,40.499924,40.556957,40.647522,40.73729,40.833427,40.824913,40.51174,39.583992,37.491356,34.606316,32.74665,31.738056,31.518085,31.701534,31.96165,32.09683,32.11139,32.08601,32.091526,32.13406,32.174107,32.18032,32.16051,32.141838,32.14466,32.17047,32.212807,32.261894,32.312603,32.364212,32.41469,32.466164,32.519287,32.57275,32.62258,32.66328,32.693027,32.713207,32.727745,32.741028,32.75647,32.774517,32.793835,32.81096,32.821213,32.82701,32.830765,32.835705,32.845963,32.85889,32.873253,32.88777,32.89759,32.90146,32.898895,32.887436,32.865395,32.834274,32.797832,32.757454,32.717674,32.68017,32.64785,32.623085,32.607723,32.605988,32.62435,32.665836,32.7167,32.76922,32.838154,32.966255,33.2174,33.605797,33.967136,34.238216,34.349785,34.29847,34.174553,34.046738,33.940613,33.860123,33.78669,33.721153,33.670742,33.640533,33.633858,33.645096,33.667114,33.694397,33.724545,33.755455,33.784706,33.810898,33.831657,33.847187,33.85469,33.84703,33.828613,33.80995,33.80825,33.826393,33.853123,33.865814,33.856525,33.847588,33.869743,33.97606,34.173786,34.477142,34.96723,35.858627,37.512722,39.759914,41.064568,41.76088,42.052917,41.98874,41.774498,41.5989,41.52183,41.527565,41.546013,41.55059,41.542763,41.53762,41.531586,41.530174,41.53067,41.524635,41.503647,41.472416,41.4289,41.385662,41.35675,41.346054,41.354057,41.366257,41.368034,41.352768,41.319,41.2773,41.23661,41.19713,41.150146,41.088764,41.012653,40.936356,40.865086,40.8002,40.745636,40.686188,40.61538,40.530945,40.434254,40.32899,40.213013,40.09429,39.971973,39.85005,39.72036,39.607685,39.509613,39.42394,39.341072,39.255245,39.16694,39.079422,39.0008,38.9289,38.85843,38.782757,38.708485,38.64273,38.58649,38.53688,38.49211,38.456406,38.429512,38.408993,38.400204,38.397057
36.227066,36.43464,36.64572,36.848885,37.05101,37.2651,37.501884,37.784317,38.102676,38.42148,38.727833,39.002216,39.2445,39.460518,39.64595,39.779472,39.847412,39.90651,39.973797,40.052116,40.125896,40.20383,40.29211,40.385437,40.48697,40.593925,40.69855,40.791103,40.892036,40.99839,41.11013,41.22379,41.32833,41.43078,41.550983,41.68599,41.8219,41.93831,42.000305,42.013027,42.002125,41.981773,41.98343,42.016148,42.068306,42.140182,42.19375,42.224007,42.230724,42.21573,42.19717,42.18873,42.193787,42.21026,42.229492,42.25437,42.288883,42.320663,42.32384,42.288864,42.202595,42.066795,41.894176,41.687607,41.43853,41.147926,40.84912,40.565212,40.296387,40.035694,39.84104,39.706383,39.60531,39.517136,39.441154,39.36313,39.2896,39.229813,39.183662,39.149902,39.13024,39.120605,39.11841,39.123215,39.136303,39.153896,39.174034,39.193024,39.20906,39.221382,39.230495,39.242447,39.259087,39.27858,39.29998,39.323174,39.34931,39.37896,39.41339,39.45185,39.492798,39.53333,39.57019,39.60502,39.640396,39.679913,39.723846,39.772667,39.82408,39.873676,39.919876,39.961502,39.9993,40.03991,40.087593,40.14463,40.21012,40.28204,40.353313,40.42059,40.482216,40.53016,40.5528,40.554573,40.547913,40.539757,40.554985,40.58648,40.640106,40.729885,40.836308,40.949226,40.927658,40.559746,39.557247,37.380066,34.470837,32.700882,31.729456,31.521658,31.686226,31.915798,32.031364,32.04985,32.047024,32.079304,32.14339,32.196762,32.2109,32.19766,32.18558,32.19393,32.22377,32.268345,32.31887,32.37124,32.42491,32.4784,32.534557,32.59456,32.656334,32.713776,32.758568,32.78696,32.802628,32.811565,32.81904,32.82852,32.839874,32.85176,32.864033,32.873203,32.878838,32.881756,32.88286,32.885506,32.8918,32.900284,32.908688,32.913673,32.913944,32.909462,32.898003,32.877586,32.849464,32.817024,32.781208,32.746994,32.715324,32.687313,32.663498,32.645428,32.636944,32.64688,32.682365,32.732155,32.789,32.864323,32.995354,33.24185,33.617287,33.96621,34.228798,34.338272,34.289726,34.169266,34.041344,33.930622,33.842888,33.76271,33.694168,33.64604,33.621452,33.621696,33.639015,33.665737,33.695465,33.726334,33.75541,33.779526,33.798943,33.813164,33.82435,33.829784,33.82225,33.805412,33.789143,33.79029,33.8117,33.84354,33.863976,33.863037,33.868034,33.89839,34.006584,34.203934,34.506805,34.992428,35.88585,37.553825,39.84377,41.179565,41.921158,42.22938,42.161705,41.939255,41.756268,41.676674,41.687553,41.71229,41.720425,41.71318,41.709747,41.71014,41.718346,41.727432,41.730053,41.71499,41.686913,41.644203,41.600655,41.573105,41.56669,41.580837,41.59657,41.597565,41.576073,41.535233,41.48779,41.444115,41.400284,41.347466,41.27883,41.194317,41.111225,41.03191,40.958447,40.89543,40.829247,40.7545,40.668404,40.57015,40.463066,40.34539,40.2241,40.098423,39.972046,39.837532,39.722122,39.623253,39.53661,39.45092,39.35898,39.262756,39.165436,39.078384,39.000122,38.92675,38.852196,38.782295,38.72209,38.67125,38.62635,38.583336,38.548717,38.52099,38.498486,38.486862,38.481697
36.40216,36.620792,36.840633,37.048992,37.252678,37.465645,37.702675,37.9858,38.30611,38.630013,38.94611,39.239243,39.50566,39.746265,39.956257,40.11145,40.201393,40.275993,40.3463,40.425526,40.509342,40.59645,40.69014,40.7864,40.887405,40.99527,41.102627,41.19743,41.29697,41.404877,41.521202,41.636658,41.734055,41.82189,41.923008,42.03839,42.157406,42.26019,42.3143,42.324318,42.316086,42.299835,42.301014,42.327484,42.36726,42.425224,42.465714,42.48537,42.481537,42.4562,42.429184,42.41443,42.41614,42.432205,42.453495,42.483833,42.529816,42.581543,42.610497,42.60318,42.541237,42.424675,42.26268,42.05584,41.792896,41.475113,41.14006,40.814487,40.528717,40.27172,40.042866,39.87159,39.736053,39.619682,39.520493,39.41759,39.333138,39.26541,39.210407,39.167683,39.13933,39.122185,39.113647,39.113426,39.12274,39.137558,39.156403,39.17456,39.189922,39.201874,39.210876,39.223373,39.241104,39.262115,39.285553,39.310905,39.338722,39.368916,39.402523,39.439636,39.478973,39.518024,39.55342,39.58719,39.622627,39.664085,39.712868,39.76657,39.8217,39.87597,39.928413,39.976944,40.02202,40.069393,40.12288,40.186768,40.258278,40.333336,40.410442,40.48529,40.555542,40.611416,40.646267,40.65617,40.65215,40.646996,40.663876,40.69684,40.75962,40.83681,40.95493,41.084343,41.04949,40.61962,39.532158,37.25583,34.303547,32.609547,31.678894,31.486748,31.637856,31.843788,31.946781,31.974068,31.995794,32.055325,32.141525,32.209747,32.234207,32.230057,32.226566,32.241776,32.276356,32.323853,32.376472,32.431606,32.489113,32.547333,32.60945,32.67564,32.73964,32.796837,32.839935,32.864563,32.875854,32.88038,32.883003,32.88704,32.892803,32.900856,32.911873,32.923073,32.931557,32.934944,32.932934,32.929153,32.927204,32.92636,32.926632,32.926144,32.92373,32.92,32.913128,32.90048,32.882507,32.86074,32.83512,32.809418,32.783813,32.75916,32.734653,32.711716,32.69581,32.698368,32.72856,32.77706,32.838264,32.91649,33.046085,33.2835,33.638725,33.96894,34.219532,34.325523,34.280388,34.165344,34.039593,33.926674,33.834335,33.75071,33.682503,33.63749,33.61628,33.619415,33.640297,33.670094,33.701504,33.733818,33.763836,33.786575,33.801357,33.81139,33.820293,33.825096,33.81816,33.80222,33.786346,33.786625,33.80594,33.83632,33.85759,33.860493,33.868706,33.909554,34.02034,34.217304,34.512672,34.995495,35.878334,37.529274,39.85688,41.280483,42.056053,42.39178,42.326035,42.094967,41.90416,41.82337,41.836647,41.86222,41.870712,41.862137,41.85887,41.86473,41.882042,41.903214,41.91754,41.9111,41.888725,41.850266,41.810818,41.790592,41.794518,41.81985,41.841873,41.841656,41.81099,41.758553,41.70086,41.65001,41.598557,41.537445,41.46013,41.366566,41.276077,41.18786,41.10388,41.029762,40.954453,40.87442,40.786278,40.686646,40.57848,40.460587,40.339855,40.21517,40.08883,39.95321,39.836998,39.73792,39.648876,39.557526,39.456448,39.349255,39.2397,39.142143,39.055923,38.978798,38.905865,38.84235,38.79048,38.748894,38.712395,38.673935,38.641884,38.613358,38.588356,38.573483,38.565277
36.569595,36.79507,37.022057,37.23786,37.445164,37.654564,37.88498,38.15645,38.462822,38.776566,39.08609,39.386368,39.670715,39.93598,40.175423,40.36075,40.480118,40.581795,40.677826,40.77961,40.88227,40.981598,41.080986,41.178246,41.279217,41.38797,41.49656,41.594112,41.69716,41.807842,41.925713,42.040718,42.13459,42.21623,42.30863,42.41411,42.522995,42.616844,42.665714,42.672283,42.6625,42.641857,42.629196,42.634144,42.648228,42.68148,42.700443,42.703514,42.685432,42.64849,42.61255,42.59153,42.58933,42.602676,42.62234,42.653152,42.704826,42.769173,42.816944,42.83169,42.79139,42.695686,42.549423,42.351013,42.087082,41.76018,41.40874,41.059044,40.741917,40.471077,40.244373,40.047134,39.876442,39.72561,39.593513,39.478203,39.38748,39.3134,39.25215,39.20313,39.168232,39.14476,39.129852,39.12334,39.126656,39.135887,39.150284,39.164017,39.174965,39.18267,39.187866,39.1977,39.214024,39.23481,39.259228,39.286118,39.314957,39.344795,39.376556,39.411488,39.448822,39.486496,39.521477,39.55594,39.593773,39.639523,39.694756,39.75728,39.822933,39.88746,39.9488,40.006134,40.06022,40.11576,40.176346,40.243713,40.31713,40.39611,40.47944,40.562866,40.643387,40.710968,40.756905,40.777603,40.783554,40.785202,40.80626,40.84121,40.906296,40.98271,41.099503,41.23188,41.181427,40.681282,39.502247,37.127266,34.10148,32.474564,31.598862,31.432499,31.583286,31.777872,31.876572,31.915268,31.959467,32.04283,32.148895,32.231583,32.267235,32.2726,32.277016,32.297653,32.335255,32.38477,32.439552,32.498604,32.56191,32.628082,32.693924,32.758034,32.817154,32.868187,32.905235,32.92598,32.93434,32.936546,32.937614,32.941216,32.947502,32.95592,32.965946,32.978306,32.990463,32.99832,32.997803,32.990486,32.97731,32.961967,32.95069,32.94324,32.93849,32.937836,32.94004,32.941223,32.940605,32.936134,32.925896,32.91103,32.89071,32.8666,32.836853,32.804085,32.780346,32.776924,32.802437,32.847466,32.910164,32.987045,33.111557,33.338326,33.667084,33.98041,34.21837,34.31987,34.277084,34.166897,34.044003,33.930668,33.836205,33.751846,33.685715,33.64267,33.62374,33.628395,33.649597,33.679092,33.710434,33.742943,33.772163,33.795555,33.80993,33.81887,33.827744,33.83316,33.82673,33.810432,33.792603,33.788216,33.80017,33.82257,33.837765,33.839355,33.850243,33.898388,34.01465,34.2135,34.502357,34.974693,35.835823,37.44258,39.793587,41.344215,42.15872,42.541542,42.485016,42.248154,42.045776,41.957092,41.97018,41.997482,42.006912,41.997337,41.99498,42.007652,42.035652,42.069626,42.095825,42.0975,42.08074,42.047806,42.01545,42.00731,42.026512,42.066624,42.096436,42.093056,42.049736,41.980595,41.9086,41.847687,41.78766,41.719353,41.635323,41.535183,41.438736,41.342537,41.24764,41.161453,41.075756,40.989273,40.897995,40.79584,40.68557,40.56726,40.44861,40.32788,40.204536,40.070137,39.95314,39.852104,39.75725,39.65519,39.54065,39.418663,39.294476,39.184616,39.089333,39.007984,38.937798,38.883526,38.84404,38.81739,38.794785,38.765594,38.738663,38.710106,38.68181,38.66149,38.646797
36.735474,36.95907,37.19048,37.41726,37.636223,37.85231,38.084072,38.344593,38.631763,38.925972,39.215145,39.507797,39.794502,40.072365,40.332577,40.543972,40.691788,40.821857,40.94591,41.073956,41.200394,41.31739,41.427853,41.530724,41.634926,41.746094,41.85796,41.961067,42.07112,42.188522,42.312073,42.43174,42.5293,42.61463,42.709427,42.815556,42.92296,43.01445,43.06347,43.06912,43.055847,43.023857,42.986916,42.959686,42.940094,42.94326,42.937622,42.922874,42.890568,42.84347,42.799873,42.77339,42.766224,42.773293,42.785656,42.808937,42.855904,42.92028,42.973312,42.9974,42.968742,42.886612,42.752884,42.565186,42.309,41.987267,41.636837,41.28251,40.95462,40.66491,40.41263,40.18976,39.994205,39.822426,39.674763,39.54786,39.449627,39.370663,39.30601,39.253937,39.214973,39.186596,39.165627,39.15225,39.1484,39.15059,39.158787,39.166023,39.170204,39.171326,39.170525,39.175865,39.189266,39.20835,39.23211,39.25878,39.28681,39.314606,39.343212,39.375427,39.41098,39.44815,39.48449,39.521713,39.563972,39.615353,39.677555,39.7486,39.823814,39.89866,39.97116,40.039055,40.10293,40.165718,40.230827,40.300995,40.376633,40.459305,40.549004,40.641533,40.733097,40.813366,40.87285,40.907955,40.928276,40.942184,40.971146,41.010086,41.06568,41.150894,41.266747,41.39628,41.311,40.72959,39.45791,36.98573,33.884125,32.33159,31.52277,31.389763,31.549522,31.73801,31.832092,31.87718,31.936117,32.036934,32.159878,32.25705,32.30536,32.320713,32.33163,32.355156,32.39296,32.44274,32.499107,32.562542,32.633446,32.70352,32.766285,32.82556,32.88137,32.925613,32.954636,32.968628,32.972675,32.972878,32.9739,32.979126,32.98802,32.999294,33.01261,33.030235,33.049583,33.064598,33.067543,33.057823,33.03628,33.010536,32.984833,32.966187,32.957016,32.959354,32.973038,32.99258,33.015556,33.034695,33.044353,33.042965,33.027763,33.001358,32.962044,32.916702,32.88191,32.867477,32.882294,32.91849,32.97092,33.041653,33.162403,33.38444,33.692993,33.99494,34.222977,34.318626,34.274746,34.166477,34.045998,33.9339,33.83988,33.757088,33.693466,33.654324,33.637344,33.641136,33.66066,33.688354,33.718697,33.750633,33.779106,33.801445,33.81772,33.8269,33.836403,33.842262,33.835697,33.818176,33.797405,33.786865,33.78949,33.801468,33.80823,33.80777,33.823044,33.881718,34.010086,34.21668,34.49688,34.954357,35.785255,37.334656,39.688095,41.369827,42.229355,42.662437,42.616867,42.38075,42.171925,42.08094,42.09901,42.131844,42.144623,42.13585,42.135582,42.155685,42.194214,42.239307,42.275333,42.28277,42.269836,42.24195,42.216957,42.222115,42.25773,42.31257,42.349636,42.3407,42.282555,42.193497,42.10517,42.03342,41.966454,41.89472,41.808434,41.705994,41.60649,41.504807,41.40057,41.30326,41.20719,41.11303,41.01658,40.909767,40.795853,40.676506,40.560936,40.446228,40.327515,40.194893,40.07538,39.96945,39.865204,39.748695,39.618008,39.47883,39.338882,39.215736,39.11086,39.024826,38.95752,38.91388,38.889484,38.882763,38.879345,38.864605,38.845154,38.817318,38.78471,38.755863,38.73514
36.87667,37.09839,37.34088,37.583652,37.81762,38.049828,38.294975,38.560127,38.836967,39.110813,39.373833,39.64673,39.91861,40.19108,40.456074,40.68152,40.85006,41.004482,41.154682,41.3088,41.459373,41.59598,41.720802,41.832985,41.94416,42.060646,42.17964,42.293755,42.416634,42.54625,42.680107,42.80933,42.916332,43.013092,43.117615,43.229683,43.338875,43.431644,43.486664,43.497566,43.483353,43.439213,43.378746,43.31952,43.264572,43.238174,43.2105,43.181232,43.138336,43.0851,43.03724,43.0071,42.994293,42.992027,42.991837,43.00006,43.031704,43.082752,43.125618,43.143143,43.11181,43.02961,42.898415,42.718124,42.47338,42.165504,41.828957,41.488243,41.167244,40.874535,40.60934,40.364853,40.142933,39.94615,39.777534,39.636147,39.529953,39.44739,39.38218,39.330673,39.290318,39.258373,39.231613,39.21053,39.19822,39.191673,39.191444,39.189484,39.18394,39.17569,39.16652,39.165703,39.174408,39.189716,39.209877,39.23295,39.256657,39.279495,39.30312,39.331882,39.366158,39.40424,39.444016,39.485916,39.533783,39.59066,39.658203,39.73506,39.81697,39.899605,39.98094,40.057755,40.13056,40.200954,40.272038,40.34642,40.42563,40.51283,40.60965,40.71186,40.81501,40.908592,40.983055,41.035683,41.075058,41.106842,41.148384,41.19328,41.240612,41.330017,41.44693,41.583725,41.457687,40.777004,39.397327,36.77976,33.721798,32.224495,31.480923,31.384808,31.555962,31.736881,31.820173,31.860977,31.922825,32.03184,32.166443,32.276676,32.338417,32.364296,32.380974,32.405563,32.44133,32.48961,32.546627,32.61479,32.689194,32.7535,32.812393,32.869644,32.918533,32.95327,32.973473,32.980766,32.981026,32.97999,32.982002,32.990337,33.00417,33.02316,33.049576,33.081226,33.112644,33.13532,33.13942,33.12374,33.09482,33.061584,33.02735,32.99949,32.984024,32.9887,33.01533,33.05664,33.107803,33.153763,33.186512,33.200066,33.19004,33.159966,33.11181,33.056416,33.006966,32.974476,32.969414,32.983063,33.013668,33.074257,33.193916,33.42045,33.71911,34.01639,34.23714,34.32383,34.273224,34.16237,34.04302,33.93325,33.84167,33.761932,33.70102,33.66666,33.651287,33.653206,33.67009,33.694767,33.72249,33.751823,33.77776,33.798237,33.814808,33.824623,33.834377,33.84001,33.832764,33.81388,33.79068,33.774925,33.76936,33.77211,33.771927,33.771706,33.795044,33.869286,34.017574,34.23284,34.507042,34.94683,35.746075,37.24535,39.574333,41.374992,42.288326,42.766243,42.737625,42.50664,42.295624,42.207317,42.235973,42.279106,42.299053,42.293785,42.29769,42.325638,42.372986,42.425316,42.46679,42.47629,42.464325,42.43931,42.419655,42.43531,42.484093,42.54973,42.591248,42.57426,42.50048,42.39135,42.287666,42.20742,42.13784,42.0683,41.986,41.886482,41.78743,41.683403,41.57257,41.466404,41.361134,41.258373,41.154305,41.039886,40.919712,40.797127,40.684006,40.575394,40.461533,40.330368,40.205986,40.09191,39.974854,39.841347,39.693268,39.536385,39.381195,39.24514,39.13085,39.039757,38.9747,38.94153,38.93348,38.9496,38.969337,38.97322,38.962326,38.93499,38.895473,38.855995,38.8262
37.065063,37.273407,37.50923,37.74757,37.981064,38.221836,38.473328,38.749092,39.02829,39.296158,39.541046,39.792877,40.042557,40.29747,40.55401,40.783195,40.964844,41.13912,41.314087,41.494995,41.671432,41.831383,41.9757,42.100945,42.223053,42.348904,42.47898,42.606415,42.74189,42.88236,43.025047,43.163857,43.283863,43.39721,43.515884,43.637352,43.75069,43.84754,43.91257,43.935112,43.927383,43.877678,43.796005,43.71189,43.636612,43.590797,43.547302,43.510136,43.46447,43.4131,43.36727,43.33667,43.317513,43.301456,43.28119,43.264732,43.26942,43.29343,43.310043,43.303505,43.252426,43.15438,43.014458,42.83496,42.601353,42.31273,41.998512,41.681183,41.377426,41.092003,40.822598,40.562622,40.316505,40.094173,39.90303,39.74623,39.632866,39.54908,39.48703,39.440685,39.402847,39.369675,39.338047,39.3083,39.284973,39.26593,39.25193,39.23459,39.213593,39.191963,39.17258,39.16537,39.169315,39.179726,39.19345,39.20903,39.22437,39.23902,39.255898,39.28096,39.3153,39.356525,39.40248,39.45158,39.506096,39.567616,39.637535,39.715775,39.799538,39.885544,39.971825,40.05468,40.13446,40.211983,40.289833,40.369564,40.45318,40.54441,40.64688,40.75654,40.868988,40.974236,41.06366,41.13598,41.198395,41.253098,41.311604,41.36431,41.40703,41.49827,41.612907,41.75407,41.60549,40.841427,39.34269,36.603928,33.667862,32.195984,31.510733,31.448748,31.626114,31.79198,31.853146,31.874119,31.922684,32.026,32.1615,32.27783,32.349354,32.384094,32.40599,32.431286,32.464813,32.511192,32.565132,32.62979,32.69718,32.75647,32.81472,32.866875,32.908474,32.937996,32.954468,32.959206,32.958397,32.957253,32.960064,32.971115,32.99084,33.019035,33.05712,33.10176,33.145424,33.17796,33.18791,33.17366,33.141365,33.10116,33.064285,33.036465,33.02245,33.03295,33.07228,33.13336,33.209602,33.28099,33.335854,33.36489,33.362534,33.33336,33.283676,33.226387,33.169983,33.122826,33.088722,33.06357,33.063263,33.108517,33.228176,33.466213,33.76282,34.05903,34.26879,34.33811,34.271732,34.152496,34.033066,33.926918,33.839497,33.763565,33.70508,33.67386,33.660446,33.6603,33.67286,33.691982,33.713524,33.736473,33.756695,33.773148,33.786674,33.795906,33.804996,33.80986,33.802128,33.782967,33.75956,33.7421,33.733105,33.732338,33.731503,33.73768,33.774956,33.869347,34.040085,34.265503,34.539124,34.9597,35.728554,37.190937,39.490158,41.375473,42.35563,42.878754,42.868134,42.643272,42.432438,42.348225,42.389793,42.44673,42.47778,42.47924,42.4888,42.522713,42.5743,42.628044,42.668987,42.676003,42.661926,42.63684,42.619316,42.640358,42.69558,42.764713,42.80526,42.778015,42.69095,42.56705,42.454597,42.37219,42.30578,42.243504,42.169273,42.075996,41.979523,41.875256,41.760414,41.647633,41.53411,41.421608,41.306515,41.179413,41.04735,40.915794,40.801105,40.696114,40.586464,40.45661,40.326424,40.20267,40.07209,39.922943,39.760937,39.591507,39.427002,39.282967,39.1625,39.066902,39.001583,38.97398,38.97702,39.011154,39.050346,39.071136,39.067417,39.039284,38.99014,38.938766,38.89377
37.20584,37.45419,37.712494,37.95996,38.170288,38.38597,38.62638,38.90229,39.182472,39.454323,39.692726,39.93241,40.1624,40.396393,40.63749,40.863415,41.05366,41.244965,41.440712,41.64668,41.848778,42.03107,42.194534,42.33409,42.46766,42.6027,42.742977,42.882866,43.029182,43.178032,43.328037,43.476433,43.61061,43.740883,43.875336,44.011566,44.136337,44.24447,44.324425,44.36132,44.361404,44.308243,44.214745,44.11399,44.028774,43.97886,43.937214,43.90613,43.866783,43.82428,43.78564,43.7566,43.730137,43.69644,43.650383,43.603806,43.57187,43.556446,43.535236,43.495003,43.417522,43.296566,43.14023,42.956337,42.73233,42.465485,42.177353,41.885544,41.602158,41.32979,41.06292,40.79398,40.52702,40.279747,40.066566,39.895714,39.777893,39.69647,39.641273,39.60427,39.5724,39.539604,39.502808,39.461082,39.42089,39.381706,39.345074,39.303497,39.259457,39.219185,39.186718,39.171684,39.169807,39.17321,39.177345,39.1815,39.184544,39.18772,39.19599,39.21677,39.252193,39.29872,39.353447,39.41223,39.47467,39.540592,39.610973,39.687637,39.769897,39.85608,39.944527,40.03148,40.117447,40.203323,40.290844,40.379272,40.469864,40.565666,40.671898,40.78541,40.902958,41.016357,41.119026,41.211277,41.29862,41.378815,41.456932,41.518814,41.560432,41.65249,41.764366,41.909176,41.745308,40.929184,39.33222,36.574226,33.69194,32.254734,31.609697,31.569662,31.743675,31.888224,31.9168,31.906433,31.929806,32.015965,32.14135,32.25427,32.32847,32.36804,32.394028,32.42083,32.452908,32.493073,32.542686,32.601437,32.66082,32.719036,32.776306,32.82601,32.864304,32.88996,32.90368,32.907646,32.907745,32.908493,32.913544,32.92775,32.952423,32.987785,33.03553,33.091347,33.146935,33.19143,33.212402,33.207603,33.1821,33.14604,33.110157,33.085724,33.078556,33.099174,33.153736,33.235313,33.335247,33.43084,33.506027,33.550453,33.55923,33.5383,33.49495,33.441265,33.383442,33.32429,33.26659,33.210976,33.173256,33.194996,33.314888,33.55076,33.849686,34.140694,34.328697,34.366737,34.27263,34.13833,34.01735,33.915905,33.83379,33.761604,33.70486,33.674305,33.66365,33.661697,33.66834,33.67965,33.691906,33.705322,33.716774,33.725685,33.73404,33.7414,33.74906,33.752823,33.745033,33.7268,33.70527,33.689472,33.681816,33.68329,33.68792,33.70569,33.760796,33.877457,34.06962,34.30917,34.58284,34.98517,35.725452,37.15997,39.45294,41.393124,42.449883,43.02072,43.025154,42.801025,42.591595,42.50985,42.561554,42.632378,42.67669,42.687225,42.70292,42.739014,42.788616,42.837143,42.87095,42.87077,42.851257,42.822662,42.803436,42.82376,42.8771,42.94099,42.973785,42.934944,42.83913,42.709267,42.59751,42.520596,42.4618,42.408916,42.342834,42.255745,42.16178,42.058052,41.9414,41.824104,41.703827,41.581417,41.453033,41.3092,41.16007,41.013695,40.892662,40.78774,40.681313,40.553024,40.41816,40.2858,40.144073,39.98417,39.814766,39.64113,39.475784,39.330833,39.20909,39.110886,39.043034,39.01487,39.020935,39.063454,39.113052,39.14454,39.14499,39.11533,39.056408,38.992657,38.927517
37.16166,37.429512,37.764576,38.123207,38.378593,38.60071,38.78837,39.01378,39.269775,39.545547,39.794933,40.0458,40.274082,40.49553,40.72348,40.94532,41.14142,41.347992,41.562878,41.787445,42.00544,42.20313,42.38232,42.535572,42.68147,42.82746,42.9784,43.129845,43.285202,43.44082,43.59768,43.756767,43.90688,44.053368,44.19224,44.316113,44.434345,44.547047,44.64436,44.704174,44.723892,44.690567,44.61212,44.50958,44.421852,44.37623,44.34568,44.327324,44.30455,44.280132,44.254646,44.22893,44.192314,44.135605,44.059593,43.97941,43.911163,43.85936,43.80256,43.729446,43.62514,43.48275,43.31662,43.128483,42.9151,42.670803,42.408806,42.141083,41.87666,41.617043,41.35367,41.07721,40.791702,40.523827,40.294483,40.116665,40.00122,39.927666,39.882355,39.856537,39.831177,39.79691,39.75052,39.688457,39.61979,39.547062,39.474197,39.396236,39.319244,39.25303,39.202026,39.174824,39.163464,39.15637,39.147625,39.13762,39.125793,39.11557,39.114166,39.130604,39.168198,39.22205,39.28804,39.35908,39.431427,39.503128,39.574738,39.650414,39.731674,39.818344,39.909187,40.00073,40.09413,40.1913,40.29309,40.395714,40.49801,40.600784,40.710037,40.824226,40.942513,41.06006,41.17353,41.284843,41.39755,41.504417,41.604248,41.67459,41.716904,41.808235,41.922806,42.075462,41.906998,41.055016,39.40697,36.680252,33.768456,32.378098,31.737957,31.698742,31.860958,31.980423,31.976904,31.938179,31.937992,32.00494,32.113663,32.21387,32.28131,32.319046,32.346478,32.375313,32.406796,32.446266,32.49672,32.554695,32.613026,32.67173,32.727562,32.774757,32.81037,32.8339,32.84712,32.852966,32.856842,32.862404,32.87221,32.89091,32.92044,32.961468,33.01687,33.082375,33.14998,33.20878,33.245975,33.258457,33.249165,33.226562,33.200233,33.182907,33.183895,33.21786,33.292976,33.40059,33.528168,33.648293,33.742836,33.80243,33.82459,33.818123,33.79071,33.751495,33.701473,33.636303,33.561646,33.48004,33.415215,33.414856,33.515945,33.732666,34.0244,34.293015,34.438396,34.424904,34.28814,34.13048,34.00457,33.90667,33.8289,33.75905,33.702587,33.671997,33.661484,33.659172,33.66075,33.663017,33.663452,33.665268,33.666656,33.668144,33.67222,33.67752,33.6836,33.68631,33.678574,33.661415,33.64193,33.628254,33.62288,33.627747,33.638847,33.667774,33.738792,33.87496,34.08622,34.33822,34.613,35.001747,35.72293,37.149982,39.4602,41.446346,42.592667,43.21688,43.23508,43.00064,42.792656,42.710625,42.765602,42.846054,42.90177,42.92001,42.93987,42.974373,43.016125,43.05374,43.074947,43.06382,43.03583,42.99979,42.973797,42.985542,43.027603,43.077274,43.096,43.045113,42.945015,42.81732,42.712418,42.64495,42.594833,42.549805,42.48932,42.40574,42.312027,42.20793,42.090733,41.97196,41.84917,41.72077,41.58114,41.42112,41.253136,41.087994,40.95607,40.846615,40.74118,40.614197,40.476196,40.33668,40.186554,40.020477,39.84961,39.67945,39.52114,39.38192,39.263588,39.165165,39.09351,39.059788,39.062374,39.104298,39.156403,39.193336,39.196964,39.16804,39.104008,39.028763,38.946617
36.75769,37.27101,37.638054,38.04245,38.449234,38.810097,39.004597,39.159733,39.33965,39.591576,39.850334,40.12564,40.370308,40.597473,40.820465,41.039707,41.236076,41.44895,41.675488,41.912403,42.140976,42.35093,42.544395,42.710533,42.86885,43.027554,43.189384,43.34983,43.51078,43.67099,43.835716,44.001938,44.137,44.27032,44.395187,44.509285,44.62257,44.740837,44.85415,44.934536,44.973198,44.957047,44.901752,44.838238,44.797462,44.774025,44.7573,44.752697,44.746613,44.738754,44.723587,44.69895,44.654808,44.58129,44.4795,44.37066,44.276196,44.199287,44.11544,44.01313,43.883713,43.72319,43.5511,43.370117,43.17756,42.95955,42.721363,42.47448,42.225384,41.9759,41.714813,41.430275,41.12925,40.84913,40.614483,40.441532,40.338623,40.27904,40.244656,40.22805,40.206146,40.167114,40.105133,40.011925,39.899647,39.775787,39.650223,39.522392,39.401894,39.302147,39.225872,39.179966,39.153675,39.131516,39.107124,39.081795,39.05413,39.02983,39.0177,39.029102,39.068497,39.12986,39.207718,39.291946,39.375217,39.453743,39.527794,39.603783,39.68503,39.772446,39.865257,39.96134,40.063164,40.174885,40.29665,40.420353,40.541046,40.6558,40.769924,40.88442,41.001534,41.12074,41.24331,41.372902,41.51117,41.645744,41.770084,41.846138,41.89028,41.98034,42.103134,42.269035,42.10532,41.230656,39.565727,36.921745,33.902405,32.5417,31.875336,31.8137,31.95158,32.041775,32.012928,31.956942,31.943565,31.996841,32.08843,32.170097,32.222206,32.250584,32.27512,32.306557,32.345573,32.39321,32.44936,32.508842,32.570347,32.62991,32.685196,32.731224,32.76631,32.790424,32.80587,32.816235,32.826576,32.839874,32.857517,32.883442,32.91962,32.967308,33.03083,33.10658,33.187332,33.262367,33.318962,33.353333,33.36582,33.36203,33.34903,33.341354,33.35265,33.402588,33.502274,33.64022,33.798622,33.94435,34.056854,34.12858,34.16349,34.174362,34.17038,34.1577,34.131447,34.077805,33.995922,33.889206,33.79667,33.76865,33.841484,34.036396,34.301895,34.523643,34.601257,34.51449,34.320644,34.132668,33.999065,33.903633,33.828876,33.759415,33.701103,33.66881,33.656166,33.651917,33.64846,33.642628,33.63295,33.625126,33.619064,33.61625,33.61814,33.622368,33.627502,33.629158,33.620697,33.60315,33.58352,33.569622,33.564194,33.570175,33.58519,33.62149,33.703026,33.852398,34.077076,34.338783,34.61621,34.99804,35.712116,37.154358,39.508774,41.53857,42.780666,43.466133,43.497757,43.243607,43.0374,42.95024,43.000355,43.08471,43.147957,43.17122,43.19173,43.22073,43.249245,43.271225,43.276047,43.25145,43.212616,43.165745,43.127975,43.12423,43.14467,43.17007,43.170216,43.112442,43.01333,42.894173,42.79918,42.741074,42.69735,42.655743,42.596302,42.512093,42.41548,42.30963,42.19323,42.077137,41.9581,41.830444,41.68495,41.512573,41.326576,41.140324,40.992386,40.872314,40.76329,40.635628,40.49652,40.352203,40.19797,40.03117,39.864605,39.705025,39.560898,39.433975,39.324017,39.228813,39.15348,39.110947,39.1052,39.138992,39.187065,39.22513,39.231613,39.206226,39.14183,39.063446,38.973804
35.9817,36.886356,37.504227,37.948944,38.380592,38.77648,39.20661,39.39873,39.518333,39.717896,39.937706,40.21147,40.465576,40.707153,40.931274,41.148674,41.338516,41.544853,41.76925,42.00937,42.243813,42.462444,42.66787,42.847458,43.0187,43.19038,43.361206,43.52764,43.689888,43.84233,43.99363,44.144962,44.276142,44.40093,44.518326,44.633118,44.749924,44.87799,45.00583,45.101616,45.153496,45.14624,45.10471,45.067497,45.057163,45.070866,45.089043,45.11151,45.128822,45.138874,45.13265,45.10658,45.05436,44.969696,44.858147,44.738464,44.625435,44.528114,44.43248,44.335327,44.20685,44.031452,43.85103,43.676407,43.504486,43.31368,43.10269,42.876884,42.64067,42.39611,42.134155,41.845306,41.5355,41.24854,41.017647,40.86197,40.783165,40.74349,40.717697,40.70346,40.672195,40.61201,40.520935,40.385326,40.22043,40.03967,39.861343,39.689037,39.532032,39.40467,39.305573,39.238804,39.193542,39.15346,39.113358,39.0743,39.031647,38.992615,38.967087,38.96948,39.00655,39.072033,39.159256,39.25458,39.346863,39.430122,39.50432,39.578117,39.65591,39.739334,39.82879,39.925297,40.034027,40.163208,40.312187,40.466812,40.616116,40.75151,40.8758,40.992996,41.10862,41.226917,41.35377,41.493538,41.649727,41.808857,41.955215,42.041817,42.091286,42.176918,42.309578,42.492706,42.342743,41.454395,39.79004,37.280754,34.07804,32.70677,32.02183,31.907127,32.001,32.05576,32.00782,31.947227,31.934803,31.985191,32.06505,32.127377,32.157894,32.169273,32.18476,32.216827,32.267494,32.33451,32.402966,32.468075,32.53286,32.592705,32.647522,32.69402,32.731697,32.760334,32.781883,32.80031,32.820457,32.844963,32.874763,32.912853,32.961258,33.021996,33.100456,33.193253,33.292908,33.38791,33.465294,33.52057,33.55184,33.562195,33.55633,33.55228,33.569687,33.634605,33.761444,33.9338,34.126747,34.29927,34.42765,34.516247,34.55796,34.57584,34.5868,34.60063,34.606537,34.579002,34.514023,34.40854,34.298195,34.242558,34.28616,34.44715,34.661316,34.81259,34.794395,34.61419,34.356018,34.137352,33.997936,33.906773,33.83515,33.76486,33.702488,33.66606,33.65007,33.64216,33.633934,33.622337,33.606438,33.593143,33.58388,33.579784,33.581875,33.586662,33.591595,33.59195,33.58142,33.561203,33.53829,33.520744,33.511753,33.515373,33.53024,33.568314,33.652916,33.8071,34.038307,34.307312,34.591072,34.975838,35.697094,37.176914,39.595795,41.65497,42.994987,43.74122,43.779976,43.499237,43.281013,43.188644,43.23111,43.316376,43.38658,43.407707,43.423847,43.444473,43.45942,43.46688,43.456284,43.41735,43.3639,43.299877,43.242817,43.2162,43.21291,43.217392,43.203815,43.144592,43.055367,42.949684,42.86509,42.813194,42.770576,42.725864,42.661636,42.572315,42.47014,42.362007,42.24859,42.14004,42.031754,41.912773,41.76873,41.590622,41.390083,41.182907,41.014362,40.87623,40.75595,40.622597,40.482647,40.336273,40.183002,40.0206,39.86251,39.7175,39.590393,39.47809,39.379612,39.291885,39.21758,39.17027,39.15804,39.1828,39.223778,39.259827,39.270157,39.249245,39.192196,39.123924,39.038662
32.532658,35.45294,37.31514,37.924553,38.159595,38.570007,39.08731,39.45734,39.699974,39.898285,40.123184,40.38832,40.651638,40.88243,41.09658,41.308105,41.481453,41.669037,41.87874,42.111237,42.34254,42.564644,42.781967,42.963863,43.130913,43.29841,43.46501,43.630833,43.79159,43.942352,44.090477,44.23941,44.379456,44.507195,44.623425,44.73571,44.85373,44.988865,45.129623,45.24002,45.303772,45.306656,45.276867,45.251076,45.25124,45.283943,45.321445,45.3573,45.38524,45.402496,45.39805,45.367813,45.30784,45.21497,45.09967,44.978714,44.86303,44.76037,44.660896,44.56463,44.456,44.321053,44.18731,44.04238,43.884796,43.713806,43.520515,43.30623,43.07614,42.83329,42.57206,42.280952,41.96821,41.690086,41.481777,41.356983,41.308144,41.281696,41.24886,41.217056,41.166,41.08642,40.968754,40.792168,40.57688,40.341988,40.112423,39.901897,39.719265,39.575157,39.45997,39.376106,39.316063,39.263966,39.215115,39.170685,39.121647,39.07663,39.04509,39.042946,39.077938,39.14373,39.233086,39.33056,39.42397,39.50621,39.577423,39.647015,39.718246,39.791992,39.870552,39.95884,40.065807,40.202896,40.369274,40.545876,40.717537,40.872925,41.01131,41.136265,41.254612,41.37303,41.5021,41.650467,41.822918,42.00461,42.17337,42.273514,42.322025,42.408867,42.55455,42.7231,42.585724,41.718933,40.047592,37.64058,34.31163,32.903336,32.209568,32.019093,32.060257,32.078667,32.018036,31.962889,31.962618,32.021626,32.100124,32.147972,32.157715,32.148525,32.151054,32.182854,32.245235,32.32804,32.40322,32.473846,32.53919,32.59706,32.65088,32.700066,32.744675,32.78308,32.815434,32.845078,32.87681,32.913475,32.95689,33.009697,33.074474,33.153984,33.253582,33.369385,33.491863,33.60775,33.703156,33.772724,33.813103,33.825916,33.814865,33.80371,33.81981,33.895947,34.049324,34.256233,34.48295,34.680286,34.834232,34.927757,34.966114,34.98356,35.005478,35.048363,35.100304,35.124474,35.096,34.99299,34.880783,34.809723,34.820107,34.929825,35.079735,35.136745,34.999336,34.71109,34.388126,34.141922,33.99984,33.915222,33.8472,33.775383,33.707443,33.665314,33.645203,33.634315,33.62345,33.609173,33.59101,33.576645,33.5686,33.566967,33.57203,33.579002,33.584206,33.58264,33.56821,33.542725,33.513237,33.48857,33.47251,33.470234,33.48085,33.51529,33.595863,33.74699,33.97802,34.251625,34.54429,34.939682,35.678673,37.215473,39.716125,41.778778,43.221863,44.013554,44.04892,43.746025,43.49681,43.404976,43.441338,43.520294,43.585,43.604607,43.61627,43.626762,43.626274,43.61785,43.59149,43.53836,43.470768,43.390472,43.315945,43.269844,43.247963,43.238224,43.217308,43.16082,43.084167,42.9962,42.921257,42.872375,42.827717,42.77781,42.707794,42.61389,42.507805,42.399696,42.292084,42.194077,42.099876,41.99305,41.85311,41.67142,41.45627,41.22586,41.03024,40.865692,40.725815,40.581284,40.4403,40.294827,40.14741,39.994076,39.848022,39.72043,39.61182,39.514145,39.42643,39.346912,39.27715,39.23134,39.216385,39.23388,39.269264,39.30446,39.312332,39.295868,39.254486,39.207275,39.143272
26.824924,30.120726,34.475494,37.673218,38.323547,38.455612,38.89772,39.256447,39.680424,40.030407,40.28347,40.51712,40.784798,41.060226,41.306244,41.51493,41.679813,41.844868,42.022247,42.235123,42.45719,42.66565,42.86721,43.044678,43.210236,43.37623,43.53999,43.70406,43.863785,44.015633,44.168083,44.322433,44.46646,44.59514,44.709618,44.820843,44.9421,45.088142,45.227493,45.336082,45.415146,45.444427,45.427856,45.415573,45.429367,45.471817,45.51558,45.554276,45.58318,45.60009,45.59336,45.559807,45.497566,45.404194,45.290672,45.174263,45.06331,44.96087,44.857574,44.75357,44.64599,44.52649,44.413208,44.303295,44.19593,44.073376,43.92302,43.73887,43.51039,43.263176,42.998337,42.706223,42.40194,42.143547,41.960022,41.859333,41.8256,41.799194,41.753094,41.711517,41.671646,41.60739,41.488976,41.27391,40.991547,40.68601,40.407845,40.171803,39.974518,39.82154,39.69507,39.6024,39.53872,39.485977,39.43878,39.396736,39.3451,39.29322,39.25139,39.239433,39.267673,39.32988,39.418552,39.515507,39.606705,39.683475,39.745384,39.80252,39.85711,39.9095,39.964745,40.03206,40.124718,40.256653,40.42546,40.60765,40.786865,40.95197,41.101173,41.24247,41.37887,41.51326,41.657066,41.82151,42.01222,42.214256,42.401245,42.51722,42.57611,42.673264,42.832767,42.967968,42.83908,41.999832,40.304443,37.922897,34.647377,33.16232,32.466297,32.22383,32.220264,32.221878,32.16166,32.116898,32.13796,32.208214,32.28332,32.319923,32.31949,32.304634,32.302784,32.330276,32.38687,32.462967,32.5394,32.60918,32.667435,32.717484,32.76773,32.8209,32.876484,32.93003,32.9779,33.021046,33.06378,33.109707,33.163834,33.230316,33.313286,33.415802,33.541164,33.683247,33.828354,33.960175,34.06311,34.131187,34.160866,34.154755,34.11886,34.085686,34.091286,34.173615,34.350056,34.58635,34.83793,35.05853,35.221443,35.301315,35.329674,35.34176,35.370422,35.439873,35.54019,35.634384,35.678898,35.622932,35.50899,35.410225,35.38288,35.44316,35.51838,35.47175,35.192783,34.791576,34.410194,34.142212,34.000866,33.924553,33.8605,33.786964,33.71322,33.665455,33.64201,33.62992,33.619076,33.60537,33.588646,33.577023,33.573975,33.57801,33.588448,33.59897,33.60479,33.600624,33.58071,33.54792,33.509743,33.476128,33.451523,33.442036,33.446617,33.47425,33.545986,33.687828,33.912735,34.1869,34.487385,34.895405,35.655327,37.259563,39.855904,41.9027,43.43361,44.22966,44.276558,43.974003,43.68802,43.582436,43.615654,43.6879,43.74807,43.76621,43.771996,43.770645,43.75376,43.728928,43.687416,43.62131,43.541893,43.448715,43.360996,43.301193,43.266655,43.248367,43.225254,43.17576,43.11107,43.039177,42.97631,42.934006,42.892,42.841454,42.771065,42.67876,42.574497,42.470253,42.369335,42.278812,42.189972,42.08474,41.943016,41.754253,41.518402,41.258682,41.02938,40.832226,40.668,40.510345,40.370346,40.229942,40.09328,39.953148,39.822433,39.715866,39.628155,39.542786,39.46279,39.390488,39.32527,39.282127,39.26854,39.283882,39.314896,39.343887,39.349365,39.335304,39.30661,39.286537,39.248596
23.30987,25.030869,28.747646,34.021667,37.894188,38.86107,38.883522,39.144756,39.452766,39.843254,40.291786,40.66089,40.90137,41.159027,41.42222,41.676723,41.875366,42.04827,42.20996,42.394043,42.57728,42.75966,42.95161,43.128803,43.29599,43.46379,43.627052,43.789047,43.94612,44.09569,44.24757,44.403214,44.54974,44.679367,44.79429,44.9034,45.014458,45.1435,45.276733,45.39085,45.47911,45.527916,45.55078,45.5618,45.584244,45.632385,45.678635,45.718094,45.747032,45.763794,45.756653,45.723694,45.666733,45.582726,45.47981,45.374016,45.26919,45.165005,45.05474,44.941795,44.82462,44.697968,44.58229,44.482346,44.396706,44.296295,44.165318,44.00241,43.80605,43.59385,43.375114,43.11431,42.825607,42.59266,42.432476,42.345215,42.30725,42.27134,42.225735,42.217583,42.178223,42.119095,41.974907,41.675537,41.30852,40.941643,40.64926,40.428757,40.249603,40.129055,40.027702,39.954727,39.904297,39.869408,39.84697,39.82448,39.777504,39.71827,39.6612,39.633247,39.649506,39.70562,39.795883,39.896774,39.98892,40.059975,40.105965,40.13847,40.159706,40.170486,40.18562,40.215996,40.277744,40.3836,40.527184,40.684666,40.843403,40.999344,41.152077,41.31434,41.480827,41.645332,41.814888,42.000862,42.212196,42.437187,42.647453,42.78705,42.868923,42.987038,43.140724,43.256866,43.133045,42.29653,40.578274,38.225067,35.097183,33.503613,32.808846,32.569424,32.54622,32.545326,32.500828,32.469223,32.48655,32.54787,32.61801,32.6559,32.654533,32.637177,32.632256,32.65856,32.715157,32.789536,32.862823,32.921318,32.962914,32.998325,33.042553,33.102154,33.174427,33.250168,33.319107,33.37701,33.42739,33.47556,33.532585,33.607002,33.705486,33.830807,33.982067,34.14923,34.311832,34.44895,34.544334,34.592438,34.59082,34.543415,34.462456,34.392647,34.378624,34.46083,34.65346,34.908466,35.18602,35.425385,35.572163,35.626785,35.62787,35.629196,35.66505,35.757607,35.905262,36.050125,36.134964,36.15676,36.12999,36.030487,35.95636,35.974125,35.97123,35.787846,35.36351,34.852493,34.42166,34.13706,33.998344,33.930573,33.870464,33.795612,33.71725,33.665546,33.64091,33.63012,33.621918,33.611458,33.598793,33.59234,33.596394,33.607784,33.624725,33.639442,33.64607,33.63923,33.613594,33.573284,33.526417,33.48401,33.45103,33.433983,33.431236,33.44935,33.508263,33.635956,33.850014,34.12123,34.427498,34.847836,35.630447,37.28078,39.933655,42.037933,43.620377,44.40719,44.476555,44.170647,43.85402,43.726967,43.75271,43.82238,43.87876,43.8935,43.89377,43.883728,43.85154,43.812733,43.758793,43.681458,43.591747,43.487167,43.387856,43.31731,43.27464,43.252903,43.231956,43.191856,43.139442,43.08123,43.029396,42.995136,42.962074,42.920776,42.858177,42.774124,42.677513,42.58094,42.48461,42.392864,42.300385,42.18763,42.032333,41.82897,41.57087,41.278812,41.013153,40.781807,40.59295,40.422783,40.284615,40.151237,40.025978,39.899654,39.785748,39.700577,39.63158,39.56009,39.491684,39.427544,39.366375,39.32581,39.31467,39.329742,39.357048,39.379257,39.37908,39.35979,39.336464,39.327847,39.268143
21.929281,22.79057,24.469654,28.261127,33.61605,37.676216,39.034966,39.177433,39.46695,39.766384,40.134056,40.561813,40.974335,41.318382,41.53009,41.796646,42.00827,42.205727,42.387173,42.574867,42.730988,42.87976,43.059525,43.233353,43.40063,43.570923,43.736607,43.89913,44.054104,44.19348,44.33747,44.48098,44.61393,44.733337,44.840324,44.94377,45.052902,45.180153,45.316963,45.437874,45.531734,45.587303,45.622917,45.658905,45.704285,45.76233,45.80438,45.831352,45.844944,45.846115,45.826904,45.787685,45.734573,45.665535,45.585125,45.505447,45.424694,45.338913,45.239594,45.11366,44.979973,44.842323,44.722054,44.623283,44.54242,44.447144,44.31957,44.161613,43.977478,43.784492,43.590893,43.377586,43.158043,42.985172,42.857346,42.766113,42.692352,42.61914,42.560497,42.58277,42.602776,42.376396,42.09796,41.762466,41.325867,40.931038,40.60685,40.38244,40.217247,40.062393,39.90737,39.79271,39.723213,39.693718,39.685646,39.682495,39.665966,39.649345,39.64538,39.672306,39.73556,39.823944,39.91076,39.985096,40.05011,40.10544,40.164722,40.23259,40.302246,40.369522,40.39669,40.400932,40.43505,40.503853,40.600334,40.702324,40.81038,40.944775,41.110313,41.320404,41.551704,41.77842,41.996414,42.213684,42.443985,42.6888,42.924812,43.098434,43.22387,43.36519,43.4681,43.529625,43.38501,42.627926,40.875816,38.595215,35.707024,33.97683,33.282707,33.056927,33.051888,33.070583,33.047325,33.0282,33.049973,33.117783,33.200134,33.252014,33.258354,33.241486,33.232407,33.25421,33.306496,33.371944,33.428493,33.461876,33.476265,33.492226,33.532307,33.60706,33.708763,33.819996,33.918526,33.99046,34.037598,34.069267,34.108036,34.171913,34.27208,34.409626,34.576054,34.75225,34.919197,35.059433,35.139503,35.145206,35.07669,34.96687,34.82854,34.71151,34.670616,34.74518,34.94319,35.212013,35.503876,35.72943,35.85164,35.886124,35.878113,35.884678,35.93271,36.052498,36.247288,36.40519,36.510048,36.58171,36.59664,36.569473,36.54346,36.502228,36.39062,36.06702,35.510864,34.90289,34.425804,34.12538,33.98657,33.924427,33.86711,33.79188,33.711533,33.65897,33.635986,33.62892,33.625328,33.61992,33.61299,33.61326,33.62538,33.644516,33.66782,33.686424,33.693787,33.684647,33.654278,33.60794,33.5543,33.50467,33.463875,33.4381,33.425327,33.430172,33.47247,33.58258,33.78309,34.049168,34.358795,34.788372,35.589478,37.26851,39.956844,42.16207,43.783543,44.551163,44.622627,44.321053,43.987865,43.84189,43.860863,43.92932,43.983154,43.993057,43.985924,43.967403,43.92727,43.876072,43.811775,43.7246,43.625446,43.509872,43.398705,43.317142,43.26661,43.241425,43.221222,43.187687,43.1451,43.09859,43.05767,43.03357,43.01332,42.98763,42.94213,42.87603,42.79281,42.703903,42.610107,42.51264,42.408466,42.28344,42.111427,41.885468,41.601074,41.276764,40.977123,40.715363,40.505665,40.32442,40.186836,40.058296,39.94032,39.824738,39.727295,39.662914,39.61383,39.562115,39.50714,39.45204,39.396545,39.362,39.35623,39.373768,39.3982,39.412003,39.39969,39.368332,39.346443,39.308716,39.27565
