30.766796,30.85836,30.889544,30.902935,30.922516,30.961315,31.027285,31.099144,31.16859,31.23143,31.282526,31.332722,31.38412,31.43166,31.472084,31.51239,31.550026,31.581608,31.61112,31.639847,31.674408,31.710644,31.741997,31.765377,31.77407,31.771423,31.757885,31.73721,31.70708,31.672548,31.641228,31.619574,31.614971,31.621082,31.627796,31.635033,31.640392,31.646107,31.653297,31.657503,31.660488,31.660137,31.660305,31.66396,31.668663,31.669514,31.664192,31.647852,31.621807,31.586143,31.546463,31.504227,31.457321,31.406895,31.352606,31.303265,31.256287,31.209461,31.16752,31.127481,31.087208,31.048042,31.005947,30.961002,30.907501,30.819252,30.728176,30.651722,30.587353,30.525661,30.460884,30.396698,30.337078,30.295692,30.277542,30.286674,30.312813,30.334671,30.343468,30.337929,30.324972,30.312576,30.297024,30.27117,30.231127,30.170898,30.100061,30.029242,29.96798,29.927113,29.908041,29.905338,29.904985,29.899137,29.890224,29.883633,29.891022,29.909172,29.92849,29.942953,29.946066,29.941614,29.937904,29.943245,29.96411,30.00222,30.053616,30.111732,30.17385,30.222115,30.244091,30.238487,30.20566,30.16144,30.120937,30.093113,30.077915,30.082195,30.112751,30.130825,30.126263,30.138847,30.16687,30.14703,30.116425,30.017803,29.861694,29.5906,28.864864,26.027267,23.970982,22.86182,22.510073,22.28748,22.274061,22.283577,22.215904,22.085527,21.951038,21.861265,21.826187,21.822098,21.824957,21.82061,21.808239,21.795183,21.785675,21.780617,21.779354,21.776024,21.766914,21.750824,21.728157,21.701267,21.670784,21.63678,21.59924,21.559845,21.524601,21.499128,21.489136,21.495358,21.513283,21.537104,21.563396,21.594227,21.628725,21.666443,21.702269,21.733015,21.75938,21.783638,21.811054,21.843517,21.88078,21.918617,21.951538,21.978447,22.000463,22.023712,22.049822,22.080713,22.116644,22.157513,22.20295,22.249832,22.295061,22.33585,22.371834,22.406582,22.44247,22.479683,22.517513,22.556026,22.597569,22.640987,22.685574,22.729801,22.7725,22.812092,22.84747,22.877506,22.900826,22.916172,22.922613,22.918903,22.905731,22.88676,22.868525,22.857182,22.857529,22.86766,22.880919,22.889784,22.893734,22.908508,22.96299,23.072863,23.227234,23.35485,23.385548,23.338903,23.321953,23.496405,24.122972,25.752012,28.150372,29.38528,29.720955,29.820467,29.756145,29.63181,29.547337,29.488255,29.494839,29.540302,29.586666,29.62785,29.675396,29.718853,29.750435,29.775705,29.79192,29.796867,29.788868,29.77541,29.758217,29.74027,29.737225,29.740513,29.74176,29.724209,29.68173,29.635319,29.61285,29.625233,29.662205,29.666435,29.640224,29.610249,29.578033,29.552887,29.533024,29.505322,29.448757,29.312716,29.104546,28.912285,28.757195,28.584978,28.040619,25.951399,22.916016,21.511457,21.155941,21.04896,21.080828,21.206188,21.478214,22.01136,23.29245,25.312103,27.416948,28.221193,28.67654,28.962875,29.135693,29.253784,29.302986,29.267517,29.255272,29.268805,29.301153,29.326824,29.351488,29.380838,29.417795,29.466534,29.512838,29.562637,29.610683,29.652012,29.674398,29.686089,29.698673,29.709068,29.719164,29.732338,29.75362
29.824562,29.877922,29.897995,29.913528,29.939587,29.982546,30.044699,30.111284,30.177101,30.237385,30.290249,30.344967,30.40213,30.457966,30.506659,30.554531,30.600283,30.64235,30.68216,30.719334,30.759958,30.801964,30.837042,30.86166,30.871744,30.870304,30.858477,30.839054,30.812328,30.782743,30.758102,30.744257,30.747387,30.76165,30.778326,30.793144,30.802135,30.809147,30.81523,30.81667,30.815886,30.812244,30.809101,30.808891,30.808626,30.803413,30.790363,30.766193,30.732597,30.693,30.653053,30.606575,30.555058,30.501186,30.437967,30.34528,30.248604,30.166004,30.065693,29.96012,29.855759,29.75101,29.638903,29.522717,29.410355,29.309143,29.23727,29.187458,29.150824,29.121994,29.09634,29.072826,29.051,29.040073,29.041721,29.057724,29.082928,29.104378,29.116459,29.120163,29.117517,29.113607,29.104954,29.0876,29.063576,29.031729,28.992401,28.950779,28.914108,28.890385,28.881723,28.884754,28.888933,28.889446,28.889229,28.892864,28.910347,28.937397,28.965115,28.9879,29.000557,29.00794,29.0172,29.034164,29.061726,29.099503,29.145275,29.193485,29.241478,29.28739,29.318642,29.331177,29.32042,29.29491,29.26658,29.245293,29.23676,29.252441,29.297195,29.355362,29.408978,29.438892,29.493107,29.552494,29.52068,29.413496,29.247639,28.998436,28.02605,25.479643,23.737751,22.830894,22.461895,22.298512,22.282555,22.26887,22.171251,22.028217,21.904371,21.837986,21.828148,21.842144,21.852013,21.844997,21.824295,21.802095,21.784973,21.774992,21.771027,21.76691,21.75919,21.746113,21.727129,21.703451,21.67532,21.642956,21.607012,21.569515,21.536112,21.512154,21.502916,21.509277,21.52673,21.549831,21.57544,21.605892,21.641228,21.681183,21.720774,21.756104,21.786613,21.813759,21.842163,21.874058,21.909943,21.946815,21.980658,22.010838,22.037857,22.066025,22.095678,22.12809,22.163908,22.204107,22.248558,22.295033,22.341093,22.384129,22.423977,22.46402,22.506416,22.551018,22.596958,22.640997,22.686567,22.733223,22.77966,22.824339,22.86615,22.903679,22.9364,22.963875,22.98502,22.998474,23.003609,22.996487,22.974205,22.945272,22.917904,22.899025,22.894264,22.902058,22.915451,22.924969,22.926079,22.931875,22.971313,23.065868,23.214134,23.348797,23.393436,23.349892,23.31302,23.491875,24.095272,25.567104,27.855068,29.088783,29.46658,29.565617,29.498436,29.379538,29.295805,29.268042,29.268831,29.298996,29.323536,29.340986,29.368435,29.399166,29.421387,29.440994,29.461502,29.479477,29.489132,29.48816,29.479,29.474377,29.47115,29.471882,29.472752,29.45308,29.412476,29.375633,29.372223,29.399704,29.41322,29.393618,29.376343,29.352394,29.323399,29.296173,29.27147,29.241467,29.18548,29.074656,28.872276,28.675201,28.512302,28.334839,27.837683,26.022488,23.062996,21.55635,21.178455,21.074326,21.09486,21.235895,21.484694,21.969566,23.075367,24.78149,27.005032,27.818954,28.267918,28.552147,28.721853,28.848545,28.921339,28.921623,28.915077,28.930927,28.95813,28.975521,28.99299,29.017456,29.050888,29.09208,29.114859,29.147106,29.183136,29.21479,29.229912,29.23796,29.250896,29.264439,29.27634,29.288769,29.30749
28.525833,28.526543,28.525845,28.542664,28.578846,28.627539,28.678812,28.723972,28.769978,28.81784,28.86789,28.92743,28.995384,29.067179,29.131111,29.189064,29.237686,29.279963,29.321962,29.364546,29.412128,29.453396,29.476795,29.486324,29.48453,29.48257,29.479832,29.473215,29.464544,29.449192,29.431263,29.418316,29.419878,29.43694,29.464039,29.493422,29.513313,29.518044,29.508785,29.485933,29.462574,29.438702,29.392456,29.356686,29.326342,29.289673,29.240244,29.179548,29.11726,29.05199,28.979849,28.897173,28.804657,28.712685,28.625282,28.541246,28.46854,28.41277,28.371542,28.335577,28.300377,28.264894,28.223576,28.176708,28.12894,28.085331,28.054794,28.035915,28.027653,28.026617,28.029325,28.033533,28.036198,28.041487,28.052877,28.074139,28.102846,28.12996,28.150064,28.162401,28.169178,28.175175,28.177979,28.17603,28.16975,28.156435,28.137636,28.115501,28.094095,28.079842,28.075558,28.079449,28.083961,28.085995,28.089323,28.098255,28.121363,28.15251,28.182642,28.206886,28.221844,28.233685,28.248669,28.270853,28.301113,28.338425,28.381687,28.427658,28.473904,28.515354,28.546272,28.565336,28.569677,28.561329,28.546535,28.53434,28.53323,28.55594,28.607521,28.671272,28.721214,28.746933,28.784256,28.9454,28.955988,28.851665,28.687218,28.44675,27.334352,25.160583,23.62008,22.841732,22.43166,22.303867,22.285723,22.250671,22.13601,21.994038,21.88855,21.846008,21.856525,21.881218,21.890526,21.875092,21.84287,21.810284,21.7855,21.770725,21.764072,21.759151,21.753002,21.743414,21.728828,21.70911,21.683979,21.653797,21.620075,21.585289,21.554626,21.532904,21.524773,21.531128,21.547932,21.570385,21.595684,21.626097,21.66224,21.704067,21.74692,21.786503,21.821068,21.85132,21.881126,21.9131,21.948359,21.984997,22.020416,22.054367,22.086971,22.12061,22.154202,22.18803,22.223072,22.261139,22.302418,22.345642,22.389269,22.432135,22.473873,22.5144,22.555868,22.600594,22.647408,22.695,22.743767,22.791714,22.83789,22.88124,22.921072,22.956455,22.987434,23.01397,23.035076,23.048725,23.0532,23.046886,23.030376,23.008394,22.983398,22.960981,22.952293,22.957355,22.969017,22.976395,22.971733,22.96619,22.988575,23.065308,23.203262,23.340305,23.398544,23.368526,23.333351,23.520267,24.129442,25.508535,27.619572,28.795248,29.184845,29.288986,29.225525,29.115341,29.035261,29.035854,29.05722,29.071173,29.074284,29.06902,29.074986,29.08862,29.102957,29.121964,29.14554,29.169615,29.1867,29.190578,29.181799,29.172676,29.181025,29.18742,29.189396,29.175259,29.143932,29.118458,29.122818,29.125256,29.103516,29.090446,29.076132,29.054329,29.025318,28.99511,28.96695,28.937857,28.886951,28.789934,28.607056,28.40825,28.238396,28.054935,27.60177,26.047413,23.195568,21.619316,21.174158,21.068047,21.10125,21.253283,21.475101,21.88632,22.819456,24.244434,26.44388,27.347626,27.792011,28.074112,28.242779,28.376762,28.474552,28.5312,28.530697,28.549881,28.573257,28.584486,28.597218,28.619179,28.651772,28.685406,28.699469,28.720741,28.746132,28.768396,28.777367,28.783161,28.796894,28.813507,28.827942,28.841549,28.860771
26.609123,26.596754,26.601631,26.626684,26.660275,26.692661,26.716312,26.729572,26.743404,26.752644,26.760624,26.777039,26.804998,26.846832,26.892433,26.944914,26.99936,27.056725,27.116451,27.173046,27.22999,27.27903,27.309242,27.324532,27.326942,27.33273,27.343363,27.355526,27.366457,27.373383,27.381516,27.396019,27.423674,27.460762,27.497019,27.523037,27.528366,27.511633,27.478958,27.433798,27.38701,27.345505,27.310356,27.287416,27.272738,27.260098,27.244072,27.226734,27.21333,27.202675,27.190628,27.17398,27.150723,27.124691,27.101593,27.083603,27.075031,27.076845,27.086544,27.099022,27.111973,27.124737,27.132639,27.134249,27.132303,27.130299,27.133896,27.142042,27.155619,27.174042,27.19502,27.215652,27.232178,27.2468,27.263582,27.287443,27.318033,27.349323,27.376749,27.399063,27.41719,27.434658,27.4489,27.459135,27.46644,27.46856,27.465996,27.459332,27.45022,27.443851,27.443283,27.447823,27.451918,27.453777,27.457773,27.468307,27.493088,27.52494,27.554905,27.578709,27.594418,27.608902,27.627613,27.652954,27.684189,27.719975,27.760036,27.802921,27.847336,27.88972,27.92543,27.95344,27.965984,27.965565,27.959433,27.955912,27.962238,27.992077,28.050097,28.119864,28.17291,28.200178,28.237413,28.377007,28.434395,28.355145,28.195684,27.966297,26.823044,24.980194,23.599007,22.823433,22.428822,22.311214,22.285538,22.235565,22.115719,21.983494,21.897703,21.874683,21.898378,21.926994,21.931194,21.90578,21.86272,21.821335,21.79054,21.772049,21.763142,21.757355,21.752245,21.745575,21.734901,21.719015,21.697098,21.669611,21.638859,21.607666,21.580666,21.561943,21.555374,21.561867,21.578144,21.600355,21.626133,21.657387,21.694908,21.738758,21.784515,21.827759,21.865837,21.898876,21.93026,21.962908,21.998241,22.03512,22.072227,22.109814,22.147552,22.185966,22.222828,22.257336,22.290623,22.324991,22.360058,22.395538,22.43254,22.470066,22.507965,22.548279,22.592373,22.639662,22.68903,22.73872,22.788223,22.835327,22.879478,22.920214,22.957535,22.991062,23.021225,23.048515,23.072075,23.089535,23.098188,23.095806,23.082558,23.062576,23.04229,23.02828,23.02623,23.034212,23.043308,23.045868,23.032974,23.01473,23.01959,23.077034,23.199608,23.331406,23.400425,23.391922,23.378002,23.574749,24.2086,25.509418,27.41272,28.505726,28.884003,28.984922,28.926517,28.828224,28.755432,28.756065,28.77901,28.805943,28.819336,28.793564,28.783768,28.784916,28.790518,28.80395,28.824953,28.84858,28.865894,28.868605,28.855713,28.839493,28.837982,28.84633,28.84772,28.835728,28.810677,28.792553,28.792053,28.762486,28.743149,28.72799,28.711407,28.687115,28.654877,28.620638,28.589878,28.563889,28.521196,28.436098,28.276405,28.082186,27.908005,27.719618,27.301208,25.954063,23.29308,21.688797,21.177334,21.069948,21.11127,21.260086,21.447174,21.790411,22.567015,23.748539,25.666655,26.806461,27.25505,27.535357,27.70514,27.8441,27.954634,28.0457,28.090412,28.110283,28.132475,28.141405,28.153275,28.176243,28.211338,28.23383,28.243912,28.261368,28.281517,28.29882,28.305517,28.311527,28.32668,28.345573,28.361982,28.376816,28.39746
25.260654,25.260998,25.27415,25.297848,25.324047,25.345217,25.355629,25.356583,25.358183,25.357752,25.35933,25.367424,25.38255,25.404667,25.431866,25.465996,25.502632,25.541832,25.585766,25.629461,25.670353,25.703957,25.727081,25.743877,25.759274,25.780136,25.810167,25.84379,25.876116,25.902111,25.925652,25.950638,25.982132,26.0195,26.05692,26.086823,26.09901,26.090668,26.06756,26.03524,26.003613,25.978626,25.960155,25.952291,25.951721,25.954845,25.957819,25.964075,25.97802,25.998474,26.020258,26.039764,26.054802,26.068604,26.086327,26.10934,26.13935,26.175468,26.214697,26.253609,26.291702,26.328957,26.361912,26.389002,26.412487,26.435192,26.460594,26.486868,26.514757,26.544813,26.57564,26.604467,26.627922,26.647045,26.665749,26.689554,26.719143,26.750711,26.780663,26.808022,26.833055,26.85837,26.881086,26.899965,26.91616,26.927912,26.935585,26.939625,26.940506,26.942158,26.94722,26.95501,26.960888,26.963867,26.96891,26.980991,27.00749,27.04113,27.072939,27.09885,27.117302,27.1349,27.156677,27.184242,27.21595,27.250313,27.287457,27.326668,27.367304,27.407001,27.442516,27.473663,27.492931,27.50101,27.50313,27.508705,27.523369,27.561146,27.626095,27.702103,27.76376,27.800056,27.840702,27.951,27.995426,27.923443,27.77707,27.558754,26.481895,24.864716,23.661427,22.818546,22.444876,22.327866,22.292881,22.235884,22.118916,21.997887,21.925762,21.912697,21.940104,21.9665,21.964422,21.931799,21.882782,21.837364,21.804306,21.784464,21.774536,21.768246,21.763744,21.759052,21.751305,21.738693,21.720058,21.695885,21.66906,21.642445,21.620037,21.60496,21.600174,21.606644,21.622097,21.64384,21.6703,21.703,21.742548,21.788774,21.837141,21.883297,21.924107,21.959488,21.992262,22.025711,22.061779,22.09974,22.138794,22.1792,22.220705,22.259888,22.292706,22.322048,22.349113,22.375668,22.403214,22.432728,22.464722,22.499466,22.536823,22.57774,22.622581,22.670374,22.720207,22.77052,22.820148,22.866583,22.909328,22.948486,22.984844,23.018347,23.049843,23.080261,23.10927,23.134193,23.152172,23.15916,23.153193,23.140017,23.124798,23.113316,23.110386,23.1156,23.123676,23.125736,23.11484,23.087193,23.076637,23.11523,23.219162,23.339375,23.411724,23.425495,23.448475,23.657242,24.279488,25.539743,27.237104,28.204197,28.554037,28.636948,28.583794,28.4973,28.432745,28.432566,28.448708,28.465343,28.478638,28.480732,28.45784,28.44967,28.44644,28.45111,28.463596,28.478905,28.488686,28.484482,28.464073,28.43785,28.423233,28.404919,28.39068,28.37056,28.341454,28.318544,28.320044,28.32331,28.298275,28.277689,28.25423,28.223034,28.184376,28.144722,28.111185,28.08818,28.05743,27.985659,27.846697,27.66743,27.492445,27.303562,26.908566,25.650255,23.260368,21.760239,21.19767,21.074617,21.121704,21.261063,21.417253,21.698792,22.330757,23.351934,24.872282,26.234135,26.678673,26.953384,27.122637,27.26188,27.372425,27.478024,27.56612,27.598595,27.61187,27.60604,27.618427,27.649584,27.680439,27.699196,27.717087,27.740976,27.765633,27.786886,27.798958,27.809963,27.828053,27.84811,27.864641,27.878754,27.899006
24.37498,24.384735,24.400919,24.421396,24.442234,24.459267,24.467892,24.469738,24.472618,24.475258,24.480999,24.49068,24.504505,24.522228,24.536839,24.55275,24.573563,24.601568,24.632656,24.664478,24.694479,24.718992,24.736872,24.752415,24.772057,24.801006,24.840881,24.884598,24.925913,24.959423,24.988169,25.01595,25.046986,25.082417,25.119051,25.150784,25.169079,25.170834,25.161049,25.146244,25.135015,25.13139,25.133171,25.142044,25.155025,25.170656,25.186861,25.20808,25.238087,25.275455,25.314907,25.353,25.388489,25.424236,25.464893,25.510399,25.55983,25.611462,25.661747,25.708853,25.753548,25.796497,25.835474,25.869797,25.90229,25.935673,25.97214,26.00867,26.044773,26.080952,26.116257,26.148268,26.17435,26.194933,26.213486,26.235432,26.261877,26.290321,26.318424,26.345839,26.372799,26.401417,26.428392,26.451508,26.471823,26.48808,26.501087,26.51192,26.520695,26.530182,26.541855,26.554497,26.563538,26.56847,26.574865,26.58835,26.616241,26.651768,26.686039,26.714954,26.736935,26.75764,26.781918,26.81105,26.84306,26.876247,26.910633,26.945442,26.980204,27.013695,27.044144,27.072657,27.092928,27.104713,27.113811,27.125595,27.146135,27.189224,27.25795,27.336313,27.404587,27.447538,27.475597,27.566341,27.597776,27.529875,27.402111,27.196644,26.257801,24.781483,23.712597,22.87629,22.49409,22.364946,22.317654,22.25642,22.144882,22.032845,21.96724,21.955215,21.978472,21.998438,21.990234,21.953606,21.902977,21.857273,21.824451,21.804634,21.794174,21.78727,21.782602,21.778645,21.772526,21.762321,21.746662,21.726118,21.70374,21.682232,21.664911,21.6539,21.651247,21.658043,21.67295,21.694574,21.722033,21.756414,21.797485,21.845276,21.895227,21.94233,21.98352,22.01949,22.053144,22.087286,22.12248,22.158043,22.193352,22.228355,22.262928,22.297138,22.32901,22.356886,22.381847,22.406338,22.430983,22.457638,22.4875,22.521553,22.559622,22.601938,22.648224,22.696938,22.747034,22.797073,22.845707,22.890789,22.932106,22.96998,23.005726,23.039455,23.072369,23.10571,23.139536,23.171116,23.19682,23.21375,23.221416,23.222477,23.2199,23.21708,23.215118,23.215834,23.217155,23.210884,23.18969,23.164114,23.153584,23.178106,23.258457,23.351284,23.412502,23.446163,23.503296,23.744102,24.346764,25.556494,27.0484,27.855846,28.16016,28.21966,28.16895,28.088829,28.030954,28.027897,28.036144,28.043571,28.048735,28.049065,28.038391,28.022308,28.011774,28.007317,28.009052,28.012974,28.012127,27.998829,27.970715,27.924725,27.873993,27.832975,27.801323,27.767282,27.728676,27.696682,27.68328,27.683771,27.705378,27.714846,27.692326,27.65649,27.612507,27.570955,27.537518,27.516893,27.493713,27.434212,27.30989,27.155243,26.986786,26.804115,26.423477,25.174587,23.175438,21.816715,21.225925,21.089066,21.130604,21.25999,21.391357,21.612278,22.125801,22.991581,24.139217,25.639412,26.090706,26.352833,26.517044,26.64912,26.747437,26.84323,26.934929,26.972221,26.95282,26.94711,26.96576,27.006939,27.050236,27.081913,27.11172,27.145006,27.178005,27.207136,27.22795,27.246853,27.269241,27.28989,27.30574,27.319489,27.337446
23.853552,23.86628,23.88144,23.898647,23.916836,23.933125,23.944279,23.95289,23.963753,23.976463,23.993279,24.012745,24.031322,24.043896,24.051483,24.061512,24.07502,24.095905,24.12336,24.152683,24.179241,24.200047,24.215334,24.230062,24.252625,24.287304,24.334389,24.383778,24.426945,24.461582,24.49094,24.518726,24.548706,24.582657,24.618515,24.651482,24.675064,24.68679,24.690771,24.693539,24.70138,24.716408,24.735415,24.75756,24.779839,24.802628,24.8255,24.853077,24.888464,24.93005,24.971786,25.009794,25.046074,25.083252,25.125303,25.171558,25.22019,25.268719,25.314281,25.356113,25.395515,25.432781,25.466476,25.497234,25.528835,25.56416,25.604752,25.646456,25.686844,25.725883,25.762712,25.795437,25.8223,25.84325,25.860569,25.879902,25.902493,25.926449,25.950611,25.975296,26.001198,26.030575,26.059505,26.082996,26.10337,26.119991,26.134682,26.14934,26.16414,26.180828,26.199207,26.217167,26.229591,26.236383,26.243477,26.257164,26.284649,26.320168,26.355217,26.385754,26.409988,26.432386,26.457733,26.487371,26.519207,26.55114,26.582594,26.612144,26.63914,26.663265,26.684269,26.70467,26.719973,26.729668,26.739166,26.752193,26.773405,26.816055,26.882008,26.955341,27.020027,27.057606,27.068142,27.126984,27.194263,27.146809,27.03992,26.850716,26.094685,24.74833,23.778568,23.004421,22.596268,22.441181,22.374477,22.305809,22.196552,22.087795,22.020498,22.00129,22.01442,22.025646,22.012415,21.974604,21.92537,21.881596,21.850155,21.8307,21.81954,21.811447,21.8056,21.800976,21.794949,21.785881,21.772507,21.755314,21.737272,21.720638,21.708061,21.700867,21.700413,21.707932,21.722763,21.744413,21.772236,21.806759,21.847713,21.894484,21.941254,21.978436,22.008736,22.037493,22.067083,22.099766,22.136063,22.173927,22.21178,22.24961,22.287086,22.323761,22.3573,22.386112,22.411415,22.435362,22.458725,22.483948,22.512777,22.546986,22.586374,22.630527,22.678455,22.727951,22.777859,22.82726,22.874956,22.919365,22.96042,22.998627,23.035744,23.071785,23.108154,23.146137,23.186176,23.2257,23.260725,23.287376,23.304108,23.312927,23.315525,23.314236,23.311754,23.308922,23.305017,23.295378,23.275114,23.252192,23.23042,23.239399,23.292706,23.359756,23.410192,23.456955,23.547777,23.820076,24.393856,25.53776,26.815865,27.452724,27.69434,27.730839,27.681007,27.599834,27.546349,27.5383,27.538069,27.537369,27.5355,27.521593,27.487812,27.468914,27.45293,27.437603,27.422451,27.4128,27.399303,27.369354,27.316685,27.253586,27.196152,27.143377,27.096241,27.049248,27.001858,26.962368,26.938461,26.922594,26.91819,26.912918,26.902122,26.878939,26.851002,26.844452,26.846317,26.841639,26.819729,26.786255,26.683788,26.557396,26.41914,26.249226,25.8677,24.582117,23.022446,21.825033,21.252388,21.100134,21.138317,21.25729,21.369703,21.544624,21.949646,22.643425,23.51585,24.697392,25.493715,25.759636,25.911152,26.02183,26.095778,26.165146,26.199524,26.21009,26.21995,26.23494,26.266983,26.317001,26.354416,26.374638,26.40136,26.43901,26.479591,26.51783,26.550568,26.591522,26.636486,26.665848,26.681965,26.693918,26.710941
23.49608,23.505894,23.515593,23.527225,23.54158,23.559223,23.577782,23.59602,23.615944,23.637905,23.663538,23.6908,23.718014,23.742008,23.757986,23.772568,23.786474,23.802326,23.820555,23.840015,23.860222,23.879642,23.898758,23.920341,23.948853,23.986141,24.03048,24.076517,24.11853,24.152065,24.181705,24.210474,24.241455,24.275743,24.311136,24.344307,24.37107,24.39035,24.4054,24.421562,24.443018,24.470406,24.500015,24.52967,24.555723,24.580132,24.603443,24.62968,24.661407,24.696705,24.733013,24.768448,24.803017,24.839615,24.88185,24.927853,24.974356,25.018387,25.056805,25.089893,25.119503,25.146477,25.170822,25.194546,25.221409,25.254093,25.294426,25.337597,25.379702,25.419659,25.456116,25.487453,25.513006,25.532696,25.547974,25.563824,25.581017,25.59813,25.615099,25.633204,25.65363,25.678474,25.704601,25.7284,25.74852,25.76329,25.777254,25.793182,25.811405,25.83279,25.855797,25.877361,25.892103,25.900002,25.906994,25.91946,25.944283,25.977058,26.010216,26.040106,26.064835,26.087452,26.11257,26.14175,26.172892,26.203438,26.232159,26.2569,26.276611,26.291681,26.303051,26.3143,26.322758,26.327835,26.33182,26.341663,26.358635,26.394596,26.450872,26.512695,26.561552,26.580597,26.569729,26.586226,26.722435,26.73595,26.652668,26.49618,25.91335,24.76526,23.841228,23.186205,22.7533,22.561092,22.46711,22.385214,22.27304,22.161907,22.086773,22.054752,22.05385,22.055096,22.038023,22.001202,21.955639,21.915493,21.886387,21.867554,21.855467,21.845356,21.83707,21.830029,21.822086,21.812426,21.799988,21.785257,21.770758,21.75821,21.749664,21.745895,21.747393,21.755503,21.769657,21.789818,21.816341,21.849298,21.881504,21.914143,21.947748,21.98028,22.009949,22.038101,22.068172,22.102304,22.140652,22.180916,22.221626,22.26262,22.30329,22.342922,22.378885,22.409706,22.43667,22.461601,22.48534,22.510685,22.539925,22.575603,22.61759,22.664902,22.71583,22.767323,22.818012,22.867636,22.915579,22.960808,23.003403,23.044048,23.08487,23.125565,23.167408,23.21163,23.258896,23.306858,23.351448,23.387777,23.413338,23.42935,23.436264,23.43534,23.429031,23.419346,23.407557,23.389725,23.360937,23.32817,23.304604,23.302938,23.331524,23.370384,23.409027,23.469166,23.584358,23.855309,24.391949,25.458176,26.523249,27.001213,27.175781,27.18772,27.131462,27.04742,26.996662,26.981735,26.969936,26.952213,26.91215,26.835217,26.76674,26.726757,26.69363,26.667929,26.651901,26.642063,26.628807,26.603062,26.558216,26.501835,26.443905,26.384449,26.326572,26.270775,26.217287,26.17223,26.140278,26.114162,26.098549,26.081709,26.05824,26.023071,25.984358,25.957115,25.957586,26.015772,26.021122,25.969055,25.91658,25.879177,25.784908,25.619349,25.144865,23.960505,22.817553,21.796627,21.269978,21.108189,21.143913,21.251137,21.347855,21.48661,21.802185,22.334822,23.018768,23.856455,24.728556,25.147758,25.287714,25.365458,25.369503,25.377205,25.408398,25.434841,25.46377,25.480778,25.48663,25.520063,25.558289,25.58672,25.618053,25.655537,25.69495,25.733315,25.76805,25.805786,25.844347,25.875097,25.894527,25.908627,25.929676
23.220188,23.229855,23.239819,23.252598,23.268986,23.289997,23.314503,23.339985,23.366653,23.394781,23.424961,23.455185,23.48418,23.507797,23.52293,23.536533,23.549541,23.564255,23.580763,23.598442,23.616785,23.63488,23.653234,23.674057,23.701286,23.7354,23.77528,23.816673,23.854336,23.885014,23.913158,23.941605,23.973295,24.00863,24.045197,24.079947,24.110458,24.136051,24.158722,24.18305,24.211456,24.244444,24.279099,24.312359,24.34064,24.366165,24.390152,24.416245,24.446045,24.477745,24.50893,24.538008,24.566133,24.5965,24.632462,24.671753,24.710392,24.745712,24.774914,24.79891,24.81977,24.83832,24.855364,24.873508,24.896606,24.92706,24.965519,25.006193,25.04556,25.082714,25.116074,25.144253,25.167313,25.18517,25.198555,25.211544,25.224512,25.23627,25.24739,25.259678,25.274418,25.293629,25.314453,25.333246,25.350357,25.364426,25.376856,25.39217,25.410639,25.432648,25.456108,25.477894,25.492874,25.500677,25.506744,25.516611,25.536335,25.562923,25.590546,25.616562,25.639324,25.660664,25.684618,25.712574,25.742504,25.771671,25.798471,25.8204,25.836224,25.846579,25.852917,25.858997,25.863224,25.864937,25.864326,25.865185,25.873875,25.898924,25.940487,25.985144,26.01269,26.006104,25.969318,25.95403,26.022976,26.202015,26.209648,26.102612,25.644566,24.74427,23.916042,23.346153,22.960167,22.73053,22.602402,22.499084,22.378487,22.261242,22.175312,22.128132,22.111206,22.101254,22.080082,22.045605,22.00538,21.970238,21.944118,21.92592,21.912285,21.89883,21.885921,21.873861,21.861803,21.849623,21.836369,21.822338,21.809258,21.798138,21.790867,21.788425,21.789057,21.794594,21.804184,21.818642,21.837372,21.860563,21.888744,21.920492,21.951977,21.981441,22.008175,22.034746,22.064922,22.100311,22.140635,22.183372,22.227276,22.272167,22.317043,22.360767,22.40028,22.434267,22.463974,22.490839,22.51588,22.542252,22.5729,22.611237,22.657331,22.709738,22.765793,22.821384,22.874977,22.926893,22.977133,23.025131,23.071068,23.115847,23.16188,23.208534,23.256712,23.307701,23.36191,23.416508,23.468616,23.51226,23.544067,23.564676,23.573256,23.569647,23.556337,23.53717,23.51633,23.491367,23.457119,23.418098,23.382397,23.365704,23.375484,23.395,23.420986,23.476948,23.592976,23.864485,24.374874,25.313393,26.174988,26.520138,26.6295,26.619583,26.547089,26.469955,26.406488,26.375866,26.330921,26.243118,26.122414,26.020367,25.958168,25.918676,25.88779,25.866913,25.855793,25.849375,25.839325,25.818785,25.78146,25.73232,25.677254,25.6175,25.555347,25.499691,25.446037,25.39722,25.35564,25.317398,25.29292,25.272636,25.248291,25.209099,25.160759,25.12752,25.119453,25.140564,25.176628,25.168365,25.12088,25.04849,24.953083,24.728977,24.19432,23.375496,22.55371,21.738796,21.264515,21.114174,21.14453,21.236637,21.317623,21.426384,21.667606,22.06668,22.606361,23.173233,23.793879,24.287731,24.499998,24.539608,24.520748,24.535572,24.586956,24.63843,24.667645,24.681614,24.705448,24.74582,24.788734,24.826641,24.864098,24.89508,24.926224,24.957087,24.984917,25.016136,25.047365,25.07341,25.092342,25.109076,25.13199
22.981495,22.990341,23.000134,23.01344,23.030674,23.053417,23.08125,23.11073,23.140543,23.170712,23.201454,23.231329,23.26012,23.283306,23.29842,23.312054,23.325039,23.339216,23.35453,23.370878,23.388126,23.405777,23.424244,23.444916,23.470514,23.500362,23.534,23.569035,23.601347,23.628689,23.655144,23.683098,23.71513,23.750679,23.786943,23.82123,23.85245,23.88026,23.90556,23.931732,23.960083,23.991417,24.02421,24.055454,24.081854,24.105415,24.127449,24.15078,24.176113,24.201916,24.226265,24.248041,24.268919,24.292156,24.320656,24.352198,24.382692,24.410007,24.431984,24.449856,24.465479,24.479366,24.492569,24.507586,24.527489,24.553732,24.587269,24.623152,24.657402,24.689625,24.718218,24.742304,24.762432,24.778465,24.790554,24.801771,24.812183,24.820755,24.828321,24.83666,24.847,24.861078,24.876629,24.890907,24.904078,24.91631,24.929134,24.944008,24.961182,24.981056,25.002079,25.021969,25.03611,25.043337,25.048449,25.05586,25.07052,25.090609,25.112276,25.133593,25.153149,25.172344,25.1943,25.220219,25.248201,25.275166,25.299564,25.31948,25.333632,25.342587,25.347761,25.352604,25.355923,25.357084,25.355034,25.350794,25.346027,25.357397,25.381432,25.404564,25.41724,25.395145,25.336662,25.290186,25.319775,25.452942,25.611069,25.589432,25.275194,24.6473,23.96297,23.464626,23.121222,22.905926,22.754192,22.632278,22.504654,22.38087,22.28397,22.221657,22.188488,22.165337,22.138283,22.105064,22.069668,22.039124,22.015158,21.996265,21.979515,21.961391,21.94231,21.922338,21.90249,21.884735,21.867779,21.851212,21.83565,21.821438,21.810196,21.802948,21.801498,21.806963,21.817968,21.833424,21.85239,21.874996,21.901276,21.930023,21.957771,21.983309,22.00676,22.03152,22.06163,22.098042,22.139954,22.184841,22.231775,22.280617,22.329937,22.378048,22.421349,22.458767,22.491531,22.520863,22.548061,22.576452,22.609173,22.651054,22.702745,22.76241,22.825897,22.887579,22.94596,23.001911,23.056217,23.108349,23.158154,23.206638,23.25637,23.306557,23.357876,23.411644,23.46949,23.532572,23.593977,23.645481,23.682875,23.70649,23.714235,23.706474,23.684933,23.654789,23.623001,23.587692,23.544762,23.498837,23.459084,23.4367,23.436974,23.44379,23.456905,23.500977,23.612518,23.865007,24.320827,25.092648,25.778118,26.018837,26.064457,26.028215,25.95691,25.857119,25.721922,25.646355,25.563313,25.455055,25.344572,25.255157,25.199486,25.164742,25.138283,25.122952,25.116142,25.10937,25.096909,25.075356,25.04086,24.996595,24.946142,24.895035,24.839617,24.780787,24.72105,24.665886,24.617638,24.573809,24.542307,24.511017,24.473118,24.429413,24.38372,24.342953,24.324812,24.33521,24.34815,24.317238,24.242996,24.13184,23.995712,23.78955,23.41341,22.879751,22.26837,21.636402,21.241755,21.11404,21.13778,21.21325,21.279036,21.36343,21.544346,21.835419,22.244816,22.652851,23.054863,23.411312,23.600353,23.684853,23.730503,23.793266,23.866062,23.921947,23.94952,23.96589,23.988369,24.023817,24.058327,24.088531,24.122978,24.158129,24.193415,24.22493,24.249989,24.276564,24.30132,24.323694,24.34293,24.361698,24.384785
22.727505,22.735943,22.745647,22.758883,22.775747,22.797976,22.825718,22.855171,22.88408,22.91225,22.93987,22.966429,22.992685,23.014305,23.028973,23.042389,23.055016,23.068184,23.081865,23.096487,23.112362,23.12923,23.147388,23.167458,23.19095,23.216444,23.243961,23.272629,23.29953,23.323212,23.347206,23.373318,23.403625,23.436794,23.470047,23.501143,23.52995,23.556324,23.58039,23.604279,23.628666,23.65488,23.682638,23.70955,23.73262,23.753355,23.772823,23.79301,23.814053,23.834797,23.853819,23.870396,23.88636,23.904648,23.927525,23.95308,23.97757,23.999409,24.017157,24.032093,24.04582,24.058456,24.070774,24.084541,24.101978,24.12384,24.150997,24.180477,24.209595,24.236687,24.260332,24.280605,24.29842,24.313398,24.325104,24.335598,24.344715,24.351795,24.357616,24.363811,24.371368,24.381775,24.39356,24.405025,24.41642,24.427612,24.43934,24.452446,24.466932,24.483116,24.499657,24.514742,24.525444,24.531822,24.536686,24.543274,24.555508,24.572247,24.591156,24.60987,24.626617,24.643547,24.662693,24.685205,24.709566,24.731926,24.751427,24.768051,24.78081,24.790007,24.796547,24.803188,24.808708,24.812408,24.810673,24.804756,24.793844,24.785786,24.791485,24.806587,24.808334,24.781643,24.72984,24.68287,24.675394,24.745157,24.869524,24.9407,24.806622,24.438332,23.948448,23.540533,23.228706,23.010796,22.857693,22.737858,22.616589,22.493156,22.390465,22.315962,22.266335,22.224644,22.18552,22.149826,22.117735,22.090752,22.067839,22.04629,22.023987,21.998714,21.972889,21.948399,21.925854,21.905611,21.886868,21.869383,21.853598,21.839865,21.829636,21.823818,21.823896,21.83078,21.84278,21.858524,21.876812,21.897902,21.922052,21.948124,21.972565,21.994606,22.015074,22.037983,22.0676,22.104292,22.146744,22.192715,22.24173,22.293734,22.346958,22.39906,22.445896,22.486563,22.522434,22.554052,22.583393,22.613785,22.647902,22.69294,22.750753,22.81837,22.891083,22.962708,23.030216,23.094303,23.155539,23.213728,23.270046,23.324831,23.379953,23.4352,23.490517,23.547215,23.608845,23.682518,23.756191,23.815678,23.855236,23.875425,23.87285,23.851788,23.812843,23.765436,23.719427,23.673483,23.624554,23.575733,23.53469,23.510769,23.505821,23.506714,23.512684,23.548368,23.64294,23.850853,24.229055,24.804016,25.322224,25.507303,25.511942,25.434103,25.315578,25.127144,25.012453,24.937113,24.846786,24.736887,24.63133,24.556019,24.52202,24.505743,24.489128,24.475143,24.462067,24.444046,24.418604,24.384758,24.343555,24.29814,24.250324,24.196901,24.138649,24.076681,24.012123,23.949486,23.890415,23.834442,23.791958,23.757114,23.725792,23.692852,23.660328,23.634583,23.61864,23.611486,23.601906,23.559246,23.476635,23.354502,23.213089,23.04094,22.789913,22.424229,21.97977,21.511208,21.20879,21.109364,21.126137,21.18481,21.23693,21.302275,21.43632,21.64128,21.934523,22.227787,22.508022,22.740505,22.903973,23.009752,23.086258,23.162018,23.23378,23.283684,23.307764,23.32253,23.34188,23.374496,23.408772,23.434885,23.456873,23.476845,23.497429,23.51968,23.542616,23.566496,23.588108,23.60828,23.626816,23.646336,23.671772
22.444721,22.453178,22.462898,22.475613,22.491238,22.511395,22.536606,22.563248,22.58861,22.612343,22.635014,22.657082,22.680115,22.700218,22.714634,22.72795,22.7401,22.751982,22.763754,22.77639,22.790606,22.806234,22.823606,22.842766,22.864223,22.886227,22.908909,22.93237,22.954735,22.975107,22.99638,23.019768,23.04678,23.075726,23.104103,23.130247,23.154657,23.17735,23.198029,23.217749,23.236982,23.257404,23.2797,23.302208,23.322208,23.340654,23.358166,23.375984,23.3939,23.411236,23.42696,23.44077,23.454357,23.470016,23.489384,23.51101,23.531698,23.550346,23.566074,23.580164,23.59391,23.60711,23.62009,23.633629,23.649342,23.667627,23.689213,23.712,23.734232,23.755342,23.775145,23.79321,23.810062,23.82517,23.837463,23.847908,23.856342,23.862526,23.86725,23.872196,23.878204,23.886854,23.897274,23.908598,23.920753,23.93314,23.945595,23.958157,23.970661,23.983355,23.995117,24.004822,24.010654,24.013145,24.01481,24.018145,24.026241,24.0383,24.052929,24.069107,24.084934,24.099882,24.115541,24.133244,24.151413,24.16844,24.183958,24.197212,24.207605,24.215805,24.22254,24.22993,24.236313,24.241226,24.243952,24.242573,24.235949,24.230236,24.229677,24.233887,24.236626,24.221222,24.186474,24.148851,24.129341,24.160099,24.234474,24.32051,24.308737,24.140276,23.849644,23.5452,23.289417,23.088024,22.934284,22.809933,22.69197,22.578823,22.477352,22.392998,22.327074,22.276611,22.234669,22.198437,22.167204,22.14134,22.119019,22.097548,22.074669,22.04798,22.019842,21.992151,21.966278,21.943027,21.921814,21.902542,21.885635,21.87147,21.861343,21.856104,21.857155,21.865053,21.877766,21.89346,21.91074,21.930038,21.951933,21.975365,21.996758,22.015648,22.03344,22.054562,22.083431,22.120068,22.162758,22.209684,22.260649,22.315548,22.372467,22.42778,22.477198,22.520555,22.55927,22.592686,22.623398,22.654915,22.691874,22.741875,22.806484,22.881504,22.961773,23.04237,23.119213,23.193151,23.263474,23.328423,23.391796,23.45279,23.512264,23.571434,23.62925,23.687733,23.750336,23.817184,23.879642,23.927605,23.958334,23.974396,23.972162,23.946053,23.896683,23.83772,23.776722,23.72126,23.67015,23.62696,23.593876,23.576797,23.5728,23.569168,23.566515,23.583832,23.645416,23.794384,24.06778,24.436882,24.785622,24.94297,24.922234,24.775913,24.578096,24.429874,24.333591,24.257053,24.165234,24.065498,23.982685,23.940397,23.920357,23.90555,23.888401,23.870556,23.85146,23.828411,23.798862,23.761868,23.716686,23.666636,23.613878,23.556036,23.493233,23.426441,23.357468,23.290411,23.227104,23.16807,23.12417,23.090176,23.062372,23.036766,23.014421,22.998726,22.990953,22.987625,22.975344,22.931602,22.85446,22.745564,22.618793,22.476604,22.28981,22.032787,21.726713,21.398148,21.176579,21.100262,21.109587,21.15208,21.19264,21.244316,21.341854,21.481504,21.678692,21.876743,22.072416,22.246609,22.37263,22.469498,22.550644,22.625957,22.689013,22.730488,22.75194,22.767212,22.787306,22.812605,22.83472,22.850256,22.862537,22.87291,22.884024,22.897846,22.91394,22.93235,22.94947,22.966469,22.98338,23.002396,23.026133
22.148361,22.15715,22.166933,22.178896,22.192963,22.210606,22.232563,22.255651,22.277117,22.29662,22.31518,22.334072,22.355242,22.375214,22.39043,22.404366,22.416382,22.427082,22.436947,22.447538,22.4599,22.473923,22.490099,22.508251,22.528355,22.548609,22.568748,22.589207,22.608715,22.6266,22.645245,22.66558,22.68861,22.7126,22.735535,22.756407,22.7761,22.794865,22.812181,22.828476,22.843998,22.860645,22.879444,22.899265,22.917553,22.934788,22.951265,22.967655,22.983656,22.99886,23.012676,23.025135,23.037666,23.051914,23.06895,23.087683,23.1055,23.12158,23.13552,23.14853,23.161716,23.174759,23.18757,23.200249,23.214108,23.229641,23.247524,23.266264,23.284592,23.301983,23.318462,23.334055,23.349339,23.364048,23.37687,23.388245,23.397884,23.405388,23.411352,23.41708,23.423367,23.431679,23.441704,23.453201,23.46603,23.479372,23.492521,23.504967,23.516499,23.527376,23.536652,23.543495,23.546604,23.546772,23.54639,23.547539,23.55289,23.56173,23.573196,23.586258,23.599037,23.611229,23.624119,23.639057,23.654507,23.668634,23.681213,23.691933,23.70037,23.707346,23.713451,23.720547,23.727068,23.733063,23.737698,23.739246,23.736458,23.734262,23.73716,23.743858,23.748962,23.745089,23.726501,23.702955,23.69023,23.699747,23.751312,23.816065,23.849377,23.800306,23.658092,23.457714,23.268658,23.102757,22.967201,22.854248,22.74737,22.642912,22.546413,22.462881,22.394266,22.33928,22.293678,22.255676,22.223904,22.1982,22.176231,22.155153,22.132414,22.105173,22.07563,22.045815,22.017586,21.991928,21.968525,21.9475,21.92939,21.914734,21.904675,21.899841,21.901524,21.909962,21.92281,21.937843,21.953548,21.97059,21.989834,22.010365,22.028631,22.044647,22.060406,22.080235,22.10844,22.145214,22.18832,22.236095,22.288368,22.344751,22.403698,22.460407,22.511047,22.556503,22.597971,22.635822,22.670662,22.705328,22.743042,22.793575,22.860043,22.93989,23.025646,23.109705,23.189445,23.26704,23.34308,23.4127,23.47525,23.533768,23.589779,23.640408,23.68602,23.729954,23.77643,23.826797,23.87179,23.90149,23.91821,23.927443,23.924648,23.903816,23.86372,23.808144,23.75309,23.70192,23.654547,23.623936,23.605625,23.599945,23.597145,23.584904,23.565052,23.556086,23.577045,23.660828,23.81588,24.003624,24.160587,24.224493,24.160364,24.016275,23.870762,23.757072,23.676802,23.607275,23.52697,23.454689,23.40135,23.364994,23.348099,23.33638,23.320818,23.3027,23.281464,23.25489,23.22109,23.179256,23.130295,23.078045,23.024761,22.96782,22.907383,22.843689,22.778915,22.716118,22.656588,22.600689,22.559202,22.52792,22.503746,22.483624,22.468218,22.459108,22.455645,22.452599,22.438915,22.398468,22.329319,22.235323,22.130844,22.02301,21.89478,21.724178,21.52454,21.311003,21.147575,21.086811,21.088205,21.11699,21.147991,21.19032,21.255222,21.35104,21.476435,21.598507,21.725058,21.846313,21.945559,22.031443,22.108744,22.178488,22.23283,22.265295,22.2794,22.288078,22.301044,22.318455,22.33353,22.343304,22.350138,22.355106,22.360542,22.369247,22.381475,22.396347,22.410305,22.424353,22.438835,22.455727,22.47642
21.83358,21.843136,21.853455,21.865173,21.878292,21.893938,21.913107,21.93311,21.95137,21.967556,21.983185,22.000046,22.020159,22.04052,22.05673,22.071335,22.083172,22.092726,22.100834,22.109547,22.120163,22.132515,22.14727,22.164307,22.183401,22.20281,22.221783,22.240616,22.258385,22.27454,22.29116,22.308945,22.328476,22.34813,22.366457,22.383072,22.399036,22.414825,22.429848,22.44408,22.457668,22.472477,22.48951,22.508202,22.525932,22.542948,22.55931,22.575161,22.590252,22.604374,22.617353,22.629513,22.642023,22.655855,22.671711,22.688658,22.704668,22.719124,22.731958,22.744236,22.756973,22.76987,22.782413,22.79433,22.806843,22.82076,22.836763,22.853594,22.870186,22.885902,22.900919,22.915594,22.930523,22.94572,22.959686,22.972458,22.983572,22.99244,22.999548,23.006063,23.012901,23.02156,23.032059,23.044518,23.058704,23.073563,23.08797,23.101074,23.112656,23.122936,23.130974,23.136055,23.137161,23.135372,23.133236,23.132751,23.136383,23.143368,23.152916,23.163908,23.174454,23.184395,23.194881,23.20737,23.220337,23.231915,23.241909,23.250107,23.256283,23.26144,23.266165,23.272232,23.278152,23.284399,23.290459,23.294703,23.295624,23.296793,23.301788,23.31031,23.318943,23.322811,23.317688,23.308834,23.304573,23.314474,23.34312,23.390537,23.435553,23.443508,23.389896,23.282768,23.16053,23.04129,22.93719,22.847744,22.762468,22.67708,22.594831,22.519585,22.453941,22.398487,22.351452,22.312252,22.279781,22.254189,22.233006,22.213135,22.191628,22.165133,22.13556,22.105057,22.075823,22.048954,22.024178,22.001806,21.982597,21.967226,21.956783,21.95175,21.95324,21.961296,21.973322,21.98693,22.000458,22.014826,22.031166,22.049004,22.06477,22.077559,22.08923,22.106285,22.132828,22.169195,22.212269,22.259933,22.311611,22.366817,22.424696,22.482685,22.536858,22.586647,22.632408,22.67367,22.711014,22.748623,22.790268,22.84318,22.911741,22.99261,23.076069,23.153538,23.22691,23.295498,23.356876,23.41122,23.45987,23.505514,23.548508,23.585342,23.615715,23.642227,23.668121,23.694223,23.714575,23.724289,23.726177,23.727081,23.727604,23.720634,23.699196,23.664612,23.623482,23.588455,23.559948,23.539293,23.530716,23.532276,23.528002,23.507185,23.471996,23.436592,23.417244,23.431011,23.47126,23.522419,23.559788,23.537062,23.455307,23.340916,23.228085,23.141533,23.07737,23.01956,22.956835,22.894384,22.842468,22.809488,22.793974,22.782335,22.765724,22.745129,22.720402,22.690418,22.65406,22.610592,22.561985,22.512535,22.464777,22.415695,22.36539,22.313042,22.260992,22.210978,22.16339,22.117647,22.083801,22.058475,22.039026,22.023428,22.01236,22.006573,22.0046,22.000954,21.986813,21.951345,21.89392,21.819351,21.74008,21.664814,21.58302,21.476624,21.353151,21.22561,21.1126,21.060768,21.053839,21.071173,21.095116,21.125664,21.167694,21.231457,21.30001,21.370308,21.44514,21.523392,21.595398,21.664745,21.731049,21.789303,21.832155,21.855158,21.863098,21.867336,21.875683,21.887619,21.897953,21.904308,21.908129,21.9104,21.912643,21.91807,21.927505,21.939241,21.949982,21.960512,21.971504,21.984848,22.001358
21.502987,21.51368,21.525135,21.537495,21.55066,21.56541,21.582935,21.601048,21.617487,21.631893,21.645988,21.661911,21.68156,21.702377,21.719215,21.734097,21.745491,21.753868,21.760498,21.767689,21.77686,21.78767,21.800982,21.816833,21.835077,21.854134,21.872688,21.890768,21.907701,21.922972,21.938522,21.954826,21.972065,21.988861,22.004208,22.01824,22.032108,22.046406,22.060524,22.074093,22.087175,22.10146,22.117958,22.136415,22.154243,22.171583,22.188301,22.20411,22.218868,22.232494,22.245224,22.257704,22.270866,22.285135,22.300869,22.317192,22.332497,22.346394,22.35891,22.370987,22.383617,22.39646,22.408775,22.420187,22.431948,22.445187,22.46061,22.477057,22.49342,22.508884,22.523672,22.538324,22.553455,22.56939,22.584476,22.598476,22.610815,22.620647,22.628483,22.635454,22.64268,22.651693,22.662722,22.676058,22.691368,22.707478,22.72298,22.73684,22.748863,22.75917,22.76683,22.771118,22.771158,22.768167,22.764948,22.763397,22.76595,22.771805,22.780083,22.789555,22.798397,22.80661,22.815285,22.826004,22.837193,22.84687,22.854858,22.860958,22.865068,22.868374,22.871506,22.87621,22.881203,22.887217,22.89393,22.899904,22.90324,22.906296,22.911808,22.919968,22.929111,22.937134,22.941446,22.94468,22.949577,22.96018,22.982204,23.015234,23.051378,23.075783,23.071728,23.030941,22.965265,22.893661,22.827389,22.769745,22.714516,22.657345,22.599117,22.541649,22.487343,22.437601,22.393269,22.355316,22.323656,22.2994,22.280067,22.262463,22.243284,22.218828,22.191006,22.16195,22.13385,22.107681,22.083103,22.060438,22.040628,22.024433,22.013,22.006847,22.006989,22.013397,22.02346,22.033854,22.043732,22.05426,22.066578,22.078989,22.089687,22.097252,22.103523,22.116936,22.142326,22.179085,22.223516,22.27314,22.326042,22.381702,22.439924,22.498207,22.553299,22.605354,22.654472,22.699451,22.74083,22.782501,22.825378,22.875544,22.9346,22.998642,23.061224,23.116728,23.166866,23.209164,23.24485,23.276234,23.30505,23.334156,23.362652,23.3858,23.402472,23.41412,23.422474,23.42767,23.42582,23.415798,23.404861,23.401142,23.405468,23.409927,23.405704,23.391804,23.372702,23.355783,23.343582,23.3377,23.338985,23.34119,23.329762,23.29744,23.249117,23.191267,23.134365,23.090603,23.058773,23.032888,22.998474,22.935768,22.854103,22.764893,22.681355,22.607227,22.54375,22.484447,22.419762,22.356743,22.304272,22.268923,22.249172,22.233246,22.212803,22.188644,22.161108,22.129967,22.094778,22.054882,22.01271,21.972563,21.937057,21.902737,21.869408,21.835228,21.802372,21.771389,21.74168,21.71141,21.689291,21.672482,21.658577,21.646442,21.637157,21.631485,21.628216,21.622917,21.609322,21.580608,21.537346,21.483425,21.428204,21.379578,21.330608,21.26774,21.19011,21.110123,21.047401,21.00769,20.996479,21.004824,21.02007,21.036842,21.063189,21.099316,21.13407,21.170443,21.209396,21.255047,21.30251,21.352955,21.403858,21.447838,21.47876,21.493414,21.496712,21.497984,21.503216,21.51141,21.518623,21.52299,21.525322,21.526493,21.526985,21.530025,21.536783,21.544899,21.551582,21.557505,21.563736,21.57222,21.583641
21.16821,21.18022,21.193138,21.206678,21.220547,21.23515,21.251915,21.269138,21.284933,21.298882,21.312605,21.328274,21.347652,21.368507,21.385273,21.399797,21.410294,21.4174,21.422722,21.428648,21.436634,21.446096,21.45802,21.472736,21.490292,21.509201,21.527702,21.545502,21.562054,21.576899,21.591965,21.607466,21.623278,21.63837,21.652138,21.66509,21.678421,21.69272,21.707317,21.721687,21.735708,21.750751,21.76775,21.786758,21.805138,21.823177,21.840513,21.856556,21.871338,21.88483,21.897663,21.910728,21.924786,21.939857,21.956043,21.97247,21.987745,22.001585,22.014118,22.02612,22.03863,22.051281,22.06317,22.07412,22.085335,22.098228,22.113571,22.130156,22.146803,22.162561,22.177677,22.19272,22.208258,22.224815,22.240646,22.255367,22.268345,22.27852,22.286499,22.29344,22.300615,22.309582,22.320677,22.334263,22.349922,22.36648,22.382427,22.39663,22.408922,22.419277,22.426838,22.430962,22.430815,22.427666,22.424313,22.422518,22.42457,22.429699,22.436974,22.445152,22.452589,22.459394,22.466629,22.475975,22.48573,22.493845,22.500229,22.504562,22.506828,22.508354,22.50988,22.51321,22.517227,22.522715,22.529392,22.53592,22.540186,22.543556,22.548103,22.554298,22.56166,22.570019,22.578335,22.587984,22.598537,22.610111,22.625732,22.648092,22.677197,22.705389,22.720795,22.714632,22.69028,22.658718,22.628662,22.604551,22.582531,22.558151,22.529896,22.497152,22.461306,22.423803,22.386024,22.351952,22.323425,22.302706,22.287323,22.273586,22.258547,22.238823,22.21539,22.190664,22.166676,22.144016,22.122185,22.101131,22.081472,22.064379,22.05142,22.043201,22.040745,22.043997,22.05051,22.056496,22.061462,22.066742,22.07339,22.079235,22.084257,22.089815,22.09903,22.115065,22.141998,22.178925,22.221909,22.268557,22.31678,22.366522,22.4186,22.472809,22.525717,22.576729,22.626099,22.671015,22.710392,22.74654,22.781788,22.819849,22.861422,22.902798,22.93892,22.966347,22.986425,22.999985,23.010427,23.020569,23.031948,23.046825,23.063274,23.075878,23.082886,23.084213,23.079945,23.069828,23.052265,23.028408,23.007088,22.99855,23.003345,23.013428,23.019688,23.019861,23.01626,23.011074,23.009901,23.01103,23.013823,23.009174,22.987305,22.944973,22.888086,22.819828,22.7461,22.675186,22.610691,22.552853,22.492435,22.42416,22.347275,22.263111,22.18539,22.117554,22.057335,21.998913,21.934437,21.870583,21.815422,21.775152,21.748608,21.726517,21.701502,21.674213,21.645119,21.614494,21.582321,21.548027,21.514149,21.484478,21.461525,21.441595,21.42434,21.407328,21.392391,21.379221,21.366497,21.351303,21.34083,21.332443,21.32378,21.314297,21.305567,21.298779,21.293545,21.287174,21.275768,21.25546,21.227493,21.193672,21.159887,21.132107,21.105661,21.070957,21.024895,20.972584,20.93105,20.909578,20.901396,20.904558,20.91098,20.9201,20.931824,20.950268,20.968407,20.984474,21.000399,21.023169,21.050392,21.082447,21.116467,21.145313,21.164295,21.171005,21.169653,21.16757,21.16924,21.173544,21.177647,21.180082,21.181244,21.181805,21.18121,21.182396,21.186558,21.190983,21.193413,21.194542,21.195858,21.199322,21.205843
20.840662,20.853992,20.868439,20.883335,20.898106,20.912802,20.92919,20.946049,20.96184,20.976063,20.98993,21.00549,21.024284,21.044472,21.060387,21.07388,21.083168,21.08897,21.093208,21.098148,21.105217,21.113579,21.124302,21.137978,21.154888,21.173592,21.19196,21.209438,21.225555,21.239979,21.254663,21.26956,21.28434,21.298357,21.311396,21.324232,21.338024,21.353258,21.369286,21.38543,21.401407,21.418064,21.436226,21.456291,21.475458,21.494328,21.512367,21.528698,21.543554,21.557045,21.570055,21.583702,21.598589,21.614458,21.631275,21.648159,21.66376,21.677822,21.690525,21.702436,21.714725,21.72703,21.738308,21.748722,21.759417,21.771935,21.787048,21.803482,21.820095,21.835938,21.8513,21.866648,21.882404,21.899204,21.915245,21.930096,21.943132,21.953083,21.960733,21.967247,21.973923,21.982357,21.99286,22.005798,22.020752,22.03667,22.052128,22.06594,22.077917,22.0879,22.095211,22.099453,22.099857,22.097603,22.095188,22.094011,22.096113,22.100761,22.107094,22.114054,22.12024,22.125885,22.131922,22.140003,22.148407,22.15512,22.16014,22.162998,22.163643,22.163584,22.1637,22.165962,22.169262,22.174189,22.180378,22.186508,22.190348,22.192722,22.19527,22.198462,22.20237,22.20761,22.214134,22.223186,22.233662,22.244457,22.256565,22.272436,22.295235,22.321623,22.34419,22.355595,22.355122,22.350101,22.347176,22.350653,22.357681,22.36348,22.36455,22.358187,22.344429,22.323593,22.296383,22.26997,22.248169,22.231613,22.219711,22.209599,22.199162,22.18581,22.169735,22.15281,22.13635,22.120283,22.103798,22.086487,22.068756,22.051952,22.037964,22.027653,22.022173,22.02172,22.024284,22.027683,22.030136,22.032864,22.03688,22.043259,22.050339,22.05875,22.070665,22.088257,22.11413,22.14685,22.182373,22.218647,22.254013,22.28965,22.327606,22.371078,22.415947,22.458282,22.497475,22.531368,22.55967,22.585575,22.60976,22.633959,22.657583,22.677338,22.690073,22.694557,22.692604,22.68689,22.681652,22.679459,22.681112,22.687935,22.697948,22.705688,22.708881,22.70608,22.695347,22.673595,22.64428,22.611807,22.585232,22.572163,22.57232,22.57978,22.588085,22.593113,22.5936,22.592428,22.59394,22.59358,22.586262,22.569958,22.540464,22.496555,22.438889,22.372152,22.30194,22.23151,22.161434,22.09367,22.026176,21.955109,21.880814,21.806168,21.740435,21.683939,21.631683,21.577969,21.51651,21.45341,21.396526,21.35181,21.318996,21.291225,21.262371,21.233034,21.20353,21.174114,21.144993,21.115726,21.088562,21.06649,21.05169,21.040554,21.03278,21.02596,21.021893,21.019775,21.017933,21.012886,21.010473,21.00804,21.00325,20.995726,20.987377,20.979893,20.973812,20.968159,20.960854,20.950062,20.93697,20.921072,20.905052,20.8928,20.881775,20.866186,20.842548,20.812366,20.785643,20.770412,20.765167,20.767447,20.770336,20.772324,20.77727,20.787544,20.795252,20.799377,20.801659,20.809704,20.821726,20.837994,20.856207,20.870977,20.878868,20.877953,20.87122,20.864319,20.860832,20.85992,20.859798,20.859356,20.858727,20.85836,20.8569,20.85664,20.858505,20.85968,20.858345,20.855385,20.852589,20.8519,20.854473
20.532269,20.54667,20.562267,20.578188,20.593487,20.608017,20.623848,20.640245,20.655975,20.670572,20.684631,20.700054,20.718138,20.737328,20.752045,20.76424,20.772217,20.77678,20.780104,20.784206,20.790483,20.79789,20.807537,20.820248,20.83652,20.854885,20.872955,20.889984,20.905563,20.919441,20.9336,20.9478,20.961548,20.974642,20.98724,21.000257,21.014818,21.031239,21.048866,21.06691,21.084991,21.103325,21.122711,21.143803,21.16375,21.18341,21.202076,21.218666,21.2336,21.247156,21.260342,21.274452,21.289927,21.30643,21.323792,21.341158,21.357063,21.371315,21.384092,21.395803,21.407728,21.419445,21.429935,21.439627,21.449718,21.461739,21.476433,21.492428,21.508644,21.524227,21.539505,21.554773,21.570333,21.586823,21.602455,21.616772,21.629152,21.638306,21.645142,21.650875,21.656738,21.664307,21.673813,21.685598,21.699245,21.713852,21.728165,21.74102,21.752117,21.76123,21.767899,21.772026,21.772995,21.771828,21.770588,21.77026,21.77259,21.776947,21.782532,21.788528,21.793785,21.79861,21.803719,21.810688,21.817833,21.823238,21.827013,21.828556,21.827686,21.826118,21.824879,21.8262,21.828896,21.833233,21.838673,21.843834,21.846619,21.84756,21.848068,21.848461,21.848843,21.850046,21.852562,21.85794,21.865768,21.8749,21.885208,21.897663,21.915596,21.937408,21.958706,21.974667,21.983887,21.991978,22.004375,22.024588,22.050179,22.076332,22.098549,22.113106,22.118792,22.11488,22.104252,22.09135,22.07954,22.067366,22.05745,22.04974,22.042782,22.035408,22.028286,22.021585,22.015314,22.008545,22.000092,21.989525,21.977486,21.964493,21.952082,21.941616,21.934631,21.93199,21.932667,21.934853,21.937382,21.941227,21.946712,21.95461,21.963757,21.974466,21.987959,22.004892,22.02643,22.050747,22.074097,22.094944,22.112469,22.129253,22.14866,22.173504,22.200985,22.227333,22.250906,22.270489,22.285961,22.299664,22.312489,22.32459,22.33423,22.339111,22.337942,22.330801,22.320045,22.307354,22.296589,22.289722,22.287209,22.290356,22.293625,22.294268,22.29195,22.285036,22.271263,22.247004,22.216267,22.184677,22.159943,22.144482,22.138653,22.139309,22.14315,22.147255,22.149326,22.150627,22.14907,22.141891,22.125765,22.099628,22.062527,22.015932,21.96119,21.90173,21.840961,21.780136,21.718102,21.654373,21.588259,21.51985,21.452248,21.389488,21.33739,21.29382,21.25152,21.204617,21.148743,21.08939,21.034252,20.988857,20.953342,20.92281,20.892479,20.862942,20.83437,20.806765,20.780308,20.754725,20.731808,20.713484,20.701735,20.693521,20.688723,20.685406,20.685362,20.687616,20.690283,20.689837,20.691061,20.691307,20.688416,20.681946,20.67397,20.666512,20.660847,20.6573,20.654882,20.653126,20.652655,20.651096,20.648708,20.64748,20.646763,20.64364,20.635365,20.62141,20.607502,20.598894,20.595816,20.59737,20.598057,20.596754,20.596664,20.60036,20.601788,20.599615,20.594894,20.594574,20.596277,20.600582,20.60577,20.608849,20.607304,20.59961,20.587526,20.575455,20.566586,20.560612,20.556652,20.553654,20.551573,20.550457,20.548529,20.547329,20.54738,20.546036,20.541794,20.535793,20.529984,20.526161,20.525719
20.248629,20.263775,20.279915,20.29618,20.31135,20.325205,20.340036,20.355602,20.370945,20.385616,20.399708,20.414837,20.43211,20.450165,20.463514,20.47433,20.48106,20.484596,20.487238,20.4907,20.496363,20.502987,20.511719,20.523611,20.539227,20.557047,20.57455,20.590862,20.605618,20.618603,20.631844,20.644989,20.65748,20.66954,20.681631,20.694687,20.70982,20.72713,20.745983,20.765507,20.785221,20.80479,20.824997,20.846685,20.86705,20.887236,20.90628,20.923018,20.93797,20.951572,20.964859,20.979193,20.99488,21.011612,21.029184,21.046776,21.062786,21.077042,21.089783,21.101261,21.112797,21.123917,21.133635,21.142601,21.15213,21.163631,21.177805,21.19317,21.208694,21.223654,21.23841,21.253162,21.268087,21.283752,21.298409,21.311646,21.322865,21.330847,21.336536,21.34124,21.34608,21.352558,21.360777,21.371067,21.383043,21.395958,21.408743,21.420248,21.430021,21.437805,21.443363,21.44698,21.448137,21.447742,21.4474,21.447788,21.450321,21.454456,21.459497,21.46481,21.469496,21.473856,21.478367,21.484442,21.49048,21.49475,21.497478,21.49796,21.495855,21.49302,21.490616,21.491144,21.49336,21.497162,21.501781,21.505775,21.507421,21.507124,21.506153,21.504578,21.502213,21.499851,21.498287,21.499405,21.503971,21.511194,21.520597,21.531567,21.546146,21.562988,21.57924,21.592339,21.601643,21.61216,21.62854,21.653383,21.684605,21.717848,21.748861,21.774212,21.792017,21.801569,21.806026,21.80693,21.8064,21.804853,21.803158,21.800306,21.798664,21.797491,21.798706,21.801636,21.805183,21.80786,21.80849,21.806303,21.801441,21.793873,21.784817,21.775837,21.768787,21.765167,21.765001,21.767126,21.770805,21.776592,21.784027,21.79361,21.804132,21.815418,21.827866,21.840977,21.854895,21.867897,21.87685,21.88084,21.879972,21.877884,21.87875,21.884792,21.894314,21.904068,21.912285,21.91752,21.92041,21.923964,21.928656,21.933846,21.937027,21.936434,21.932003,21.924189,21.91484,21.905327,21.893938,21.882763,21.875412,21.873417,21.871063,21.86673,21.860783,21.851639,21.83811,21.819744,21.796787,21.77195,21.749985,21.73425,21.725443,21.72088,21.718498,21.716831,21.715065,21.712223,21.70509,21.690578,21.666182,21.632355,21.590704,21.544128,21.495876,21.44769,21.399235,21.349476,21.295925,21.23798,21.176258,21.113758,21.055168,21.005344,20.966743,20.935337,20.902561,20.862974,20.814507,20.761997,20.71275,20.671194,20.637081,20.607197,20.578018,20.55009,20.523373,20.497509,20.472572,20.448547,20.42681,20.408411,20.395306,20.385292,20.378525,20.373753,20.3727,20.374208,20.376385,20.375927,20.376854,20.376717,20.373806,20.36759,20.36008,20.353394,20.349228,20.348618,20.350895,20.356373,20.364927,20.373262,20.380264,20.38662,20.393045,20.398369,20.400627,20.398298,20.39426,20.391573,20.391403,20.39344,20.39304,20.389458,20.38573,20.38453,20.381783,20.376127,20.36797,20.36332,20.358799,20.35516,20.351166,20.345768,20.337215,20.324303,20.307795,20.291342,20.277962,20.26805,20.261433,20.25695,20.25431,20.253082,20.251411,20.24998,20.248907,20.2459,20.239798,20.231918,20.224297,20.218452,20.215902
19.983826,19.999466,20.015585,20.031513,20.045933,20.05869,20.072151,20.086597,20.101202,20.115547,20.129372,20.14407,20.16056,20.17751,20.189556,20.199049,20.204655,20.207363,20.209549,20.212612,20.217863,20.224003,20.232162,20.243484,20.2585,20.275703,20.292482,20.307962,20.321804,20.33382,20.346062,20.358112,20.36942,20.380482,20.391968,20.404789,20.420084,20.437763,20.457167,20.47739,20.497803,20.517723,20.537937,20.55938,20.579372,20.599297,20.618086,20.634607,20.64938,20.662952,20.676268,20.690655,20.706333,20.723045,20.740648,20.75825,20.774237,20.788479,20.801243,20.812641,20.823935,20.834644,20.843813,20.85227,20.861425,20.872545,20.886246,20.901031,20.915836,20.930054,20.944069,20.95798,20.971874,20.986174,20.999271,21.010818,21.02039,21.02689,21.031252,21.03484,21.038582,21.043941,21.050858,21.05965,21.069973,21.081207,21.092442,21.102486,21.110714,21.116867,21.120934,21.123531,21.124334,21.124067,21.124046,21.124714,21.127298,21.131336,21.136208,21.141376,21.1461,21.150572,21.15501,21.160568,21.165722,21.168968,21.17074,21.170368,21.167374,21.163692,21.160513,21.160534,21.162502,21.166008,21.170048,21.173252,21.174187,21.173256,21.171568,21.168976,21.165049,21.160513,21.156282,21.154392,21.156498,21.162186,21.170933,21.181057,21.19312,21.205658,21.216562,21.224737,21.2304,21.23804,21.251617,21.273075,21.3008,21.331367,21.361515,21.388672,21.410847,21.426975,21.43893,21.448053,21.455853,21.463219,21.469372,21.473988,21.479897,21.487309,21.497524,21.508495,21.520107,21.52986,21.536,21.539286,21.53965,21.536612,21.530779,21.523838,21.5176,21.513857,21.513512,21.515934,21.520737,21.528101,21.536842,21.547049,21.557373,21.567226,21.576532,21.584297,21.590343,21.593367,21.591047,21.582935,21.569721,21.555344,21.544037,21.538948,21.538424,21.538881,21.538157,21.535042,21.531132,21.52941,21.53033,21.532665,21.533424,21.530218,21.522343,21.512367,21.501919,21.492023,21.480927,21.470024,21.46259,21.459892,21.460188,21.460697,21.459927,21.456268,21.448431,21.43542,21.417929,21.398392,21.380413,21.365778,21.354977,21.346125,21.338299,21.330631,21.321909,21.311132,21.294899,21.271109,21.238728,21.199587,21.156898,21.113153,21.07051,21.029358,20.988708,20.946556,20.900013,20.848446,20.793224,20.738735,20.689846,20.65131,20.622856,20.599476,20.572735,20.538465,20.496887,20.452192,20.41055,20.374847,20.34445,20.317207,20.290623,20.265179,20.240683,20.216389,20.192417,20.169155,20.147781,20.128717,20.114021,20.102139,20.093348,20.086653,20.083673,20.083073,20.082981,20.080425,20.0789,20.07639,20.07183,20.064823,20.05719,20.05104,20.048176,20.049858,20.055359,20.065176,20.078547,20.091871,20.103569,20.113579,20.123508,20.133057,20.140896,20.145237,20.147194,20.148207,20.149883,20.152195,20.151258,20.146643,20.140945,20.136662,20.131329,20.123785,20.114166,20.107819,20.10067,20.093287,20.08469,20.074959,20.062908,20.047634,20.029222,20.010902,19.995518,19.98401,19.976637,19.972063,19.96981,19.969112,19.968166,19.96693,19.965164,19.960978,19.953606,19.944496,19.935686,19.92844,19.924364
19.728647,19.74461,19.760323,19.7755,19.788797,19.800282,19.812267,19.825459,19.8391,19.852749,19.866114,19.880304,19.89618,19.912247,19.923239,19.931599,19.936268,19.938381,19.940353,19.943298,19.948421,19.954487,19.962513,19.97361,19.988203,20.004818,20.02084,20.03554,20.048515,20.059694,20.071087,20.082241,20.092655,20.102911,20.11379,20.126156,20.141214,20.158768,20.178019,20.19808,20.21817,20.237465,20.256788,20.277067,20.295776,20.31455,20.332409,20.348293,20.36273,20.37622,20.389545,20.403894,20.419487,20.43608,20.453583,20.47105,20.48692,20.501146,20.514046,20.525578,20.536877,20.54749,20.556496,20.564857,20.573984,20.58499,20.598457,20.612911,20.627235,20.640919,20.654255,20.667248,20.679964,20.69263,20.703808,20.713287,20.720928,20.725838,20.728928,20.731476,20.734285,20.738625,20.7444,20.751888,20.760803,20.770641,20.780499,20.78917,20.795849,20.800306,20.80272,20.803936,20.803902,20.803177,20.802923,20.803436,20.805931,20.81002,20.815105,20.820713,20.826118,20.831295,20.836212,20.841732,20.84634,20.848774,20.849762,20.848831,20.845453,20.841475,20.838108,20.838009,20.840002,20.843464,20.847301,20.850304,20.851198,20.850399,20.848774,20.846045,20.841717,20.836521,20.831345,20.828098,20.828789,20.833046,20.840475,20.8491,20.858574,20.867645,20.874697,20.879078,20.881367,20.885159,20.893627,20.90844,20.928543,20.951677,20.975716,20.999022,21.019632,21.036335,21.05023,21.061718,21.071861,21.080894,21.088985,21.09776,21.10794,21.121094,21.136763,21.153069,21.169746,21.184694,21.196655,21.206326,21.212389,21.213816,21.212055,21.207027,21.201405,21.197636,21.196987,21.199158,21.20402,21.21146,21.219929,21.229156,21.237713,21.244785,21.250221,21.253176,21.253704,21.251144,21.243923,21.2317,21.215172,21.197863,21.183113,21.171787,21.16338,21.156265,21.14907,21.14081,21.132782,21.12751,21.125105,21.124489,21.123184,21.119345,21.112759,21.105415,21.098358,21.091831,21.087997,21.086613,21.087528,21.09146,21.096489,21.101387,21.105152,21.106327,21.103794,21.096478,21.084862,21.070652,21.056301,21.04266,21.030216,21.017742,21.004913,20.99124,20.975183,20.955627,20.929424,20.895798,20.855526,20.81163,20.768204,20.726444,20.687195,20.649483,20.612328,20.573917,20.532078,20.48661,20.439032,20.393486,20.3536,20.32305,20.2998,20.27887,20.253372,20.221241,20.184542,20.146957,20.11296,20.083626,20.05766,20.033844,20.010452,19.987843,19.965685,19.942944,19.919987,19.89774,19.877415,19.859106,19.844917,19.833614,19.82531,19.818836,19.81557,19.813951,19.812147,19.80748,19.803078,19.79751,19.790527,19.782,19.773527,19.767178,19.764626,19.767128,19.773685,19.784657,19.798779,19.812693,19.824944,19.835186,19.845387,19.855492,19.864586,19.871021,19.874958,19.876957,19.878754,19.880594,19.879303,19.87471,19.868656,19.863052,19.85638,19.847885,19.83782,19.831276,19.823963,19.816067,19.806713,19.796247,19.783924,19.769089,19.751495,19.734127,19.719563,19.708965,19.70269,19.699305,19.69825,19.698586,19.698597,19.697762,19.695538,19.69047,19.682156,19.672092,19.662327,19.653934,19.648613
19.472183,19.488417,19.50369,19.518066,19.530315,19.540728,19.55148,19.563532,19.576214,19.58906,19.60195,19.61567,19.631145,19.6466,19.656818,19.66438,19.668468,19.670362,19.672457,19.675678,19.681095,19.687595,19.695972,19.707214,19.721706,19.737936,19.753426,19.767557,19.77985,19.790356,19.801104,19.811657,19.821587,19.83136,19.841797,19.853703,19.868324,19.88541,19.904034,19.923384,19.942547,19.960724,19.978697,19.997292,20.014183,20.031258,20.047668,20.062641,20.076622,20.089983,20.103252,20.117474,20.132908,20.14928,20.166565,20.18381,20.199505,20.213715,20.22672,20.238365,20.249662,20.260239,20.269314,20.277893,20.28732,20.298487,20.311947,20.3263,20.340338,20.353682,20.366539,20.378807,20.390518,20.40167,20.411003,20.418499,20.424301,20.427788,20.429853,20.431593,20.43372,20.437237,20.442108,20.448519,20.45631,20.46508,20.47388,20.481436,20.486782,20.489733,20.49065,20.490576,20.489645,20.488346,20.487713,20.488007,20.490406,20.494614,20.500086,20.50632,20.512697,20.51892,20.524734,20.530636,20.53506,20.537016,20.53754,20.536411,20.533165,20.529488,20.526512,20.526697,20.528975,20.532639,20.536644,20.540005,20.541498,20.541409,20.540352,20.53788,20.533604,20.528316,20.522842,20.518862,20.518372,20.521038,20.52658,20.533184,20.540035,20.546211,20.550585,20.552555,20.552797,20.553871,20.558071,20.566898,20.579754,20.595356,20.612522,20.630272,20.646832,20.66096,20.673225,20.683538,20.692612,20.700575,20.707676,20.715504,20.725105,20.737734,20.75301,20.769506,20.78585,20.800854,20.814312,20.825924,20.834797,20.839943,20.842106,20.841263,20.839266,20.83804,20.838964,20.841925,20.84736,20.855331,20.864183,20.873241,20.880602,20.885292,20.8872,20.885962,20.882034,20.875319,20.864971,20.85083,20.833496,20.815666,20.799786,20.786919,20.776638,20.767746,20.759367,20.750599,20.742369,20.736713,20.733604,20.732735,20.732716,20.732569,20.732887,20.734035,20.736275,20.739662,20.745235,20.752077,20.760088,20.769634,20.77903,20.787903,20.795471,20.800491,20.802147,20.799381,20.792435,20.782345,20.770573,20.757294,20.743076,20.727194,20.709574,20.689938,20.666424,20.63774,20.60107,20.55706,20.508263,20.459135,20.414259,20.37349,20.336353,20.300537,20.265314,20.22926,20.191183,20.151363,20.111029,20.073307,20.040133,20.013891,19.991997,19.970222,19.943855,19.912947,19.880419,19.849384,19.82246,19.79909,19.777508,19.757145,19.736889,19.717018,19.697166,19.676138,19.65453,19.633766,19.615145,19.598717,19.58654,19.577469,19.571295,19.566484,19.564125,19.562508,19.559792,19.553541,19.546593,19.538158,19.528679,19.518402,19.50869,19.501503,19.498352,19.500355,19.506266,19.51616,19.528473,19.54029,19.550528,19.5588,19.567154,19.575424,19.583057,19.588816,19.592422,19.594059,19.595253,19.596409,19.594954,19.59087,19.585312,19.579586,19.572567,19.564009,19.554268,19.548326,19.542002,19.535065,19.52683,19.517439,19.50643,19.493414,19.477997,19.463009,19.450615,19.44194,19.437256,19.435215,19.435299,19.43659,19.437447,19.43699,19.434456,19.428713,19.419704,19.408909,19.398378,19.389084,19.382797
19.205612,19.222267,19.237467,19.251469,19.263266,19.273216,19.283306,19.294594,19.306503,19.318657,19.331158,19.344604,19.359982,19.375183,19.385117,19.392385,19.3964,19.398514,19.40105,19.4049,19.410976,19.418314,19.427462,19.439194,19.45391,19.470068,19.485355,19.499187,19.511051,19.521122,19.531483,19.541735,19.551554,19.561172,19.571383,19.58294,19.597103,19.613533,19.631306,19.649685,19.667631,19.684492,19.700998,19.7178,19.732811,19.74804,19.762896,19.776894,19.7904,19.803593,19.816803,19.83091,19.84622,19.862392,19.879417,19.896389,19.911879,19.925985,19.938915,19.950428,19.961548,19.971996,19.981224,19.990177,20.000088,20.011593,20.025166,20.039536,20.053452,20.066685,20.079353,20.091213,20.102262,20.112251,20.120087,20.125942,20.130234,20.132576,20.13389,20.135115,20.13684,20.139833,20.144093,20.149788,20.156868,20.165028,20.173164,20.179976,20.184374,20.186184,20.185953,20.184868,20.183247,20.181494,20.180548,20.18074,20.183125,20.187502,20.193394,20.200275,20.207624,20.21502,20.221916,20.228409,20.232887,20.234638,20.234955,20.233902,20.231136,20.228138,20.225948,20.226715,20.229507,20.23362,20.238152,20.242346,20.244972,20.24605,20.245869,20.243858,20.239792,20.234581,20.228977,20.224358,20.222506,20.223217,20.22638,20.230576,20.234861,20.238674,20.241356,20.242243,20.24194,20.241932,20.24375,20.248678,20.25648,20.266594,20.2784,20.291231,20.30355,20.31422,20.323559,20.33125,20.337654,20.342949,20.347458,20.352886,20.360224,20.370445,20.382988,20.39623,20.40887,20.419834,20.429258,20.437294,20.444138,20.449287,20.452385,20.454048,20.45483,20.455654,20.457705,20.46088,20.465853,20.472975,20.480816,20.488605,20.494347,20.49709,20.496923,20.494015,20.489223,20.482773,20.474174,20.463173,20.449997,20.436432,20.424316,20.415802,20.410213,20.405931,20.402237,20.398071,20.393871,20.391268,20.390495,20.391886,20.39486,20.39886,20.404358,20.411575,20.42044,20.430897,20.44355,20.456966,20.470757,20.484941,20.497944,20.509865,20.520046,20.527536,20.531895,20.53226,20.528627,20.521465,20.511534,20.498545,20.483082,20.464703,20.443409,20.41895,20.3891,20.352262,20.305876,20.251844,20.194359,20.139576,20.092258,20.051228,20.015087,19.980352,19.9465,19.912357,19.877495,19.842358,19.807653,19.775326,19.74585,19.720627,19.69741,19.673233,19.645477,19.615868,19.587288,19.562157,19.541386,19.523144,19.505497,19.488361,19.471092,19.45396,19.436552,19.417614,19.397926,19.379177,19.362814,19.34906,19.339756,19.333706,19.330334,19.327744,19.326838,19.32576,19.32274,19.315434,19.306566,19.29589,19.284325,19.272484,19.261501,19.25319,19.24886,19.249466,19.25365,19.261179,19.270344,19.278744,19.285671,19.290836,19.296175,19.301323,19.306,19.309547,19.311575,19.312138,19.312408,19.312841,19.311337,19.307919,19.303268,19.298279,19.291864,19.284184,19.275566,19.270761,19.265762,19.26013,19.25341,19.245487,19.236168,19.225218,19.212284,19.20007,19.190193,19.183506,19.180126,19.178934,19.179546,19.181263,19.182486,19.182106,19.179214,19.172894,19.16337,19.152004,19.140882,19.130924,19.123947
18.9254,18.942688,18.958374,18.97277,18.985098,18.995594,19.00595,19.017189,19.0289,19.040936,19.053574,19.067327,19.08314,19.09872,19.109068,19.116772,19.121315,19.124084,19.1274,19.13221,19.139265,19.147717,19.157864,19.170324,19.185514,19.201836,19.217087,19.230629,19.241936,19.251446,19.26133,19.271324,19.281166,19.290825,19.30104,19.312454,19.326206,19.341911,19.358723,19.376026,19.392708,19.40839,19.423685,19.43912,19.452785,19.466671,19.480358,19.493591,19.506668,19.519615,19.532671,19.546577,19.561676,19.577538,19.594175,19.610756,19.625942,19.639795,19.652424,19.663548,19.674313,19.684578,19.693998,19.70337,19.71371,19.725468,19.739048,19.753365,19.767178,19.780424,19.793114,19.804886,19.815655,19.824915,19.831764,19.836554,19.839848,19.841465,19.84237,19.843346,19.844906,19.847572,19.8514,19.85658,19.863201,19.871044,19.878872,19.88528,19.889072,19.890057,19.88901,19.887218,19.885164,19.883188,19.882126,19.88237,19.884779,19.88926,19.895386,19.902668,19.910719,19.919048,19.926903,19.934063,19.938879,19.94085,19.941399,19.940796,19.938835,19.936749,19.935535,19.937057,19.940447,19.94509,19.950249,19.955439,19.959402,19.961796,19.962473,19.960745,19.9566,19.951145,19.94511,19.939568,19.936062,19.93456,19.935183,19.936886,19.938858,19.940746,19.942314,19.94283,19.942635,19.942337,19.942753,19.945131,19.949568,19.95604,19.964193,19.973495,19.982704,19.990847,19.998188,20.004162,20.008823,20.012234,20.01477,20.01814,20.023252,20.030838,20.040293,20.05011,20.059101,20.066425,20.072437,20.077595,20.082367,20.086521,20.089714,20.092077,20.093735,20.0952,20.097244,20.099644,20.102945,20.107685,20.112957,20.11826,20.121902,20.123129,20.122194,20.119713,20.116844,20.113884,20.110352,20.10566,20.099556,20.09315,20.087648,20.08458,20.083511,20.08348,20.083984,20.084026,20.083618,20.083958,20.08543,20.088818,20.094116,20.10107,20.1101,20.121359,20.134605,20.149754,20.167095,20.184868,20.202583,20.219975,20.235668,20.249813,20.261734,20.270775,20.276806,20.279354,20.27837,20.274025,20.266602,20.255476,20.241072,20.22287,20.200602,20.173843,20.140018,20.097073,20.042511,19.979336,19.91301,19.851622,19.80019,19.757122,19.72053,19.6861,19.653385,19.621021,19.588825,19.55694,19.5257,19.496267,19.468267,19.442656,19.417881,19.391966,19.363876,19.336273,19.311565,19.2914,19.27556,19.261446,19.247154,19.232872,19.218256,19.203754,19.188904,19.17239,19.155067,19.138653,19.124573,19.113144,19.105972,19.101887,19.100086,19.098602,19.098362,19.097515,19.09432,19.086338,19.076172,19.063938,19.050898,19.037956,19.026009,19.016647,19.01099,19.009823,19.011803,19.016544,19.02232,19.027252,19.030928,19.033161,19.035633,19.037724,19.039349,19.040356,19.04047,19.03984,19.03925,19.03917,19.037758,19.034973,19.031246,19.02721,19.021877,19.015629,19.008627,19.005089,19.001106,18.996243,18.990376,18.983387,18.975342,18.966034,18.955185,18.945293,18.93748,18.932262,18.929625,18.928719,18.929375,18.931074,18.932247,18.931644,18.928368,18.92168,18.911896,18.900269,18.88877,18.87837,18.870804
18.634453,18.652868,18.669956,18.68578,18.699768,18.711906,18.723648,18.735764,18.748121,18.760818,18.774265,18.788942,18.80569,18.82214,18.833466,18.84213,18.8476,18.851301,18.855543,18.861423,18.869545,18.879131,18.890282,18.903446,18.91918,18.935713,18.950953,18.964092,18.974655,18.983444,18.992748,19.002445,19.012327,19.022167,19.032566,19.044018,19.057434,19.0724,19.088211,19.10441,19.119946,19.134703,19.149193,19.163895,19.176928,19.190136,19.203236,19.216038,19.22876,19.241402,19.254175,19.267784,19.282543,19.297985,19.31409,19.330166,19.344913,19.358356,19.370499,19.381035,19.391296,19.401314,19.41091,19.420515,19.43102,19.442753,19.456066,19.470116,19.483707,19.49691,19.509678,19.521503,19.532166,19.540977,19.547283,19.551502,19.554272,19.555573,19.556381,19.557358,19.558933,19.561407,19.564919,19.569698,19.575974,19.583656,19.591381,19.597618,19.601065,19.601524,19.59999,19.597816,19.595646,19.593727,19.592768,19.593172,19.595602,19.599981,19.606033,19.6133,19.621586,19.630348,19.638756,19.646442,19.651754,19.654282,19.655418,19.65557,19.65456,19.653461,19.653233,19.655508,19.659447,19.664536,19.670223,19.676271,19.681412,19.684914,19.686222,19.684475,19.679955,19.673985,19.667341,19.66086,19.655775,19.652306,19.650742,19.650375,19.650543,19.651012,19.651852,19.65229,19.652355,19.651943,19.651363,19.651985,19.65423,19.658495,19.664574,19.671894,19.679558,19.686811,19.693876,19.699982,19.704754,19.708054,19.71017,19.71278,19.716652,19.722359,19.72942,19.736591,19.742928,19.747791,19.751602,19.754951,19.758533,19.762335,19.765938,19.769176,19.771759,19.773882,19.775917,19.777475,19.779022,19.781319,19.78403,19.786991,19.788895,19.7891,19.787924,19.786247,19.78535,19.785452,19.785992,19.786098,19.78529,19.784157,19.783478,19.784311,19.786232,19.788837,19.791862,19.794552,19.7967,19.799099,19.802204,19.807041,19.813908,19.82272,19.83371,19.84714,19.86277,19.880497,19.90031,19.920368,19.940237,19.959517,19.9771,19.992865,20.006046,20.016178,20.02349,20.027977,20.02973,20.02896,20.025627,20.018845,20.008675,19.994156,19.974524,19.948908,19.91437,19.868282,19.80799,19.73742,19.662819,19.594246,19.53722,19.490358,19.45168,19.416666,19.384712,19.35392,19.323837,19.293911,19.264248,19.235744,19.207846,19.181492,19.15591,19.129658,19.102627,19.07746,19.056221,19.040096,19.02797,19.017048,19.005508,18.993698,18.981583,18.969625,18.957253,18.943348,18.928513,18.91425,18.901867,18.891727,18.885197,18.881275,18.879154,18.87709,18.876259,18.874924,18.871347,18.862888,18.85188,18.838669,18.824753,18.81124,18.798805,18.788769,18.782013,18.7792,18.779137,18.78134,18.78429,18.786476,18.787777,18.787983,18.788464,18.788324,18.787556,18.786379,18.784767,18.783045,18.781742,18.781246,18.779898,18.777529,18.774494,18.771301,18.767187,18.76256,18.757374,18.755026,18.751574,18.746742,18.740864,18.7341,18.726679,18.71838,18.708881,18.700436,18.693798,18.68921,18.686584,18.685371,18.68563,18.686937,18.687742,18.686756,18.68322,18.676487,18.666842,18.655354,18.64381,18.63324,18.625206
18.338486,18.358921,18.378603,18.397104,18.413982,18.428898,18.443275,18.457378,18.471355,18.485521,18.500301,18.516258,18.534124,18.551529,18.563831,18.573467,18.57988,18.584454,18.589481,18.596262,18.605318,18.615843,18.627808,18.641476,18.65754,18.674053,18.689083,18.701637,18.711357,18.719404,18.728148,18.737574,18.747536,18.757633,18.768276,18.779827,18.792961,18.807178,18.822025,18.837124,18.85158,18.865524,18.879444,18.893848,18.906813,18.919945,18.932964,18.945633,18.95808,18.970406,18.982868,18.996124,19.010475,19.025423,19.040867,19.05631,19.070494,19.083382,19.09492,19.104794,19.11453,19.12427,19.133892,19.143532,19.153894,19.165276,19.178053,19.19162,19.204872,19.217945,19.23069,19.242489,19.252974,19.261353,19.267248,19.271126,19.273636,19.274849,19.2757,19.276798,19.278448,19.280792,19.283998,19.288353,19.294226,19.301695,19.309303,19.315413,19.31866,19.318867,19.317135,19.31492,19.312943,19.311337,19.310637,19.311256,19.313614,19.317734,19.323442,19.33037,19.338465,19.347246,19.355858,19.363907,19.369759,19.373062,19.37507,19.376183,19.376223,19.37611,19.376774,19.37964,19.383884,19.389133,19.394989,19.401464,19.407326,19.41152,19.41314,19.411266,19.406391,19.400036,19.393093,19.386196,19.380253,19.37561,19.37276,19.371193,19.370468,19.370413,19.371231,19.372103,19.372677,19.372303,19.370998,19.370317,19.371096,19.374044,19.37909,19.385572,19.392784,19.400219,19.408077,19.415375,19.421421,19.425837,19.428753,19.431684,19.435268,19.4399,19.44534,19.450638,19.455173,19.458506,19.461086,19.46347,19.466446,19.47015,19.474066,19.47783,19.480885,19.483212,19.484936,19.485504,19.485252,19.4851,19.485296,19.486008,19.486273,19.485516,19.48403,19.482841,19.483208,19.485239,19.488253,19.491219,19.493546,19.49555,19.497726,19.50075,19.504147,19.507942,19.512146,19.516195,19.519867,19.523579,19.527855,19.533804,19.541775,19.551746,19.563808,19.578331,19.59513,19.614105,19.635025,19.656033,19.676863,19.697088,19.715805,19.732634,19.746735,19.75777,19.766289,19.772839,19.777742,19.781364,19.783525,19.783112,19.779665,19.771633,19.75774,19.736582,19.704945,19.659508,19.597277,19.522678,19.442223,19.367485,19.304337,19.252087,19.209126,19.171614,19.138992,19.108885,19.08036,19.051876,19.023333,18.995518,18.967855,18.941387,18.915873,18.890026,18.864176,18.840822,18.821766,18.807816,18.797539,18.788235,18.778244,18.767948,18.757523,18.747644,18.737453,18.725763,18.712933,18.700207,18.688707,18.678925,18.671932,18.666885,18.663094,18.65934,18.657143,18.654936,18.650972,18.642258,18.63085,18.617258,18.603119,18.589676,18.577406,18.5673,18.56005,18.556158,18.554722,18.555141,18.556206,18.556751,18.556839,18.556293,18.55608,18.55503,18.553131,18.550762,18.548054,18.545517,18.543564,18.542595,18.541122,18.538906,18.536263,18.533558,18.530312,18.526894,18.523064,18.521324,18.517754,18.512337,18.505692,18.498508,18.491066,18.483036,18.474052,18.46605,18.459541,18.454628,18.451294,18.449299,18.448837,18.449463,18.44971,18.448265,18.444542,18.438,18.42877,18.41768,18.406322,18.395777,18.387417
18.043644,18.066944,18.090357,18.112556,18.13317,18.15168,18.16969,18.186762,18.203247,18.219448,18.23582,18.253078,18.271935,18.28997,18.302864,18.313122,18.320248,18.325535,18.331188,18.338692,18.348536,18.35988,18.372465,18.386436,18.402481,18.41864,18.433174,18.444965,18.453884,18.46128,18.469593,18.478855,18.488918,18.499271,18.510164,18.5218,18.534649,18.54815,18.562065,18.57603,18.589453,18.60263,18.616112,18.630428,18.643627,18.656994,18.670162,18.682858,18.695065,18.707018,18.719124,18.73198,18.74578,18.760075,18.774696,18.78931,18.802788,18.814995,18.825884,18.835144,18.844427,18.853897,18.8634,18.872845,18.882786,18.8936,18.905663,18.918594,18.9314,18.94421,18.956736,18.968275,18.978378,18.986256,18.99176,18.995419,18.997845,18.999153,19.000135,19.001392,19.003155,19.005394,19.008232,19.01205,19.01737,19.024372,19.031693,19.037647,19.040833,19.041103,19.039589,19.037737,19.036324,19.035286,19.035015,19.03591,19.0382,19.042019,19.047245,19.053638,19.061245,19.069733,19.078266,19.086576,19.09306,19.09734,19.100449,19.102715,19.103851,19.104696,19.106106,19.10934,19.113548,19.11853,19.124023,19.130255,19.136112,19.140366,19.141941,19.13987,19.134794,19.128422,19.121716,19.11514,19.109314,19.104603,19.101557,19.09979,19.099087,19.099281,19.100634,19.102314,19.103588,19.103504,19.10189,19.100533,19.100578,19.102993,19.107773,19.114176,19.12164,19.1298,19.138884,19.14778,19.155607,19.161741,19.166162,19.170113,19.174023,19.17819,19.182604,19.18667,19.190094,19.19262,19.194637,19.196653,19.199436,19.20309,19.207054,19.210876,19.213875,19.215971,19.217127,19.216654,19.214794,19.21252,19.21056,19.20932,19.208155,19.20648,19.204504,19.203293,19.203999,19.206604,19.210346,19.214127,19.217403,19.220406,19.2235,19.227102,19.230743,19.234718,19.239147,19.243668,19.248096,19.252571,19.257711,19.264534,19.2733,19.283937,19.296467,19.311333,19.328411,19.347649,19.368721,19.38985,19.410921,19.43155,19.45094,19.468525,19.483376,19.495228,19.50494,19.513512,19.52163,19.529884,19.538052,19.544853,19.549347,19.549427,19.543377,19.529297,19.503826,19.462917,19.403175,19.328941,19.246437,19.167814,19.099041,19.04047,18.99134,18.949265,18.913986,18.882954,18.854736,18.82696,18.799332,18.772484,18.745766,18.720177,18.695736,18.671066,18.646643,18.62445,18.606209,18.592499,18.582067,18.572601,18.562595,18.552555,18.542782,18.534014,18.52517,18.515017,18.503471,18.49152,18.480179,18.469978,18.461758,18.454855,18.448822,18.442942,18.43908,18.435873,18.431538,18.422897,18.411592,18.398224,18.384521,18.371754,18.360239,18.350744,18.343655,18.339409,18.337387,18.336967,18.33728,18.337383,18.337488,18.337456,18.33788,18.337357,18.335758,18.3334,18.330479,18.32759,18.325174,18.32375,18.322063,18.319845,18.317312,18.314651,18.311695,18.308746,18.305393,18.30336,18.298878,18.292189,18.284153,18.275951,18.26781,18.259274,18.249908,18.241291,18.23383,18.227625,18.22292,18.21968,18.21818,18.217894,18.21738,18.21542,18.211555,18.205324,18.196663,18.186075,18.174946,18.164476,18.155819
17.754671,17.781788,17.810215,17.837181,17.86211,17.884628,17.906971,17.927906,17.947647,17.966173,17.984009,18.00205,18.021091,18.03874,18.051247,18.061443,18.06906,18.075108,18.081453,18.089613,18.1001,18.112093,18.125092,18.1391,18.15472,18.170221,18.184124,18.195354,18.203918,18.211138,18.219372,18.22865,18.238827,18.249374,18.260418,18.272106,18.28472,18.297613,18.310675,18.323513,18.335875,18.348225,18.361221,18.37535,18.388653,18.402134,18.415403,18.428093,18.44009,18.451752,18.463549,18.476028,18.489248,18.502779,18.516382,18.52991,18.542389,18.553717,18.56396,18.57272,18.581635,18.590767,18.59993,18.60892,18.618248,18.628387,18.63976,18.65208,18.664444,18.676851,18.68892,18.699959,18.709526,18.716866,18.72208,18.725609,18.728065,18.729542,18.73074,18.732231,18.7341,18.736305,18.738838,18.742199,18.74694,18.75333,18.760162,18.765907,18.769255,18.770046,18.769321,18.7684,18.767996,18.767887,18.768318,18.769588,18.771938,18.775524,18.780361,18.78622,18.793165,18.801071,18.809261,18.817577,18.824564,18.829773,18.833944,18.837326,18.83953,18.841301,18.84336,18.846804,18.850723,18.855095,18.859768,18.865143,18.87032,18.874056,18.875303,18.873178,18.868391,18.862635,18.856869,18.851414,18.84663,18.84282,18.84053,18.83934,18.839277,18.840183,18.842396,18.845104,18.847382,18.848143,18.847086,18.846,18.846254,18.848877,18.853943,18.860703,18.868645,18.877537,18.88758,18.897701,18.906956,18.914608,18.920448,18.925396,18.929716,18.933586,18.93724,18.940344,18.942856,18.944656,18.946083,18.947586,18.949886,18.95306,18.956535,18.959824,18.962284,18.963829,18.964314,18.963024,18.960098,18.956503,18.953197,18.950752,18.948671,18.946342,18.943913,18.94238,18.94276,18.944992,18.948267,18.951523,18.954292,18.956799,18.959417,18.9625,18.965656,18.969292,18.973495,18.977968,18.982523,18.98726,18.992805,19.000134,19.009346,19.020348,19.033104,19.048004,19.065022,19.084167,19.105043,19.126095,19.147179,19.167912,19.187622,19.205576,19.220913,19.233452,19.24427,19.254631,19.265457,19.277565,19.29077,19.303856,19.315582,19.323631,19.326069,19.32072,19.304161,19.271751,19.219578,19.15113,19.071728,18.992825,18.920115,18.855167,18.798334,18.749352,18.708618,18.673811,18.643381,18.61464,18.58715,18.561329,18.536236,18.512526,18.490149,18.467548,18.444988,18.423822,18.405453,18.390608,18.378544,18.367538,18.356407,18.345676,18.33576,18.327383,18.319193,18.309883,18.298885,18.286947,18.275112,18.264023,18.254393,18.245667,18.237684,18.230003,18.22475,18.220642,18.215927,18.207478,18.196634,18.183975,18.17118,18.159473,18.149052,18.140553,18.1342,18.130278,18.128353,18.127842,18.128199,18.128674,18.129547,18.13072,18.132568,18.133486,18.133171,18.131805,18.129478,18.12672,18.124115,18.122307,18.120304,18.117855,18.115067,18.112047,18.108849,18.105755,18.102158,18.099323,18.093582,18.085411,18.075811,18.066261,18.056925,18.047218,18.03672,18.026642,18.01735,18.00909,18.002422,17.997509,17.994589,17.993069,17.991543,17.988972,17.985025,17.979174,17.971153,17.961124,17.950329,17.940025,17.931221
17.479715,17.510864,17.54461,17.576408,17.605228,17.631184,17.657425,17.682102,17.704914,17.725391,17.744034,17.76197,17.780293,17.796583,17.807846,17.817461,17.825535,17.832588,17.839855,17.848742,17.85979,17.872295,17.88554,17.899345,17.914171,17.928734,17.941887,17.952785,17.96143,17.968868,17.977318,17.986794,17.997124,18.007843,18.019016,18.030787,18.043287,18.055767,18.06808,18.07982,18.091064,18.102524,18.114882,18.128567,18.141665,18.154964,18.168083,18.180618,18.192356,18.20374,18.215214,18.22731,18.239868,18.252495,18.264877,18.277046,18.288277,18.298609,18.308239,18.316658,18.325327,18.334177,18.342918,18.351376,18.360065,18.36951,18.380276,18.392048,18.403952,18.415798,18.427202,18.43753,18.446432,18.453285,18.458286,18.461838,18.46447,18.46622,18.467733,18.469492,18.471495,18.473688,18.476027,18.479027,18.483234,18.48899,18.495275,18.500854,18.504604,18.506357,18.506931,18.507462,18.508514,18.509684,18.511124,18.512962,18.515532,18.519123,18.523764,18.529202,18.535496,18.542704,18.550385,18.558567,18.565922,18.571903,18.577,18.581333,18.584469,18.587048,18.58961,18.593073,18.596508,18.600033,18.60358,18.607712,18.611698,18.614517,18.615301,18.613325,18.60928,18.604706,18.600407,18.596615,18.593464,18.591188,18.590183,18.590015,18.590815,18.592587,18.595669,18.599386,18.60278,18.604733,18.604898,18.604898,18.606077,18.60944,18.615131,18.622452,18.63087,18.64022,18.650684,18.661343,18.671309,18.679852,18.686596,18.69214,18.696562,18.7,18.702816,18.704931,18.706444,18.707317,18.707907,18.70861,18.710056,18.71236,18.714958,18.717392,18.719093,18.720015,18.719986,18.718277,18.714947,18.710869,18.707088,18.704212,18.701757,18.69913,18.696398,18.694513,18.694342,18.695816,18.698177,18.700443,18.702206,18.703716,18.705433,18.707764,18.710457,18.713905,18.71798,18.722355,18.726883,18.731628,18.737339,18.74491,18.754337,18.765503,18.778286,18.793041,18.809772,18.828505,18.848957,18.869678,18.8905,18.911049,18.93059,18.948458,18.963917,18.976871,18.98848,19.000046,19.01257,19.02705,19.04345,19.06081,19.077873,19.092346,19.102419,19.105965,19.099632,19.078346,19.037779,18.97992,18.908695,18.83367,18.759851,18.68986,18.625227,18.568058,18.519566,18.47821,18.442896,18.411087,18.38232,18.356884,18.333427,18.312033,18.292261,18.272411,18.252066,18.23199,18.21333,18.196653,18.18208,18.168621,18.155378,18.143265,18.132736,18.124071,18.11601,18.10707,18.096241,18.084087,18.071728,18.059935,18.049408,18.039518,18.030369,18.021683,18.015594,18.010895,18.005936,17.99778,17.987602,17.975948,17.964287,17.953777,17.944527,17.937115,17.931698,17.928381,17.926796,17.926483,17.927176,17.92826,17.930065,17.932575,17.936016,17.938656,17.940056,17.940174,17.938923,17.936666,17.934101,17.93203,17.929703,17.926868,17.923567,17.91991,17.916088,17.91241,17.908073,17.904167,17.897081,17.887535,17.87644,17.865501,17.854778,17.843643,17.831734,17.819893,17.808495,17.797945,17.789124,17.782333,17.77769,17.774605,17.771715,17.76825,17.764025,17.758343,17.750778,17.741146,17.730627,17.720428,17.711458
17.229382,17.264107,17.302319,17.33765,17.368673,17.396156,17.42429,17.45104,17.475422,17.496593,17.514812,17.531742,17.548573,17.562992,17.5727,17.581673,17.59036,17.598703,17.607151,17.61679,17.628307,17.641098,17.6543,17.667633,17.681335,17.694649,17.706902,17.717491,17.726418,17.734257,17.74308,17.752838,17.763382,17.77437,17.785778,17.797722,17.810276,17.822538,17.834251,17.845005,17.855137,17.86561,17.877253,17.890331,17.902939,17.915737,17.928387,17.940506,17.951817,17.962772,17.973791,17.985355,17.997074,18.0086,18.019613,18.03027,18.040154,18.049488,18.058619,18.066902,18.075558,18.084318,18.09277,18.100826,18.108997,18.117838,18.128021,18.139202,18.150475,18.161491,18.171886,18.181229,18.189352,18.19577,18.20075,18.204561,18.20763,18.209927,18.212006,18.214233,18.21651,18.218811,18.2211,18.223877,18.227676,18.232853,18.238604,18.244108,18.248508,18.251572,18.25383,18.256187,18.258987,18.261702,18.264366,18.266972,18.26997,18.273731,18.278309,18.283401,18.28903,18.295393,18.302391,18.310242,18.317741,18.324223,18.32994,18.3349,18.338642,18.341747,18.344566,18.347847,18.350697,18.353321,18.355747,18.358559,18.361221,18.362976,18.363297,18.361645,18.358627,18.35552,18.352934,18.350937,18.349537,18.348824,18.349052,18.349792,18.3512,18.35344,18.35693,18.361164,18.365284,18.368254,18.369682,18.370958,18.373302,18.377556,18.383934,18.391808,18.400608,18.410194,18.420713,18.431408,18.441605,18.450565,18.45784,18.46362,18.467934,18.470837,18.47283,18.474045,18.474636,18.474655,18.47443,18.474346,18.474937,18.476374,18.478106,18.479736,18.480827,18.481377,18.481178,18.479517,18.476334,18.472408,18.46877,18.465965,18.46357,18.460999,18.458263,18.45623,18.455679,18.456596,18.458294,18.459896,18.461,18.461851,18.462978,18.46489,18.467514,18.471113,18.47536,18.479784,18.484303,18.489037,18.494774,18.50238,18.511795,18.522854,18.535465,18.549812,18.565887,18.58377,18.60329,18.623177,18.643234,18.663128,18.682026,18.699469,18.714788,18.727905,18.73994,18.752047,18.765202,18.78048,18.798119,18.817604,18.837847,18.856834,18.872898,18.884079,18.88714,18.877062,18.849422,18.80476,18.745552,18.678709,18.607994,18.536633,18.46686,18.402617,18.345737,18.29562,18.252407,18.214787,18.182367,18.15531,18.131886,18.111689,18.093914,18.07678,18.05887,18.040154,18.021683,18.002947,17.985588,17.969118,17.953156,17.93879,17.927227,17.918934,17.911842,17.903555,17.893028,17.881042,17.868715,17.8569,17.846287,17.836216,17.826878,17.81794,17.811592,17.806618,17.801477,17.793594,17.784048,17.773342,17.7627,17.75315,17.744736,17.738108,17.733318,17.73034,17.728783,17.728333,17.728973,17.730255,17.732525,17.735897,17.740438,17.744452,17.747353,17.74886,17.748653,17.746914,17.744442,17.742188,17.739576,17.736366,17.73246,17.728157,17.723652,17.71931,17.714209,17.709394,17.701342,17.69094,17.678936,17.667076,17.655457,17.643414,17.630623,17.617596,17.604687,17.592428,17.581888,17.573437,17.567024,17.562168,17.557564,17.552847,17.547958,17.542076,17.534657,17.525202,17.514824,17.5046,17.495426
17.012291,17.04985,17.090952,17.127762,17.158566,17.184872,17.211824,17.237972,17.261496,17.281448,17.297752,17.312614,17.32726,17.339622,17.347832,17.3563,17.365736,17.375462,17.385088,17.395298,17.406918,17.419477,17.432125,17.444523,17.456718,17.468498,17.479641,17.489937,17.49925,17.507595,17.516832,17.526897,17.537727,17.549152,17.560968,17.573256,17.586048,17.598328,17.609615,17.619598,17.628689,17.638197,17.649109,17.66151,17.673449,17.685545,17.697487,17.708931,17.719616,17.729967,17.740356,17.75121,17.76192,17.7722,17.781803,17.790962,17.79953,17.807981,17.816727,17.824997,17.833767,17.842579,17.850933,17.858805,17.866661,17.875011,17.884645,17.895096,17.905527,17.915428,17.924503,17.932606,17.939838,17.945938,17.951069,17.955387,17.95919,17.962292,17.965246,17.968178,17.970917,17.973438,17.975838,17.978539,17.982044,17.986713,17.991997,17.997467,18.002594,18.007093,18.011173,18.015497,18.020138,18.024506,18.02853,18.032053,18.035578,18.03957,18.044106,18.048853,18.053795,18.059212,18.065367,18.072712,18.080116,18.086773,18.092773,18.097984,18.102005,18.105347,18.108173,18.111084,18.113338,18.11514,18.116547,18.118176,18.119583,18.120354,18.120337,18.119175,18.117329,18.115795,18.114937,18.114658,18.114819,18.115421,18.116589,18.117916,18.119629,18.121956,18.125427,18.129728,18.134155,18.137812,18.140285,18.142696,18.146072,18.151087,18.157959,18.166153,18.175114,18.184692,18.194942,18.205265,18.215197,18.224081,18.231379,18.237045,18.241032,18.243366,18.244637,18.245127,18.24498,18.24428,18.243345,18.242538,18.242365,18.243044,18.24406,18.245071,18.245789,18.246195,18.246084,18.244751,18.24205,18.238619,18.235437,18.23299,18.230898,18.228603,18.226103,18.224176,18.223606,18.224411,18.22601,18.227623,18.228752,18.22961,18.230762,18.232838,18.235897,18.240103,18.24488,18.249588,18.254246,18.25901,18.26474,18.272247,18.281458,18.292263,18.304554,18.318333,18.333542,18.350296,18.36851,18.387087,18.405787,18.42437,18.442059,18.4586,18.473389,18.486376,18.49846,18.510548,18.523468,18.538313,18.555653,18.57545,18.59694,18.61842,18.638458,18.655342,18.666084,18.666092,18.651127,18.6207,18.575958,18.52103,18.45817,18.390268,18.319635,18.250988,18.186815,18.127516,18.074465,18.028507,17.989662,17.958122,17.932163,17.91109,17.893822,17.878513,17.862507,17.845358,17.82687,17.807213,17.787933,17.76884,17.750181,17.733425,17.720413,17.711637,17.704891,17.69767,17.688229,17.677,17.665262,17.654112,17.644352,17.635239,17.627073,17.618927,17.612572,17.607483,17.602127,17.594362,17.58527,17.575306,17.56543,17.556526,17.548595,17.542332,17.5377,17.534672,17.532673,17.531546,17.53149,17.532253,17.534235,17.537624,17.542376,17.547028,17.550833,17.553257,17.553757,17.55228,17.549755,17.547218,17.54424,17.540562,17.53601,17.531097,17.525967,17.521103,17.515524,17.510326,17.502121,17.49181,17.47992,17.46808,17.456451,17.444407,17.43169,17.418495,17.405136,17.392206,17.38078,17.37119,17.363253,17.356634,17.350203,17.344013,17.33817,17.33176,17.324291,17.314953,17.304733,17.294525,17.285181
