16.486992,16.59275,16.678917,16.756638,16.833559,16.9011,16.96788,17.083185,17.246254,17.409546,17.768402,18.39355,19.122736,20.302046,22.368849,24.5363,26.053848,27.743217,29.092518,29.843166,30.441956,30.812828,31.095608,31.401783,31.660023,31.835018,32.0661,32.319023,32.523197,32.7175,32.919556,33.07758,33.198364,33.3416,33.47915,33.5895,33.71827,33.837997,33.914238,33.951447,33.9226,33.83682,33.71939,33.54615,33.368397,33.223007,33.029907,32.84468,32.716095,32.605034,32.535515,32.505432,32.477848,32.465275,32.466087,32.462032,32.481052,32.501602,32.495,32.469017,32.43751,32.417286,32.291668,32.219994,32.262993,32.264572,32.255676,32.1548,31.92994,31.376223,29.771458,27.02693,24.203423,22.464415,22.067223,21.736624,21.672684,21.781631,21.969452,22.365997,23.0573,24.05118,25.973022,27.860455,28.804543,29.352612,29.543808,29.699928,29.830845,29.954723,30.063011,30.158398,30.220453,30.23587,30.235954,30.273674,30.340225,30.397984,30.475523,30.560986,30.630966,30.707573,30.793911,30.873802,30.959171,31.07247,31.186474,31.286991,31.402206,31.524178,31.64155,31.801716,32.00142,32.18775,32.4037,32.617416,32.766235,32.88925,33.01323,33.10655,33.172256,33.248222,33.24034,33.13127,32.975136,32.804665,32.685425,32.58185,32.496777,32.4465,32.41222,32.393578,32.39661,32.40763,32.434807,32.479527,32.526573,32.587162,32.658966,32.722275,32.788918,32.864395,32.933056,32.998425,33.085228,33.181618,33.273422,33.398933,33.54393,33.67284,33.827057,33.998608,34.146545,34.301033,34.49851,34.70572,34.91254,35.21377,35.55483,35.86016,36.277756,36.698822,36.997086,37.277977,37.52928,37.71576,37.88457,38.07486,38.254204,38.419693,38.635685,38.86032,39.05193,39.288177,39.536934,39.742325,39.978283,40.23759,40.45661,40.666924,40.90025,41.10174,41.270287,41.472908,41.672806,41.83966,42.054703,42.303276,42.526096,42.783714,43.083164,43.350357,43.60482,43.906403,44.211246,44.510418,44.92675,45.381935,45.766266,46.190968,46.505157,46.62669,46.64721,46.636284,46.711655,46.893757,47.509747,48.543633,49.70912,51.142372,52.335682,52.99676,53.526245,53.847984,54.025333,54.215027,54.444717,54.68873,54.9551,55.30809,55.649124,55.918415,56.214188,56.466713,56.6407,56.82059,56.981506,57.09469,57.196144,57.29193,57.362705,57.417236,57.484848,57.554794,57.615433,57.710938,57.8311,57.94122,58.08546,58.26684,58.43165,58.58486,58.745834,58.87126,58.964924,59.055927,59.134396,59.20585,59.299408,59.419426,59.54033,59.69153,59.863197,60.005913,60.143913,60.280457,60.375214,60.437275,60.503353,60.560287,60.603233,60.669907,60.75496,60.831467,60.906036,60.97283,61.009727,61.01911,60.99874,60.95735,60.916718,60.85888,60.802177,60.762962,60.726402,60.69645,60.67509,60.65641,60.641434,60.63225,60.625046,60.621346,60.61886,60.61633,60.585102,60.50032,60.386444,60.20522,59.95057,59.70125,59.420235,59.103256,58.83854,58.613365,58.349735,58.115044,57.935944,57.7359,57.559135,57.430748,57.29411,57.155846,57.03733,56.904175,56.730846,56.552174,56.376266
16.491879,16.599398,16.687748,16.769918,16.850113,16.916483,16.973568,17.10884,17.305359,17.485115,17.83537,18.41688,19.092316,20.253414,22.20362,24.220085,25.796673,27.569214,28.96006,29.740261,30.329084,30.68586,30.994417,31.31134,31.564493,31.727009,31.935024,32.16796,32.36617,32.558006,32.775276,32.954483,33.082344,33.23078,33.372,33.486176,33.62178,33.751076,33.835167,33.87065,33.842087,33.76258,33.652374,33.48886,33.32041,33.18186,33.00206,32.834038,32.720306,32.618874,32.554085,32.52643,32.5019,32.493217,32.497894,32.498035,32.519684,32.536163,32.517887,32.48535,32.452972,32.4327,32.27957,32.19702,32.25816,32.25145,32.24402,32.15645,31.942513,31.354122,29.70415,26.952568,24.197592,22.527672,22.130177,21.79398,21.727543,21.8415,22.019798,22.413807,23.107185,24.088726,25.999214,27.889711,28.852003,29.415716,29.616728,29.776976,29.90938,30.03401,30.144077,30.240688,30.312775,30.33972,30.33961,30.381256,30.455801,30.521376,30.605026,30.692917,30.762634,30.839094,30.92952,31.016296,31.10574,31.223066,31.342,31.44925,31.576653,31.708317,31.827057,31.992508,32.194084,32.373764,32.561035,32.736637,32.859287,32.969902,33.087784,33.17855,33.23955,33.30916,33.295086,33.18165,33.014233,32.834007,32.711884,32.602623,32.513706,32.463608,32.431313,32.417423,32.426636,32.443336,32.477024,32.527527,32.57866,32.642826,32.716927,32.781075,32.847717,32.92178,32.98787,33.050095,33.131615,33.221848,33.308327,33.42707,33.565258,33.688927,33.837124,34.002678,34.14634,34.297466,34.493515,34.702244,34.912178,35.220318,35.573708,35.894543,36.333847,36.769585,37.070206,37.375343,37.650436,37.847622,38.03318,38.24367,38.44066,38.620865,38.854023,39.09414,39.29755,39.547188,39.809364,40.025993,40.27555,40.551353,40.78588,41.0122,41.264843,41.483345,41.66529,41.881268,42.08921,42.25868,42.471836,42.71289,42.926758,43.17363,43.460922,43.718292,43.964333,44.257607,44.554886,44.844635,45.260628,45.7191,46.101204,46.52422,46.830353,46.936623,46.92988,46.876476,46.910706,47.05706,47.652092,48.700745,49.909084,51.40233,52.637337,53.3035,53.849625,54.18161,54.355473,54.535553,54.746872,54.970047,55.21666,55.54113,55.850906,56.092506,56.354904,56.57672,56.729233,56.889626,57.0362,57.141434,57.23675,57.32711,57.393585,57.444237,57.50815,57.5756,57.63456,57.728615,57.85337,57.973587,58.12592,58.312813,58.479683,58.633427,58.79425,58.91668,59.00202,59.080864,59.145905,59.20532,59.285454,59.394314,59.50859,59.654346,59.821476,59.9607,60.096,60.227867,60.316437,60.372063,60.430664,60.480583,60.517654,60.57865,60.65921,60.73257,60.80246,60.86336,60.894764,60.898335,60.870937,60.824127,60.780678,60.721054,60.66529,60.628937,60.597458,60.574608,60.559906,60.54893,60.542168,60.53927,60.537216,60.53881,60.540344,60.54045,60.512222,60.43075,60.320145,60.143185,59.89309,59.647743,59.373528,59.064728,58.804115,58.575653,58.30627,58.06516,57.87941,57.674324,57.496635,57.370247,57.238106,57.099335,56.97191,56.819695,56.62266,56.42592,56.236355
16.494545,16.604696,16.697485,16.786812,16.877037,16.95194,17.014736,17.146374,17.350958,17.566986,17.916245,18.452501,19.06821,20.173893,21.944199,23.758009,25.39013,27.192438,28.599411,29.543701,30.207527,30.550905,30.855286,31.184582,31.451454,31.613964,31.797855,32.00949,32.200424,32.36866,32.582165,32.778206,32.91845,33.080322,33.231167,33.34999,33.489388,33.620316,33.70501,33.74421,33.7229,33.652534,33.553455,33.404655,33.250107,33.122486,32.9555,32.803627,32.70764,32.61844,32.5606,32.53685,32.51668,32.51396,32.52534,32.534187,32.557262,32.56813,32.54522,32.510017,32.47285,32.443798,32.272923,32.18695,32.2619,32.25394,32.24248,32.1567,31.960825,31.353813,29.672165,26.917465,24.213047,22.592537,22.193272,21.843983,21.770288,21.890198,22.06031,22.454681,23.150705,24.112766,26.01359,27.91317,28.893461,29.472275,29.68268,29.847284,29.981808,30.107841,30.219875,30.318672,30.39374,30.426392,30.438442,30.482471,30.551952,30.615509,30.699581,30.791588,30.867062,30.951649,31.051285,31.14539,31.242512,31.366512,31.488853,31.59622,31.736315,31.881472,32.001324,32.165344,32.35429,32.512276,32.656982,32.80497,32.927685,33.034218,33.14646,33.231598,33.28871,33.352386,33.33184,33.213394,33.037216,32.850327,32.726753,32.614273,32.524605,32.477432,32.4497,32.443382,32.46114,32.485367,32.527653,32.58579,32.642326,32.711426,32.79011,32.857872,32.92688,33.001892,33.06716,33.12724,33.20543,33.291443,33.373413,33.48542,33.61567,33.732483,33.872578,34.029785,34.167248,34.31315,34.505295,34.712574,34.92226,35.231667,35.59127,35.923416,36.373035,36.816513,37.123116,37.450737,37.745457,37.950027,38.151276,38.38125,38.595024,38.789032,39.037895,39.291733,39.50527,39.765972,40.03868,40.26385,40.523735,40.812805,41.060623,41.30094,41.571457,41.80725,42.004475,42.236824,42.45701,42.633606,42.850487,43.089565,43.29841,43.538162,43.81504,44.061893,44.297592,44.579292,44.86627,45.14565,45.560352,46.020893,46.39913,46.830025,47.14005,47.237137,47.21498,47.12931,47.126717,47.240868,47.816505,48.876907,50.1215,51.66206,52.92534,53.58851,54.14763,54.48885,54.65822,54.82822,55.021324,55.224304,55.451935,55.749477,56.03012,56.24613,56.477493,56.670433,56.802498,56.943817,57.075706,57.172318,57.261017,57.345345,57.406883,57.45308,57.512527,57.576794,57.63359,57.726902,57.853386,57.976562,58.13289,58.322205,58.489307,58.645157,58.809433,58.93332,59.015755,59.0877,59.142952,59.192825,59.26121,59.35986,59.468307,59.60933,59.772514,59.90866,60.041656,60.16961,60.253014,60.30324,60.355732,60.400085,60.432625,60.48948,60.5671,60.638638,60.705597,60.76287,60.791,60.791298,60.760082,60.710827,60.66699,60.608215,60.555332,60.522865,60.49705,60.48097,60.472023,60.467426,60.46685,60.468002,60.4687,60.472275,60.474197,60.473442,60.44429,60.363205,60.254463,60.081398,59.836,59.594463,59.327812,59.023838,58.76082,58.52194,58.251926,58.018005,57.83412,57.63684,57.463486,57.332077,57.19137,57.03569,56.887344,56.706944,56.48066,56.265186,56.062347
16.495506,16.607912,16.704868,16.79919,16.90114,16.988918,17.059475,17.191399,17.386799,17.590437,17.938549,18.446423,18.997509,20.012787,21.605852,23.246304,24.85645,26.66018,28.131523,29.289001,30.093992,30.4384,30.674944,31.010738,31.305616,31.46711,31.658428,31.856834,32.019794,32.175934,32.38651,32.58974,32.741695,32.916626,33.075043,33.19438,33.33483,33.463898,33.545937,33.596046,33.587997,33.52697,33.44045,33.308212,33.169167,33.053207,32.903217,32.768288,32.683823,32.60639,32.557495,32.538673,32.523727,32.527695,32.54671,32.567154,32.589035,32.59175,32.57023,32.537342,32.488228,32.4327,32.272118,32.200096,32.271687,32.26549,32.249195,32.159256,31.980164,31.3647,29.662811,26.905428,24.236948,22.651594,22.250671,21.889488,21.802864,21.919731,22.091734,22.492214,23.188595,24.133608,26.027203,27.93472,28.927586,29.518852,29.73825,29.907162,30.044338,30.171955,30.285282,30.386272,30.455402,30.487486,30.526836,30.579426,30.641258,30.701975,30.78527,30.879374,30.958237,31.047863,31.155119,31.257235,31.363026,31.496002,31.624287,31.735186,31.874561,32.018707,32.14218,32.290173,32.4486,32.58098,32.71887,32.8636,32.980194,33.080956,33.187332,33.26812,33.322155,33.38102,33.3553,33.233032,33.05126,32.860146,32.735477,32.621967,32.533897,32.491035,32.468903,32.470757,32.497063,32.528633,32.5793,32.64453,32.705643,32.778305,32.86277,32.93764,33.010925,33.08747,33.15097,33.206528,33.281662,33.36593,33.444984,33.552162,33.675888,33.786446,33.919037,34.068268,34.199593,34.34005,34.527306,34.731346,34.938606,35.24578,35.60563,35.940845,36.393253,36.84153,37.15516,37.4982,37.80774,38.020813,38.235554,38.482094,38.71022,38.91591,39.17791,39.442993,39.664703,39.934196,40.214973,40.446434,40.713867,41.012924,41.27118,41.522835,41.80742,42.057487,42.269463,42.51767,42.750282,42.93506,43.15763,43.397564,43.60399,43.83944,44.108494,44.346497,44.573288,44.84386,45.12199,45.397057,45.803696,46.263824,46.653954,47.099106,47.416824,47.51072,47.48224,47.371975,47.335747,47.420708,47.976788,49.04301,50.313614,51.889107,53.17139,53.827858,54.400227,54.748505,54.907345,55.066467,55.242523,55.42693,55.637268,55.91104,56.166862,56.36174,56.5677,56.737427,56.85347,56.98011,57.100914,57.19117,57.275383,57.355564,57.41327,57.45556,57.51098,57.572132,57.626503,57.718994,57.846996,57.972626,58.13179,58.324066,58.492775,58.64791,58.807995,58.928852,59.01609,59.086456,59.13616,59.18417,59.24537,59.335697,59.439552,59.576637,59.736153,59.86911,59.999313,60.12314,60.201744,60.247276,60.294594,60.334564,60.363773,60.41768,60.49347,60.564125,60.629322,60.684753,60.71164,60.71074,60.678482,60.629337,60.58693,60.53069,60.48136,60.452545,60.43165,60.420624,60.415314,60.414673,60.41729,60.41967,60.420307,60.422424,60.421562,60.417274,60.384365,60.301414,60.193085,60.02265,59.784195,59.549843,59.282112,58.968693,58.697655,58.464203,58.204056,57.98123,57.80838,57.624084,57.447746,57.294716,57.12588,56.941948,56.776917,56.58924,56.359337,56.142563,55.940727
16.492672,16.606628,16.707767,16.80643,16.917915,17.017336,17.099487,17.228815,17.408848,17.599518,17.918549,18.368774,18.838291,19.611923,20.862452,22.264004,23.864952,25.721241,27.30017,28.647335,29.866821,30.46518,30.533684,30.775661,31.055641,31.250294,31.451063,31.646395,31.79919,31.94281,32.13364,32.327652,32.49438,32.68639,32.854645,32.97428,33.11719,33.249535,33.335136,33.393867,33.398983,33.352364,33.283203,33.173782,33.05649,32.95788,32.83087,32.716187,32.64337,32.581413,32.54593,32.534603,32.527023,32.540913,32.56889,32.59381,32.616558,32.61852,32.598797,32.569454,32.50659,32.419155,32.270454,32.215252,32.284103,32.284203,32.26525,32.168823,32.00103,31.382385,29.66855,26.906155,24.273926,22.725048,22.322529,21.944103,21.839119,21.951977,22.128954,22.535538,23.229977,24.159977,26.050453,27.966297,28.965065,29.56895,29.801037,29.97608,30.117592,30.248575,30.364681,30.468946,30.533487,30.560913,30.609177,30.675014,30.749935,30.820515,30.906477,31.001417,31.084856,31.182728,31.297874,31.403048,31.50788,31.638721,31.764978,31.874239,32.00913,32.14595,32.26191,32.397453,32.539448,32.65767,32.78687,32.923172,33.031483,33.124928,33.22402,33.299538,33.349976,33.404663,33.374886,33.249252,33.064804,32.87231,32.747833,32.63734,32.555958,32.521423,32.50846,32.52147,32.55795,32.59794,32.65629,32.72959,32.79971,32.88218,32.97435,33.052956,33.129845,33.209175,33.27372,33.329338,33.40126,33.479393,33.552277,33.649704,33.764427,33.870323,33.996273,34.137527,34.261734,34.39506,34.57399,34.77015,34.969856,35.26722,35.617165,35.94405,36.38433,36.836113,37.17136,37.52594,37.846466,38.072018,38.30149,38.565945,38.80979,39.02822,39.304535,39.581856,39.81243,40.091522,40.380997,40.619045,40.893875,41.20279,41.471138,41.731728,42.02986,42.2959,42.523506,42.791283,43.04217,43.24051,43.473972,43.718246,43.923515,44.154686,44.41448,44.641846,44.858025,45.117935,45.38954,45.661076,46.070694,46.545067,46.95523,47.426533,47.76274,47.85817,47.818146,47.679832,47.609303,47.65423,48.178272,49.241898,50.53347,52.144592,53.447487,54.09391,54.639076,54.985226,55.17228,55.318535,55.468243,55.629524,55.818504,56.06411,56.291847,56.46369,56.64264,56.788654,56.889038,57.001926,57.113403,57.19918,57.281036,57.358982,57.413696,57.452087,57.50273,57.559273,57.609283,57.701828,57.83126,57.95611,58.117805,58.3144,58.486298,58.642433,58.801514,58.920715,59.00715,59.080376,59.132084,59.176884,59.23165,59.31495,59.41449,59.546783,59.700806,59.82876,59.954376,60.072033,60.143948,60.182747,60.223522,60.258793,60.28476,60.33642,60.411713,60.48288,60.548077,60.603836,60.631546,60.63169,60.600952,60.55404,60.514748,60.46274,60.417984,60.393105,60.377018,60.370075,60.36692,60.3685,60.371834,60.372665,60.369946,60.366516,60.358337,60.345398,60.30327,60.215775,60.108467,59.94639,59.70204,59.446297,59.17125,58.862366,58.604805,58.388863,58.152603,57.941628,57.7595,57.559258,57.369064,57.21126,57.03382,56.8393,56.66568,56.4719,56.23806,56.021027,55.821583
16.48924,16.60309,16.70686,16.808067,16.924572,17.030516,17.121319,17.248096,17.412365,17.586212,17.857542,18.229755,18.60833,19.137318,19.98349,21.00742,22.319368,24.123444,25.87413,27.338758,29.022274,30.12895,30.396759,30.607752,30.768284,30.948711,31.156307,31.370882,31.535622,31.683994,31.863718,32.04729,32.22737,32.432076,32.608574,32.733093,32.87966,33.017307,33.10977,33.17103,33.18566,33.15606,33.10575,33.021675,32.928955,32.85058,32.7427,32.645264,32.588753,32.544838,32.52454,32.52215,32.52293,32.54856,32.58584,32.60833,32.63383,32.64236,32.625618,32.6022,32.52872,32.41209,32.274925,32.237167,32.306232,32.314045,32.296124,32.19558,32.032166,31.41494,29.695843,26.921469,24.318464,22.797985,22.386156,21.9939,21.874622,21.982399,22.166801,22.577612,23.267979,24.19069,26.086868,28.010761,29.003262,29.617199,29.865093,30.047886,30.19519,30.330978,30.451057,30.559849,30.621632,30.642315,30.687992,30.762955,30.853346,30.934256,31.027786,31.127945,31.215721,31.3177,31.434235,31.537415,31.638327,31.763962,31.885632,31.991459,32.12127,32.24962,32.354767,32.481804,32.61657,32.72798,32.846725,32.97097,33.069958,33.155556,33.24784,33.318928,33.365784,33.416603,33.38394,33.25677,33.074554,32.886253,32.76534,32.661186,32.59025,32.567184,32.565166,32.591995,32.64111,32.69042,32.76004,32.844185,32.922607,33.013466,33.109978,33.188408,33.265717,33.34577,33.411396,33.468758,33.539963,33.614944,33.68487,33.7771,33.885773,33.986954,34.10574,34.2387,34.35604,34.482346,34.651054,34.835163,35.02227,35.301826,35.630905,35.937214,36.35067,36.7929,37.142303,37.515236,37.852318,38.086533,38.327404,38.606384,38.863636,39.092896,39.38143,39.669422,39.90799,40.19603,40.49386,40.738224,41.019608,41.336567,41.61302,41.881493,42.19107,42.470436,42.71145,42.99756,43.267056,43.47991,43.726494,43.9783,44.185326,44.415543,44.67005,44.890522,45.099823,45.354355,45.626186,45.90179,46.326965,46.82826,47.26626,47.776573,48.14248,48.243347,48.1874,48.01985,47.91662,47.91209,48.39022,49.436516,50.73406,52.367165,53.68473,54.321873,54.81912,55.15149,55.376877,55.513638,55.636642,55.772594,55.939964,56.158752,56.361755,56.514793,56.673264,56.8031,56.89398,57.00009,57.109,57.195175,57.279133,57.35858,57.412186,57.447342,57.49263,57.543972,57.591164,57.672497,57.797623,57.932137,58.0963,58.2957,58.472416,58.63165,58.793594,58.91429,58.999355,59.078148,59.137634,59.1849,59.238274,59.31752,59.413925,59.54406,59.69353,59.814796,59.933273,60.04155,60.104782,60.13691,60.17045,60.20024,60.223076,60.27284,60.347824,60.419266,60.484344,60.540688,60.56993,60.572395,60.545,60.501846,60.466526,60.419285,60.37882,60.35701,60.343925,60.33818,60.334076,60.333115,60.330734,60.323986,60.312447,60.296997,60.27601,60.251,60.19291,60.09059,59.973595,59.800903,59.544556,59.28015,59.010864,58.721672,58.48504,58.280113,58.05413,57.846474,57.659054,57.448387,57.255333,57.107517,56.93895,56.749832,56.57669,56.381218,56.146656,55.93232,55.737846
16.489515,16.601915,16.70623,16.808386,16.926739,17.034481,17.126915,17.253191,17.406528,17.560024,17.790972,18.093819,18.391266,18.814957,19.364424,19.956673,20.708977,22.271637,24.154057,25.667717,27.59912,29.223515,30.135155,30.512789,30.538074,30.633986,30.843975,31.087513,31.26947,31.438671,31.633009,31.822582,32.01039,32.219124,32.40022,32.53414,32.684162,32.82408,32.920486,32.98017,33.000664,32.985725,32.951057,32.88813,32.815834,32.754395,32.65666,32.571014,32.53473,32.507626,32.499935,32.505463,32.513634,32.54917,32.593994,32.614006,32.64289,32.65911,32.646477,32.630577,32.55215,32.415348,32.28801,32.26551,32.33738,32.350056,32.335114,32.235203,32.07321,31.457298,29.73247,26.940508,24.357262,22.853977,22.424763,22.027729,21.90422,22.0071,22.198364,22.611477,23.29821,24.220474,26.128223,28.05931,29.038242,29.6595,29.923412,30.11383,30.266829,30.407173,30.530985,30.644543,30.70433,30.719803,30.767262,30.842659,30.932259,31.012547,31.114866,31.225079,31.315647,31.414738,31.526028,31.626572,31.728947,31.855904,31.977257,32.08224,32.209457,32.333588,32.434494,32.55394,32.678574,32.780884,32.889603,33.00329,33.094208,33.173157,33.26053,33.32882,33.37265,33.41956,33.38434,33.25692,33.07979,32.89954,32.78505,32.68738,32.62632,32.614227,32.621777,32.661827,32.723816,32.78218,32.866405,32.962296,33.043922,33.135834,33.231354,33.30854,33.383568,33.46107,33.525303,33.582146,33.6555,33.734634,33.808357,33.90532,34.014477,34.11078,34.222588,34.347828,34.45941,34.57991,34.73906,34.910805,35.084656,35.344837,35.65078,35.93434,36.31896,36.73811,37.079063,37.47606,37.83734,38.075653,38.324173,38.612717,38.878876,39.11547,39.412415,39.7081,39.952827,40.248173,40.55328,40.803356,41.090477,41.413536,41.696,41.972805,42.291565,42.579533,42.83007,43.128967,43.41143,43.634552,43.891586,44.151196,44.362206,44.59547,44.850952,45.0709,45.279587,45.534767,45.81246,46.099815,46.54393,47.07215,47.53888,48.087196,48.482742,48.5912,48.52147,48.327946,48.194542,48.140945,48.56997,49.590336,50.881264,52.51935,53.842968,54.475655,54.941463,55.255478,55.492165,55.625908,55.73172,55.84462,55.994476,56.192852,56.37873,56.520184,56.66781,56.791092,56.87954,56.98627,57.098896,57.18933,57.278473,57.361843,57.415665,57.44835,57.488827,57.534546,57.57808,57.634827,57.750603,57.908516,58.078255,58.27965,58.46087,58.6238,58.78976,58.914124,59.002495,59.085827,59.152504,59.20964,59.267365,59.345818,59.440548,59.571735,59.71877,59.83307,59.943237,60.040718,60.095123,60.12239,60.149353,60.17323,60.192673,60.23927,60.312042,60.382217,60.445984,60.501633,60.531197,60.534863,60.509987,60.47003,60.437862,60.39437,60.35664,60.335876,60.323048,60.315598,60.308266,60.301292,60.288803,60.270645,60.247116,60.215794,60.179443,60.142483,60.066353,59.942135,59.805195,59.60047,59.338703,59.1025,58.856274,58.58815,58.360416,58.150566,57.91072,57.6986,57.528255,57.33882,57.16398,57.02639,56.867477,56.68493,56.514908,56.32193,56.09095,55.88189,55.694107
16.498184,16.606739,16.70802,16.809525,16.927881,17.034958,17.126356,17.245434,17.381214,17.511786,17.705517,17.947498,18.173134,18.48647,18.847458,19.194784,19.629768,20.499834,21.795452,23.342297,25.517025,27.567719,28.923532,29.974247,30.423492,30.477581,30.663939,30.886076,31.072111,31.224117,31.43536,31.650318,31.816673,32.008896,32.186714,32.325474,32.478584,32.61541,32.70455,32.76286,32.791832,32.79239,32.7752,32.731316,32.67372,32.622116,32.544914,32.48408,32.46647,32.456985,32.463448,32.47834,32.497234,32.53782,32.582996,32.608524,32.64686,32.672714,32.66664,32.662155,32.582943,32.428917,32.312847,32.307087,32.38343,32.399673,32.38823,32.290398,32.127674,31.508638,29.773026,26.959534,24.39257,22.90298,22.452965,22.05347,21.931046,22.032515,22.229397,22.646214,23.333553,24.257675,26.18206,28.121002,29.077518,29.7101,29.997688,30.196661,30.356281,30.501453,30.629276,30.749828,30.807667,30.816103,30.864773,30.941826,31.033081,31.114983,31.220219,31.333733,31.426517,31.52671,31.638214,31.738491,31.840595,31.965908,32.084335,32.18629,32.308178,32.425217,32.519356,32.628963,32.741585,32.833347,32.93034,33.033318,33.117474,33.190918,33.271996,33.33497,33.375305,33.41838,33.37897,33.24729,33.07807,32.91298,32.810875,32.72443,32.67712,32.678837,32.70025,32.752052,32.822975,32.892227,32.985077,33.0854,33.16904,33.262135,33.357307,33.433235,33.506363,33.581684,33.644905,33.702183,33.778194,33.862778,33.943264,34.05008,34.168877,34.27121,34.387703,34.509567,34.610397,34.71627,34.85688,35.011402,35.169586,35.405617,35.684383,35.945545,36.294464,36.67714,36.995155,37.372322,37.752792,38.03718,38.309612,38.608826,38.87657,39.120087,39.4252,39.72869,39.980125,40.284172,40.59871,40.85652,41.151688,41.48313,41.77256,42.055378,42.38407,42.682747,42.94053,43.250175,43.544933,43.778732,44.047142,44.31668,44.53441,44.774193,45.035454,45.259727,45.47263,45.73413,46.023064,46.32714,46.795486,47.360374,47.8706,48.429886,48.84312,48.98722,48.910492,48.688614,48.517212,48.40093,48.766254,49.750023,51.026398,52.657764,53.98379,54.620575,55.062477,55.348427,55.57556,55.71487,55.80986,55.895317,56.02635,56.2042,56.37468,56.507294,56.64834,56.770313,56.86093,56.97367,57.095253,57.193558,57.290974,57.380463,57.43512,57.464863,57.5043,57.53093,57.526047,57.543495,57.65731,57.84532,58.052273,58.276947,58.458244,58.625717,58.79715,58.92699,59.020767,59.110664,59.187206,59.257656,59.33098,59.419582,59.51555,59.64288,59.779472,59.88164,59.979317,60.063698,60.10811,60.127304,60.147144,60.165348,60.179634,60.210823,60.270966,60.340652,60.410336,60.471153,60.49969,60.49821,60.469803,60.43065,60.401054,60.36365,60.327293,60.299103,60.27696,60.259747,60.24539,60.232475,60.211174,60.180122,60.138042,60.078514,60.012093,59.94821,59.850502,59.71468,59.571514,59.370857,59.11592,58.881714,58.638344,58.37445,58.154022,57.958206,57.734573,57.5382,57.38425,57.21405,57.056656,56.931454,56.78492,56.612236,56.44821,56.26085,56.03705,55.83642,55.658203
16.514585,16.617855,16.714386,16.81366,16.929825,17.033947,17.122276,17.231865,17.34917,17.45766,17.614782,17.8042,17.974346,18.193378,18.43822,18.652822,18.878845,19.219585,19.890785,20.995743,22.9272,25.10555,26.78526,28.445305,29.477135,29.781822,30.07143,30.27364,30.423649,30.608662,30.903402,31.212147,31.44491,31.710468,31.929855,32.068764,32.22047,32.36345,32.46845,32.537106,32.57852,32.593468,32.595028,32.561974,32.51045,32.472485,32.42626,32.399048,32.400536,32.408325,32.42669,32.447975,32.472755,32.51581,32.5632,32.59867,32.651104,32.690296,32.69447,32.7026,32.62698,32.465378,32.36344,32.376774,32.46189,32.482925,32.478065,32.383358,32.21006,31.586655,29.83477,26.97305,24.416553,22.946114,22.4749,22.073463,21.955002,22.057793,22.253529,22.674942,23.370964,24.299248,26.239891,28.188038,29.12865,29.782597,30.101366,30.310085,30.476652,30.625647,30.755589,30.877563,30.934717,30.941328,30.989227,31.066278,31.158478,31.241623,31.347546,31.46212,31.55656,31.658108,31.770325,31.870178,31.970736,32.092438,32.20591,32.30299,32.417007,32.524414,32.6099,32.707825,32.807716,32.88936,32.975395,33.067123,33.142685,33.209137,33.28234,33.33892,33.374992,33.41578,33.374504,33.239388,33.081524,32.935856,32.849022,32.77746,32.745667,32.759964,32.7927,32.852715,32.92916,33.006493,33.10384,33.20533,33.28994,33.383686,33.47834,33.552773,33.623497,33.695816,33.757484,33.815285,33.895527,33.98927,34.081406,34.20553,34.343628,34.461136,34.592472,34.720787,34.81756,34.914185,35.036377,35.168217,35.303406,35.508743,35.75442,35.98578,36.2918,36.63096,36.919167,37.26301,37.640587,37.952538,38.24694,38.574608,38.86315,39.109673,39.419895,39.730865,39.989197,40.30284,40.62845,40.895653,41.200607,41.541485,41.83754,42.124794,42.45962,42.765236,43.029022,43.34664,43.651108,43.894775,44.175705,44.458878,44.68791,44.94037,45.21585,45.452682,45.67759,45.95398,46.260895,46.586235,47.087425,47.68441,48.214626,48.775524,49.20079,49.376705,49.33349,49.101192,48.87169,48.68544,48.974785,49.907917,51.1581,52.77943,54.110916,54.753426,55.171593,55.4242,55.63451,55.78312,55.868855,55.923634,56.03502,56.192825,56.350243,56.477264,56.617157,56.744377,56.84266,56.96804,57.105156,57.21587,57.32525,57.42299,57.47826,57.503334,57.54097,57.540436,57.465874,57.44548,57.560703,57.766823,58.02733,58.288757,58.46599,58.637966,58.81458,58.94971,59.04969,59.14801,59.235397,59.31771,59.41027,59.515247,59.61664,59.74192,59.870132,59.96271,60.048615,60.11907,60.15128,60.159695,60.17016,60.17501,60.168854,60.180466,60.22648,60.289307,60.354774,60.414516,60.44426,60.44584,60.420704,60.383076,60.353714,60.314026,60.27208,60.237194,60.207542,60.181465,60.158424,60.135292,60.098026,60.047745,59.983658,59.894764,59.799896,59.712692,59.588234,59.432472,59.28018,59.081116,58.83766,58.615837,58.38512,58.136368,57.932144,57.757183,57.558655,57.384544,57.24823,57.098503,56.959873,56.848442,56.71615,56.555717,56.399925,56.22063,56.00659,55.816376,55.649254
16.53287,16.631842,16.724487,16.82097,16.93391,17.034586,17.11988,17.22254,17.32762,17.421963,17.552011,17.706211,17.844398,18.00589,18.187485,18.34171,18.459034,18.686464,19.08854,19.562042,20.858189,22.765566,24.548676,26.376127,27.756636,28.45774,28.935665,29.194033,29.361282,29.643154,30.061594,30.495169,30.864395,31.289196,31.621778,31.80332,31.966677,32.116722,32.248047,32.34661,32.411774,32.437866,32.45398,32.42532,32.375908,32.35332,32.333652,32.332535,32.34846,32.368584,32.394485,32.419067,32.445183,32.491875,32.5466,32.591858,32.658432,32.711845,32.727493,32.746895,32.678017,32.518734,32.43172,32.46416,32.56126,32.58777,32.58638,32.49046,32.30506,31.680733,29.911531,26.98796,24.430193,22.976295,22.48938,22.086432,21.971676,22.075996,22.266033,22.691425,23.39898,24.33036,26.283504,28.243916,29.183788,29.866547,30.21715,30.434774,30.606777,30.756153,30.883738,30.999722,31.057657,31.06908,31.114525,31.189323,31.280539,31.363455,31.469124,31.58398,31.679104,31.780573,31.891968,31.990356,32.088554,32.205906,32.313904,32.405617,32.51216,32.611122,32.689053,32.776997,32.866417,32.94006,33.017784,33.099655,33.166313,33.22549,33.291454,33.342842,33.375214,33.414253,33.376167,33.247597,33.101143,32.969894,32.894928,32.835377,32.814045,32.834206,32.870384,32.932148,33.009224,33.08786,33.18557,33.28698,33.371956,33.466225,33.56082,33.634346,33.70311,33.77262,33.832703,33.89094,33.976006,34.08033,34.185753,34.32968,34.490326,34.626152,34.77633,34.9187,35.020874,35.118996,35.231712,35.344765,35.458313,35.636105,35.851532,36.052795,36.3212,36.625492,36.89076,37.21289,37.569527,37.869194,38.16982,38.52607,38.843803,39.095512,39.40973,39.72525,39.988983,40.310547,40.64576,40.92125,41.234703,41.582886,41.88296,42.17219,42.50707,42.81293,43.079872,43.401066,43.710682,43.96109,44.25289,44.550507,44.7931,45.061874,45.35727,45.612316,45.854378,46.150787,46.477303,46.821175,47.354107,47.96823,48.48613,49.042076,49.470997,49.66087,49.684967,49.462326,49.16605,48.922226,49.143665,50.02519,51.24517,52.863274,54.207546,54.853096,55.248154,55.471485,55.669952,55.83036,55.909622,55.93689,56.031532,56.17307,56.32112,56.44552,56.588005,56.723854,56.832035,56.972355,57.1268,57.250797,57.37239,57.477806,57.532455,57.55146,57.58371,57.557335,57.423584,57.378864,57.495773,57.704147,58.006325,58.301224,58.478245,58.653267,58.8318,58.9691,59.073006,59.17852,59.2742,59.362656,59.469353,59.588783,59.697014,59.82435,59.950836,60.03993,60.119194,60.180187,60.202995,60.203606,60.20066,60.1845,60.15345,60.151443,60.187263,60.236694,60.285667,60.334454,60.3647,60.374924,60.359955,60.327614,60.29933,60.254505,60.20662,60.17131,60.140884,60.11011,60.078407,60.04241,59.985878,59.916,59.834084,59.722954,59.606544,59.501328,59.351,59.17379,59.012657,58.80835,58.57826,58.383133,58.178486,57.958504,57.777485,57.62101,57.442757,57.2864,57.164524,57.031273,56.907578,56.80715,56.686333,56.535957,56.387115,56.214695,56.00878,55.826912,55.66848
16.549465,16.64589,16.735876,16.829685,16.939442,17.037186,17.120125,17.218575,17.316883,17.403542,17.5181,17.648453,17.76233,17.896835,18.03708,18.146008,18.239323,18.3606,18.584398,18.91761,19.661476,21.030212,22.72897,24.50746,25.995152,26.89288,27.480076,27.928478,28.320446,28.713673,29.208569,29.702614,30.148613,30.72414,31.235823,31.555492,31.764896,31.89891,32.02376,32.1784,32.28835,32.317677,32.34026,32.31913,32.27825,32.26478,32.255394,32.264164,32.288372,32.316715,32.35036,32.381218,32.414078,32.469574,32.533447,32.587524,32.667,32.733902,32.760387,32.792336,32.732384,32.576683,32.50386,32.55735,32.670776,32.70335,32.693478,32.58436,32.39787,31.778843,29.995552,27.02141,24.449427,22.996471,22.496853,22.094376,21.98277,22.086178,22.274162,22.702568,23.416277,24.347832,26.315807,28.29444,29.238098,29.951038,30.332832,30.55908,30.734428,30.879784,31.00082,31.109484,31.169117,31.186783,31.229403,31.300335,31.38874,31.470568,31.575293,31.689678,31.784595,31.885143,31.99511,32.091732,32.187263,32.299942,32.40233,32.488495,32.589985,32.684402,32.757683,32.838676,32.919006,32.984177,33.05317,33.126133,33.185997,33.239594,33.29998,33.347412,33.37738,33.411903,33.380295,33.272305,33.13527,33.01066,32.944096,32.890804,32.873116,32.89364,32.928738,32.98769,33.061287,33.136913,33.232357,33.3331,33.41839,33.513676,33.60931,33.683037,33.751022,33.818798,33.87786,33.936684,34.026215,34.140327,34.2582,34.420963,34.60334,34.757008,34.92581,35.08228,35.190407,35.29161,35.401207,35.505047,35.606934,35.764828,35.955353,36.132988,36.372345,36.651062,36.901104,37.214676,37.55631,37.836967,38.132088,38.485863,38.80852,39.080715,39.404816,39.720867,39.988464,40.316116,40.658943,40.941055,41.261086,41.61425,41.916138,42.205223,42.53768,42.841,43.107513,43.428833,43.740845,43.99562,44.29612,44.607124,44.8634,45.149353,45.46644,45.74158,46.002487,46.320328,46.66536,47.023396,47.581738,48.207787,48.71129,49.247524,49.66906,49.87529,49.97115,49.75836,49.39425,49.105404,49.270264,50.105003,51.29643,52.919483,54.282864,54.92945,55.301666,55.497448,55.68678,55.865784,55.944332,55.946243,56.026253,56.153793,56.29412,56.416763,56.56239,56.706795,56.8244,56.978844,57.149376,57.28537,57.41777,57.52938,57.582397,57.59458,57.62043,57.57244,57.39189,57.32464,57.442204,57.65644,57.979416,58.29789,58.48651,58.663742,58.84115,58.978077,59.083447,59.194405,59.297043,59.389877,59.5066,59.635822,59.748226,59.87847,60.004715,60.091125,60.166603,60.224014,60.244507,60.245415,60.221455,60.179474,60.14033,60.131317,60.155975,60.1898,60.22151,60.25502,60.278023,60.286247,60.277714,60.2564,60.236526,60.19989,60.156754,60.12285,60.09156,60.0532,60.00979,59.960735,59.888996,59.80581,59.71296,59.580498,59.43331,59.292515,59.117676,58.935944,58.78061,58.588898,58.379913,58.206238,58.024544,57.82988,57.669582,57.530556,57.370773,57.22963,57.11964,56.999443,56.887115,56.7949,56.682556,56.539352,56.39524,56.2274,56.026894,55.850674,55.69825
16.571777,16.665335,16.752148,16.842632,16.948463,17.042805,17.123146,17.218191,17.311857,17.39333,17.497513,17.610678,17.705248,17.809097,17.911978,17.988098,18.052244,18.10849,18.218298,18.419455,18.834059,19.703083,20.889435,22.560043,24.09293,24.916016,25.56857,26.149672,26.66455,27.163242,27.907022,28.687595,29.304125,30.03235,30.715374,31.251032,31.534977,31.648684,31.756615,31.9285,32.100403,32.197243,32.242195,32.238068,32.20826,32.19914,32.195515,32.210583,32.24021,32.273727,32.31268,32.34851,32.38701,32.45095,32.524464,32.588074,32.682285,32.765396,32.805595,32.852592,32.804558,32.6562,32.606327,32.67763,32.79101,32.81507,32.799988,32.696198,32.524647,31.90783,30.097332,27.072588,24.474327,23.010822,22.498396,22.098442,21.992214,22.094795,22.280539,22.710808,23.428646,24.356739,26.341364,28.347218,29.306,30.064346,30.484573,30.715195,30.897943,31.03982,31.148876,31.247154,31.306084,31.330202,31.374187,31.442745,31.525278,31.601116,31.697666,31.806297,31.900127,31.999191,32.106983,32.20101,32.293907,32.403374,32.502327,32.58495,32.68023,32.76716,32.834175,32.906876,32.977478,33.03411,33.094215,33.158096,33.21106,33.25904,33.314137,33.35822,33.386406,33.41481,33.398743,33.334267,33.206417,33.078526,33.01588,32.96547,32.9467,32.962032,32.990856,33.040905,33.105347,33.172886,33.26173,33.3592,33.443436,33.539085,33.636116,33.71087,33.779053,33.8463,33.90545,33.965927,34.06157,34.18779,34.320724,34.506195,34.714897,34.890396,35.082314,35.257385,35.375023,35.48311,35.594193,35.69311,35.787155,35.929413,36.098495,36.254875,36.467697,36.721764,36.955055,37.244633,37.564247,37.83353,38.123573,38.471695,38.79326,39.07768,39.407738,39.724575,39.995636,40.328987,40.678932,40.966976,41.2923,41.64804,41.948826,42.23436,42.5602,42.856583,43.117317,43.43689,43.751755,44.009995,44.320045,44.647793,44.92218,45.23117,45.577827,45.880375,46.16645,46.51259,46.87913,47.24844,47.827785,48.465878,48.961685,49.469227,49.871307,50.088333,50.23098,50.028957,49.62049,49.28242,49.382732,50.16433,51.32209,52.947777,54.334938,54.991856,55.349304,55.52028,55.699715,55.910427,55.993446,55.963852,56.02767,56.14015,56.272545,56.393837,56.543545,56.698277,56.827393,56.998657,57.188316,57.33868,57.483986,57.60199,57.65126,57.655678,57.65647,57.570854,57.353027,57.263992,57.380924,57.60396,57.944443,58.29025,58.50063,58.678574,58.849884,58.982056,59.086273,59.196182,59.298546,59.39154,59.520996,59.66621,59.786316,59.92057,60.046753,60.130665,60.201656,60.253716,60.268764,60.264427,60.22164,60.159454,60.112865,60.098404,60.112427,60.130005,60.14755,60.16929,60.18686,60.19552,60.19363,60.180298,60.16304,60.136612,60.108253,60.086502,60.057346,60.012638,59.961563,59.901947,59.817978,59.719635,59.597977,59.42748,59.247677,59.083885,58.89222,58.70758,58.558243,58.380836,58.196022,58.047123,57.89271,57.72848,57.592957,57.474285,57.33512,57.209564,57.110603,57.00171,56.89839,56.81229,56.705902,56.56718,56.42559,56.26023,56.062798,55.890247,55.742237
16.59541,16.686592,16.770615,16.858015,16.959972,17.050755,17.128128,17.220036,17.310783,17.389624,17.489838,17.596703,17.683296,17.767258,17.845383,17.901215,17.941435,17.97863,18.053947,18.182735,18.49984,19.071331,19.732435,21.132866,22.55711,23.287722,23.920658,24.4903,24.989208,25.506397,26.404367,27.444744,28.32859,29.29335,30.17075,30.89582,31.295671,31.442894,31.545048,31.689053,31.890064,32.066494,32.15534,32.195354,32.19111,32.18265,32.178482,32.19285,32.222717,32.255592,32.294357,32.33117,32.371246,32.439762,32.520157,32.59111,32.698025,32.79642,32.85071,32.909687,32.872864,32.7368,32.7164,32.799385,32.89655,32.908516,32.89411,32.8075,32.66767,32.04914,30.197403,27.123482,24.491547,23.011492,22.489208,22.094105,21.995012,22.097313,22.28143,22.711678,23.429634,24.350147,26.34533,28.379757,29.366825,30.179184,30.637707,30.867691,31.067554,31.212101,31.304348,31.388474,31.439499,31.46386,31.508595,31.575586,31.652601,31.720837,31.809263,31.91143,32.001682,32.096264,32.199997,32.29145,32.38211,32.48903,32.585346,32.66551,32.755222,32.835052,32.89641,32.962074,33.024956,33.075077,33.12831,33.18515,33.232834,33.276726,33.328457,33.371098,33.39911,33.423832,33.42434,33.40207,33.298653,33.174538,33.10424,33.049767,33.02369,33.029163,33.047157,33.083435,33.1342,33.189095,33.26659,33.35684,33.437206,33.530914,33.62836,33.704464,33.774075,33.84308,33.904587,33.9684,34.071613,34.210342,34.35784,34.564682,34.79785,34.99369,35.207275,35.40071,35.52919,35.646904,35.765076,35.86614,35.959366,36.09587,36.253952,36.397827,36.59514,36.829002,37.041,37.29749,37.5945,37.861206,38.14691,38.48908,38.805397,39.087852,39.417202,39.735165,40.00824,40.34507,40.69897,40.989674,41.316216,41.66957,41.964874,42.24288,42.55834,42.844727,43.096313,43.41092,43.727196,43.98913,44.309402,44.65474,44.947823,45.280876,45.658646,45.989853,46.301888,46.6743,47.05716,47.431656,48.02014,48.661736,49.150726,49.63627,50.02218,50.242493,50.398315,50.201904,49.776802,49.398476,49.442818,50.17681,51.301918,52.92698,54.343494,55.02966,55.384186,55.536266,55.70661,55.9373,56.027718,55.982788,56.03309,56.13282,56.259373,56.380356,56.53453,56.699196,56.839203,57.026176,57.233597,57.39718,57.55411,57.67614,57.71874,57.714554,57.674393,57.537968,57.29216,57.18399,57.301086,57.536415,57.891758,58.268047,58.508934,58.68593,58.846058,58.96853,59.06808,59.16706,59.26062,59.354095,59.493324,59.65401,59.78562,59.923405,60.048805,60.13093,60.19799,60.246483,60.25557,60.2374,60.18046,60.109585,60.0599,60.040367,60.048164,60.060143,60.07213,60.08766,60.100044,60.104412,60.101097,60.09125,60.079918,60.068672,60.060234,60.054474,60.036858,59.997887,59.94802,59.883484,59.78607,59.668007,59.517567,59.313705,59.110596,58.935905,58.73389,58.545414,58.398697,58.23162,58.06713,57.94066,57.812073,57.677643,57.566555,57.46748,57.347157,57.234253,57.142815,57.04048,56.941185,56.8573,56.75258,56.61431,56.472343,56.30655,56.108894,55.93689,55.79023
16.61476,16.704542,16.786777,16.872005,16.970867,17.058392,17.132626,17.22099,17.308834,17.385674,17.484428,17.591007,17.67773,17.759314,17.82474,17.863667,17.896362,17.927444,17.997173,18.13031,18.380392,18.821,19.360119,20.364058,21.559841,22.431717,22.993946,23.462534,23.907333,24.355526,25.130138,26.169098,27.31954,28.610086,29.724617,30.53999,31.07758,31.32174,31.438568,31.547989,31.726059,31.927883,32.067352,32.170692,32.20499,32.199184,32.192024,32.200665,32.227425,32.255905,32.29068,32.32538,32.363792,32.433117,32.516953,32.592026,32.707497,32.817375,32.883335,32.94835,32.91915,32.797474,32.804977,32.895603,32.974583,32.9862,32.97571,32.899765,32.794086,32.172825,30.277386,27.155155,24.493132,23.001595,22.47319,22.083702,21.99152,22.093948,22.277449,22.706718,23.42212,24.333977,26.330555,28.385979,29.405739,30.26592,30.755302,30.984854,31.208195,31.360933,31.436222,31.504814,31.542454,31.560257,31.600811,31.665459,31.740353,31.804466,31.891903,31.991898,32.076717,32.164185,32.262463,32.352005,32.440605,32.54407,32.6364,32.71322,32.799374,32.875782,32.933968,32.995552,33.05371,33.09967,33.148483,33.200817,33.24527,33.28691,33.337246,33.380054,33.40916,33.434483,33.443676,33.43937,33.37709,33.274773,33.189552,33.126568,33.090496,33.08602,33.093002,33.11596,33.153503,33.195564,33.26055,33.341625,33.416267,33.506004,33.602318,33.679256,33.75061,33.822685,33.887985,33.956043,34.06681,34.216103,34.374878,34.597702,34.848755,35.059303,35.288544,35.49569,35.63307,35.759594,35.88649,35.993614,36.09079,36.228973,36.384605,36.52368,36.71492,36.932648,37.120712,37.351036,37.63221,37.897285,38.17816,38.515633,38.82699,39.100983,39.426468,39.745373,40.019123,40.35719,40.711853,41.00211,41.326485,41.674145,41.961845,42.23121,42.536182,42.81343,43.05742,43.365364,43.680946,43.947617,44.277885,44.63851,44.946774,45.299393,45.702343,46.056427,46.38892,46.77848,47.168854,47.54457,48.13315,48.76809,49.243935,49.723007,50.107765,50.32862,50.486145,50.28882,49.85378,49.450005,49.456383,50.15519,51.253296,52.877274,54.325253,55.05144,55.40907,55.547104,55.71003,55.935097,56.031136,55.994743,56.036243,56.127075,56.250446,56.371983,56.530224,56.702686,56.850906,57.04973,57.270374,57.443542,57.6086,57.731754,57.766438,57.753475,57.673264,57.487495,57.214798,57.089806,57.20948,57.458313,57.828384,58.234467,58.505486,58.681225,58.829384,58.94078,59.03414,59.117554,59.199783,59.29779,59.440742,59.609894,59.75315,59.893105,60.01699,60.097977,60.162674,60.211143,60.216606,60.18169,60.113605,60.04104,59.993187,59.968086,59.9737,59.991543,60.003815,60.015327,60.02084,60.013664,60.000824,59.993668,59.99805,60.006134,60.013943,60.017975,60.01901,59.99727,59.95398,59.888165,59.773743,59.6337,59.472847,59.25748,59.042576,58.8567,58.643703,58.449265,58.30179,58.13953,57.988167,57.87787,57.769,57.658333,57.5671,57.483738,57.37796,57.273884,57.1868,57.087276,56.98864,56.904625,56.799187,56.659523,56.516144,56.348747,56.14949,55.97649,55.829292
16.63525,16.723797,16.804354,16.887417,16.983025,17.066914,17.137436,17.22147,17.30571,17.380081,17.477716,17.585932,17.67565,17.759262,17.821346,17.852722,17.880455,17.897243,17.945107,18.058908,18.274776,18.634335,19.056385,19.755047,20.688686,21.508163,22.000174,22.420982,22.831882,23.210106,23.85548,24.83867,26.093147,27.731577,29.204182,30.141907,30.8726,31.240602,31.36015,31.47557,31.622406,31.79607,31.99118,32.141685,32.20038,32.230946,32.23343,32.230453,32.249474,32.26953,32.29672,32.326576,32.360588,32.428257,32.513985,32.592113,32.715336,32.836678,32.915226,32.983765,32.96218,32.860508,32.899513,32.98254,33.020496,33.052956,33.06199,32.992107,32.9177,32.29253,30.346893,27.157896,24.469843,22.979551,22.447052,22.06546,21.981754,22.085155,22.268692,22.696527,23.407566,24.309116,26.295315,28.366924,29.436539,30.333866,30.852734,31.109211,31.357033,31.511478,31.567327,31.616917,31.639362,31.650856,31.68743,31.74741,31.821144,31.88934,31.974636,32.06888,32.149193,32.231808,32.324158,32.407906,32.490387,32.58738,32.6745,32.74666,32.829933,32.90499,32.961563,33.02076,33.075783,33.11879,33.16445,33.21356,33.25582,33.29619,33.346252,33.390335,33.421616,33.450657,33.46503,33.465923,33.44925,33.387375,33.303967,33.22831,33.173313,33.15467,33.147903,33.156105,33.179966,33.208443,33.258423,33.326874,33.39308,33.476006,33.568783,33.645176,33.717537,33.792427,33.862408,33.938095,34.05803,34.216896,34.38536,34.623726,34.89286,35.118046,35.362846,35.584457,35.731197,35.86164,35.992176,36.10652,36.21805,36.36736,36.527195,36.669037,36.844444,37.0359,37.204742,37.421463,37.692856,37.950874,38.224846,38.55474,38.858253,39.121906,39.442078,39.76087,40.034187,40.371834,40.72509,41.01277,41.332405,41.671455,41.949326,42.20848,42.502327,42.77082,43.00767,43.3108,43.62718,43.898254,44.238544,44.61727,44.94557,45.320496,45.75125,46.129444,46.478928,46.88176,47.277847,47.655228,48.239937,48.86264,49.32249,49.79593,50.18065,50.400208,50.552177,50.350258,49.907715,49.48034,49.449837,50.110138,51.171185,52.799305,54.284855,55.043488,55.424316,55.566216,55.719223,55.93752,56.038445,56.01127,56.04522,56.128796,56.25034,56.373314,56.536182,56.717026,56.874348,57.085823,57.320526,57.503937,57.67787,57.801483,57.82602,57.802055,57.675278,57.432957,57.129692,56.987137,57.112976,57.380653,57.774506,58.21302,58.50934,58.68591,58.82152,58.918396,59.004864,59.067696,59.131104,59.227585,59.377964,59.557137,59.704372,59.84854,59.97256,60.050392,60.116478,60.155247,60.144657,60.09997,60.02991,59.962044,59.91813,59.891556,59.890816,59.902054,59.908573,59.914036,59.916245,59.911285,59.908096,59.916344,59.93745,59.967495,59.995667,60.013412,60.030365,60.02117,59.983307,59.91764,59.795094,59.642876,59.470695,59.241684,59.013786,58.81611,58.59005,58.386116,58.234238,58.07243,57.92977,57.832466,57.740864,57.652138,57.57972,57.51122,57.41908,57.322838,57.238976,57.140812,57.041534,56.956566,56.84958,56.708076,56.563263,56.39451,56.193817,56.019726,55.87169
16.65672,16.744686,16.824112,16.905396,16.997864,17.077797,17.14404,17.222452,17.301304,17.371477,17.466316,17.575682,17.669422,17.758785,17.826584,17.859945,17.885761,17.891453,17.918633,18.004932,18.204418,18.523815,18.86547,19.400723,20.12546,20.788282,21.232903,21.627087,21.981375,22.280163,22.794094,23.64692,24.775337,26.63829,28.508673,29.670265,30.683893,31.214077,31.323135,31.45919,31.58625,31.719713,31.91679,32.09812,32.198696,32.260036,32.283543,32.28152,32.28971,32.297558,32.312996,32.335384,32.361942,32.42478,32.50996,32.589096,32.71806,32.849617,32.940292,33.011272,32.998184,32.919823,32.986595,33.064556,33.071236,33.121918,33.147587,33.080704,33.025707,32.385338,30.375986,27.097242,24.395428,22.932621,22.405106,22.039013,21.965939,22.06866,22.252914,22.679447,23.384632,24.275206,26.229942,28.305195,29.448038,30.386234,30.937002,31.233856,31.497309,31.646757,31.687542,31.713913,31.718529,31.723885,31.754583,31.812763,31.888233,31.957901,32.039043,32.12632,32.20167,32.279198,32.365273,32.442875,32.51938,32.610794,32.69426,32.763718,32.844376,32.916954,32.971,33.028275,33.082382,33.12515,33.169956,33.218132,33.260017,33.300663,33.351997,33.39866,33.433304,33.46824,33.488068,33.491425,33.49781,33.47046,33.412453,33.3483,33.285797,33.248734,33.228077,33.220413,33.228844,33.24253,33.274834,33.32665,33.380466,33.45168,33.53582,33.607914,33.678154,33.753548,33.827194,33.91022,34.038826,34.20623,34.382908,34.635452,34.92163,35.160706,35.42045,35.656998,35.81449,35.950745,36.085556,36.205696,36.3274,36.496517,36.668022,36.801754,36.95703,37.12932,37.292,37.50238,37.76516,38.01349,38.27891,38.59926,38.89421,39.14959,39.46428,39.7807,40.051647,40.386208,40.73468,41.016617,41.32807,41.655342,41.921402,42.169006,42.45146,42.712513,42.94446,43.246986,43.568657,43.846985,44.200554,44.600296,44.95067,45.351036,45.80867,46.20652,46.57086,46.98571,47.386353,47.76315,48.3386,48.944466,49.38778,49.85533,50.239357,50.455086,50.588608,50.376987,49.93311,49.484707,49.419796,50.040024,51.05523,52.692123,54.222107,55.009552,55.435196,55.598614,55.738464,55.94822,56.050232,56.029686,56.05825,56.137363,56.259132,56.384926,56.553528,56.7437,56.911102,57.13607,57.385468,57.579453,57.76239,57.885048,57.896652,57.858902,57.680084,57.376358,57.040962,56.882866,57.021553,57.316067,57.746338,58.219963,58.53254,58.70574,58.82585,58.90327,58.970352,59.005478,59.047237,59.136723,59.28669,59.47068,59.62224,59.777397,59.90852,59.983673,60.042664,60.065884,60.04218,59.99637,59.93375,59.87697,59.83986,59.815956,59.810993,59.815056,59.81725,59.82126,59.826977,59.83295,59.850254,59.88192,59.92296,59.979675,60.034225,60.071785,60.100166,60.093338,60.054367,59.98747,59.866455,59.717285,59.546307,59.306892,59.061348,58.8505,58.607758,58.388206,58.22544,58.055813,57.912407,57.82016,57.738113,57.663815,57.604557,57.546032,57.462524,57.37008,57.28623,57.186016,57.083557,56.9963,56.88691,56.743816,56.598656,56.430195,56.23008,56.056248,55.908623
16.674845,16.763065,16.84219,16.922558,17.012794,17.08947,17.152027,17.22496,17.297771,17.362717,17.45281,17.560707,17.656334,17.750683,17.827187,17.86767,17.89388,17.898571,17.91692,17.97871,18.158258,18.448736,18.743292,19.241377,19.87038,20.396687,20.830023,21.207283,21.493761,21.728958,22.148022,22.858742,23.754166,25.625557,27.762148,29.220062,30.51743,31.199871,31.312534,31.467018,31.59775,31.716255,31.862518,32.05729,32.209885,32.27318,32.31452,32.327175,32.33073,32.328976,32.332832,32.347717,32.3664,32.423153,32.50604,32.58438,32.71622,32.85463,32.954098,33.026787,33.020863,32.96147,33.045177,33.128345,33.12971,33.184196,33.214878,33.14839,33.09161,32.426075,30.357924,26.995062,24.292362,22.87154,22.357763,22.012337,21.94992,22.049583,22.2347,22.660532,23.360214,24.24142,26.15486,28.222496,29.439198,30.418068,30.99764,31.329231,31.599476,31.740442,31.770102,31.776236,31.765789,31.766754,31.792974,31.852112,31.92875,31.993591,32.069363,32.15083,32.221237,32.293526,32.374428,32.448288,32.521812,32.611057,32.69384,32.763695,32.84311,32.913162,32.96499,33.020958,33.075283,33.119156,33.165302,33.215,33.258247,33.300453,33.354042,33.40368,33.44182,33.48221,33.50869,33.51802,33.52188,33.50747,33.480072,33.443645,33.391777,33.346733,33.321445,33.303276,33.297775,33.29902,33.31565,33.351364,33.39205,33.44944,33.521355,33.58555,33.64983,33.72177,33.795544,33.88137,34.014782,34.18817,34.370636,34.633682,34.933044,35.18329,35.455986,35.7034,35.867455,36.013317,36.1577,36.283684,36.407063,36.59027,36.769432,36.886833,37.029915,37.199364,37.366016,37.572884,37.827312,38.067284,38.32514,38.637016,38.925667,39.178207,39.488884,39.80072,40.067764,40.3972,40.73877,41.01343,41.315605,41.631226,41.886795,42.12455,42.398216,42.655006,42.88571,43.19246,43.52366,43.81185,44.180634,44.600677,44.970226,45.39246,45.870018,46.280365,46.656315,47.08123,47.484978,47.858894,48.422302,49.011322,49.44161,49.90256,50.283855,50.49458,50.602577,50.379284,49.939575,49.47512,49.38269,49.968452,50.940598,52.586967,54.157665,54.967674,55.44461,55.63701,55.76377,55.96693,56.066772,56.047832,56.07373,56.151566,56.27527,56.404663,56.57933,56.778484,56.955345,57.192635,57.4551,57.65821,57.848633,57.969242,57.967842,57.91606,57.69153,57.33555,56.973198,56.804947,56.960663,57.284607,57.75672,58.259842,58.5744,58.740627,58.84575,58.903732,58.94522,58.954323,58.97821,59.05718,59.19699,59.377625,59.53276,59.69709,59.835804,59.90989,59.956978,59.97039,59.946953,59.907562,59.85685,59.81227,59.78273,59.763893,59.759907,59.762993,59.766277,59.775345,59.78994,59.80864,59.84617,59.899803,59.959946,60.039497,60.114147,60.16557,60.198784,60.189144,60.14692,60.078938,59.96378,59.825024,59.66469,59.42722,59.172543,58.950146,58.69089,58.453415,58.27617,58.092552,57.93917,57.84268,57.759773,57.68822,57.632698,57.576485,57.494453,57.40133,57.314995,57.21096,57.104885,57.015656,56.90481,56.761936,56.61843,56.452686,56.25576,56.083855,55.937782
16.689926,16.778887,16.85822,16.938297,17.027054,17.101147,17.160698,17.22877,17.2958,17.355518,17.440325,17.545374,17.641258,17.739202,17.82388,17.87257,17.901937,17.914928,17.934216,17.975151,18.122604,18.380238,18.651709,19.097061,19.653528,20.122356,20.556976,20.922592,21.160889,21.351797,21.681648,22.270863,23.029537,24.79898,27.052345,28.83429,30.331772,31.123596,31.300713,31.479782,31.619984,31.738697,31.843487,32.048416,32.237675,32.28635,32.327744,32.35285,32.36732,32.360626,32.35302,32.361225,32.372757,32.423523,32.503555,32.58049,32.713345,32.856342,32.963238,33.035572,33.032894,32.98743,33.083412,33.171677,33.171497,33.23106,33.268433,33.198326,33.1166,32.425064,30.31989,26.893824,24.192677,22.808346,22.310543,21.987514,21.935925,22.031277,22.217075,22.642382,23.337051,24.209507,26.08613,28.145027,29.422531,30.431875,31.033205,31.395298,31.680433,31.813185,31.821993,31.813805,31.792706,31.79041,31.818783,31.87537,31.94627,32.007305,32.07813,32.154125,32.219944,32.287598,32.364037,32.434776,32.50595,32.593887,32.67681,32.747383,32.82845,32.900787,32.954742,33.011044,33.063828,33.1062,33.155155,33.20868,33.25434,33.298748,33.35499,33.40763,33.44905,33.494347,33.526638,33.54116,33.550514,33.5439,33.524998,33.493145,33.45759,33.434593,33.42328,33.403107,33.382233,33.370583,33.373085,33.394783,33.423073,33.466545,33.52488,33.579254,33.635117,33.70069,33.77171,33.856556,33.99156,34.1689,34.35535,34.62641,34.936523,35.196293,35.482754,35.733932,35.892586,36.049812,36.213432,36.35446,36.484993,36.662292,36.830616,36.945866,37.092094,37.264862,37.430077,37.63433,37.882484,38.114914,38.36667,38.67149,38.955265,39.20761,39.514675,39.820465,40.082676,40.40577,40.73944,41.006462,41.299286,41.60414,41.850777,42.080513,42.347733,42.602673,42.83458,43.148323,43.49117,43.790325,44.17464,44.615025,45.0035,45.441128,45.934082,46.356956,46.742157,47.173775,47.578094,47.94819,48.499977,49.072517,49.488716,49.94275,50.321373,50.527004,50.607956,50.373024,49.94007,49.463394,49.347893,49.903244,50.83639,52.49534,54.10346,54.92706,55.45369,55.67706,55.792088,55.990074,56.0879,56.070152,56.095108,56.173454,56.30013,56.433624,56.614624,56.822567,57.008446,57.2574,57.53189,57.74304,57.93997,58.05798,58.043846,57.97809,57.71356,57.313038,56.927277,56.752254,56.92681,57.280495,57.79682,58.322525,58.626778,58.78898,58.882347,58.92307,58.9471,58.937454,58.945114,59.01033,59.138763,59.310944,59.459442,59.61596,59.74911,59.821884,59.868782,59.88678,59.87232,59.843315,59.804962,59.771004,59.7488,59.735764,59.73483,59.739433,59.74646,59.76291,59.787422,59.818672,59.87612,59.951874,60.03312,60.127884,60.20288,60.24453,60.279213,60.27818,60.243164,60.177673,60.062412,59.92472,59.768288,59.556793,59.323833,59.08767,58.810436,58.554512,58.36239,58.16255,57.99472,57.88893,57.79923,57.723297,57.665543,57.607086,57.522743,57.427223,57.338097,57.230835,57.12263,57.03289,56.922348,56.781612,56.64131,56.47985,56.287346,56.117794,55.972504
16.703854,16.794426,16.874855,16.955624,17.044193,17.117043,17.174952,17.239477,17.301275,17.355583,17.433834,17.533268,17.626284,17.724453,17.814919,17.87143,17.906057,17.923147,17.940575,17.974186,18.090841,18.307873,18.552513,18.947247,19.44382,19.869658,20.284575,20.641108,20.86782,21.043413,21.302822,21.769894,22.395267,23.924072,26.15844,28.279,30.072891,31.051332,31.28128,31.493753,31.651707,31.77317,31.840244,32.02759,32.230137,32.295593,32.33826,32.361134,32.385048,32.393036,32.388184,32.383736,32.386475,32.429546,32.505127,32.579258,32.713753,32.859924,32.96635,33.036854,33.038948,33.006226,33.11203,33.207462,33.211834,33.277676,33.32106,33.249046,33.155827,32.420113,30.256485,26.785301,24.08221,22.729477,22.258507,21.959667,21.91808,22.009377,22.195435,22.619534,23.307446,24.16718,26.001553,28.046638,29.380787,30.427383,31.056017,31.4441,31.745476,31.86944,31.854675,31.83687,31.808933,31.803364,31.832584,31.884892,31.948265,32.003872,32.068466,32.138184,32.198975,32.26188,32.334232,32.402473,32.472046,32.55968,32.64379,32.716064,32.80014,32.876472,32.93426,32.994705,33.05143,33.09661,33.146446,33.202583,33.252686,33.300995,33.361206,33.41744,33.462593,33.513184,33.551632,33.571697,33.587147,33.58826,33.576775,33.54855,33.520912,33.508022,33.500732,33.490356,33.483173,33.485413,33.48126,33.48204,33.494278,33.520466,33.560467,33.599373,33.640465,33.69098,33.751408,33.830246,33.962337,34.140884,34.32988,34.608543,34.930782,35.202194,35.501457,35.75898,35.917797,36.084877,36.26132,36.411545,36.548264,36.72397,36.88781,37.004013,37.158455,37.338997,37.504776,37.709167,37.954273,38.18152,38.427185,38.72503,39.004166,39.25583,39.5571,39.853477,40.10784,40.421032,40.74343,41.000404,41.281654,41.574436,41.812107,42.034435,42.29718,42.552956,42.78849,43.11234,43.47059,43.78459,44.190437,44.656113,45.065147,45.51792,46.02734,46.46495,46.858765,47.2957,47.69996,48.06922,48.58931,49.129333,49.543823,49.992794,50.365883,50.56389,50.611134,50.36071,49.934982,49.44497,49.30233,49.821514,50.712723,52.35573,53.99122,54.8627,55.453056,55.71047,55.814613,56.008827,56.108192,56.09571,56.12107,56.201073,56.331818,56.470528,56.659286,56.87805,57.075233,57.338684,57.627777,57.848347,58.052734,58.166924,58.136715,58.052895,57.7434,57.294254,56.88233,56.699867,56.89788,57.289303,57.861816,58.411484,58.695667,58.852707,58.932068,58.953575,58.96475,58.93383,58.917942,58.965164,59.077812,59.238228,59.378265,59.525322,59.652107,59.724068,59.773132,59.799053,59.796486,59.780186,59.756607,59.73545,59.722496,59.717827,59.723022,59.73195,59.74623,59.77472,59.81362,59.863785,59.937027,60.01853,60.09971,60.19567,60.273567,60.31848,60.352966,60.357418,60.335754,60.291817,60.189507,60.05182,59.899525,59.698074,59.48209,59.269917,58.996815,58.7229,58.50898,58.28569,58.09336,57.96778,57.859776,57.767067,57.69784,57.63054,57.5394,57.440845,57.350376,57.24317,57.137398,57.05121,56.94551,56.81165,56.678387,56.52513,56.340332,56.174366,56.029343
16.712524,16.805317,16.887548,16.969917,17.059761,17.133156,17.191399,17.254896,17.313622,17.363918,17.436172,17.528616,17.616165,17.710823,17.80281,17.86443,17.904497,17.922697,17.93689,17.971027,18.067917,18.251663,18.469479,18.824934,19.281937,19.681808,20.070553,20.416819,20.648067,20.82943,21.05449,21.436583,21.962914,23.230158,25.334278,27.636652,29.738665,30.958878,31.228355,31.4798,31.661015,31.79018,31.845135,31.997927,32.183907,32.287674,32.334934,32.344833,32.370743,32.398327,32.411026,32.407104,32.403915,32.439358,32.51114,32.58446,32.716457,32.857292,32.955856,33.027916,33.040558,33.01867,33.129707,33.23306,33.248,33.316032,33.36124,33.28986,33.198006,32.41584,30.189585,26.690014,23.981972,22.654173,22.215816,21.936642,21.901241,21.990124,22.175743,22.598492,23.279625,24.124722,25.917078,27.94382,29.320457,30.398386,31.053915,31.466694,31.77356,31.888657,31.863403,31.841965,31.813435,31.807789,31.834557,31.881752,31.938492,31.988228,32.046513,32.110554,32.167374,32.227066,32.29751,32.36538,32.435333,32.524612,32.61136,32.686462,32.77452,32.855583,32.917862,32.984818,33.049385,33.100903,33.15325,33.211693,33.264862,33.31584,33.379627,33.439507,33.4877,33.54228,33.585266,33.609547,33.629272,33.637085,33.632988,33.608307,33.580894,33.566505,33.556496,33.555695,33.567764,33.587906,33.592735,33.59373,33.605095,33.618164,33.63685,33.657043,33.679115,33.708282,33.75152,33.81765,33.940975,34.11753,34.307426,34.591362,34.923965,35.206398,35.51367,35.778095,35.94271,36.114735,36.295105,36.448116,36.588417,36.767517,36.934814,37.055046,37.21907,37.40889,37.57833,37.786354,38.03321,38.259712,38.501938,38.796143,39.072342,39.320473,39.6146,39.901558,40.147446,40.449997,40.76075,41.00782,41.27813,41.560463,41.791325,42.008724,42.270233,42.529556,42.770363,43.10509,43.47902,43.808594,44.23658,44.72473,45.148968,45.61609,46.141144,46.59092,46.989937,47.429005,47.83112,48.198547,48.676865,49.17895,49.600838,50.046883,50.412685,50.60176,50.617065,50.35264,49.93411,49.43084,49.26168,49.74688,50.602196,52.209732,53.857544,54.79145,55.44108,55.727734,55.825867,56.019653,56.12656,56.12517,56.15264,56.235535,56.371292,56.515915,56.7132,56.943573,57.15277,57.431515,57.735535,57.965225,58.176476,58.2857,58.23814,58.133907,57.786133,57.29561,56.85405,56.661533,56.8826,57.313145,57.941956,58.51052,58.76744,58.918716,58.984493,58.98893,58.99491,58.945206,58.903934,58.933098,59.029613,59.178658,59.31166,59.45206,59.57544,59.648464,59.701797,59.73697,59.746235,59.74197,59.7324,59.723488,59.71936,59.723686,59.736805,59.75187,59.774162,59.81066,59.855526,59.913445,59.989845,60.06651,60.13744,60.228592,60.310875,60.364548,60.3983,60.40419,60.393036,60.36901,60.290062,60.168358,60.026955,59.827065,59.617752,59.436256,59.18505,58.912415,58.686485,58.440704,58.21779,58.065872,57.93128,57.812122,57.724266,57.64363,57.543762,57.44403,57.35588,57.25441,57.157413,57.079704,56.98404,56.861095,56.736855,56.593353,56.4168,56.253532,56.10676
16.716389,16.811275,16.895252,16.979305,17.070786,17.145374,17.204777,17.268654,17.326061,17.373966,17.44194,17.528465,17.61068,17.701073,17.792498,17.857037,17.90097,17.922829,17.936483,17.965248,18.051476,18.21767,18.41504,18.741499,19.17064,19.55415,19.933922,20.26609,20.480827,20.661446,20.872011,21.210474,21.675304,22.786808,24.763737,27.063927,29.382475,30.826187,31.14275,31.432255,31.635805,31.777794,31.844917,31.973,32.132668,32.263027,32.31578,32.316784,32.339603,32.371494,32.40329,32.42185,32.417923,32.447582,32.51781,32.593834,32.717464,32.844414,32.93519,33.01429,33.042427,33.03047,33.143906,33.254154,33.28081,33.345016,33.388123,33.317913,33.224236,32.411346,30.141434,26.61285,23.90066,22.596699,22.187197,21.92163,21.88924,21.977024,22.161861,22.58384,23.259872,24.09202,25.846905,27.854557,29.262989,30.358074,31.034092,31.475868,31.77536,31.881802,31.86282,31.839867,31.81406,31.812113,31.834705,31.877316,31.929504,31.974413,32.027473,32.08724,32.14166,32.199932,32.27059,32.339935,32.41185,32.504158,32.5943,32.672676,32.76477,32.850163,32.91642,32.98875,33.059635,33.11669,33.175926,33.238106,33.29081,33.341362,33.406937,33.469955,33.519997,33.576744,33.622166,33.648846,33.67051,33.68325,33.68599,33.664158,33.638702,33.62616,33.618908,33.615486,33.62105,33.63419,33.6578,33.690865,33.722687,33.730835,33.729458,33.732716,33.736954,33.746014,33.772163,33.82257,33.93467,34.10829,34.29864,34.585564,34.92509,35.21566,35.526814,35.79531,35.964855,36.138313,36.320908,36.47704,36.61956,36.800945,36.971916,37.097725,37.269287,37.46643,37.6407,37.853638,38.104393,38.332645,38.57453,38.86883,39.14377,39.385765,39.673393,39.954163,40.19378,40.488255,40.790085,41.029663,41.291737,41.566574,41.793045,42.007633,42.269634,42.533035,42.778786,43.122635,43.50933,43.851753,44.29683,44.79958,45.23165,45.712425,46.251026,46.70787,47.108776,47.547558,47.94538,48.305893,48.751884,49.226562,49.652477,50.095695,50.455124,50.63616,50.627357,50.35441,49.943237,49.42799,49.23707,49.69626,50.524815,52.105637,53.760048,54.735756,55.426266,55.734943,55.83159,56.027405,56.145042,56.157234,56.18758,56.273914,56.41488,56.565323,56.77085,57.011986,57.23197,57.524338,57.8413,58.0785,58.29503,58.39904,58.335632,58.21192,57.838196,57.318382,56.845306,56.64044,56.88019,57.344215,58.018517,58.598618,58.828518,58.974552,59.02952,59.020943,59.025555,58.96273,58.901527,58.916122,59.000015,59.140713,59.26901,59.405815,59.528725,59.60449,59.663128,59.707245,59.72664,59.732143,59.73381,59.734436,59.73691,59.74849,59.768646,59.789207,59.816982,59.85228,59.888947,59.935127,60.005104,60.08307,60.155823,60.25,60.33358,60.385452,60.419197,60.4265,60.417076,60.390797,60.33271,60.24621,60.123337,59.93639,59.731106,59.54641,59.313072,59.062992,58.843437,58.58336,58.332443,58.156624,57.996933,57.852142,57.74627,57.65342,57.54682,57.4485,57.365307,57.272762,57.18724,57.119595,57.035324,56.923157,56.80641,56.67058,56.499718,56.33687,56.18645
16.716625,16.813833,16.899754,16.98574,17.079288,17.15569,17.216982,17.282314,17.339516,17.385921,17.450382,17.531197,17.6078,17.693476,17.783855,17.851244,17.899652,17.926952,17.942408,17.968264,18.042976,18.191582,18.373428,18.670628,19.066406,19.427383,19.795265,20.119625,20.324696,20.485332,20.690914,21.011696,21.416,22.35347,24.174685,26.453014,28.892155,30.534035,30.987465,31.341923,31.577085,31.736315,31.817059,31.92315,32.052505,32.189144,32.254738,32.264473,32.28517,32.317886,32.364887,32.408054,32.422363,32.46189,32.52843,32.588024,32.69539,32.81709,32.912018,33.0026,33.045914,33.04544,33.16645,33.279797,33.306892,33.371174,33.416267,33.347435,33.25352,32.415367,30.102448,26.533764,23.81348,22.537216,22.162148,21.908192,21.876106,21.96335,22.147251,22.568647,23.238628,24.054281,25.761992,27.74477,29.191349,30.300041,30.992144,31.465631,31.765034,31.867943,31.856428,31.84164,31.821281,31.818817,31.837494,31.876844,31.925053,31.963755,32.010674,32.066135,32.11888,32.17706,32.25004,32.322983,32.39898,32.49661,32.591927,32.67488,32.772182,32.862717,32.93352,33.011795,33.08959,33.15266,33.218266,33.286453,33.3425,33.39386,33.45668,33.517357,33.570328,33.629105,33.675797,33.703896,33.72665,33.741287,33.74745,33.73587,33.716503,33.703274,33.698242,33.697533,33.703568,33.71331,33.73909,33.77723,33.812096,33.84025,33.85476,33.854164,33.835594,33.816475,33.822495,33.8545,33.950012,34.11712,34.310226,34.60002,34.945152,35.24313,35.551727,35.82133,35.997993,36.165398,36.34572,36.50618,36.65071,36.834854,37.01475,37.1575,37.339294,37.542408,37.72293,37.942772,38.19983,38.432446,38.680073,38.977417,39.247147,39.47329,39.751354,40.028503,40.262566,40.549515,40.842636,41.074707,41.328537,41.596016,41.818382,42.030525,42.29364,42.561844,42.813236,43.16684,43.567177,43.92378,44.384247,44.90029,45.341366,45.835953,46.386917,46.84854,47.24829,47.684597,48.06992,48.398846,48.820297,49.28531,49.709797,50.148617,50.500908,50.673134,50.641884,50.364372,49.9641,49.437473,49.22496,49.65854,50.461174,52.01698,53.674374,54.681908,55.407925,55.739433,55.839058,56.04027,56.17457,56.206093,56.24078,56.332047,56.480186,56.638596,56.854935,57.109856,57.343605,57.652847,57.985374,58.231216,58.45358,58.550392,58.466984,58.317043,57.924866,57.382843,56.865578,56.64257,56.901134,57.398975,58.10136,58.68837,58.90561,59.046875,59.089676,59.064953,59.05707,58.98629,58.915833,58.912895,58.98236,59.114227,59.238365,59.37255,59.496674,59.577072,59.64322,59.698753,59.730484,59.74797,59.763218,59.7756,59.786964,59.802155,59.818726,59.832855,59.854095,59.884556,59.918896,59.96108,60.02712,60.10188,60.171024,60.26121,60.34279,60.39519,60.427544,60.434715,60.427826,60.405014,60.35527,60.284737,60.192734,60.04023,59.85499,59.67366,59.445568,59.20292,58.991158,58.738224,58.472427,58.263283,58.07447,57.90058,57.774807,57.66971,57.558956,57.46691,57.393772,57.318,57.251244,57.19731,57.117516,57.006752,56.893707,56.763096,56.595467,56.431038,56.276398
16.710464,16.809927,16.897766,16.985674,17.081593,17.160473,17.224508,17.292725,17.351475,17.398005,17.460651,17.536983,17.60851,17.689678,17.778734,17.84872,17.902037,17.936756,17.957,17.982845,18.049198,18.18251,18.349976,18.621658,18.984814,19.319103,19.669296,19.98697,20.18901,20.326345,20.538618,20.85857,21.201817,21.982582,23.625864,25.79678,28.220856,30.061249,30.801952,31.194656,31.428265,31.622772,31.722836,31.823868,31.93474,32.065113,32.139786,32.161827,32.18303,32.21806,32.276054,32.336857,32.373413,32.424744,32.486588,32.53586,32.637035,32.7629,32.867947,32.973057,33.035168,33.052895,33.18632,33.29537,33.30875,33.377052,33.42748,33.36029,33.27289,32.421425,30.075531,26.469864,23.742317,22.489906,22.143192,21.898022,21.865723,21.952858,22.136452,22.5578,23.219973,24.014057,25.660988,27.609459,29.099787,30.215366,30.913145,31.415249,31.726095,31.84041,31.843904,31.84219,31.830444,31.829174,31.846046,31.882318,31.927227,31.96343,32.004738,32.055443,32.107334,32.166866,32.244545,32.323593,32.406082,32.51187,32.61477,32.704132,32.80822,32.90472,32.98036,33.06434,33.148315,33.216705,33.287773,33.36199,33.422424,33.475796,33.53732,33.594284,33.64379,33.700977,33.747875,33.776207,33.79868,33.81256,33.81938,33.81921,33.81125,33.80233,33.798424,33.800797,33.81047,33.821873,33.845127,33.878376,33.910263,33.95149,33.985065,33.994232,33.97264,33.932964,33.912483,33.9256,34.003124,34.16092,34.353348,34.643044,34.991425,35.294693,35.59626,35.855583,36.027225,36.190525,36.370777,36.534214,36.68016,36.865448,37.053043,37.21275,37.41131,37.62772,37.816643,38.044487,38.308205,38.544556,38.793285,39.08638,39.348534,39.56754,39.842743,40.119843,40.351883,40.635315,40.92314,41.149837,41.39749,41.659492,41.87909,42.089874,42.354935,42.628197,42.885223,43.247734,43.65961,44.02781,44.49595,45.020145,45.471397,45.976685,46.534847,46.996628,47.391373,47.82139,48.191975,48.4879,48.893936,49.35613,49.772606,50.20594,50.551445,50.714535,50.666626,50.388744,49.99913,49.461075,49.22847,49.639595,50.419914,51.955254,53.612534,54.639877,55.395233,55.750237,55.85717,56.067047,56.22209,56.2761,56.315712,56.4124,56.568665,56.7364,56.965508,57.236794,57.48693,57.816048,58.16668,58.422325,58.650787,58.73871,58.632133,58.451813,58.039795,57.47889,56.923645,56.681404,56.953472,57.48152,58.200768,58.788986,58.997467,59.13464,59.16603,59.124878,59.10015,59.02677,58.955048,58.93383,58.989178,59.113304,59.234604,59.368042,59.495544,59.5825,59.65876,59.728455,59.772743,59.79875,59.822456,59.839703,59.852222,59.86544,59.875862,59.882828,59.89615,59.920723,59.95243,59.991257,60.051216,60.118,60.178905,60.25817,60.332695,60.38494,60.41336,60.41785,60.412376,60.393776,60.348595,60.28584,60.21482,60.097206,59.94645,59.7903,59.572544,59.330017,59.122253,58.875404,58.60489,58.378254,58.16207,57.958153,57.813824,57.69879,57.58819,57.508003,57.450775,57.396866,57.347374,57.299698,57.224182,57.11586,57.004738,56.8765,56.708054,56.538277,56.37623
16.699326,16.800465,16.88974,16.97908,17.07703,17.158354,17.225166,17.296751,17.358139,17.406128,17.468857,17.542938,17.611267,17.68955,17.777939,17.850246,17.908085,17.950373,17.976719,18.0047,18.067389,18.189293,18.342552,18.594534,18.931705,19.24162,19.57064,19.878464,20.080107,20.206684,20.42443,20.739716,21.038311,21.717388,23.194668,25.18218,27.514635,29.5178,30.560078,30.995491,31.22519,31.44994,31.571396,31.689476,31.80468,31.928204,32.000034,32.024044,32.048386,32.089684,32.15336,32.217377,32.26521,32.321938,32.38277,32.43896,32.549133,32.684258,32.798378,32.91683,33.000072,33.041992,33.18681,33.28737,33.284554,33.357204,33.412086,33.34691,33.27334,32.418804,30.055092,26.434269,23.707005,22.467674,22.132902,21.892452,21.860958,21.948387,22.132849,22.555027,23.208847,23.979637,25.561382,27.470333,29.001059,30.118742,30.81141,31.328762,31.658817,31.797771,31.821764,31.833767,31.833742,31.838942,31.857523,31.891838,31.934479,31.97203,32.01046,32.057663,32.10903,32.17046,32.25355,32.339447,32.42913,32.544113,32.655624,32.75215,32.863518,32.965725,33.04545,33.13344,33.22106,33.29244,33.366676,33.44423,33.507248,33.562637,33.6262,33.68151,33.72316,33.774784,33.819504,33.846893,33.868103,33.88057,33.88708,33.89245,33.89486,33.89453,33.89219,33.89671,33.910347,33.926994,33.95223,33.98523,34.0175,34.052395,34.086296,34.106567,34.103348,34.060356,34.01613,34.013958,34.07711,34.225754,34.412903,34.69935,35.048798,35.355045,35.644962,35.885155,36.04426,36.209923,36.39408,36.557934,36.704247,36.888237,37.077023,37.242817,37.455765,37.6869,37.88266,38.11586,38.38378,38.621956,38.866158,39.15072,39.409,39.63556,39.91736,40.198143,40.432922,40.718338,41.006157,41.231407,41.47682,41.736496,41.954983,42.165558,42.4327,42.71003,42.971344,43.34001,43.758293,44.131554,44.599644,45.12645,45.5858,46.09599,46.65515,47.113823,47.502747,47.925674,48.28768,48.570763,48.971138,49.42804,49.831825,50.259636,50.59992,50.75482,50.698036,50.42039,50.034775,49.485085,49.235825,49.63031,50.394096,51.91579,53.573578,54.61377,55.39457,55.771866,55.8864,56.105087,56.278015,56.350334,56.393936,56.49482,56.657707,56.83355,57.073982,57.36017,57.625443,57.97294,58.340378,58.60515,58.839005,58.918686,58.791058,58.584045,58.14804,57.56978,56.9973,56.741146,57.018707,57.56813,58.29516,58.880066,59.08107,59.21544,59.238304,59.18428,59.146187,59.07309,59.002785,58.96688,59.01162,59.130672,59.250736,59.38505,59.516724,59.609413,59.69242,59.771824,59.824234,59.853874,59.879925,59.895233,59.902023,59.911114,59.91937,59.925354,59.936707,59.957726,59.985043,60.01904,60.071255,60.128693,60.180298,60.246597,60.311073,60.36013,60.382706,60.383003,60.377323,60.361,60.322037,60.266617,60.198837,60.098625,59.979294,59.85942,59.665985,59.429787,59.221035,58.968826,58.69671,58.4728,58.239685,58.01378,57.85649,57.735897,57.62883,57.56157,57.52021,57.482788,57.441666,57.393097,57.324654,57.223373,57.113846,56.985756,56.813393,56.635796,56.46406
16.684341,16.786814,16.877228,16.967701,17.067379,17.150919,17.220318,17.295322,17.359848,17.41004,17.474087,17.547626,17.614351,17.69133,17.780148,17.85511,17.917536,17.967575,18.000586,18.031578,18.092474,18.20465,18.344189,18.575188,18.887222,19.17635,19.48261,19.774097,19.970163,20.095135,20.299717,20.594257,20.88593,21.50538,22.805803,24.536247,26.808657,28.923893,30.114237,30.750235,31.062584,31.235825,31.376225,31.53035,31.670727,31.793873,31.852966,31.8665,31.895031,31.9455,32.01071,32.06654,32.117783,32.183502,32.25322,32.316315,32.433983,32.5778,32.702446,32.833862,32.940952,33.01429,33.164722,33.258835,33.252934,33.325447,33.379875,33.31811,33.263203,32.405464,30.028687,26.412807,23.69542,22.463955,22.12986,21.89058,21.860348,21.949028,22.1348,22.559603,23.205921,23.950352,25.460224,27.32291,28.890518,30.012012,30.694813,31.213448,31.565014,31.734642,31.781708,31.813568,31.831572,31.847137,31.86998,31.905151,31.945976,31.98206,32.020687,32.06768,32.11764,32.181084,32.27003,32.36335,32.461006,32.586597,32.708267,32.813183,32.9327,33.040485,33.123405,33.213448,33.30224,33.374687,33.45009,33.529152,33.593483,33.649635,33.71321,33.76747,33.808144,33.851185,33.886692,33.911873,33.931564,33.943417,33.949535,33.954166,33.9578,33.961647,33.966873,33.97811,33.995758,34.015736,34.046356,34.085495,34.122524,34.15867,34.18807,34.204086,34.217735,34.180054,34.12185,34.104843,34.153313,34.292625,34.474365,34.75604,35.107315,35.420216,35.68161,35.898785,36.06203,36.2296,36.415264,36.578857,36.724304,36.905914,37.09169,37.255173,37.465378,37.69584,37.893375,38.127586,38.398235,38.640545,38.888733,39.179,39.443916,39.677586,39.968216,40.257336,40.49869,40.78986,41.081306,41.30824,41.554344,41.813103,42.03022,42.240364,42.50904,42.78956,43.054142,43.427788,43.849457,44.222607,44.69091,45.21975,45.682396,46.194244,46.75245,47.207985,47.592766,48.010902,48.37011,48.65307,49.056046,49.50701,49.89252,50.313538,50.64875,50.795006,50.7331,50.45153,50.059795,49.495293,49.22917,49.608833,50.357323,51.86858,53.53103,54.587273,55.398857,55.80096,55.92135,56.148415,56.336246,56.423264,56.4711,56.57632,56.745415,56.928955,57.179966,57.480087,57.759636,58.124397,58.50759,58.78115,59.021904,59.09355,58.944122,58.712242,58.249798,57.654327,57.07464,56.80699,57.085613,57.65091,58.36963,58.94692,59.15179,59.284546,59.299416,59.233864,59.18352,59.111473,59.043346,58.99402,59.029854,59.14547,59.26532,59.402023,59.54046,59.63878,59.7165,59.790936,59.844418,59.880013,59.91228,59.93116,59.938843,59.94767,59.954422,59.95874,59.96794,59.986046,60.01011,60.040176,60.085552,60.134262,60.177,60.2307,60.283295,60.324833,60.340107,60.335846,60.329018,60.31404,60.2801,60.231846,60.172485,60.08313,59.97831,59.876556,59.722122,59.514786,59.3032,59.04953,58.772747,58.542515,58.301704,58.063705,57.896133,57.772266,57.67018,57.615566,57.589188,57.55722,57.51942,57.480553,57.419716,57.322723,57.2138,57.084694,56.90693,56.720165,56.53763
16.661892,16.765417,16.856846,16.948376,17.050007,17.136307,17.208927,17.288406,17.35739,17.411057,17.47787,17.552193,17.618252,17.694881,17.784855,17.862947,17.930698,17.989996,18.031479,18.067034,18.127602,18.230167,18.354805,18.560318,18.838865,19.099022,19.379974,19.652367,19.840061,19.967955,20.156843,20.429754,20.732613,21.303452,22.398891,23.809208,25.907864,27.960999,29.156376,30.075188,30.681429,30.96744,31.146297,31.335165,31.487242,31.572086,31.608845,31.618826,31.647873,31.691565,31.751587,31.80961,31.869568,31.948189,32.029427,32.101955,32.235092,32.394547,32.527664,32.679195,32.82073,32.930824,33.08316,33.170628,33.168686,33.239704,33.28991,33.232933,33.21066,32.352943,29.97445,26.40559,23.714739,22.483301,22.138256,21.891949,21.859018,21.949505,22.14178,22.568136,23.198956,23.912724,25.328098,27.123936,28.732027,29.852478,30.509975,31.01234,31.38824,31.601812,31.683994,31.748285,31.797928,31.83403,31.868065,31.91059,31.952679,31.986897,32.02883,32.07956,32.12996,32.19555,32.29062,32.39268,32.500137,32.638145,32.771378,32.886147,33.01612,33.132027,33.22017,33.314957,33.40499,33.475563,33.549515,33.627388,33.69098,33.746223,33.808,33.859978,33.898956,33.936565,33.963997,33.981987,33.996975,34.008175,34.016006,34.020756,34.024864,34.030502,34.03945,34.05462,34.0757,34.099133,34.135292,34.18032,34.22153,34.26288,34.297867,34.317947,34.331375,34.303978,34.25511,34.22027,34.250458,34.37889,34.553413,34.832787,35.176872,35.4734,35.712997,35.920166,36.08957,36.259834,36.446564,36.608784,36.75192,36.928444,37.107155,37.26378,37.465584,37.689156,37.88318,38.112473,38.38362,38.63161,38.882595,39.177967,39.45051,39.692905,39.995674,40.298054,40.551224,40.853996,41.1549,41.38826,41.640347,41.9048,42.126503,42.34079,42.61404,42.89859,43.16706,43.543224,43.962036,44.327602,44.791725,45.317974,45.777786,46.285835,46.838676,47.289524,47.67173,48.088737,48.452316,48.7472,49.16391,49.61078,49.97085,50.383366,50.712765,50.848137,50.781857,50.494324,50.091347,49.507492,49.221214,49.584732,50.317093,51.81456,53.48424,54.567802,55.42222,55.85592,55.98163,56.2175,56.418247,56.516396,56.56587,56.671566,56.843037,57.031662,57.29027,57.602375,57.89573,58.277687,58.677876,58.960457,59.196754,59.261337,59.10134,58.843487,58.354317,57.743233,57.158173,56.880615,57.16234,57.74555,58.448036,59.013584,59.22663,59.357803,59.363773,59.285686,59.222023,59.150185,59.08554,59.026535,59.055244,59.168312,59.28903,59.42818,59.560783,59.647736,59.723328,59.798584,59.855537,59.89756,59.936737,59.959797,59.968563,59.977146,59.98295,59.986797,59.994995,60.01136,60.03314,60.060238,60.099716,60.14029,60.1745,60.215874,60.25419,60.28284,60.2883,60.278423,60.26934,60.25471,60.22517,60.18405,60.133728,60.0562,59.964714,59.876488,59.749233,59.57748,59.396736,59.150307,58.866608,58.63136,58.38955,58.1444,57.96735,57.84214,57.748596,57.703587,57.676064,57.648033,57.61888,57.58868,57.534912,57.441563,57.332497,57.201195,57.01587,56.817398,56.62159
16.636108,16.740044,16.832153,16.92454,17.02817,17.117464,17.193508,17.277802,17.351744,17.409422,17.479763,17.555819,17.622063,17.699057,17.790207,17.870749,17.942835,18.010145,18.059372,18.09948,18.160599,18.255306,18.366936,18.54831,18.793049,19.022768,19.277937,19.532871,19.714931,19.846342,20.025684,20.282307,20.58794,21.135822,22.062256,23.165314,25.00354,26.890522,28.041393,29.092754,29.958069,30.464985,30.757181,31.018652,31.182669,31.237236,31.27068,31.296417,31.334616,31.37762,31.439625,31.508114,31.578876,31.670853,31.765018,31.850847,32.001003,32.174297,32.313446,32.48275,32.651,32.785057,32.94247,33.02883,33.029236,33.09678,33.139526,33.086876,33.103218,32.25284,29.894035,26.416344,23.760712,22.516052,22.154509,21.89441,21.855082,21.948112,22.149586,22.575096,23.185135,23.869585,25.183533,26.90258,28.547985,29.657814,30.279648,30.759893,31.145088,31.397148,31.52341,31.62801,31.7193,31.784939,31.837502,31.8951,31.943665,31.978252,32.024,32.07983,32.133945,32.202904,32.303463,32.412674,32.52816,32.67739,32.822037,32.94672,33.087654,33.21231,33.305977,33.405094,33.49596,33.564518,33.634605,33.707836,33.767986,33.82021,33.87854,33.927597,33.964455,34.000965,34.025887,34.03878,34.04962,34.059357,34.06833,34.07543,34.081627,34.087917,34.0969,34.113297,34.13719,34.16401,34.20479,34.25413,34.298134,34.344788,34.38752,34.413532,34.420113,34.404285,34.375324,34.33142,34.348305,34.466454,34.63487,34.90831,35.235184,35.504387,35.73809,35.95085,36.12526,36.298527,36.485756,36.64551,36.785057,36.954205,37.12314,37.270664,37.46151,37.67434,37.860374,38.08294,38.351624,38.60059,38.85009,39.145714,39.4223,39.67156,39.985527,40.30223,40.56964,40.8887,41.205353,41.45069,41.715294,41.99288,42.225357,42.449234,42.731434,43.021744,43.294556,43.668877,44.07872,44.433678,44.888813,45.405464,45.855415,46.353493,46.896683,47.342266,47.724796,48.14739,48.52265,48.834618,49.268456,49.714607,50.05451,50.460793,50.7845,50.9089,50.83881,50.54908,50.13903,49.534706,49.226334,49.572952,50.29022,51.771072,53.4468,54.56199,55.460243,55.92494,56.055252,56.299004,56.507515,56.609394,56.65561,56.754936,56.92135,57.108685,57.367188,57.683907,57.985527,58.379013,58.791893,59.082245,59.317665,59.378418,59.21051,58.933594,58.42726,57.80654,57.215233,56.932545,57.223244,57.82634,58.51169,59.06438,59.286194,59.416256,59.414574,59.325653,59.250755,59.176254,59.115944,59.059174,59.08647,59.197117,59.31678,59.447205,59.56282,59.63539,59.71188,59.79197,59.85243,59.895607,59.936455,59.96257,59.975475,59.98813,59.996613,60.00145,60.01088,60.028225,60.050255,60.07711,60.1144,60.150826,60.180367,60.215168,60.24075,60.25136,60.246666,60.232147,60.22009,60.204353,60.17688,60.140533,60.09683,60.029564,59.94912,59.870026,59.75316,59.606342,59.464783,59.246956,58.974327,58.73707,58.498978,58.254364,58.074234,57.947624,57.85394,57.80628,57.769505,57.743607,57.722527,57.695915,57.64615,57.55515,57.445618,57.310722,57.117996,56.90956,56.70147
16.612732,16.71664,16.809177,16.902298,17.007818,17.099937,17.179115,17.267765,17.34615,17.407396,17.480927,17.558693,17.625309,17.702648,17.794384,17.876217,17.950897,18.023567,18.078209,18.121534,18.182945,18.271482,18.372826,18.535294,18.753817,18.959686,19.188953,19.429283,19.611515,19.743519,19.919975,20.163738,20.445858,20.995842,21.816036,22.662405,24.259228,26.05391,27.255863,28.186361,29.034107,29.692303,30.177507,30.570948,30.768196,30.847689,30.909977,30.965187,31.029476,31.100468,31.181103,31.255194,31.331738,31.434269,31.542858,31.645477,31.806236,31.983658,32.12931,32.305874,32.480675,32.61974,32.790295,32.882477,32.87633,32.93871,32.97347,32.92351,32.972305,32.134956,29.81034,26.435661,23.80917,22.542595,22.168804,21.895184,21.849491,21.945621,22.154015,22.577435,23.16864,23.827702,25.05024,26.698822,28.376633,29.469463,30.058035,30.526863,30.900665,31.172768,31.343803,31.487,31.619587,31.716084,31.789322,31.864817,31.922817,31.960623,32.007633,32.066185,32.125923,32.19996,32.305542,32.419025,32.53891,32.69693,32.85234,32.98619,33.13683,33.268356,33.365547,33.46486,33.55546,33.62513,33.690926,33.757927,33.81346,33.861828,33.9165,33.96337,33.99932,34.0352,34.061394,34.077377,34.088257,34.09536,34.101982,34.112167,34.122055,34.130066,34.14053,34.159267,34.186256,34.21633,34.261497,34.31511,34.362022,34.41019,34.449688,34.471252,34.484947,34.47923,34.45665,34.417316,34.430214,34.539856,34.70533,34.96444,35.271828,35.527718,35.762688,35.98291,36.16128,36.337307,36.52471,36.681675,36.817375,36.978897,37.138138,37.27708,37.457207,37.659004,37.83665,38.05656,38.321533,38.56421,38.809704,39.102814,39.380146,39.63308,39.9547,40.283092,40.563194,40.89907,41.233845,41.493557,41.77346,42.06613,42.310154,42.545082,42.83831,43.135735,43.41286,43.782726,44.182655,44.530922,44.97589,45.47929,45.917007,46.40305,46.935707,47.37678,47.76148,48.194023,48.582912,48.907005,49.35108,49.797924,50.130093,50.534233,50.85285,50.967957,50.894375,50.608665,50.200356,49.577347,49.246758,49.576218,50.279774,51.74405,53.422443,54.56353,55.49636,55.985847,56.120697,56.371284,56.58405,56.685005,56.72518,56.814293,56.971077,57.15264,57.40548,57.720726,58.025215,58.424316,58.844143,59.141106,59.39501,59.454247,59.266014,58.97837,58.4646,57.838722,57.239754,56.955597,57.259224,57.882362,58.554825,59.096558,59.325127,59.454742,59.44761,59.350624,59.267605,59.18817,59.132202,59.08752,59.118362,59.226017,59.34128,59.44843,59.548325,59.623455,59.698402,59.77872,59.83876,59.876335,59.912094,59.940098,59.962025,59.98502,60.000237,60.006172,60.01822,60.038506,60.06281,60.091568,60.12981,60.16583,60.194626,60.229176,60.24546,60.23575,60.222343,60.205196,60.19019,60.17257,60.145157,60.111023,60.07117,60.01039,59.937836,59.86667,59.75879,59.621487,59.489075,59.318527,59.082645,58.84353,58.608166,58.369007,58.193127,58.063065,57.95424,57.89256,57.856552,57.830833,57.80996,57.783966,57.735878,57.64662,57.537148,57.397896,57.199654,56.9853,56.76754
16.58448,16.687708,16.780302,16.873959,16.981503,17.076878,17.15969,17.25352,17.337267,17.402838,17.480347,17.560436,17.627756,17.705585,17.797672,17.880331,17.957096,18.034649,18.094486,18.141033,18.202713,18.284698,18.375008,18.517197,18.70745,18.887463,19.089924,19.309856,19.485521,19.622154,19.801384,20.032562,20.286522,20.799112,21.516624,22.196312,23.49554,25.092,26.311218,27.243689,28.092575,28.764603,29.318504,29.837925,30.172047,30.363531,30.501965,30.574242,30.628138,30.721361,30.832336,30.922356,31.012333,31.126217,31.242767,31.352287,31.518772,31.701155,31.852943,32.039116,32.224667,32.372364,32.564003,32.668404,32.65634,32.710438,32.731487,32.683456,32.77619,31.961353,29.685953,26.4444,23.862896,22.574451,22.183989,21.894094,21.843685,21.946365,22.155125,22.574406,23.148567,23.777826,24.89534,26.451965,28.139,29.210926,29.769768,30.223557,30.59533,30.879921,31.074314,31.262726,31.449547,31.587303,31.689686,31.792267,31.86686,31.912333,31.965961,32.028507,32.09061,32.168617,32.279617,32.398594,32.52388,32.691933,32.859795,33.005066,33.169617,33.313477,33.419094,33.52378,33.614246,33.680542,33.743702,33.80396,33.8507,33.892326,33.94067,33.984077,34.019127,34.055244,34.084488,34.105415,34.122498,34.13485,34.143463,34.150566,34.16107,34.1745,34.18838,34.211063,34.24211,34.276283,34.3264,34.38423,34.433647,34.483143,34.520958,34.539337,34.551857,34.545135,34.528404,34.51592,34.536892,34.63219,34.783493,35.018074,35.30626,35.55899,35.797546,36.02544,36.209003,36.38822,36.575428,36.728493,36.858807,37.011475,37.15966,37.287857,37.454094,37.64422,37.815895,38.029446,38.286415,38.52112,38.759758,39.046654,39.32116,39.574306,39.89978,40.23745,40.529438,40.88519,41.243843,41.523064,41.826027,42.14353,42.40741,42.660763,42.972206,43.27928,43.556675,43.920048,44.3089,44.647736,45.07719,45.559956,45.978916,46.446445,46.96304,47.396854,47.78309,48.227093,48.632736,48.972374,49.429314,49.881844,50.21482,50.620323,50.934586,51.04121,50.96263,50.6902,50.297638,49.655838,49.300064,49.60959,50.29786,51.74575,53.423046,54.580475,55.54396,56.05928,56.201164,56.460197,56.674248,56.767822,56.796875,56.868347,57.0075,57.17661,57.415634,57.721603,58.0232,58.42205,58.845406,59.14754,59.410122,59.47223,59.279465,58.986656,58.475952,57.848232,57.227596,56.94932,57.283707,57.936493,58.59706,59.125977,59.361526,59.4907,59.477665,59.372025,59.28144,59.189655,59.14046,59.13362,59.169422,59.256554,59.352165,59.448483,59.543224,59.616337,59.690414,59.765926,59.81864,59.850388,59.883366,59.912563,59.936554,59.96678,59.997223,60.019974,60.041924,60.06783,60.09523,60.127888,60.171402,60.20912,60.23372,60.25244,60.25258,60.238213,60.220497,60.199585,60.181213,60.16092,60.1321,60.09852,60.060844,60.00474,59.93878,59.87468,59.776344,59.6503,59.52851,59.373283,59.172634,58.976532,58.765083,58.53035,58.34498,58.20824,58.08901,58.017693,57.976433,57.945225,57.922607,57.898766,57.844337,57.74234,57.62135,57.47519,57.27198,57.056763,56.846016
16.553495,16.654877,16.746658,16.84013,16.94918,17.047611,17.133963,17.233114,17.322575,17.392815,17.47477,17.557758,17.626282,17.704899,17.797184,17.880093,17.958048,18.039127,18.103054,18.15232,18.214401,18.290834,18.371431,18.49553,18.66006,18.816093,18.993637,19.191254,19.35601,19.495928,19.677952,19.89711,20.1249,20.571918,21.19579,21.792667,22.781166,24.09191,25.25931,26.312428,27.216751,27.814236,28.347408,28.920258,29.370106,29.676985,29.951002,30.12068,30.210701,30.318584,30.425327,30.511515,30.607391,30.729155,30.850029,30.960827,31.129597,31.31673,31.474857,31.671856,31.871006,32.030624,32.235573,32.362984,32.373062,32.41933,32.41739,32.364822,32.503483,31.714056,29.500128,26.417734,23.905918,22.605408,22.193054,21.888046,21.834404,21.942537,22.147488,22.561043,23.120102,23.721432,24.740246,26.179451,27.799011,28.862608,29.425797,29.850262,30.220863,30.516201,30.7239,30.938946,31.170853,31.35495,31.492798,31.630878,31.730366,31.790184,31.857555,31.927986,31.992271,32.072884,32.187237,32.310402,32.440346,32.618984,32.801903,32.962444,33.14834,33.313934,33.4361,33.555695,33.65412,33.721535,33.78542,33.8414,33.879593,33.909927,33.947056,33.984562,34.01799,34.05507,34.089912,34.11892,34.147697,34.172318,34.188675,34.198742,34.21009,34.224873,34.24241,34.270638,34.30722,34.345734,34.400063,34.460155,34.50979,34.558144,34.59292,34.60755,34.613503,34.604965,34.594345,34.594,34.621975,34.710144,34.843742,35.05931,35.337296,35.591137,35.83452,36.06978,36.25844,36.440166,36.626045,36.774155,36.898064,37.042084,37.18029,37.298225,37.454124,37.636253,37.802814,38.007576,38.253517,38.478416,38.70665,38.981293,39.24553,39.49088,39.809563,40.146362,40.442696,40.81214,41.194912,41.499302,41.831482,42.183434,42.47712,42.757484,43.09249,43.41127,43.692543,44.052162,44.42871,44.75341,45.159687,45.612007,46.003773,46.44406,46.935883,47.355797,47.73781,48.18479,48.60559,48.973923,49.455128,49.92317,50.267464,50.67978,50.994987,51.100044,51.019104,50.756226,50.382935,49.762268,49.40629,49.69773,50.374382,51.81238,53.47964,54.625626,55.601887,56.13835,56.29129,56.56033,56.768578,56.842125,56.851902,56.895035,57.00542,57.152527,57.366535,57.652435,57.94271,58.332718,58.75369,59.058807,59.326225,59.397385,59.21418,58.928856,58.426086,57.79354,57.14752,56.892292,57.281387,57.975357,58.630474,59.148277,59.390694,59.519478,59.500492,59.386337,59.28908,59.185204,59.13826,59.158615,59.205376,59.284447,59.365715,59.459633,59.552612,59.619858,59.68718,59.75244,59.796783,59.826004,59.85868,59.88867,59.912323,59.945896,59.98671,60.022896,60.0571,60.093826,60.12804,60.165962,60.21241,60.248955,60.27,60.278564,60.27164,60.260494,60.242275,60.218605,60.19751,60.174416,60.142914,60.10793,60.070156,60.015915,59.95416,59.89537,59.8058,59.69126,59.58049,59.431435,59.254707,59.098145,58.920673,58.715103,58.541767,58.398354,58.26732,58.18439,58.13286,58.092697,58.05767,58.017,57.946438,57.830967,57.70205,57.551216,57.34457,57.128693,56.921913
16.526394,16.62524,16.715515,16.80807,16.91764,17.018108,17.10703,17.210354,17.304523,17.378706,17.464542,17.550308,17.620235,17.699797,17.7923,17.875172,17.953611,18.036728,18.103268,18.154446,18.217052,18.289915,18.363853,18.475208,18.621067,18.759218,18.917633,19.097237,19.251526,19.389114,19.569061,19.77819,19.989182,20.374416,20.920305,21.46935,22.228401,23.272125,24.318405,25.479229,26.48592,27.064787,27.566248,28.11139,28.569553,28.913322,29.305737,29.619286,29.798697,29.930882,30.023443,30.10297,30.20308,30.330011,30.452303,30.563412,30.733404,30.924015,31.087154,31.29462,31.505653,31.672888,31.867458,32.016014,32.075516,32.121525,32.1027,32.047592,32.22248,31.43671,29.267033,26.343231,23.918667,22.624456,22.19247,21.879232,21.823622,21.93241,22.133915,22.541744,23.088104,23.67073,24.619678,25.9385,27.420223,28.495152,29.102032,29.485355,29.848497,30.15453,30.375767,30.59281,30.843567,31.060478,31.227554,31.397997,31.523321,31.599998,31.68412,31.76551,31.834023,31.916838,32.032043,32.156647,32.289185,32.477386,32.676437,32.85482,33.066803,33.260536,33.40543,33.548416,33.665344,33.742874,33.811356,33.867966,33.903107,33.923515,33.94875,33.978745,34.009537,34.047035,34.08761,34.12506,34.16551,34.20314,34.229584,34.2514,34.266834,34.27878,34.298576,34.331566,34.373272,34.415527,34.47249,34.532333,34.57973,34.624428,34.654297,34.664513,34.663906,34.657997,34.652626,34.639084,34.664303,34.753803,34.87596,35.086266,35.363052,35.61505,35.86178,36.10263,36.294792,36.477898,36.66191,36.80542,36.92382,37.061234,37.192642,37.30369,37.45556,37.63434,37.796043,37.99312,38.229286,38.445015,38.66211,38.92167,39.1707,39.40205,39.704514,40.029457,40.32023,40.690254,41.087296,41.41378,41.772346,42.157684,42.48155,42.789494,43.146873,43.47716,43.767403,44.127235,44.49182,44.80021,45.181007,45.600815,45.964005,46.375378,46.839825,47.24206,47.613968,48.052536,48.480198,48.879128,49.392326,49.888,50.254898,50.678623,51.00022,51.11261,51.033554,50.773384,50.41736,49.855614,49.529152,49.812298,50.484943,51.92068,53.571293,54.684208,55.65585,56.2055,56.3704,56.648666,56.844864,56.8901,56.878098,56.890686,56.969975,57.092545,57.278725,57.541115,57.81637,58.19332,58.607998,58.914047,59.186516,59.26925,59.10041,58.83279,58.328613,57.682896,57.030884,56.813004,57.263336,58.000153,58.65583,59.166245,59.414757,59.54341,59.519447,59.398308,59.29574,59.186436,59.136017,59.154343,59.213478,59.30597,59.38904,59.48283,59.572456,59.634342,59.69197,59.74832,59.789574,59.820274,59.85407,59.88481,59.90953,59.943623,59.983772,60.01936,60.06086,60.108437,60.15029,60.192307,60.237083,60.269627,60.290527,60.304165,60.303238,60.293777,60.276466,60.252274,60.22994,60.20501,60.170975,60.133904,60.094788,60.040348,59.98049,59.924896,59.841732,59.736916,59.63625,59.500885,59.334312,59.18371,59.030407,58.86721,58.72733,58.584446,58.444157,58.348362,58.285206,58.23352,58.178215,58.108986,58.02225,57.903244,57.777027,57.625763,57.41729,57.1982,56.9833
16.500504,16.596367,16.68468,16.775831,16.885267,16.987099,17.077961,17.184753,17.283083,17.360836,17.450287,17.538797,17.610245,17.690874,17.783634,17.866367,17.945053,18.029663,18.098269,18.151085,18.214325,18.284382,18.352795,18.453373,18.5831,18.705526,18.84687,19.01015,19.153576,19.282642,19.458368,19.66073,19.85717,20.189587,20.663635,21.159788,21.789295,22.608564,23.437012,24.488102,25.630869,26.435444,26.898098,27.372826,27.789665,28.113556,28.501587,28.849344,29.08908,29.332228,29.563026,29.744717,29.901516,30.041023,30.148972,30.25434,30.420658,30.609688,30.770088,30.986546,31.193897,31.33255,31.44321,31.568691,31.693329,31.758373,31.758152,31.73061,31.956154,31.12478,28.94876,26.209673,23.899036,22.629719,22.184635,21.87146,21.815647,21.92094,22.119614,22.520237,23.053234,23.6241,24.517624,25.70348,26.987505,28.106827,28.798323,29.11536,29.455963,29.76432,29.998455,30.22243,30.475481,30.697609,30.883461,31.082628,31.235905,31.330978,31.433914,31.528866,31.603977,31.69156,31.80767,31.931477,32.064762,32.263466,32.4834,32.686577,32.930565,33.158768,33.33463,33.51107,33.65535,33.747932,33.823975,33.885277,33.923973,33.94651,33.96405,33.982487,34.00878,34.04504,34.090233,34.135357,34.186737,34.236862,34.273094,34.304413,34.329247,34.347015,34.367683,34.400856,34.444447,34.491512,34.551308,34.60991,34.653618,34.69327,34.717064,34.72222,34.716137,34.706795,34.702126,34.694336,34.714645,34.792953,34.91023,35.11451,35.385788,35.63424,35.882805,36.12751,36.321705,36.506767,36.690353,36.83072,36.94512,37.076927,37.2024,37.30832,37.45452,37.62794,37.78533,37.976418,38.204304,38.41097,38.616463,38.85943,39.0905,39.304,39.584274,39.889862,40.167686,40.5272,40.926674,41.267372,41.65239,42.07003,42.41929,42.752937,43.134888,43.47961,43.776985,44.135155,44.485954,44.7761,45.12937,45.515255,45.849342,46.23118,46.667522,47.050648,47.409264,47.834404,48.258907,48.667263,49.22178,49.776604,50.190414,50.6249,50.952415,51.085747,51.003197,50.75383,50.434944,49.93328,49.644936,49.9321,50.606106,52.040077,53.669464,54.744156,55.706444,56.266365,56.442352,56.72912,56.908264,56.919415,56.886574,56.870697,56.920593,57.019554,57.180626,57.42049,57.678276,58.04054,58.44737,58.753056,59.02952,59.124413,58.972435,58.730392,58.19768,57.52265,56.910027,56.74523,57.254158,58.03511,58.690315,59.192368,59.44752,59.57669,59.548584,59.421257,59.314056,59.200905,59.148746,59.16654,59.228287,59.323982,59.40799,59.501717,59.591625,59.654488,59.712376,59.769413,59.811707,59.843327,59.87791,59.90933,59.934807,59.969563,60.01057,60.047264,60.09054,60.140396,60.184326,60.22841,60.275467,60.310226,60.33345,60.350224,60.352333,60.34501,60.329384,60.305748,60.282967,60.25683,60.22049,60.181065,60.140068,60.08432,60.024895,59.97103,59.89255,59.795753,59.703754,59.579838,59.42638,59.286537,59.143585,58.987453,58.854637,58.73313,58.60485,58.502068,58.423553,58.34349,58.265823,58.19348,58.102913,57.98209,57.855453,57.7032,57.493202,57.272343,57.055252
