11.366146,11.368178,11.371107,11.374659,11.383057,11.393198,11.400476,11.408157,11.415145,11.418844,11.419863,11.417896,11.4128475,11.406665,11.398718,11.390737,11.384614,11.379082,11.3746395,11.371317,11.366787,11.360762,11.354912,11.349555,11.343221,11.337651,11.333565,11.328039,11.3220215,11.317026,11.311379,11.305,11.299148,11.292473,11.284894,11.278753,11.273767,11.270137,11.269499,11.270548,11.273805,11.279248,11.28476,11.292643,11.303543,11.314737,11.327465,11.344385,11.361412,11.377085,11.3958,11.413294,11.427202,11.443018,11.4580965,11.469732,11.482848,11.498831,11.513934,11.528063,11.545787,11.559654,11.565599,11.56822,11.568227,11.568579,11.573246,11.581623,11.590064,11.601459,11.616283,11.630152,11.6434145,11.65774,11.668506,11.67555,11.680923,11.683147,11.683697,11.68326,11.682182,11.680822,11.676458,11.666042,11.650824,11.632296,11.601633,11.56163,11.514773,11.487137,11.508048,11.561438,11.599443,11.621891,11.63298,11.647834,11.685354,11.736734,11.793249,11.818041,11.775735,11.692189,11.572041,11.395183,11.178032,10.342425,8.85488,7.3761506,6.0930414,5.111762,4.68114,4.4711566,4.3253036,4.2598095,4.2352357,4.225978,4.227652,4.2256365,4.223407,4.221038,4.2190895,4.2171946,4.2151375,4.2134156,4.212,4.2103996,4.2090096,4.207976,4.2068563,4.2058563,4.2051353,4.2044754,4.2039433,4.2036276,4.2034073,4.2032967,4.2033434,4.2034807,4.203774,4.204207,4.2046404,4.205217,4.2060356,4.2069187,4.2080383,4.209541,4.211061,4.2126365,4.2147055,4.216849,4.2188435,4.221457,4.224271,4.2267075,4.22966,4.232915,4.235729,4.238819,4.242033,4.245366,4.2468047,4.2643194,4.312527,4.3762035,4.527462,4.831438,5.2130146,5.9023075,7.0068216,8.1706505,9.53949,10.539896,10.885634,11.233356,11.491772,11.585039,11.599219,11.544914,11.475943,11.458559,11.434658,11.395977,11.350794,11.307337,11.261982,11.241749,11.264161,11.293983,11.321444,11.347763,11.359286,11.368895,11.388983,11.416082,11.450897,11.483027,11.515312,11.554098,11.589745,11.622589,11.645628,11.654972,11.661585,11.669769,11.678299,11.685476,11.693016,11.7036085,11.714442,11.722783,11.73028,11.73512,11.73823,11.740401,11.74301,11.747282,11.752941,11.759491,11.765168,11.771624,11.778474,11.783904,11.788646,11.793653,11.797663,11.80069,11.804117,11.807168,11.8094635,11.812104,11.814764,11.816923,11.819241,11.821369,11.822983,11.824898,11.827438,11.830133,11.832679,11.83606,11.839703,11.8428335,11.846562,11.8502865,11.853037,11.855492,11.857584,11.858858,11.859651,11.860261,11.860861,11.861687,11.863058,11.864936,11.866811,11.869314,11.872,11.874096,11.876491,11.87913,11.881478,11.883852,11.886924,11.890353,11.893785,11.898487,11.903541,11.907562,11.911827,11.915863,11.918806,11.921446,11.924219,11.926695,11.929005,11.931921,11.934891,11.937496,11.940839,11.944172,11.946669,11.949777,11.953195,11.956026,11.958851,11.962096,11.965033,11.967605,11.971009,11.97475,11.97813,11.982384,11.987171,11.991388,11.99605,12.001183,12.005577,12.009832,12.0146265,12.018139,12.019709,12.021515,12.023481,12.025383,12.027865,12.030514,12.032545,12.034578
11.12178,11.129272,11.137053,11.143931,11.151894,11.159336,11.16445,11.169627,11.173655,11.174724,11.173335,11.168491,11.160765,11.152365,11.141879,11.131642,11.123896,11.115703,11.108402,11.103313,11.09729,11.095461,11.097979,11.099569,11.100745,11.100801,11.100181,11.097879,11.094219,11.0908165,11.086769,11.081725,11.07677,11.070986,11.064382,11.0592165,11.055292,11.053398,11.055094,11.058624,11.064836,11.072828,11.079845,11.088831,11.100386,11.112104,11.126756,11.142788,11.155741,11.167093,11.18015,11.191996,11.201305,11.211769,11.222289,11.231136,11.241241,11.253225,11.26421,11.274016,11.289502,11.305118,11.315154,11.324264,11.332413,11.340689,11.351978,11.365683,11.377977,11.3907585,11.402583,11.409527,11.41242,11.412321,11.410355,11.40883,11.405058,11.4103565,11.427981,11.450445,11.4674225,11.472333,11.477152,11.47872,11.467419,11.424013,11.387685,11.392119,11.434093,11.469671,11.502677,11.538587,11.56781,11.596303,11.626374,11.674409,11.742923,11.785557,11.763451,11.720596,11.649578,11.603092,10.970602,9.780279,8.5821705,7.143075,5.86831,5.1629844,4.6170454,4.284525,4.1907673,4.1707926,4.167586,4.1704607,4.1743865,4.179098,4.181959,4.181863,4.1806765,4.178784,4.177317,4.175541,4.1755214,4.178076,4.1828423,4.183345,4.1809545,4.180545,4.179657,4.1785245,4.177555,4.176385,4.1748934,4.1733956,4.1715555,4.1701045,4.1694775,4.169002,4.168586,4.1684484,4.1685414,4.1689706,4.1700177,4.1713376,4.1729774,4.1751056,4.176857,4.1779704,4.177182,4.176333,4.1782455,4.180913,4.183819,4.186322,4.1890903,4.191746,4.193654,4.195055,4.1954184,4.1938424,4.1893435,4.182806,4.177534,4.1725206,4.1821804,4.2337427,4.3162518,4.5358944,4.984206,5.5472794,6.333177,7.4930515,8.709436,9.989038,11.017004,11.386835,11.375649,11.425154,11.456066,11.417126,11.371237,11.320275,11.281204,11.239437,11.195335,11.161777,11.136391,11.115734,11.103588,11.094021,11.089422,11.100898,11.12425,11.155622,11.195589,11.231859,11.267986,11.311501,11.352287,11.389008,11.428772,11.46331,11.491501,11.524017,11.554491,11.577007,11.599674,11.621666,11.638517,11.653038,11.665758,11.673509,11.678515,11.682074,11.683485,11.684074,11.684656,11.685764,11.687439,11.689807,11.693459,11.697442,11.701565,11.706823,11.711315,11.714168,11.717271,11.719706,11.721194,11.722328,11.72274,11.722637,11.722206,11.720911,11.719313,11.718143,11.716814,11.715513,11.714283,11.712561,11.71067,11.709091,11.7074585,11.705827,11.704422,11.70273,11.7006035,11.698629,11.696732,11.695238,11.69519,11.696287,11.699068,11.70301,11.706493,11.710662,11.712986,11.71252,11.711161,11.70882,11.706888,11.706079,11.705639,11.70618,11.707618,11.710291,11.713692,11.716532,11.719394,11.721951,11.72369,11.72512,11.7266655,11.728092,11.729359,11.7307005,11.731817,11.732715,11.733756,11.734529,11.734961,11.736893,11.741041,11.745831,11.750237,11.755393,11.7602005,11.764532,11.770231,11.776362,11.7817955,11.788599,11.7960615,11.802418,11.809011,11.816044,11.82206,11.827875,11.834557,11.840482,11.845358,11.851341,11.857323,11.862342,11.868196,11.874011,11.878432,11.882395
10.610746,10.609753,10.612078,10.616205,10.619414,10.622725,10.625969,10.62892,10.631054,10.631264,10.629697,10.626045,10.6200485,10.612619,10.60213,10.591423,10.583778,10.581867,10.58433,10.587181,10.589134,10.593775,10.599396,10.6027355,10.605084,10.605961,10.606474,10.604324,10.599322,10.593956,10.587625,10.580643,10.574816,10.568681,10.562615,10.558708,10.556262,10.556539,10.559656,10.563103,10.568388,10.57407,10.578185,10.582693,10.588282,10.594582,10.603903,10.615268,10.625971,10.636615,10.650614,10.665444,10.678396,10.695668,10.711639,10.721636,10.73336,10.7485485,10.764484,10.7812,10.807099,10.835562,10.860092,10.889553,10.920418,10.94874,10.985929,11.018696,11.036146,11.050018,11.053846,11.048795,11.042244,11.034382,11.029629,11.029042,11.026682,11.033968,11.053798,11.079575,11.112677,11.141197,11.153377,11.157074,11.163406,11.182407,11.223059,11.284704,11.359348,11.423618,11.46852,11.502351,11.532799,11.579664,11.630768,11.64221,11.633137,11.599657,11.581887,11.258694,10.553442,9.714026,8.356519,6.8505692,5.732816,4.7205124,4.1537886,4.0672536,4.051421,4.0870895,4.1143494,4.133602,4.145748,4.147742,4.146764,4.1443534,4.1410036,4.1385107,4.1402855,4.141767,4.14027,4.1371727,4.1355915,4.137066,4.140559,4.1405945,4.13832,4.137681,4.1367536,4.135661,4.134649,4.1331916,4.1310053,4.1287413,4.126465,4.1245522,4.123493,4.122583,4.1221824,4.1223135,4.1224604,4.122767,4.1234627,4.1244035,4.1258626,4.128206,4.130458,4.132076,4.1320534,4.131657,4.133286,4.1354437,4.1377897,4.1398935,4.1417193,4.1442757,4.147436,4.1508675,4.1550207,4.158783,4.16224,4.166335,4.1672993,4.1642537,4.1519527,4.126032,4.094801,4.0640726,4.0596113,4.118964,4.3155804,4.987549,6.0223436,7.2248826,8.668943,9.837562,10.609623,11.139143,11.253777,11.161566,11.137829,11.130911,11.119605,11.093243,11.04998,10.998939,10.938385,10.872538,10.826853,10.802372,10.7979355,10.817218,10.842553,10.881319,10.930782,10.974131,11.01638,11.066374,11.113386,11.155682,11.210911,11.262813,11.299881,11.342725,11.382862,11.412672,11.443327,11.472183,11.493315,11.512085,11.529682,11.541977,11.551247,11.559188,11.563043,11.56392,11.564266,11.56484,11.566278,11.568701,11.572865,11.577551,11.582339,11.588199,11.59304,11.596113,11.599327,11.601828,11.60345,11.604893,11.605879,11.606497,11.607409,11.608091,11.608389,11.608938,11.609354,11.609247,11.608707,11.607493,11.605873,11.604497,11.603054,11.601387,11.599667,11.597236,11.593716,11.590166,11.586721,11.583773,11.582986,11.584014,11.586201,11.589574,11.593015,11.59692,11.5992985,11.599151,11.597553,11.593917,11.589755,11.586266,11.581537,11.577104,11.574058,11.571333,11.569241,11.567539,11.565073,11.56189,11.558878,11.5555725,11.552096,11.549438,11.547312,11.544743,11.542244,11.540173,11.537757,11.535349,11.533507,11.533035,11.53459,11.537147,11.539586,11.542595,11.545439,11.547977,11.551136,11.554283,11.556892,11.560068,11.563724,11.56727,11.573134,11.580169,11.585875,11.591191,11.596891,11.601774,11.606106,11.610937,11.6148205,11.617278,11.620113,11.622881,11.625423,11.631594
9.950417,9.93277,9.9218235,9.917564,9.912846,9.907377,9.901741,9.89571,9.888757,9.882223,9.8751,9.867859,9.860783,9.852669,9.8408165,9.8287735,9.820579,9.822567,9.831254,9.839029,9.847124,9.853683,9.856051,9.855728,9.85352,9.850743,9.8491955,9.844132,9.83563,9.827055,9.817316,9.80818,9.802273,9.797293,9.79463,9.795401,9.797758,9.804201,9.812713,9.819656,9.828247,9.835749,9.840133,9.843552,9.846016,9.848543,9.85329,9.863367,9.877687,9.893686,9.916641,9.9427,9.966339,9.996354,10.023199,10.039534,10.0582,10.081241,10.104583,10.129375,10.162931,10.197974,10.230274,10.271072,10.314556,10.353593,10.405746,10.448177,10.465655,10.478263,10.476933,10.467871,10.465577,10.46711,10.474585,10.487005,10.502157,10.523165,10.548113,10.584753,10.644106,10.707422,10.755758,10.795893,10.845169,10.950741,11.085717,11.192484,11.253201,11.315727,11.375258,11.429169,11.475208,11.513331,11.531364,11.515625,11.359125,11.051493,10.712425,9.793234,8.381276,6.891078,5.415601,4.510349,4.2346816,4.107739,4.109084,4.1113725,4.119773,4.125476,4.123356,4.1207566,4.1192536,4.1186256,4.117346,4.1143312,4.110367,4.107578,4.113036,4.1178894,4.116573,4.112934,4.1087837,4.1060333,4.103834,4.101838,4.1003027,4.098939,4.0975986,4.096264,4.0949845,4.093137,4.0904155,4.0877323,4.08551,4.0832586,4.0815234,4.080081,4.0795283,4.0798326,4.0800943,4.080494,4.0812263,4.0821915,4.083915,4.0869317,4.0902543,4.0933857,4.096904,4.099715,4.101627,4.1037636,4.1059246,4.1079226,4.108837,4.110662,4.1138635,4.1170306,4.1207237,4.124173,4.1280937,4.1303062,4.131918,4.1359525,4.14097,4.1460204,4.150108,4.1514874,4.1410704,4.1277256,4.134406,4.178729,4.364996,4.7433004,5.850919,7.419706,8.900656,10.036797,10.547522,10.703476,10.848289,10.892078,10.862841,10.822624,10.762737,10.700682,10.632729,10.552311,10.495633,10.474179,10.464528,10.466084,10.468237,10.475679,10.495176,10.520676,10.547035,10.583439,10.622504,10.660396,10.713114,10.762718,10.795376,10.834912,10.873524,10.903042,10.93426,10.9657955,10.991158,11.015451,11.042063,11.063456,11.079004,11.094173,11.104868,11.11138,11.118551,11.126566,11.134575,11.145249,11.158972,11.171759,11.183924,11.197472,11.208658,11.217169,11.226536,11.234957,11.241659,11.249709,11.258674,11.266634,11.275289,11.284552,11.292363,11.300149,11.308884,11.316095,11.32147,11.327096,11.331961,11.3357935,11.340378,11.344879,11.348089,11.3506775,11.352189,11.352511,11.3523445,11.352978,11.355902,11.360919,11.368068,11.377109,11.385948,11.397039,11.407997,11.415449,11.422258,11.426868,11.427558,11.425704,11.421509,11.416426,11.412155,11.407793,11.403837,11.400503,11.395935,11.39036,11.385358,11.380093,11.374721,11.370865,11.368103,11.365368,11.363304,11.361852,11.360719,11.360431,11.360805,11.3622675,11.364516,11.36664,11.36919,11.372314,11.374752,11.376078,11.377405,11.378277,11.378607,11.378542,11.378157,11.378128,11.3817625,11.38727,11.391739,11.395634,11.399136,11.40127,11.40267,11.403206,11.402,11.399722,11.397065,11.394396,11.39308,11.398199
9.374203,9.349061,9.329454,9.318389,9.306383,9.285011,9.257605,9.230122,9.199827,9.173765,9.148659,9.123963,9.104912,9.088853,9.06975,9.052366,9.040093,9.02956,9.021113,9.015625,9.014335,9.015457,9.016209,9.01443,9.011093,9.006953,9.003159,8.996037,8.986736,8.978607,8.969805,8.9635315,8.962019,8.963163,8.970147,8.981739,8.994738,9.014408,9.037119,9.057858,9.082998,9.10646,9.122656,9.13822,9.151049,9.1603985,9.172119,9.190611,9.213249,9.237174,9.270062,9.305855,9.337718,9.369614,9.39852,9.421573,9.446618,9.471754,9.490898,9.507383,9.524778,9.541548,9.5592375,9.582534,9.608286,9.631886,9.659682,9.680925,9.689855,9.697992,9.700557,9.703014,9.720282,9.742126,9.765512,9.792575,9.831429,9.886709,9.948484,10.043779,10.155216,10.249738,10.3856945,10.531885,10.643406,10.744524,10.888891,11.026452,11.11676,11.198889,11.26825,11.330998,11.382938,11.351906,11.2677965,11.383448,11.168684,10.374535,9.032562,7.2410526,5.787899,5.0056357,4.4358873,4.2039003,4.1308,4.100772,4.103822,4.1003532,4.0966578,4.0911293,4.0875845,4.0891595,4.1024942,4.1185684,4.1257524,4.123334,4.1161466,4.1128654,4.110283,4.1074305,4.104269,4.100727,4.096963,4.094141,4.0920234,4.0898833,4.088084,4.086608,4.0847225,4.082411,4.0801377,4.077222,4.0734396,4.069799,4.0660954,4.0619187,4.0585012,4.055861,4.053603,4.0525584,4.0523596,4.05311,4.055395,4.0583277,4.0622163,4.067483,4.0725417,4.0772924,4.082611,4.0870304,4.090377,4.0940847,4.0975256,4.100356,4.1035347,4.1067843,4.1094255,4.111819,4.114336,4.116858,4.123109,4.1118546,4.096646,4.101801,4.1070027,4.112428,4.1181126,4.1241355,4.128171,4.1301055,4.1349244,4.1371403,4.1773834,4.272767,4.631642,5.3812017,6.37029,7.894234,9.395499,10.311384,10.759517,10.74522,10.579876,10.461168,10.374524,10.330699,10.269452,10.2006445,10.148955,10.120337,10.078543,10.023664,9.968041,9.880636,9.802744,9.7676525,9.740842,9.729416,9.736033,9.750025,9.780163,9.81963,9.8548355,9.900658,9.947806,9.983852,10.021435,10.060907,10.09559,10.133257,10.178988,10.216557,10.239794,10.264191,10.284015,10.297845,10.314388,10.333648,10.352392,10.376487,10.407347,10.436543,10.465069,10.497876,10.526007,10.547985,10.572759,10.595566,10.613873,10.635742,10.659978,10.681017,10.700993,10.720543,10.736343,10.752001,10.769789,10.784811,10.796242,10.808326,10.818589,10.826307,10.8356495,10.845864,10.854643,10.864059,10.874228,10.882788,10.890366,10.900385,10.913652,10.929459,10.953234,10.981663,11.006911,11.039665,11.071016,11.091477,11.112743,11.131889,11.142312,11.145215,11.146687,11.14736,11.147718,11.149177,11.151213,11.152737,11.153612,11.153905,11.153902,11.153607,11.153923,11.155314,11.157395,11.160877,11.165194,11.169238,11.175299,11.183079,11.190487,11.20012,11.211254,11.2207775,11.230627,11.241861,11.250465,11.255164,11.260876,11.266389,11.270653,11.274801,11.277352,11.2782345,11.279646,11.282833,11.286905,11.290589,11.293758,11.295347,11.296146,11.295656,11.293724,11.2915125,11.288614,11.285572,11.283344,11.281962
8.832969,8.795933,8.763422,8.74056,8.713991,8.68192,8.650898,8.619049,8.584774,8.556122,8.52973,8.502373,8.480313,8.462425,8.442808,8.426042,8.414261,8.401911,8.390175,8.381368,8.374519,8.368116,8.3626,8.356917,8.350416,8.344901,8.340883,8.335323,8.329231,8.324259,8.319109,8.316231,8.316891,8.320049,8.328499,8.340547,8.352613,8.375628,8.40671,8.437192,8.472355,8.504082,8.52573,8.546551,8.564152,8.576836,8.590767,8.61022,8.631994,8.653844,8.682937,8.713425,8.739654,8.7669935,8.793108,8.814629,8.838139,8.859844,8.873501,8.882776,8.888191,8.889111,8.888784,8.886492,8.882645,8.878899,8.875756,8.878142,8.885265,8.891237,8.896765,8.905019,8.924856,8.954603,8.990694,9.030331,9.08803,9.165881,9.248121,9.373016,9.515182,9.635575,9.817953,10.078241,10.308212,10.434591,10.582366,10.732855,10.86726,11.004698,11.078474,11.081551,11.160446,11.252364,11.202023,10.67281,9.420134,7.89937,6.457061,5.113679,4.386549,4.141222,4.0312567,4.046037,4.05659,4.060238,4.063428,4.0685472,4.080942,4.095209,4.1021633,4.0984106,4.099825,4.1046042,4.106032,4.1028214,4.0982466,4.09649,4.093611,4.0904646,4.088066,4.085718,4.083233,4.0812874,4.079873,4.07835,4.076873,4.075515,4.073469,4.070675,4.0678663,4.064412,4.0601134,4.056058,4.0518346,4.0470457,4.043126,4.0401373,4.0373936,4.035966,4.035633,4.036477,4.039192,4.0426674,4.0471334,4.053007,4.0585814,4.0639462,4.069873,4.0747347,4.078482,4.0823903,4.0856743,4.0881653,4.0911345,4.0937495,4.0953274,4.0965953,4.0975237,4.0982585,4.1008067,4.095064,4.088566,4.0932655,4.1014295,4.1035166,4.0956736,4.0884495,4.0881805,4.0945644,4.099268,4.093972,4.083127,4.066106,4.0841618,4.3048944,4.7290583,5.7175756,7.0880594,8.284455,9.397131,10.096933,10.281988,10.297835,10.193489,10.061722,9.905484,9.7649765,9.652365,9.531912,9.351578,9.163755,9.031113,8.888634,8.770046,8.701746,8.643873,8.598257,8.574504,8.561477,8.561094,8.575466,8.593882,8.620207,8.647921,8.668259,8.691807,8.718857,8.74431,8.773333,8.811007,8.844715,8.86884,8.894165,8.914352,8.928282,8.944283,8.960825,8.975199,8.992785,9.0137615,9.032595,9.050623,9.070234,9.08896,9.108774,9.133037,9.15694,9.176592,9.201014,9.228846,9.253502,9.27936,9.3075075,9.33219,9.356891,9.386394,9.413271,9.435368,9.4608135,9.484672,9.503615,9.526297,9.550874,9.571603,9.592659,9.615243,9.634714,9.6527405,9.676144,9.70253,9.729087,9.767002,9.811203,9.850475,9.90027,9.954607,9.999094,10.047015,10.100639,10.144652,10.17915,10.2123375,10.238568,10.260796,10.287872,10.314878,10.336242,10.358577,10.377083,10.38862,10.401259,10.417177,10.433644,10.449907,10.472137,10.496017,10.51697,10.544197,10.57363,10.598261,10.627876,10.661869,10.692234,10.724752,10.761646,10.794163,10.823072,10.859456,10.895679,10.925644,10.960754,10.992823,11.015015,11.040693,11.063087,11.075579,11.083305,11.089541,11.093756,11.096703,11.098664,11.099142,11.099054,11.098629,11.098301,11.098354,11.09828
8.393803,8.352942,8.315993,8.288462,8.255793,8.223845,8.19999,8.174854,8.148581,8.127237,8.108286,8.087298,8.06901,8.053957,8.037809,8.024024,8.0140505,8.003294,7.9923325,7.98296,7.972556,7.9598994,7.948611,7.9393473,7.9298725,7.9231977,7.9194174,7.9154797,7.9120975,7.90956,7.907191,7.9065657,7.908227,7.9119453,7.919904,7.9304914,7.940673,7.961675,7.990895,8.019505,8.0528145,8.084757,8.108622,8.130501,8.148829,8.161702,8.174401,8.189995,8.20581,8.221063,8.240233,8.2588415,8.27366,8.291773,8.309309,8.3221035,8.335535,8.347621,8.354761,8.358462,8.356894,8.350086,8.341808,8.329113,8.313581,8.298794,8.283576,8.277634,8.282056,8.285719,8.292372,8.301786,8.31373,8.337497,8.372526,8.411812,8.470314,8.547292,8.625511,8.760853,8.924559,9.062832,9.233776,9.529097,9.837926,10.03298,10.213294,10.357212,10.483222,10.667564,10.818911,10.874529,10.798086,10.458733,9.872347,8.573631,6.7849493,5.367206,4.549489,4.1082234,4.058326,4.050235,4.040356,4.038406,4.043723,4.0503864,4.0598764,4.0702763,4.0869503,4.1056423,4.1135335,4.1047916,4.0927906,4.0830774,4.0766797,4.0721865,4.070484,4.07008,4.0697737,4.069489,4.0690727,4.0685215,4.067967,4.067595,4.067356,4.0669436,4.066205,4.065278,4.063648,4.061221,4.05871,4.055444,4.0512714,4.047351,4.0434003,4.0390053,4.0354643,4.032789,4.030369,4.0291033,4.0287514,4.0293884,4.0316343,4.034567,4.038394,4.043569,4.0485654,4.0533514,4.058561,4.062724,4.065873,4.0689187,4.071168,4.072694,4.074235,4.075346,4.075878,4.076216,4.0762196,4.0760345,4.075285,4.078299,4.0837655,4.087408,4.09575,4.0969405,4.0857725,4.075742,4.0717764,4.0740833,4.0725145,4.0738883,4.0767584,4.0740356,4.060755,4.0780134,4.127777,4.3876514,5.058526,5.9509983,7.1942186,8.38094,9.036829,9.449198,9.611046,9.5511875,9.40829,9.235794,9.038641,8.803004,8.506971,8.237896,8.067288,7.9088907,7.7837787,7.7062616,7.644784,7.596656,7.5688024,7.548716,7.5364304,7.5360007,7.540517,7.548449,7.555951,7.559451,7.5644083,7.570476,7.576732,7.58494,7.5976057,7.6111116,7.6231384,7.635051,7.6434317,7.648567,7.6541348,7.658718,7.6616964,7.6651297,7.668438,7.670843,7.673026,7.674529,7.6782684,7.6873503,7.6999207,7.7132206,7.7242303,7.7382207,7.754122,7.7681856,7.7843423,7.803569,7.8217034,7.840391,7.864004,7.8869495,7.9067655,7.930431,7.953375,7.9718313,7.9938335,8.017746,8.038104,8.0592,8.082914,8.104401,8.124798,8.151765,8.180964,8.208348,8.24602,8.289162,8.327576,8.375598,8.432354,8.484018,8.54071,8.608896,8.670829,8.725818,8.783777,8.833037,8.874568,8.923959,8.971614,9.008293,9.046946,9.081129,9.10494,9.130671,9.162042,9.193404,9.2241535,9.266094,9.3112335,9.350965,9.402618,9.459358,9.507869,9.5664215,9.634714,9.696465,9.76203,9.83713,9.903875,9.963665,10.033686,10.099127,10.152298,10.214706,10.2738285,10.317132,10.363665,10.404655,10.429973,10.448956,10.467906,10.484036,10.49761,10.513142,10.5276985,10.539618,10.554253,10.57077,10.585633,10.603162
8.092223,8.05875,8.028744,8.007259,7.9820223,7.957148,7.938194,7.918495,7.8981752,7.881773,7.8669586,7.8506584,7.8363647,7.8243437,7.8107023,7.7979183,7.787807,7.775342,7.76097,7.748184,7.7349005,7.719944,7.707391,7.697151,7.6868677,7.6797047,7.6755996,7.671199,7.6674614,7.6648235,7.662483,7.66244,7.665159,7.6703587,7.6807466,7.6941977,7.708396,7.728363,7.749959,7.768694,7.7928147,7.820609,7.84533,7.867001,7.884638,7.8964024,7.907461,7.919898,7.9318695,7.943733,7.957706,7.9700236,7.9789934,7.9896164,7.9982643,8.002779,8.005642,8.008005,8.009753,8.01,8.005584,7.999284,7.9960327,7.993601,7.991828,7.989889,7.9861197,7.9818015,7.979171,7.9790664,7.9844775,7.9930935,7.999524,8.013769,8.037812,8.066765,8.112217,8.173231,8.234643,8.37451,8.557488,8.706832,8.840676,9.08229,9.376074,9.639729,9.87049,10.006003,10.086753,10.269197,10.4758,10.598724,10.140566,8.877627,7.391512,5.9431477,4.8295975,4.386562,4.184964,4.079365,4.0483193,4.028391,4.0165033,4.018113,4.026578,4.061109,4.0936456,4.101557,4.0989532,4.0920444,4.0859213,4.0790772,4.0706453,4.0629992,4.057076,4.052257,4.050007,4.0496254,4.0499434,4.050947,4.0519357,4.0528784,4.054038,4.0550523,4.055814,4.056407,4.05647,4.05614,4.055267,4.0537176,4.0519943,4.0493293,4.045643,4.042111,4.038624,4.034787,4.031739,4.029479,4.0274086,4.0262403,4.0257893,4.0260844,4.0276747,4.0298867,4.0328712,4.037062,4.0411386,4.0448427,4.0488873,4.0520706,4.0543184,4.056346,4.0576215,4.05832,4.058773,4.0587606,4.0584803,4.0580883,4.0577717,4.0577974,4.0580015,4.0595236,4.062334,4.0653915,4.0697956,4.0744867,4.078138,4.083896,4.08535,4.0794506,4.0616302,4.046638,4.0447907,4.050357,4.057064,4.064873,4.0662813,4.1337767,4.3892255,4.77907,5.407446,6.281126,7.091017,7.8894453,8.503365,8.729214,8.778072,8.68808,8.460384,8.182076,7.891631,7.65604,7.5046625,7.3496103,7.2227206,7.149131,7.0995364,7.070818,7.0615387,7.0552692,7.0547924,7.06058,7.0677385,7.076921,7.083907,7.0860076,7.084285,7.0784106,7.0718436,7.065975,7.060029,7.0551057,7.050474,7.0443687,7.038165,7.0331144,7.0278826,7.023287,7.0199976,7.017145,7.0151634,7.0144587,7.014571,7.015623,7.017245,7.01888,7.0210943,7.022996,7.024024,7.0245686,7.023932,7.0224953,7.0202937,7.017723,7.016157,7.0157776,7.017207,7.0202937,7.0237746,7.0281353,7.0322657,7.03531,7.0389023,7.043432,7.048383,7.0557585,7.0672245,7.0799007,7.0925617,7.110181,7.129649,7.147805,7.1724253,7.2001376,7.224511,7.255166,7.2918105,7.325776,7.36419,7.411891,7.4575653,7.500739,7.553668,7.6039534,7.645363,7.6943927,7.7402935,7.774086,7.8094673,7.8443527,7.872817,7.9023967,7.937849,7.9729724,8.00779,8.055679,8.107868,8.154247,8.215687,8.286204,8.349204,8.426409,8.517648,8.600214,8.68646,8.786324,8.873641,8.947224,9.026779,9.095333,9.149233,9.211252,9.27109,9.316841,9.360613,9.402885,9.436603,9.467787,9.502525,9.533611,9.560715,9.593871,9.627246,9.655611,9.69118,9.731377,9.76704,9.808525
7.876195,7.8494244,7.823416,7.8057966,7.7843037,7.76192,7.7439756,7.72548,7.7065086,7.6913166,7.677591,7.662324,7.6490297,7.6382847,7.6257796,7.6131763,7.6023636,7.5891485,7.5740347,7.5607457,7.5469093,7.5317383,7.519539,7.510003,7.5010276,7.4955955,7.4932055,7.491336,7.490637,7.4906836,7.4912176,7.4936514,7.4978027,7.5040073,7.514676,7.5275517,7.540868,7.5586104,7.5766363,7.5916414,7.6086817,7.626176,7.6410904,7.655695,7.668994,7.678829,7.6885643,7.7002525,7.711628,7.722365,7.734727,7.745269,7.752718,7.7603045,7.7659883,7.769035,7.7707424,7.7695327,7.7663107,7.7629576,7.75786,7.7527347,7.7488885,7.7448187,7.740897,7.7372713,7.7311416,7.722933,7.715803,7.7109804,7.710812,7.7158065,7.723704,7.7396355,7.763889,7.792886,7.8329897,7.8841047,7.936132,8.059966,8.241018,8.403132,8.526363,8.726286,8.970182,9.201698,9.400757,9.568162,9.798555,10.009636,9.793128,9.137135,7.917104,6.4442463,5.3865776,4.627325,4.1853247,4.067574,4.023552,4.003427,3.9946332,3.987189,4.0007634,4.0302277,4.0555134,4.0690928,4.0742235,4.075393,4.0720673,4.0652266,4.057972,4.051362,4.0429506,4.0356483,4.03092,4.0278487,4.0277624,4.029343,4.0319915,4.035493,4.03843,4.041009,4.043893,4.0463657,4.048319,4.0502753,4.0515423,4.052126,4.0522437,4.051507,4.050308,4.048414,4.0456195,4.042802,4.0398803,4.036746,4.034362,4.032628,4.0310035,4.0299745,4.0294285,4.029265,4.029976,4.0312448,4.0331163,4.035802,4.038437,4.0409446,4.0437775,4.0459547,4.047314,4.0481997,4.048175,4.0476413,4.0463095,4.044038,4.0416403,4.038598,4.0354633,4.0333567,4.0316935,4.0312853,4.0326943,4.034874,4.038534,4.0433793,4.048007,4.0518847,4.053306,4.052075,4.048906,4.041761,4.031925,4.016968,4.0159445,4.0239873,4.0211587,4.0222416,4.0973473,4.248801,4.54574,5.089844,5.709665,6.4023848,7.1265545,7.6053944,7.8676605,7.939249,7.806885,7.633307,7.419562,7.219953,7.0847645,6.948737,6.852184,6.811574,6.781269,6.7606936,6.7500124,6.7423162,6.7399507,6.7439275,6.749522,6.756662,6.7615232,6.7619734,6.7585144,6.7507343,6.742316,6.734139,6.724736,6.716653,6.710287,6.7019906,6.6944284,6.689503,6.6842265,6.6791687,6.6749806,6.6702447,6.6648035,6.660061,6.655842,6.6512995,6.6473722,6.6439056,6.640557,6.637496,6.634527,6.63046,6.6251655,6.619869,6.6129775,6.6034656,6.5945063,6.5873246,6.580701,6.576345,6.573516,6.5703316,6.567046,6.564009,6.5603023,6.557067,6.555536,6.555691,6.558813,6.56411,6.570284,6.5797586,6.5905886,6.600563,6.613885,6.628557,6.6412344,6.6571283,6.6765623,6.695212,6.7170515,6.745327,6.773444,6.800699,6.835211,6.8673763,6.891679,6.9211674,6.9495525,6.9709787,6.994137,7.0179315,7.037811,7.057932,7.0830517,7.1083956,7.1326227,7.164813,7.199013,7.2291574,7.2690196,7.315154,7.3568854,7.4085693,7.470495,7.5271807,7.586476,7.6572,7.720732,7.7741175,7.8338385,7.886683,7.9280157,7.9755964,8.022005,8.058731,8.10207,8.147698,8.183725,8.216955,8.253428,8.2856,8.313535,8.348277,8.38454,8.41647,8.458132,8.506596,8.55011,8.601683
7.6944695,7.675911,7.6578593,7.6462374,7.631791,7.6166315,7.6044717,7.5920324,7.579429,7.5693483,7.5601425,7.5487804,7.5377436,7.5284357,7.517088,7.5046062,7.493073,7.4782763,7.460662,7.445118,7.429863,7.414015,7.401941,7.3928914,7.3848405,7.38066,7.379652,7.378993,7.378257,7.3771286,7.3766966,7.3779345,7.3806915,7.384923,7.392447,7.401682,7.4112415,7.4243937,7.4379745,7.449258,7.461309,7.4721727,7.4804463,7.489936,7.499919,7.5083222,7.5172496,7.52866,7.5399714,7.5505323,7.5617414,7.5705776,7.5767374,7.582324,7.586375,7.588935,7.591014,7.590852,7.588793,7.5871477,7.583119,7.577553,7.5723543,7.5660295,7.5594025,7.5534,7.544119,7.5328636,7.5236425,7.516287,7.51228,7.513742,7.520823,7.5342355,7.5542026,7.578985,7.614731,7.658936,7.7013335,7.8073263,7.9662323,8.112814,8.2465515,8.416264,8.587982,8.745901,8.926603,9.07187,9.216925,8.952269,8.082591,6.9779434,5.684561,4.669421,4.268673,4.0708447,4.0067177,3.990715,3.97675,3.9727554,3.984056,4.005988,4.026313,4.0444055,4.059926,4.055659,4.0450783,4.0409546,4.036976,4.0311804,4.0245686,4.0182734,4.0110183,4.0056973,4.003069,4.0023613,4.004558,4.0079575,4.012618,4.0183735,4.0233183,4.027913,4.0329947,4.037302,4.0407906,4.0445223,4.0473967,4.049234,4.050759,4.051264,4.050927,4.050068,4.048396,4.0464973,4.044413,4.0421953,4.040559,4.0393896,4.0382833,4.037491,4.0369396,4.0364323,4.0363092,4.036571,4.037111,4.038027,4.038984,4.0399356,4.0409536,4.0414267,4.0412707,4.040192,4.038008,4.0355253,4.031644,4.026411,4.021414,4.015525,4.009136,4.0042515,4.000279,3.997262,3.9966354,3.997622,4.000427,4.004736,4.0088387,4.0124083,4.0156274,4.018552,4.0243545,4.026413,4.0211077,4.0090027,3.9995213,3.9964776,3.9954374,3.9892786,4.0053754,4.0512304,4.1581035,4.4101925,4.756996,5.246235,5.9133234,6.5012193,6.936546,7.2168703,7.250024,7.1821632,7.064179,6.920354,6.8066626,6.69198,6.626733,6.6196795,6.602994,6.584872,6.5710487,6.5624704,6.5614157,6.5665064,6.570366,6.575116,6.5774674,6.5761976,6.571843,6.564019,6.5559444,6.5479736,6.5387506,6.5308137,6.5245934,6.516749,6.5097513,6.505208,6.500128,6.4949617,6.4904613,6.484962,6.4780307,6.4714527,6.4650936,6.457599,6.450818,6.4451647,6.4387593,6.432411,6.4267364,6.4193873,6.4107375,6.4028196,6.3932366,6.380963,6.3696723,6.360159,6.3504972,6.3430595,6.3375063,6.3309565,6.3243732,6.3187356,6.31207,6.3056464,6.3012114,6.297593,6.2955866,6.295677,6.2968183,6.29958,6.303109,6.3062487,6.309683,6.312813,6.315299,6.3183975,6.3228693,6.328068,6.3351436,6.345627,6.356987,6.3684325,6.3830805,6.396184,6.405096,6.4160805,6.42702,6.4356527,6.4455013,6.456172,6.4653287,6.4745536,6.4864035,6.4980774,6.5082655,6.520446,6.532574,6.5433536,6.5571985,6.5734177,6.5886116,6.6080856,6.6323624,6.655282,6.6795416,6.709755,6.738013,6.761994,6.7902737,6.816392,6.836912,6.859788,6.8822365,6.901041,6.9276867,6.9579196,6.9820666,7.004074,7.0280647,7.0491385,7.067437,7.090495,7.115196,7.1374674,7.1666784,7.2032995,7.2387304,7.280756
7.5537176,7.5441093,7.536851,7.532465,7.52685,7.521308,7.51723,7.5128975,7.508388,7.5044527,7.500515,7.493967,7.4858303,7.478057,7.4679103,7.455848,7.44421,7.4283824,7.408676,7.3910475,7.374407,7.3574853,7.3447056,7.335097,7.3262396,7.3209643,7.3187537,7.31623,7.312683,7.308502,7.305065,7.303391,7.3037777,7.305359,7.3095202,7.3153887,7.3216753,7.3307667,7.340538,7.3487544,7.358829,7.3689456,7.376849,7.385496,7.394605,7.4024677,7.4109535,7.421751,7.4324045,7.4425173,7.452384,7.4594812,7.4643846,7.468617,7.4713993,7.4730544,7.4746566,7.476714,7.4787607,7.4810324,7.4792213,7.473998,7.469636,7.464772,7.4599395,7.455503,7.4478884,7.437375,7.4277716,7.4199243,7.414469,7.4133644,7.4163704,7.423669,7.4370093,7.455222,7.486724,7.529009,7.569598,7.666876,7.8031945,7.9232864,8.056026,8.184979,8.281734,8.386075,8.526455,8.509484,8.283979,7.4073176,6.203763,5.3041677,4.5838203,4.2147293,4.1363244,4.0409994,3.9812183,3.9613476,3.9569178,3.9716759,4.0036025,4.0424232,4.0509906,4.03832,4.03116,4.0261536,4.0214024,4.016451,4.0107145,4.0041795,3.9986591,3.9937425,3.9890842,3.986484,3.9855847,3.9864197,3.989645,3.9936557,3.9989223,4.005482,4.011382,4.017206,4.023714,4.029233,4.033779,4.0387897,4.042905,4.0457697,4.0485373,4.05027,4.05087,4.0509567,4.050214,4.049061,4.04772,4.0462446,4.045143,4.0443687,4.043663,4.043118,4.042653,4.042025,4.0413876,4.0409193,4.040398,4.039933,4.0395927,4.039208,4.038564,4.0374436,4.035908,4.0331097,4.029144,4.0251284,4.019396,4.012202,4.0056124,3.998242,3.9900565,3.9834404,3.9780462,3.9731631,3.9707203,3.9702978,3.971475,3.9746692,3.9784362,3.9840539,3.989539,3.9928305,3.9958775,4.0004177,4.0054502,4.012358,4.004034,3.9862456,3.9750266,3.9677887,3.9820948,4.015829,4.0775676,4.200053,4.3788676,4.714222,5.2400627,5.7772026,6.2705903,6.7091846,6.904313,6.9074173,6.865951,6.7772474,6.6903057,6.595149,6.5401354,6.537899,6.526357,6.509374,6.4936523,6.485099,6.485154,6.490588,6.4926524,6.495017,6.4948344,6.4917,6.485958,6.4774866,6.4693694,6.461418,6.452182,6.4437733,6.4362392,6.427681,6.4201365,6.414424,6.4080067,6.4016848,6.396511,6.390475,6.383383,6.376958,6.370772,6.3633914,6.3564386,6.3504114,6.342577,6.334072,6.3265066,6.3166437,6.3051004,6.294773,6.2830143,6.2697787,6.2586765,6.248972,6.238784,6.2306004,6.22434,6.2168617,6.2094173,6.2032037,6.1960034,6.1889105,6.183668,6.1789246,6.175144,6.1731167,6.1718287,6.171152,6.170916,6.170623,6.16908,6.1665144,6.164112,6.161195,6.158702,6.1576166,6.157734,6.159566,6.162551,6.1660194,6.1705256,6.17486,6.1784234,6.182192,6.1854744,6.187928,6.1908045,6.19431,6.197734,6.2015986,6.2060614,6.2096004,6.2120366,6.2138405,6.215048,6.2164364,6.217563,6.218545,6.2196083,6.2220144,6.2261066,6.2306366,6.2357903,6.242346,6.2485,6.253832,6.259901,6.2653823,6.2697744,6.273471,6.2771616,6.2812033,6.286926,6.2948837,6.302621,6.3097672,6.3178015,6.32503,6.33138,6.3395534,6.3485703,6.3568835,6.3671823,6.382986,6.4012494,6.4224925
7.431963,7.433722,7.4377403,7.4404845,7.4424534,7.4431453,7.4428186,7.4416895,7.4392385,7.436013,7.4323177,7.426526,7.419552,7.4128075,7.403463,7.3919,7.380664,7.366,7.3482494,7.3324137,7.316628,7.299678,7.286084,7.275388,7.2645082,7.2559853,7.2495832,7.2433777,7.23868,7.2356052,7.233031,7.232196,7.2332153,7.235524,7.2404795,7.246812,7.2531633,7.2616754,7.270395,7.277669,7.2865057,7.295373,7.3023634,7.31011,7.3183947,7.325573,7.333168,7.3427744,7.3521004,7.3605824,7.369316,7.3762045,7.3813496,7.384985,7.3867297,7.387603,7.3883314,7.389286,7.3904448,7.3917933,7.3927727,7.393095,7.3932595,7.3938074,7.3946,7.3953137,7.3948555,7.387968,7.3765364,7.366358,7.3573,7.352739,7.352334,7.3579674,7.3712587,7.3890333,7.4153986,7.45758,7.508589,7.601482,7.737296,7.8621235,7.9509587,7.9905977,8.006922,8.113776,8.13148,7.81869,7.1725826,6.203875,5.269711,4.700798,4.3108664,4.126667,4.0531282,3.9876962,3.9547954,3.9566553,3.9759557,4.0060825,4.0253797,4.0232463,4.0189066,4.0132422,4.008856,4.0042505,3.9993443,3.9951682,3.9912586,3.9877033,3.985302,3.9832969,3.9816601,3.9809809,3.9808226,3.9820933,3.9853222,3.9891868,3.9942174,4.0004272,4.006003,4.0115433,4.017824,4.023282,4.027897,4.0331697,4.037731,4.041072,4.044505,4.046988,4.0482025,4.0489573,4.0488605,4.0481663,4.047207,4.0461063,4.0452986,4.044758,4.0443053,4.043943,4.0435724,4.0428762,4.041898,4.040956,4.0397835,4.038428,4.037238,4.0360737,4.034599,4.0328426,4.0308685,4.027663,4.0234137,4.019209,4.0132933,4.005949,3.9992456,3.9916961,3.9832928,3.9763923,3.9704976,3.9648442,3.9612336,3.9592102,3.95846,3.9596145,3.9615421,3.9646974,3.9690013,3.9729125,3.9766603,3.980544,3.9842758,3.9890177,3.9964993,3.9979286,3.9881535,3.969718,3.9655366,3.9854326,4.0297956,4.1140933,4.229124,4.4197154,4.811434,5.2997856,5.7847033,6.3016644,6.622056,6.718065,6.7420664,6.6929083,6.639571,6.567951,6.5039797,6.4755564,6.4735436,6.46435,6.4446516,6.4317236,6.42334,6.4211473,6.4205866,6.420618,6.418679,6.414157,6.407489,6.3990297,6.3915973,6.384479,6.3753376,6.365979,6.357029,6.3472795,6.339193,6.333311,6.3268223,6.3205805,6.315529,6.309534,6.30241,6.295887,6.289646,6.281535,6.2731457,6.2653947,6.2557955,6.245846,6.237147,6.2262645,6.2139173,6.2030106,6.190674,6.1767178,6.164859,6.15438,6.143156,6.133892,6.1266365,6.117996,6.1094246,6.1022825,6.0938444,6.085204,6.078487,6.0720367,6.066187,6.0622454,6.059162,6.056275,6.053967,6.051938,6.0490193,6.04562,6.0426226,6.0390806,6.0358067,6.0338597,6.0329056,6.0331206,6.0342445,6.0357275,6.0375657,6.0391035,6.0401525,6.041068,6.0417576,6.042312,6.043148,6.0446033,6.0463634,6.0484943,6.051257,6.0536776,6.0554514,6.05688,6.057537,6.0578237,6.057434,6.05494,6.0511246,6.048178,6.0461054,6.0450954,6.044546,6.044243,6.043954,6.0434856,6.0425587,6.041321,6.040143,6.0386577,6.0377336,6.037795,6.038722,6.040827,6.043174,6.045308,6.0474157,6.0489836,6.0501833,6.051856,6.0541654,6.0567327,6.060428,6.06592,6.0717926,6.079014
7.346627,7.3360305,7.3348904,7.341691,7.346752,7.350376,7.352176,7.3517604,7.350952,7.3502474,7.348317,7.3446507,7.3398,7.334943,7.3279853,7.318981,7.309969,7.2982635,7.2833805,7.2693048,7.25467,7.238406,7.224996,7.214184,7.2029133,7.193595,7.1861095,7.1781406,7.1721296,7.168887,7.1662006,7.1654887,7.166687,7.1689715,7.173525,7.179249,7.185157,7.192808,7.200445,7.2067914,7.2145834,7.2225637,7.228999,7.236312,7.244404,7.251608,7.2593107,7.2691183,7.278615,7.2871084,7.2963686,7.3034034,7.307603,7.3107615,7.3125763,7.313761,7.314748,7.315905,7.3172064,7.318597,7.32073,7.322928,7.32454,7.326742,7.329231,7.331506,7.3334403,7.3317895,7.32707,7.323,7.3178616,7.3142138,7.314602,7.319977,7.3290935,7.3363543,7.3579416,7.414406,7.4947305,7.6109705,7.7250957,7.788077,7.7997885,7.791627,7.7797823,7.8126087,7.545931,6.9106593,6.113185,5.233422,4.59618,4.306378,4.1206493,4.0372295,3.9884887,3.95863,3.9630961,3.9874668,4.0023246,4.0136404,4.013279,4.0022163,3.9944286,3.989326,3.984549,3.979527,3.975517,3.9734855,3.9721944,3.971737,3.9720266,3.97258,3.973571,3.974846,3.9760308,3.9783697,3.982071,3.9860058,3.9909916,3.9968991,4.002061,4.00718,4.0129366,4.0179825,4.0223737,4.0275955,4.032378,4.036072,4.0401316,4.0433226,4.045041,4.0463347,4.0466847,4.04623,4.045418,4.044442,4.0437217,4.043228,4.0428457,4.0425444,4.042203,4.041451,4.040204,4.0388584,4.037142,4.0350375,4.033142,4.031352,4.0292583,4.027092,4.0248814,4.0215697,4.017333,4.0131326,4.007388,4.000245,3.9936175,3.9860444,3.9774742,3.9702797,3.9639792,3.9575658,3.9528184,3.9494705,3.9466403,3.9453745,3.945271,3.9459462,3.9483173,3.9515705,3.9555707,3.960812,3.9659607,3.9704154,3.9802833,3.9894028,3.991629,3.9886413,3.9821506,3.9777536,3.9935408,4.040636,4.109005,4.195468,4.4409056,4.818983,5.2540054,5.813531,6.2567573,6.4785047,6.5876913,6.5866094,6.5739603,6.5451603,6.4961405,6.452036,6.430959,6.411708,6.395027,6.3846793,6.3734674,6.3663387,6.3649964,6.363623,6.359886,6.3535814,6.343652,6.3310957,6.320259,6.3097954,6.297492,6.2863264,6.276785,6.266366,6.257639,6.2512846,6.244207,6.2373085,6.2316613,6.2249107,6.2168083,6.2093143,6.201982,6.192771,6.1836743,6.175527,6.165616,6.155568,6.146921,6.1362524,6.124401,6.114105,6.102544,6.0894146,6.0781107,6.0679803,6.0568595,6.047407,6.0399227,6.0304585,6.0207653,6.0127773,6.0032854,5.9934807,5.985764,5.978198,5.970954,5.9656525,5.961249,5.9567413,5.952903,5.949589,5.9453287,5.940694,5.93665,5.931916,5.9272704,5.9240265,5.92159,5.9198475,5.918942,5.9183707,5.9175553,5.9164267,5.915176,5.913411,5.911561,5.9101763,5.9088936,5.908231,5.9083204,5.9088016,5.909889,5.911043,5.9118443,5.9122906,5.9119415,5.911099,5.909484,5.9064026,5.902749,5.899528,5.896551,5.8942366,5.892071,5.889456,5.886736,5.883982,5.880253,5.876292,5.8728533,5.8690953,5.865921,5.863929,5.8622875,5.861277,5.8608494,5.860464,5.859807,5.8587494,5.857441,5.854826,5.8519087,5.849945,5.848123,5.846529,5.845207,5.844119
7.3025146,7.290043,7.286783,7.292596,7.2949886,7.293221,7.2893276,7.2866898,7.286816,7.2884407,7.28754,7.2853165,7.28223,7.2791357,7.274225,7.266568,7.2578354,7.2448378,7.2288046,7.2150197,7.201486,7.1863813,7.1735506,7.163107,7.152144,7.1432705,7.136591,7.128713,7.121965,7.117797,7.1144156,7.113388,7.114565,7.116686,7.120824,7.126001,7.131426,7.1384687,7.1456037,7.15166,7.159337,7.167481,7.1742115,7.182023,7.190923,7.1989484,7.207307,7.2178946,7.228175,7.237419,7.2476306,7.255374,7.259783,7.2638783,7.267025,7.2692833,7.271441,7.273817,7.276043,7.278212,7.2806673,7.2826586,7.2839913,7.2857246,7.2876124,7.2892933,7.290583,7.2919264,7.293535,7.296612,7.296932,7.2953215,7.297336,7.304497,7.317792,7.3316383,7.374222,7.4595814,7.563228,7.677685,7.740781,7.7310224,7.694088,7.660774,7.6036,7.4900103,6.914628,6.0637193,5.347726,4.678216,4.287119,4.1515665,4.0390506,3.982678,3.9627376,3.9648404,3.9868555,4.0060673,4.0045147,3.9947832,3.9845462,3.9804807,3.9744945,3.9683208,3.9638844,3.9601645,3.9583828,3.9585497,3.9595404,3.9614258,3.963537,3.965728,3.9683647,3.970928,3.973141,3.9762962,3.98028,3.9841056,3.9888282,3.9942994,3.9990492,4.0037756,4.009119,4.013883,4.0181284,4.0233107,4.0282297,4.0321493,4.0366354,4.0403724,4.042546,4.0443516,4.045084,4.044746,4.0439224,4.0428247,4.041937,4.0412755,4.0407505,4.0403757,4.0400066,4.039172,4.0377216,4.0361013,4.034011,4.031415,4.0290747,4.026896,4.024453,4.022096,4.0198107,4.016463,4.0122824,4.0082006,4.0027237,3.9959614,3.9896688,3.9824367,3.9741898,3.967187,3.9609976,3.9544172,3.94914,3.9451456,3.9408665,3.9376183,3.9357612,3.9344838,3.9348006,3.9364526,3.9393153,3.9446893,3.950777,3.9560115,3.9622145,3.9700742,3.9801683,3.9933004,3.9964838,3.9865344,3.982232,4.00028,4.0400224,4.085079,4.2162046,4.456934,4.7988873,5.3269515,5.8369255,6.1774664,6.409684,6.4909973,6.5084667,6.523901,6.5073175,6.469962,6.4337473,6.3977737,6.3740163,6.358215,6.345296,6.338097,6.3341103,6.3294287,6.3221087,6.3128066,6.299118,6.282048,6.267174,6.252713,6.23656,6.2229347,6.2120447,6.1999063,6.1893983,6.1815643,6.1730876,6.164852,6.157986,6.1498218,6.1400437,6.131008,6.122037,6.1113057,6.101384,6.0929227,6.0827274,6.072586,6.0640373,6.0535994,6.0422688,6.0326376,6.021942,6.00982,5.999303,5.9897795,5.9791107,5.9698257,5.9623756,5.95279,5.9429326,5.9348907,5.925391,5.9156523,5.908021,5.9005075,5.893201,5.887722,5.883132,5.878159,5.873741,5.869996,5.8652143,5.860084,5.855668,5.8505483,5.845484,5.841839,5.8389163,5.836473,5.8347793,5.8333683,5.83144,5.829179,5.8269553,5.824032,5.821041,5.8187447,5.8163743,5.8145742,5.8137646,5.8133726,5.8135357,5.8139205,5.814063,5.8137636,5.8127613,5.811388,5.8093643,5.807162,5.805516,5.804106,5.802759,5.8015275,5.800206,5.798274,5.7959642,5.7934895,5.790063,5.7863646,5.7831287,5.779394,5.7759714,5.773606,5.771409,5.7696805,5.768629,5.7676997,5.766547,5.76511,5.7634764,5.7600946,5.7560463,5.7529926,5.749691,5.7466555,5.744383,5.742026
7.2638226,7.2779527,7.2896605,7.2944946,7.295166,7.2860975,7.273058,7.2682514,7.2681885,7.269408,7.2679114,7.2655983,7.26303,7.26066,7.255969,7.2467628,7.235072,7.215742,7.193973,7.178381,7.164857,7.150345,7.1377344,7.127351,7.116126,7.107028,7.100565,7.0930614,7.0862207,7.0813437,7.077421,7.0761347,7.0773754,7.0797186,7.0843196,7.0898724,7.0952554,7.1023083,7.1096992,7.1162014,7.124631,7.133753,7.141368,7.1502485,7.160432,7.1694937,7.1783724,7.189378,7.200016,7.209587,7.2200623,7.2288857,7.235497,7.2419634,7.2472,7.250869,7.254615,7.2585297,7.2618284,7.2648144,7.2678566,7.270092,7.271511,7.2734413,7.275749,7.2779884,7.2799253,7.281334,7.2825108,7.286872,7.288003,7.286107,7.2871275,7.29735,7.3261414,7.3696756,7.4551363,7.567609,7.6685934,7.737256,7.7437983,7.7080956,7.6845865,7.618662,7.4554887,7.179206,6.425732,5.522436,4.9143553,4.414275,4.1641226,4.0770226,3.9976027,3.9624605,3.9620376,3.983081,3.993433,3.983173,3.9767542,3.9712305,3.9668956,3.9618716,3.9559274,3.9516673,3.9502254,3.9498224,3.9506001,3.9518702,3.9540405,3.9572291,3.9604383,3.9634423,3.9668698,3.96991,3.972297,3.9754748,3.979183,3.9825807,3.9867256,3.9916441,3.9960885,4.0005975,4.0059075,4.01081,4.015212,4.020596,4.025716,4.0298,4.034497,4.038586,4.0411882,4.0435114,4.0446653,4.0444818,4.0436716,4.04242,4.0412903,4.040408,4.0396743,4.039177,4.0387626,4.037812,4.0361905,4.034399,4.0320706,4.0291905,4.026613,4.024211,4.021568,4.0191,4.016778,4.0132713,4.0089874,4.0049934,3.9996142,3.9931293,3.987256,3.9805672,3.973026,3.96664,3.9609485,3.9547482,3.9495387,3.9454122,3.9405823,3.9363027,3.9333172,3.9308126,3.929658,3.9298139,3.9306138,3.9334931,3.9380279,3.9436097,3.9502764,3.9565425,3.9619796,3.9705932,3.981269,3.9905365,3.9855025,3.9849646,4.002422,4.0395665,4.111122,4.2516127,4.4949694,4.9426517,5.4536486,5.865815,6.2329187,6.4227576,6.4586444,6.503475,6.515497,6.4982157,6.4735165,6.430439,6.386773,6.3535604,6.3344097,6.328182,6.3192663,6.309151,6.29667,6.2835894,6.2674627,6.2486324,6.232309,6.2165728,6.1985855,6.1826744,6.1691866,6.1540565,6.1408653,6.1309013,6.120592,6.11082,6.1026325,6.092993,6.0816,6.0711927,6.0609426,6.0486884,6.0373583,6.027709,6.0162005,6.0049663,5.9956617,5.984522,5.9727135,5.9628496,5.952034,5.9398885,5.9293857,5.919873,5.9091587,5.8997507,5.8920627,5.882806,5.873706,5.8663073,5.8576584,5.8488703,5.842006,5.835225,5.828641,5.8237257,5.819686,5.8150067,5.8106556,5.8070602,5.8026114,5.798066,5.794319,5.790073,5.7860155,5.7832108,5.7811213,5.7794857,5.778363,5.777376,5.7758665,5.7739296,5.771949,5.7693143,5.766593,5.7644854,5.762193,5.760374,5.7595077,5.7590218,5.7590265,5.7592483,5.759259,5.758854,5.7578363,5.756519,5.7546124,5.7523828,5.75051,5.748883,5.7474213,5.7462015,5.744853,5.742899,5.7405844,5.738122,5.7347426,5.731103,5.7279143,5.7241545,5.7205777,5.717988,5.7154593,5.713243,5.7116947,5.710268,5.7084546,5.706547,5.7047276,5.7023005,5.6999435,5.6982174,5.696518,5.69514,5.694194,5.6932583
7.1605406,7.196323,7.230561,7.253124,7.273032,7.2804575,7.2764583,7.2723117,7.2616396,7.2511835,7.2511435,7.251232,7.2491717,7.246022,7.2398844,7.2287045,7.2151775,7.194651,7.1690626,7.1476545,7.129449,7.113611,7.102454,7.091968,7.0803757,7.070737,7.0636797,7.0553665,7.0475492,7.0417852,7.03728,7.035713,7.036914,7.039383,7.0445347,7.0509224,7.057135,7.065425,7.0742455,7.0820837,7.0918655,7.102247,7.110918,7.1210175,7.132454,7.1425924,7.1528997,7.165592,7.177737,7.188635,7.2012663,7.211993,7.2192564,7.2285175,7.2391195,7.2485905,7.2579613,7.2667494,7.272782,7.277162,7.2801723,7.2812634,7.281171,7.283239,7.289171,7.297221,7.3060656,7.3144794,7.3205957,7.326986,7.3285804,7.3266354,7.3255253,7.3411455,7.3842535,7.4448266,7.5584803,7.6764584,7.746686,7.7962327,7.776257,7.7125297,7.7325068,7.6453857,7.343951,6.814248,5.909951,5.0470247,4.547555,4.2076645,4.0787935,4.019753,3.9749935,3.9683123,3.982115,3.9823086,3.9748907,3.965468,3.9599414,3.9535928,3.947681,3.9427783,3.9387038,3.937048,3.9372654,3.9385953,3.9415085,3.9449008,3.9490542,3.9541779,3.9587324,3.9626598,3.966868,3.970324,3.972894,3.9760551,3.9794493,3.982421,3.9860582,3.9903514,3.9942563,3.9983397,4.0033503,4.0081224,4.0124207,4.0177264,4.022834,4.0269547,4.0317087,4.035957,4.0387893,4.0413785,4.0427523,4.0426426,4.0417914,4.040409,4.0390987,4.03801,4.0370283,4.0363245,4.0357847,4.034709,4.0329795,4.031107,4.028695,4.025736,4.0231056,4.0206575,4.0180345,4.0157423,4.0137625,4.010567,4.0066004,4.002981,3.998138,3.9922981,3.9869797,3.9808872,3.9739451,3.967968,3.9625347,3.9564326,3.951082,3.9467,3.941392,3.936276,3.932291,3.92807,3.9245982,3.9227405,3.9220695,3.92351,3.9266877,3.9304829,3.937009,3.9442286,3.9497638,3.9571257,3.9667287,3.976592,3.9836278,3.9835098,3.9817467,3.9937825,4.0340195,4.1202564,4.24207,4.5769653,5.0587845,5.5124516,6.006543,6.331134,6.424791,6.511283,6.5400515,6.5251083,6.507039,6.468184,6.4214697,6.377539,6.339014,6.3193574,6.313014,6.300313,6.282401,6.2649126,6.244075,6.220565,6.2008886,6.1829414,6.1626472,6.1445236,6.1290026,6.111433,6.0959587,6.084222,6.07136,6.0588446,6.0485635,6.036648,6.023031,6.0110435,5.999608,5.986104,5.9737115,5.963232,5.9508386,5.93892,5.929184,5.917742,5.9059124,5.8962317,5.88577,5.874153,5.864153,5.8551073,5.8448567,5.835773,5.828291,5.819334,5.8105764,5.8034706,5.7952027,5.7868514,5.7803583,5.773937,5.7677193,5.7631006,5.7592664,5.755154,5.751602,5.748682,5.745206,5.7418733,5.7392893,5.7365685,5.7342463,5.7328577,5.7320976,5.7316923,5.7314043,5.731033,5.730159,5.728779,5.7272763,5.7252502,5.7231483,5.7215347,5.719818,5.718571,5.7181206,5.717985,5.718293,5.7187433,5.7189684,5.718933,5.718473,5.7177935,5.7168126,5.7155027,5.71424,5.7133613,5.712743,5.712251,5.7116194,5.7104936,5.708931,5.707122,5.7045393,5.701646,5.699033,5.6958756,5.6927633,5.690425,5.6880493,5.6858253,5.684157,5.6825724,5.6805143,5.6784077,5.676505,5.6741858,5.6721034,5.6706414,5.66934,5.6684866,5.668046,5.667733
6.9601398,7.015234,7.077016,7.128274,7.1828732,7.223971,7.242658,7.257204,7.2571697,7.248501,7.248894,7.246707,7.24294,7.241827,7.239456,7.2316365,7.219203,7.195696,7.163341,7.1349583,7.1088905,7.086755,7.0734096,7.0631533,7.051504,7.041264,7.03374,7.024691,7.0162992,7.010368,7.0051174,7.002739,7.0035543,7.0059423,7.011197,7.0178566,7.024517,7.0336456,7.0435624,7.0524387,7.063628,7.0756254,7.0857086,7.0973825,7.1104417,7.1219435,7.1338654,7.1484413,7.162274,7.1746273,7.188903,7.203512,7.217335,7.234606,7.251482,7.263526,7.2750754,7.28502,7.291115,7.2947693,7.2959566,7.2948008,7.292572,7.293302,7.300126,7.3106318,7.324567,7.339729,7.351164,7.36055,7.363515,7.362341,7.360674,7.3876295,7.451321,7.5333576,7.646097,7.7464237,7.8040824,7.818555,7.796346,7.771016,7.8069134,7.6113086,7.1025887,6.3231344,5.3529243,4.6341996,4.291584,4.0850344,4.0253,3.989059,3.973999,3.977325,3.979424,3.9651036,3.9518976,3.9472864,3.9423761,3.9362893,3.9313383,3.9287012,3.9270205,3.927237,3.9285645,3.9311802,3.9355516,3.9401996,3.9453,3.951085,3.9558918,3.959888,3.964092,3.9675155,3.9700794,3.973224,3.976564,3.9794483,3.982898,3.9870267,3.9908953,3.9950266,4.0001974,4.0051475,4.009552,4.014926,4.0200496,4.0241694,4.0289354,4.0332403,4.0361648,4.0388656,4.040474,4.040664,4.0401716,4.038948,4.0375357,4.036329,4.035145,4.034235,4.0335617,4.032387,4.030575,4.0286217,4.026168,4.023178,4.0205154,4.018026,4.0153756,4.0130463,4.0109534,4.0078263,4.0040984,4.000714,3.9962559,3.9909196,3.986031,3.9802601,3.9734292,3.9673502,3.9617562,3.9554152,3.9498444,3.9453015,3.9399123,3.9347188,3.930575,3.9257598,3.9212036,3.9181793,3.9161658,3.9159102,3.9175487,3.9200387,3.9253454,3.9318972,3.9373174,3.944044,3.9514277,3.9581442,3.9704432,3.9767845,3.9737365,3.9686387,3.986145,4.035596,4.083667,4.288169,4.667942,5.1041136,5.6717405,6.1399317,6.356658,6.490814,6.5482464,6.569474,6.55556,6.516773,6.4726286,6.429819,6.3761816,6.3386374,6.329895,6.312034,6.2889423,6.268387,6.2446947,6.2186646,6.196902,6.1763964,6.1527023,6.1314163,6.1134577,6.093349,6.0756874,6.062172,6.046883,6.0317717,6.0194626,6.005385,5.9895782,5.9758644,5.962843,5.9475994,5.933723,5.9220085,5.908368,5.8956084,5.8854628,5.873702,5.861822,5.8523006,5.8421535,5.831036,5.821542,5.8130064,5.803278,5.794567,5.787339,5.7786293,5.770075,5.7631316,5.755079,5.7469883,5.7407293,5.734539,5.7285604,5.724134,5.720419,5.7166653,5.7136297,5.711145,5.708303,5.705785,5.7040043,5.702364,5.701309,5.7009873,5.7012515,5.701809,5.702177,5.70228,5.701891,5.700933,5.699791,5.6982327,5.6966267,5.6954203,5.694169,5.6933613,5.693194,5.693247,5.693617,5.694012,5.694148,5.6940327,5.693619,5.6931114,5.692497,5.6917233,5.690963,5.690614,5.690483,5.690315,5.6899405,5.6891093,5.687861,5.686368,5.684276,5.6819744,5.679914,5.677409,5.6749105,5.673,5.6709785,5.6689568,5.667332,5.6657443,5.663678,5.66162,5.6598363,5.657743,5.655957,5.654764,5.6537833,5.653232,5.6530037,5.652889
6.708517,6.7754393,6.8579226,6.9324718,7.020356,7.10103,7.1530275,7.2017803,7.2377734,7.253664,7.262952,7.264365,7.261931,7.264189,7.2647023,7.2574787,7.2436295,7.217037,7.1810913,7.1495733,7.116328,7.0842295,7.0633826,7.0505133,7.037428,7.0266213,7.018622,7.008875,7.0000405,6.9940977,6.98788,6.9842052,6.9841585,6.98593,6.990594,6.9968367,7.0032897,7.0124474,7.0226936,7.0319824,7.0441513,7.0575695,7.068948,7.0820427,7.0966115,7.1093407,7.1223865,7.1381683,7.153101,7.1665287,7.181553,7.1991653,7.219345,7.2425804,7.261623,7.2718964,7.281778,7.289789,7.2943993,7.296827,7.2968783,7.294916,7.292159,7.2917323,7.296523,7.3045707,7.3176746,7.3340845,7.347694,7.3603144,7.3658724,7.366427,7.367244,7.4072094,7.4873657,7.5803547,7.6774955,7.756138,7.81301,7.7914047,7.78567,7.82918,7.817075,7.437228,6.720498,5.8065257,4.8833504,4.3512983,4.1601877,4.0343723,3.9936552,3.9792964,3.9769335,3.9707513,3.9530716,3.9436634,3.9370694,3.9324374,3.9271002,3.922894,3.9213915,3.9213338,3.9212594,3.9222574,3.9243622,3.9279575,3.932966,3.9376297,3.9424353,3.9475207,3.951521,3.9547849,3.958274,3.9612632,3.9636374,3.966755,3.9702907,3.9734397,3.9771032,3.9816046,3.9859576,3.9905982,3.9963665,4.0018053,4.0065637,4.01222,4.017462,4.0216002,4.0263815,4.030698,4.03364,4.036385,4.038229,4.03881,4.038825,4.037952,4.0366063,4.035427,4.0341663,4.033094,4.0322638,4.0309563,4.029046,4.027033,4.0245657,4.0215807,4.0189,4.016352,4.013542,4.0109024,4.008321,4.004926,4.001151,3.9977112,3.993261,3.9880114,3.9832144,3.9774275,3.9703536,3.9638753,3.9578207,3.9510365,3.9452605,3.940701,3.9355516,3.9308677,3.927267,3.923038,3.9188578,3.9157705,3.9128773,3.911089,3.9113832,3.9133592,3.9169044,3.9214125,3.926008,3.9323678,3.9391458,3.944543,3.9517913,3.9611497,3.9681761,3.9622998,3.9636612,3.987789,4.0241857,4.133068,4.38754,4.7544146,5.303487,5.860505,6.222951,6.4252596,6.5294704,6.595666,6.598338,6.565833,6.525084,6.489288,6.432848,6.384574,6.367169,6.3419247,6.3140135,6.2907915,6.26615,6.240061,6.2178245,6.1956315,6.169361,6.145648,6.1258316,6.1037407,6.0842876,6.069231,6.0522165,6.035422,6.0217867,6.006386,5.989116,5.97403,5.9595356,5.94262,5.9273014,5.9143524,5.899391,5.8856306,5.874892,5.862539,5.8502474,5.8405457,5.83039,5.8193965,5.8100233,5.801535,5.7918243,5.7830935,5.775819,5.767063,5.7584906,5.751559,5.7435775,5.735631,5.7295284,5.7234936,5.7176633,5.7133293,5.7096744,5.7059,5.702796,5.7002745,5.6974382,5.694995,5.693322,5.6918325,5.690951,5.6907616,5.691127,5.69173,5.6920776,5.692128,5.6916575,5.6906347,5.68946,5.687889,5.686306,5.685135,5.6838846,5.682996,5.682674,5.682482,5.68244,5.6823587,5.6820207,5.681312,5.680341,5.679395,5.6783094,5.6772394,5.6763983,5.675812,5.675272,5.6746492,5.6737576,5.672345,5.6706576,5.6688643,5.6665583,5.664236,5.662278,5.659958,5.657692,5.655963,5.6540847,5.6521187,5.650469,5.648835,5.6467714,5.644801,5.6431417,5.641284,5.639758,5.638749,5.6378765,5.6372714,5.6368732,5.636464
6.4771676,6.551569,6.6446896,6.7276893,6.8369503,6.957901,7.05347,7.135723,7.2105637,7.262063,7.2977653,7.3215885,7.3276777,7.327281,7.315201,7.2898254,7.2622366,7.238283,7.2120237,7.184315,7.145994,7.102341,7.0699964,7.048097,7.0311036,7.020762,7.011798,7.000676,6.990359,6.983269,6.9759083,6.970963,6.9697404,6.97029,6.9741335,6.980217,6.986655,6.996093,7.0069246,7.0168753,7.0299225,7.044366,7.0566654,7.0707703,7.086384,7.09993,7.113715,7.130122,7.145664,7.1601343,7.176672,7.1930885,7.2083063,7.2253647,7.2401037,7.249657,7.2601695,7.270005,7.276581,7.2813754,7.284643,7.2857485,7.2856016,7.287077,7.2915792,7.2977104,7.306528,7.319108,7.3320084,7.3478575,7.3567805,7.3592544,7.3641744,7.413697,7.4962997,7.5708365,7.676093,7.75582,7.777626,7.7475452,7.7632737,7.8255606,7.741146,7.189127,6.312359,5.3414536,4.516016,4.158255,4.0666304,4.000336,3.9781425,3.9772866,3.964429,3.9494581,3.9401093,3.932762,3.9251976,3.9192896,3.9164295,3.9145937,3.9139724,3.9137454,3.914351,3.9165678,3.9196568,3.9241624,3.929747,3.934543,3.9392648,3.9439096,3.9472766,3.9498901,3.952681,3.9551783,3.9572763,3.960244,3.9638891,3.9672997,3.9713182,3.976263,3.9810116,3.986064,3.99233,3.9982047,4.0033083,4.009262,4.0146565,4.0188465,4.0236273,4.0279408,4.0309305,4.033763,4.035755,4.0364814,4.036566,4.0359,4.0348005,4.0337386,4.0324726,4.031207,4.030094,4.0284896,4.0264225,4.024433,4.022025,4.0191674,4.016592,4.0140686,4.0110707,4.008154,4.005439,4.00187,3.9979215,3.9943488,3.9897933,3.9844215,3.9794974,3.9737244,3.9666908,3.9601166,3.9536426,3.9464722,3.9405656,3.9360347,3.9310904,3.9267797,3.9235575,3.9196677,3.9155798,3.9123044,3.9090621,3.906464,3.9056048,3.906012,3.9084282,3.9125857,3.9170794,3.9223342,3.9284074,3.9344254,3.9405437,3.9485178,3.955637,3.955625,3.9533029,3.960436,3.979497,4.0348682,4.2095757,4.4989753,4.9723454,5.553958,6.0403075,6.3523893,6.508422,6.569167,6.618025,6.618677,6.5793543,6.5401545,6.483844,6.4346957,6.4093623,6.3775387,6.3434267,6.3143635,6.2869453,6.2593307,6.2359123,6.2135334,6.187598,6.16411,6.144003,6.1207848,6.099684,6.0832243,6.064478,6.0460773,6.03139,6.015068,5.996769,5.9807014,5.9653873,5.9475884,5.931508,5.917948,5.9020624,5.8871927,5.8754425,5.862039,5.8488393,5.8385596,5.828183,5.817091,5.8074827,5.798403,5.787992,5.7787113,5.771021,5.761843,5.7529926,5.745944,5.7379494,5.730144,5.7242384,5.7184057,5.7127566,5.708516,5.7049017,5.701127,5.6980114,5.695502,5.692754,5.690428,5.6888247,5.68734,5.6863117,5.6858587,5.6858,5.685829,5.6856565,5.6852646,5.6843333,5.6829805,5.6816177,5.67986,5.67813,5.676856,5.6754656,5.6743336,5.673704,5.673135,5.6725965,5.672048,5.6713057,5.6702013,5.668915,5.6677103,5.6662397,5.6646442,5.6632633,5.6619287,5.660511,5.6591697,5.657633,5.6555676,5.6533937,5.651271,5.648616,5.646,5.6438246,5.6412864,5.6388116,5.636901,5.634823,5.632653,5.6308413,5.6290464,5.626857,5.624811,5.623076,5.62106,5.619299,5.6180544,5.6167965,5.61572,5.6149282,5.6141148
6.0937304,6.1699495,6.279126,6.3873296,6.522588,6.681122,6.8202953,6.9583626,7.0854616,7.1722813,7.2485466,7.315011,7.3521433,7.372321,7.3757906,7.359128,7.3373985,7.304413,7.2585335,7.215542,7.177307,7.1382217,7.105666,7.075347,7.043629,7.0208554,7.007578,6.9949007,6.984212,6.9753685,6.9657283,6.958232,6.955033,6.9537463,6.9560866,6.961397,6.9673657,6.9766293,6.98771,6.998084,7.011825,7.0271707,7.040283,7.0552673,7.0716734,7.085803,7.10029,7.118082,7.1350927,7.150358,7.1680784,7.1845393,7.1979914,7.2126,7.225671,7.2351103,7.2452965,7.2548304,7.2612224,7.265966,7.269346,7.2706585,7.2707005,7.272305,7.2766848,7.2824755,7.2910857,7.3024845,7.31317,7.32452,7.3330154,7.3404446,7.35161,7.407256,7.487515,7.547613,7.642658,7.7024713,7.688202,7.6905823,7.7461114,7.7774477,7.4364634,6.5917006,5.6156936,4.7813077,4.200912,4.0331893,3.9919596,3.9689672,3.9623797,3.954883,3.9409242,3.929254,3.924983,3.9189234,3.9133098,3.9101233,3.908709,3.9073195,3.906492,3.9064248,3.907763,3.9109373,3.914648,3.9195776,3.9252977,3.9300113,3.9345367,3.9387672,3.941615,3.9436607,3.9459248,3.9481149,3.9500635,3.952878,3.9564369,3.959845,3.9641,3.969386,3.974388,3.9796724,3.9862313,3.9923785,3.9976983,4.003826,4.0092854,4.013465,4.01822,4.0225344,4.025573,4.028501,4.030672,4.0315986,4.0318813,4.031452,4.0305285,4.0295544,4.028274,4.0268683,4.0255756,4.0237885,4.0216136,4.019614,4.0172243,4.0144067,4.0118475,4.0093007,4.006171,4.003094,4.0003,3.9966679,3.9926953,3.9891272,3.9845543,3.9791117,3.974082,3.9681535,3.961024,3.9544826,3.948164,3.9409528,3.9349084,3.9304137,3.9256504,3.921648,3.9187284,3.915151,3.9112377,3.9079368,3.9045405,3.9014597,3.899826,3.8991985,3.9002514,3.9031062,3.9064975,3.9111733,3.9162912,3.920525,3.9259052,3.9322214,3.9375534,3.9431105,3.940399,3.936161,3.940932,3.9661036,4.064504,4.2255635,4.599486,5.164016,5.7005053,6.1745863,6.44556,6.501579,6.5986958,6.6404285,6.617133,6.5908523,6.5425982,6.4927936,6.4619284,6.424156,6.383855,6.3496447,6.3189383,6.289129,6.264222,6.2408457,6.214003,6.189696,6.168784,6.1443033,6.121785,6.104167,6.0840664,6.064245,6.048374,6.030903,6.011654,5.994991,5.9790945,5.9605694,5.943755,5.9295034,5.912941,5.897433,5.885045,5.8709445,5.8570247,5.846106,5.8348475,5.822719,5.812292,5.8026247,5.7915926,5.78179,5.7736926,5.7641573,5.7551346,5.7480617,5.7400765,5.732347,5.7265368,5.7208033,5.715233,5.7110205,5.7074013,5.703581,5.700397,5.697831,5.6950407,5.6926765,5.6910257,5.689438,5.6882095,5.6875095,5.6871243,5.686718,5.6861286,5.6853547,5.6839848,5.682254,5.6806116,5.678547,5.6765394,5.6750546,5.673418,5.6719913,5.6710777,5.670188,5.66925,5.668331,5.667262,5.665802,5.6642036,5.662749,5.6609373,5.658908,5.6570954,5.655196,5.6531034,5.6511745,5.6490707,5.646388,5.643709,5.6411915,5.638096,5.6351,5.6326427,5.629791,5.6270113,5.624853,5.622498,5.620024,5.617948,5.6158924,5.6134114,5.6110954,5.609107,5.6067247,5.60453,5.6028824,5.60106,5.599311,5.597925,5.5964413
5.6461887,5.7002945,5.794086,5.9000263,6.040259,6.218239,6.386424,6.575494,6.767953,6.9152107,7.0601707,7.1858807,7.2615013,7.3173428,7.364869,7.3872566,7.3901463,7.3642592,7.313882,7.2676334,7.2337694,7.1927576,7.151992,7.1190605,7.078618,7.0447683,7.0250125,7.002756,6.984191,6.972286,6.959572,6.9489384,6.9428773,6.939033,6.9389954,6.9426966,6.9474916,6.9558268,6.9664946,6.9767466,6.9905143,7.0060525,7.0193806,7.0345936,7.0515704,7.0665073,7.081828,7.1008463,7.118849,7.134328,7.1524324,7.1692815,7.182913,7.197407,7.2100573,7.2189603,7.2277145,7.235233,7.2398314,7.2428274,7.2442684,7.243983,7.2427135,7.243371,7.2477713,7.254238,7.2649956,7.2779303,7.2879915,7.295528,7.301668,7.311041,7.32918,7.3826437,7.453076,7.5094585,7.5822573,7.6031094,7.549882,7.596503,7.6308413,7.511338,6.8786573,5.8252153,4.8976965,4.3318644,4.0196667,3.9743145,3.9509742,3.9433982,3.9398897,3.9252467,3.9173894,3.913537,3.9107058,3.9068217,3.9042788,3.9034977,3.9018922,3.9000645,3.8993545,3.9000416,3.9023466,3.9062839,3.910294,3.9152176,3.9206011,3.9248977,3.9289632,3.932682,3.935079,3.9366395,3.938467,3.9404116,3.9422364,3.9449353,3.9483643,3.9516323,3.9558592,3.9611883,3.966247,3.9716034,3.9782681,3.9845188,3.9899178,3.9961185,4.00161,4.0057836,4.010542,4.014881,4.0179625,4.020974,4.0232944,4.0243683,4.024729,4.024336,4.0234118,4.02244,4.021131,4.019678,4.018348,4.016536,4.0143642,4.012386,4.0100083,4.007192,4.004629,4.0020857,3.9989467,3.995842,3.9930053,3.989387,3.985495,3.9820218,3.977525,3.9721084,3.96705,3.960989,3.9537306,3.9472203,3.9412289,3.9341626,3.9281106,3.9237566,3.9192822,3.915678,3.913124,3.9099934,3.9065108,3.9034777,3.9002366,3.8970416,3.8949673,3.8937006,3.8933141,3.8943276,3.8960662,3.899753,3.9040341,3.9070132,3.911731,3.9167466,3.9205317,3.92689,3.9277308,3.9234285,3.9179354,3.93027,3.979496,4.0407057,4.296378,4.7683516,5.268975,5.866723,6.292776,6.414203,6.5437036,6.619313,6.63091,6.628385,6.5933313,6.544712,6.5138383,6.4703,6.423488,6.387355,6.355242,6.323993,6.297456,6.2727056,6.2444115,6.218971,6.197281,6.17193,6.148609,6.1303396,6.109473,6.088726,6.071952,6.053563,6.0336432,6.016681,6.000459,5.981504,5.9642143,5.949479,5.932379,5.916363,5.9035363,5.888912,5.8743706,5.862843,5.8507414,5.837675,5.8266,5.816614,5.8052645,5.795167,5.786827,5.7770367,5.767807,5.7605906,5.7524443,5.744565,5.7386475,5.732806,5.727117,5.7227907,5.719056,5.7150693,5.7117014,5.7089686,5.705962,5.7033553,5.7014866,5.6996098,5.6980143,5.696962,5.696196,5.6953144,5.6942706,5.6930785,5.6912336,5.6890726,5.687067,5.684586,5.682192,5.680416,5.6784544,5.6767,5.6755285,5.674382,5.673163,5.6720047,5.6707363,5.66905,5.667243,5.665615,5.663576,5.6612625,5.6591663,5.656906,5.65436,5.652007,5.6494627,5.6462717,5.643146,5.6402483,5.636713,5.63333,5.6305866,5.6273985,5.6242905,5.621876,5.619239,5.616453,5.614107,5.6117935,5.6089983,5.606367,5.6040783,5.6012764,5.59859,5.5964837,5.5940375,5.591536,5.5894623,5.5871677
5.2833023,5.297933,5.341041,5.402239,5.5185127,5.6931305,5.868696,6.076025,6.326624,6.5538898,6.7781525,6.9644423,7.0732727,7.162856,7.258421,7.325732,7.3558636,7.3651123,7.352911,7.3336105,7.3059225,7.2466564,7.183693,7.1533737,7.1188207,7.08615,7.061331,7.0231333,6.989161,6.972946,6.956465,6.942705,6.9338074,6.9272614,6.9245625,6.9263124,6.9295807,6.9365616,6.9463806,6.9561024,6.9693794,6.9845386,6.997592,7.0125065,7.029953,7.0459595,7.062146,7.08144,7.0991397,7.1144304,7.132328,7.148735,7.1616497,7.17507,7.186228,7.1936407,7.200723,7.2064066,7.2095213,7.2112327,7.2114596,7.210332,7.2084265,7.208663,7.2131042,7.2198753,7.2314944,7.246292,7.2586265,7.269848,7.275217,7.280985,7.304538,7.350515,7.4078455,7.4668055,7.520895,7.503743,7.413101,7.474612,7.4038615,7.0572796,6.2733,5.224102,4.4535227,4.109251,3.9447742,3.930193,3.930884,3.922976,3.9124532,3.9075017,3.9042854,3.9020982,3.9001653,3.8997023,3.8984764,3.89624,3.893794,3.8923478,3.8929543,3.8946128,3.8979602,3.9025948,3.9068384,3.9117045,3.9166534,3.920402,3.923888,3.9270277,3.9289901,3.9301338,3.9315217,3.9331446,3.9347694,3.9373891,3.9407988,3.9439967,3.948007,3.9531384,3.9581475,3.9635353,3.9702547,3.9765425,3.9819667,3.988215,3.9937549,3.9979558,4.0027366,4.0070868,4.0101733,4.013212,4.015584,4.0166707,4.016874,4.0162964,4.0152626,4.0142345,4.0128975,4.011452,4.0101433,4.008372,4.0062795,4.004388,4.0020647,3.999304,3.9968047,3.9943423,3.991282,3.9882112,3.9853563,3.981768,3.9779587,3.9745774,3.9701934,3.9648693,3.9598546,3.9538498,3.9465744,3.94,3.934007,3.9270015,3.9211106,3.9169898,3.9129152,3.9098225,3.9077344,3.9051793,3.902291,3.8996825,3.896758,3.8935835,3.8911376,3.8892236,3.8876283,3.887198,3.8876774,3.8895617,3.8933382,3.8976429,3.9016309,3.906024,3.9100032,3.9128008,3.917985,3.9201007,3.9076138,3.9066494,3.9347734,3.974882,4.1205626,4.4622183,4.9005814,5.522074,6.0782843,6.3381877,6.4840984,6.57908,6.6300955,6.6485686,6.625639,6.5800834,6.5523963,6.5035343,6.4506464,6.415056,6.383766,6.352508,6.3247366,6.299183,6.270141,6.244225,6.2222996,6.196672,6.1730523,6.154504,6.1332245,6.1119776,6.0947733,6.0759754,6.055666,6.0384164,6.021966,6.0027905,5.985308,5.9704165,5.952777,5.936054,5.9227276,5.907525,5.8923807,5.880391,5.868104,5.8550324,5.8439865,5.8339415,5.822499,5.8123016,5.80387,5.793886,5.7843513,5.7768126,5.7683315,5.76015,5.7540197,5.747967,5.7420583,5.737543,5.7336264,5.7294044,5.7258005,5.7228637,5.7195964,5.7166977,5.7145605,5.712324,5.710266,5.708769,5.707514,5.7060356,5.704447,5.7027807,5.700436,5.697852,5.6954923,5.692608,5.689844,5.687791,5.685524,5.6834555,5.6820307,5.6806483,5.679185,5.6778398,5.6764364,5.674629,5.672726,5.671014,5.668846,5.666342,5.6640353,5.6614866,5.658572,5.655881,5.652995,5.6494184,5.6459618,5.642788,5.638932,5.6352634,5.632308,5.628872,5.625518,5.6229105,5.6200743,5.617084,5.6145725,5.61211,5.609151,5.6063547,5.603896,5.6008306,5.5978007,5.5953526,5.5924196,5.5893083,5.58667,5.5837097
4.9067316,4.8998585,4.911148,4.938572,4.9999504,5.108655,5.2332954,5.395475,5.6458445,5.922361,6.2041655,6.5205464,6.7687454,6.936803,7.0707493,7.155589,7.2194214,7.2728596,7.3063,7.318725,7.316312,7.287332,7.2447414,7.207668,7.1534357,7.1061745,7.0848665,7.0497775,7.011891,6.984495,6.951747,6.9281464,6.9201055,6.9112835,6.9054966,6.904498,6.905609,6.910559,6.918832,6.9271965,6.94022,6.95603,6.9696856,6.9850693,7.0025387,7.0182056,7.0342174,7.0533156,7.0708194,7.085991,7.103241,7.118767,7.131117,7.143567,7.1533427,7.159369,7.164713,7.1683936,7.169872,7.1701784,7.1692076,7.167386,7.165004,7.164984,7.169485,7.176422,7.188756,7.2049246,7.218735,7.231897,7.2375693,7.2430296,7.272491,7.3146014,7.3586698,7.407729,7.4337626,7.3858457,7.280101,7.3329372,7.1117363,6.513285,5.593342,4.6484785,4.134829,3.9681406,3.903985,3.8997588,3.9076467,3.9020991,3.892305,3.8911033,3.890266,3.8913517,3.8931284,3.892917,3.8908577,3.88826,3.886264,3.8854325,3.8865325,3.8885322,3.8921402,3.8968081,3.900918,3.9054873,3.9100173,3.913443,3.9168098,3.9198248,3.9216619,3.9227903,3.9240718,3.925506,3.9269547,3.9293997,3.9325566,3.9354377,3.9390552,3.943812,3.9485848,3.953784,3.9602935,3.9663942,3.9716802,3.9777584,3.9830709,3.9870048,3.9914367,3.9953976,3.9981542,4.000824,4.0028424,4.0037217,4.0039005,4.0033364,4.0023093,4.001292,3.999958,3.9985194,3.997229,3.9955215,3.9935403,3.9917698,3.9896374,3.9871008,3.9847798,3.9824662,3.9796402,3.976873,3.974347,3.97111,3.967669,3.9646628,3.960597,3.9554868,3.950594,3.944748,3.9376483,3.9312263,3.9253395,3.9187222,3.9132752,3.9093091,3.905471,3.9026544,3.9008017,3.8985796,3.896114,3.8938856,3.8913286,3.8883867,3.885875,3.8836489,3.8812695,3.8797383,3.8791342,3.8797836,3.8825564,3.8863058,3.8914285,3.8956423,3.8975434,3.9002416,3.904645,3.9069037,3.9016654,3.8954954,3.90339,3.9243631,3.9880023,4.21638,4.5722585,5.1206694,5.765341,6.2176127,6.3981705,6.512103,6.597079,6.6529284,6.650625,6.6054974,6.5764055,6.5275383,6.47359,6.4352036,6.402071,6.3708453,6.3445873,6.3206286,6.2918587,6.2649627,6.242501,6.2164726,6.192702,6.1741257,6.152712,6.1312294,6.1137886,6.0947876,6.0743275,6.057,6.0404863,6.021237,6.0036826,5.9887314,5.9709973,5.9542065,5.940878,5.925696,5.91059,5.8986006,5.8860807,5.8725615,5.861051,5.8505907,5.8386607,5.828042,5.81927,5.80917,5.7996616,5.792078,5.783546,5.7753115,5.7691383,5.7630396,5.7570696,5.752491,5.748511,5.744206,5.740519,5.7375135,5.734164,5.7311726,5.728946,5.726575,5.724325,5.7226343,5.7211647,5.719432,5.717604,5.7157063,5.713022,5.7100716,5.707405,5.7041464,5.7009954,5.6986175,5.6959715,5.6934853,5.6917048,5.6899686,5.6881266,5.6864843,5.6848555,5.682838,5.680834,5.6791253,5.676938,5.67437,5.671976,5.669299,5.6662226,5.663389,5.660371,5.656666,5.653117,5.6498756,5.6459484,5.642226,5.6392374,5.6357517,5.6323404,5.6296844,5.6267986,5.6237626,5.6212234,5.6187515,5.6157923,5.6129885,5.610504,5.6073546,5.604168,5.6015396,5.5983257,5.5948453,5.5918612,5.5884876
4.5804553,4.5713367,4.5669713,4.5708604,4.5865107,4.628314,4.6879444,4.7737293,4.93451,5.141637,5.3704805,5.7069826,6.0554543,6.340272,6.627676,6.8475275,6.9880824,7.0887065,7.1522465,7.1954465,7.235632,7.2598953,7.257696,7.237625,7.201627,7.1594763,7.1215143,7.0780034,7.036433,7.0036173,6.9599476,6.922538,6.9043283,6.8902836,6.8812895,6.8780494,6.8763313,6.8784685,6.8853416,6.893765,6.906813,6.922489,6.9358053,6.9506035,6.9669714,6.9814453,6.9965243,7.014873,7.0319796,7.0469675,7.063662,7.078545,7.090598,7.1020994,7.110291,7.114732,7.118395,7.120472,7.1209145,7.1206446,7.1190968,7.116824,7.1142197,7.114223,7.11886,7.1257873,7.1383877,7.1552258,7.169856,7.1834774,7.192976,7.2020063,7.2249503,7.2640305,7.3029814,7.335966,7.317612,7.2412825,7.154636,7.0825367,6.6630745,5.931696,4.985608,4.2256145,3.9705796,3.8995552,3.8855882,3.8884997,3.888157,3.8827667,3.877553,3.8775144,3.8796897,3.8831284,3.8851383,3.8842466,3.881762,3.8796253,3.8784628,3.878455,3.8800385,3.8823166,3.8859615,3.8903127,3.8939686,3.8979468,3.9018857,3.9049459,3.908103,3.910952,3.9127526,3.9141016,3.9155948,3.9170911,3.918491,3.9206874,3.9234776,3.9260573,3.9292307,3.9333072,3.9373765,3.9419303,3.9477463,3.953279,3.9581087,3.9637032,3.9686067,3.972219,3.9762697,3.9798374,3.9822683,3.9845824,3.9862556,3.9869232,3.9870567,3.9864883,3.9854612,3.9844456,3.9831233,3.981721,3.9804816,3.9788892,3.977087,3.9754953,3.9735913,3.9712944,3.96915,3.9669816,3.9643724,3.9619198,3.9597874,3.9571342,3.9543462,3.951892,3.9483483,3.943696,3.9391427,3.9335463,3.9266737,3.9204574,3.9147425,3.9085948,3.9036608,3.8998947,3.896318,3.8937757,3.8921497,3.8903108,3.8884149,3.8867555,3.884791,3.8823454,3.8799756,3.8775861,3.8745592,3.8720272,3.8704376,3.8697155,3.8712447,3.874316,3.8800874,3.8855033,3.8879616,3.890168,3.8927193,3.894802,3.8964925,3.8905363,3.8876767,3.8958673,3.917028,4.045476,4.275668,4.706815,5.359498,5.9398646,6.259775,6.4484754,6.5332336,6.6212406,6.6526194,6.62237,6.586546,6.5436335,6.493614,6.448057,6.413581,6.382736,6.356472,6.332362,6.3039455,6.278079,6.2571206,6.2323227,6.209036,6.190493,6.1691656,6.147752,6.1303487,6.111412,6.0910406,6.0737934,6.05735,6.038147,6.020623,6.005711,5.988097,5.971526,5.9584475,5.943612,5.928896,5.9171953,5.904787,5.891216,5.879572,5.868979,5.856862,5.846053,5.837124,5.826832,5.8171463,5.80943,5.8007526,5.7923775,5.7860947,5.779883,5.7737784,5.769066,5.764951,5.7604647,5.756626,5.7535467,5.7501736,5.7471933,5.744964,5.7425637,5.740249,5.7384834,5.736933,5.7351093,5.733198,5.731221,5.728386,5.725247,5.7224183,5.7189517,5.7155666,5.7129765,5.7100744,5.7072873,5.7052374,5.7032323,5.7011056,5.6992493,5.6974697,5.695324,5.693236,5.691465,5.689201,5.6865344,5.684038,5.6812363,5.678027,5.6750937,5.672,5.66823,5.6646433,5.6613827,5.6574354,5.6536875,5.650673,5.6471376,5.643652,5.6409216,5.6379557,5.6348515,5.632277,5.6298,5.6268687,5.6241026,5.6216426,5.6184807,5.615237,5.612543,5.609205,5.605543,5.6023817,5.598795
4.3761487,4.3772593,4.3717546,4.367053,4.3691816,4.3836927,4.40609,4.436515,4.4890556,4.5686026,4.6791277,4.9014816,5.2120104,5.5365086,5.957901,6.3391256,6.5757427,6.757498,6.888571,6.9851265,7.0735226,7.143358,7.1787415,7.1986094,7.2147007,7.2013607,7.1504326,7.099871,7.0542526,7.016762,6.97365,6.9289913,6.895871,6.873705,6.858888,6.8523397,6.848209,6.8482347,6.8544016,6.8635426,6.8762665,6.890641,6.9025335,6.9156504,6.930247,6.9433975,6.9573383,6.9747124,6.9912825,7.006051,7.0224476,7.036731,7.047922,7.0582457,7.064989,7.068125,7.070533,7.0716233,7.0716543,7.0714555,7.070176,7.0683327,7.066431,7.0669646,7.0716414,7.0782776,7.090537,7.1071157,7.1216784,7.134303,7.14922,7.1637774,7.172386,7.2076073,7.246196,7.2623644,7.1986513,7.0916786,7.0208993,6.765733,6.1750813,5.449033,4.6090565,4.037097,3.925448,3.875072,3.8733492,3.884996,3.874917,3.8690767,3.8684244,3.869254,3.8738585,3.8771238,3.8761199,3.8750534,3.8734984,3.8723793,3.8719473,3.8727477,3.8749366,3.8775585,3.8812933,3.8853211,3.8884664,3.891779,3.8950338,3.8976068,3.900198,3.902585,3.9042535,3.9057503,3.907487,3.9091558,3.910596,3.9125981,3.9150074,3.9172301,3.9198823,3.9231138,3.9262645,3.929924,3.9347682,3.9395125,3.9436998,3.948658,3.9531302,3.9565077,3.9603302,3.963731,3.966059,3.9682908,3.969928,3.9706028,3.9707546,3.9702332,3.969264,3.968297,3.9670205,3.9656765,3.9645157,3.9630632,3.961444,3.96001,3.9582455,3.9560418,3.9539285,3.951768,3.949154,3.9467707,3.9448133,3.942619,3.940443,3.9384837,3.935556,3.9315417,3.927462,3.9221702,3.9155536,3.9095664,3.9040613,3.8982337,3.8936572,3.8901994,3.8870072,3.884862,3.8835726,3.8822117,3.880961,3.8799314,3.8786511,3.8768642,3.8748388,3.8725038,3.8691115,3.865868,3.863575,3.8616028,3.862039,3.8647313,3.8698378,3.87676,3.8821166,3.8837814,3.885686,3.8880491,3.8897471,3.8867402,3.882999,3.8821554,3.8950324,3.9617085,4.079173,4.404543,4.9799666,5.560829,6.0626493,6.3746195,6.457167,6.559229,6.626688,6.6258135,6.5850086,6.5498505,6.506444,6.4571066,6.420775,6.388259,6.3605056,6.334159,6.3054633,6.28167,6.2631397,6.240764,6.219138,6.201604,6.1811814,6.160291,6.1430807,6.124384,6.1042128,6.0870857,6.0707283,6.051567,6.0340557,6.019174,6.0016527,5.9852734,5.972434,5.957947,5.943635,5.932267,5.9202447,5.9070926,5.8957767,5.885442,5.8735642,5.8629074,5.854089,5.843632,5.8336353,5.8257284,5.8168554,5.8083115,5.8019085,5.795578,5.7893376,5.7844877,5.780224,5.775526,5.7715034,5.7683144,5.7648754,5.761871,5.759621,5.757186,5.7548246,5.753014,5.751423,5.749558,5.7476177,5.7456274,5.742776,5.7396135,5.736759,5.7332554,5.7298126,5.7271585,5.7241716,5.721265,5.719095,5.7169666,5.7147055,5.712747,5.7108965,5.7087,5.706538,5.704634,5.702222,5.6994014,5.6967688,5.6938205,5.690467,5.6874313,5.684263,5.680421,5.676782,5.6734934,5.669508,5.6657124,5.6626472,5.6590366,5.655447,5.6526136,5.649539,5.646333,5.6436996,5.6411953,5.6382785,5.6355524,5.633127,5.6299934,5.6267643,5.624077,5.6207275,5.617029,5.613821,5.610182
4.232235,4.239187,4.2340827,4.227297,4.2239056,4.226904,4.2352376,4.248528,4.27668,4.3214025,4.382256,4.494487,4.6523523,4.8185663,5.107643,5.4778214,5.809171,6.199375,6.5638394,6.788985,6.9112782,6.9886527,7.0427313,7.0955763,7.138508,7.1521683,7.1457047,7.129831,7.0815315,7.0122075,6.9691477,6.93347,6.9001217,6.867702,6.839121,6.8246126,6.820723,6.821479,6.8271837,6.834676,6.8458867,6.8589144,6.8696632,6.881419,6.8945436,6.906522,6.9194326,6.9358444,6.951888,6.966695,6.982778,6.9953957,7.003627,7.011853,7.0174313,7.0198665,7.021262,7.021227,7.0204563,7.019617,7.0190325,7.0192194,7.019853,7.0215087,7.0257454,7.0318084,7.043354,7.0592,7.073246,7.084464,7.1035547,7.1235304,7.1252155,7.1538515,7.1837797,7.183477,7.08938,6.9410467,6.8310895,6.459853,5.748423,4.9910398,4.328678,3.9385803,3.8850913,3.8625185,3.8632956,3.866959,3.861927,3.8587399,3.8602648,3.8649836,3.8684626,3.8693204,3.8680081,3.8672972,3.866695,3.8665602,3.8669193,3.8685012,3.8711898,3.874055,3.8779035,3.8817549,3.88455,3.8873239,3.8899202,3.8919046,3.8936195,3.8952742,3.8966544,3.8980143,3.8996913,3.9013615,3.9028063,3.9048424,3.9068542,3.9082398,3.9099972,3.9123282,3.9147806,3.9176555,3.9215765,3.9255328,3.9291024,3.9334536,3.9374976,3.940609,3.9441924,3.947486,3.9498272,3.9521303,3.9539719,3.9549165,3.9553676,3.9552083,3.9545436,3.9538088,3.952671,3.9513934,3.950326,3.949007,3.9474926,3.9460907,3.944367,3.9421124,3.9398537,3.9375043,3.934627,3.9320557,3.93005,3.9279823,3.9261544,3.9246073,3.9224424,3.91923,3.9156308,3.9107351,3.904554,3.8989446,3.8936632,3.8879614,3.8835576,3.880486,3.8778024,3.876224,3.875441,3.8745856,3.8738513,3.8732924,3.8726087,3.8715777,3.8701742,3.868253,3.8649452,3.8613806,3.8586535,3.855968,3.8554769,3.8573163,3.86173,3.8686526,3.8747854,3.8788452,3.8802884,3.8800516,3.8813906,3.8832626,3.8810728,3.8711934,3.8747542,3.9137633,3.9842548,4.1997886,4.653915,5.191053,5.8067703,6.2459154,6.380142,6.4870634,6.5835333,6.6148825,6.5770655,6.5461397,6.5106564,6.471298,6.4282923,6.3886285,6.361788,6.3344584,6.304907,6.280942,6.262515,6.241934,6.223693,6.2097073,6.1918707,6.171897,6.1545267,6.135979,6.115962,6.0989013,6.0825453,6.0633116,6.045703,6.0307584,6.0132155,5.996917,5.9842253,5.9699855,5.9559927,5.9449034,5.9331856,5.9203577,5.9092917,5.899158,5.887457,5.8769093,5.868164,5.857776,5.847835,5.8399706,5.8311644,5.822708,5.816389,5.8101444,5.803981,5.7991724,5.794922,5.790227,5.7861557,5.7828627,5.779236,5.776027,5.7736387,5.771064,5.768575,5.7666726,5.7650013,5.7630577,5.7610545,5.7590065,5.756073,5.7528243,5.749897,5.746299,5.742749,5.7399945,5.736883,5.733819,5.731494,5.729203,5.7267447,5.7245975,5.7225733,5.7202277,5.71798,5.716023,5.7135353,5.7106304,5.7079253,5.7049,5.7014766,5.6984024,5.6952157,5.691368,5.6877403,5.6844816,5.6805396,5.6767898,5.6737604,5.67019,5.6666303,5.66381,5.6607523,5.657571,5.65497,5.6525226,5.649704,5.6470895,5.644763,5.64176,5.638633,5.6359835,5.6326647,5.6289806,5.6257763,5.62214
4.095406,4.114011,4.116679,4.113467,4.110464,4.107623,4.1063247,4.1065874,4.1136856,4.129431,4.1521373,4.1929703,4.252617,4.3160048,4.4544353,4.678832,4.919872,5.2840223,5.7151756,6.0612316,6.385601,6.678706,6.8552914,6.946567,7.0069933,7.0393887,7.0718985,7.0913916,7.077118,7.0399284,6.9954224,6.944767,6.904391,6.870738,6.83589,6.8094473,6.7920322,6.7873178,6.794175,6.799967,6.809093,6.820119,6.829459,6.839694,6.851221,6.8619223,6.8738356,6.8896217,6.9048395,6.917576,6.931291,6.941878,6.9485335,6.955431,6.9599457,6.961467,6.961673,6.960298,6.9585924,6.9573097,6.957082,6.9583097,6.960016,6.9637613,6.9688883,6.973404,6.9834013,6.9975567,7.0101175,7.020108,7.036092,7.0529923,7.0583196,7.0824046,7.0910254,7.056565,6.9225974,6.7116413,6.5184565,6.07885,5.328137,4.579784,4.0974746,3.870649,3.8585699,3.85776,3.8581555,3.8531952,3.8524199,3.8532596,3.8566146,3.860982,3.8616939,3.8604522,3.8596587,3.8595624,3.8601956,3.8614094,3.8629346,3.8655457,3.868737,3.8717427,3.8754616,3.878828,3.8810334,3.8830457,3.8846846,3.885814,3.8867307,3.8877583,3.8888621,3.8901048,3.8918285,3.8934224,3.894452,3.8958235,3.8970504,3.8977902,3.898715,3.9000401,3.9015718,3.9034696,3.9062624,3.9092808,3.9121382,3.9158075,3.9194107,3.9222918,3.9256933,3.9289107,3.931247,3.9335747,3.935505,3.936575,3.937181,3.937213,3.936748,3.9362671,3.935248,3.933998,3.933014,3.9319143,3.9307418,3.929632,3.9278946,3.9254894,3.9230921,3.9205875,3.9175005,3.91476,3.9126737,3.9105895,3.908862,3.9074793,3.9056451,3.9028506,3.899602,3.8952065,3.8895864,3.8844419,3.8796024,3.8746037,3.8710914,3.8689795,3.8671987,3.8662224,3.865775,3.865367,3.8652737,3.8654213,3.8655715,3.8655548,3.865026,3.8638427,3.8611426,3.857705,3.854723,3.851348,3.84968,3.8502781,3.8532987,3.8593001,3.8656447,3.8723423,3.8760884,3.8760586,3.87602,3.8781633,3.8787065,3.8739123,3.8667543,3.8772016,3.9127932,4.024716,4.341176,4.788512,5.380693,5.9601526,6.2788916,6.4055142,6.5285015,6.5921173,6.575363,6.5501666,6.5141716,6.4798803,6.4307137,6.386397,6.3615904,6.3332424,6.3027353,6.2787447,6.260665,6.2415524,6.225653,6.213875,6.198824,6.181979,6.1671524,6.1497345,6.12982,6.112465,6.0958753,6.076414,6.058644,6.0435452,6.025834,6.009447,5.9967656,5.9826202,5.9688187,5.957936,5.9464607,5.933919,5.923094,5.913165,5.9016676,5.8912745,5.882647,5.872404,5.862616,5.854889,5.8462744,5.83807,5.8319907,5.8259993,5.8201027,5.815493,5.811386,5.8068056,5.8027835,5.7994957,5.795846,5.792613,5.790225,5.7876654,5.7852216,5.7833805,5.78179,5.7799664,5.7780886,5.776164,5.7733665,5.7702265,5.76738,5.763859,5.760343,5.7575817,5.7544403,5.751299,5.7488775,5.746476,5.7438602,5.7415504,5.7393847,5.73683,5.7343464,5.7321835,5.7294464,5.726287,5.7233787,5.7201347,5.7165065,5.7132893,5.7099876,5.7060366,5.702339,5.6990347,5.695051,5.691262,5.688192,5.6845627,5.6809216,5.6780195,5.6748705,5.6715927,5.6689234,5.666436,5.6636086,5.6610208,5.658732,5.6557903,5.652755,5.6502085,5.647024,5.6434937,5.64042,5.636936
3.994442,4.0264163,4.040642,4.0443797,4.046383,4.044021,4.0394526,4.033286,4.027297,4.0261526,4.030128,4.0461884,4.074451,4.1057053,4.1522465,4.2260275,4.314473,4.499711,4.8045406,5.137121,5.5712824,6.0456266,6.3800964,6.59583,6.7718515,6.869398,6.922344,6.972122,7.006769,7.0264454,7.005003,6.9627447,6.9292345,6.89104,6.8492913,6.8157167,6.785071,6.7677765,6.7671223,6.7688265,6.774895,6.783992,6.7917356,6.8005915,6.811042,6.8209095,6.831579,6.845772,6.859203,6.8696575,6.8810377,6.8903103,6.896742,6.9030685,6.906707,6.9073353,6.9065266,6.9042373,6.9020567,6.9006443,6.900493,6.9018936,6.903593,6.908862,6.915079,6.918545,6.926632,6.938212,6.948532,6.957019,6.965284,6.973805,6.987893,7.0079594,6.9897604,6.9155593,6.7436805,6.470903,6.1860027,5.6675835,4.9398184,4.3080816,3.9694095,3.8442771,3.849977,3.8528075,3.851305,3.84562,3.8472672,3.851761,3.8556948,3.8561807,3.8544078,3.8524733,3.852367,3.852905,3.8546293,3.8570306,3.8596225,3.863166,3.8667984,3.8699112,3.8735046,3.8764572,3.8781767,3.879547,3.8803587,3.8807425,3.8810468,3.881423,3.8819954,3.8828707,3.8842373,3.8854008,3.8858705,3.8863904,3.8867579,3.8869216,3.8870134,3.8872595,3.8877952,3.8887458,3.890572,3.8929,3.8952944,3.8986492,3.902145,3.9049811,3.9083872,3.9116492,3.9140224,3.9163833,3.918332,3.9194078,3.9200332,3.920107,3.9196515,3.919086,3.9180098,3.9167786,3.9158578,3.9149294,3.9140763,3.9133005,3.9117718,3.9094493,3.9070113,3.9043763,3.9010768,3.8981028,3.8957987,3.8934035,3.8913665,3.889765,3.8877075,3.884841,3.8817153,3.8777037,3.8726482,3.8680801,3.863921,3.8599522,3.8575716,3.8564835,3.8557763,3.8556542,3.8557796,3.856032,3.8567433,3.8576827,3.8586416,3.8595316,3.8598204,3.8594718,3.8576245,3.8546546,3.8517618,3.8480697,3.845447,3.844825,3.8461528,3.8505373,3.8562574,3.8638566,3.8709393,3.8739557,3.8733037,3.872939,3.8739147,3.8764284,3.865573,3.860125,3.8751764,3.923431,4.1292953,4.469326,4.948978,5.600263,6.1073103,6.30186,6.4606986,6.546489,6.5735054,6.5596676,6.5173526,6.4842224,6.4338284,6.387393,6.361128,6.3320045,6.3003216,6.275734,6.2588673,6.241409,6.226991,6.2161703,6.203065,6.189067,6.176893,6.1613693,6.1428576,6.126367,6.11042,6.0910363,6.0729,6.057574,6.039565,6.022947,6.0101786,5.995988,5.9822254,5.971423,5.96006,5.9476585,5.936945,5.9270945,5.915651,5.9052763,5.8966513,5.8864183,5.876672,5.869014,5.860538,5.852573,5.846756,5.8410583,5.835498,5.831159,5.827259,5.8228474,5.818922,5.8157005,5.812123,5.808959,5.806634,5.8041515,5.8018107,5.8000765,5.7986083,5.7969556,5.7952557,5.79351,5.7909217,5.787967,5.7852697,5.7819023,5.778493,5.775779,5.772661,5.769496,5.7670183,5.764539,5.7617884,5.759324,5.7570176,5.7542114,5.751413,5.748966,5.7458878,5.742381,5.739193,5.7356434,5.731715,5.7282724,5.724771,5.720621,5.716769,5.7133446,5.7092266,5.7053084,5.7021227,5.698343,5.6945224,5.691456,5.688116,5.6846237,5.681778,5.6791377,5.6761622,5.6734753,5.6711273,5.6681395,5.665098,5.6625795,5.659441,5.6559734,5.65296,5.649552
3.929228,3.9704003,3.9931324,4.002351,4.009116,4.0095463,4.0056624,3.9983988,3.988759,3.9820824,3.97966,3.981975,3.9905186,4.0011873,4.025216,4.0698843,4.123415,4.2071056,4.354664,4.5418015,4.8176785,5.221639,5.638905,6.0547867,6.4530993,6.676735,6.7480135,6.8293824,6.8938656,6.932514,6.9620705,6.9775944,6.9734116,6.9208627,6.8660145,6.834402,6.8038282,6.772488,6.7536497,6.748249,6.75033,6.757984,6.7641773,6.771948,6.781947,6.791485,6.8006334,6.8119316,6.822913,6.8329678,6.844095,6.853138,6.8593225,6.865074,6.867946,6.8679457,6.8665047,6.863967,6.8619328,6.8605137,6.860512,6.862221,6.8643003,6.869555,6.8757606,6.879731,6.886305,6.8952227,6.903387,6.909752,6.912674,6.9158287,6.933839,6.9480286,6.9089594,6.8061333,6.609029,6.296309,5.9510994,5.300565,4.5860796,4.144678,3.9118452,3.839376,3.8482504,3.8410254,3.8381095,3.8399353,3.8434696,3.8498254,3.8531137,3.8503609,3.8478966,3.8463588,3.8464088,3.8473852,3.8497877,3.8528466,3.8560243,3.8601418,3.8641305,3.8674068,3.8711128,3.8740387,3.8756316,3.8767262,3.8771544,3.8771694,3.8769698,3.8765602,3.8763123,3.876513,3.8769627,3.877378,3.8775396,3.8777025,3.877509,3.8769605,3.8761435,3.875344,3.8750405,3.8752773,3.87652,3.8785694,3.8808618,3.8843622,3.8881137,3.8910728,3.8946352,3.8980484,3.9005296,3.9029856,3.9049969,3.9060955,3.9067326,3.9068482,3.9062972,3.905282,3.9039881,3.9028006,3.901931,3.9010382,3.900244,3.8995862,3.8985457,3.8966506,3.894276,3.8915172,3.8879547,3.8846533,3.8820071,3.8791127,3.8765535,3.8745553,3.8721094,3.8690252,3.8659,3.8620405,3.857432,3.8534813,3.850041,3.8468852,3.8451972,3.8446627,3.8448434,3.8458252,3.8469496,3.848147,3.849701,3.8512683,3.8527622,3.8541913,3.8549929,3.8552625,3.854027,3.8514729,3.8488855,3.845292,3.8422205,3.8407714,3.8407617,3.8436055,3.8482597,3.8547626,3.8634703,3.8696022,3.87023,3.869195,3.8672385,3.8655143,3.8602052,3.8555408,3.85714,3.879295,4.01814,4.275035,4.679395,5.3140516,5.882139,6.181966,6.3901625,6.487772,6.564045,6.566614,6.521145,6.4902143,6.442889,6.394218,6.361844,6.3322754,6.2993126,6.273336,6.258172,6.2427998,6.230046,6.22029,6.2081037,6.1944766,6.1823773,6.168548,6.1528134,6.138725,6.1245594,6.1057916,6.0872474,6.071783,6.0535736,6.0367846,6.023941,6.0096893,5.995904,5.9851065,5.9737587,5.961358,5.9506097,5.9406843,5.9290895,5.918526,5.9097185,5.899271,5.889353,5.8815966,5.8730783,5.865184,5.8595047,5.853985,5.8486547,5.844515,5.840765,5.8364754,5.8326073,5.829406,5.8258286,5.822645,5.820301,5.8178015,5.81545,5.813717,5.812257,5.8106365,5.8089895,5.8073034,5.804792,5.801918,5.7992964,5.7960043,5.792646,5.7899523,5.786828,5.783615,5.781068,5.778494,5.775592,5.772949,5.7704625,5.767413,5.7643614,5.7616987,5.758354,5.754568,5.751148,5.747345,5.7431536,5.739501,5.7358084,5.731455,5.7274384,5.7238874,5.7196245,5.7155647,5.712261,5.7083316,5.7043376,5.701111,5.6975827,5.693866,5.6908236,5.687999,5.6848264,5.681987,5.679529,5.676445,5.673305,5.6706653,5.6673756,5.6637383,5.6605835,5.6570253
3.8542042,3.9017565,3.9330802,3.9494152,3.9601283,3.963577,3.96352,3.9617949,3.9569435,3.9509277,3.9458158,3.9367101,3.927031,3.9199266,3.9181228,3.9296722,3.9503665,3.9834652,4.0489044,4.138447,4.266123,4.5102944,4.8371263,5.2217455,5.703432,6.1320715,6.4548645,6.6740646,6.763256,6.80707,6.8765535,6.9335155,6.953452,6.9478064,6.929138,6.8980055,6.838314,6.786643,6.7579713,6.7381144,6.729044,6.731601,6.736708,6.7436104,6.7519817,6.7592974,6.767474,6.7778425,6.787978,6.7974167,6.808133,6.81693,6.8228245,6.827794,6.829671,6.828948,6.826891,6.824011,6.821953,6.8206124,6.820919,6.8230247,6.825406,6.8307424,6.837735,6.8436947,6.8479238,6.852784,6.858471,6.8605766,6.8602276,6.8625216,6.882945,6.88752,6.8205166,6.6746745,6.464328,6.1267443,5.7117767,4.9778047,4.2912207,3.9890525,3.8572907,3.8333876,3.8364825,3.8290768,3.8286004,3.834647,3.840334,3.8457236,3.846352,3.8422222,3.8394146,3.8382826,3.838808,3.8405051,3.8438687,3.8477488,3.8515253,3.8561685,3.8604317,3.8637931,3.8674998,3.870347,3.8718596,3.872823,3.8729367,3.8725328,3.8719106,3.8709412,3.8700638,3.8695464,3.8690562,3.8686469,3.868296,3.8678677,3.8669553,3.865656,3.863969,3.8622155,3.8611398,3.8606799,3.861275,3.8629112,3.8649569,3.8682942,3.8721013,3.875286,3.8791513,3.8828537,3.885503,3.8880472,3.88998,3.8908687,3.8912237,3.8909025,3.8899908,3.8888555,3.887487,3.8862906,3.885445,3.8846192,3.8839662,3.8834805,3.8826718,3.8811138,3.8790603,3.876574,3.8730998,3.8696265,3.8667107,3.8633456,3.86024,3.8578048,3.8549523,3.8515916,3.848359,3.8445368,3.8402784,3.836906,3.8341074,3.8320642,3.831664,3.8322392,3.8336897,3.8357828,3.8376904,3.8397503,3.8420281,3.844048,3.8460407,3.8480353,3.849287,3.8497915,3.8489408,3.8468227,3.844588,3.841188,3.8377223,3.8354082,3.8338282,3.8347309,3.837945,3.8432596,3.8520117,3.8600097,3.8646135,3.865273,3.8618255,3.8576622,3.8555727,3.8503976,3.842184,3.84701,3.93357,4.116993,4.431594,5.0251627,5.641286,6.055195,6.332796,6.4459486,6.5417585,6.5714045,6.540739,6.505224,6.4544554,6.401598,6.366482,6.336254,6.3034105,6.277496,6.2616067,6.2466855,6.2352686,6.226523,6.2153854,6.2025948,6.191028,6.178032,6.1632366,6.1499724,6.1366844,6.119822,6.1035585,6.089804,6.0736,6.057673,6.044116,6.029251,6.014862,6.0035954,5.991882,5.9791737,5.968168,5.957932,5.9459143,5.9349146,5.925721,5.914836,5.9045553,5.8965693,5.8878865,5.879976,5.8743916,5.8690214,5.8639092,5.8599586,5.8563337,5.8521314,5.8482804,5.845059,5.841424,5.8381653,5.835764,5.833211,5.8308377,5.829118,5.8276987,5.8261776,5.824669,5.823136,5.8208327,5.8181777,5.8157516,5.812676,5.80949,5.8068957,5.803836,5.8006186,5.798014,5.7953453,5.792266,5.7894087,5.786708,5.7833567,5.7799873,5.777063,5.7733994,5.769292,5.7656145,5.76153,5.7570467,5.7531605,5.749256,5.7446785,5.740475,5.736777,5.732333,5.7280884,5.724619,5.7204695,5.716214,5.7127447,5.7089195,5.7048445,5.701476,5.6983423,5.6948175,5.691678,5.6889944,5.6856766,5.6823425,5.679554,5.676099,5.672298,5.669012,5.6653233
3.7834363,3.8340182,3.8692746,3.8887959,3.901565,3.9065833,3.9082613,3.9093473,3.9082704,3.905177,3.9013076,3.8926735,3.881288,3.8711567,3.8555338,3.8443255,3.8434916,3.8535166,3.879445,3.91323,3.9511518,4.051801,4.22362,4.4434824,4.825717,5.3014436,5.763646,6.1872993,6.472563,6.6302686,6.7397738,6.8169394,6.8780766,6.9194326,6.939789,6.9280195,6.886923,6.834448,6.7872205,6.7499075,6.725252,6.717675,6.7177377,6.720699,6.725974,6.731002,6.7381115,6.7478647,6.757572,6.7664948,6.776557,6.7846327,6.789842,6.793816,6.794693,6.7933106,6.790609,6.787243,6.785046,6.783957,6.78476,6.787507,6.790711,6.796697,6.8042345,6.8108935,6.81493,6.8170223,6.818436,6.8160253,6.816998,6.8238287,6.8438535,6.830822,6.733798,6.561289,6.3215313,5.918314,5.39878,4.6638093,4.078544,3.8930888,3.8278687,3.8244805,3.8183374,3.816268,3.8206291,3.8288002,3.8361447,3.838728,3.8359404,3.8321314,3.8294816,3.8287969,3.8299084,3.8323808,3.8366916,3.8412967,3.8454986,3.8503804,3.8545938,3.857761,3.8611298,3.86361,3.864874,3.865593,3.8653564,3.8645446,3.863501,3.861983,3.8605018,3.8593009,3.857956,3.856783,3.8558834,3.8548386,3.8533316,3.8515549,3.849407,3.8472643,3.8459358,3.845264,3.8456655,3.8471644,3.8491118,3.8523197,3.8560534,3.8592672,3.8631382,3.866776,3.8693004,3.8716185,3.8731709,3.8736358,3.873528,3.8726082,3.8712232,3.869884,3.8683038,3.8669732,3.8660893,3.8653283,3.8649118,3.8647377,3.8643079,3.8633385,3.8619087,3.8600097,3.8570175,3.853699,3.8507261,3.847024,3.8433528,3.8403769,3.8369129,3.833044,3.8295622,3.8256803,3.8217537,3.819015,3.8169615,3.8161395,3.817099,3.8188374,3.821556,3.8246598,3.8271956,3.8298569,3.8325121,3.8346817,3.836883,3.8392277,3.8408587,3.8415895,3.8412557,3.8397834,3.8380437,3.8351312,3.8316357,3.8287387,3.8258495,3.8248832,3.8264937,3.8303337,3.83789,3.8463058,3.854293,3.8575997,3.854311,3.8487306,3.8448462,3.8404088,3.8350158,3.8309495,3.8744347,3.992042,4.2217145,4.74391,5.367552,5.8929515,6.2573915,6.4012394,6.507455,6.56999,6.5626364,6.5220814,6.4673395,6.410272,6.373324,6.3429403,6.3106875,6.285238,6.2690735,6.254899,6.244685,6.2365036,6.225841,6.2135344,6.202468,6.189659,6.174884,6.1617727,6.149104,6.133742,6.119194,6.1065855,6.091572,6.0765724,6.063628,6.0493503,6.0355773,6.024825,6.012981,5.999588,5.9877415,5.9767017,5.963748,5.951932,5.942087,5.930475,5.919591,5.91121,5.902195,5.894123,5.8885317,5.883214,5.87823,5.8744016,5.870842,5.8666553,5.8627567,5.8594594,5.855695,5.852293,5.8497896,5.847148,5.844741,5.843052,5.841714,5.84037,5.839095,5.8378286,5.8358927,5.8336296,5.831558,5.8288865,5.8260403,5.823654,5.820762,5.817608,5.8149643,5.812199,5.808921,5.805813,5.802863,5.7991686,5.795452,5.792248,5.788258,5.783826,5.7798915,5.7755246,5.7707496,5.766631,5.762516,5.757719,5.753338,5.7494984,5.7448826,5.740448,5.7367983,5.732398,5.7278204,5.724039,5.7198286,5.715272,5.7114563,5.7078896,5.7038655,5.7002993,5.697284,5.6936216,5.690014,5.6870356,5.683377,5.679385,5.675949,5.6721106
