6.8773594,6.9185753,6.956002,6.9931917,7.0324545,7.070812,7.104742,7.1354685,7.1641903,7.1906824,7.2162366,7.2430477,7.2721386,7.3031545,7.3321333,7.3578653,7.3814774,7.4042244,7.4303503,7.4641943,7.5062904,7.552803,7.5988474,7.643428,7.691511,7.7459116,7.807665,7.875866,7.944641,8.009754,8.071288,8.129158,8.181506,8.230038,8.274493,8.316059,8.355011,8.393509,8.43564,8.4828,8.533581,8.587464,8.639476,8.6970215,8.758047,8.826765,8.900661,8.97176,9.026613,9.062465,9.090467,9.114544,9.1381,9.164129,9.194185,9.22752,9.262081,9.295727,9.324433,9.349783,9.374474,9.398668,9.423123,9.448695,9.47434,9.49749,9.515704,9.527288,9.532555,9.534037,9.53399,9.534634,9.537197,9.54192,9.549007,9.557292,9.564824,9.56964,9.570719,9.568607,9.564123,9.558983,9.553629,9.548122,9.542521,9.537401,9.533445,9.531536,9.531395,9.531899,9.535245,9.547856,9.5632305,9.566769,9.5563545,9.50849,9.413059,9.267218,9.065817,8.761824,8.492657,8.32477,8.216284,8.150684,8.09902,8.0693,8.066525,8.081585,8.10561,8.1332245,8.1586075,8.174001,8.178421,8.173861,8.163076,8.1479,8.128919,8.106952,8.082219,8.05551,8.028069,8.00233,7.9807186,7.9630356,7.9504375,7.9431877,7.939429,7.936513,7.9318743,7.923895,7.9097013,7.8860006,7.851513,7.810188,7.7686687,7.7321935,7.702792,7.6784773,7.6561856,7.6335735,7.606246,7.574626,7.543024,7.5116405,7.476956,7.4386463,7.3993764,7.3666058,7.3451366,7.3238726,7.2988605,7.242136,7.0986214,6.9057846,6.7202477,6.6186094,6.5923166,6.6240225,6.684822,6.742625,6.7771444,6.7884064,6.791226,6.794592,6.8020773,6.8097706,6.812608,6.8095136,6.802711,6.7949867,6.7888317,6.7852955,6.784227,6.7848816,6.7865767,6.788639,6.7903204,6.7905145,6.7884917,6.7847385,6.7795963,6.7742257,6.769878,6.7669187,6.765343,6.7634053,6.7593145,6.7516575,6.740606,6.7277246,6.714039,6.7000604,6.6858635,6.672271,6.660447,6.650784,6.643708,6.63931,6.6372066,6.636652,6.634965,6.6302204,6.6263914,6.629511,6.6459756,6.6779976,6.7221756,6.778803,6.8413315,6.902363,6.957765,7.004075,7.039314,7.068866,7.098482,7.12716,7.1520658,7.1688623,7.1740494,7.171131,7.1631737,7.157918,7.158384,7.1647806,7.1745725,7.1831684,7.186927,7.1872053,7.186904,7.189412,7.195936,7.2039986,7.209817,7.2146626,7.2195854,7.224266,7.227784,7.230316,7.2307277,7.2294188,7.2272015,7.2247057,7.222728,7.221581,7.2210064,7.2209578,7.221096,7.2209864,7.220174,7.21836,7.215317,7.2113485,7.206759,7.201664,7.1965084,7.191019,7.1848745,7.178073,7.17082,7.1636906,7.157114,7.1511955,7.1452856,7.139326,7.1332836,7.126741,7.1192484,7.1106377,7.1004972,7.089669,7.0783377,7.0665665,7.0546484,7.042858,7.0306673,7.017913,7.0042887,6.9906244,6.9768543,6.9630437,6.9493074,6.9357038,6.921745,6.9053087,6.8874846,6.869407,6.851137,6.8319435,6.8131633,6.795677,6.7793784,6.764196,6.749323,6.7341967,6.7190905,6.704006,6.6888056,6.6737623,6.6580267,6.641381,6.6239376,6.6055803,6.586017,6.5651617,6.54335,6.522176,6.503993,6.488738
6.890478,6.932016,6.969514,7.0060854,7.04488,7.084517,7.1209774,7.153489,7.181905,7.2086034,7.233263,7.2596493,7.288845,7.3204575,7.35076,7.3766007,7.400511,7.4243793,7.4509287,7.485013,7.5260024,7.568885,7.6104274,7.649486,7.691104,7.737733,7.7932816,7.8582687,7.927349,7.9956036,8.064917,8.127596,8.185931,8.239893,8.289589,8.335011,8.3766575,8.416482,8.458311,8.505134,8.555622,8.608856,8.660278,8.71509,8.780323,8.845032,8.914729,8.982599,9.042236,9.08704,9.1220665,9.150965,9.180656,9.212518,9.247761,9.285425,9.324454,9.361271,9.391862,9.418022,9.441988,9.463831,9.484907,9.507198,9.530965,9.554548,9.57565,9.591078,9.60048,9.605631,9.607994,9.609549,9.611909,9.616004,9.622719,9.631123,9.63908,9.644457,9.6460905,9.644493,9.640352,9.6351185,9.629084,9.622232,9.614851,9.608097,9.603091,9.600903,9.601135,9.602564,9.605782,9.615897,9.632329,9.642862,9.640015,9.609207,9.5474415,9.433636,9.29564,9.112017,8.8760395,8.661007,8.519447,8.413237,8.314389,8.229841,8.188431,8.182867,8.197071,8.220007,8.242816,8.254386,8.254857,8.246117,8.230601,8.210285,8.185881,8.159913,8.133139,8.106295,8.080518,8.057607,8.037966,8.021631,8.009039,8.000307,7.9940805,7.988331,7.9815154,7.9727263,7.959565,7.9388127,7.908454,7.8715296,7.833521,7.799207,7.770198,7.7443094,7.7186294,7.691595,7.6590586,7.621784,7.584859,7.5486,7.5100727,7.4679585,7.423988,7.3866787,7.3633213,7.341701,7.3143253,7.2489567,7.1010065,6.905883,6.723199,6.6204157,6.590615,6.61817,6.67667,6.736286,6.776431,6.7953095,6.805217,6.8124895,6.82143,6.8284764,6.82913,6.82267,6.812425,6.80221,6.795058,6.791966,6.792246,6.7943,6.796732,6.799185,6.8011656,6.801816,6.800624,6.79815,6.794709,6.791206,6.788517,6.786647,6.7853518,6.7829466,6.7776737,6.768795,6.756435,6.74234,6.7277308,6.7133017,6.699558,6.687706,6.679022,6.674343,6.6738834,6.6771135,6.6818275,6.6850853,6.683034,6.674207,6.665904,6.666544,6.6843023,6.7207174,6.7698274,6.832498,6.898244,6.96013,7.0174685,7.0614343,7.092911,7.1183143,7.139972,7.158016,7.1709304,7.1759257,7.1710176,7.159119,7.145177,7.136654,7.13622,7.1416206,7.1495275,7.156636,7.1624556,7.168146,7.1769757,7.1879005,7.2015915,7.214223,7.2249126,7.232916,7.2368193,7.2406883,7.2444735,7.247303,7.2481937,7.2469397,7.244383,7.2414403,7.239322,7.2378273,7.2371044,7.237077,7.237106,7.2367973,7.2358036,7.233877,7.230776,7.226777,7.2221756,7.217163,7.212085,7.2066917,7.200692,7.194046,7.18682,7.1797175,7.173425,7.1675205,7.1614943,7.155262,7.1488748,7.14209,7.134469,7.1257877,7.115682,7.104993,7.093914,7.0826774,7.070739,7.058612,7.046052,7.0330524,7.0198803,7.0064955,6.9931064,6.9797955,6.9669805,6.9546056,6.9418454,6.9264364,6.909069,6.890981,6.871763,6.851863,6.8324466,6.814246,6.7974443,6.7818394,6.766534,6.7507963,6.7348943,6.7191863,6.7029686,6.68633,6.669692,6.65254,6.63447,6.615366,6.5955024,6.574604,6.5528936,6.5322876,6.51492,6.5015173
6.9044924,6.946541,6.984318,7.0210047,7.0599985,7.0999393,7.138698,7.172099,7.2013483,7.228052,7.2520556,7.2780313,7.307354,7.339526,7.371319,7.398224,7.4226236,7.4476852,7.475689,7.5112944,7.5527787,7.594421,7.633421,7.6688166,7.7044573,7.7435083,7.788889,7.844267,7.9066215,7.9739275,8.042955,8.112961,8.181225,8.241137,8.296745,8.347825,8.39396,8.437074,8.4803295,8.526666,8.576933,8.629788,8.680382,8.732982,8.795408,8.862399,8.9260025,8.989506,9.0472,9.098482,9.142307,9.181025,9.216105,9.253296,9.293388,9.335424,9.378031,9.417784,9.451159,9.479122,9.503365,9.5241375,9.5434475,9.563734,9.58611,9.609154,9.631141,9.64995,9.664128,9.674165,9.680372,9.683929,9.686669,9.690209,9.696051,9.703672,9.711307,9.717048,9.719454,9.718826,9.715601,9.710917,9.704952,9.697498,9.688877,9.680698,9.674522,9.671524,9.671333,9.672847,9.675831,9.684996,9.699318,9.71299,9.716985,9.700316,9.658186,9.581486,9.471239,9.34889,9.194605,9.002014,8.832353,8.697949,8.579561,8.466595,8.373471,8.325424,8.312969,8.318506,8.327518,8.326113,8.31662,8.301208,8.281041,8.256771,8.2297535,8.203148,8.178154,8.155216,8.134235,8.115183,8.097714,8.081833,8.06753,8.055106,8.0441885,8.033798,8.023502,8.01302,8.000279,7.9822073,7.9561844,7.924099,7.891018,7.8601847,7.833233,7.807932,7.781604,7.753145,7.719372,7.6807737,7.642005,7.6032968,7.561313,7.515002,7.4645977,7.4209356,7.391857,7.3646936,7.331828,7.257826,7.1052313,6.9075513,6.728447,6.625185,6.5925574,6.6167755,6.6739025,6.7359467,6.781776,6.8076096,6.8213663,6.830247,6.8390775,6.844681,6.843444,6.835682,6.824367,6.8142633,6.808079,6.806281,6.8070755,6.808901,6.8106585,6.8120623,6.812815,6.812549,6.8111086,6.809087,6.8067856,6.8047266,6.803404,6.802474,6.801614,6.799318,6.7939806,6.7850943,6.772812,6.7588797,6.74452,6.730815,6.718726,6.7098684,6.705609,6.706704,6.7126884,6.7220244,6.730936,6.7346926,6.7297387,6.7162294,6.705271,6.707515,6.731133,6.7753835,6.832708,6.902015,6.9697227,7.0317125,7.0867376,7.128146,7.15877,7.180578,7.19385,7.1998587,7.1979313,7.186816,7.1639147,7.1367817,7.1137376,7.1006546,7.099323,7.104374,7.1075,7.1098843,7.11682,7.133123,7.1561356,7.1828365,7.2078376,7.225835,7.2396517,7.2503004,7.257219,7.260022,7.2628927,7.265637,7.266977,7.265643,7.2627935,7.260036,7.2573814,7.2552385,7.253975,7.2534356,7.2532244,7.252779,7.251587,7.249551,7.2464137,7.2424154,7.2378416,7.2329607,7.2279615,7.222681,7.2168493,7.21043,7.203643,7.1971726,7.1910963,7.1850815,7.178797,7.1723127,7.1656785,7.158712,7.1510286,7.142372,7.132475,7.121716,7.110407,7.0989037,7.0869904,7.074964,7.0628242,7.0502663,7.0373106,7.0241404,7.011114,6.998374,6.9863567,6.974958,6.963114,6.948391,6.9311666,6.9130106,6.893078,6.871468,6.8507037,6.831252,6.813445,6.797139,6.78158,6.765913,6.750395,6.734826,6.7181797,6.7012496,6.684845,6.668413,6.651377,6.633543,6.6134734,6.591741,6.5690575,6.547941,6.530743,6.5166216
6.9179363,6.960972,6.998577,7.035827,7.075798,7.116026,7.156008,7.190041,7.2201977,7.2464314,7.269822,7.2954073,7.324846,7.3574076,7.3901544,7.4191065,7.444124,7.470495,7.500721,7.538533,7.581579,7.623803,7.6628466,7.6982384,7.7319565,7.7672997,7.805757,7.850647,7.9031315,7.9606543,8.025355,8.096666,8.1696415,8.239716,8.299153,8.35507,8.405664,8.452455,8.498342,8.545698,8.596558,8.649723,8.700064,8.7514305,8.808702,8.876198,8.941162,8.999849,9.055588,9.10807,9.157364,9.205112,9.246853,9.286842,9.330252,9.375564,9.421204,9.463591,9.50081,9.532553,9.55935,9.581516,9.60136,9.62187,9.644297,9.667063,9.689036,9.709373,9.727683,9.74279,9.753944,9.761719,9.766572,9.769056,9.771927,9.777494,9.783752,9.788938,9.791563,9.791689,9.789458,9.785734,9.780628,9.7735405,9.764576,9.755562,9.74838,9.74418,9.742668,9.743084,9.745158,9.753261,9.766357,9.777967,9.7864275,9.783672,9.751867,9.699869,9.617781,9.52173,9.4226675,9.300833,9.148815,8.993602,8.848593,8.716435,8.6050625,8.515896,8.461014,8.437144,8.423424,8.4046955,8.382881,8.359577,8.334186,8.305391,8.276682,8.250704,8.228575,8.209896,8.193184,8.176907,8.160515,8.143435,8.125563,8.107648,8.0905075,8.07431,8.059602,8.046527,8.033238,8.01688,7.9943323,7.9667215,7.9374604,7.909564,7.8845654,7.8606343,7.8355722,7.808316,7.777128,7.741909,7.704772,7.66695,7.624005,7.5735955,7.5164995,7.4647684,7.42791,7.3917065,7.350848,7.267205,7.1081753,6.907393,6.732459,6.6300397,6.595995,6.6183434,6.675434,6.74069,6.79214,6.8240204,6.8398485,6.8490906,6.8573875,6.86217,6.860672,6.853172,6.8434105,6.8357635,6.8322663,6.8325715,6.8338404,6.8354244,6.836026,6.8355846,6.834264,6.8322573,6.829768,6.8273954,6.825403,6.8239317,6.8231473,6.822463,6.821656,6.819545,6.8148036,6.8070426,6.796221,6.783721,6.770605,6.7581186,6.7476573,6.7411366,6.739811,6.744098,6.752919,6.7643175,6.774071,6.777114,6.7712674,6.7584567,6.7521462,6.763812,6.7985415,6.854421,6.9231043,6.9954333,7.06112,7.118697,7.167852,7.210515,7.242485,7.261807,7.2681437,7.2634983,7.247113,7.215892,7.171876,7.1260138,7.0883856,7.069941,7.0693083,7.0752926,7.077485,7.0770683,7.0860825,7.112915,7.151436,7.19281,7.229509,7.249626,7.261672,7.2700405,7.2765417,7.2815247,7.2837653,7.2852116,7.2863054,7.285168,7.282428,7.2779136,7.274086,7.272006,7.2710576,7.270233,7.269376,7.2682133,7.2667775,7.264746,7.2616425,7.257627,7.25298,7.2481184,7.2434826,7.2385187,7.2330036,7.2270603,7.220827,7.2147217,7.2088284,7.2029614,7.19676,7.1902914,7.183607,7.1766214,7.1690283,7.160571,7.150301,7.139262,7.1277175,7.1160007,7.104341,7.092786,7.0811405,7.0690966,7.056654,7.044004,7.0315585,7.0193815,7.0079155,6.997264,6.986006,6.9716277,6.954533,6.9349604,6.9138374,6.891469,6.869813,6.8497114,6.8316393,6.81556,6.800846,6.7864084,6.7723017,6.7582273,6.7423315,6.725672,6.709758,6.694417,6.678774,6.6619644,6.643295,6.622565,6.6005363,6.579384,6.5612717,6.546425
6.9272623,6.9721384,7.0105705,7.047944,7.088972,7.1299887,7.170451,7.206664,7.2360315,7.2612414,7.284132,7.3094893,7.339139,7.372111,7.4054947,7.436037,7.4622507,7.4900274,7.5231094,7.563679,7.6088886,7.65316,7.6941414,7.731269,7.766032,7.801136,7.838058,7.879392,7.924844,7.973535,8.029954,8.094023,8.163683,8.23642,8.302821,8.358962,8.412764,8.462873,8.511765,8.561775,8.614893,8.669714,8.7212305,8.772807,8.828505,8.891612,8.957911,9.016727,9.069732,9.122101,9.173434,9.225794,9.275123,9.31867,9.363115,9.410395,9.458944,9.505203,9.546583,9.583522,9.615362,9.64167,9.664513,9.686977,9.710015,9.732194,9.753298,9.773699,9.794434,9.813616,9.8302,9.843798,9.852332,9.855393,9.85568,9.855801,9.858185,9.861472,9.863159,9.863209,9.861525,9.858815,9.855055,9.849174,9.8408165,9.831762,9.824042,9.818611,9.815262,9.8136425,9.813995,9.819672,9.83143,9.842325,9.852167,9.856867,9.845094,9.805469,9.750988,9.678799,9.603456,9.526441,9.432739,9.299079,9.141972,8.975002,8.840019,8.735233,8.647467,8.584515,8.542341,8.503759,8.467761,8.434424,8.40131,8.366948,8.3357525,8.3100815,8.290394,8.274889,8.26075,8.245474,8.228213,8.208096,8.185153,8.160656,8.136515,8.113902,8.094147,8.077741,8.063045,8.047476,8.027336,8.002845,7.9757395,7.948845,7.924137,7.9006815,7.877015,7.8520594,7.824456,7.792828,7.75909,7.724357,7.683707,7.6339793,7.571347,7.509816,7.4645343,7.419,7.3682003,7.2700825,7.106406,6.9005866,6.731745,6.6321964,6.5985327,6.620665,6.6793704,6.749113,6.807028,6.84361,6.8617077,6.8717318,6.8803988,6.88622,6.886814,6.88175,6.875771,6.8724046,6.872678,6.8745475,6.87704,6.878595,6.877917,6.875495,6.872064,6.868288,6.8646803,6.8617897,6.859766,6.85835,6.857391,6.8561745,6.8547173,6.852371,6.848274,6.84221,6.83389,6.8239493,6.812847,6.8015547,6.791597,6.784823,6.78226,6.7838936,6.7886696,6.7957582,6.8025827,6.806032,6.805476,6.803829,6.8122435,6.8416033,6.895586,6.970419,7.0483046,7.1158576,7.170726,7.2207775,7.2702045,7.314867,7.343566,7.3593903,7.3655567,7.358697,7.330847,7.2827616,7.2143593,7.147149,7.091052,7.06479,7.0625772,7.069392,7.073181,7.0739355,7.087106,7.1246758,7.176098,7.229618,7.26762,7.2837973,7.2920265,7.2959776,7.298279,7.3021603,7.306386,7.30752,7.307199,7.3056383,7.3011484,7.2949862,7.290414,7.288112,7.2871614,7.2870617,7.286297,7.284622,7.282565,7.2800765,7.2768555,7.273011,7.2687254,7.2642374,7.2596574,7.2547493,7.249309,7.2435455,7.2374945,7.231558,7.2260447,7.2205944,7.2147417,7.2084618,7.202029,7.1955023,7.1883464,7.179682,7.169267,7.1579638,7.146174,7.1342907,7.1226587,7.111329,7.10015,7.088809,7.0772147,7.0655546,7.0539093,7.041974,7.0307446,7.0205855,7.0097933,6.995332,6.97688,6.9558897,6.9337177,6.912001,6.891571,6.871792,6.855048,6.840931,6.828847,6.8174276,6.8059893,6.7940483,6.7802873,6.764094,6.7473607,6.7325525,6.718215,6.703532,6.6879854,6.6700034,6.6499023,6.630204,6.614028,6.6017637
6.9341617,6.980162,7.0206943,7.059106,7.1006308,7.142768,7.183464,7.219947,7.2486863,7.273389,7.295949,7.3212204,7.351162,7.38458,7.4185047,7.4499216,7.477392,7.5064683,7.5425854,7.586178,7.634147,7.681045,7.724925,7.765295,7.803454,7.841489,7.8802547,7.921884,7.9652605,8.009047,8.05714,8.111352,8.172815,8.23845,8.306253,8.366903,8.41851,8.468817,8.51932,8.572984,8.62957,8.687244,8.741644,8.795606,8.852877,8.914843,8.979584,9.0405245,9.091806,9.142757,9.193724,9.246166,9.298653,9.347982,9.393745,9.441355,9.49171,9.541485,9.587707,9.629482,9.667284,9.699367,9.727051,9.752993,9.777469,9.799071,9.818479,9.837553,9.8582325,9.879009,9.898459,9.916351,9.929598,9.935175,9.935232,9.932482,9.929478,9.930008,9.930191,9.929443,9.927668,9.925672,9.92341,9.919396,9.912635,9.90462,9.897333,9.891489,9.886908,9.883597,9.882438,9.885246,9.895568,9.906744,9.917631,9.925962,9.925873,9.909392,9.86834,9.819195,9.762226,9.704456,9.637647,9.544948,9.413361,9.251487,9.091272,8.958221,8.8537655,8.75732,8.67928,8.618051,8.566093,8.521156,8.478741,8.438375,8.404216,8.3782015,8.359936,8.346235,8.333052,8.317194,8.297873,8.274219,8.246472,8.216255,8.186081,8.157713,8.13292,8.112515,8.095306,8.079168,8.060016,8.03697,8.010404,7.982669,7.9565496,7.9322805,7.9091387,7.8859873,7.860537,7.831723,7.801915,7.7704697,7.733259,7.6839437,7.6212716,7.551903,7.4973965,7.4459114,7.3832536,7.270668,7.1024933,6.889674,6.727683,6.6322994,6.6004543,6.6234617,6.6842766,6.7580576,6.8211956,6.86199,6.882335,6.8938403,6.904669,6.91422,6.91984,6.9205675,6.920725,6.9220347,6.924806,6.92881,6.9324026,6.9337425,6.931882,6.927933,6.923167,6.918471,6.9144106,6.9113827,6.90925,6.9073477,6.905261,6.902378,6.8991575,6.895709,6.8918242,6.8874674,6.882124,6.8754883,6.8670473,6.857087,6.846795,6.8373833,6.829452,6.8225603,6.8166256,6.8136787,6.8148823,6.8209267,6.832756,6.8519297,6.8851976,6.943204,7.0255384,7.1186914,7.1916466,7.248252,7.2981043,7.345381,7.389405,7.4228597,7.445223,7.4578543,7.4634304,7.458104,7.438573,7.3915644,7.302667,7.207579,7.1293983,7.089754,7.083599,7.093026,7.101555,7.1076527,7.1284637,7.1734343,7.233454,7.2845173,7.3108354,7.3197074,7.3229246,7.3240967,7.323288,7.3240466,7.3273506,7.3286667,7.3275223,7.3243723,7.3188334,7.3126554,7.3078737,7.3048506,7.3032894,7.3028064,7.3024073,7.3017,7.299901,7.2971153,7.2935796,7.28957,7.2852902,7.280822,7.2760687,7.271027,7.2654696,7.2596955,7.253975,7.248584,7.2436013,7.238747,7.2335825,7.2279644,7.2220287,7.215351,7.207672,7.1987286,7.188119,7.1763887,7.1641607,7.1519575,7.1402273,7.129051,7.1183357,7.107832,7.0972066,7.086159,7.07487,7.063463,7.052598,7.042439,7.031545,7.016877,6.9977818,6.9763284,6.953927,6.932828,6.9144983,6.8977,6.8839183,6.873413,6.8644676,6.853423,6.8420463,6.8306284,6.8182545,6.8048253,6.7892046,6.7737055,6.7599955,6.747803,6.7357144,6.7216687,6.705808,6.691043,6.680858,6.675806
6.941205,6.9886293,7.0309772,7.0710144,7.113025,7.155467,7.197526,7.2324247,7.2605658,7.2850323,7.3073096,7.3324995,7.3627806,7.39666,7.4309783,7.4623013,7.4905605,7.521224,7.5599074,7.606123,7.656598,7.7058697,7.752672,7.796996,7.840037,7.883612,7.9257193,7.969947,8.0160885,8.06044,8.102997,8.148207,8.198843,8.253773,8.313351,8.373669,8.429285,8.480792,8.532497,8.586739,8.642741,8.702125,8.759889,8.817329,8.877855,8.942163,9.008088,9.070213,9.122036,9.17178,9.221231,9.271763,9.3221245,9.37397,9.422807,9.469349,9.520344,9.57204,9.621561,9.667641,9.709698,9.747309,9.780501,9.810938,9.837908,9.859867,9.877886,9.894758,9.91287,9.932308,9.951725,9.969706,9.985958,9.996164,9.998808,9.996618,9.99217,9.991378,9.990454,9.988781,9.98642,9.984636,9.983608,9.9816265,9.977041,9.970905,9.965055,9.959982,9.95549,9.95186,9.950327,9.9524555,9.961963,9.973419,9.985069,9.995829,10.000994,9.996904,9.9771385,9.937642,9.896252,9.850385,9.794455,9.718393,9.618112,9.485114,9.342011,9.194479,9.053652,8.929797,8.82255,8.737959,8.669351,8.612795,8.560448,8.514622,8.477391,8.450072,8.431629,8.41798,8.404314,8.387178,8.36599,8.3400345,8.309568,8.2762165,8.2424755,8.210123,8.181053,8.156275,8.135382,8.11708,8.097278,8.074249,8.046965,8.017328,7.988863,7.9628944,7.939211,7.91634,7.8911667,7.8626156,7.833786,7.803653,7.767458,7.719981,7.6615105,7.5887747,7.527217,7.472198,7.3996296,7.2759714,7.098317,6.88234,6.7250147,6.6332836,6.603713,6.6279736,6.6902633,6.7662287,6.8319445,6.8757286,6.898876,6.912898,6.9277906,6.9437356,6.957045,6.966525,6.973095,6.9784703,6.984231,6.9900885,6.9943056,6.9953585,6.992749,6.98827,6.983371,6.9789033,6.9757032,6.9731817,6.970767,6.9676247,6.963135,6.9572554,6.9511156,6.945692,6.941402,6.9383364,6.935826,6.9326344,6.9272747,6.918973,6.908058,6.8945312,6.8785124,6.859276,6.838868,6.8231325,6.817807,6.8286266,6.8577185,6.9054947,6.9735703,7.0699244,7.180421,7.2704306,7.3432465,7.3986864,7.4384317,7.469516,7.499123,7.522331,7.538623,7.546074,7.54792,7.5436606,7.5292883,7.496753,7.419364,7.304736,7.198002,7.1395993,7.128602,7.142914,7.1599874,7.1775703,7.2088146,7.2577944,7.3082876,7.3400993,7.3535495,7.355956,7.355202,7.3536463,7.349148,7.347173,7.3477893,7.3488746,7.346517,7.342718,7.3371716,7.331112,7.326067,7.322465,7.320309,7.319199,7.318459,7.317567,7.316302,7.314688,7.3120704,7.308174,7.3031454,7.297782,7.2923265,7.287058,7.281897,7.276826,7.2718,7.267091,7.2630887,7.259351,7.254933,7.249361,7.242961,7.235877,7.22797,7.2188687,7.2080503,7.196016,7.1829967,7.1693945,7.156871,7.145822,7.1359367,7.1265106,7.116586,7.105566,7.093831,7.082799,7.072874,7.063858,7.0532117,7.0386186,7.020008,6.9990997,6.977375,6.957641,6.94174,6.9285784,6.919088,6.911558,6.903225,6.893172,6.8820705,6.8706036,6.858037,6.8428025,6.8246007,6.8077517,6.7931376,6.7812176,6.7709427,6.760965,6.750968,6.743555,6.7412653,6.744948
6.949176,6.9976044,7.041423,7.0827,7.125608,7.1687527,7.2099237,7.2442636,7.2715387,7.2955003,7.3180523,7.3440676,7.3748755,7.409293,7.443884,7.475322,7.5038667,7.5362444,7.576892,7.6250877,7.67733,7.728195,7.7770886,7.8246164,7.8722196,7.9188385,7.963952,8.010403,8.059193,8.1077175,8.153324,8.1952305,8.236303,8.281797,8.332476,8.386757,8.441581,8.496254,8.54878,8.601082,8.656231,8.714306,8.774189,8.836376,8.900796,8.9671545,9.034567,9.098518,9.153209,9.2021,9.249814,9.297926,9.345529,9.394535,9.447192,9.496662,9.546364,9.598261,9.64832,9.69599,9.740428,9.781259,9.819002,9.854429,9.885609,9.910345,9.929266,9.94493,9.960215,9.976795,9.994143,10.0114765,10.027443,10.038616,10.044665,10.046047,10.04578,10.046177,10.045383,10.043552,10.04092,10.039462,10.03976,10.040089,10.038198,10.034615,10.030931,10.027475,10.024058,10.021109,10.019948,10.022371,10.029817,10.041973,10.053269,10.06406,10.071222,10.071191,10.060903,10.03511,9.99959,9.962244,9.915524,9.850562,9.7627945,9.658307,9.534634,9.399597,9.252731,9.104719,8.971577,8.865147,8.781812,8.712723,8.652767,8.601322,8.559523,8.528498,8.507213,8.491304,8.475569,8.4565325,8.4337845,8.406778,8.375631,8.341644,8.306721,8.272107,8.239401,8.209623,8.183376,8.160574,8.137764,8.112903,8.083892,8.052178,8.021681,7.994463,7.9704695,7.947803,7.9224114,7.8931174,7.863781,7.8335247,7.79751,7.7528644,7.6976366,7.6292005,7.56448,7.5063705,7.4274445,7.294968,7.1054688,6.885159,6.7273602,6.636113,6.6067944,6.630757,6.692904,6.7695436,6.837059,6.883232,6.9124894,6.9314575,6.9519243,6.975583,6.9975605,7.015496,7.028397,7.037877,7.0463,7.0535526,7.0584064,7.059615,7.056998,7.052418,7.0473595,7.043093,7.0402927,7.0380793,7.0353155,7.031236,7.025411,7.017653,7.0097313,7.0036654,7.0002213,6.9992113,6.9996786,6.999624,6.997035,6.9906874,6.9803267,6.9648542,6.9436264,6.915407,6.8843126,6.859529,6.8506203,6.8677397,6.914383,6.9884224,7.091959,7.2216926,7.334468,7.4282665,7.501519,7.539735,7.5615826,7.57893,7.597144,7.6105747,7.6184506,7.622132,7.6244087,7.6242137,7.615389,7.587552,7.526932,7.414336,7.2832346,7.20431,7.186922,7.2068214,7.239294,7.275152,7.315988,7.354022,7.3789864,7.390027,7.3939066,7.390977,7.3883495,7.3833404,7.3768005,7.3726826,7.3703446,7.368853,7.3666234,7.362467,7.3568616,7.350976,7.345774,7.3417926,7.3391905,7.3376684,7.336523,7.335172,7.333762,7.3324175,7.330165,7.326415,7.321185,7.3154955,7.309766,7.3045197,7.29969,7.2951136,7.2905874,7.2863455,7.2829247,7.2797976,7.275827,7.2703905,7.263906,7.256719,7.2489285,7.2400517,7.2285137,7.214993,7.200919,7.187128,7.1747856,7.1645594,7.1556807,7.1462383,7.135171,7.123064,7.1108932,7.0993404,7.090543,7.083168,7.074209,7.0617867,7.0452185,7.0254374,7.00473,6.986615,6.97281,6.9625635,6.956378,6.9500113,6.941992,6.93245,6.9218655,6.9112563,6.8988657,6.882289,6.8643813,6.8484793,6.835601,6.826421,6.8192,6.812704,6.807642,6.807013,6.8126984,6.825641
6.9576187,7.005909,7.050662,7.0925264,7.1360254,7.17963,7.220642,7.2536383,7.280969,7.3052006,7.3281717,7.3549147,7.386641,7.421895,7.4575233,7.489188,7.5189114,7.5527077,7.594947,7.644578,7.697876,7.749446,7.7992945,7.84865,7.8990774,7.948449,7.996288,8.045065,8.095444,8.145557,8.193288,8.238072,8.279293,8.320244,8.364776,8.414245,8.465153,8.515301,8.566302,8.618029,8.671923,8.728899,8.78635,8.847651,8.914375,8.98513,9.052544,9.1174135,9.175037,9.227091,9.274704,9.320061,9.36496,9.411242,9.461929,9.518436,9.570753,9.620072,9.669134,9.715933,9.760508,9.8031,9.844664,9.88488,9.92111,9.950865,9.973782,9.991513,10.005705,10.01865,10.032665,10.048574,10.064319,10.076656,10.085203,10.090256,10.093437,10.096145,10.096977,10.096161,10.094189,10.093773,10.09597,10.099096,10.100418,10.099828,10.0985565,10.09686,10.0946,10.092333,10.091263,10.093054,10.098238,10.107111,10.118132,10.126909,10.133181,10.134543,10.127915,10.110967,10.081169,10.051176,10.012119,9.958748,9.883775,9.790184,9.687502,9.5673275,9.429423,9.271799,9.130429,9.007872,8.909724,8.830514,8.763329,8.70438,8.654785,8.616411,8.5890045,8.568476,8.549227,8.52774,8.503553,8.476191,8.445494,8.412211,8.377319,8.34123,8.304892,8.269157,8.235719,8.205959,8.177746,8.149327,8.118057,8.08486,8.053594,8.026592,8.0038,7.9819455,7.9573565,7.929161,7.8995447,7.8690104,7.8334875,7.7911797,7.7388544,7.6802173,7.6166983,7.5553193,7.4716005,7.331237,7.128761,6.8993034,6.7351694,6.64036,6.6084304,6.6299987,6.690357,6.76696,6.8370924,6.888141,6.9238644,6.951697,6.979706,7.010959,7.0408163,7.066069,7.0846996,7.098131,7.109329,7.118673,7.1252575,7.1279173,7.1262846,7.1218295,7.116349,7.11145,7.107669,7.1043415,7.1004086,7.0954056,7.089158,7.082659,7.076677,7.0737348,7.074627,7.078126,7.0825577,7.085413,7.0846353,7.0799484,7.070829,7.055479,7.0335474,7.003815,6.971178,6.94518,6.9376545,6.9603777,7.018414,7.1174965,7.2501326,7.3814936,7.4947033,7.590256,7.637851,7.6540766,7.664994,7.6740713,7.6831326,7.689892,7.6926165,7.6927123,7.6952057,7.6995907,7.698259,7.6760173,7.6167207,7.508835,7.374431,7.2726803,7.2494435,7.2767954,7.331565,7.3870096,7.4226856,7.4339275,7.4357877,7.432921,7.430189,7.425852,7.421874,7.414382,7.406972,7.401041,7.3957353,7.390927,7.386815,7.383047,7.378564,7.372637,7.367255,7.3629813,7.360075,7.3583326,7.357002,7.355393,7.3537397,7.35233,7.35017,7.3465276,7.3412533,7.335353,7.329358,7.3240013,7.3192244,7.3148203,7.3105106,7.3064847,7.303337,7.3005257,7.296823,7.291527,7.285187,7.278329,7.26959,7.25951,7.247743,7.2347097,7.221427,7.2088485,7.1977797,7.188056,7.1791797,7.169333,7.1563225,7.1419544,7.127777,7.1147113,7.1052647,7.0998,7.095254,7.085611,7.0710773,7.0533657,7.033371,7.0169106,7.0059547,6.999235,6.9937363,6.986532,6.9769654,6.966772,6.95718,6.948457,6.937619,6.925579,6.914541,6.9068947,6.903036,6.9011908,6.9002094,6.8991184,6.900113,6.906684,6.9206634,6.945181
6.9664893,7.014392,7.0597105,7.101996,7.14507,7.1897335,7.229233,7.262207,7.290434,7.3154087,7.339123,7.3661647,7.3983746,7.435294,7.472242,7.5050335,7.535921,7.5708957,7.614381,7.6649075,7.7186375,7.7703266,7.8206053,7.8713074,7.923819,7.9765773,8.026793,8.079246,8.130735,8.181735,8.230849,8.276709,8.320411,8.36474,8.410263,8.456989,8.50476,8.551952,8.599194,8.648586,8.700432,8.754606,8.807073,8.863298,8.924702,8.993615,9.064676,9.128574,9.187235,9.240555,9.289739,9.338074,9.384413,9.428522,9.476506,9.530913,9.591377,9.642662,9.688937,9.733584,9.77651,9.818897,9.862198,9.905823,9.947155,9.9834795,10.013142,10.0362015,10.052635,10.064748,10.076186,10.089558,10.104246,10.117303,10.12733,10.134432,10.140327,10.145998,10.149532,10.150862,10.150366,10.151089,10.15458,10.160175,10.16476,10.167134,10.16818,10.168064,10.166754,10.164904,10.163568,10.164053,10.166792,10.171191,10.176864,10.184157,10.1897545,10.19035,10.184955,10.168244,10.146791,10.123199,10.092702,10.049992,9.989034,9.90902,9.817044,9.710161,9.588503,9.441278,9.284857,9.1599655,9.0548935,8.966189,8.8903055,8.821285,8.760853,8.712434,8.677013,8.650761,8.62748,8.603357,8.577729,8.55022,8.520487,8.488792,8.455105,8.418778,8.379656,8.337999,8.296373,8.25778,8.222036,8.188438,8.154488,8.120595,8.089981,8.064639,8.043447,8.022473,7.999392,7.97233,7.9427958,7.9121456,7.87737,7.836605,7.7874737,7.737891,7.681883,7.6190023,7.532996,7.386873,7.1701365,6.9269896,6.7494793,6.6457305,6.607323,6.6244135,6.682972,6.7623906,6.840754,6.903814,6.952324,6.9888887,7.0223856,7.0581236,7.091504,7.1195107,7.1399417,7.154557,7.1670694,7.1783705,7.1877656,7.1935797,7.1939926,7.1909604,7.18643,7.181472,7.1770124,7.172945,7.1687155,7.164428,7.1602373,7.1573243,7.1574297,7.1604733,7.1674066,7.176071,7.183001,7.184274,7.181427,7.1760597,7.169121,7.159587,7.1453967,7.1237936,7.0992584,7.081625,7.0831203,7.1175666,7.191328,7.3072743,7.4309254,7.556965,7.666215,7.718902,7.7393675,7.7507224,7.755472,7.7594805,7.763302,7.764772,7.7619896,7.7573156,7.758424,7.7660832,7.7765684,7.764022,7.7029157,7.5981503,7.4619093,7.3420386,7.3152423,7.354438,7.429185,7.48518,7.50148,7.495838,7.4846334,7.472821,7.466448,7.461442,7.455678,7.447465,7.4396653,7.4321337,7.4241247,7.4163013,7.4099145,7.405149,7.4007816,7.3959675,7.3907394,7.385935,7.3827963,7.381031,7.379778,7.378098,7.376258,7.3747067,7.37254,7.369003,7.363722,7.357587,7.351153,7.3453984,7.3403482,7.3358183,7.33142,7.327264,7.3239923,7.321089,7.3174577,7.3120427,7.304387,7.295959,7.2874517,7.278652,7.268729,7.2578354,7.246271,7.234624,7.2243357,7.214799,7.2057486,7.195476,7.1821976,7.1666403,7.1512537,7.1374655,7.128176,7.1237636,7.121387,7.1149235,7.1018953,7.083935,7.064414,7.0490875,7.040125,7.035301,7.029416,7.020979,7.0091233,6.996276,6.9863214,6.980799,6.9774704,6.976453,6.979107,6.988362,7.0013256,7.0136986,7.024061,7.030868,7.036836,7.045855,7.0595055,7.076241
6.9766235,7.0245,7.0700083,7.1124725,7.155299,7.198554,7.238429,7.272477,7.3017383,7.327759,7.352374,7.3789296,7.4124894,7.450912,7.4892235,7.523157,7.554939,7.5907393,7.6349773,7.685846,7.7395835,7.7912445,7.842128,7.8946295,7.9493957,8.005037,8.057499,8.112068,8.164928,8.217372,8.267345,8.31458,8.360378,8.405709,8.452377,8.50026,8.548909,8.59638,8.6431465,8.69154,8.741139,8.7913685,8.839085,8.887829,8.9404125,9.000675,9.067217,9.136961,9.1978,9.252602,9.303179,9.351855,9.399702,9.449353,9.499469,9.549612,9.606239,9.665981,9.713986,9.755716,9.796743,9.837856,9.881094,9.926267,9.971485,10.014021,10.051326,10.081592,10.1027775,10.116543,10.1271515,10.138813,10.151976,10.164476,10.175104,10.183971,10.19205,10.199668,10.205765,10.209206,10.210215,10.212232,10.217198,10.224285,10.230869,10.23596,10.238993,10.240156,10.239497,10.237814,10.23609,10.235306,10.235727,10.236782,10.238559,10.24088,10.242775,10.242268,10.236935,10.225649,10.210058,10.191849,10.169209,10.13748,10.090282,10.023778,9.936949,9.843833,9.725834,9.591241,9.436029,9.300698,9.1930685,9.107479,9.024067,8.943389,8.871353,8.812847,8.7698555,8.738467,8.711498,8.684694,8.657333,8.629301,8.600359,8.570517,8.538906,8.503727,8.463205,8.416512,8.366615,8.3182335,8.273717,8.233892,8.197048,8.163084,8.134098,8.110825,8.090899,8.071455,8.048836,8.021801,7.992527,7.961871,7.9276366,7.8878546,7.8416133,7.796405,7.7504234,7.6922297,7.6100736,7.4623275,7.231755,6.9701324,6.771785,6.653413,6.604534,6.615405,6.672947,6.7594485,6.853751,6.9388638,7.005975,7.0509405,7.0886908,7.124584,7.155532,7.1796722,7.195775,7.2065983,7.2169695,7.228544,7.2404146,7.2499194,7.2551026,7.256877,7.255793,7.2530804,7.250005,7.247103,7.2445736,7.243194,7.243524,7.246505,7.2533827,7.263541,7.27538,7.2841873,7.288561,7.286693,7.280651,7.275811,7.27563,7.2798486,7.2842255,7.283547,7.280098,7.28274,7.3041544,7.354623,7.4324265,7.5341654,7.6433306,7.7513123,7.8025203,7.823707,7.8371315,7.843562,7.843499,7.842394,7.841136,7.836954,7.8279724,7.817614,7.8159933,7.824944,7.8450747,7.8415537,7.786536,7.682707,7.5358276,7.414547,7.383937,7.4338164,7.5147343,7.5581627,7.5660653,7.5551524,7.5327787,7.5126724,7.5021744,7.496445,7.4901667,7.4820757,7.4740977,7.4651446,7.4547596,7.444313,7.435787,7.42973,7.424716,7.4196386,7.4144096,7.40954,7.406007,7.404183,7.402978,7.4011745,7.3989964,7.3971615,7.3948812,7.3914614,7.3862906,7.3801107,7.3733363,7.367219,7.3619514,7.3574324,7.3531065,7.3489366,7.3456335,7.342602,7.33771,7.330477,7.3224072,7.3146887,7.3078947,7.301804,7.293741,7.284235,7.273879,7.263469,7.2540274,7.2455816,7.23712,7.2268896,7.213855,7.1990037,7.1845746,7.1724005,7.165827,7.1648035,7.164111,7.158231,7.1449137,7.124077,7.1013603,7.085376,7.077491,7.0717726,7.064021,7.05082,7.033984,7.0208516,7.0142756,7.0152664,7.0224175,7.037037,7.059428,7.0855246,7.1058426,7.1214085,7.1332536,7.142542,7.15134,7.1596622,7.1694374,7.1801586
6.9887953,7.037221,7.082781,7.12519,7.167078,7.2087564,7.2490354,7.2841425,7.314577,7.3416576,7.3669615,7.3926845,7.426944,7.466164,7.505275,7.5399685,7.572402,7.608886,7.653741,7.704799,7.7584534,7.8101583,7.861878,7.916518,7.9740896,8.032213,8.086717,8.142624,8.197664,8.251593,8.302679,8.351604,8.400274,8.4478,8.495511,8.543969,8.593164,8.643394,8.692581,8.7409,8.788556,8.836308,8.881523,8.924011,8.969109,9.0214205,9.080681,9.147311,9.215086,9.2730055,9.322934,9.372016,9.4211235,9.471256,9.523821,9.578661,9.633143,9.688774,9.742174,9.787646,9.827602,9.86703,9.908972,9.953865,10.000797,10.047328,10.090639,10.12764,10.154703,10.1723,10.184369,10.195824,10.207804,10.219236,10.229712,10.239731,10.249988,10.260195,10.2681055,10.273375,10.275726,10.278702,10.284661,10.29306,10.301012,10.307451,10.312077,10.314206,10.313994,10.312397,10.310421,10.308804,10.307644,10.306431,10.305454,10.30475,10.304216,10.302559,10.297751,10.28875,10.276283,10.261789,10.244704,10.221496,10.186031,10.131939,10.053844,9.959227,9.852216,9.724263,9.572155,9.430683,9.320648,9.232744,9.150404,9.068115,8.984789,8.917043,8.866983,8.830425,8.799278,8.768949,8.738777,8.709018,8.679741,8.651039,8.621602,8.588624,8.548494,8.498833,8.44236,8.38522,8.332308,8.286297,8.246685,8.21299,8.185743,8.1641865,8.145693,8.12698,8.103776,8.076393,8.04825,8.018449,7.9851418,7.945358,7.900731,7.858352,7.8184013,7.766196,7.686672,7.543531,7.3062873,7.02291,6.799363,6.663024,6.6019197,6.606538,6.6647205,6.7621193,6.878767,6.9946847,7.083561,7.1411524,7.1827164,7.215603,7.2408915,7.2584558,7.2672462,7.270773,7.275201,7.2831593,7.293689,7.305761,7.3166513,7.3248386,7.3298435,7.332559,7.333888,7.334384,7.334527,7.335683,7.3385863,7.3427753,7.349907,7.358965,7.368973,7.3768787,7.379814,7.376867,7.3716526,7.374087,7.389721,7.418606,7.4523067,7.4809046,7.505148,7.5318384,7.5684967,7.6234565,7.6972117,7.7821093,7.8611903,7.896233,7.918219,7.9332004,7.938405,7.9368544,7.9311,7.9242997,7.9172444,7.9069815,7.8916273,7.875267,7.8699064,7.8795414,7.9043684,7.9092035,7.858488,7.7574296,7.6006327,7.4778605,7.443244,7.5018005,7.5835915,7.6153507,7.62254,7.6051774,7.5751853,7.5504436,7.537385,7.5320654,7.526848,7.5194883,7.5115356,7.501343,7.488985,7.476399,7.4660163,7.458601,7.452506,7.4463797,7.440286,7.4347467,7.430479,7.4282207,7.4267015,7.4244566,7.4216647,7.4193306,7.4168425,7.413624,7.408869,7.403143,7.396633,7.390712,7.385712,7.3815727,7.3775535,7.373522,7.3700557,7.3657093,7.359581,7.3522987,7.34461,7.3383985,7.3332543,7.3285193,7.3238087,7.3182144,7.31131,7.3036413,7.2963715,7.2894945,7.28193,7.2727985,7.2613378,7.2486105,7.2378435,7.2307806,7.229283,7.233028,7.233146,7.225589,7.207463,7.1785474,7.1501503,7.1266766,7.114995,7.107321,7.0982904,7.084318,7.06896,7.060236,7.0594783,7.0689,7.088955,7.1185546,7.148102,7.173458,7.1946096,7.2129965,7.2276297,7.2386665,7.247559,7.25475,7.2560716,7.2574234
7.0031786,7.0527534,7.0985975,7.140238,7.1806874,7.2210655,7.2609277,7.296645,7.328027,7.3558693,7.380209,7.405385,7.4392767,7.478303,7.5173845,7.5523252,7.5851984,7.6223555,7.6679068,7.7193203,7.7731333,7.825189,7.878022,7.9350653,7.996167,8.057407,8.114027,8.17104,8.228312,8.283943,8.337536,8.387695,8.437052,8.486053,8.534813,8.584532,8.635727,8.688614,8.741429,8.791632,8.838663,8.884201,8.926796,8.969381,9.011034,9.058567,9.112816,9.174463,9.239973,9.300274,9.349093,9.397793,9.447081,9.497787,9.550964,9.608238,9.666918,9.722689,9.774356,9.821231,9.866095,9.905342,9.945842,9.989594,10.03656,10.084658,10.131304,10.172903,10.20525,10.227753,10.243257,10.256369,10.2682905,10.279013,10.289238,10.300226,10.312574,10.325386,10.335778,10.342604,10.346053,10.349745,10.356354,10.365522,10.374608,10.382116,10.388034,10.390975,10.391135,10.3896055,10.387482,10.385357,10.38323,10.380617,10.377841,10.375025,10.372524,10.369534,10.364502,10.356428,10.345543,10.333019,10.31925,10.301977,10.275853,10.232699,10.16333,10.068525,9.969772,9.840411,9.701838,9.554835,9.439104,9.349491,9.268023,9.185791,9.101047,9.024461,8.967301,8.924631,8.887909,8.8525505,8.818061,8.785045,8.753956,8.725231,8.697544,8.667352,8.629215,8.57896,8.518426,8.454691,8.3948145,8.343327,8.301142,8.2675295,8.241576,8.221268,8.2034,8.183685,8.15961,8.133714,8.107996,8.080642,8.049576,8.00913,7.9649734,7.923588,7.885065,7.8343177,7.7630157,7.6212196,7.3798313,7.0785856,6.8236847,6.671524,6.60011,6.598941,6.659201,6.76989,6.913436,7.06611,7.174268,7.243243,7.2911773,7.326869,7.353238,7.366887,7.3686676,7.3628182,7.356913,7.3548636,7.359791,7.372265,7.387377,7.40264,7.4164653,7.4284296,7.43554,7.4388256,7.439322,7.4384017,7.436936,7.4359636,7.4359493,7.4368677,7.438879,7.4404874,7.439685,7.4380245,7.442005,7.462875,7.5061054,7.5663757,7.6316137,7.6879807,7.736464,7.7836246,7.830959,7.884107,7.9494762,7.9830894,8.011117,8.0302305,8.043282,8.047211,8.043446,8.033253,8.020092,8.006788,7.992985,7.9759893,7.9540253,7.931531,7.9219494,7.930544,7.9582896,7.9649286,7.9184456,7.8173013,7.6526012,7.522691,7.4842405,7.548257,7.6342163,7.6651382,7.670857,7.6475506,7.6120486,7.58762,7.573612,7.568987,7.5660996,7.5602884,7.5527477,7.541572,7.5275717,7.5132437,7.5012455,7.4924183,7.4848914,7.4772005,7.469365,7.4621944,7.4568186,7.453581,7.4511642,7.447956,7.4441504,7.4410152,7.438121,7.435018,7.430848,7.42609,7.4206066,7.415707,7.411709,7.4084487,7.4049563,7.4016275,7.399279,7.395092,7.3884373,7.3799925,7.372595,7.3681035,7.3644857,7.3645515,7.3635316,7.3600883,7.35556,7.3504515,7.345296,7.3404055,7.3355694,7.330199,7.3243856,7.318877,7.315193,7.314334,7.31676,7.3209577,7.3201876,7.30933,7.2848425,7.2490435,7.204769,7.1696305,7.1517816,7.1422014,7.135765,7.1265936,7.118946,7.119562,7.1294594,7.151784,7.1826143,7.208252,7.231941,7.2546444,7.274845,7.2930293,7.308504,7.312869,7.314059,7.314004,7.313596,7.313294
7.018235,7.069766,7.116227,7.156928,7.195568,7.2344227,7.273486,7.309668,7.341963,7.3704586,7.393793,7.4181585,7.451315,7.4898663,7.528773,7.5639977,7.597479,7.635552,7.682102,7.734259,7.7885776,7.8412366,7.8952312,7.9544954,8.018414,8.081638,8.140462,8.198046,8.256926,8.314041,8.369563,8.422558,8.472915,8.522441,8.5721035,8.622601,8.674625,8.728952,8.784931,8.837858,8.885817,8.93145,8.97411,9.017583,9.06378,9.110438,9.161694,9.219015,9.279814,9.3344965,9.381265,9.429028,9.478172,9.529659,9.584295,9.642793,9.705484,9.763785,9.815777,9.862719,9.906509,9.94994,9.98925,10.0311985,10.076704,10.123911,10.170837,10.214308,10.250631,10.278493,10.299019,10.315443,10.32841,10.338905,10.348967,10.36087,10.375292,10.3908615,10.404066,10.413136,10.417946,10.422399,10.4294815,10.439381,10.4494705,10.458119,10.465039,10.468556,10.46888,10.467269,10.464914,10.462285,10.459332,10.455625,10.4515295,10.447147,10.443037,10.438632,10.432718,10.424413,10.4135275,10.400967,10.3878975,10.373375,10.3533325,10.31881,10.257677,10.166992,10.065032,9.944356,9.811395,9.67421,9.557189,9.464228,9.380597,9.299904,9.2227745,9.142015,9.076585,9.026317,8.982688,8.941393,8.901882,8.864645,8.830166,8.799207,8.770856,8.740633,8.703003,8.653713,8.591593,8.523962,8.459301,8.40353,8.35873,8.324059,8.297537,8.277331,8.259052,8.238872,8.215971,8.193949,8.173267,8.151195,8.120578,8.0809765,8.037121,7.9945297,7.954501,7.899614,7.82751,7.6987267,7.4546385,7.139588,6.8492923,6.678417,6.598344,6.586193,6.6485963,6.7748113,6.945771,7.128474,7.264638,7.347975,7.4017105,7.440381,7.4721446,7.496233,7.5034175,7.4929676,7.4758835,7.4596834,7.4551725,7.461767,7.4757276,7.4944196,7.512026,7.5276036,7.540769,7.548606,7.5493364,7.543964,7.533292,7.5193357,7.502623,7.488166,7.4786024,7.4741535,7.474574,7.482584,7.5052977,7.552987,7.625393,7.719403,7.8199153,7.899207,7.953712,8.002756,8.05452,8.087504,8.115744,8.139891,8.154961,8.161978,8.162274,8.156256,8.144437,8.1263275,8.1058445,8.086461,8.066188,8.042794,8.014644,7.9864864,7.9728923,7.979871,8.008764,8.015755,7.9690933,7.867637,7.695835,7.554736,7.512541,7.581068,7.6733093,7.705504,7.709756,7.683438,7.645672,7.6213255,7.6096835,7.607275,7.6063194,7.602666,7.596855,7.5847282,7.5695214,7.5543528,7.5414944,7.531251,7.521838,7.511858,7.501689,7.4925804,7.4858084,7.4812126,7.4774714,7.4729385,7.4678297,7.4636927,7.46027,7.4572835,7.4540477,7.4510565,7.4478006,7.445133,7.4430146,7.4409237,7.438203,7.435893,7.4347095,7.43237,7.4270535,7.4203653,7.4138947,7.411113,7.412774,7.412798,7.414052,7.4167266,7.4161835,7.4134617,7.4106984,7.408864,7.4078307,7.4063115,7.404272,7.4027133,7.402669,7.404567,7.4080105,7.410974,7.408021,7.395,7.3684826,7.329627,7.272928,7.223319,7.1961904,7.1831713,7.178813,7.177842,7.1837044,7.199379,7.228195,7.2549877,7.273691,7.2940164,7.3134966,7.3338976,7.353113,7.3669577,7.370919,7.371619,7.370372,7.3679276,7.36473,7.3617067
7.015292,7.06915,7.1163425,7.1559086,7.1923404,7.229361,7.267396,7.3039026,7.337048,7.3661084,7.3887734,7.412338,7.4446683,7.4826584,7.5213327,7.556767,7.590781,7.6296597,7.6771154,7.729911,7.784499,7.8373985,7.8919573,7.9525194,8.018127,8.08148,8.14016,8.197236,8.255758,8.313835,8.370773,8.425585,8.478109,8.528723,8.578916,8.629917,8.6827,8.7374,8.792526,8.847101,8.896795,8.94352,8.988176,9.034458,9.083431,9.134838,9.186574,9.239462,9.292204,9.337938,9.382971,9.428932,9.477043,9.52857,9.583998,9.643379,9.707476,9.767572,9.820654,9.868272,9.91181,9.955507,9.993624,10.033497,10.076558,10.121246,10.166423,10.209993,10.249194,10.281998,10.307646,10.327415,10.341348,10.351424,10.361017,10.373463,10.389525,10.407547,10.423519,10.435049,10.441614,10.446978,10.454644,10.465261,10.476297,10.486086,10.49388,10.497892,10.498373,10.496756,10.494284,10.491266,10.487635,10.483064,10.478104,10.472759,10.467638,10.462232,10.455457,10.446543,10.434962,10.421341,10.407466,10.393591,10.377155,10.349301,10.295917,10.211288,10.110292,9.999163,9.869078,9.747946,9.635849,9.541639,9.455217,9.371508,9.294214,9.225857,9.157034,9.098137,9.047217,9.00039,8.955925,8.914789,8.876938,8.842705,8.811028,8.777952,8.73951,8.690489,8.629597,8.560879,8.493908,8.435408,8.388059,8.350811,8.3218355,8.300034,8.2807665,8.26169,8.24308,8.227413,8.213418,8.196192,8.170439,8.134254,8.09063,8.045833,7.998255,7.9312162,7.856839,7.742139,7.515384,7.1872168,6.8647814,6.668535,6.5750732,6.556365,6.6153708,6.753175,6.949094,7.1660843,7.323295,7.409872,7.463337,7.5100336,7.5564632,7.601065,7.627534,7.629665,7.6069355,7.5789676,7.559986,7.5541286,7.558714,7.569746,7.5861053,7.6054716,7.623204,7.6331043,7.632434,7.6200657,7.594389,7.5624757,7.5293794,7.502262,7.486115,7.482192,7.4913826,7.516329,7.5640373,7.636465,7.7346144,7.8642936,7.9886894,8.072966,8.125857,8.158052,8.187252,8.21666,8.242459,8.2565,8.259365,8.2539215,8.243424,8.227528,8.2077465,8.184492,8.159963,8.136045,8.110887,8.082291,8.048967,8.016205,7.9994483,8.005127,8.034721,8.04082,7.992821,7.890121,7.7121196,7.559909,7.5135775,7.5846577,7.685215,7.7191157,7.722801,7.6953506,7.658081,7.6342716,7.6244125,7.6244164,7.625446,7.621757,7.6148615,7.605034,7.5907917,7.5751457,7.561668,7.5503626,7.5393744,7.527769,7.515952,7.505253,7.4970026,7.490968,7.4857707,7.4798365,7.473416,7.4682937,7.4644136,7.4616604,7.4597063,7.4590607,7.4588485,7.459195,7.459339,7.4586506,7.457074,7.4547663,7.4532514,7.4533525,7.4517546,7.447832,7.4448023,7.4429455,7.4434566,7.4469414,7.4528456,7.4566154,7.4577913,7.4567633,7.4555626,7.4550405,7.4553814,7.4559793,7.456623,7.4578056,7.460547,7.4651732,7.470765,7.4745874,7.470813,7.455141,7.4249487,7.383034,7.326806,7.2684774,7.23123,7.211459,7.2077966,7.213833,7.234906,7.266741,7.295044,7.31494,7.331484,7.3503737,7.3708115,7.3893394,7.39822,7.400876,7.4009476,7.3988895,7.394861,7.389579,7.3838453,7.3787546
7.0118,7.067898,7.1160164,7.1548347,7.189601,7.225357,7.262477,7.2994037,7.333364,7.362755,7.385128,7.4079285,7.4396687,7.4774876,7.516324,7.552098,7.586482,7.625864,7.673993,7.727399,7.782264,7.835249,7.88992,7.9511204,8.017059,8.079608,8.137271,8.193565,8.250753,8.308918,8.366711,8.422857,8.477041,8.529144,8.579832,8.631282,8.684544,8.739906,8.7957,8.850349,8.901234,8.948756,8.995029,9.044342,9.096373,9.149031,9.200319,9.249899,9.295573,9.340039,9.383497,9.428295,9.475522,9.526767,9.582333,9.641701,9.705763,9.765852,9.819655,9.868352,9.912557,9.954681,9.9919815,10.030476,10.071571,10.1140175,10.157566,10.201366,10.24345,10.281089,10.311537,10.334137,10.348464,10.357584,10.366184,10.378489,10.395351,10.414997,10.433159,10.44693,10.455247,10.461596,10.469746,10.4807415,10.492359,10.502822,10.510993,10.515062,10.515406,10.513676,10.511117,10.507804,10.503615,10.4983425,10.492802,10.486942,10.481285,10.47524,10.467648,10.4578495,10.445164,10.430012,10.414291,10.399481,10.384537,10.361063,10.314108,10.235947,10.139142,10.036024,9.911152,9.795584,9.69277,9.602971,9.516129,9.430171,9.349026,9.276824,9.212917,9.150775,9.094063,9.044113,8.998929,8.95651,8.916096,8.877911,8.841587,8.8053,8.765051,8.715994,8.65592,8.588502,8.520533,8.459789,8.409268,8.367792,8.335596,8.311198,8.290989,8.274249,8.261,8.250866,8.243066,8.232142,8.211692,8.179262,8.136736,8.090821,8.032484,7.9640856,7.888837,7.7822657,7.5855026,7.2474885,6.8910303,6.663438,6.554517,6.5303555,6.5836153,6.7237873,6.942992,7.1882014,7.364538,7.4521694,7.499379,7.5428457,7.5978785,7.6632986,7.7143335,7.7321496,7.719936,7.6875815,7.660038,7.64258,7.6372595,7.6420927,7.655342,7.674281,7.6965494,7.7124,7.7113247,7.6960635,7.665022,7.6235666,7.585396,7.5576086,7.54641,7.5528326,7.577816,7.622465,7.6862593,7.7725744,7.896308,8.045435,8.160963,8.2158985,8.2489805,8.276176,8.302836,8.327499,8.343328,8.347054,8.337409,8.322378,8.302264,8.279709,8.255343,8.22958,8.202356,8.175967,8.147831,8.115722,8.078772,8.042893,8.0242405,8.0293,8.060351,8.063521,8.012188,7.906852,7.723199,7.561346,7.512086,7.5854588,7.692687,7.7282577,7.732205,7.704721,7.666939,7.6433883,7.6354055,7.636808,7.6390705,7.6357164,7.629071,7.618126,7.6062593,7.5917616,7.5777493,7.5654573,7.5530434,7.5398293,7.5265894,7.5146523,7.5053263,7.498272,7.492034,7.485122,7.4777875,7.4720125,7.4679585,7.465667,7.4651284,7.4668703,7.4696636,7.4729605,7.4754524,7.4774737,7.4764786,7.473916,7.472822,7.4742575,7.4749317,7.473413,7.4711933,7.4696465,7.4722176,7.480205,7.488863,7.4947543,7.4975314,7.4978666,7.498355,7.499938,7.5025063,7.5049686,7.507105,7.5097685,7.5143003,7.5187297,7.521661,7.5223,7.5160575,7.500044,7.4741383,7.438526,7.389885,7.3347487,7.2938704,7.267766,7.2607374,7.27039,7.2980533,7.3236647,7.347787,7.3682804,7.387429,7.404625,7.4165297,7.423765,7.4270725,7.4265375,7.423355,7.418543,7.4122696,7.404972,7.397601,7.3911743
7.0091753,7.0669203,7.1159096,7.154427,7.18834,7.2230425,7.2595606,7.2970314,7.3315506,7.360746,7.383016,7.404947,7.4362907,7.474324,7.5136375,7.5496283,7.583849,7.623062,7.6713753,7.7252483,7.7804565,7.833474,7.88781,7.948883,8.01263,8.074235,8.130972,8.185565,8.24188,8.299679,8.357664,8.414659,8.470562,8.524553,8.57592,8.628085,8.682108,8.738241,8.794584,8.849369,8.900654,8.949934,8.995857,9.046574,9.100438,9.153759,9.204029,9.249914,9.293975,9.33809,9.381556,9.426702,9.473209,9.523569,9.5784645,9.63682,9.698698,9.7578335,9.812164,9.86191,9.907293,9.946661,9.983587,10.021631,10.062017,10.103495,10.146692,10.191847,10.237471,10.279898,10.314525,10.3390255,10.352877,10.360384,10.367398,10.378834,10.395559,10.41582,10.435277,10.450642,10.460252,10.467232,10.475461,10.486251,10.497718,10.507994,10.515745,10.519299,10.5191345,10.517168,10.514594,10.511221,10.506745,10.501041,10.495226,10.489199,10.483286,10.476891,10.468569,10.457792,10.443829,10.426903,10.409326,10.393076,10.378637,10.358136,10.31661,10.245043,10.154747,10.057068,9.936713,9.824659,9.725948,9.640303,9.55727,9.471432,9.3887615,9.313657,9.246812,9.182207,9.125098,9.073282,9.026843,8.98408,8.942808,8.902611,8.8638115,8.824951,8.783035,8.732688,8.673124,8.608072,8.539419,8.4762,8.421963,8.375947,8.340044,8.313326,8.293016,8.279188,8.271273,8.266233,8.262663,8.255413,8.238438,8.20968,8.169704,8.12352,8.0589695,7.992914,7.9254923,7.831892,7.6614513,7.3288145,6.9328384,6.6685066,6.5407085,6.508235,6.558676,6.6990604,6.935695,7.2005754,7.3909197,7.473793,7.5078897,7.541188,7.5936737,7.671486,7.7463355,7.786479,7.791122,7.7702994,7.742994,7.7206936,7.708968,7.707492,7.715947,7.7335663,7.7572803,7.777255,7.7854614,7.779887,7.757531,7.72686,7.698243,7.6863747,7.6945543,7.722583,7.7663956,7.820243,7.894337,7.998594,8.135109,8.246727,8.304298,8.342852,8.369242,8.388068,8.405291,8.413275,8.411596,8.401369,8.3861,8.365677,8.343412,8.319628,8.291735,8.263153,8.234281,8.206545,8.176732,8.14258,8.103659,8.0663,8.047114,8.052576,8.085569,8.084604,8.028152,7.9182386,7.729064,7.5599008,7.509729,7.5861044,7.6987667,7.736183,7.740333,7.711982,7.6732073,7.6492667,7.641753,7.643546,7.646915,7.6443605,7.637765,7.6266875,7.614298,7.6021338,7.5881395,7.5748987,7.561191,7.5466146,7.532323,7.519597,7.5096607,7.502058,7.495247,7.487829,7.480041,7.47407,7.4702926,7.468781,7.469659,7.473272,7.4780073,7.482519,7.484177,7.488414,7.489381,7.4885974,7.487849,7.488225,7.489834,7.49185,7.4940166,7.497103,7.503474,7.5134063,7.5239916,7.531511,7.535425,7.5366454,7.538107,7.540841,7.5444202,7.5455966,7.5447216,7.5447865,7.5463953,7.5497456,7.553706,7.55521,7.5505314,7.5368223,7.5133696,7.483796,7.4521008,7.412088,7.377334,7.3538494,7.341963,7.3435802,7.35946,7.3790417,7.4026303,7.4199247,7.428266,7.4363737,7.4446516,7.4494753,7.4493923,7.4452305,7.4388676,7.431594,7.423522,7.4148436,7.4065285,7.3992677
7.009151,7.0676827,7.1171474,7.1557274,7.189677,7.2233076,7.2601037,7.2984834,7.333309,7.361933,7.384411,7.4057803,7.437289,7.4758167,7.5153847,7.551073,7.584364,7.6224957,7.6709356,7.7263317,7.7831593,7.837001,7.890746,7.94866,8.009502,8.069937,8.123705,8.177849,8.233602,8.290766,8.348454,8.406284,8.4652,8.521587,8.573581,8.626853,8.682368,8.739757,8.797007,8.851875,8.902383,8.951349,8.99865,9.050237,9.104578,9.157175,9.205339,9.249703,9.293312,9.337956,9.383009,9.429225,9.476159,9.525511,9.578603,9.635841,9.693229,9.749281,9.803214,9.85337,9.899809,9.937315,9.974711,10.013639,10.054943,10.097153,10.141291,10.188377,10.237139,10.283266,10.320897,10.346508,10.359706,10.365761,10.371271,10.381563,10.397528,10.417595,10.437637,10.454155,10.464912,10.472369,10.480423,10.490527,10.501239,10.510662,10.517201,10.519846,10.518858,10.516434,10.513741,10.51037,10.505811,10.499907,10.4941635,10.488228,10.482117,10.474903,10.465374,10.453392,10.438292,10.420149,10.401148,10.383448,10.3685255,10.349459,10.312025,10.246855,10.164075,10.071554,9.956186,9.847179,9.750732,9.665863,9.587798,9.503807,9.420812,9.34374,9.273681,9.205521,9.14637,9.095015,9.048155,9.005644,8.964602,8.924072,8.88411,8.843751,8.80017,8.749279,8.690785,8.627474,8.559351,8.493286,8.434986,8.384823,8.345656,8.317713,8.2985115,8.287439,8.282572,8.280819,8.279081,8.271856,8.256279,8.232029,8.1963215,8.152507,8.085475,8.023655,7.965743,7.891792,7.7520533,7.4288197,6.9938126,6.683008,6.5335903,6.4893274,6.5324845,6.671359,6.919142,7.2111416,7.421777,7.5056124,7.5258875,7.537513,7.5675373,7.6394815,7.7281446,7.80031,7.8294497,7.8322496,7.824147,7.8123264,7.804387,7.8023825,7.8084917,7.8237906,7.8465157,7.870679,7.8906016,7.902591,7.9041767,7.9014893,7.9016643,7.915964,7.9464917,7.993046,8.054995,8.128042,8.207923,8.298961,8.369667,8.40971,8.446304,8.469275,8.472888,8.469736,8.465069,8.458838,8.448933,8.434104,8.414585,8.39282,8.3712,8.349642,8.323978,8.294432,8.264054,8.23464,8.203106,8.167358,8.127413,8.089603,8.070259,8.0766535,8.109518,8.103383,8.040707,7.9222918,7.727894,7.5531807,7.504185,7.583672,7.7016096,7.741083,7.745823,7.7174153,7.6782064,7.6540394,7.6467953,7.648593,7.6523314,7.649976,7.6433563,7.6325064,7.6203785,7.60841,7.5956674,7.581601,7.566909,7.551428,7.5365424,7.523392,7.5130253,7.504962,7.497696,7.4900093,7.4822474,7.4767237,7.473939,7.4737377,7.475836,7.479789,7.4830437,7.4846444,7.4874334,7.4926844,7.4950867,7.495839,7.4969325,7.4997787,7.506896,7.5151606,7.521019,7.5260725,7.5334654,7.543953,7.555481,7.564183,7.568263,7.569351,7.5696373,7.5692234,7.569625,7.5698915,7.569401,7.569177,7.5704603,7.571185,7.570784,7.569619,7.5666323,7.5599947,7.5495887,7.527216,7.4998837,7.4763784,7.4537263,7.4330716,7.4206085,7.416354,7.42373,7.4379444,7.446829,7.452921,7.458583,7.4636016,7.4679375,7.468379,7.465534,7.459222,7.4510517,7.442401,7.433428,7.424146,7.415596,7.4079905
7.00749,7.0657797,7.1148167,7.1536927,7.1875687,7.2216425,7.25972,7.299075,7.3340297,7.3619947,7.3845606,7.406469,7.4384837,7.4764557,7.514459,7.54999,7.583532,7.620307,7.66916,7.7271223,7.7852325,7.8384113,7.8907804,7.9463387,8.004852,8.060132,8.112765,8.166581,8.22184,8.278254,8.335514,8.395119,8.456467,8.515975,8.570548,8.625964,8.68355,8.74274,8.801237,8.855663,8.903844,8.950878,8.998964,9.050907,9.105261,9.15707,9.203384,9.245453,9.287527,9.332197,9.378788,9.426043,9.473729,9.523036,9.574838,9.626734,9.679153,9.732786,9.785213,9.834972,9.881138,9.919027,9.957428,9.998023,10.041288,10.085425,10.131266,10.180124,10.230932,10.279213,10.318642,10.345097,10.358227,10.363695,10.368321,10.377613,10.392607,10.412154,10.432522,10.450113,10.462081,10.470268,10.478203,10.487516,10.497206,10.505454,10.510498,10.511951,10.509948,10.506828,10.503756,10.500406,10.496026,10.490179,10.484056,10.477497,10.470505,10.462144,10.451521,10.438832,10.423479,10.405201,10.38582,10.367382,10.3518305,10.333579,10.299501,10.240894,10.165146,10.0796585,9.9662285,9.860037,9.768079,9.68428,9.607413,9.529142,9.446142,9.36737,9.294264,9.22191,9.161006,9.109108,9.062871,9.020615,8.980257,8.940296,8.900322,8.859474,8.815329,8.765272,8.708725,8.647028,8.580864,8.51248,8.450113,8.396724,8.354673,8.326143,8.30851,8.299239,8.294949,8.293993,8.290527,8.280969,8.266352,8.246667,8.217396,8.175964,8.110248,8.049382,8.000048,7.9436994,7.8395066,7.539698,7.0643444,6.6988125,6.5235224,6.4655952,6.496539,6.628239,6.887841,7.22174,7.485075,7.5799193,7.586501,7.5573444,7.5620747,7.6197796,7.710518,7.8046093,7.8679414,7.9074774,7.931028,7.943616,7.950409,7.954259,7.960196,7.9716167,7.989138,8.011537,8.037718,8.063778,8.087243,8.115849,8.152643,8.198233,8.2494335,8.306268,8.370729,8.43853,8.485382,8.506163,8.527628,8.538098,8.536544,8.532379,8.5248375,8.514914,8.503712,8.491182,8.475957,8.457168,8.435501,8.412775,8.390533,8.36809,8.346176,8.322733,8.292794,8.260791,8.227546,8.190251,8.149426,8.111308,8.091518,8.097328,8.127453,8.115833,8.046841,7.916726,7.718854,7.5387325,7.492483,7.5736213,7.6956234,7.7397003,7.74512,7.717078,7.678711,7.6554074,7.6486654,7.6505938,7.654231,7.650996,7.6442194,7.6336756,7.6223736,7.610785,7.5982637,7.5845494,7.569353,7.5533247,7.538005,7.5244226,7.513449,7.5047398,7.496965,7.4891534,7.4818764,7.4775085,7.4764605,7.4780784,7.4804993,7.482045,7.482932,7.484481,7.4865675,7.4898825,7.4931507,7.496187,7.5002403,7.5083103,7.5209904,7.5330353,7.5422797,7.5492115,7.556877,7.5667505,7.5770054,7.5845714,7.583828,7.580538,7.5794024,7.5804224,7.580495,7.5794487,7.577467,7.575263,7.5735254,7.5729365,7.573147,7.5723476,7.5700493,7.56476,7.555448,7.543302,7.529099,7.5153522,7.499812,7.4884224,7.481909,7.476014,7.4701133,7.4701447,7.472989,7.4749737,7.474284,7.472686,7.470941,7.4683394,7.4642477,7.458811,7.452382,7.4449444,7.4366837,7.4279385,7.4196806,7.411822
7.0075893,7.065048,7.1131096,7.1526117,7.187542,7.223247,7.263173,7.303667,7.339134,7.366138,7.387595,7.4107027,7.4425316,7.4803276,7.518499,7.5520678,7.5845222,7.622147,7.6711645,7.7293406,7.787698,7.8418255,7.893633,7.946516,7.999052,8.050424,8.102102,8.1558485,8.211247,8.267588,8.324885,8.386041,8.449192,8.510515,8.567917,8.626099,8.685594,8.745757,8.804924,8.859707,8.907741,8.954443,9.0022545,9.054256,9.108625,9.159109,9.202377,9.241504,9.280885,9.32494,9.371218,9.419224,9.467727,9.517378,9.566652,9.614758,9.664965,9.716547,9.767311,9.816082,9.861675,9.899644,9.939089,9.981811,10.027722,10.074366,10.121925,10.171728,10.223062,10.271856,10.3121395,10.339601,10.353598,10.359554,10.364063,10.372755,10.386939,10.406006,10.42672,10.445383,10.45858,10.467597,10.475445,10.483987,10.492659,10.499943,10.503905,10.504267,10.501562,10.497963,10.494627,10.491375,10.487119,10.481172,10.474636,10.467368,10.459419,10.449931,10.438435,10.425431,10.4104,10.39274,10.37376,10.355087,10.338879,10.320826,10.288978,10.236195,10.165921,10.087746,9.9761715,9.871395,9.783629,9.700844,9.62535,9.550872,9.471345,9.391485,9.316706,9.242676,9.180796,9.128721,9.083025,9.040855,9.001141,8.96187,8.922176,8.881159,8.83823,8.790317,8.7368965,8.678154,8.613543,8.545389,8.478777,8.421299,8.37591,8.344786,8.326425,8.316162,8.30999,8.305992,8.300039,8.290295,8.277752,8.262971,8.240316,8.199635,8.1395235,8.079824,8.03977,7.998605,7.9251966,7.660932,7.1514645,6.720539,6.5153685,6.44147,6.4579134,6.576357,6.8494205,7.2567043,7.602518,7.7325573,7.7321396,7.689228,7.666978,7.7013073,7.786108,7.8888445,7.9838867,8.062561,8.118319,8.153844,8.176955,8.188723,8.193584,8.1979885,8.206939,8.222374,8.245757,8.277109,8.31673,8.363425,8.420585,8.486318,8.536499,8.568022,8.594863,8.618825,8.632867,8.630278,8.622777,8.613327,8.602321,8.588966,8.573258,8.555851,8.537546,8.518409,8.498245,8.476506,8.453791,8.431672,8.409246,8.386532,8.363224,8.340139,8.314341,8.283478,8.252092,8.216743,8.175697,8.136822,8.115483,8.118944,8.141487,8.124315,8.049925,7.908339,7.712746,7.5313883,7.488303,7.570094,7.692649,7.738193,7.7446423,7.717906,7.681364,7.6594343,7.6531525,7.6560416,7.6577406,7.6534996,7.6466885,7.6365347,7.625533,7.6143446,7.6022816,7.589716,7.575081,7.5589123,7.54275,7.528063,7.515668,7.50547,7.4965744,7.488376,7.481776,7.479069,7.4804606,7.4827957,7.482291,7.4831033,7.4831924,7.483391,7.484297,7.486252,7.4896855,7.4951897,7.503418,7.5174475,7.5347557,7.5499787,7.562354,7.5715656,7.5784264,7.5852957,7.588995,7.5879827,7.5850334,7.5814967,7.579446,7.577877,7.5778723,7.5773983,7.5754147,7.572913,7.570883,7.569915,7.5696,7.568144,7.565639,7.5612555,7.554127,7.5441313,7.532461,7.521705,7.5127277,7.504672,7.4971952,7.49087,7.4868135,7.483938,7.480915,7.4773817,7.4738464,7.4708366,7.468212,7.465156,7.461127,7.455965,7.4498644,7.4426727,7.434602,7.426029,7.417905,7.4102345
7.0079994,7.0653934,7.113758,7.153805,7.190263,7.227988,7.2688413,7.309246,7.345808,7.372224,7.392054,7.4149694,7.4479513,7.4866905,7.5234547,7.554867,7.5874453,7.623955,7.6729364,7.7309475,7.7895374,7.84453,7.895153,7.942827,7.9902945,8.039521,8.090365,8.144234,8.200318,8.2574005,8.315431,8.377537,8.441193,8.502523,8.56226,8.621965,8.682306,8.742632,8.802078,8.857601,8.906596,8.954361,9.003302,9.056316,9.110515,9.157944,9.19775,9.235679,9.272713,9.314095,9.359268,9.407581,9.456893,9.506314,9.553972,9.601273,9.650755,9.701128,9.750746,9.798653,9.841911,9.879455,9.919775,9.964631,10.01329,10.062441,10.111329,10.161261,10.211985,10.260254,10.300907,10.329706,10.345463,10.352732,10.357756,10.366293,10.379977,10.398737,10.419775,10.439304,10.453444,10.463059,10.470691,10.478479,10.486258,10.492851,10.496456,10.496561,10.493523,10.489835,10.486647,10.483379,10.479294,10.473438,10.466544,10.458582,10.449747,10.439334,10.427251,10.414157,10.39967,10.3829565,10.364832,10.346386,10.329678,10.311525,10.281535,10.232941,10.166683,10.094844,9.987793,9.882916,9.797962,9.716432,9.642688,9.57011,9.496231,9.4171915,9.342082,9.269474,9.207216,9.154474,9.108426,9.066692,9.027603,8.988953,8.949648,8.909199,8.866644,8.82157,8.772824,8.719002,8.657141,8.590019,8.521349,8.458027,8.408288,8.372147,8.349263,8.334339,8.323721,8.31587,8.309378,8.300882,8.2915,8.282879,8.263683,8.22283,8.170693,8.114659,8.082108,8.058566,8.014089,7.7812066,7.2536974,6.7457533,6.505439,6.4111156,6.412305,6.518038,6.8001413,7.313823,7.777811,7.987701,8.013157,7.961889,7.9183173,7.929307,7.997553,8.101459,8.21286,8.312143,8.37471,8.403276,8.424301,8.4351635,8.440141,8.44372,8.450352,8.463638,8.484499,8.517046,8.555824,8.590689,8.624527,8.660034,8.696282,8.7186165,8.731472,8.736434,8.731842,8.718934,8.698853,8.675895,8.653631,8.632586,8.611491,8.589298,8.56577,8.541183,8.516832,8.492435,8.469376,8.447166,8.425136,8.402693,8.379471,8.35535,8.331495,8.304956,8.273695,8.243818,8.207822,8.168133,8.143501,8.142689,8.152388,8.129121,8.050668,7.904871,7.713361,7.536133,7.495838,7.5774384,7.6964197,7.738428,7.7452397,7.7204733,7.686597,7.6663733,7.660327,7.6636086,7.6622376,7.6573443,7.6507325,7.6410937,7.629799,7.6186714,7.60679,7.5944185,7.581329,7.5663548,7.5493703,7.532939,7.518107,7.5056267,7.495095,7.4862614,7.480363,7.4796276,7.482763,7.4825287,7.4824305,7.483351,7.4827466,7.481865,7.481859,7.4837255,7.4886956,7.4974523,7.5118885,7.531494,7.550725,7.5688176,7.5842886,7.5940113,7.596036,7.5940046,7.5910454,7.5870256,7.58263,7.577919,7.5742264,7.5724335,7.5722976,7.5717115,7.569541,7.566698,7.564225,7.56266,7.5614114,7.558613,7.5549216,7.5505123,7.5446386,7.5367355,7.5279975,7.5204706,7.514252,7.508675,7.5029964,7.4969177,7.491337,7.4862022,7.4807286,7.4750996,7.4699383,7.465776,7.4626207,7.4597635,7.456609,7.4527717,7.448016,7.4418917,7.4346485,7.4266233,7.418946,7.4116154
7.00856,7.0657744,7.1135726,7.1541777,7.193413,7.232813,7.2714367,7.310516,7.346095,7.376043,7.39614,7.4177575,7.45011,7.485633,7.5184526,7.5514383,7.584632,7.6223965,7.6705284,7.726183,7.7833776,7.837118,7.8860865,7.933007,7.979722,8.027512,8.077209,8.130739,8.187206,8.244803,8.30339,8.364902,8.4269705,8.488393,8.548364,8.607195,8.666236,8.725559,8.784754,8.841417,8.893011,8.943949,8.996035,9.051825,9.10337,9.147406,9.187716,9.22464,9.262899,9.303114,9.3478155,9.396242,9.445625,9.494001,9.541129,9.588673,9.637875,9.687923,9.737486,9.7845,9.823944,9.861065,9.9023695,9.949425,10.000809,10.052309,10.102175,10.1516695,10.200817,10.247816,10.288658,10.319046,10.337209,10.346588,10.352852,10.361734,10.375193,10.393502,10.414188,10.433414,10.447214,10.456093,10.462685,10.469491,10.476517,10.482735,10.486349,10.486713,10.483877,10.480236,10.477192,10.473917,10.469955,10.464124,10.456865,10.448328,10.4388895,10.427988,10.415731,10.402817,10.388975,10.373272,10.3560295,10.3378315,10.320452,10.30168,10.27297,10.227795,10.16576,10.09728,9.998241,9.895086,9.810747,9.730835,9.658386,9.587507,9.514965,9.441168,9.366945,9.29772,9.235142,9.181803,9.134536,9.091316,9.050851,9.012089,8.973804,8.93505,8.893923,8.851341,8.8063545,8.756989,8.699465,8.634691,8.566629,8.500109,8.443024,8.400953,8.370754,8.348265,8.333023,8.323254,8.316551,8.309604,8.303716,8.300346,8.283539,8.245983,8.200939,8.151532,8.130398,8.123952,8.096603,7.895341,7.3514566,6.7740154,6.4970374,6.374592,6.3626995,6.468316,6.7610292,7.401593,8.0412655,8.372667,8.422558,8.363571,8.328205,8.312243,8.352489,8.438084,8.506025,8.567167,8.613449,8.637051,8.654737,8.665704,8.669574,8.668953,8.668521,8.670866,8.677633,8.690714,8.714624,8.750999,8.779156,8.803646,8.821643,8.833,8.836523,8.830669,8.813768,8.786804,8.753035,8.718601,8.688215,8.662586,8.639135,8.614895,8.588383,8.56006,8.532557,8.506304,8.482719,8.460566,8.43865,8.415909,8.392172,8.367443,8.342604,8.319597,8.294045,8.264799,8.235242,8.198203,8.168037,8.1586685,8.154414,8.1254635,8.042206,7.8988276,7.714354,7.544939,7.5084524,7.588611,7.700571,7.737609,7.7432704,7.72119,7.6912665,7.673007,7.668085,7.6674104,7.664646,7.6596274,7.6531177,7.6438627,7.6334095,7.622217,7.6099415,7.596923,7.582941,7.567685,7.5517163,7.534695,7.517522,7.502858,7.491029,7.481944,7.4769297,7.477853,7.4780865,7.477764,7.477627,7.478608,7.478182,7.4774942,7.478116,7.4811335,7.489197,7.5038013,7.52196,7.542328,7.5625515,7.581953,7.5966496,7.5996923,7.598133,7.595102,7.590599,7.585367,7.580224,7.5744996,7.569572,7.566144,7.5645933,7.562804,7.5599785,7.556942,7.5543084,7.5522976,7.5499706,7.5455093,7.5400696,7.534843,7.5292506,7.52248,7.5157146,7.5105577,7.5067663,7.503335,7.4992466,7.493895,7.488119,7.4821386,7.475439,7.4686165,7.4624977,7.457573,7.454131,7.4517813,7.449854,7.447768,7.444843,7.44031,7.4343414,7.4274044,7.4207306,7.414233
7.006751,7.063751,7.111473,7.1529417,7.192673,7.2298784,7.268388,7.3071027,7.342019,7.3712034,7.3945084,7.415044,7.444434,7.476285,7.510586,7.5451427,7.579796,7.617051,7.6629777,7.7169347,7.7722244,7.822131,7.8690596,7.9159966,7.9640465,8.011918,8.0607815,8.113345,8.168915,8.225517,8.283268,8.343325,8.404606,8.465346,8.524435,8.581255,8.637947,8.695844,8.754021,8.81175,8.86657,8.920942,8.976262,9.035242,9.085465,9.131819,9.172169,9.20891,9.247054,9.289673,9.335344,9.383383,9.431896,9.480005,9.527256,9.574316,9.622954,9.673223,9.722961,9.766258,9.803583,9.84098,9.883541,9.932779,9.986599,10.040025,10.090788,10.138321,10.184404,10.229519,10.270853,10.303352,10.32397,10.335602,10.343543,10.353173,10.366613,10.3842945,10.404005,10.421983,10.43425,10.441263,10.44634,10.452297,10.459101,10.46559,10.469833,10.470861,10.468612,10.46537,10.462564,10.459549,10.455784,10.449922,10.442301,10.433288,10.423479,10.412407,10.4002495,10.38768,10.37446,10.35965,10.34302,10.324684,10.306322,10.286445,10.258244,10.216276,10.159002,10.0940075,10.004719,9.906246,9.8215275,9.742583,9.670201,9.6000595,9.528526,9.456874,9.386193,9.320055,9.25778,9.203534,9.154854,9.110052,9.06822,9.028372,8.989228,8.949638,8.909956,8.870577,8.829651,8.7856865,8.732986,8.670746,8.602369,8.534912,8.473858,8.42389,8.385725,8.357698,8.338757,8.32724,8.320213,8.314324,8.310968,8.310093,8.295946,8.266159,8.226663,8.185793,8.179088,8.183663,8.169785,7.9956455,7.4362864,6.8038673,6.4850826,6.335747,6.3151774,6.4245563,6.7388344,7.5154543,8.3429365,8.675737,8.732901,8.718988,8.700627,8.672852,8.68533,8.717251,8.741081,8.761761,8.781897,8.801897,8.817556,8.827425,8.830083,8.827736,8.824606,8.823164,8.825703,8.834562,8.85166,8.876775,8.902359,8.92247,8.933517,8.934376,8.925499,8.907024,8.87656,8.835632,8.789899,8.74518,8.7079935,8.679298,8.655178,8.630639,8.602768,8.572067,8.542263,8.51491,8.490606,8.468297,8.445719,8.421635,8.396399,8.370636,8.345985,8.323394,8.301823,8.277548,8.245958,8.210493,8.175636,8.15443,8.138769,8.107618,8.015445,7.880304,7.7056913,7.5452867,7.514554,7.592986,7.6966686,7.7301364,7.733748,7.7147617,7.689829,7.674466,7.668953,7.6657667,7.662229,7.656945,7.65054,7.642002,7.6325855,7.622143,7.610159,7.596342,7.580418,7.563612,7.547015,7.5303936,7.5131216,7.4971504,7.48494,7.476122,7.472042,7.4714518,7.4693556,7.4678802,7.4673557,7.4662333,7.4639587,7.463891,7.4671607,7.4736395,7.483697,7.4963846,7.5122876,7.5309105,7.549953,7.5668926,7.5778055,7.5831714,7.585652,7.585438,7.5831184,7.579749,7.5759945,7.5704427,7.5644665,7.559099,7.5554967,7.5517406,7.5475273,7.544052,7.5413556,7.5388436,7.5352526,7.529132,7.521815,7.5150757,7.50871,7.5019474,7.4960155,7.4921575,7.4897795,7.487508,7.484455,7.479992,7.474931,7.4694443,7.462651,7.455333,7.4485903,7.443058,7.439219,7.43715,7.4362154,7.4357715,7.4345255,7.4313793,7.4267197,7.421234,7.4160357,7.4108543
7.005987,7.0630455,7.110344,7.15097,7.1888227,7.2253923,7.264208,7.301793,7.334998,7.364497,7.3887596,7.4093323,7.4355164,7.4680433,7.504279,7.5420246,7.57745,7.6145983,7.659593,7.711176,7.7614164,7.808448,7.8548727,7.9006834,7.9475393,7.9969816,8.046889,8.098653,8.1521225,8.207214,8.264342,8.323699,8.384052,8.444427,8.503168,8.559471,8.61548,8.6726055,8.730272,8.788457,8.845325,8.900894,8.957105,9.015623,9.0662155,9.113297,9.154945,9.1936245,9.234041,9.278671,9.326378,9.376089,9.4255905,9.473621,9.519897,9.565728,9.613712,9.663097,9.709131,9.748976,9.786768,9.825415,9.86993,9.922026,9.9786625,10.035051,10.085734,10.129084,10.17041,10.212416,10.253118,10.28742,10.310794,10.324443,10.333857,10.344475,10.358158,10.375273,10.393787,10.41018,10.420347,10.425716,10.429861,10.435737,10.443014,10.450175,10.45511,10.4566,10.454678,10.45153,10.448622,10.445892,10.442244,10.436188,10.428167,10.418747,10.408744,10.397764,10.386017,10.374025,10.361533,10.347602,10.331453,10.312788,10.292968,10.271278,10.243344,10.204151,10.1515465,10.091005,10.010161,9.919846,9.835518,9.756957,9.683583,9.613167,9.54191,9.470768,9.402895,9.338736,9.278723,9.222804,9.172546,9.126175,9.083002,9.042106,9.002102,8.961699,8.921139,8.881403,8.8429165,8.8040905,8.757772,8.700625,8.634765,8.567115,8.504825,8.451092,8.407722,8.374193,8.351155,8.337166,8.328129,8.321476,8.318626,8.318153,8.306828,8.284539,8.252577,8.222246,8.223762,8.23518,8.235026,8.068829,7.52481,6.834377,6.4725523,6.304956,6.2720833,6.3851295,6.727029,7.666744,8.556669,8.817146,8.884848,8.920198,8.926384,8.923876,8.930235,8.937561,8.936905,8.935911,8.93531,8.938344,8.942591,8.944499,8.944525,8.942427,8.938955,8.937105,8.93848,8.945374,8.959194,8.982561,9.000195,9.011435,9.011843,9.003397,8.986253,8.960856,8.922749,8.869217,8.810457,8.757122,8.714266,8.68375,8.660395,8.637177,8.609677,8.578299,8.547722,8.520372,8.495964,8.473679,8.450456,8.4246025,8.397516,8.370617,8.346147,8.324661,8.303849,8.279612,8.247671,8.206555,8.163652,8.131174,8.108271,8.07211,7.976819,7.8511124,7.685534,7.5332966,7.5105,7.589774,7.688964,7.718809,7.720158,7.703432,7.6835356,7.671585,7.6644554,7.6606245,7.656687,7.6515822,7.646091,7.6389837,7.6298227,7.6193624,7.6074743,7.593992,7.577359,7.5581913,7.540623,7.523719,7.5067663,7.490884,7.479183,7.471157,7.4667807,7.4620285,7.45782,7.45374,7.4483166,7.442114,7.437132,7.436514,7.438922,7.4425774,7.4471283,7.4531107,7.4613066,7.472219,7.4850793,7.502615,7.5241914,7.5408373,7.549416,7.5528145,7.55504,7.5564485,7.5585165,7.5582037,7.5560355,7.552495,7.54904,7.5442443,7.5382895,7.533203,7.529435,7.52579,7.520809,7.5132084,7.5041876,7.495841,7.488212,7.480764,7.4747963,7.471287,7.4694004,7.4675045,7.4649267,7.4612308,7.4574995,7.4531918,7.447365,7.4403315,7.4331045,7.426993,7.422621,7.420451,7.419984,7.42042,7.419985,7.4177303,7.414189,7.410433,7.407339,7.40421
7.006526,7.061078,7.1064835,7.1441593,7.180788,7.2176104,7.2565384,7.2953405,7.3276377,7.355892,7.3814487,7.4027185,7.428343,7.46115,7.501339,7.540761,7.5778127,7.615903,7.660719,7.70766,7.753936,7.800482,7.845893,7.890661,7.9365973,7.9854336,8.034274,8.085296,8.137618,8.191438,8.24761,8.306284,8.366783,8.428272,8.489767,8.548725,8.6045885,8.659558,8.715469,8.7728195,8.829851,8.88656,8.940994,8.993738,9.043438,9.090967,9.134388,9.176422,9.221067,9.270021,9.3216715,9.374208,9.425432,9.473896,9.519152,9.5627,9.607477,9.651768,9.693298,9.733162,9.772099,9.812481,9.859549,9.915197,9.976467,10.036831,10.08499,10.122503,10.1572075,10.194542,10.2334,10.268427,10.294056,10.310045,10.320564,10.331835,10.34585,10.362583,10.380125,10.394993,10.403938,10.408916,10.413385,10.420201,10.428619,10.436708,10.442338,10.444277,10.442448,10.4391,10.436184,10.433893,10.430435,10.424387,10.41626,10.406736,10.396818,10.386154,10.374943,10.363575,10.351752,10.338545,10.322693,10.303564,10.282193,10.25868,10.23012,10.192677,10.144382,10.088551,10.014733,9.93432,9.851457,9.773878,9.698917,9.62751,9.556061,9.484843,9.416787,9.354889,9.296574,9.239586,9.187843,9.139832,9.095371,9.053464,9.012537,8.97105,8.929251,8.888577,8.8500595,8.812712,8.771926,8.722475,8.66172,8.59745,8.535807,8.481569,8.4361515,8.398838,8.37174,8.353495,8.340576,8.331435,8.327127,8.32667,8.3181305,8.301003,8.277121,8.255614,8.263639,8.295729,8.29579,8.14511,7.6146917,6.861689,6.4597006,6.280572,6.239821,6.354334,6.7209616,7.828933,8.648859,8.987291,9.082383,9.063606,9.040657,9.066008,9.0784025,9.088284,9.084734,9.072375,9.06047,9.054031,9.051283,9.051237,9.049466,9.043673,9.036499,9.031272,9.028751,9.029812,9.035331,9.045202,9.053273,9.056908,9.049248,9.034823,9.014189,8.986966,8.950684,8.891905,8.818376,8.757765,8.709894,8.6777725,8.655462,8.6342535,8.608269,8.577713,8.547873,8.521712,8.498217,8.476416,8.452965,8.425562,8.396641,8.368893,8.344523,8.323651,8.303033,8.27649,8.239478,8.19265,8.137413,8.095654,8.068263,8.025261,7.932481,7.8147573,7.651199,7.5092483,7.4955845,7.5784807,7.677229,7.70432,7.7040453,7.6885834,7.6716204,7.661682,7.65595,7.6526337,7.6492863,7.645595,7.641391,7.634571,7.6254396,7.614691,7.6025343,7.5891676,7.573352,7.554899,7.536376,7.5191326,7.502531,7.4877048,7.476911,7.469434,7.462036,7.452591,7.442376,7.4310274,7.4166355,7.402943,7.392452,7.3870115,7.383683,7.3797207,7.374644,7.3697667,7.3674955,7.3697443,7.376356,7.3898454,7.4147196,7.445089,7.4678354,7.4855394,7.4973354,7.509177,7.5179186,7.525203,7.531841,7.5361843,7.539064,7.5380716,7.533163,7.5266867,7.5202484,7.5140004,7.50708,7.498059,7.487704,7.4779873,7.4689636,7.4604287,7.4537573,7.449737,7.447566,7.445566,7.4430575,7.4398527,7.437008,7.4338026,7.4293227,7.423412,7.4164114,7.409889,7.405011,7.4024057,7.4019003,7.4024153,7.402088,7.400137,7.397329,7.3952436,7.3945036,7.39386
7.004268,7.053998,7.0976763,7.1351185,7.171772,7.2084055,7.2489843,7.289071,7.3217936,7.3481026,7.373015,7.3973613,7.4234905,7.4576654,7.499941,7.5399323,7.577513,7.61499,7.656426,7.6992445,7.7453074,7.7922263,7.8369102,7.8824167,7.9290805,7.975963,8.0222435,8.071322,8.1224375,8.176144,8.232338,8.29165,8.353894,8.420044,8.488379,8.553316,8.612391,8.665985,8.717597,8.7710495,8.82449,8.877997,8.926245,8.972956,9.019402,9.065389,9.109245,9.153936,9.2029,9.256924,9.313448,9.370403,9.423933,9.4710865,9.51506,9.5563135,9.596365,9.636754,9.677744,9.71766,9.757517,9.800023,9.85026,9.910355,9.978041,10.039289,10.084379,10.116306,10.144881,10.177202,10.21382,10.248893,10.275825,10.293213,10.304556,10.315961,10.329699,10.345681,10.36232,10.376696,10.385931,10.392091,10.3981905,10.406658,10.416321,10.425133,10.431308,10.433468,10.431541,10.428345,10.426257,10.424799,10.422085,10.416866,10.409443,10.400579,10.391288,10.38117,10.370346,10.359146,10.347393,10.334347,10.318449,10.298586,10.275913,10.250933,10.221607,10.185238,10.140202,10.088329,10.021196,9.946213,9.87037,9.794926,9.717381,9.644125,9.571785,9.500076,9.431323,9.368208,9.310274,9.254066,9.200858,9.1513405,9.105304,9.062283,9.020521,8.978201,8.93536,8.893591,8.854416,8.817439,8.778597,8.735172,8.680931,8.6222,8.564396,8.51153,8.465521,8.426585,8.395976,8.372539,8.354969,8.342314,8.335505,8.33508,8.329705,8.317942,8.299858,8.287746,8.309429,8.354121,8.346859,8.212589,7.6983666,6.8802605,6.444455,6.2607217,6.217723,6.331452,6.7177515,7.9402213,8.741373,9.121725,9.191082,9.175871,9.165682,9.173557,9.178862,9.181614,9.170312,9.160542,9.149747,9.138918,9.1291,9.122718,9.117164,9.107192,9.0944,9.082584,9.07379,9.069233,9.068499,9.071583,9.06995,9.062838,9.050985,9.034725,9.014486,8.988667,8.954576,8.897114,8.819216,8.751694,8.700652,8.666971,8.644583,8.6252365,8.601654,8.57353,8.545755,8.521457,8.499613,8.478445,8.454397,8.425939,8.395739,8.36735,8.343136,8.322519,8.300352,8.270002,8.22567,8.172269,8.1061535,8.059114,8.029035,7.982444,7.8905087,7.7779636,7.6071415,7.4798594,7.473535,7.562084,7.661772,7.686566,7.6861706,7.67061,7.654258,7.645877,7.642243,7.6410418,7.6400323,7.637267,7.633195,7.626211,7.6164675,7.6045666,7.5913305,7.577361,7.561797,7.5448866,7.528207,7.5116014,7.4951563,7.4809895,7.469534,7.4589043,7.445955,7.4292784,7.4079256,7.381588,7.3538427,7.3278456,7.3082476,7.2939076,7.281672,7.267453,7.251383,7.2369843,7.2288933,7.229664,7.2356157,7.245495,7.2652583,7.2948465,7.3247347,7.3585744,7.3849835,7.4136553,7.4391193,7.4620514,7.4799643,7.4998817,7.519843,7.5323505,7.533745,7.527088,7.516901,7.5059547,7.4959908,7.485424,7.4743896,7.464138,7.4542084,7.444575,7.436655,7.431355,7.428123,7.4254513,7.422644,7.4194603,7.4166193,7.414071,7.4108477,7.4064636,7.400611,7.3944874,7.3896484,7.386937,7.3865137,7.3871117,7.3865614,7.3844004,7.381776,7.3807564,7.381929,7.3835416
6.9993753,7.04656,7.0885954,7.1261396,7.162668,7.199171,7.2416773,7.283315,7.317465,7.3430023,7.3659472,7.3903923,7.420368,7.457596,7.498309,7.5366964,7.5723686,7.6070595,7.6441364,7.68439,7.7284117,7.7728343,7.8168135,7.8624954,7.9100056,7.9586163,8.006383,8.054676,8.105284,8.159443,8.216578,8.277682,8.343309,8.414386,8.487762,8.556852,8.618177,8.672773,8.723206,8.773088,8.821281,8.867813,8.912313,8.955605,8.997679,9.0398655,9.081639,9.12764,9.179666,9.237763,9.29875,9.358782,9.410557,9.455452,9.498333,9.539374,9.579833,9.619982,9.660173,9.699593,9.740172,9.784888,9.838457,9.90431,9.976114,10.037151,10.079176,10.106456,10.130711,10.160082,10.195156,10.229965,10.257345,10.275242,10.286876,10.298022,10.311112,10.326292,10.342347,10.356932,10.367414,10.375589,10.383757,10.393749,10.404043,10.412849,10.418786,10.42031,10.418369,10.415823,10.414674,10.414303,10.412914,10.409156,10.403124,10.395557,10.387339,10.377907,10.367264,10.355745,10.343497,10.330143,10.314201,10.294144,10.270729,10.244969,10.215466,10.180037,10.137566,10.088455,10.031067,9.955152,9.884151,9.814615,9.738258,9.662264,9.588269,9.515422,9.44571,9.381173,9.322362,9.266624,9.212067,9.161486,9.114077,9.069849,9.027523,8.984982,8.941864,8.899577,8.859697,8.822121,8.783653,8.742039,8.694315,8.641119,8.588854,8.540176,8.496023,8.455945,8.422246,8.394707,8.372615,8.355937,8.346457,8.345638,8.343466,8.335363,8.323761,8.324171,8.361811,8.40402,8.394707,8.266413,7.7572484,6.888813,6.42663,6.2409286,6.1979256,6.311281,6.7051606,7.994811,8.815011,9.193662,9.272015,9.25444,9.246286,9.248487,9.273685,9.266513,9.243904,9.232113,9.215462,9.198502,9.184812,9.16968,9.158448,9.1461315,9.131214,9.116808,9.103385,9.093233,9.086008,9.077425,9.0682125,9.055992,9.040808,9.024452,9.007191,8.985596,8.955192,8.902175,8.823679,8.750251,8.69652,8.660553,8.6360035,8.616933,8.595503,8.570368,8.545239,8.522579,8.501803,8.480337,8.45495,8.425264,8.39439,8.365522,8.341301,8.320066,8.295235,8.2609005,8.210228,8.149999,8.078409,8.029869,7.999118,7.9500046,7.857113,7.745819,7.5689707,7.4480367,7.447461,7.542676,7.642441,7.666629,7.6658993,7.6494994,7.633168,7.626072,7.623893,7.6246233,7.6245537,7.6220856,7.617687,7.6097093,7.5985537,7.585514,7.5709715,7.555957,7.5404086,7.524148,7.5068836,7.489311,7.472575,7.4582596,7.4445553,7.4293337,7.408822,7.380727,7.344042,7.2993393,7.246923,7.1991653,7.1658273,7.1408978,7.1195745,7.095806,7.0710583,7.0512247,7.0421925,7.0455446,7.0558176,7.0687227,7.09114,7.122161,7.147934,7.173224,7.203473,7.240519,7.293208,7.353819,7.405725,7.4477644,7.4892216,7.5241055,7.537616,7.532437,7.5176096,7.500416,7.4863033,7.474041,7.463078,7.4532804,7.442955,7.432298,7.4231644,7.41644,7.412078,7.4088964,7.405774,7.4020214,7.3986607,7.3961916,7.3939714,7.3910413,7.3865566,7.3813095,7.377057,7.374863,7.3750305,7.376013,7.3753724,7.3729725,7.3702564,7.369729,7.3721294,7.375277
6.9935436,7.038501,7.079589,7.11739,7.1532865,7.191867,7.2368975,7.279722,7.3149557,7.341415,7.3622975,7.385578,7.417428,7.454875,7.493153,7.5280247,7.5599117,7.5911703,7.6247387,7.661417,7.7008877,7.740921,7.7820044,7.8261495,7.873927,7.924673,7.9764657,8.029705,8.084275,8.140785,8.199285,8.26112,8.326824,8.395678,8.468297,8.537611,8.596714,8.652473,8.7068,8.758949,8.808302,8.855074,8.898767,8.940985,8.982073,9.022566,9.062868,9.108674,9.16168,9.221649,9.28446,9.342188,9.38974,9.436016,9.479988,9.5217285,9.562053,9.601395,9.640677,9.679607,9.720869,9.767809,9.824476,9.895712,9.9690485,10.029473,10.069309,10.09417,10.116661,10.1449795,10.179431,10.214008,10.241393,10.259436,10.271242,10.282225,10.294763,10.309254,10.324918,10.339912,10.351707,10.361645,10.371355,10.382084,10.39213,10.399963,10.404631,10.405353,10.403383,10.401541,10.401434,10.402201,10.402018,10.3995695,10.394922,10.388806,10.381876,10.373259,10.362727,10.350676,10.3376465,10.323755,10.307795,10.288244,10.265329,10.239698,10.210863,10.176939,10.137015,10.090588,10.0402355,9.970625,9.896482,9.829493,9.761852,9.68239,9.605284,9.530645,9.459831,9.394379,9.334738,9.279551,9.225367,9.173136,9.124939,9.079925,9.037333,8.995239,8.952971,8.911365,8.871452,8.832986,8.793528,8.751812,8.706908,8.657696,8.609551,8.565308,8.525164,8.488315,8.455158,8.4249935,8.399891,8.37945,8.36698,8.363737,8.363378,8.355817,8.351735,8.365728,8.420973,8.442082,8.420916,8.311008,7.7929754,6.8884706,6.408164,6.220154,6.1764812,6.2913847,6.677595,8.001215,8.878212,9.2647,9.352432,9.327871,9.315414,9.316951,9.325512,9.31674,9.296956,9.274977,9.261429,9.242366,9.22175,9.201357,9.187043,9.1739025,9.160271,9.146587,9.131998,9.118431,9.105661,9.092924,9.078322,9.061266,9.043152,9.026349,9.011667,8.994226,8.967237,8.920635,8.847176,8.766907,8.705547,8.664593,8.636462,8.615686,8.594851,8.571823,8.548767,8.5271015,8.505747,8.482273,8.454405,8.42269,8.390784,8.361649,8.336943,8.314337,8.286903,8.24995,8.195801,8.131109,8.058699,8.011258,7.98053,7.9291964,7.8332253,7.7208767,7.5389566,7.418558,7.4226236,7.5223618,7.6207204,7.646302,7.6435184,7.627815,7.6124353,7.6051655,7.6038246,7.6044292,7.603315,7.5995665,7.593688,7.584347,7.5721464,7.5581856,7.541769,7.525131,7.5083055,7.4905643,7.471737,7.4535484,7.436784,7.421172,7.4048085,7.3834705,7.352646,7.3119917,7.2570877,7.1899476,7.116201,7.051735,7.0055323,6.971523,6.9433937,6.91581,6.891285,6.874312,6.868965,6.873951,6.8842697,6.897894,6.9149003,6.931093,6.945433,6.959195,6.978715,7.0102477,7.061961,7.145963,7.267309,7.3896956,7.4500856,7.510346,7.5403047,7.5386376,7.5191097,7.494948,7.4761887,7.4623585,7.4519315,7.4430447,7.4330883,7.421993,7.4121766,7.4048243,7.399976,7.396719,7.3933697,7.3889666,7.3849316,7.382145,7.380232,7.3780603,7.374322,7.3696003,7.3659644,7.364608,7.3656764,7.3674984,7.367569,7.365657,7.3632183,7.362829,7.3656464,7.370699
6.9855204,7.0300326,7.0724173,7.1109905,7.1485634,7.190188,7.236265,7.279601,7.3164177,7.3430343,7.362794,7.3846602,7.414584,7.4493484,7.4847183,7.516573,7.5455265,7.572583,7.601454,7.632852,7.6662827,7.7003365,7.7366457,7.778904,7.8271036,7.8792562,7.9352207,7.9945574,8.05562,8.117713,8.178028,8.236702,8.294672,8.353802,8.417328,8.482832,8.546463,8.607252,8.664185,8.718373,8.769445,8.817734,8.86363,8.909798,8.955936,9.002387,9.048428,9.097799,9.1537285,9.215861,9.276367,9.326818,9.37278,9.417649,9.460855,9.502296,9.542371,9.581382,9.620457,9.659479,9.701664,9.750801,9.810516,9.884699,9.958475,10.0179405,10.056818,10.08164,10.104687,10.133289,10.167255,10.201298,10.22871,10.247002,10.258912,10.269194,10.281385,10.295744,10.311474,10.327078,10.339966,10.351027,10.361442,10.372045,10.381143,10.387507,10.390461,10.390158,10.38787,10.386143,10.386458,10.387918,10.388445,10.386804,10.383177,10.378262,10.372472,10.3645935,10.354105,10.341543,10.327795,10.313416,10.29752,10.278606,10.256891,10.232426,10.204811,10.173,10.135839,10.092651,10.043289,9.98695,9.913241,9.843486,9.779646,9.703825,9.621925,9.545052,9.472923,9.406855,9.347044,9.2923,9.23955,9.187033,9.1379,9.092554,9.049995,9.008692,8.967794,8.927549,8.888235,8.849215,8.808437,8.765383,8.720354,8.674179,8.628014,8.587395,8.551626,8.520121,8.491793,8.464882,8.437805,8.412666,8.397242,8.38875,8.386515,8.380004,8.381542,8.410808,8.470729,8.465569,8.447777,8.341571,7.8159723,6.8803034,6.3901796,6.201141,6.155031,6.271451,6.6386657,7.9523134,8.919674,9.322755,9.402952,9.386599,9.369833,9.360717,9.356703,9.345943,9.32406,9.300837,9.29254,9.282562,9.264858,9.242268,9.226331,9.214779,9.202293,9.188606,9.174356,9.160925,9.147262,9.131931,9.113253,9.092264,9.071278,9.053137,9.038588,9.022163,8.996048,8.953444,8.888375,8.806423,8.732904,8.6820135,8.647746,8.622618,8.59982,8.577082,8.554756,8.532837,8.509733,8.483161,8.452021,8.417786,8.384429,8.354519,8.328918,8.304823,8.275603,8.237782,8.183194,8.118595,8.048391,8.003293,7.9729433,7.9190454,7.8187943,7.700884,7.5164456,7.3939934,7.4001865,7.5023956,7.601285,7.628044,7.623787,7.6088,7.590971,7.580311,7.579218,7.580869,7.579919,7.574581,7.5663924,7.555496,7.541651,7.52488,7.5067453,7.4889083,7.470767,7.452029,7.4331813,7.414532,7.3966613,7.3792543,7.3592596,7.331747,7.294668,7.240449,7.166707,7.0824466,7.0033255,6.9361124,6.8856964,6.847683,6.81798,6.7918973,6.770811,6.756486,6.7522273,6.7573853,6.765994,6.7742796,6.782098,6.7860403,6.7849894,6.7826376,6.7858,6.8008995,6.8330703,6.901762,7.067082,7.299797,7.4127207,7.4897556,7.5378394,7.541563,7.51828,7.487502,7.4634714,7.447291,7.436428,7.427826,7.418965,7.40884,7.399562,7.3929987,7.3889446,7.386392,7.3832803,7.378562,7.373978,7.3705835,7.3680673,7.3656673,7.36204,7.357542,7.3543444,7.353901,7.3564253,7.3600435,7.361965,7.3612666,7.359734,7.360688,7.366013,7.3720264
6.97873,7.0263968,7.070506,7.10976,7.148899,7.190501,7.236491,7.2817764,7.3191185,7.3440638,7.361369,7.380048,7.40683,7.439043,7.472081,7.5011187,7.526161,7.548257,7.5714827,7.597046,7.6244717,7.6524267,7.684978,7.725255,7.7723846,7.82531,7.8854685,7.9499545,8.016716,8.083168,8.142857,8.194271,8.2392025,8.282728,8.33065,8.38478,8.444611,8.505688,8.565157,8.6231,8.678753,8.733153,8.7860565,8.838233,8.892827,8.950368,9.009232,9.073729,9.141735,9.206612,9.262897,9.309927,9.353588,9.394843,9.435291,9.475389,9.51551,9.555187,9.595039,9.635108,9.678885,9.730221,9.792944,9.86817,9.941544,9.999876,10.038665,10.064993,10.089864,10.119938,10.154159,10.187092,10.213306,10.230968,10.24264,10.252464,10.264203,10.278614,10.2951565,10.312372,10.326832,10.338976,10.349772,10.3600235,10.368208,10.373104,10.37437,10.372215,10.368576,10.366079,10.365826,10.367052,10.367745,10.366722,10.364069,10.360237,10.355382,10.3480625,10.337687,10.324875,10.310728,10.296099,10.280323,10.262033,10.241417,10.218195,10.192078,10.162321,10.127723,10.087409,10.040291,9.99004,9.924921,9.855562,9.788946,9.721334,9.636053,9.556159,9.482311,9.415694,9.356079,9.301493,9.25028,9.199655,9.150338,9.105121,9.0631275,9.022806,8.983148,8.944103,8.905439,8.866091,8.824013,8.779132,8.733005,8.688364,8.644913,8.607491,8.575889,8.548819,8.525288,8.501497,8.474426,8.44763,8.427208,8.413565,8.405636,8.402191,8.409024,8.453309,8.498116,8.489128,8.478887,8.360289,7.8240356,6.863282,6.3720574,6.1815186,6.1312513,6.2507725,6.587812,7.8441944,8.89337,9.346143,9.397442,9.391895,9.381727,9.372765,9.368412,9.358961,9.342447,9.327011,9.317034,9.313069,9.305494,9.290308,9.275982,9.265783,9.255956,9.245108,9.233814,9.222437,9.208912,9.192036,9.17139,9.146245,9.119713,9.097267,9.079181,9.060285,9.032829,8.988746,8.927872,8.8517,8.77326,8.709985,8.66453,8.63122,8.603296,8.578428,8.555128,8.531814,8.506115,8.475957,8.441505,8.405125,8.370829,8.340621,8.314259,8.2889,8.259001,8.221577,8.168989,8.108778,8.04439,8.003425,7.9749155,7.9185963,7.8128796,7.687411,7.4999747,7.3729324,7.3803496,7.486416,7.587382,7.6143384,7.6107187,7.5938015,7.571068,7.556251,7.551914,7.5523977,7.551368,7.5455837,7.536426,7.5241365,7.5087924,7.4910517,7.4733114,7.4558716,7.4380817,7.4193935,7.4000053,7.380267,7.3608856,7.341686,7.31855,7.2888536,7.2451572,7.1796093,7.101715,7.017289,6.9393215,6.874646,6.8268433,6.7911067,6.763901,6.7403407,6.720004,6.703209,6.6921744,6.6877375,6.6893425,6.6937323,6.697424,6.696453,6.6892424,6.6779785,6.66983,6.6692667,6.6881504,6.750202,6.907572,7.1908207,7.3781595,7.462263,7.5268035,7.538348,7.51406,7.476719,7.44738,7.4275193,7.4143214,7.4043217,7.3953505,7.3866267,7.379598,7.375578,7.3739023,7.372995,7.370635,7.366062,7.3613377,7.3574815,7.354145,7.3508196,7.346567,7.342255,7.3397655,7.340551,7.344964,7.3508472,7.355198,7.359248,7.3594446,7.3602,7.3647776,7.3696575
6.976263,7.0271883,7.072196,7.110448,7.147217,7.1868267,7.2325544,7.277989,7.3134327,7.335399,7.3503776,7.3663816,7.3899827,7.4195347,7.450017,7.4757576,7.496293,7.513898,7.532823,7.554865,7.5786033,7.6034923,7.63334,7.6703854,7.716235,7.768585,7.831318,7.8985367,7.9679337,8.035763,8.092289,8.134676,8.166094,8.195107,8.229917,8.272291,8.320735,8.374587,8.431703,8.488575,8.54347,8.597628,8.652805,8.710787,8.777937,8.857136,8.94441,9.021973,9.100311,9.173157,9.234961,9.286019,9.327946,9.365741,9.403114,9.441908,9.482759,9.523973,9.565206,9.607098,9.652703,9.705813,9.7711315,9.846424,9.917934,9.974953,10.014097,10.042245,10.068855,10.099687,10.132975,10.16369,10.187513,10.204195,10.216799,10.227739,10.239736,10.254976,10.273434,10.29343,10.310551,10.324319,10.335388,10.344883,10.352137,10.356239,10.356718,10.353228,10.347437,10.342545,10.3405285,10.341011,10.341785,10.341461,10.339924,10.337333,10.333516,10.326872,10.316797,10.30402,10.289744,10.274872,10.258923,10.240822,10.220704,10.198299,10.173571,10.145395,10.112892,10.075052,10.030591,9.980322,9.930387,9.863014,9.795972,9.730626,9.652715,9.567626,9.491289,9.423285,9.362734,9.307712,9.257011,9.208793,9.161226,9.116669,9.075884,9.036938,8.9987335,8.960974,8.923014,8.883391,8.840094,8.793518,8.74613,8.701637,8.661482,8.626753,8.598972,8.575959,8.553907,8.529421,8.503543,8.476702,8.451471,8.434572,8.420306,8.420216,8.433585,8.491865,8.519905,8.518557,8.509815,8.374379,7.8187394,6.836639,6.3536706,6.161068,6.1091895,6.2359276,6.544079,7.720251,8.825939,9.338572,9.378975,9.369586,9.363894,9.35865,9.353603,9.346888,9.338213,9.32931,9.321309,9.314875,9.308259,9.300632,9.291326,9.28182,9.272539,9.263407,9.254063,9.244087,9.232616,9.219329,9.203657,9.182568,9.15988,9.140483,9.124296,9.104269,9.07142,9.023472,8.962484,8.890551,8.813608,8.741894,8.682296,8.637209,8.601472,8.572603,8.547238,8.522174,8.493968,8.460678,8.423691,8.386246,8.352178,8.322372,8.295773,8.269577,8.23927,8.202543,8.152931,8.098925,8.042331,8.006884,7.979575,7.9221163,7.8102436,7.6778097,7.483005,7.3502517,7.359862,7.4740667,7.579524,7.6068707,7.6037626,7.585824,7.559786,7.540393,7.5321655,7.52804,7.5229616,7.5154743,7.506049,7.4939303,7.4794793,7.4634705,7.446926,7.4302573,7.4129753,7.3943005,7.374356,7.3533945,7.332374,7.311703,7.2876472,7.257392,7.209303,7.143689,7.0698376,6.9889774,6.916657,6.858201,6.8170357,6.787246,6.764406,6.741458,6.715948,6.6904144,6.667788,6.6517406,6.644373,6.645607,6.650299,6.652233,6.6474752,6.6349792,6.6212826,6.6111712,6.6188993,6.6797905,6.8265867,7.118563,7.3416295,7.4321713,7.512852,7.5366693,7.5119534,7.468915,7.432227,7.4071407,7.3902874,7.377733,7.368182,7.3606977,7.35639,7.3555794,7.3564777,7.3568926,7.3551555,7.3510385,7.346756,7.343074,7.3392396,7.335003,7.330128,7.3260374,7.324645,7.3270426,7.332879,7.3418045,7.349573,7.3545094,7.3550987,7.354675,7.3567543,7.3617873
6.9737816,7.0242333,7.067775,7.103414,7.1368685,7.173288,7.215751,7.2577167,7.2905126,7.3108983,7.324548,7.339176,7.360844,7.3877506,7.4149685,7.4373713,7.4552226,7.470602,7.48791,7.508745,7.5319166,7.5575314,7.5871305,7.6219206,7.6661377,7.7161093,7.7766776,7.8434057,7.911644,7.9775805,8.029911,8.065261,8.088401,8.106571,8.124111,8.153555,8.192072,8.234876,8.279207,8.322805,8.36237,8.400467,8.443369,8.4997635,8.574947,8.68351,8.812724,8.931094,9.034387,9.114054,9.19231,9.252054,9.296293,9.332886,9.36872,9.407148,9.4489975,9.492006,9.535381,9.579163,9.626074,9.680583,9.747253,9.821808,9.889241,9.945088,9.985176,10.011644,10.039473,10.070129,10.1016865,10.130224,10.152441,10.168827,10.182447,10.195955,10.2093315,10.226636,10.248451,10.272814,10.292675,10.307814,10.319348,10.328415,10.334926,10.338561,10.338747,10.335352,10.329554,10.323294,10.319307,10.318258,10.318455,10.318615,10.318401,10.317209,10.3145685,10.30881,10.299258,10.286482,10.271949,10.256601,10.2401085,10.221527,10.201282,10.179523,10.155646,10.128605,10.097729,10.061958,10.019924,9.971897,9.9268265,9.867129,9.801664,9.736265,9.668995,9.586962,9.504291,9.4330015,9.369791,9.31312,9.261891,9.215057,9.170622,9.128054,9.088699,9.051361,9.014736,8.97835,8.941299,8.901895,8.858085,8.810715,8.762949,8.718803,8.680794,8.648664,8.620199,8.595993,8.574383,8.552753,8.527397,8.498196,8.470315,8.451578,8.432415,8.435469,8.456152,8.521118,8.548452,8.546914,8.52715,8.385042,7.803203,6.806168,6.337324,6.146069,6.091905,6.232007,6.528047,7.643463,8.770286,9.316806,9.359755,9.350191,9.344021,9.338636,9.334187,9.327612,9.318981,9.311274,9.303934,9.296382,9.288887,9.281227,9.273258,9.264492,9.2552805,9.245845,9.236143,9.226059,9.21591,9.205621,9.194546,9.181654,9.168256,9.154873,9.142014,9.127766,9.10726,9.065445,8.999107,8.92691,8.851373,8.773063,8.701864,8.642042,8.59627,8.562502,8.535059,8.50877,8.47896,8.443708,8.40538,8.367916,8.334645,8.305767,8.279356,8.25249,8.221516,8.185039,8.137905,8.087925,8.03961,8.008126,7.9779344,7.923045,7.805009,7.663457,7.4587564,7.3210955,7.334791,7.4615717,7.575622,7.6045065,7.6024003,7.5809317,7.5541744,7.533273,7.5207777,7.5120153,7.502706,7.4919195,7.4807396,7.468437,7.455358,7.440774,7.42525,7.4092617,7.3924584,7.373849,7.3534775,7.3318863,7.309973,7.2880263,7.2626123,7.2315865,7.1872044,7.124217,7.053498,6.9822283,6.9180737,6.869026,6.836993,6.8132377,6.790122,6.7635946,6.730157,6.692029,6.654271,6.627098,6.615709,6.6198263,6.632975,6.6442146,6.646603,6.6385674,6.6239367,6.6046286,6.6009665,6.650821,6.793642,7.0759783,7.306014,7.405921,7.5007067,7.533923,7.509811,7.4663544,7.427596,7.396571,7.3747187,7.360037,7.3499126,7.343215,7.3408403,7.342163,7.344336,7.344814,7.342858,7.3389606,7.335539,7.3327656,7.329336,7.325073,7.3204584,7.3172226,7.317353,7.3216934,7.331439,7.342038,7.348853,7.350916,7.349388,7.3474054,7.347584,7.3511405
