14.053057,14.050837,14.04318,14.035292,14.048284,14.065361,14.087908,14.1181755,14.145132,14.165909,14.189571,14.2195425,14.248274,14.273713,14.294014,14.316429,14.352692,14.404865,14.473981,14.554426,14.6303425,14.696796,14.755938,14.8157425,14.876995,14.940298,15.007756,15.081714,15.163231,15.255382,15.3563595,15.467413,15.586366,15.706968,15.835877,15.9591465,16.080444,16.200924,16.324585,16.446835,16.562433,16.669514,16.773846,16.879608,16.989548,17.100985,17.210945,17.310238,17.426498,17.603489,17.86828,18.170029,18.363983,18.394861,18.425337,18.565105,18.657797,18.779453,24.04488,35.014282,38.520508,38.35554,38.955013,39.197952,39.863895,40.255928,40.419075,40.59948,40.729546,40.78443,40.7787,40.85106,40.994324,41.19381,41.413483,41.631805,41.835846,42.027832,42.209377,42.380856,42.541855,42.68869,42.82682,42.961697,43.112534,43.27743,43.438866,43.588436,43.720726,43.842957,43.962845,44.08284,44.207863,44.342293,44.477905,44.613655,44.759426,44.925446,45.11226,45.318565,45.532173,45.743195,45.935364,46.09934,46.234985,46.345177,46.43492,46.52032,46.6093,46.70611,46.801987,46.885334,46.95051,47.00992,47.08321,47.184555,47.308983,47.444534,47.57911,47.70439,47.822113,47.917175,47.9858,48.040615,48.09134,48.131996,48.17994,48.22573,48.25802,48.276283,48.261967,48.21851,48.149895,48.07877,48.057587,48.100437,48.189575,48.249184,48.219185,48.137886,48.08655,48.127823,48.217606,48.256676,48.239456,48.132053,47.971386,47.78433,47.608475,47.486538,47.41941,47.4157,47.430344,47.417793,47.295616,47.02568,46.414646,45.291023,43.52436,40.85003,37.6801,34.727142,32.511047,31.348763,30.511333,29.830105,29.24715,28.675955,28.111355,27.553566,27.00666,26.475925,25.95507,25.470953,25.03835,24.65781,24.326437,24.027117,23.744137,23.46169,23.16562,22.84811,22.51192,22.187119,21.911337,21.69141,21.46203,21.137432,20.633183,19.959763,19.272465,18.69083,18.26362,17.960304,17.714773,17.480373,17.23822,16.999249,16.779255,16.580524,16.391884,16.203045,16.013666,15.825873,15.636639,15.444929,15.251631,15.066122,14.888838,14.71722,14.543064,14.364094,14.1810665,14.003,13.831009,13.649927,13.45768,13.269464,13.105862,12.993303,12.944549,12.943207,12.96092,12.973014,12.968796,12.946921,12.920167,12.887524,12.849576,12.812035,12.763116,12.668301,12.475029,12.173424,11.681532,11.162188,10.826667,10.681791,10.679445,10.737416,10.80174,10.852102,10.925085,11.013834,11.093565,11.151638,11.174692,11.177633,11.172466,11.170172,11.170065,11.1635895,11.154754,11.149665,11.150887,11.154226,11.155083,11.15011,11.141182,11.129078,11.115913,11.098211,11.076072,11.051612,11.020702,10.976061,10.90715,10.81009,10.692521,10.570318,10.461467,10.374749,10.310844,10.263014,10.225149,10.196532,10.166058,10.1337185,10.100115,10.066569,10.036392,10.006271,9.97273,9.938282,9.908668,9.880762,9.854738,9.834715,9.81977,9.808395,9.797213,9.781798,9.762892,9.740814,9.718636,9.699003,9.683193,9.672798,9.666409,9.660291,9.653882,9.647783,9.643581,9.642424,9.646002,9.660849,9.682766,9.708405,9.7391,9.772175,9.806798
14.069843,14.063624,14.051704,14.038797,14.045288,14.055019,14.07021,14.094415,14.1280155,14.167498,14.208564,14.247065,14.273933,14.296782,14.315659,14.338587,14.376469,14.429967,14.499712,14.579485,14.653034,14.715635,14.770409,14.826816,14.885933,14.948059,15.014885,15.08794,15.168016,15.258209,15.357074,15.466946,15.58613,15.7089615,15.841289,15.9684925,16.093616,16.217758,16.345463,16.472702,16.594307,16.707,16.81466,16.920809,17.027567,17.13117,17.218674,17.296394,17.389898,17.544415,17.79998,18.11987,18.36615,18.439934,18.40763,18.516819,18.666954,18.698742,21.867363,32.32728,37.916435,37.901367,38.40161,38.629974,39.055134,39.58046,39.77185,39.92549,40.025093,40.0408,39.99282,40.0307,40.14582,40.322906,40.522385,40.72328,40.91465,41.097412,41.270683,41.427475,41.57044,41.703064,41.827293,41.942253,42.066734,42.201397,42.33574,42.461987,42.57236,42.669327,42.75568,42.835564,42.917095,43.008736,43.10517,43.204445,43.31289,43.43766,43.57842,43.73419,43.89411,44.05014,44.18892,44.303795,44.395287,44.465084,44.517105,44.56442,44.61477,44.67408,44.735954,44.791603,44.834053,44.86817,44.907825,44.964767,45.03971,45.128235,45.223724,45.32158,45.424515,45.518387,45.60059,45.67627,45.744568,45.79425,45.836563,45.865826,45.87844,45.880817,45.86483,45.829205,45.77137,45.703873,45.662903,45.669724,45.720203,45.774315,45.791176,45.78792,45.806534,45.883858,45.99362,46.074127,46.079063,45.992493,45.845314,45.68533,45.560257,45.489815,45.462646,45.4657,45.456413,45.434135,45.36779,45.221695,44.82141,44.024788,42.65587,40.404476,37.61347,34.890587,32.55847,31.330181,30.460766,29.767296,29.18502,28.622028,28.067535,27.521763,26.9841,26.466454,25.972244,25.503632,25.072887,24.690304,24.350925,24.046448,23.758522,23.470837,23.169699,22.847155,22.509033,22.175177,21.871662,21.617962,21.362514,21.035671,20.555378,19.923054,19.273891,18.716078,18.297382,17.99167,17.737835,17.49324,17.242298,16.997335,16.774574,16.575949,16.389526,16.2033,16.015787,15.828386,15.638321,15.445663,15.251659,15.06609,14.889248,14.718052,14.544042,14.364989,14.1822405,14.005085,13.834387,13.653725,13.4544,13.258255,13.0898905,12.973583,12.917955,12.915754,12.936646,12.953154,12.952202,12.936569,12.911102,12.876588,12.837828,12.7998295,12.746342,12.634975,12.410042,12.031765,11.466755,10.93631,10.649965,10.569841,10.60741,10.66926,10.713896,10.767118,10.842369,10.941446,11.038946,11.109796,11.143026,11.1516075,11.148384,11.145666,11.145018,11.138809,11.128927,11.121548,11.11907,11.119322,11.119672,11.114611,11.105886,11.094939,11.08408,11.070347,11.053692,11.036585,11.016117,10.985842,10.934622,10.855709,10.751836,10.63733,10.53181,10.447568,10.387941,10.346098,10.315151,10.292671,10.266567,10.236441,10.203485,10.170605,10.138889,10.107068,10.074343,10.042327,10.013386,9.984016,9.953635,9.929277,9.910183,9.89328,9.87669,9.854965,9.829723,9.802994,9.777393,9.75576,9.738495,9.726671,9.718972,9.71236,9.707848,9.707502,9.713758,9.72654,9.744953,9.774027,9.809692,9.847567,9.880028,9.917122,9.960304
14.083702,14.075888,14.062424,14.0479765,14.05232,14.058651,14.070367,14.088685,14.114498,14.143959,14.177538,14.217546,14.257648,14.296446,14.334568,14.367653,14.406185,14.459798,14.52944,14.607701,14.678427,14.737558,14.78867,14.842466,14.900257,14.961891,15.02843,15.100383,15.17824,15.264903,15.359412,15.465385,15.581865,15.704347,15.838129,15.968005,16.096046,16.222816,16.353237,16.483868,16.61018,16.72831,16.840734,16.950645,17.059288,17.162422,17.244164,17.29921,17.368464,17.49299,17.722626,18.038399,18.325024,18.464039,18.42714,18.478228,18.655989,18.688694,20.421337,29.843065,37.13502,37.481537,37.779778,38.014297,38.288464,38.88097,39.045662,39.22793,39.297104,39.244232,39.171265,39.188057,39.285244,39.44628,39.628872,39.812073,39.983448,40.141117,40.284637,40.414,40.534332,40.64978,40.759087,40.85695,40.95983,41.06862,41.178314,41.28219,41.372715,41.449966,41.51322,41.567314,41.62155,41.685627,41.75582,41.828785,41.90866,42.000572,42.103493,42.21701,42.331963,42.443386,42.540432,42.61942,42.680702,42.724686,42.754753,42.781433,42.812416,42.854332,42.902077,42.948387,42.98602,43.015053,43.04534,43.086403,43.140762,43.208366,43.28533,43.369057,43.462368,43.552437,43.637177,43.717667,43.789295,43.839424,43.87561,43.89559,43.89788,43.88822,43.863884,43.823933,43.76518,43.69484,43.63762,43.614,43.62658,43.654892,43.671577,43.68206,43.701393,43.747536,43.813595,43.856575,43.83406,43.75521,43.657036,43.580887,43.54557,43.536263,43.509968,43.49749,43.48722,43.478745,43.476948,43.448196,43.19513,42.664764,41.659073,39.84288,37.406548,34.954506,32.749508,31.373615,30.44912,29.74667,29.152973,28.585636,28.029224,27.485353,26.95449,26.447784,25.974455,25.529366,25.115898,24.735403,24.398483,24.089386,23.800308,23.513819,23.21444,22.891771,22.551748,22.210049,21.892925,21.61214,21.333736,20.99398,20.51707,19.90231,19.275013,18.732986,18.320492,18.012928,17.752213,17.498959,17.240112,16.98912,16.762941,16.563534,16.378633,16.194746,16.009062,15.822227,15.631773,15.438904,15.244982,15.05979,14.883097,14.711571,14.537134,14.358115,14.176531,14.001376,13.832731,13.652842,13.451253,13.246147,13.069052,12.946639,12.886728,12.884905,12.909244,12.931047,12.937934,12.925457,12.89953,12.864435,12.826059,12.788271,12.730571,12.604876,12.354877,11.914196,11.322536,10.812834,10.584898,10.562194,10.605389,10.6437,10.679173,10.721891,10.784782,10.877459,10.979095,11.053223,11.090864,11.102156,11.100023,11.09697,11.094412,11.088203,11.077795,11.068172,11.063335,11.061775,11.059795,11.05274,11.044206,11.0342655,11.024688,11.012931,10.998951,10.985026,10.969689,10.948156,10.910855,10.850185,10.764724,10.665353,10.570196,10.493097,10.439368,10.40318,10.378424,10.362492,10.342953,10.31941,10.292794,10.265987,10.239488,10.212942,10.185188,10.155767,10.1257515,10.095218,10.064558,10.036215,10.010723,9.988138,9.967382,9.945372,9.923582,9.901676,9.881247,9.860481,9.84236,9.829142,9.820043,9.813613,9.813534,9.822859,9.841024,9.8632145,9.891104,9.92952,9.970724,10.012932,10.05657,10.103709,10.154043
14.094702,14.086428,14.072402,14.0569105,14.059916,14.06529,14.076722,14.094501,14.1184025,14.144794,14.173161,14.207613,14.243536,14.279802,14.314502,14.352451,14.40587,14.473572,14.548061,14.632303,14.706516,14.761265,14.808983,14.861304,14.918837,14.980663,15.0473385,15.11853,15.194508,15.27775,15.367643,15.468886,15.581299,15.70186,15.835615,15.967054,16.097107,16.225426,16.357086,16.4893,16.618568,16.74118,16.858543,16.973478,17.086874,17.194088,17.277962,17.328724,17.371489,17.462704,17.656082,17.951284,18.262146,18.467888,18.480236,18.479246,18.620365,18.71954,19.618109,27.801075,36.09543,36.97857,37.145218,37.390762,37.603394,38.141846,38.304134,38.47321,38.5178,38.425552,38.33378,38.332336,38.410133,38.551334,38.706837,38.852745,38.987114,39.10753,39.21479,39.311768,39.40631,39.502876,39.598167,39.6817,39.765625,39.84983,39.93377,40.013012,40.082626,40.142193,40.189384,40.228638,40.268524,40.317818,40.37332,40.430733,40.49261,40.5625,40.63957,40.723938,40.808395,40.890854,40.96288,41.022545,41.070183,41.1047,41.12838,41.14981,41.176266,41.21444,41.25969,41.306046,41.346584,41.37915,41.411194,41.450535,41.500244,41.561134,41.630283,41.705948,41.789978,41.87155,41.949135,42.022186,42.0859,42.128433,42.155807,42.16691,42.16046,42.140793,42.108257,42.06317,42.003376,41.933014,41.868565,41.825783,41.809967,41.81064,41.809895,41.80822,41.807083,41.81688,41.834457,41.83278,41.790443,41.717804,41.642292,41.59294,41.58692,41.621765,41.65037,41.682983,41.699604,41.664234,41.640472,41.661922,41.618713,41.30119,40.594944,39.196022,37.155727,35.073143,33.074326,31.52106,30.526962,29.778389,29.15662,28.573483,28.004051,27.45307,26.92294,26.42427,25.964365,25.536541,25.137688,24.769276,24.431168,24.129944,23.850292,23.571804,23.282337,22.968418,22.63255,22.28778,21.960949,21.662327,21.353222,20.991255,20.509403,19.892845,19.272923,18.738895,18.330278,18.021725,17.756413,17.49739,17.233055,16.97756,16.748695,16.548653,16.36519,16.18365,15.999867,15.813873,15.623524,15.431004,15.237793,15.053265,14.876676,14.704619,14.529758,14.351223,14.171493,13.998817,13.832346,13.652863,13.449629,13.234673,13.048653,12.919323,12.85487,12.85238,12.883087,12.91299,12.924601,12.913529,12.887416,12.8525715,12.8157215,12.779554,12.719683,12.584606,12.315943,11.848232,11.249439,10.76791,10.581622,10.595945,10.616056,10.6501,10.674221,10.695743,10.734697,10.808122,10.898928,10.967486,11.002141,11.012798,11.011539,11.009264,11.006514,10.9990425,10.988985,10.981552,10.976082,10.973122,10.969871,10.962272,10.952097,10.942871,10.9334545,10.921864,10.908171,10.894337,10.880289,10.862946,10.835586,10.791636,10.727097,10.648583,10.570133,10.504946,10.459094,10.428705,10.409355,10.399454,10.386998,10.371262,10.352903,10.334513,10.316568,10.298416,10.278473,10.255568,10.23061,10.203955,10.175898,10.147733,10.120233,10.094076,10.069713,10.045626,10.022197,10.00013,9.979801,9.961496,9.945654,9.933174,9.925049,9.92195,9.928895,9.950458,9.98694,10.032648,10.079905,10.1285305,10.172625,10.214712,10.25827,10.304314,10.352285
14.106731,14.098999,14.085179,14.06902,14.070804,14.075113,14.0860405,14.103626,14.127292,14.153307,14.180818,14.2139635,14.248407,14.283394,14.316537,14.354214,14.402889,14.463042,14.534166,14.612843,14.687929,14.763693,14.830017,14.884929,14.940915,15.001991,15.067869,15.138143,15.212748,15.293356,15.379469,15.476354,15.58453,15.702642,15.83582,15.968563,16.100515,16.22998,16.361977,16.494265,16.624733,16.750385,16.87199,16.99202,17.11147,17.225784,17.316624,17.371246,17.404037,17.46078,17.614937,17.878757,18.194973,18.453747,18.527252,18.508083,18.624392,18.769152,19.31752,26.189995,34.837357,36.38346,36.506187,36.760963,36.937416,37.36464,37.559425,37.66111,37.70188,37.59205,37.482285,37.460205,37.510815,37.611397,37.722195,37.828465,37.92095,37.99978,38.06813,38.131584,38.200607,38.27926,38.362198,38.433975,38.501842,38.5643,38.624092,38.6801,38.730522,38.775604,38.812897,38.84621,38.881836,38.9265,38.97677,39.027973,39.081665,39.140022,39.202885,39.270782,39.338253,39.40545,39.46602,39.51899,39.564743,39.60067,39.6278,39.652927,39.682747,39.723305,39.77032,39.819115,39.863632,39.901535,39.939075,39.982857,40.035957,40.09767,40.16452,40.23436,40.308365,40.377388,40.440968,40.49884,40.54747,40.576912,40.59281,40.594364,40.5802,40.5532,40.51512,40.467583,40.409706,40.343918,40.28032,40.229973,40.19799,40.17909,40.161896,40.14514,40.126198,40.11245,40.10305,40.082718,40.03858,39.976814,39.915543,39.875908,39.87133,39.90035,39.941147,39.972733,39.971657,39.950714,39.953014,40.012848,40.021202,39.922443,39.494102,38.464737,36.856518,35.093994,33.3767,31.810753,30.675047,29.86582,29.204063,28.594753,28.001854,27.433731,26.89586,26.399427,25.94825,25.52758,25.134556,24.772083,24.439533,24.14191,23.869812,23.609097,23.337887,23.040958,22.720783,22.383133,22.04949,21.726685,21.393385,21.007057,20.525291,19.89278,19.269085,18.736328,18.329052,18.019783,17.751854,17.489986,17.222977,16.964973,16.734524,16.534225,16.35207,16.172667,15.990749,15.805979,15.616482,15.425166,15.2334,15.049746,14.8730545,14.7000675,14.524444,14.346313,14.168446,13.998251,13.834009,13.65518,13.450144,13.230065,13.031469,12.89254,12.821775,12.821264,12.855426,12.890144,12.905153,12.895422,12.869375,12.835438,12.801059,12.767965,12.709614,12.571968,12.292393,11.827842,11.241156,10.778437,10.611644,10.61508,10.641115,10.67296,10.679977,10.675634,10.685253,10.731443,10.801403,10.861514,10.88978,10.89606,10.892805,10.890935,10.88924,10.881666,10.870941,10.862282,10.8585,10.858757,10.857161,10.849261,10.837955,10.827511,10.817785,10.805555,10.791205,10.776355,10.761875,10.745943,10.725044,10.694782,10.650302,10.594324,10.535635,10.485113,10.44836,10.42375,10.408963,10.404074,10.397909,10.389447,10.379069,10.36891,10.3594055,10.349743,10.338257,10.323463,10.306087,10.286339,10.26414,10.240252,10.215379,10.190662,10.167799,10.146332,10.126446,10.108717,10.092674,10.078341,10.0655155,10.0546875,10.048386,10.049361,10.065096,10.101648,10.158022,10.225122,10.287606,10.34128,10.381113,10.415085,10.448309,10.483095,10.519369
14.123635,14.117216,14.104091,14.087453,14.08801,14.091325,14.101881,14.119416,14.142773,14.167864,14.194117,14.225992,14.259537,14.293828,14.326247,14.362701,14.408718,14.465443,14.533629,14.610125,14.681627,14.7448845,14.801645,14.862663,14.933643,15.009301,15.085321,15.157673,15.231224,15.31023,15.393891,15.487531,15.592257,15.708546,15.841895,15.97696,16.11173,16.242624,16.374596,16.505753,16.635384,16.761786,16.885658,17.008844,17.132683,17.252949,17.351492,17.413597,17.444855,17.492176,17.609516,17.836933,18.147741,18.437252,18.552963,18.537663,18.655163,18.805174,19.266167,25.101276,33.73116,35.762463,35.858994,36.11875,36.2499,36.62405,36.804684,36.848312,36.860886,36.72867,36.599,36.551018,36.561638,36.616356,36.686996,36.752205,36.804985,36.84706,36.883095,36.919243,36.966805,37.028496,37.097767,37.158024,37.21231,37.258915,37.3021,37.343407,37.38311,37.422295,37.458954,37.495792,37.536682,37.585976,37.639458,37.69233,37.74572,37.800674,37.857704,37.9178,37.97706,38.037426,38.093857,38.14599,38.195293,38.241486,38.279625,38.315292,38.353638,38.399437,38.448837,38.49887,38.54477,38.584118,38.62194,38.66391,38.712975,38.769005,38.834236,38.89928,38.96412,39.02173,39.072056,39.115566,39.149742,39.166702,39.172203,39.165993,39.14647,39.11542,39.07525,39.028522,38.97513,38.916367,38.857986,38.807274,38.768147,38.738373,38.7109,38.684254,38.654266,38.627476,38.604683,38.57716,38.536148,38.483456,38.430748,38.393642,38.382195,38.396305,38.41813,38.42847,38.40942,38.366165,38.33753,38.386772,38.47847,38.53721,38.335754,37.648293,36.47085,34.98597,33.50161,32.109356,30.89716,30.005104,29.30484,28.665127,28.04012,27.442518,26.883953,26.378693,25.92786,25.507595,25.111095,24.742722,24.409245,24.117863,23.85823,23.613182,23.362915,23.08926,22.78693,22.461777,22.130655,21.796965,21.445126,21.037464,20.538357,19.903526,19.26966,18.732517,18.322325,18.010761,17.740978,17.47812,17.210619,16.952074,16.72131,16.521242,16.340202,16.162651,15.982639,15.799755,15.612286,15.4233,15.233642,15.05082,14.873404,14.698654,14.521451,14.343065,14.166414,13.998339,13.836601,13.659538,13.454304,13.230412,13.022547,12.87134,12.791758,12.78436,12.815283,12.850428,12.866855,12.857995,12.832182,12.799353,12.76759,12.738502,12.685819,12.554956,12.275248,11.839302,11.277575,10.818405,10.6528,10.63813,10.661257,10.685507,10.676525,10.650148,10.633792,10.653194,10.698265,10.740815,10.76173,10.766846,10.767908,10.767567,10.762068,10.752698,10.741224,10.731364,10.726871,10.726654,10.726253,10.722782,10.7167,10.703703,10.691973,10.679604,10.665361,10.650358,10.635786,10.620541,10.603666,10.583048,10.554415,10.517887,10.477781,10.442099,10.415176,10.397095,10.387183,10.38692,10.386026,10.383318,10.379125,10.3753395,10.3724375,10.369461,10.364674,10.356409,10.345372,10.332083,10.316309,10.2981205,10.277769,10.25651,10.236808,10.219022,10.203419,10.190451,10.179285,10.169325,10.16011,10.151871,10.148526,10.154684,10.180066,10.231607,10.305841,10.389558,10.460913,10.513117,10.543552,10.566101,10.587648,10.610443,10.634045
14.148742,14.143703,14.131168,14.113884,14.113039,14.1154,14.125681,14.143245,14.1661,14.189707,14.2137785,14.243372,14.275227,14.308322,14.339718,14.374691,14.418224,14.471638,14.536335,14.61042,14.680798,14.743065,14.799653,14.857681,14.918629,14.982589,15.050574,15.122986,15.201024,15.288034,15.380147,15.479047,15.585895,15.703096,15.836313,15.972164,16.109814,16.246435,16.380096,16.51125,16.643307,16.772835,16.897243,17.021675,17.148174,17.273054,17.378998,17.450813,17.487093,17.524818,17.631119,17.818874,18.116348,18.418613,18.567696,18.565525,18.677013,18.83685,19.24419,24.345444,32.823235,35.113068,35.178875,35.429607,35.507378,35.87554,35.9963,36.00425,35.962425,35.812447,35.66544,35.590797,35.563553,35.58647,35.623856,35.65682,35.680847,35.698307,35.71398,35.732677,35.764835,35.81163,35.866444,35.91503,35.957947,35.994102,36.028145,36.06299,36.09928,36.138763,36.179718,36.223785,36.27282,36.32926,36.388184,36.44513,36.50058,36.55909,36.6193,36.680977,36.74196,36.805443,36.867085,36.92624,36.983337,37.034775,37.078888,37.119812,37.161858,37.20893,37.257862,37.307236,37.353577,37.39497,37.435528,37.480003,37.530857,37.585056,37.639656,37.690536,37.738968,37.780384,37.815575,37.84555,37.868713,37.87612,37.873753,37.861996,37.839207,37.80654,37.76662,37.72256,37.6746,37.623173,37.571342,37.523605,37.482773,37.44825,37.41552,37.383522,37.347427,37.313396,37.283295,37.25238,37.214172,37.167103,37.11818,37.07876,37.057014,37.055355,37.058968,37.053673,37.02253,36.95851,36.90385,36.93076,37.02883,37.14049,37.12551,36.763847,35.96071,34.782475,33.45063,32.26808,31.170404,30.20788,29.461391,28.786552,28.118332,27.476477,26.883207,26.358534,25.901539,25.479479,25.079258,24.703953,24.363811,24.070835,23.817917,23.589954,23.363194,23.114294,22.830389,22.516945,22.194603,21.865417,21.502975,21.075525,20.557468,19.926208,19.279083,18.733303,18.316189,18.000217,17.728436,17.465256,17.198448,16.940708,16.710506,16.510876,16.33048,16.15409,15.975621,15.794819,15.610258,15.424585,15.237856,15.056131,14.8777275,14.700598,14.520955,14.341356,14.164902,13.998295,13.839157,13.664933,13.461059,13.234137,13.017611,12.852981,12.758459,12.737386,12.75849,12.788736,12.803279,12.793772,12.7676115,12.735387,12.705708,12.680733,12.635069,12.518639,12.254156,11.853468,11.325439,10.872545,10.698536,10.659714,10.671019,10.685131,10.664341,10.623512,10.589245,10.588175,10.61294,10.639877,10.652369,10.65456,10.655707,10.657846,10.656176,10.6471,10.633818,10.623369,10.617544,10.614214,10.612864,10.609174,10.602922,10.594254,10.584692,10.571875,10.557058,10.542965,10.5289135,10.5141945,10.4995575,10.484765,10.466692,10.444145,10.418346,10.394745,10.37623,10.363996,10.35833,10.361628,10.364279,10.365002,10.364309,10.364106,10.365008,10.365911,10.364972,10.360437,10.353083,10.344062,10.333271,10.3202095,10.304453,10.286957,10.270382,10.2556305,10.243177,10.233659,10.226225,10.219942,10.213921,10.208023,10.2073765,10.217897,10.25094,10.313633,10.399809,10.492555,10.565302,10.610374,10.629256,10.640928,10.653367,10.667372,10.68116
14.181646,14.177313,14.16486,14.146669,14.144333,14.145994,14.156227,14.173819,14.195673,14.216904,14.237656,14.26387,14.293421,14.325224,14.356108,14.390345,14.431915,14.482088,14.542988,14.614122,14.683147,14.74523,14.80176,14.858606,14.917234,14.978714,15.044896,15.1171055,15.195536,15.280106,15.368422,15.463355,15.565744,15.679341,15.811829,15.950573,16.09159,16.228092,16.36248,16.493368,16.622559,16.7511,16.880564,17.011356,17.147919,17.281841,17.397074,17.479568,17.524214,17.559906,17.652502,17.825998,18.100945,18.401726,18.571655,18.584541,18.673843,18.841621,19.247677,23.852367,32.01259,34.398514,34.451843,34.671604,34.706528,35.078278,35.123672,35.104042,35.00483,34.841312,34.677658,34.57897,34.526398,34.52614,34.540955,34.553574,34.561043,34.56587,34.572113,34.582832,34.606644,34.643486,34.687485,34.727272,34.762745,34.793724,34.824966,34.859303,34.897106,34.939934,34.986485,35.040737,35.104767,35.173172,35.24154,35.306374,35.36911,35.430553,35.49116,35.55223,35.61247,35.675735,35.738277,35.799416,35.85952,35.91466,35.96277,36.007294,36.051785,36.099495,36.14779,36.19657,36.243446,36.286446,36.330017,36.37732,36.429874,36.48414,36.53698,36.584473,36.62762,36.663506,36.692566,36.71598,36.731617,36.73307,36.725872,36.711,36.68712,36.654976,36.61686,36.57525,36.529793,36.47991,36.426735,36.37249,36.31884,36.26756,36.22927,36.194756,36.15579,36.11827,36.084732,36.053017,36.018013,35.975845,35.9302,35.88878,35.858482,35.843914,35.833637,35.817036,35.77706,35.702057,35.626003,35.615837,35.70077,35.85571,35.943306,35.815002,35.322563,34.452263,33.33786,32.22613,31.295885,30.476501,29.69357,28.96092,28.230606,27.523422,26.87931,26.32653,25.862442,25.443977,25.047943,24.671944,24.327171,24.03019,23.777214,23.55471,23.338501,23.104008,22.840721,22.549765,22.242802,21.915672,21.55082,21.114212,20.585947,19.967474,19.305103,18.747574,18.320065,17.9963,17.719946,17.455364,17.189407,16.932999,16.703825,16.504599,16.324121,16.147808,15.969843,15.790661,15.609182,15.427439,15.244454,15.064431,14.885271,14.705465,14.522522,14.340448,14.162775,13.996658,13.839884,13.669077,13.467442,13.237732,13.011532,12.830864,12.71699,12.676601,12.681768,12.701507,12.71,12.69758,12.670158,12.637781,12.609102,12.587346,12.5487175,12.443944,12.213802,11.850019,11.368779,10.933376,10.742707,10.67824,10.673615,10.677301,10.650415,10.604477,10.563183,10.552101,10.566197,10.585468,10.594852,10.596733,10.598188,10.599228,10.59479,10.5823555,10.566043,10.5530615,10.547207,10.546317,10.544203,10.536608,10.529469,10.520069,10.5101185,10.498999,10.487076,10.474476,10.461437,10.44789,10.434023,10.421173,10.40867,10.393835,10.376274,10.359774,10.346188,10.337387,10.334101,10.339062,10.343052,10.344797,10.345119,10.346193,10.34882,10.351635,10.352678,10.349974,10.344363,10.337637,10.329948,10.320564,10.308521,10.294184,10.279971,10.266997,10.256069,10.248161,10.24259,10.238291,10.233763,10.228619,10.228762,10.240818,10.277075,10.344339,10.43404,10.526313,10.592955,10.62772,10.636226,10.640285,10.647866,10.657379,10.665039
14.221666,14.217035,14.204075,14.184824,14.180989,14.18215,14.192396,14.209724,14.229879,14.247832,14.264273,14.286242,14.313128,14.34379,14.374853,14.409317,14.449642,14.496864,14.553726,14.621178,14.688065,14.74921,14.804986,14.860285,14.916845,14.9767685,15.042662,15.116299,15.197357,15.284521,15.37417,15.467855,15.566824,15.676388,15.805812,15.943942,16.085564,16.222166,16.35471,16.481915,16.606865,16.731586,16.858498,16.988289,17.122944,17.259506,17.384472,17.482574,17.549788,17.593136,17.6772,17.843594,18.101875,18.392384,18.567318,18.58868,18.65139,18.842133,19.315216,23.45586,31.157707,33.61944,33.67496,33.843708,33.873123,34.22236,34.184822,34.115776,33.99183,33.82093,33.641,33.528465,33.464798,33.451344,33.455173,33.459785,33.46225,33.465057,33.470978,33.48139,33.502792,33.534477,33.571636,33.60574,33.637074,33.66629,33.698174,33.735176,33.779545,33.83718,33.898003,33.962967,34.03171,34.10426,34.175194,34.241753,34.305946,34.368073,34.430824,34.494106,34.556236,34.620842,34.68449,34.746223,34.806942,34.86408,34.91583,34.96557,35.015606,35.068077,35.120605,35.173096,35.22386,35.27079,35.31672,35.36429,35.41498,35.465332,35.512527,35.55317,35.58879,35.618195,35.641758,35.661068,35.673706,35.673424,35.665565,35.651173,35.628677,35.598488,35.562862,35.5243,35.482735,35.43742,35.388863,35.338264,35.286613,35.234726,35.181477,35.12619,35.065765,35.012695,34.972343,34.94181,34.90972,34.872124,34.830547,34.78965,34.75513,34.732704,34.71434,34.691254,34.646225,34.56888,34.48362,34.449547,34.505302,34.655464,34.816795,34.834354,34.57905,33.99032,33.119583,32.162727,31.288406,30.527912,29.913643,29.197403,28.37753,27.581362,26.87055,26.282131,25.81164,25.40489,25.024391,24.657032,24.311684,24.008327,23.747948,23.521006,23.305464,23.077106,22.824236,22.546516,22.2542,21.942501,21.58603,21.143906,20.607431,20.006718,19.34893,18.777172,18.336895,18.00201,17.71773,17.449577,17.183748,16.928736,16.701017,16.502396,16.32145,16.144413,15.966089,15.787878,15.609276,15.431553,15.25271,15.07489,14.895345,14.712912,14.526126,14.340532,14.160302,13.993542,13.838474,13.670936,13.471594,13.238953,13.002451,12.804575,12.6695595,12.6073,12.593331,12.598871,12.597729,12.579645,12.549074,12.514709,12.484982,12.464055,12.432293,12.343376,12.1411295,11.819561,11.402045,10.99026,10.781086,10.693323,10.671499,10.665576,10.63749,10.594109,10.555019,10.543177,10.555292,10.5738,10.584319,10.587629,10.58909,10.587887,10.579497,10.562986,10.543345,10.527863,10.52017,10.517929,10.516609,10.509832,10.498409,10.486753,10.476151,10.465025,10.454008,10.442812,10.430945,10.417831,10.405842,10.393398,10.381417,10.369713,10.355524,10.341982,10.330549,10.323418,10.321304,10.326679,10.330419,10.331348,10.330809,10.331383,10.334205,10.337545,10.339268,10.337057,10.331707,10.325571,10.319171,10.311838,10.302292,10.290207,10.277491,10.26524,10.254574,10.24689,10.24168,10.237799,10.233202,10.227179,10.226019,10.236393,10.270882,10.335479,10.420174,10.503394,10.558383,10.581982,10.58264,10.58255,10.588696,10.597055,10.601938
14.267088,14.260468,14.245253,14.223851,14.218122,14.218559,14.2285,14.245123,14.263191,14.277569,14.289566,14.307158,14.331481,14.361347,14.393252,14.428818,14.468589,14.513231,14.565883,14.628895,14.692528,14.751592,14.805721,14.859236,14.914263,14.974083,15.041898,15.119523,15.205814,15.297974,15.391037,15.484629,15.580265,15.684378,15.808556,15.943783,16.084179,16.219894,16.349913,16.472965,16.59322,16.713463,16.836891,16.96418,17.09775,17.235117,17.362555,17.469805,17.549833,17.616919,17.703339,17.86475,18.114742,18.377247,18.549335,18.590061,18.627438,18.844318,19.404467,23.212326,30.354912,32.803577,32.858124,32.969807,33.05891,33.295002,33.195503,33.071266,32.948242,32.77175,32.59725,32.48548,32.42327,32.408222,32.411667,32.418736,32.42633,32.435883,32.448624,32.46449,32.488083,32.51873,32.552795,32.584476,32.61475,32.645103,32.68345,32.734234,32.789314,32.84946,32.913555,32.982918,33.059063,33.137436,33.21186,33.280685,33.346443,33.410133,33.471184,33.53129,33.590492,33.65258,33.714226,33.77445,33.83425,33.89026,33.941483,33.98893,34.02162,34.0495,34.091827,34.143276,34.19501,34.23976,34.28701,34.340183,34.398552,34.457153,34.512024,34.56066,34.59655,34.620945,34.64132,34.658844,34.6708,34.670547,34.662834,34.648853,34.62721,34.598206,34.564087,34.527386,34.48832,34.446575,34.40222,34.35598,34.307377,34.257988,34.207455,34.155327,34.09726,34.036957,33.97756,33.926678,33.886086,33.846622,33.810314,33.772377,33.73867,33.71496,33.695995,33.674973,33.63537,33.566616,33.483494,33.43569,33.462643,33.580032,33.75283,33.86303,33.776886,33.421234,32.797848,32.03861,31.2888,30.593536,29.941704,29.332935,28.56019,27.666094,26.872639,26.240536,25.763294,25.375614,25.023026,24.675606,24.33519,24.023052,23.74644,23.502558,23.274254,23.04004,22.788658,22.519566,22.23905,21.93851,21.59013,21.16084,20.62793,20.029074,19.40586,18.821766,18.368011,18.019773,17.724388,17.449383,17.181557,16.927536,16.70183,16.504387,16.323093,16.144897,15.965478,15.787397,15.610907,15.436682,15.261774,15.086332,14.906835,14.722104,14.5313225,14.341515,14.157661,13.989159,13.834699,13.669419,13.4715805,13.235655,12.989271,12.7754,12.621243,12.539003,12.506944,12.49791,12.485664,12.459543,12.423236,12.384314,12.350874,12.327444,12.29813,12.223365,12.053733,11.77413,11.414321,11.0300455,10.808036,10.7042055,10.667184,10.653315,10.626933,10.590365,10.559145,10.552959,10.569445,10.5919895,10.60578,10.610454,10.6106825,10.606336,10.594204,10.574718,10.553111,10.536203,10.527185,10.523787,10.521416,10.511679,10.499458,10.485392,10.472895,10.460994,10.4497795,10.438982,10.42767,10.415123,10.402207,10.388182,10.376282,10.365255,10.35177,10.338894,10.32822,10.3221035,10.32085,10.326288,10.329041,10.328208,10.325735,10.32486,10.327105,10.330351,10.332271,10.330073,10.324388,10.317987,10.311806,10.305517,10.297777,10.287652,10.276428,10.265091,10.255001,10.2477665,10.242978,10.23925,10.234033,10.226272,10.222243,10.228191,10.2565365,10.312614,10.38612,10.455505,10.497092,10.510478,10.505177,10.501894,10.506358,10.512926,10.515135
14.309694,14.300031,14.28249,14.258878,14.251649,14.251358,14.260836,14.276661,14.293026,14.304688,14.313435,14.327822,14.35056,14.380377,14.413805,14.45104,14.49069,14.533115,14.581606,14.639818,14.69961,14.7559395,14.807991,14.859671,14.913485,14.973891,15.044556,15.127287,15.220076,15.31873,15.416878,15.511787,15.604916,15.703156,15.820903,15.9516,16.089252,16.223104,16.3499,16.468296,16.583431,16.698645,16.817842,16.941559,17.072613,17.209297,17.338459,17.449905,17.535625,17.614075,17.725555,17.89283,18.118267,18.367418,18.53878,18.59808,18.638988,18.853058,19.513819,23.080318,29.599026,31.929512,32.002373,32.081966,32.25862,32.33323,32.13889,32.022224,31.902243,31.731703,31.574783,31.473095,31.419579,31.408813,31.416195,31.42971,31.446209,31.465584,31.487633,31.511002,31.538967,31.571148,31.604847,31.63746,31.671837,31.714691,31.762772,31.81651,31.87841,31.949928,32.023613,32.099014,32.174507,32.24945,32.318787,32.381866,32.44249,32.502823,32.55225,32.597214,32.64408,32.695633,32.746716,32.79489,32.840927,32.865864,32.877014,32.88878,32.911148,32.95038,33.00219,33.062714,33.125885,33.190388,33.25737,33.325188,33.39133,33.442978,33.484955,33.52049,33.553257,33.583878,33.611458,33.637123,33.656647,33.660995,33.65006,33.62947,33.601562,33.563747,33.51831,33.47191,33.42977,33.3938,33.36255,33.336555,33.29828,33.26484,33.237686,33.21411,33.174377,33.11875,33.065395,33.012787,32.95877,32.908585,32.862267,32.820557,32.78881,32.76682,32.75042,32.734528,32.704666,32.648926,32.574112,32.5206,32.52364,32.605312,32.754154,32.894043,32.919327,32.745552,32.348843,31.80825,31.220078,30.624683,30.017086,29.359312,28.720238,27.777763,26.899683,26.220509,25.734665,25.367834,25.049053,24.728434,24.397177,24.07543,23.777012,23.507557,23.256298,23.006264,22.747913,22.481304,22.209717,21.921001,21.58334,21.161522,20.641634,20.051044,19.458618,18.876999,18.408829,18.046131,17.737663,17.453663,17.182444,16.929153,16.705784,16.509754,16.327991,16.148218,15.967117,15.788436,15.613285,15.441797,15.27025,15.096981,14.917633,14.730814,14.536045,14.341733,14.153814,13.983061,13.828579,13.664885,13.468118,13.229305,12.975168,12.745074,12.578507,12.481243,12.434737,12.413274,12.390462,12.355427,12.311722,12.26628,12.226898,12.198142,12.167408,12.101791,11.959328,11.719305,11.413843,11.061951,10.8323765,10.71562,10.665585,10.644949,10.620674,10.59115,10.568425,10.569009,10.59099,10.618044,10.634399,10.639034,10.636765,10.629055,10.614294,10.593734,10.57213,10.555342,10.545952,10.541954,10.534178,10.523865,10.511175,10.496257,10.482323,10.469084,10.456898,10.445686,10.434573,10.421587,10.40623,10.391859,10.380568,10.369193,10.355425,10.342514,10.332609,10.327964,10.328213,10.334173,10.335884,10.332962,10.328024,10.32515,10.326383,10.329248,10.331236,10.329,10.322914,10.316051,10.309704,10.303999,10.297644,10.289158,10.279289,10.268838,10.259384,10.252676,10.248307,10.244648,10.238792,10.229474,10.222734,10.2241955,10.245721,10.292038,10.35321,10.408882,10.4388275,10.444702,10.435826,10.430502,10.43322,10.437584,10.437368
14.323648,14.314864,14.298624,14.279398,14.276425,14.276627,14.285603,14.301051,14.316715,14.327578,14.335687,14.349485,14.372585,14.403485,14.438738,14.477568,14.516923,14.557245,14.601938,14.655722,14.712037,14.765945,14.816253,14.866411,14.918842,14.97905,15.051197,15.137521,15.235659,15.340678,15.44476,15.542772,15.635396,15.7292,15.841196,15.967313,16.10173,16.233267,16.356373,16.469715,16.579357,16.689104,16.803513,16.922852,17.050339,17.185303,17.315403,17.430683,17.523167,17.609333,17.726112,17.894733,18.113348,18.347797,18.505518,18.588833,18.693302,18.899868,19.621677,23.001217,28.879517,31.043108,31.125334,31.256948,31.45406,31.332794,31.082367,30.985542,30.875925,30.731567,30.598436,30.511135,30.469894,30.466278,30.479942,30.501188,30.526176,30.554157,30.583885,30.613544,30.645357,30.680077,30.715042,30.758236,30.802252,30.84835,30.904713,30.97123,31.039522,31.110352,31.183243,31.256508,31.328335,31.398346,31.454779,31.500496,31.546116,31.588852,31.629276,31.669619,31.712322,31.740614,31.765205,31.785938,31.805655,31.821064,31.832218,31.848785,31.8786,31.926147,31.98705,32.056213,32.12731,32.197937,32.26802,32.33483,32.393856,32.442184,32.477978,32.50347,32.526436,32.550186,32.57283,32.592373,32.60124,32.592735,32.575947,32.55469,32.52713,32.49169,32.450058,32.407635,32.36886,32.336403,32.3099,32.289772,32.276047,32.269157,32.26738,32.26597,32.25268,32.233295,32.20189,32.153988,32.105724,32.05513,31.99968,31.948763,31.90393,31.877655,31.862942,31.85057,31.828903,31.786598,31.724625,31.673737,31.661411,31.709118,31.817146,31.939116,32.007374,31.95954,31.757946,31.429016,31.02483,30.563564,30.02995,29.402224,28.68753,27.904375,26.982914,26.258427,25.758232,25.404045,25.113493,24.81786,24.496063,24.164318,23.841496,23.54166,23.260654,22.986994,22.71394,22.443068,22.17577,21.896894,21.570087,21.157429,20.643959,20.067411,19.492521,18.933836,18.451977,18.075623,17.754543,17.461678,17.187,16.93417,16.71251,16.517107,16.333996,16.151962,15.968683,15.788925,15.614519,15.444908,15.27585,15.104231,14.924833,14.736101,14.537636,14.339139,14.147615,13.975051,13.820682,13.658421,13.462824,13.222252,12.963143,12.7217245,12.547941,12.441582,12.385734,12.355436,12.323948,12.279903,12.227376,12.1735,12.126083,12.089684,12.05442,11.993164,11.870935,11.664919,11.399668,11.088667,10.857155,10.730677,10.670643,10.643877,10.619709,10.5937,10.575466,10.579159,10.603256,10.631668,10.6477585,10.6504135,10.645141,10.635193,10.620159,10.601279,10.582209,10.567424,10.559025,10.55172,10.543338,10.532988,10.520012,10.504293,10.489179,10.47419,10.460402,10.448004,10.4364195,10.422956,10.407232,10.393387,10.382164,10.3706045,10.356806,10.344339,10.336136,10.334127,10.337038,10.344442,10.34549,10.340487,10.332695,10.327266,10.326891,10.32888,10.330532,10.327966,10.321284,10.313793,10.307095,10.301683,10.296239,10.288845,10.279829,10.269904,10.26085,10.254541,10.250543,10.246994,10.240917,10.231028,10.223091,10.222044,10.238822,10.277472,10.328686,10.373856,10.395941,10.397805,10.387876,10.382064,10.383696,10.38659,10.385094
14.318048,14.309264,14.29594,14.279947,14.277964,14.283958,14.298137,14.31736,14.33514,14.347862,14.359098,14.37613,14.402355,14.435342,14.472099,14.511609,14.549986,14.588156,14.629504,14.679386,14.732647,14.784534,14.833671,14.8827715,14.93354,14.991951,15.062682,15.149172,15.249544,15.359229,15.468921,15.571276,15.665446,15.756937,15.864735,15.986869,16.118023,16.246838,16.36583,16.47386,16.577965,16.682446,16.792301,16.907326,17.031021,17.163937,17.294588,17.413319,17.51221,17.606342,17.730152,17.90139,18.112236,18.330008,18.469402,18.548811,18.695293,18.927345,19.723206,22.990185,28.140362,30.133564,30.271347,30.489096,30.517052,30.270596,30.069185,29.980457,29.89877,29.784447,29.674519,29.607185,29.579184,29.58334,29.603325,29.631098,29.662167,29.695837,29.730183,29.76391,29.798676,29.840782,29.886635,29.931763,29.977945,30.038143,30.101135,30.166027,30.232475,30.299923,30.369057,30.434483,30.492962,30.54369,30.586473,30.62331,30.661324,30.687603,30.709373,30.731054,30.75056,30.77365,30.794659,30.812967,30.831299,30.847555,30.862312,30.88641,30.926327,30.982267,31.049965,31.123898,31.198313,31.27022,31.340487,31.405506,31.45893,31.4986,31.523952,31.539024,31.553158,31.569885,31.587814,31.605145,31.613777,31.605812,31.588982,31.56737,31.54071,31.507982,31.470638,31.433289,31.399609,31.372372,31.351929,31.339148,31.33246,31.332186,31.336256,31.341179,31.342018,31.343636,31.35042,31.33871,31.295725,31.24834,31.199322,31.146816,31.090858,31.045933,31.022758,31.010551,30.99392,30.962244,30.913357,30.869057,30.847836,30.866142,30.929298,31.01506,31.08593,31.10429,31.037113,30.879429,30.647438,30.334415,29.908508,29.348434,28.662947,27.961937,27.114555,26.364273,25.847229,25.495716,25.22206,24.944017,24.630054,24.290785,23.946136,23.617699,23.305449,23.003193,22.70811,22.424644,22.15438,21.880138,21.561157,21.15586,20.647919,20.074371,19.50988,18.978706,18.497272,18.107212,17.775196,17.474743,17.19698,16.943977,16.722656,16.526375,16.340664,16.15554,15.969622,15.788386,15.614183,15.445757,15.278488,15.108055,14.928394,14.737753,14.53573,14.333395,14.138968,13.965303,13.811462,13.6507225,13.456599,13.215673,12.954487,12.707449,12.531064,12.42058,12.360045,12.324428,12.286538,12.23426,12.172845,12.110224,12.054432,12.009853,11.96855,11.907841,11.798575,11.6180725,11.381708,11.111139,10.882118,10.748981,10.682131,10.650364,10.624859,10.599232,10.581493,10.584537,10.6073885,10.634548,10.648796,10.649029,10.641515,10.630859,10.617472,10.602016,10.586889,10.5750675,10.566665,10.558363,10.550121,10.53984,10.5266905,10.510504,10.494377,10.477565,10.461863,10.447811,10.43502,10.422242,10.408064,10.394285,10.382011,10.369867,10.3563175,10.344574,10.33849,10.339644,10.345797,10.355257,10.356083,10.349222,10.338531,10.330252,10.327827,10.328521,10.329458,10.326351,10.319028,10.310923,10.303851,10.298508,10.293508,10.286587,10.277911,10.26823,10.25947,10.253538,10.249865,10.246357,10.24027,10.230584,10.222973,10.221788,10.236748,10.27109,10.315874,10.3544235,10.372202,10.372717,10.363305,10.357775,10.358534,10.360294,10.358194
14.306401,14.29438,14.279039,14.263652,14.267601,14.278658,14.295759,14.315285,14.337423,14.35853,14.378882,14.404926,14.438965,14.475321,14.51318,14.552805,14.590336,14.626326,14.664471,14.710942,14.761684,14.81222,14.86129,14.910328,14.959448,15.014204,15.079748,15.161673,15.259773,15.371153,15.485212,15.592698,15.690359,15.781837,15.88709,16.005783,16.133362,16.258688,16.373089,16.475834,16.575077,16.675497,16.78222,16.894205,17.015,17.14634,17.277502,17.398998,17.502739,17.60288,17.73199,17.90495,18.108337,18.310497,18.433262,18.517187,18.692831,18.94464,19.826248,23.102379,27.49934,29.226765,29.512428,29.643278,29.581131,29.304758,29.12886,29.058174,28.99614,28.90559,28.81776,28.770529,28.755058,28.765663,28.78944,28.820324,28.853931,28.889301,28.925528,28.964176,29.008057,29.052647,29.09732,29.146927,29.204575,29.262432,29.32309,29.383816,29.438948,29.488846,29.547264,29.605389,29.657604,29.700768,29.732891,29.744942,29.751328,29.76727,29.786774,29.806097,29.824608,29.847324,29.870598,29.894272,29.921093,29.951038,29.979898,30.015894,30.062645,30.123137,30.193132,30.267216,30.340841,30.41126,30.476173,30.53513,30.5821,30.614418,30.63062,30.635765,30.641514,30.65195,30.66599,30.6835,30.69559,30.691442,30.676178,30.655096,30.629833,30.599928,30.567118,30.535662,30.508455,30.48786,30.474361,30.46902,30.47018,30.476765,30.485863,30.494507,30.498371,30.501862,30.511032,30.528753,30.525629,30.483757,30.436716,30.38781,30.337208,30.28543,30.237259,30.211828,30.194714,30.16878,30.129185,30.091454,30.066246,30.064762,30.09188,30.139103,30.189133,30.223953,30.222687,30.170275,30.06282,29.87851,29.575634,29.128159,28.539356,27.870403,27.20419,26.535072,26.019556,25.653877,25.379028,25.110634,24.8059,24.467457,24.111732,23.76254,23.421753,23.088219,22.76419,22.457653,22.173191,21.893675,21.574791,21.17086,20.66323,20.088152,19.52716,19.011593,18.544552,18.142685,17.801884,17.49583,17.215408,16.961042,16.737827,16.538387,16.348438,16.159348,15.97044,15.787508,15.613201,15.44558,15.279775,15.110403,14.930198,14.737238,14.531366,14.325262,14.12834,13.954021,13.801012,13.641861,13.449531,13.209654,12.949072,12.701296,12.525764,12.415447,12.353975,12.315908,12.2736435,12.214558,12.1455,12.075405,12.012583,11.961315,11.914572,11.852439,11.749819,11.585099,11.367069,11.125664,10.9057255,10.768893,10.69842,10.663929,10.637232,10.610525,10.590748,10.590559,10.609935,10.634571,10.647234,10.64653,10.638916,10.62947,10.61893,10.607046,10.595088,10.584341,10.574194,10.565933,10.557926,10.548035,10.53554,10.520547,10.504015,10.48568,10.468251,10.452457,10.438189,10.424988,10.411746,10.398718,10.385154,10.371494,10.357616,10.346153,10.341649,10.345432,10.354509,10.365947,10.366703,10.358208,10.34468,10.333391,10.328541,10.327507,10.327341,10.323519,10.31562,10.3070755,10.299756,10.294342,10.289331,10.282269,10.2734165,10.263712,10.255125,10.249528,10.245941,10.24207,10.235688,10.226437,10.220287,10.221186,10.237427,10.271185,10.313378,10.348814,10.364847,10.365404,10.356941,10.35165,10.351423,10.352131,10.349801
14.298464,14.283841,14.267601,14.2523365,14.25598,14.265818,14.283241,14.307531,14.337677,14.366816,14.394162,14.426618,14.463861,14.503794,14.544828,14.587571,14.629,14.665616,14.702541,14.747542,14.795922,14.84502,14.894797,14.944995,14.993092,15.043057,15.100405,15.173686,15.265335,15.375334,15.492165,15.605045,15.707756,15.801559,15.906008,16.02195,16.145853,16.267128,16.376926,16.475006,16.57058,16.668549,16.773659,16.883839,17.002384,17.132017,17.26294,17.38602,17.493002,17.597816,17.731327,17.90596,18.10336,18.292484,18.402676,18.492296,18.691284,18.974155,19.957796,23.118752,26.920372,28.44678,28.77892,28.83516,28.67815,28.41356,28.261005,28.204428,28.157267,28.08525,28.021152,27.992695,27.988987,28.0052,28.031357,28.063183,28.097107,28.133026,28.175934,28.219812,28.261183,28.302954,28.352314,28.406181,28.460102,28.515102,28.571085,28.61477,28.65325,28.701637,28.754156,28.805252,28.848265,28.869541,28.868254,28.867138,28.873655,28.88717,28.90435,28.922447,28.941532,28.969513,29.002934,29.040266,29.081501,29.123411,29.164131,29.210894,29.265541,29.329872,29.399326,29.469158,29.537973,29.602234,29.65749,29.70543,29.74228,29.764954,29.775578,29.778137,29.781876,29.789993,29.802502,29.818161,29.829666,29.825062,29.810741,29.792097,29.769058,29.74213,29.713865,29.68862,29.668713,29.65601,29.650637,29.65388,29.66423,29.678661,29.692505,29.704693,29.712265,29.719166,29.729187,29.742882,29.760782,29.754116,29.71174,29.664463,29.616615,29.568216,29.520445,29.469986,29.438839,29.41236,29.37885,29.346375,29.320286,29.306955,29.30873,29.323215,29.345001,29.368832,29.384613,29.378492,29.339102,29.242563,29.050247,28.733978,28.283897,27.735382,27.160759,26.652039,26.20391,25.80714,25.515047,25.262878,24.983475,24.669811,24.342014,23.98614,23.627504,23.259592,22.895061,22.553164,22.242245,21.945696,21.616795,21.205418,20.691216,20.109188,19.542862,19.031704,18.584023,18.181967,17.834278,17.524355,17.241386,16.984138,16.756737,16.552063,16.356712,16.163368,15.971699,15.787336,15.613097,15.4463215,15.282048,15.113802,14.93292,14.737342,14.527365,14.317541,14.118488,13.943814,13.791592,13.633552,13.44248,13.203884,12.945239,12.698761,12.526806,12.419297,12.359292,12.320973,12.276314,12.212274,12.137348,12.061444,11.99316,11.936663,11.885044,11.819984,11.7192335,11.56278,11.356638,11.135336,10.928347,10.789858,10.717989,10.682226,10.65461,10.626459,10.603956,10.599901,10.615355,10.637466,10.649265,10.64874,10.642122,10.6341715,10.625322,10.614689,10.6022835,10.590113,10.579941,10.571995,10.564772,10.5564785,10.547006,10.532807,10.5156975,10.496347,10.477629,10.460432,10.444843,10.430101,10.415791,10.402734,10.389511,10.375223,10.360865,10.349468,10.346041,10.351721,10.363045,10.37603,10.376749,10.366895,10.350929,10.336878,10.329597,10.326656,10.32515,10.320507,10.312077,10.303185,10.295679,10.29004,10.284726,10.277214,10.267977,10.258307,10.250099,10.245058,10.241617,10.237263,10.230472,10.221674,10.217351,10.221085,10.2397175,10.274298,10.315414,10.349168,10.364494,10.365471,10.357796,10.352356,10.350803,10.350199,10.347532
14.298959,14.281984,14.26482,14.249715,14.253323,14.26247,14.278704,14.302017,14.332314,14.367244,14.405293,14.448309,14.491461,14.532099,14.571362,14.611121,14.648463,14.687201,14.728872,14.77754,14.82574,14.875157,14.927597,14.980309,15.028712,15.074106,15.12199,15.184258,15.266743,15.372966,15.490861,15.6086235,15.71706,15.814613,15.919371,16.032814,16.15276,16.269608,16.375343,16.470182,16.564075,16.661697,16.766827,16.87619,16.99252,17.119244,17.247902,17.37042,17.478994,17.588135,17.726679,17.904411,18.09884,18.27845,18.381538,18.47731,18.691818,19.026157,20.126385,23.155148,26.373692,27.672321,27.95866,28.035675,27.818588,27.582333,27.451008,27.402317,27.370518,27.31889,27.275124,27.262165,27.268051,27.288437,27.315727,27.34724,27.382977,27.426666,27.470541,27.510157,27.548222,27.593548,27.644398,27.693005,27.742405,27.79352,27.835842,27.866917,27.904148,27.947182,27.992863,28.034576,28.050266,28.043587,28.03819,28.03482,28.038166,28.049887,28.066813,28.08915,28.116096,28.150698,28.192535,28.2412,28.29454,28.349422,28.401884,28.45707,28.516188,28.580196,28.642582,28.699976,28.756582,28.811523,28.863653,28.911192,28.94625,28.967064,28.974586,28.973213,28.973394,28.97593,28.984041,28.996578,29.004328,28.99926,28.98706,28.970013,28.948956,28.924793,28.90049,28.880518,28.866478,28.859581,28.859562,28.86734,28.8815,28.900248,28.920975,28.940786,28.957142,28.972683,28.98732,29.003523,29.017284,29.024652,29.006836,28.965256,28.924187,28.88415,28.839073,28.793468,28.743832,28.702019,28.668266,28.639881,28.614588,28.595345,28.581276,28.572044,28.567894,28.569988,28.57505,28.573547,28.554722,28.502884,28.391243,28.19595,27.898256,27.503323,27.051315,26.595919,26.189962,25.85114,25.55874,25.28559,25.021093,24.762478,24.490513,24.195833,23.8858,23.53073,23.137665,22.740276,22.380009,22.04845,21.69513,21.262838,20.731228,20.136147,19.559511,19.045818,18.607433,18.21954,17.870247,17.557762,17.272139,17.010647,16.777128,16.565922,16.364985,16.168045,15.974719,15.789966,15.61655,15.451235,15.288975,15.122168,14.94074,14.742462,14.527985,14.314028,14.112825,13.937761,13.785752,13.627655,13.436483,13.198299,12.94154,12.697259,12.529722,12.426062,12.368727,12.331594,12.286419,12.219728,12.141352,12.061848,11.989983,11.929666,11.873663,11.804594,11.702224,11.548742,11.350204,11.139406,10.946711,10.810454,10.738467,10.701944,10.67382,10.645012,10.620921,10.6142435,10.6269245,10.647252,10.658766,10.659016,10.652939,10.644142,10.632177,10.618464,10.605667,10.594151,10.584354,10.577986,10.573983,10.568291,10.558359,10.543734,10.5263815,10.506695,10.487337,10.469263,10.452364,10.435062,10.4188595,10.406246,10.394129,10.3813095,10.36734,10.356039,10.3533,10.360062,10.37262,10.386358,10.386798,10.375805,10.357954,10.341648,10.3321705,10.327295,10.324265,10.318699,10.30974,10.300544,10.29285,10.2869,10.281216,10.273246,10.263752,10.254393,10.246873,10.242698,10.239624,10.234959,10.227923,10.219688,10.217196,10.223646,10.244413,10.279597,10.319484,10.351536,10.366085,10.367096,10.359693,10.353569,10.350253,10.347849,10.344353
14.31129,14.291622,14.273447,14.258194,14.2612915,14.269403,14.284521,14.307423,14.338769,14.375914,14.416519,14.460881,14.505986,14.549292,14.590237,14.6310005,14.667322,14.705255,14.744228,14.789541,14.839899,14.894785,14.95333,15.010218,15.061377,15.105535,15.144762,15.194781,15.2665,15.367057,15.484241,15.605879,15.720327,15.822702,15.928566,16.039719,16.155659,16.268364,16.371435,16.465279,16.560043,16.659477,16.765882,16.874859,16.988249,17.10986,17.233261,17.3522,17.460495,17.57409,17.718906,17.90094,18.094845,18.268038,18.369701,18.47374,18.697357,19.102566,20.321415,23.203175,25.878258,26.912594,27.166014,27.245735,27.020687,26.807816,26.695747,26.660292,26.6412,26.606617,26.57906,26.577803,26.590454,26.613098,26.639917,26.672754,26.71407,26.757347,26.797112,26.83234,26.868198,26.912136,26.957962,26.997902,27.038849,27.078753,27.103752,27.13514,27.172647,27.214773,27.258366,27.284111,27.281952,27.279673,27.273003,27.267082,27.266808,27.27398,27.28564,27.31155,27.346756,27.389168,27.439396,27.49849,27.561754,27.625206,27.683462,27.738419,27.792992,27.84902,27.9045,27.957016,28.00856,28.060184,28.110518,28.155697,28.187332,28.205048,28.209991,28.205948,28.201744,28.202126,28.208092,28.21816,28.225124,28.221075,28.210773,28.196304,28.178402,28.157967,28.138256,28.123821,28.115824,28.114899,28.12025,28.132555,28.150417,28.171688,28.193546,28.213423,28.229229,28.245255,28.264965,28.28833,28.309261,28.318752,28.318111,28.295372,28.258362,28.228554,28.190521,28.146141,28.100395,28.048168,28.000156,27.971096,27.94756,27.926117,27.904013,27.880531,27.857677,27.838852,27.824364,27.808811,27.784742,27.746677,27.681637,27.575935,27.410196,27.168262,26.859066,26.514967,26.178268,25.871193,25.596493,25.335632,25.078985,24.823484,24.561056,24.292946,24.009308,23.722645,23.396423,23.003763,22.607126,22.229519,21.82661,21.350807,20.785393,20.170101,19.57869,19.057209,18.614717,18.246462,17.902306,17.593227,17.305912,17.039862,16.799126,16.580267,16.373302,16.173077,15.978871,15.794566,15.622713,15.459481,15.29979,15.134813,14.953106,14.752228,14.5332985,14.31534,14.112278,13.936894,13.784554,13.6252,13.432375,13.193338,12.937611,12.69729,12.532951,12.433111,12.37898,12.344116,12.300159,12.233177,12.153543,12.072025,11.9975815,11.933882,11.873286,11.799147,11.692797,11.539087,11.345423,11.143276,10.961992,10.831364,10.760198,10.722589,10.693668,10.664211,10.638332,10.628765,10.637707,10.654518,10.664053,10.664158,10.656274,10.644476,10.631565,10.617857,10.605547,10.595598,10.588179,10.583321,10.578467,10.5712185,10.558796,10.542315,10.524836,10.505535,10.486281,10.467831,10.450419,10.433775,10.419401,10.409037,10.399206,10.387291,10.373838,10.363229,10.361065,10.368136,10.380755,10.394251,10.394066,10.382179,10.36313,10.345219,10.333892,10.327091,10.322334,10.315689,10.30616,10.296701,10.288879,10.282707,10.276815,10.268633,10.259144,10.250284,10.243565,10.240309,10.237768,10.2332535,10.226616,10.219582,10.21917,10.228039,10.250208,10.28509,10.323106,10.353189,10.367033,10.3682,10.361246,10.35471,10.35,10.34608,10.341684
14.346107,14.319014,14.297106,14.279612,14.281364,14.288874,14.303591,14.326637,14.358601,14.396645,14.437954,14.482025,14.524751,14.563773,14.599306,14.636196,14.675308,14.716616,14.756914,14.8010435,14.848697,14.901073,14.961343,15.025424,15.082008,15.127539,15.16255,15.205606,15.26844,15.36215,15.476871,15.600619,15.719269,15.827072,15.936028,16.045773,16.157536,16.26678,16.369442,16.465282,16.563547,16.666557,16.774578,16.88247,16.991072,17.104225,17.218332,17.32999,17.435518,17.553513,17.705755,17.892681,18.08678,18.255884,18.36251,18.482159,18.718475,19.214725,20.549454,23.15469,25.381678,26.225363,26.448208,26.497759,26.272652,26.083614,25.995213,25.97151,25.962406,25.941607,25.926844,25.934015,25.950699,25.973286,25.999908,26.03553,26.074512,26.111113,26.14481,26.172224,26.201317,26.233578,26.267717,26.304104,26.341785,26.367464,26.391865,26.421898,26.458897,26.50082,26.54048,26.561634,26.56757,26.569412,26.563658,26.555416,26.550873,26.55296,26.5602,26.58286,26.620487,26.675825,26.735977,26.803461,26.870724,26.933756,26.98954,27.044384,27.09718,27.150293,27.198883,27.241459,27.284925,27.329376,27.373642,27.414268,27.446869,27.467682,27.476072,27.474926,27.47179,27.470848,27.474466,27.482286,27.488476,27.48597,27.478773,27.468376,27.455147,27.439682,27.425169,27.416187,27.41381,27.418371,27.42878,27.445076,27.46588,27.48894,27.51158,27.531582,27.547253,27.562489,27.579643,27.598648,27.61728,27.634281,27.644077,27.643509,27.62471,27.598196,27.56884,27.527714,27.48336,27.434761,27.379883,27.338192,27.312647,27.290234,27.2644,27.234623,27.203094,27.173332,27.146416,27.118649,27.084517,27.045288,26.999363,26.944454,26.867268,26.744408,26.56387,26.333794,26.082298,25.832909,25.594357,25.359314,25.122425,24.881065,24.633673,24.379303,24.105309,23.802658,23.486036,23.180803,22.837002,22.456497,22.016552,21.47694,20.85889,20.213083,19.600578,19.063778,18.617094,18.247208,17.919556,17.62022,17.340454,17.072346,16.823582,16.596199,16.382366,16.17834,15.98326,15.799674,15.62971,15.468982,15.31225,15.14945,14.967693,14.764451,14.541832,14.321005,14.117019,13.941773,13.788978,13.62756,13.43174,13.1904955,12.9344845,12.699265,12.53602,12.439146,12.388009,12.355972,12.314648,12.249445,12.17038,12.087765,12.010826,11.943186,11.877171,11.796983,11.685587,11.53067,11.341362,11.14827,10.979612,10.85498,10.784034,10.744127,10.710823,10.678695,10.650629,10.637281,10.640203,10.651842,10.658464,10.656673,10.647913,10.636593,10.625022,10.6128645,10.601224,10.591135,10.583498,10.577119,10.569159,10.55797,10.545419,10.530152,10.514399,10.496447,10.478672,10.462128,10.447016,10.432908,10.420089,10.410023,10.400641,10.389879,10.378065,10.368938,10.367426,10.374136,10.385635,10.397863,10.396739,10.384312,10.364969,10.346386,10.333792,10.325249,10.318658,10.310787,10.300653,10.291,10.28316,10.276953,10.27116,10.263115,10.253918,10.245577,10.239483,10.23695,10.235046,10.231316,10.226071,10.221223,10.223256,10.234095,10.256524,10.289698,10.324778,10.352471,10.365867,10.367931,10.36246,10.356722,10.351847,10.347525,10.342857
14.416984,14.384157,14.349828,14.323696,14.319525,14.324617,14.338255,14.361278,14.393351,14.431244,14.471635,14.513638,14.552435,14.585813,14.6143465,14.645735,14.67968,14.716841,14.756519,14.802448,14.849916,14.901621,14.961917,15.027261,15.084619,15.129488,15.165253,15.2090225,15.269309,15.358477,15.469048,15.590944,15.709854,15.821502,15.934145,16.044472,16.15488,16.263844,16.36729,16.46799,16.572258,16.68055,16.79075,16.897263,17.000286,17.103432,17.206276,17.308489,17.409044,17.52928,17.68691,17.878063,18.073471,18.242092,18.362183,18.512905,18.78738,19.376732,20.818623,23.085148,24.894217,25.60426,25.80863,25.787317,25.5702,25.413307,25.347511,25.33316,25.330305,25.32097,25.316763,25.325588,25.34168,25.361698,25.38832,25.420258,25.44704,25.47285,25.494589,25.513103,25.536104,25.562016,25.590637,25.621609,25.656658,25.68504,25.709696,25.742397,25.782593,25.827137,25.870369,25.900467,25.914421,25.92067,25.915085,25.903233,25.893682,25.890879,25.895332,25.912945,25.949831,26.008535,26.081373,26.158535,26.229664,26.291544,26.343994,26.394037,26.43789,26.477924,26.516407,26.553436,26.591923,26.632393,26.674223,26.714329,26.74826,26.77216,26.784569,26.787527,26.786877,26.786377,26.789137,26.795746,26.801922,26.801586,26.7981,26.792328,26.784187,26.773804,26.764118,26.759745,26.761845,26.770721,26.785025,26.804234,26.826752,26.850292,26.872532,26.891628,26.906239,26.920013,26.934864,26.950804,26.965914,26.978611,26.989096,27.000277,27.006031,26.996101,26.975986,26.937717,26.895275,26.848604,26.79686,26.74715,26.711006,26.685715,26.658314,26.626583,26.592594,26.559069,26.526648,26.491667,26.449541,26.404602,26.362581,26.330282,26.301956,26.256855,26.173973,26.04411,25.879814,25.698915,25.510834,25.31508,25.111034,24.898762,24.679459,24.449215,24.193695,23.9032,23.588223,23.255165,22.926062,22.577562,22.184324,21.656948,20.964985,20.273483,19.6348,19.075836,18.617542,18.240772,17.918005,17.627003,17.361126,17.101713,16.850359,16.614426,16.392324,16.183784,15.987532,15.804701,15.63695,15.479145,15.325726,15.165316,14.983414,14.777605,14.551435,14.328201,14.123768,13.94894,13.795719,13.631968,13.432697,13.18892,12.932112,12.703575,12.539155,12.443777,12.394519,12.364623,12.326045,12.263638,12.186369,12.10363,12.0249,11.95373,11.882488,11.796198,11.679388,11.522671,11.337102,11.153032,10.993067,10.87627,10.8049755,10.760448,10.72066,10.685234,10.657244,10.642134,10.6413,10.648455,10.651374,10.647326,10.638681,10.6280575,10.616497,10.604523,10.593639,10.583803,10.575315,10.565222,10.555859,10.546217,10.535832,10.522488,10.507721,10.491313,10.475021,10.459912,10.446072,10.43307,10.4211445,10.411713,10.403091,10.393737,10.383854,10.376354,10.375124,10.380621,10.389828,10.399841,10.3974905,10.384823,10.36595,10.347519,10.334232,10.32426,10.31595,10.306956,10.296455,10.2869625,10.279505,10.273703,10.268448,10.260937,10.252285,10.244421,10.238695,10.236534,10.235176,10.232559,10.229256,10.227152,10.231664,10.243912,10.265574,10.295788,10.326974,10.351737,10.36459,10.367854,10.364375,10.360134,10.355835,10.351817,10.3472595
14.482258,14.456924,14.424187,14.401756,14.39724,14.394382,14.403055,14.424267,14.454586,14.490036,14.526984,14.564665,14.598148,14.624657,14.644016,14.666359,14.69336,14.72571,14.760143,14.8012905,14.844545,14.893527,14.953245,15.018604,15.076608,15.125275,15.162483,15.204246,15.265018,15.353237,15.459257,15.576618,15.695946,15.808338,15.919527,16.02933,16.141823,16.254591,16.363228,16.47267,16.58624,16.702328,16.816748,16.92435,17.02246,17.114655,17.204527,17.29565,17.38947,17.509087,17.66864,17.860058,18.058933,18.234722,18.377306,18.564209,18.899822,19.583864,21.085716,23.023123,24.415203,25.039223,25.207382,25.104101,24.903175,24.790234,24.745983,24.739008,24.738846,24.73228,24.731222,24.736277,24.745722,24.759806,24.780743,24.803646,24.82258,24.840734,24.855114,24.869045,24.889772,24.914162,24.94169,24.971708,25.006,25.043495,25.075068,25.107841,25.14972,25.196344,25.24342,25.284784,25.309717,25.321081,25.315609,25.301964,25.290781,25.287647,25.29409,25.314014,25.351412,25.413849,25.491356,25.571898,25.644386,25.702679,25.747437,25.786293,25.82181,25.855635,25.888672,25.920727,25.954758,25.99106,26.029444,26.067371,26.101063,26.126919,26.142841,26.150177,26.153044,26.1544,26.1577,26.164364,26.171528,26.174006,26.174553,26.17338,26.169971,26.16405,26.15828,26.157375,26.162607,26.174286,26.191008,26.211739,26.234646,26.257427,26.278088,26.295248,26.307909,26.319523,26.331589,26.344261,26.35627,26.36699,26.376673,26.38572,26.39741,26.411148,26.406246,26.375338,26.335447,26.290913,26.241146,26.191236,26.147331,26.114151,26.08543,26.05317,26.018963,25.984701,25.950356,25.91185,25.864918,25.814135,25.76875,25.741196,25.731846,25.727085,25.705584,25.649803,25.560896,25.448626,25.318888,25.173042,25.01176,24.835554,24.64835,24.448486,24.223183,23.96233,23.66401,23.334335,22.994,22.6428,22.267456,21.819866,21.127398,20.37215,19.694895,19.103245,18.619633,18.236847,17.912273,17.62302,17.361164,17.11303,16.871613,16.632746,16.404194,16.19032,15.992201,15.809889,15.644443,15.489854,15.339946,15.181879,14.999435,14.790412,14.560095,14.33402,14.129122,13.954942,13.801678,13.636103,13.433931,13.18833,12.931326,12.708117,12.542389,12.446869,12.397459,12.367939,12.331111,12.271611,12.196978,12.115362,12.036271,11.963087,11.887964,11.796286,11.6741705,11.515432,11.33296,11.157295,11.00503,10.892862,10.819862,10.768905,10.728378,10.692261,10.661392,10.642464,10.636621,10.6388235,10.638439,10.633507,10.625613,10.616754,10.607479,10.597394,10.5877495,10.577415,10.567001,10.558107,10.550761,10.541546,10.530487,10.517416,10.504032,10.489586,10.475222,10.461955,10.449683,10.437939,10.426855,10.417816,10.409723,10.4015255,10.393315,10.387081,10.385521,10.389009,10.395142,10.402425,10.398909,10.386535,10.36895,10.351593,10.338349,10.327536,10.317963,10.308281,10.29796,10.289241,10.282792,10.277958,10.273685,10.267037,10.259115,10.251673,10.246107,10.244028,10.243076,10.241651,10.240366,10.240917,10.247371,10.260018,10.279645,10.305483,10.331595,10.35244,10.363993,10.368032,10.366358,10.363637,10.360119,10.356657,10.352425
14.526653,14.507475,14.48406,14.468658,14.4721775,14.473074,14.486027,14.510086,14.540022,14.571797,14.60375,14.637716,14.665626,14.687075,14.699553,14.706722,14.719816,14.741955,14.771178,14.807283,14.846312,14.89256,14.951429,15.016701,15.072941,15.117138,15.153351,15.199307,15.262467,15.3499365,15.454523,15.571171,15.691425,15.805363,15.913273,16.01675,16.122757,16.233833,16.350266,16.466518,16.58493,16.704515,16.821484,16.932623,17.034147,17.128254,17.221075,17.307661,17.39209,17.507193,17.665066,17.856022,18.056442,18.24199,18.418259,18.649261,19.050903,19.78164,21.27816,22.913479,23.955727,24.503075,24.60815,24.467182,24.28737,24.202545,24.176353,24.173084,24.170929,24.153667,24.145767,24.15364,24.161919,24.171322,24.186047,24.204369,24.221579,24.237047,24.249065,24.259836,24.27845,24.301128,24.326878,24.355026,24.388077,24.426794,24.473053,24.514208,24.561852,24.608902,24.655117,24.697655,24.731934,24.747313,24.740322,24.727585,24.72017,24.723572,24.73898,24.768845,24.815815,24.88515,24.965904,25.04509,25.111938,25.160759,25.195484,25.22536,25.253374,25.281525,25.309765,25.337711,25.36761,25.39959,25.433872,25.468456,25.500324,25.52666,25.54525,25.5569,25.564201,25.56897,25.574661,25.583202,25.592909,25.599247,25.604366,25.607813,25.608711,25.606602,25.604013,25.605782,25.613155,25.626476,25.644352,25.665352,25.687412,25.708397,25.726582,25.740952,25.750969,25.759834,25.768724,25.777975,25.786865,25.79549,25.804522,25.814367,25.825218,25.842852,25.852062,25.832739,25.80094,25.760021,25.71251,25.66415,25.616621,25.57761,25.544224,25.511864,25.477703,25.443478,25.408718,25.368963,25.320095,25.26544,25.214905,25.18284,25.17331,25.179527,25.184317,25.169758,25.131714,25.074093,24.997786,24.902493,24.78725,24.651035,24.49873,24.331402,24.139502,23.914005,23.652607,23.35485,23.0259,22.67457,22.2882,21.864868,21.316877,20.52687,19.787922,19.152725,18.63267,18.23059,17.900696,17.618252,17.360302,17.114305,16.87556,16.642246,16.413197,16.197313,15.997286,15.815468,15.652584,15.501474,15.355389,15.199692,15.015753,14.802409,14.566912,14.33712,14.131339,13.957778,13.804758,13.63806,13.4339695,13.187707,12.931732,12.709448,12.544238,12.446867,12.394626,12.363092,12.326532,12.269712,12.198441,12.1194,12.041719,11.968494,11.8914175,11.795891,11.669555,11.509254,11.329458,11.160297,11.014261,10.903975,10.829136,10.774533,10.729813,10.690699,10.657623,10.635761,10.626099,10.624844,10.622796,10.618753,10.613819,10.608349,10.601806,10.593699,10.584529,10.576165,10.569432,10.563826,10.556139,10.54586,10.534319,10.521631,10.5096035,10.49719,10.48484,10.473359,10.462374,10.451409,10.4406185,10.43144,10.423372,10.415766,10.408598,10.402998,10.400494,10.401489,10.40423,10.408655,10.40415,10.392435,10.376657,10.360995,10.348405,10.337363,10.327121,10.31732,10.307802,10.300499,10.295692,10.292358,10.289434,10.283916,10.27688,10.269894,10.264444,10.262337,10.261675,10.2612095,10.261452,10.263773,10.270957,10.282587,10.298831,10.319077,10.339041,10.354896,10.363956,10.367685,10.366877,10.364988,10.361851,10.35863,10.354532
14.563685,14.55632,14.534049,14.514524,14.520262,14.531782,14.546806,14.572603,14.601336,14.628756,14.656717,14.688905,14.717807,14.744295,14.76383,14.77739,14.778383,14.779071,14.791723,14.822896,14.857872,14.901083,14.958332,15.022205,15.075495,15.116703,15.150272,15.193773,15.256163,15.343524,15.446718,15.562343,15.683561,15.799364,15.906227,16.005772,16.106874,16.21422,16.328669,16.44363,16.559818,16.677185,16.793346,16.906693,17.017677,17.124954,17.232586,17.330225,17.419176,17.531094,17.68866,17.876215,18.077244,18.278118,18.488808,18.76358,19.206081,19.966152,21.358913,22.70524,23.537434,23.98364,24.036385,23.88435,23.72771,23.65121,23.629692,23.623135,23.60749,23.586582,23.578423,23.589624,23.603155,23.614044,23.62742,23.644543,23.658852,23.671204,23.680634,23.687698,23.701973,23.722431,23.745804,23.771088,23.80205,23.840103,23.887196,23.942646,23.999794,24.052507,24.10236,24.142864,24.169794,24.178652,24.169338,24.161097,24.164005,24.181587,24.21349,24.258408,24.317522,24.392893,24.473553,24.547417,24.604876,24.646635,24.675135,24.698048,24.720974,24.74579,24.770588,24.794937,24.820751,24.84829,24.878185,24.908813,24.937817,24.96357,24.984108,24.999922,25.01234,25.021883,25.031668,25.043827,25.057465,25.068493,25.078453,25.086315,25.091015,25.09219,25.092411,25.096657,25.105986,25.120495,25.138783,25.159143,25.179472,25.197914,25.213017,25.224098,25.23106,25.236843,25.242407,25.248177,25.253849,25.260042,25.26786,25.277594,25.289959,25.304104,25.315325,25.305513,25.284615,25.252972,25.2086,25.162067,25.115227,25.07214,25.033434,24.999573,24.964363,24.928888,24.89293,24.852343,24.803675,24.748789,24.696018,24.65842,24.64088,24.640919,24.646763,24.644186,24.628895,24.60257,24.5629,24.507156,24.43178,24.333172,24.215063,24.08001,23.921795,23.734625,23.516382,23.263859,22.97947,22.656033,22.286943,21.865211,21.402943,20.737463,19.928833,19.228138,18.660477,18.225952,17.890602,17.609325,17.356373,17.11574,16.876408,16.643536,16.415508,16.201511,16.003698,15.822722,15.662546,15.51536,15.37179,15.217318,15.033112,14.814375,14.572254,14.337494,14.129929,13.956551,13.803785,13.636591,13.43173,13.186323,12.932522,12.711693,12.545544,12.444006,12.386274,12.350349,12.312531,12.25802,12.190606,12.115355,12.040695,11.969257,11.892167,11.794729,11.665808,11.504711,11.327421,11.1600065,11.019419,10.909207,10.83021,10.770193,10.7211685,10.679501,10.645118,10.621933,10.610739,10.608811,10.608057,10.607466,10.606161,10.603443,10.598875,10.593267,10.589138,10.5869875,10.584957,10.580692,10.573035,10.562109,10.550216,10.537873,10.527105,10.516671,10.506278,10.496351,10.486179,10.475317,10.464142,10.454259,10.445694,10.43807,10.431251,10.425683,10.421873,10.420333,10.419903,10.421768,10.416609,10.405821,10.392067,10.378396,10.366856,10.356126,10.3458185,10.336479,10.328314,10.322912,10.320164,10.318632,10.3172455,10.312992,10.306933,10.30048,10.295191,10.293022,10.292484,10.292463,10.29327,10.29593,10.302212,10.311268,10.322979,10.336849,10.350056,10.360111,10.365476,10.367496,10.366205,10.364032,10.360491,10.356782,10.352265
14.575363,14.565954,14.559135,14.553828,14.5660305,14.577215,14.58842,14.611773,14.638914,14.66523,14.68483,14.706484,14.7359915,14.769941,14.801367,14.827732,14.837578,14.84203,14.849089,14.860725,14.887685,14.926015,14.980599,15.044502,15.099127,15.135867,15.161176,15.202917,15.265661,15.351087,15.450975,15.562898,15.681256,15.794855,15.902233,16.000694,16.098671,16.202345,16.314926,16.431683,16.551243,16.671898,16.791523,16.909786,17.026443,17.137196,17.244253,17.34924,17.447536,17.562029,17.717342,17.9007,18.114012,18.347649,18.593454,18.901993,19.376251,20.23788,21.434542,22.431828,23.147106,23.49422,23.497314,23.352608,23.21796,23.148481,23.122303,23.093994,23.062769,23.047121,23.046654,23.062489,23.07924,23.092882,23.104729,23.119926,23.133713,23.143312,23.149765,23.155249,23.163483,23.17881,23.199451,23.221542,23.250168,23.287798,23.335964,23.392395,23.45155,23.511074,23.564344,23.607048,23.62741,23.622284,23.611927,23.612452,23.630817,23.667381,23.72032,23.784813,23.848732,23.917828,23.98779,24.049828,24.097195,24.134666,24.164232,24.19203,24.219955,24.244028,24.26607,24.287712,24.310398,24.334389,24.360764,24.38811,24.41458,24.439642,24.461939,24.481783,24.499573,24.514526,24.529247,24.545815,24.563892,24.579721,24.594282,24.606106,24.614067,24.618134,24.621065,24.627966,24.639578,24.655552,24.674355,24.694077,24.712704,24.728777,24.740993,24.748955,24.752892,24.75557,24.75771,24.76,24.762577,24.766111,24.77224,24.781555,24.789898,24.795673,24.800884,24.800999,24.786964,24.766026,24.730896,24.68544,24.639797,24.59491,24.554432,24.517817,24.481178,24.443954,24.406376,24.365112,24.317604,24.26453,24.211779,24.169394,24.141535,24.127602,24.120785,24.111782,24.0985,24.082872,24.061241,24.029312,23.981628,23.912685,23.824116,23.718533,23.592,23.442245,23.26876,23.067406,22.836739,22.568794,22.2473,21.860249,21.402328,20.884226,20.1376,19.335052,18.706274,18.230034,17.878176,17.598337,17.353384,17.117447,16.880163,16.643028,16.413565,16.199245,16.00694,15.829569,15.671667,15.5260515,15.382846,15.228884,15.046019,14.826075,14.575945,14.335558,14.125489,13.95174,13.798971,13.631674,13.427235,13.184402,12.93425,12.71546,12.547947,12.440947,12.376146,12.3345375,12.294712,12.242382,12.179026,12.108019,12.036888,11.967904,11.891794,11.793798,11.663807,11.502868,11.3278885,11.160117,11.023489,10.91074,10.825795,10.75972,10.706806,10.663614,10.629309,10.606351,10.595324,10.594748,10.596628,10.598345,10.599295,10.599745,10.60063,10.601211,10.604261,10.607467,10.608524,10.605966,10.598857,10.587845,10.576132,10.564487,10.555143,10.546831,10.538511,10.530135,10.520536,10.509356,10.497377,10.48646,10.477119,10.469094,10.4621315,10.456237,10.451056,10.447275,10.444246,10.444092,10.438731,10.429153,10.417612,10.406176,10.396078,10.38615,10.376301,10.367782,10.361062,10.357409,10.356438,10.356402,10.356302,10.353239,10.348122,10.342237,10.33709,10.334779,10.3341055,10.333958,10.3343935,10.336061,10.34007,10.345373,10.3518715,10.359203,10.365698,10.369876,10.371018,10.370483,10.367854,10.364716,10.360432,10.35597,10.350884
14.619881,14.604406,14.590635,14.578326,14.584024,14.596599,14.615784,14.640959,14.66999,14.699738,14.723057,14.746404,14.773977,14.802784,14.829197,14.854538,14.870689,14.884873,14.900221,14.914423,14.944021,14.983267,15.033688,15.091602,15.1466,15.193004,15.214211,15.23847,15.293257,15.377525,15.475522,15.585854,15.70482,15.820327,15.927954,16.02512,16.12136,16.224657,16.339008,16.458195,16.579891,16.703045,16.826166,16.950386,17.075417,17.193281,17.304907,17.408169,17.498096,17.61058,17.76036,17.948128,18.183224,18.453726,18.74755,19.128002,19.687256,20.505814,21.4286,22.178288,22.773285,23.030537,23.00484,22.870243,22.749184,22.685955,22.629663,22.577625,22.548922,22.538437,22.544563,22.565895,22.586761,22.603235,22.614273,22.624899,22.638424,22.648247,22.653769,22.657887,22.663471,22.672321,22.687206,22.707088,22.734114,22.771809,22.821175,22.879208,22.93789,22.99318,23.039686,23.078817,23.097887,23.090878,23.088997,23.104351,23.143433,23.203337,23.272118,23.337917,23.396294,23.453014,23.506912,23.555569,23.596138,23.629368,23.660246,23.69551,23.732758,23.76575,23.795065,23.818256,23.837986,23.859406,23.883987,23.909954,23.935528,23.960827,23.98528,24.009434,24.032848,24.053272,24.07282,24.09351,24.115494,24.135387,24.153675,24.168463,24.178743,24.185038,24.190449,24.20022,24.21466,24.232792,24.252798,24.27259,24.290373,24.30502,24.315338,24.32103,24.322548,24.322544,24.321861,24.3194,24.31422,24.310902,24.31113,24.314962,24.316399,24.317259,24.322763,24.320738,24.310469,24.294842,24.271828,24.234982,24.188633,24.144133,24.103106,24.065573,24.027714,23.9893,23.950855,23.909882,23.864563,23.814676,23.763592,23.71782,23.680077,23.650196,23.625313,23.600904,23.577717,23.558867,23.5406,23.518019,23.485004,23.435532,23.369347,23.288124,23.188984,23.072252,22.93925,22.78665,22.611828,22.405582,22.151653,21.829868,21.416233,20.918728,20.330204,19.490053,18.769945,18.245285,17.867973,17.590544,17.352085,17.12185,16.886724,16.646975,16.410788,16.193405,16.000942,15.828388,15.674122,15.530102,15.388939,15.236948,15.052631,14.832197,14.578666,14.331574,14.118208,13.943083,13.7895565,13.622293,13.419669,13.181548,12.936974,12.721455,12.553045,12.440396,12.36816,12.3206005,12.27866,12.228443,12.168877,12.101649,12.033447,11.966412,11.891357,11.793606,11.663864,11.5041485,11.331192,11.164618,11.02589,10.910479,10.819095,10.74716,10.691655,10.64879,10.616451,10.595391,10.586087,10.587475,10.589302,10.592993,10.599304,10.605998,10.613125,10.619888,10.627531,10.634218,10.63802,10.637079,10.630975,10.620794,10.61025,10.600124,10.5927105,10.586842,10.580893,10.574215,10.565155,10.553455,10.540467,10.528389,10.518166,10.5095625,10.502192,10.495861,10.48952,10.484032,10.479068,10.477402,10.472067,10.463672,10.454189,10.444885,10.436319,10.427428,10.418303,10.410615,10.404974,10.402369,10.402346,10.4031315,10.403894,10.401903,10.39772,10.392393,10.387289,10.384613,10.383407,10.382538,10.3818,10.381525,10.382456,10.383551,10.384922,10.386341,10.386979,10.386013,10.383212,10.380001,10.375737,10.3714285,10.366391,10.361244,10.35565
14.697042,14.670645,14.653313,14.637274,14.6380625,14.643814,14.65436,14.67142,14.691421,14.715072,14.742756,14.771407,14.799883,14.825306,14.847452,14.87113,14.890404,14.912169,14.939243,14.962376,14.992224,15.029113,15.072353,15.118147,15.164238,15.220247,15.270443,15.328515,15.380628,15.446294,15.533888,15.643582,15.767366,15.890098,16.00236,16.101063,16.197094,16.298798,16.413687,16.534122,16.656357,16.781193,16.908148,17.039165,17.173357,17.29858,17.415522,17.520782,17.608898,17.719631,17.873281,18.071722,18.33136,18.646841,19.009235,19.424877,19.974884,20.601755,21.29925,21.956337,22.435585,22.602303,22.556606,22.43007,22.323412,22.229534,22.143738,22.088634,22.060486,22.054848,22.067091,22.093693,22.119204,22.13971,22.153477,22.161598,22.169899,22.180439,22.189255,22.195934,22.202642,22.209644,22.218699,22.233541,22.261204,22.299595,22.349133,22.406168,22.461514,22.510296,22.548035,22.57544,22.593216,22.605108,22.623486,22.652445,22.697306,22.756084,22.818293,22.874285,22.93015,22.984928,23.035221,23.081299,23.121925,23.15773,23.19078,23.225145,23.261688,23.299686,23.335499,23.365513,23.392038,23.419863,23.447418,23.475306,23.503887,23.532478,23.560373,23.588434,23.617016,23.64388,23.670284,23.697275,23.724274,23.747704,23.768175,23.784105,23.79486,23.801699,23.808182,23.819738,23.8363,23.85588,23.87616,23.894825,23.910269,23.921764,23.928133,23.92911,23.925377,23.919231,23.911463,23.90152,23.889324,23.879837,23.874783,23.873413,23.873672,23.874207,23.872835,23.865494,23.854572,23.840397,23.821308,23.796505,23.761185,23.71641,23.675781,23.638597,23.600138,23.56149,23.523388,23.483921,23.441639,23.395687,23.347326,23.300152,23.255447,23.212925,23.172485,23.133062,23.0977,23.070114,23.047428,23.024784,22.996677,22.957687,22.906473,22.843702,22.766914,22.677536,22.577839,22.465462,22.338121,22.188026,22.000381,21.753334,21.409262,20.944595,20.405561,19.674557,18.86047,18.279827,17.871666,17.587763,17.35699,17.13427,16.900208,16.657635,16.415653,16.19247,15.996139,15.823818,15.671217,15.529186,15.389767,15.239309,15.056402,14.835269,14.582175,14.328624,14.11038,13.932104,13.776261,13.608645,13.40892,13.177565,12.940819,12.730329,12.56221,12.444675,12.365609,12.312521,12.268574,12.220068,12.163454,12.098934,12.032574,11.966662,11.892591,11.795988,11.6680565,11.510933,11.340283,11.175007,11.028664,10.912912,10.816841,10.740265,10.684139,10.643637,10.614735,10.596586,10.588539,10.587395,10.589946,10.599028,10.611208,10.623345,10.634541,10.644659,10.655231,10.663849,10.66868,10.668283,10.663174,10.654863,10.646914,10.639738,10.635302,10.632605,10.629654,10.625125,10.616932,10.604911,10.591104,10.578125,10.567242,10.558136,10.550262,10.543478,10.536253,10.529633,10.523445,10.520813,10.515713,10.508442,10.500786,10.493408,10.486369,10.47863,10.470379,10.463371,10.458197,10.455671,10.455519,10.456331,10.457527,10.456534,10.453318,10.448448,10.443127,10.439642,10.437377,10.435184,10.432699,10.430009,10.427713,10.424885,10.421854,10.418491,10.414526,10.409584,10.403681,10.398291,10.392677,10.387442,10.3819275,10.376402,10.370565
14.773304,14.776596,14.754121,14.737163,14.734421,14.733273,14.736347,14.746012,14.758193,14.773683,14.790281,14.806889,14.824028,14.842895,14.85783,14.872808,14.898123,14.93198,14.973219,15.0124855,15.053667,15.088293,15.11784,15.15075,15.182804,15.224907,15.291264,15.386185,15.473118,15.563329,15.664478,15.779646,15.910276,16.041645,16.165499,16.264702,16.349682,16.447546,16.561665,16.684677,16.814331,16.941994,17.063885,17.189093,17.323298,17.457428,17.587654,17.705841,17.80452,17.92427,18.081606,18.28828,18.561094,18.897802,19.250322,19.612556,20.059982,20.595135,21.205671,21.772093,22.107632,22.16059,22.120092,22.04071,21.90792,21.776836,21.68538,21.6274,21.600723,21.599285,21.615818,21.645782,21.674574,21.698467,21.715805,21.725998,21.731789,21.7366,21.745197,21.757362,21.769714,21.782795,21.795193,21.808283,21.83068,21.869461,21.917603,21.969694,22.017735,22.056385,22.08342,22.100695,22.11692,22.139187,22.16906,22.205702,22.250288,22.301603,22.35751,22.414307,22.469091,22.5212,22.56982,22.615398,22.657364,22.69563,22.730604,22.764927,22.79947,22.834509,22.86866,22.902252,22.935684,22.96907,23.001251,23.033625,23.067324,23.101944,23.136784,23.171803,23.20724,23.24168,23.275734,23.309261,23.34037,23.365032,23.38491,23.400368,23.412025,23.421349,23.430742,23.443691,23.459743,23.477074,23.493807,23.508415,23.519558,23.527048,23.529984,23.528006,23.521458,23.512184,23.501102,23.489296,23.477463,23.466711,23.45876,23.453684,23.449648,23.445248,23.437452,23.428099,23.41676,23.402004,23.382141,23.359219,23.335281,23.303833,23.26888,23.229282,23.190542,23.152473,23.115574,23.078154,23.038834,22.996328,22.950592,22.903473,22.855541,22.806286,22.756908,22.708344,22.664492,22.629152,22.600445,22.574001,22.545555,22.510971,22.468794,22.419231,22.36036,22.293526,22.220325,22.138294,22.045502,21.937447,21.803772,21.62143,21.352255,20.949772,20.427094,19.812256,19.000103,18.334347,17.894627,17.59748,17.374434,17.157639,16.923306,16.677067,16.428997,16.200203,16.000154,15.825135,15.670552,15.527149,15.387207,15.237183,15.056468,14.838823,14.585342,14.331087,14.10444,13.920893,13.760692,13.591891,13.39568,13.172689,12.945906,12.742351,12.576019,12.454889,12.370122,12.312239,12.266363,12.218865,12.164003,12.100903,12.035229,11.969662,11.896572,11.802067,11.677454,11.524292,11.35638,11.191623,11.040429,10.917886,10.821512,10.743755,10.689037,10.652739,10.6285,10.611771,10.600156,10.597567,10.60364,10.616049,10.631281,10.646908,10.661289,10.673691,10.685266,10.693323,10.696794,10.695306,10.69074,10.685124,10.681149,10.6784935,10.678312,10.679724,10.680508,10.678663,10.671766,10.659765,10.645468,10.632013,10.620869,10.611488,10.603186,10.595977,10.588133,10.580897,10.574104,10.5709505,10.566168,10.559849,10.553581,10.547688,10.541931,10.535252,10.527833,10.521238,10.515835,10.5124035,10.511105,10.511276,10.51263,10.512693,10.510616,10.506181,10.500478,10.495863,10.492199,10.488407,10.484046,10.479082,10.474047,10.468187,10.461948,10.455236,10.448132,10.440599,10.432741,10.4260025,10.419598,10.413849,10.408199,10.402616,10.396816
14.788565,14.820505,14.830985,14.844341,14.867353,14.879475,14.879286,14.87667,14.877352,14.88077,14.885476,14.890448,14.895897,14.9014015,14.901493,14.901394,14.92032,14.949932,14.991318,15.049732,15.104427,15.149834,15.189228,15.228994,15.254837,15.287018,15.348439,15.437433,15.547237,15.66376,15.778531,15.901218,16.039555,16.183651,16.320963,16.429054,16.514011,16.606388,16.711601,16.83009,16.957993,17.080652,17.195303,17.312908,17.446796,17.591297,17.73957,17.874931,17.988232,18.119871,18.286364,18.499653,18.743967,19.040428,19.339838,19.669327,20.090017,20.59013,21.135138,21.535198,21.695305,21.684326,21.642815,21.579437,21.480608,21.368624,21.268692,21.205984,21.17788,21.179455,21.19814,21.229239,21.258919,21.2841,21.303368,21.316309,21.324625,21.329063,21.334507,21.343735,21.361296,21.382038,21.401512,21.420416,21.442947,21.47805,21.51949,21.565193,21.601263,21.625965,21.64082,21.649391,21.661282,21.683483,21.71825,21.762644,21.815165,21.872927,21.932484,21.989124,22.041649,22.089384,22.132862,22.173958,22.212223,22.247574,22.279972,22.312183,22.345417,22.38002,22.414413,22.448196,22.481358,22.514019,22.54711,22.580997,22.61618,22.65318,22.691633,22.7308,22.770042,22.808092,22.845379,22.88144,22.914005,22.938915,22.95826,22.973286,22.985361,22.996063,23.00707,23.02078,23.036686,23.053356,23.069237,23.083286,23.09423,23.10201,23.10595,23.105633,23.100946,23.093605,23.084698,23.074757,23.063658,23.05227,23.042313,23.034374,23.027315,23.020044,23.011986,23.002102,22.989834,22.974188,22.953316,22.930386,22.90871,22.888268,22.862709,22.831491,22.794136,22.755215,22.719578,22.684666,22.64824,22.608648,22.565067,22.518631,22.4696,22.417507,22.363945,22.310728,22.261831,22.220718,22.186502,22.155483,22.124619,22.091106,22.053936,22.013401,21.968346,21.919601,21.867065,21.807186,21.737782,21.657887,21.563091,21.433735,21.232826,20.902834,20.431814,19.84777,19.12475,18.422947,17.940426,17.624443,17.400566,17.190613,16.95528,16.703472,16.44923,16.215096,16.011206,15.833157,15.675879,15.530258,15.389278,15.239346,15.05853,14.842089,14.592958,14.3361225,14.105111,13.912382,13.746026,13.575388,13.383161,13.169577,12.95408,12.758684,12.595266,12.471668,12.382162,12.319869,12.271709,12.224119,12.169615,12.106586,12.040531,11.974649,11.902505,11.810694,11.690237,11.541576,11.376184,11.211069,11.057386,10.925183,10.826474,10.751452,10.701227,10.669968,10.648371,10.630928,10.61804,10.618039,10.624762,10.638077,10.655598,10.673859,10.690298,10.703741,10.714824,10.720593,10.721053,10.717203,10.712545,10.709858,10.7105255,10.713446,10.718489,10.724661,10.729575,10.730493,10.724809,10.712717,10.69791,10.684151,10.673035,10.663698,10.655279,10.647932,10.639931,10.632649,10.625864,10.622668,10.618227,10.612553,10.607044,10.601939,10.596962,10.591059,10.5843,10.577848,10.571732,10.566839,10.56391,10.5632715,10.564867,10.566198,10.5655155,10.561626,10.55567,10.550095,10.545248,10.540175,10.534328,10.527622,10.520582,10.512701,10.504448,10.495722,10.486815,10.477902,10.469067,10.461649,10.454817,10.448775,10.443036,10.4374,10.431538
14.805357,14.819185,14.842674,14.870438,14.908005,14.940991,14.965,14.986095,15.00724,15.020544,15.025858,15.021762,15.011358,14.998632,14.983128,14.968552,14.973148,14.990833,15.02742,15.083286,15.135326,15.182643,15.226604,15.270737,15.308412,15.356071,15.423448,15.510632,15.613881,15.728571,15.848502,15.985987,16.142344,16.30354,16.455212,16.578737,16.680817,16.778315,16.8811,16.988846,17.098919,17.209314,17.323898,17.449196,17.587093,17.729446,17.8747,18.011297,18.132998,18.269115,18.429893,18.623295,18.8474,19.11446,19.399132,19.723938,20.141304,20.57069,20.939888,21.193825,21.281616,21.243748,21.176374,21.073002,20.963428,20.879932,20.826603,20.794903,20.796043,20.795494,20.811329,20.841967,20.870684,20.895626,20.915688,20.930573,20.941835,20.950867,20.958645,20.968197,20.98449,21.005646,21.030212,21.05404,21.080116,21.111174,21.144552,21.177376,21.20372,21.21587,21.217915,21.218107,21.22821,21.254377,21.29588,21.347252,21.405396,21.46674,21.527712,21.58334,21.632797,21.675892,21.714066,21.750467,21.785198,21.81789,21.847654,21.877209,21.90821,21.941393,21.975267,22.00932,22.042969,22.076107,22.109173,22.142704,22.1776,22.214405,22.252705,22.291851,22.33134,22.370089,22.408321,22.445587,22.479414,22.505535,22.52586,22.541267,22.553143,22.563374,22.5741,22.588144,22.605116,22.623322,22.640999,22.656876,22.669521,22.678896,22.68436,22.685509,22.682102,22.675732,22.667364,22.657528,22.64617,22.6343,22.623898,22.615578,22.608232,22.600658,22.591799,22.580954,22.567625,22.550377,22.531233,22.512756,22.492754,22.470535,22.44635,22.421585,22.394066,22.366161,22.335457,22.301136,22.266293,22.228954,22.187302,22.142063,22.093548,22.04134,21.9869,21.93224,21.880955,21.836046,21.7975,21.76233,21.728401,21.6941,21.65908,21.624062,21.588799,21.55335,21.515629,21.470554,21.415346,21.351873,21.282547,21.193707,21.049728,20.789406,20.391037,19.846184,19.220943,18.5505,18.007095,17.671743,17.435413,17.228159,16.993729,16.736004,16.47551,16.235996,16.028591,15.847538,15.687245,15.538971,15.396811,15.247382,15.067066,14.850199,14.60376,14.34503,14.111642,13.912327,13.7368145,13.563665,13.375243,13.171089,12.967177,12.780434,12.620644,12.495548,12.402134,12.335644,12.284647,12.235716,12.18021,12.1159935,12.048539,11.9816475,11.910112,11.82094,11.704573,11.559992,11.396311,11.230091,11.073013,10.936159,10.830788,10.757878,10.712263,10.685827,10.666843,10.651146,10.641791,10.641559,10.647518,10.661506,10.680502,10.7005005,10.718092,10.731699,10.74144,10.744129,10.740864,10.734045,10.72875,10.728673,10.733935,10.742714,10.753422,10.764615,10.773619,10.776933,10.771954,10.759331,10.743748,10.7296915,10.718822,10.709882,10.70177,10.69465,10.686924,10.680031,10.673767,10.670954,10.666981,10.661789,10.656553,10.651669,10.647047,10.641679,10.635473,10.629044,10.621979,10.615406,10.610684,10.609228,10.611096,10.613628,10.614302,10.610992,10.604979,10.5988655,10.593409,10.587682,10.581013,10.5732765,10.565032,10.556055,10.546822,10.537212,10.527607,10.518247,10.509137,10.501457,10.494347,10.488049,10.482082,10.476187,10.469944
14.8195095,14.871374,14.8822775,14.891062,14.911395,14.939124,14.972983,15.006658,15.039807,15.067564,15.091114,15.112347,15.12751,15.130822,15.099724,15.06566,15.049408,15.052465,15.077404,15.124321,15.171507,15.214946,15.249161,15.282452,15.316764,15.365484,15.432488,15.519022,15.622207,15.743771,15.877686,16.034853,16.210484,16.388268,16.554762,16.692097,16.80881,16.913288,17.01701,17.116066,17.21228,17.312672,17.422806,17.546896,17.683384,17.822622,17.967106,18.108215,18.239681,18.381603,18.539331,18.717762,18.937141,19.192013,19.474224,19.78582,20.082924,20.376282,20.653687,20.83455,20.878704,20.828339,20.749142,20.66459,20.538265,20.433815,20.37571,20.353718,20.339737,20.36682,20.41362,20.445866,20.474472,20.49863,20.519653,20.537207,20.55243,20.566162,20.579832,20.596172,20.616415,20.639927,20.66402,20.69129,20.717693,20.745441,20.77097,20.789173,20.801483,20.806778,20.804611,20.803883,20.814985,20.843832,20.890327,20.946869,21.008404,21.071316,21.132305,21.186714,21.234005,21.274097,21.30891,21.342506,21.374365,21.403793,21.43034,21.456722,21.4851,21.516544,21.549692,21.583885,21.618114,21.652134,21.685953,21.719858,21.754951,21.791775,21.829855,21.868668,21.907806,21.94653,21.98503,22.022911,22.057552,22.084572,22.105732,22.121658,22.133781,22.144272,22.155478,22.17026,22.188202,22.20738,22.225937,22.242523,22.25568,22.26552,22.271492,22.273233,22.270454,22.26458,22.25658,22.246906,22.23535,22.222874,22.211536,22.202053,22.193596,22.185097,22.175049,22.162834,22.14952,22.138027,22.123741,22.106815,22.086216,22.06223,22.035696,22.00946,21.985596,21.964993,21.945808,21.924656,21.897707,21.8619,21.820465,21.776173,21.728878,21.67762,21.623642,21.568893,21.51662,21.469574,21.428246,21.390182,21.353722,21.317924,21.283102,21.250412,21.220417,21.19265,21.163715,21.127457,21.080854,21.02749,20.974388,20.915089,20.816319,20.620922,20.294718,19.82154,19.25595,18.64116,18.12647,17.740303,17.488548,17.269308,17.031353,16.765644,16.497417,16.256855,16.047497,15.86429,15.702281,15.552552,15.410131,15.261848,15.082306,14.864431,14.617586,14.361881,14.118984,13.918091,13.73735,13.559942,13.3747425,13.178922,12.985397,12.806627,12.650602,12.524679,12.427932,12.357262,12.302753,12.251404,12.193983,12.127946,12.0586195,11.990265,11.9187565,11.831432,11.718044,11.576139,11.412896,11.244926,11.084631,10.945152,10.837202,10.762575,10.720337,10.698057,10.684103,10.673744,10.666071,10.665437,10.671711,10.686554,10.706644,10.7275505,10.745304,10.75831,10.76639,10.766188,10.759615,10.750034,10.743759,10.74539,10.754219,10.768026,10.783912,10.799706,10.812207,10.817169,10.812109,10.798313,10.781469,10.766803,10.75603,10.747551,10.739957,10.733294,10.725994,10.719494,10.713748,10.711366,10.707863,10.7031,10.697988,10.693186,10.688928,10.684263,10.678842,10.672634,10.664722,10.656538,10.65005,10.647631,10.6493435,10.652327,10.653568,10.65037,10.644299,10.638074,10.63256,10.626804,10.619942,10.611809,10.603046,10.593681,10.584274,10.5747385,10.565403,10.556387,10.547514,10.539728,10.532245,10.525471,10.518935,10.512355,10.50523
14.788818,14.850021,14.912445,14.956938,14.985937,15.002874,15.018339,15.03319,15.045934,15.062148,15.083448,15.107582,15.1312275,15.147808,15.138723,15.136629,15.145455,15.130625,15.13582,15.17083,15.207863,15.2411175,15.263037,15.28314,15.301302,15.3388,15.401037,15.487741,15.597252,15.731135,15.881748,16.058353,16.25845,16.461018,16.648243,16.796793,16.919315,17.023499,17.125538,17.219936,17.308605,17.399292,17.498089,17.609966,17.7392,17.877724,18.026989,18.177402,18.318562,18.463215,18.615456,18.78064,18.947699,19.158966,19.393318,19.612377,19.836546,20.058563,20.25218,20.358463,20.380741,20.332123,20.276804,20.219078,20.150309,20.055805,19.975822,19.940928,19.925919,19.925539,19.947329,19.970253,19.99539,20.030228,20.058197,20.085573,20.11466,20.14003,20.162855,20.189373,20.220238,20.252666,20.281796,20.309036,20.336739,20.363186,20.382809,20.391981,20.392979,20.391388,20.389668,20.392353,20.410282,20.446686,20.499714,20.56128,20.625515,20.689447,20.750141,20.803299,20.848475,20.88562,20.916794,20.946648,20.975056,21.00151,21.025143,21.048923,21.075573,21.106356,21.14011,21.17614,21.212059,21.24701,21.281792,21.316996,21.352478,21.388668,21.425583,21.462908,21.500374,21.537586,21.574879,21.611935,21.646236,21.673256,21.694605,21.710657,21.722847,21.733631,21.745441,21.761038,21.779892,21.799896,21.81901,21.835789,21.848896,21.858633,21.86448,21.866268,21.863693,21.85815,21.85075,21.841576,21.829979,21.81697,21.804502,21.793352,21.78294,21.773127,21.76609,21.759932,21.752705,21.744808,21.732422,21.715464,21.694626,21.670088,21.642689,21.615608,21.59076,21.570225,21.555145,21.541588,21.52468,21.502201,21.471601,21.431644,21.384396,21.332382,21.278336,21.22354,21.170788,21.122742,21.079983,21.040386,21.002277,20.965023,20.929325,20.89658,20.867748,20.842161,20.816269,20.783958,20.742537,20.696392,20.654358,20.615833,20.552471,20.412989,20.156052,19.756073,19.257412,18.730183,18.240316,17.851887,17.561577,17.323685,17.068586,16.793373,16.516972,16.27248,16.065166,15.881985,15.720418,15.571433,15.430315,15.284014,15.105394,14.886215,14.636373,14.379248,14.133305,13.925362,13.744818,13.567085,13.382994,13.193855,13.008661,12.83655,12.684151,12.557898,12.458126,12.383111,12.324381,12.269766,12.209909,12.141777,12.070356,12.000081,11.927765,11.841055,11.729101,11.588127,11.424114,11.254138,11.09139,10.950167,10.842493,10.767523,10.727062,10.708817,10.699942,10.692979,10.686611,10.6871395,10.694724,10.710894,10.7319145,10.753065,10.770206,10.782149,10.78874,10.786579,10.777913,10.766504,10.759368,10.761836,10.772892,10.790285,10.8101845,10.829517,10.844467,10.850107,10.844206,10.828749,10.810337,10.794817,10.783961,10.775917,10.768898,10.762729,10.755751,10.749296,10.743706,10.741539,10.738445,10.734182,10.729368,10.724866,10.721268,10.717709,10.713456,10.707785,10.699293,10.689703,10.681534,10.677877,10.678675,10.6809225,10.681417,10.677448,10.670989,10.664728,10.659342,10.653812,10.647017,10.638811,10.629937,10.620611,10.611565,10.602826,10.594523,10.586462,10.578129,10.570242,10.562183,10.554662,10.54719,10.539503,10.531023
14.729306,14.79533,14.856229,14.918055,14.972179,15.006622,15.0357685,15.065535,15.087149,15.106465,15.127756,15.13924,15.143823,15.14459,15.134078,15.125976,15.12849,15.140699,15.15097,15.166786,15.191742,15.218849,15.243183,15.271101,15.2729,15.268583,15.309259,15.398268,15.523615,15.683973,15.868544,16.086632,16.326073,16.544075,16.719995,16.85062,16.956543,17.046982,17.140198,17.229252,17.313807,17.400562,17.494911,17.602894,17.731075,17.873537,18.028633,18.18481,18.333054,18.474468,18.600714,18.728666,18.854698,18.994331,19.134987,19.275711,19.452534,19.654568,19.815258,19.899895,19.920029,19.891758,19.835098,19.767162,19.705309,19.651474,19.61752,19.579067,19.561497,19.55333,19.547289,19.528412,19.515583,19.530193,19.5522,19.571129,19.570194,19.59222,19.639685,19.688686,19.739481,19.78938,19.831242,19.865688,19.894958,19.920204,19.94173,19.952183,19.953894,19.94855,19.95195,19.965328,19.994137,20.04007,20.09972,20.16524,20.23169,20.297474,20.359901,20.414547,20.460253,20.496307,20.52516,20.551826,20.576893,20.600365,20.621162,20.64264,20.66791,20.69834,20.732893,20.770596,20.809261,20.847897,20.886087,20.923733,20.961098,20.998434,21.035458,21.071842,21.10744,21.142345,21.17728,21.21215,21.244804,21.270718,21.291449,21.307255,21.319351,21.330181,21.342514,21.358982,21.37891,21.399586,21.418697,21.435032,21.447369,21.456387,21.461615,21.463032,21.460499,21.455303,21.448414,21.440615,21.431618,21.420162,21.408112,21.398098,21.391266,21.386215,21.38271,21.379654,21.375519,21.368677,21.357384,21.341595,21.321558,21.29726,21.269691,21.242317,21.217478,21.197203,21.182125,21.169071,21.15523,21.138624,21.116272,21.087317,21.05236,21.012049,20.960709,20.905,20.850918,20.801292,20.75756,20.716904,20.677418,20.63849,20.601055,20.56659,20.535994,20.508503,20.481182,20.448689,20.409737,20.368832,20.334644,20.309134,20.271141,20.177486,19.98544,19.662788,19.232334,18.774687,18.36089,18.018044,17.706253,17.417015,17.127642,16.833145,16.547039,16.295525,16.088768,15.906019,15.746216,15.599239,15.460028,15.3155985,15.137106,14.915571,14.660688,14.398699,14.152285,13.936016,13.750849,13.576494,13.395088,13.209907,13.031502,12.86524,12.716293,12.5898695,12.48698,12.407242,12.343881,12.285944,12.224161,12.154703,12.081747,12.009594,11.935926,11.848812,11.737171,11.596279,11.43144,11.260103,11.096197,10.954554,10.847496,10.773775,10.734728,10.718741,10.7122965,10.707033,10.702314,10.704402,10.713658,10.731188,10.752829,10.773565,10.789459,10.799942,10.805193,10.802046,10.792632,10.780689,10.7733345,10.776205,10.788357,10.80761,10.829689,10.850838,10.866774,10.872192,10.865171,10.848312,10.828766,10.812739,10.801943,10.794345,10.787798,10.781895,10.774811,10.767839,10.76182,10.759458,10.756661,10.75301,10.748809,10.744963,10.742376,10.740214,10.737396,10.732501,10.723713,10.712986,10.703282,10.6980915,10.697233,10.6975975,10.696077,10.690416,10.682877,10.676086,10.670364,10.664646,10.657606,10.6492195,10.640366,10.63143,10.623297,10.616118,10.609602,10.603088,10.595606,10.587653,10.578831,10.57032,10.561624,10.552542,10.542526
