16.58992,16.592274,16.59433,16.59613,16.59822,16.60029,16.602242,16.604683,16.607264,16.609432,16.612099,16.614822,16.616846,16.618643,16.620369,16.621632,16.622562,16.623104,16.623219,16.623264,16.623459,16.624088,16.625023,16.626835,16.630022,16.633602,16.637516,16.641895,16.645191,16.647465,16.648495,16.647533,16.645672,16.642628,16.639147,16.636509,16.633698,16.630733,16.628166,16.625511,16.62181,16.61776,16.61389,16.608717,16.602955,16.597673,16.590628,16.582378,16.575058,16.566772,16.55792,16.550983,16.545033,16.539665,16.53668,16.535484,16.536007,16.53891,16.542725,16.548325,16.555817,16.563137,16.571812,16.583244,16.595078,16.607698,16.624352,16.64153,16.657251,16.676922,16.696415,16.711899,16.728973,16.743557,16.7519,16.756905,16.75314,16.740608,16.72361,16.695417,16.662884,16.633709,16.598248,16.564209,16.538363,16.510567,16.483418,16.462059,16.44077,16.416838,16.39534,16.37577,16.353033,16.33282,16.317093,16.29942,16.282995,16.270184,16.25483,16.236712,16.219894,16.202126,16.180319,16.159828,16.141685,16.119827,16.099228,16.082603,16.063017,16.04404,16.029385,16.013357,15.996147,15.981031,15.9651985,15.944742,15.924012,15.904791,15.880198,15.855169,15.834078,15.807064,15.775921,15.747612,15.713362,15.672634,15.635672,15.599333,15.5533495,15.50869,15.470362,15.423267,15.376415,15.337432,15.290939,15.242968,15.20413,15.16259,15.11791,15.080204,15.045508,15.004986,14.967215,14.934633,14.892818,14.847285,14.806535,14.755238,14.696805,14.64591,14.591419,14.532965,14.484918,14.442232,14.394584,14.352133,14.316412,14.273593,14.231369,14.197054,14.157316,14.1147785,14.078518,14.039244,13.993575,13.9522,13.913992,13.868635,13.826611,13.792211,13.750264,13.707262,13.671379,13.628248,13.578817,13.534695,13.488117,13.43289,13.382347,13.33713,13.284641,13.237091,13.199106,13.155212,13.11228,13.077707,13.038668,12.996477,12.960361,12.923613,12.879919,12.838898,12.801516,12.756411,12.713899,12.679745,12.642569,12.606894,12.577919,12.545851,12.51132,12.481016,12.447823,12.408149,12.372253,12.341303,12.307291,12.277231,12.253437,12.224678,12.194955,12.170731,12.144537,12.112634,12.079529,12.041725,11.986339,11.924118,11.86384,11.788149,11.714401,11.656802,11.593259,11.532999,11.4872265,11.438775,11.389311,11.350586,11.31692,11.281914,11.25248,11.227657,11.195598,11.161102,11.131205,11.094797,11.055705,11.023338,10.988254,10.947635,10.911137,10.877602,10.839232,10.806095,10.780907,10.751993,10.723604,10.699839,10.671156,10.638039,10.608681,10.578756,10.548167,10.526494,10.511323,10.505882,10.513789,10.526268,10.549585,10.578345,10.601315,10.622412,10.638862,10.6479225,10.653377,10.654926,10.6507015,10.641422,10.624096,10.600506,10.576345,10.547321,10.526384,10.520318,10.522547,10.546102,10.584415,10.6328335,10.697547,10.755163,10.798719,10.8302,10.837812,10.832261,10.825506,10.830246,10.852249,10.900134,11.057938,11.295805,11.541965,12.047675,12.544609,12.746174,12.783191,12.560226,12.211006,11.808729,11.471157,11.292368,11.129222,11.004947,10.931438,10.867159,10.806675,10.761648,10.725154,10.685361,10.651426
16.432194,16.434492,16.43647,16.438187,16.440144,16.442083,16.443953,16.446321,16.44886,16.451,16.453648,16.45636,16.458359,16.460094,16.461662,16.462677,16.463306,16.463337,16.462757,16.462067,16.461235,16.46067,16.460548,16.461163,16.463146,16.465836,16.468956,16.472713,16.475758,16.477966,16.479229,16.478842,16.47765,16.475548,16.473198,16.471577,16.469938,16.468227,16.466682,16.465008,16.462324,16.459057,16.455784,16.45124,16.445993,16.441078,16.434464,16.426579,16.419453,16.41122,16.40213,16.3947,16.38801,16.381468,16.37713,16.374607,16.373392,16.374428,16.376606,16.380188,16.385593,16.39127,16.398142,16.40772,16.418053,16.429213,16.444157,16.459839,16.47437,16.492987,16.51243,16.528812,16.548008,16.566746,16.580072,16.591442,16.596546,16.593096,16.584984,16.567884,16.545828,16.52525,16.499203,16.473158,16.452837,16.43023,16.406805,16.387207,16.366629,16.341843,16.31821,16.295898,16.269035,16.244446,16.225086,16.203209,16.18301,16.167551,16.149426,16.128828,16.110325,16.091038,16.068027,16.047056,16.028908,16.007637,15.98815,15.972702,15.954734,15.937569,15.924412,15.909947,15.894281,15.880356,15.8655815,15.846239,15.826478,15.808104,15.7846575,15.760878,15.740842,15.71595,15.688073,15.663094,15.632738,15.596371,15.563124,15.530447,15.489048,15.448257,15.412294,15.367012,15.321458,15.283827,15.238964,15.192645,15.155084,15.114777,15.0713005,15.03458,15.000879,14.9616375,14.925264,14.894084,14.854198,14.810856,14.772074,14.723177,14.667204,14.618145,14.565306,14.507744,14.459504,14.416114,14.366723,14.321882,14.283857,14.23811,14.192925,14.156248,14.113853,14.068747,14.030607,13.989656,13.942493,13.900174,13.861418,13.815739,13.77376,13.7396145,13.69825,13.656153,13.621183,13.579265,13.531424,13.488866,13.443998,13.390958,13.3425255,13.299223,13.248886,13.203112,13.166389,13.123554,13.081036,13.046344,13.006697,12.963351,12.926006,12.887888,12.842661,12.800478,12.762533,12.715601,12.670452,12.634108,12.593859,12.555912,12.5264,12.493994,12.459757,12.430156,12.397911,12.358993,12.323183,12.292218,12.255068,12.220819,12.194935,12.165506,12.135864,12.111284,12.083818,12.051027,12.018261,11.98152,11.928272,11.868643,11.810768,11.737893,11.666584,11.610659,11.548838,11.49027,11.445982,11.399315,11.352041,11.315252,11.283241,11.249575,11.220783,11.196259,11.164444,11.130337,11.101032,11.065821,11.028332,10.997292,10.963306,10.923363,10.886873,10.8528595,10.813763,10.780243,10.755207,10.727236,10.700939,10.6796875,10.654057,10.623907,10.596371,10.567583,10.536213,10.511938,10.493656,10.483379,10.486124,10.494431,10.513372,10.538729,10.559679,10.579381,10.594965,10.603441,10.608437,10.60932,10.60412,10.593565,10.574376,10.548737,10.522774,10.491697,10.468767,10.461122,10.461648,10.483227,10.519686,10.566045,10.62911,10.686421,10.730673,10.764155,10.773554,10.768406,10.756886,10.757243,10.778072,10.810733,10.934759,11.134439,11.349316,11.810917,12.279627,12.490858,12.558583,12.374788,12.054286,11.674166,11.352688,11.1874695,11.04698,10.939562,10.870185,10.809355,10.751195,10.707031,10.670624,10.630737,10.59643
16.285902,16.288288,16.290321,16.292068,16.29403,16.29594,16.297787,16.30014,16.302671,16.304798,16.307459,16.310223,16.312288,16.314083,16.315678,16.31664,16.317171,16.316936,16.315891,16.314648,16.313015,16.311466,16.310455,16.310032,16.310913,16.312725,16.315018,16.318024,16.320604,16.322514,16.323727,16.323645,16.322903,16.321472,16.319954,16.319073,16.318272,16.317434,16.316572,16.315556,16.313534,16.310772,16.307892,16.303833,16.299088,16.294611,16.28863,16.281479,16.274948,16.267273,16.25858,16.251238,16.244389,16.237288,16.23204,16.228474,16.225729,16.224922,16.225357,16.22676,16.229864,16.23371,16.238634,16.246239,16.254978,16.264584,16.277609,16.291412,16.304237,16.320908,16.33895,16.354748,16.374018,16.394337,16.410263,16.42539,16.43658,16.440075,16.43916,16.43174,16.41951,16.407375,16.39114,16.374098,16.360447,16.34462,16.326939,16.310965,16.293032,16.269634,16.24585,16.222517,16.193455,16.16605,16.14412,16.119043,16.095732,16.077953,16.057274,16.034277,16.014065,15.993149,15.968707,15.946937,15.92839,15.907145,15.888194,15.87343,15.856501,15.840606,15.828557,15.815243,15.800735,15.787727,15.773769,15.755348,15.736428,15.7187805,15.696304,15.673637,15.654672,15.63102,15.604946,15.582168,15.555784,15.523682,15.493212,15.462331,15.425195,15.389443,15.356337,15.31366,15.269937,15.233575,15.190096,15.145103,15.108582,15.069223,15.026598,14.990511,14.957388,14.918871,14.883335,14.853058,14.814583,14.773076,14.736105,14.689524,14.636169,14.589294,14.538592,14.482613,14.434887,14.391489,14.341194,14.294713,14.254963,14.206916,14.159294,14.120618,14.075905,14.0284815,13.988602,13.946049,13.8973675,13.853994,13.814535,13.768316,13.726194,13.692178,13.651278,13.610031,13.575978,13.535286,13.489038,13.448005,13.404779,13.353766,13.30722,13.265589,13.217056,13.172696,13.13695,13.094908,13.052679,13.0179,12.977875,12.933836,12.895786,12.856918,12.810905,12.768152,12.729771,12.682735,12.637601,12.601119,12.558571,12.517047,12.484694,12.449504,12.412535,12.381188,12.348824,12.310525,12.275543,12.24576,12.206907,12.168545,12.138857,12.106789,12.076295,12.051865,12.023518,11.990261,11.958073,11.922433,11.87126,11.81422,11.758947,11.689275,11.620943,11.567209,11.507717,11.451372,11.408867,11.364159,11.319002,11.283882,11.253206,11.220461,11.191938,11.167433,11.135601,11.1016865,11.07284,11.038635,11.002487,10.972506,10.939331,10.899729,10.862968,10.828257,10.788182,10.754034,10.728919,10.701592,10.677117,10.6581955,10.635571,10.608652,10.583433,10.5564375,10.525431,10.499796,10.479431,10.465223,10.463266,10.467575,10.481837,10.503016,10.521158,10.538527,10.55229,10.559492,10.563429,10.56311,10.556676,10.544841,10.5240345,10.496886,10.469776,10.43755,10.413544,10.404962,10.404369,10.424418,10.459285,10.5038395,10.565453,10.622572,10.667603,10.703291,10.714979,10.710957,10.696747,10.692369,10.709049,10.732576,10.830241,10.995928,11.191729,11.589182,11.999376,12.2288885,12.323851,12.16482,11.860104,11.507954,11.213407,11.062998,10.94183,10.849588,10.787224,10.73393,10.681701,10.640532,10.606266,10.568405,10.535338
16.163017,16.165625,16.16784,16.16973,16.171814,16.173817,16.17572,16.178148,16.180738,16.182905,16.18561,16.188461,16.190645,16.192568,16.194284,16.195312,16.19588,16.195526,16.194157,16.192524,16.190285,16.187962,16.186226,16.184963,16.184923,16.185974,16.187546,16.189827,16.19189,16.193436,16.194412,16.19433,16.193714,16.192516,16.191303,16.190685,16.190166,16.189602,16.188934,16.188082,16.186218,16.18357,16.180721,16.1768,16.172344,16.168205,16.162819,16.156471,16.150673,16.143799,16.135906,16.129103,16.122616,16.115643,16.110147,16.106123,16.10249,16.10035,16.099379,16.098885,16.099836,16.1019,16.10491,16.110558,16.11774,16.125874,16.137192,16.149384,16.160736,16.175713,16.19242,16.207478,16.226353,16.247221,16.264442,16.281574,16.296326,16.304125,16.307781,16.306774,16.301334,16.295168,16.286194,16.27623,16.26809,16.258171,16.24599,16.233921,16.219303,16.198637,16.176363,16.153759,16.124805,16.096813,16.074097,16.047771,16.022993,16.004004,15.981859,15.957359,15.935991,15.913855,15.888191,15.865557,15.846372,15.8246765,15.8056555,15.791035,15.77447,15.759178,15.74773,15.735061,15.721269,15.708878,15.695492,15.677797,15.659601,15.642576,15.620899,15.599104,15.580936,15.55838,15.533726,15.512342,15.487381,15.457769,15.430431,15.403097,15.369141,15.335542,15.304465,15.265715,15.225611,15.190577,15.148176,15.104057,15.068377,15.029812,14.987876,14.95224,14.919481,14.881354,14.846254,14.816469,14.778866,14.738663,14.703089,14.658424,14.607391,14.562534,14.513838,14.459507,14.412556,14.369493,14.318909,14.271542,14.230789,14.181274,14.131978,14.091876,14.045389,13.996071,13.9546795,13.910667,13.860515,13.816039,13.775749,13.72881,13.686356,13.652305,13.61167,13.571077,13.537797,13.498152,13.453264,13.413518,13.371645,13.32224,13.277126,13.236713,13.189428,13.145979,13.110811,13.069214,13.027125,12.992281,12.952081,12.907774,12.869497,12.830443,12.784311,12.741556,12.7032585,12.656319,12.6112175,12.574694,12.532112,12.490352,12.457491,12.420948,12.381082,12.346212,12.310161,12.267511,12.229431,12.198263,12.1604805,12.123816,12.094036,12.057502,12.022083,11.996277,11.968487,11.937048,11.906545,11.872383,11.823079,11.768181,11.715312,11.648586,11.583006,11.531321,11.474014,11.419703,11.378748,11.335685,11.292183,11.258266,11.228504,11.196268,11.167741,11.143091,11.111102,11.077234,11.048659,11.015148,10.9799595,10.950731,10.918112,10.878693,10.84165,10.806324,10.765384,10.730607,10.705273,10.678232,10.6549225,10.637598,10.61711,10.592644,10.569334,10.543978,10.513737,10.487572,10.466033,10.449083,10.443436,10.444386,10.45434,10.471286,10.486368,10.500972,10.512428,10.51804,10.520704,10.519124,10.511662,10.499001,10.477352,10.449684,10.422404,10.390234,10.366335,10.357687,10.356827,10.37608,10.409821,10.452938,10.5131645,10.569817,10.6152725,10.652573,10.666166,10.663311,10.648161,10.63835,10.647242,10.665787,10.745394,10.88403,11.068365,11.389881,11.728392,11.995635,12.119421,11.964464,11.649462,11.327451,11.070354,10.933196,10.825605,10.747404,10.696531,10.650713,10.605455,10.569532,10.53921,10.505255,10.474922
16.019375,16.02238,16.024933,16.027107,16.029507,16.031761,16.033836,16.036444,16.03919,16.041477,16.044308,16.04735,16.049759,16.051952,16.053991,16.055279,16.056051,16.055756,16.054205,16.052273,16.049532,16.046516,16.044106,16.04205,16.0411,16.041351,16.042091,16.043486,16.044853,16.045856,16.046347,16.045975,16.04521,16.043892,16.042583,16.041868,16.041233,16.040375,16.039316,16.03809,16.035793,16.033104,16.030962,16.027916,16.024277,16.020805,16.016342,16.011105,16.006323,16.000618,15.994083,15.9884615,15.983053,15.976997,15.971844,15.967722,15.963388,15.959782,15.9570875,15.954172,15.952227,15.95178,15.952097,15.9548855,15.959695,15.965608,15.974196,15.983967,15.993601,16.006706,16.021826,16.03575,16.053493,16.073715,16.090946,16.108562,16.12504,16.13551,16.142288,16.14614,16.14629,16.145262,16.143044,16.140284,16.138145,16.135143,16.13012,16.123718,16.114513,16.099295,16.081173,16.061789,16.035952,16.010025,15.988438,15.962849,15.938105,15.918772,15.895896,15.870356,15.848026,15.82476,15.797733,15.773846,15.753462,15.730555,15.710711,15.695629,15.678774,15.663511,15.652279,15.639892,15.626548,15.614649,15.601766,15.58487,15.567564,15.551314,15.530579,15.509748,15.492448,15.471065,15.447976,15.428204,15.405184,15.378167,15.353406,15.328545,15.297454,15.26684,15.239134,15.204227,15.167475,15.134895,15.0961275,15.055126,15.020811,14.982988,14.941507,14.906275,14.873819,14.835933,14.801058,14.77154,14.734599,14.695635,14.661541,14.619049,14.570812,14.528482,14.482302,14.43021,14.384564,14.342285,14.291943,14.24421,14.202944,14.152458,14.101818,14.060438,14.012194,13.960758,13.917515,13.871617,13.819466,13.773409,13.731845,13.6836605,13.640461,13.6061325,13.565553,13.525545,13.493074,13.454588,13.411219,13.372879,13.33246,13.284702,13.240973,13.201693,13.155453,13.112662,13.077873,13.036505,12.994428,12.959505,12.919279,12.87505,12.836956,12.798206,12.752586,12.710426,12.672737,12.626484,12.581892,12.545639,12.503211,12.461154,12.427614,12.389865,12.347807,12.310386,12.271719,12.225283,12.18286,12.147003,12.104926,12.066033,12.035696,11.999002,11.962055,11.933268,11.90344,11.871744,11.842958,11.811825,11.766933,11.716018,11.665731,11.60253,11.540464,11.491362,11.43681,11.384994,11.345863,11.304676,11.262941,11.2302,11.201252,11.169297,11.14049,11.1154785,11.083071,11.049023,11.020578,10.987587,10.953155,10.924486,10.892177,10.852627,10.815003,10.778786,10.736649,10.700933,10.675119,10.648044,10.625634,10.609758,10.591319,10.569406,10.548263,10.524918,10.496025,10.469881,10.447601,10.428041,10.418362,10.415405,10.419912,10.431116,10.441834,10.452274,10.460146,10.463354,10.464159,10.4609375,10.45242,10.4391985,10.417259,10.389894,10.363348,10.332476,10.30994,10.302101,10.301779,10.320719,10.353385,10.394857,10.453191,10.508815,10.554248,10.592903,10.608538,10.607233,10.591639,10.5762615,10.576682,10.591997,10.654102,10.761772,10.921263,11.165913,11.424875,11.678185,11.800966,11.662094,11.370495,11.087847,10.870916,10.756716,10.661459,10.596947,10.562143,10.52841,10.4946575,10.467271,10.443751,10.416674,10.391371
15.876053,15.879545,15.882513,15.88505,15.887849,15.890416,15.892694,15.895493,15.898386,15.900783,15.903719,15.906927,15.909561,15.912069,15.914511,15.916153,15.917231,15.917147,15.915581,15.913488,15.910435,15.906937,15.904037,15.901388,15.899693,15.899216,15.899143,15.899569,15.900096,15.900398,15.900138,15.89916,15.897961,15.896116,15.89422,15.892963,15.8915825,15.890281,15.889215,15.887859,15.885412,15.882734,15.880868,15.878241,15.87512,15.872154,15.868479,15.864338,15.860655,15.856283,15.851398,15.847292,15.843374,15.83877,15.8344345,15.830609,15.825966,15.821159,15.816885,15.811636,15.806768,15.803738,15.801309,15.8011675,15.803553,15.807259,15.813256,15.820586,15.828087,15.838569,15.850992,15.862612,15.877961,15.896025,15.911745,15.927994,15.943808,15.954666,15.962413,15.968586,15.972078,15.974417,15.977177,15.980316,15.983409,15.986828,15.989016,15.988781,15.9859295,15.977843,15.965895,15.951887,15.932036,15.910953,15.892677,15.870278,15.847673,15.829414,15.80728,15.78196,15.759469,15.73576,15.707823,15.682749,15.660992,15.636421,15.615145,15.599041,15.581198,15.565277,15.553739,15.541145,15.527813,15.5161085,15.503504,15.48725,15.4707575,15.455224,15.435345,15.415367,15.398813,15.378468,15.3568535,15.338661,15.317711,15.293186,15.270566,15.247551,15.218849,15.190878,15.165943,15.133945,15.100363,15.071285,15.03666,14.999392,14.967455,14.932253,14.892775,14.858342,14.826128,14.788295,14.753462,14.724018,14.687497,14.649578,14.616864,14.576485,14.531064,14.491337,14.447753,14.398085,14.354009,14.312812,14.2631855,14.215645,14.174387,14.123539,14.072102,14.029821,13.980164,13.9268265,13.881804,13.833986,13.77969,13.731849,13.688769,13.639013,13.594761,13.55994,13.519175,13.479551,13.447779,13.4103565,13.368448,13.33149,13.292508,13.246369,13.203972,13.16576,13.120413,13.078068,13.043469,13.002098,12.959836,12.924736,12.884506,12.840521,12.802844,12.764696,12.719969,12.678738,12.641919,12.596638,12.552759,12.516888,12.474639,12.432175,12.397816,12.358905,12.315099,12.2758045,12.23521,12.185782,12.139488,12.099107,12.051326,12.007513,11.974002,11.937196,11.900671,11.870525,11.839315,11.806794,11.77865,11.749931,11.710054,11.66466,11.618395,11.5592,11.500556,11.454337,11.402857,11.353798,11.316631,11.277422,11.237455,11.205801,11.177574,11.145784,11.116598,11.091148,11.058172,11.02368,10.995056,10.962013,10.927546,10.898703,10.8659115,10.825426,10.786652,10.749159,10.705475,10.668528,10.6419735,10.614439,10.592369,10.577406,10.560402,10.540566,10.521425,10.500114,10.473004,10.447556,10.425177,10.403553,10.389976,10.382942,10.381283,10.38556,10.390818,10.395833,10.398939,10.399019,10.397511,10.392521,10.38325,10.370092,10.348858,10.3229885,10.298296,10.270102,10.250215,10.244047,10.245086,10.264288,10.296081,10.335911,10.391983,10.445976,10.490763,10.530135,10.547619,10.548151,10.533111,10.513713,10.506985,10.519138,10.567197,10.647774,10.772379,10.955011,11.14428,11.334982,11.4238205,11.304031,11.059727,10.819571,10.636456,10.543182,10.461159,10.410466,10.390962,10.372191,10.352626,10.335342,10.320354,10.302049,10.283441
15.758549,15.762442,15.765754,15.768589,15.771696,15.774487,15.776907,15.779804,15.78274,15.785151,15.788076,15.791321,15.794066,15.796771,15.799496,15.801403,15.802723,15.802836,15.801311,15.799146,15.795914,15.792122,15.788926,15.7859,15.783674,15.782627,15.7818985,15.781471,15.781186,15.780793,15.779743,15.778076,15.776361,15.773916,15.771375,15.769545,15.76728,15.765781,15.765322,15.764314,15.76227,15.759631,15.757042,15.753765,15.750393,15.747465,15.74412,15.740727,15.737925,15.734667,15.731169,15.728324,15.725676,15.722355,15.718838,15.715432,15.7108,15.705308,15.7,15.693125,15.686153,15.681227,15.676803,15.674559,15.675249,15.677482,15.681984,15.687674,15.693064,15.700647,15.709818,15.718557,15.730996,15.746353,15.759999,15.774129,15.788151,15.798161,15.805652,15.812488,15.817587,15.821772,15.827578,15.834575,15.841184,15.849085,15.856537,15.861006,15.863264,15.861336,15.85512,15.84642,15.832834,15.817197,15.8028965,15.784628,15.765224,15.74893,15.728636,15.704661,15.682852,15.659503,15.63143,15.6057,15.58297,15.557014,15.534348,15.517158,15.49815,15.48129,15.469175,15.456108,15.442493,15.430714,15.418158,15.402246,15.3862705,15.371206,15.351903,15.332519,15.316475,15.296902,15.276455,15.2595625,15.240322,15.217979,15.197364,15.176275,15.149605,15.123196,15.0992775,15.069094,15.0383415,15.012495,14.980301,14.945547,14.916519,14.885495,14.849552,14.816507,14.784859,14.747288,14.71257,14.683187,14.646982,14.609889,14.578294,14.539601,14.496431,14.458781,14.417271,14.369544,14.326756,14.286497,14.237591,14.190371,14.14925,14.098296,14.046425,14.003595,13.952992,13.8983345,13.852051,13.802793,13.746815,13.697517,13.653158,13.602028,13.55681,13.5215,13.48046,13.441038,13.409753,13.373131,13.332401,13.296616,13.258897,13.214238,13.173107,13.135939,13.091475,13.049561,13.015122,12.973692,12.931153,12.895785,12.855432,12.811538,12.774126,12.736417,12.692356,12.651809,12.615608,12.570994,12.527555,12.491861,12.449571,12.406569,12.37137,12.3312645,12.28573,12.244667,12.202217,12.150486,12.102125,12.060293,12.009981,11.962126,11.923789,11.883665,11.846619,11.817766,11.787733,11.755471,11.726904,11.698558,11.661604,11.621164,11.580151,11.52532,11.469643,11.425949,11.377224,11.330671,11.295291,11.257883,11.219509,11.188833,11.161284,11.129751,11.100355,11.074613,11.041177,11.006174,10.977158,10.943583,10.908354,10.878671,10.84474,10.802721,10.762466,10.723572,10.67831,10.640142,10.61281,10.584627,10.562457,10.547852,10.531563,10.513026,10.495323,10.475592,10.450119,10.425577,10.403444,10.380371,10.363571,10.352985,10.345692,10.343437,10.343448,10.343159,10.341575,10.338621,10.334959,10.328526,10.318941,10.306333,10.286431,10.262608,10.240131,10.214923,10.197862,10.193449,10.195952,10.215556,10.246618,10.284979,10.338826,10.390974,10.434745,10.474213,10.493065,10.495309,10.481478,10.46023,10.448948,10.456238,10.49385,10.556494,10.649632,10.790695,10.931715,11.057091,11.104321,10.994198,10.7900505,10.584906,10.424942,10.341576,10.273577,10.235868,10.225997,10.220135,10.212679,10.203688,10.196069,10.185469,10.1729765
15.637302,15.64163,15.645308,15.648447,15.651883,15.65492,15.657484,15.660469,15.663395,15.665758,15.668586,15.671764,15.674532,15.677328,15.680233,15.682339,15.683834,15.684064,15.682531,15.680296,15.676842,15.672716,15.669212,15.665793,15.663015,15.661362,15.65992,15.658444,15.657063,15.655703,15.653488,15.650702,15.648016,15.645129,15.642747,15.641226,15.639267,15.637244,15.635576,15.633553,15.630423,15.626919,15.623644,15.619662,15.615913,15.612963,15.609903,15.607269,15.605412,15.603407,15.601541,15.600246,15.599182,15.597574,15.595301,15.5926895,15.588498,15.582699,15.576624,15.568354,15.559347,15.55246,15.545883,15.541242,15.539948,15.540472,15.543196,15.547354,15.551383,15.55729,15.564577,15.571533,15.5811825,15.592993,15.603483,15.614246,15.624954,15.632894,15.639479,15.64612,15.651857,15.657019,15.664642,15.674167,15.683212,15.694387,15.705962,15.714371,15.721228,15.725338,15.725222,15.722491,15.716431,15.70782,15.698967,15.686596,15.6721115,15.659095,15.642132,15.620895,15.600703,15.578514,15.550905,15.524751,15.501053,15.473482,15.449007,15.43029,15.409567,15.391158,15.377958,15.363949,15.349659,15.337555,15.324852,15.309166,15.293678,15.279071,15.2603655,15.241608,15.226098,15.207364,15.188191,15.172699,15.155341,15.135407,15.11701,15.098055,15.07374,15.04933,15.027046,14.998861,14.970117,14.945935,14.916538,14.88567,14.860237,14.831725,14.798502,14.76832,14.739925,14.704699,14.670488,14.640788,14.60465,14.5683155,14.537819,14.500771,14.459767,14.424099,14.384544,14.338625,14.2970085,14.257597,14.209339,14.162391,14.121338,14.0702715,14.018028,13.97473,13.923315,13.86758,13.820306,13.769838,13.712379,13.661739,13.616159,13.563632,13.517354,13.481462,13.44005,13.4007435,13.369887,13.334018,13.294492,13.259976,13.223679,13.1807575,13.141165,13.105293,13.061987,13.020685,12.98648,12.944994,12.902084,12.866314,12.825663,12.781647,12.744308,12.706837,12.663223,12.623167,12.5874195,12.543266,12.500065,12.46438,12.421831,12.378061,12.341841,12.300346,12.252941,12.210054,12.165748,12.111778,12.061369,12.01782,11.965429,11.91563,11.875857,11.832319,11.791773,11.761292,11.731068,11.699478,11.671527,11.643375,11.606543,11.568983,11.535715,11.4905815,11.441319,11.398678,11.352394,11.308575,11.275227,11.239834,11.203265,11.173725,11.146969,11.115831,11.086346,11.060382,11.026502,10.990905,10.9613495,10.9269085,10.890392,10.859346,10.8237,10.779541,10.737358,10.696767,10.64966,10.610065,10.581795,10.552742,10.530151,10.515555,10.499592,10.481995,10.465511,10.447219,10.423419,10.399965,10.378277,10.353901,10.333814,10.319452,10.306038,10.29655,10.290665,10.284361,10.277448,10.271101,10.265085,10.257243,10.247612,10.235914,10.217922,10.196798,10.177101,10.155541,10.141883,10.139575,10.143829,10.163853,10.193928,10.230423,10.281354,10.330902,10.372973,10.411991,10.432121,10.436315,10.424429,10.402605,10.387668,10.3857975,10.410656,10.458391,10.527071,10.623415,10.71427,10.797199,10.80661,10.687611,10.501038,10.328537,10.198054,10.125256,10.0697,10.043438,10.042825,10.048702,10.0524645,10.051547,10.051277,10.04859,10.042631
15.50775,15.512454,15.51643,15.519819,15.523525,15.526747,15.529394,15.532398,15.535234,15.537449,15.540056,15.543026,15.545677,15.548351,15.551184,15.553278,15.554782,15.554992,15.553388,15.551029,15.547615,15.543615,15.540173,15.536732,15.533712,15.53167,15.529654,15.527692,15.526051,15.524405,15.521907,15.518909,15.516064,15.512911,15.510025,15.507876,15.5051985,15.50173,15.498221,15.494415,15.489124,15.483702,15.478828,15.473798,15.469751,15.466696,15.463745,15.461588,15.460367,15.459215,15.458414,15.458081,15.457992,15.457393,15.455814,15.453625,15.4496765,15.443744,15.437311,15.42832,15.418134,15.410002,15.402014,15.395628,15.392731,15.391811,15.392929,15.395649,15.39845,15.4028015,15.408171,15.413136,15.419767,15.427719,15.434759,15.442092,15.44911,15.454115,15.458466,15.463205,15.468151,15.473356,15.48204,15.493399,15.504078,15.517502,15.531998,15.543322,15.553787,15.563151,15.5688,15.571948,15.573439,15.571953,15.568586,15.562763,15.554333,15.545668,15.533429,15.516598,15.499504,15.480023,15.454611,15.429483,15.405995,15.377972,15.352458,15.332655,15.310539,15.290607,15.276137,15.26089,15.245428,15.232449,15.219009,15.202753,15.186985,15.172176,15.15334,15.134604,15.119209,15.101002,15.082994,15.068928,15.053563,15.036289,15.020414,15.003926,14.982384,14.960363,14.940083,14.914244,14.887627,14.8650255,14.838202,14.810541,14.787892,14.762041,14.732336,14.705696,14.680279,14.647706,14.615395,14.587523,14.552811,14.517402,14.487731,14.452127,14.413081,14.379189,14.341355,14.296979,14.256344,14.217661,14.169983,14.123321,14.082391,14.031405,13.97913,13.935718,13.884,13.827827,13.780136,13.729053,13.670761,13.619305,13.572939,13.519463,13.472419,13.436073,13.394321,13.35502,13.324427,13.289116,13.25064,13.217348,13.182495,13.141456,13.103622,13.069281,13.02743,12.987032,12.953283,12.911974,12.8688755,12.832808,12.791866,12.74759,12.710089,12.672498,12.628761,12.58856,12.552629,12.508123,12.46435,12.428008,12.384404,12.33914,12.301409,12.258065,12.2085,12.163742,12.11763,12.061721,12.009743,11.964947,11.911322,11.860758,11.820751,11.775764,11.733298,11.701543,11.670271,11.638254,11.610407,11.582079,11.545394,11.5092325,11.4785595,11.439789,11.399147,11.363934,11.322708,11.281625,11.249954,11.216633,11.182098,11.153969,11.128313,11.097998,11.068834,11.042968,11.008965,10.972953,10.942889,10.907417,10.869246,10.836447,10.798683,10.751989,10.707626,10.665197,10.61612,10.574935,10.545507,10.515192,10.491577,10.476337,10.459904,10.442422,10.426557,10.40918,10.386778,10.364462,10.343355,10.317966,10.294917,10.277006,10.257668,10.241112,10.229483,10.217371,10.205491,10.19619,10.188379,10.179899,10.170972,10.160832,10.145406,10.127331,10.110445,10.0923195,10.081422,10.080387,10.08531,10.10428,10.131892,10.164961,10.211063,10.256256,10.295113,10.332115,10.35248,10.358144,10.348138,10.326168,10.308006,10.296678,10.305592,10.33452,10.3784275,10.435858,10.479078,10.506401,10.472367,10.356197,10.210333,10.06946,9.960034,9.898587,9.855091,9.838886,9.844761,9.85708,9.867769,9.872992,9.878393,9.88204,9.881676
15.394377,15.399286,15.403393,15.406902,15.410721,15.413992,15.416635,15.41958,15.422266,15.424286,15.4266205,15.429277,15.431721,15.4344,15.437339,15.439562,15.4412155,15.4416275,15.44022,15.4379835,15.434999,15.431625,15.428707,15.425763,15.423084,15.421147,15.41905,15.417144,15.41572,15.414233,15.411983,15.409254,15.406672,15.403049,15.398769,15.39497,15.390391,15.38494,15.379877,15.374472,15.367305,15.3602085,15.353857,15.347794,15.343296,15.339888,15.336606,15.334221,15.332869,15.331563,15.330511,15.329863,15.329444,15.328365,15.326307,15.323734,15.319466,15.31346,15.307161,15.298404,15.288412,15.280315,15.272287,15.265523,15.261991,15.260387,15.260572,15.262265,15.264072,15.266974,15.270561,15.2738285,15.278204,15.283399,15.287962,15.292908,15.297251,15.299831,15.301809,15.304216,15.307751,15.312333,15.321048,15.332942,15.344058,15.358118,15.373505,15.385824,15.397781,15.409817,15.418821,15.425645,15.432039,15.435373,15.435844,15.434927,15.431475,15.426708,15.419235,15.407473,15.394404,15.378828,15.35733,15.335011,15.313477,15.2870035,15.262144,15.2424555,15.220093,15.199387,15.183955,15.167583,15.150728,15.136452,15.121714,15.103966,15.086895,15.070997,15.051004,15.031416,15.015509,14.997231,14.979916,14.966935,14.953173,14.938171,14.9245405,14.910316,14.89137,14.871626,14.853263,14.829694,14.805199,14.784251,14.759319,14.733435,14.712192,14.68877,14.662223,14.6381645,14.614237,14.583855,14.554261,14.529175,14.496742,14.462828,14.434363,14.400112,14.362442,14.329668,14.292931,14.249485,14.2094,14.171131,14.123789,14.077337,14.03656,13.985865,13.933964,13.890875,13.839535,13.78377,13.736403,13.685572,13.627466,13.576092,13.529752,13.476278,13.429209,13.392807,13.350972,13.311635,13.281097,13.246017,13.208177,13.175771,13.142052,13.102631,13.066419,13.033537,12.9931965,12.953898,12.920854,12.880088,12.837224,12.801195,12.7601795,12.715637,12.677757,12.639641,12.595066,12.553877,12.51693,12.471035,12.42572,12.387972,12.342493,12.295138,12.255634,12.210311,12.158752,12.112513,12.065096,12.008064,11.955455,11.910284,11.856546,11.80624,11.766626,11.722628,11.681131,11.64967,11.617678,11.584761,11.556566,11.528105,11.492078,11.455935,11.422583,11.383672,11.34817,11.321313,11.286045,11.248814,11.219691,11.188918,11.156641,11.130024,11.105566,11.07637,11.04796,11.022583,10.988947,10.952975,10.922711,10.886511,10.846963,10.8126545,10.773108,10.724342,10.678258,10.634418,10.58382,10.541306,10.510768,10.479064,10.453991,10.437521,10.419809,10.401427,10.385275,10.367904,10.346121,10.324587,10.303974,10.278104,10.253243,10.233023,10.209679,10.188308,10.172814,10.15691,10.142023,10.131216,10.122837,10.114834,10.107264,10.098954,10.0860405,10.070429,10.05546,10.039328,10.029332,10.027902,10.031635,10.047611,10.071234,10.099516,10.139368,10.178956,10.213411,10.246862,10.265964,10.271915,10.262861,10.240681,10.220074,10.202343,10.196756,10.206827,10.229538,10.260546,10.270721,10.248965,10.18424,10.083275,9.983819,9.865692,9.766051,9.713924,9.679129,9.66927,9.677601,9.689578,9.701815,9.710293,9.717977,9.724479,9.727103
15.299126,15.304125,15.308256,15.311783,15.315567,15.318752,15.321304,15.324091,15.326538,15.328301,15.330288,15.332449,15.334561,15.337796,15.341629,15.344622,15.346983,15.348257,15.347658,15.346094,15.343773,15.341117,15.338943,15.336835,15.334997,15.333648,15.332047,15.329962,15.327818,15.325791,15.3228,15.319215,15.315821,15.311039,15.305267,15.300028,15.29375,15.2865715,15.280291,15.273931,15.266145,15.258856,15.252525,15.245647,15.23991,15.235695,15.231501,15.228181,15.226018,15.223705,15.221405,15.219589,15.218013,15.215548,15.212345,15.20899,15.2041445,15.198149,15.19228,15.184288,15.175273,15.167967,15.160695,15.154379,15.150851,15.149114,15.148884,15.149933,15.15105,15.152704,15.155098,15.157784,15.161194,15.164959,15.168003,15.171066,15.173489,15.174704,15.175484,15.176792,15.179451,15.183177,15.190639,15.201347,15.21175,15.225066,15.239748,15.251608,15.263514,15.276081,15.286205,15.294605,15.303561,15.30999,15.313444,15.315851,15.315692,15.313774,15.310605,15.303953,15.295154,15.283975,15.267181,15.248571,15.229969,15.206244,15.183111,15.164339,15.142507,15.121556,15.10544,15.088106,15.069859,15.05416,15.037909,15.018234,14.999342,14.98189,14.960203,14.93931,14.922567,14.9038725,14.886903,14.87471,14.862165,14.848965,14.837177,14.824879,14.808191,14.790455,14.773787,14.75221,14.729542,14.709986,14.6867485,14.662635,14.642834,14.620934,14.595807,14.572927,14.550518,14.522833,14.495635,14.471144,14.440075,14.4086075,14.382992,14.350569,14.313744,14.281359,14.245184,14.202228,14.162392,14.124247,14.076984,14.030613,13.9899435,13.939587,13.888206,13.845608,13.79496,13.740002,13.693308,13.643194,13.58585,13.535096,13.489289,13.436481,13.389954,13.35384,13.312193,13.272905,13.242367,13.207361,13.16991,13.138173,13.105365,13.067354,13.032636,13.001128,12.9622965,12.924204,12.891994,12.851996,12.809634,12.773857,12.732923,12.68813,12.649747,12.610876,12.565053,12.522404,12.483982,12.436159,12.38883,12.349321,12.301626,12.251987,12.210704,12.163497,12.11023,12.062885,12.014584,11.957027,11.904402,11.859383,11.806204,11.756826,11.718148,11.675312,11.63499,11.604385,11.573106,11.540728,11.512845,11.484745,11.448558,11.411699,11.377616,11.337126,11.299813,11.271639,11.240437,11.210678,11.187531,11.160877,11.131346,11.106115,11.082554,11.054301,11.026698,11.001853,10.968832,10.933256,10.903077,10.86651,10.826002,10.790562,10.749681,10.699397,10.652082,10.607254,10.555582,10.512043,10.480549,10.44754,10.420919,10.4030075,10.383671,10.363861,10.346897,10.328978,10.307251,10.286169,10.265905,10.239863,10.213995,10.192371,10.166504,10.142084,10.124182,10.106004,10.089512,10.07814,10.069904,10.062883,10.05683,10.050261,10.03954,10.025814,10.012081,9.996925,9.986677,9.9839115,9.985506,9.997618,10.016672,10.0397625,10.073032,10.106725,10.13644,10.165781,10.182897,10.188427,10.179749,10.157391,10.135002,10.112359,10.096294,10.092941,10.099983,10.108165,10.097755,10.0630245,9.992856,9.896971,9.806338,9.701149,9.613272,9.566893,9.5370455,9.530822,9.540498,9.550284,9.563377,9.574718,9.582486,9.589715,9.5937605
15.184554,15.189576,15.19367,15.197145,15.201118,15.204672,15.207524,15.210728,15.21364,15.215805,15.218332,15.221378,15.224437,15.22831,15.232872,15.2366085,15.239652,15.241787,15.242079,15.2413225,15.239855,15.237973,15.2364,15.234884,15.233503,15.232357,15.230812,15.228346,15.225536,15.222943,15.219145,15.214579,15.210222,15.204048,15.196446,15.1894245,15.181097,15.171909,15.164299,15.156979,15.14876,15.1416025,15.135574,15.128707,15.122644,15.11807,15.113213,15.108895,15.10571,15.102098,15.097984,15.094276,15.090673,15.085735,15.080346,15.075244,15.06884,15.062263,15.056662,15.049583,15.042026,15.036008,15.029974,15.024462,15.021077,15.019243,15.018698,15.019373,15.020229,15.021495,15.023009,15.024411,15.025995,15.027403,15.0282955,15.02916,15.029534,15.029449,15.029349,15.030046,15.03236,15.03576,15.0424795,15.052017,15.061211,15.072785,15.085325,15.0953865,15.105753,15.117264,15.127237,15.13609,15.146303,15.154742,15.160448,15.1658325,15.169289,15.170845,15.172045,15.170828,15.16704,15.160542,15.149591,15.136539,15.122622,15.103696,15.08395,15.067138,15.046806,15.026194,15.009611,14.991323,14.971457,14.954018,14.935854,14.913617,14.8922205,14.87262,14.848511,14.82564,14.807575,14.787987,14.771039,14.759489,14.748015,14.736548,14.726629,14.716362,14.702127,14.68664,14.671923,14.652684,14.632185,14.61428,14.593004,14.570907,14.552742,14.532576,14.509161,14.487598,14.46644,14.440258,14.414652,14.391766,14.363473,14.334383,14.309528,14.279056,14.244998,14.214941,14.179977,14.137338,14.097388,14.059452,14.012428,13.966282,13.925827,13.876068,13.825633,13.78397,13.734665,13.681308,13.635992,13.587389,13.531719,13.482353,13.437729,13.386256,13.340704,13.305051,13.263662,13.224327,13.193623,13.158495,13.121289,13.090176,13.058272,13.021779,12.988758,12.958827,12.921846,12.885389,12.854431,12.815787,12.774601,12.739641,12.699286,12.65456,12.615723,12.575906,12.528318,12.483494,12.4428215,12.392063,12.3417225,12.29964,12.248833,12.196208,12.152756,12.10337,12.048313,11.999975,11.950998,11.893349,11.841253,11.796919,11.745039,11.697361,11.660258,11.619272,11.580717,11.551353,11.521054,11.489306,11.461649,11.4335785,11.397131,11.359886,11.325691,11.283802,11.244493,11.214968,11.184164,11.155846,11.134048,11.11068,11.085689,11.064442,11.044483,11.019434,10.994078,10.97147,10.939411,10.903662,10.873365,10.836514,10.795324,10.759008,10.717118,10.665684,10.617422,10.571824,10.519228,10.474621,10.4419565,10.407253,10.378452,10.358398,10.336567,10.314352,10.295774,10.276547,10.254328,10.233564,10.213717,10.188047,10.162079,10.139919,10.11271,10.086487,10.067132,10.047619,10.030359,10.019009,10.011398,10.0058,10.00155,9.996875,9.98839,9.976353,9.963512,9.948666,9.937034,9.931675,9.9295,9.93552,9.947767,9.96336,9.987305,10.012621,10.035447,10.058359,10.07164,10.0754795,10.06618,10.043253,10.019136,9.991844,9.96591,9.94994,9.9425,9.928716,9.89978,9.857492,9.787025,9.699854,9.620623,9.530594,9.456882,9.418564,9.394297,9.389075,9.39576,9.400242,9.410417,9.422882,9.432896,9.441664,9.446638
15.071962,15.077185,15.081459,15.085159,15.089619,15.093834,15.097309,15.1013775,15.105235,15.108187,15.111654,15.115868,15.119923,15.124161,15.1290245,15.133137,15.13653,15.139213,15.14019,15.140135,15.13953,15.138458,15.137449,15.136427,15.135315,15.134174,15.132473,15.129641,15.126375,15.123348,15.118893,15.113497,15.108313,15.100929,15.091742,15.083186,15.073124,15.062344,15.05382,15.0460205,15.037961,15.031452,15.026093,15.019903,15.014057,15.009233,15.003536,14.997699,14.992889,14.987286,14.980513,14.974124,14.967726,14.959499,14.951339,14.944105,14.93598,14.929003,14.924002,14.918385,14.9128895,14.908558,14.903997,14.8993225,14.89592,14.893666,14.892342,14.8922,14.892448,14.892937,14.8930855,14.892651,14.891848,14.890478,14.889055,14.887764,14.886314,14.885248,14.884712,14.885376,14.887952,14.891628,14.898301,14.907089,14.915099,14.924734,14.934664,14.942362,14.95034,14.959516,14.967876,14.975573,14.98472,14.992782,14.998764,15.005258,15.011108,15.015566,15.020573,15.024557,15.0259495,15.024773,15.020397,15.013464,15.004866,14.991519,14.976292,14.96298,14.945763,14.926865,14.910727,14.892258,14.871241,14.852222,14.832207,14.807247,14.783001,14.760883,14.733782,14.708307,14.688414,14.6672735,14.649658,14.638195,14.627151,14.616734,14.608154,14.599464,14.5873,14.573847,14.560968,14.543978,14.525616,14.509375,14.490011,14.469814,14.453154,14.434586,14.412788,14.392433,14.372189,14.346701,14.321932,14.300541,14.27446,14.24729,14.223318,14.194763,14.163273,14.135398,14.102238,14.061314,14.022564,13.985174,13.938566,13.892836,13.852893,13.804087,13.755,13.714663,13.667223,13.616095,13.572712,13.526249,13.472984,13.425632,13.382715,13.333046,13.288708,13.253584,13.212448,13.172929,13.141867,13.106423,13.069237,13.038528,13.007267,12.972009,12.940467,12.911921,12.87672,12.842061,12.812637,12.775892,12.73666,12.7032585,12.664246,12.620227,12.581262,12.540613,12.491073,12.443651,12.4002495,12.345917,12.291979,12.246911,12.192613,12.13686,12.091341,12.040018,11.983598,11.934732,11.885605,11.828497,11.777504,11.73435,11.684343,11.638876,11.603725,11.564964,11.52846,11.500502,11.471273,11.440115,11.412495,11.384059,11.347,11.309201,11.2747345,11.231762,11.190866,11.160053,11.126877,11.096048,11.072941,11.05018,11.027207,11.008249,10.990669,10.968503,10.9459,10.925799,10.896534,10.863209,10.834656,10.798462,10.757099,10.720535,10.678481,10.626907,10.578528,10.532819,10.479914,10.434572,10.400836,10.364412,10.333159,10.310562,10.28565,10.26023,10.239281,10.217968,10.194529,10.173725,10.154221,10.129457,10.104527,10.083056,10.056326,10.030324,10.0111065,9.991772,9.9749565,9.964305,9.957693,9.95364,9.951052,9.947981,9.941225,9.930218,9.917624,9.9021015,9.887867,9.8788185,9.871568,9.869999,9.874149,9.881042,9.894337,9.910068,9.924873,9.939842,9.947722,9.948555,9.937378,9.913397,9.887981,9.85754,9.825079,9.800683,9.783014,9.755072,9.716297,9.673066,9.6076975,9.531869,9.465065,9.3899,9.33002,9.300289,9.281321,9.27367,9.273222,9.273222,9.2798195,9.291183,9.302217,9.3111315,9.315956
14.982265,14.987923,14.992659,14.996937,15.002,15.006781,15.010859,15.015718,15.020367,15.023901,15.027925,15.032372,15.036348,15.040617,15.045507,15.049651,15.0531,15.056004,15.05739,15.057791,15.057868,15.057576,15.0571995,15.056765,15.05606,15.055069,15.053395,15.050421,15.046908,15.043648,15.038829,15.032976,15.027348,15.019323,15.009324,15.000003,14.989082,14.977617,14.968864,14.961203,14.953799,14.948162,14.943559,14.937904,14.93191,14.926436,14.919388,14.911445,14.904512,14.8964205,14.88662,14.877445,14.868313,14.857062,14.846582,14.837774,14.828694,14.821998,14.817988,14.814096,14.810633,14.807749,14.804267,14.799952,14.796115,14.792981,14.790226,14.788523,14.787402,14.785955,14.78402,14.781891,14.779011,14.775421,14.772219,14.769227,14.766397,14.764675,14.763909,14.764711,14.767687,14.771782,14.778662,14.787146,14.794502,14.802967,14.811214,14.81729,14.823469,14.830544,14.8370075,14.842936,14.849831,14.855991,14.860821,14.866705,14.873247,14.879274,14.887201,14.895542,14.90135,14.905594,14.907265,14.905277,14.901058,14.892302,14.881266,14.871931,14.858433,14.841951,14.826881,14.808899,14.787495,14.767563,14.746302,14.719242,14.692608,14.6682825,14.638424,14.6104145,14.5886545,14.565718,14.546944,14.535029,14.52374,14.513546,14.505556,14.49771,14.486847,14.474832,14.463313,14.448034,14.431366,14.416499,14.398672,14.379948,14.364416,14.347025,14.326389,14.306915,14.287415,14.2627945,14.238743,14.217775,14.192022,14.166233,14.1449375,14.118077,14.087311,14.059837,14.028444,13.990639,13.954651,13.918234,13.872337,13.827282,13.788095,13.74041,13.692722,13.653717,13.608093,13.559095,13.517555,13.473134,13.422173,13.376749,13.335473,13.2874565,13.2441635,13.209469,13.168502,13.128745,13.097275,13.061478,13.024183,12.993666,12.96275,12.928288,12.897768,12.870177,12.836325,12.803192,12.77519,12.74033,12.703202,12.671579,12.634212,12.591261,12.552469,12.5113,12.460141,12.410421,12.364585,12.307058,12.249962,12.202356,12.145152,12.086956,12.03998,11.987404,11.930298,11.881401,11.832565,11.776331,11.726567,11.684629,11.6363945,11.592897,11.559444,11.522577,11.487792,11.461,11.432645,11.401894,11.374164,11.3452215,11.307239,11.268375,11.2329,11.188946,11.146969,11.114895,11.079748,11.047644,11.024424,11.000152,10.9749155,10.954115,10.935183,10.913326,10.892399,10.873368,10.8481045,10.820034,10.795146,10.760761,10.71992,10.683752,10.642316,10.591493,10.543737,10.498524,10.445934,10.400362,10.365944,10.328243,10.294947,10.270111,10.242397,10.213905,10.190556,10.167047,10.142096,10.12094,10.101581,10.077737,10.054177,10.033884,10.008488,9.983738,9.965471,9.947046,9.931138,9.921282,9.915518,9.912577,9.911095,9.909056,9.903328,9.892752,9.880011,9.863398,9.846391,9.833771,9.821734,9.813293,9.810308,9.809643,9.813782,9.821265,9.829111,9.8369465,9.83965,9.837343,9.823936,9.7988205,9.772616,9.740587,9.705004,9.676424,9.652681,9.619001,9.578513,9.537048,9.478052,9.412547,9.35597,9.292547,9.24326,9.220008,9.204681,9.193573,9.186491,9.185838,9.191591,9.201057,9.209837,9.216784,9.220854
14.883884,14.889952,14.895182,14.900032,14.905853,14.91139,14.916118,14.921772,14.927181,14.931285,14.935912,14.940895,14.945236,14.949844,14.955085,14.959539,14.96328,14.966665,14.968668,14.969667,14.970552,14.9711,14.971363,14.971491,14.97117,14.970343,14.968744,14.965733,14.962147,14.958875,14.95414,14.948496,14.943119,14.935526,14.926052,14.917175,14.906747,14.895899,14.88781,14.880978,14.874819,14.870271,14.866291,14.860551,14.853285,14.845943,14.835829,14.8242035,14.814274,14.802858,14.789456,14.777315,14.765495,14.751568,14.73919,14.729078,14.719115,14.712315,14.708617,14.705358,14.702471,14.699707,14.695845,14.690381,14.684961,14.679958,14.674824,14.670942,14.66811,14.664566,14.660632,14.65699,14.652346,14.6469555,14.642336,14.6379595,14.63394,14.631566,14.630495,14.631252,14.634435,14.638826,14.645851,14.654109,14.6609955,14.668635,14.675791,14.680904,14.686068,14.691971,14.697329,14.702145,14.707428,14.712091,14.715967,14.721307,14.728336,14.735568,14.7456875,14.757573,14.767232,14.775978,14.783728,14.787977,14.789873,14.788235,14.782542,14.775906,14.764284,14.747813,14.731618,14.712173,14.690533,14.671707,14.651003,14.623376,14.595188,14.569346,14.537331,14.507048,14.483442,14.458462,14.437955,14.424949,14.412563,14.401531,14.393196,14.385322,14.374868,14.363652,14.353087,14.33917,14.324024,14.31049,14.294161,14.276871,14.262411,14.24611,14.226494,14.207754,14.188889,14.16502,14.141687,14.12133,14.096315,14.071386,14.050962,14.025801,13.997658,13.972673,13.942766,13.906133,13.8716345,13.838115,13.796063,13.753782,13.715362,13.668985,13.623062,13.58577,13.542318,13.495737,13.456221,13.414026,13.365562,13.322224,13.282713,13.236473,13.194292,13.160035,13.119218,13.079161,13.04721,13.010954,12.973473,12.943136,12.912577,12.878979,12.849598,12.823076,12.790731,12.759267,12.7327585,12.699858,12.664869,12.635017,12.59926,12.55732,12.518646,12.476896,12.424086,12.372093,12.323889,12.263349,12.203405,12.15361,12.094051,12.03413,11.986373,11.933333,11.876407,11.828163,11.78022,11.725428,11.677263,11.636777,11.590444,11.548873,11.51698,11.481773,11.448399,11.4225025,11.394726,11.364052,11.335897,11.306097,11.266724,11.226328,11.189429,11.143716,11.100056,11.066692,11.029835,10.995598,10.97039,10.944181,10.917025,10.894879,10.875229,10.852417,10.830761,10.811571,10.787237,10.761212,10.738492,10.709178,10.673259,10.639267,10.599918,10.550868,10.504383,10.4604645,10.409056,10.363909,10.329247,10.290708,10.255655,10.228699,10.198221,10.166521,10.140532,10.114523,10.087617,10.065667,10.04608,10.022837,10.000472,9.981255,9.957123,9.933504,9.915991,9.898077,9.882429,9.872679,9.866953,9.864153,9.862977,9.8613615,9.856128,9.8457575,9.832898,9.815319,9.795782,9.779844,9.763287,9.748203,9.738231,9.730207,9.725447,9.724953,9.726089,9.727093,9.724866,9.719553,9.704087,9.678125,9.651519,9.61855,9.580832,9.549434,9.522219,9.486023,9.445984,9.406951,9.354734,9.299278,9.252127,9.1991625,9.158888,9.1404915,9.122604,9.109806,9.104734,9.104341,9.108764,9.1157255,9.121845,9.127699,9.132175
14.774873,14.781624,14.787721,14.793516,14.800604,14.807369,14.813058,14.819849,14.82633,14.831241,14.836756,14.842632,14.847685,14.852953,14.858883,14.86393,14.868208,14.872325,14.8751955,14.877066,14.879287,14.881285,14.882621,14.883781,14.884364,14.884182,14.883192,14.880877,14.878067,14.875682,14.872471,14.86887,14.86554,14.860996,14.855201,14.849541,14.842648,14.83539,14.829897,14.82509,14.819374,14.813641,14.808376,14.800461,14.790413,14.780415,14.767311,14.7508545,14.73506,14.717905,14.698914,14.682741,14.667723,14.651164,14.637316,14.626329,14.615504,14.607806,14.603157,14.598478,14.593376,14.588167,14.58152,14.572519,14.563646,14.55514,14.545954,14.538656,14.53326,14.526935,14.520765,14.515686,14.509535,14.502838,14.497287,14.491907,14.486914,14.483887,14.482357,14.482803,14.485966,14.490541,14.4977665,14.506139,14.513029,14.52066,14.5279665,14.533394,14.538967,14.545313,14.550867,14.555605,14.560219,14.563878,14.566921,14.571575,14.578501,14.586126,14.597185,14.610892,14.622755,14.6341715,14.646212,14.655592,14.662908,14.668323,14.668844,14.666203,14.658485,14.644692,14.629806,14.610942,14.588968,14.569243,14.546572,14.518515,14.491267,14.465363,14.4323635,14.400226,14.37467,14.347093,14.323775,14.308515,14.293594,14.280008,14.269814,14.26042,14.248877,14.237394,14.227034,14.213829,14.199873,14.187588,14.172667,14.156696,14.143169,14.127722,14.108799,14.090515,14.072071,14.0488205,14.026203,14.006517,13.982365,13.958296,13.938541,13.914867,13.889067,13.866463,13.839194,13.805733,13.774211,13.743599,13.70524,13.666692,13.631687,13.589089,13.546219,13.510824,13.469803,13.425865,13.388567,13.348732,13.302885,13.261722,13.224023,13.179553,13.138409,13.104472,13.063632,13.02306,12.990437,12.953458,12.915527,12.885202,12.8549,12.822113,12.793868,12.768488,12.737747,12.708038,12.683093,12.652234,12.619421,12.59132,12.557174,12.51627,12.477779,12.435553,12.38132,12.32739,12.2771845,12.214151,12.15201,12.100704,12.039728,11.979217,11.931705,11.879353,11.823787,11.7771,11.73085,11.678173,11.631964,11.593124,11.54868,11.508755,11.478064,11.444004,11.411475,11.386033,11.358389,11.327333,11.29836,11.267287,11.225981,11.183474,11.144595,11.09638,11.05027,11.014996,10.975754,10.938625,10.910734,10.882008,10.85243,10.828419,10.807066,10.782125,10.758702,10.738494,10.713434,10.687914,10.666725,10.6413355,10.610989,10.581713,10.546541,10.502203,10.459635,10.418072,10.369024,10.325403,10.291249,10.252668,10.2164345,10.187639,10.154562,10.1195345,10.090577,10.06165,10.032103,10.008623,9.988167,9.964869,9.943223,9.924778,9.90165,9.878889,9.861795,9.843817,9.827543,9.81695,9.810129,9.806097,9.80406,9.801974,9.796424,9.785866,9.772845,9.7544155,9.732692,9.713845,9.693234,9.672099,9.655741,9.641048,9.628289,9.620668,9.615839,9.610785,9.60416,9.5961075,9.578858,9.552456,9.525997,9.493133,9.455072,9.422858,9.393987,9.358841,9.323039,9.28873,9.244049,9.197717,9.158819,9.115572,9.080556,9.061186,9.04093,9.028218,9.025864,9.025896,9.029871,9.0358925,9.041002,9.046888,9.052145
14.680277,14.687932,14.69517,14.702181,14.71085,14.719095,14.72591,14.734003,14.741701,14.7475395,14.754066,14.760984,14.766878,14.772942,14.779692,14.78542,14.790297,14.795226,14.7987795,14.80101,14.803093,14.804607,14.805557,14.8062105,14.806292,14.805807,14.804636,14.802315,14.799727,14.797689,14.795286,14.792994,14.791101,14.78891,14.786224,14.78344,14.779732,14.775553,14.772003,14.768352,14.761773,14.753668,14.746326,14.736038,14.724133,14.713034,14.699606,14.681764,14.663103,14.643523,14.622467,14.6050625,14.589278,14.57233,14.558279,14.546872,14.535479,14.526791,14.520805,14.51405,14.506226,14.498359,14.487591,14.473477,14.460153,14.447418,14.433538,14.422406,14.414165,14.404956,14.396725,14.390501,14.383324,14.375963,14.3700485,14.3641205,14.358437,14.354765,14.3526325,14.352451,14.355236,14.359705,14.366945,14.375482,14.382574,14.390636,14.398849,14.405398,14.412308,14.420213,14.426962,14.432499,14.437415,14.44075,14.443279,14.447311,14.453678,14.460947,14.471682,14.4852295,14.497183,14.508913,14.522141,14.533621,14.543555,14.553188,14.558682,14.560534,14.558206,14.549784,14.539026,14.523668,14.502775,14.481818,14.457199,14.428935,14.402962,14.37717,14.343721,14.310408,14.283398,14.253395,14.226919,14.208803,14.190565,14.173384,14.160322,14.148346,14.134558,14.121874,14.110937,14.097631,14.084246,14.072807,14.058871,14.043827,14.030914,14.015959,13.997374,13.97929,13.961066,13.938271,13.916264,13.897181,13.87379,13.850596,13.83169,13.809026,13.784375,13.763031,13.738667,13.709508,13.681732,13.653355,13.617554,13.582476,13.552169,13.514513,13.475503,13.442543,13.404353,13.363045,13.327623,13.289773,13.24609,13.206694,13.170427,13.127283,13.086807,13.052964,13.0118885,12.970684,12.937347,12.899569,12.861037,12.830541,12.800312,12.768021,12.740559,12.716037,12.686511,12.658133,12.634369,12.605082,12.573938,12.547167,12.514274,12.474249,12.43603,12.393618,12.338625,12.283628,12.232336,12.167985,12.10484,12.053045,11.991865,11.931917,11.88549,11.834656,11.781153,11.736433,11.692173,11.641697,11.597284,11.559869,11.516838,11.477905,11.4478,11.414148,11.381735,11.356216,11.328234,11.296419,11.266405,11.233942,11.190651,11.146027,11.105169,11.0544615,11.005768,10.9682865,10.92626,10.886107,10.855735,10.824413,10.792227,10.766109,10.742519,10.715511,10.690753,10.669552,10.643494,10.617903,10.597649,10.573389,10.546425,10.52211,10.492204,10.454242,10.417032,10.379224,10.333679,10.292313,10.259371,10.221622,10.185091,10.155174,10.120274,10.082555,10.050972,10.019356,9.9870205,9.961522,9.939634,9.915424,9.893606,9.875237,9.85237,9.829774,9.812539,9.79384,9.776161,9.763985,9.755228,9.748933,9.745115,9.7417965,9.735182,9.724018,9.7107315,9.691626,9.668421,9.647638,9.624289,9.599062,9.57842,9.5593195,9.541357,9.529173,9.5205555,9.511708,9.502389,9.492674,9.474558,9.448414,9.422699,9.390892,9.354052,9.322643,9.29351,9.260563,9.229404,9.199802,9.16136,9.12155,9.088147,9.051485,9.018204,8.995268,8.975689,8.9639225,8.961377,8.961315,8.965622,8.972391,8.978317,8.984903,8.990622
14.604546,14.613227,14.621922,14.630709,14.641628,14.651901,14.660234,14.67002,14.679232,14.686199,14.693909,14.702379,14.709902,14.717489,14.725841,14.732891,14.73889,14.745445,14.749697,14.751133,14.748738,14.743874,14.740072,14.735518,14.730571,14.726433,14.722072,14.716542,14.711171,14.706465,14.7005415,14.694622,14.689659,14.683825,14.67775,14.672557,14.666298,14.659252,14.653151,14.647002,14.638993,14.630871,14.623541,14.614164,14.604424,14.595994,14.586151,14.575211,14.56532,14.554722,14.542849,14.532322,14.522147,14.509842,14.497677,14.485775,14.474325,14.465804,14.459648,14.452518,14.44511,14.437836,14.421843,14.3998375,14.38001,14.36145,14.341986,14.327057,14.316246,14.304469,14.29447,14.287334,14.279463,14.271791,14.265762,14.259491,14.253205,14.248848,14.246013,14.244987,14.247084,14.251127,14.25802,14.266359,14.273348,14.281482,14.290216,14.297592,14.305561,14.314798,14.322651,14.329,14.334349,14.33753,14.339649,14.343111,14.348831,14.3555565,14.365597,14.378315,14.389565,14.400657,14.413635,14.425625,14.436649,14.44865,14.457375,14.462276,14.463947,14.459854,14.452675,14.441305,14.424822,14.407671,14.387659,14.359901,14.330416,14.301758,14.2663,14.232298,14.205053,14.173563,14.144423,14.123592,14.1020775,14.081217,14.065154,14.050436,14.034198,14.020073,14.008274,13.994492,13.981274,13.970335,13.957033,13.942624,13.930135,13.915538,13.897238,13.879369,13.861374,13.839016,13.817572,13.799015,13.776251,13.753725,13.73544,13.713638,13.690182,13.670076,13.647171,13.619822,13.5942,13.569144,13.53755,13.506141,13.478482,13.44403,13.408976,13.38019,13.346157,13.30772,13.273457,13.237009,13.194977,13.157038,13.121896,13.079729,13.039664,13.0057745,12.964371,12.922552,12.888594,12.8501215,12.81104,12.780315,12.750029,12.7179365,12.690874,12.6668215,12.638017,12.610466,12.587444,12.559214,12.529266,12.503475,12.471544,12.432268,12.394388,12.352018,12.296728,12.241252,12.189483,12.124613,12.061224,12.009512,11.948736,11.889809,11.844699,11.795569,11.744192,11.701392,11.659029,11.6105585,11.567688,11.531445,11.48947,11.451143,11.421304,11.387704,11.355057,11.329195,11.30064,11.267885,11.236748,11.20289,11.157726,11.111198,11.068596,11.015704,10.964696,10.925169,10.88048,10.837261,10.804232,10.770124,10.735144,10.706987,10.681801,10.653582,10.628193,10.606491,10.579885,10.554239,10.53451,10.511671,10.487041,10.46547,10.441417,10.409338,10.376299,10.3443985,10.303436,10.264108,10.232681,10.196203,10.159924,10.1294,10.093267,10.053444,10.019634,9.985648,9.95059,9.922848,9.8992,9.873489,9.850822,9.831974,9.808767,9.785837,9.768124,9.748395,9.729044,9.715065,9.704144,9.695293,9.6894,9.684536,9.67649,9.664433,9.65071,9.630896,9.606526,9.584377,9.55916,9.531267,9.507915,9.486086,9.465006,9.450168,9.439367,9.42845,9.41782,9.4074135,9.389311,9.36408,9.339561,9.3093195,9.27427,9.24423,9.216089,9.18397,9.1540165,9.126421,9.092665,9.058239,9.02833,8.994204,8.963018,8.94208,8.92363,8.912094,8.909216,8.908878,8.913067,8.919954,8.926065,8.932814,8.938587
14.541189,14.551535,14.560522,14.567585,14.576187,14.584488,14.591341,14.59966,14.607864,14.614318,14.621801,14.627341,14.629638,14.632463,14.635455,14.637783,14.639558,14.641006,14.640772,14.639001,14.63395,14.627039,14.62143,14.614862,14.607929,14.602312,14.596634,14.589727,14.583161,14.577362,14.570192,14.563184,14.55738,14.55071,14.544135,14.538822,14.532583,14.52515,14.518272,14.511469,14.503099,14.49494,14.487492,14.47809,14.468605,14.46064,14.451492,14.442453,14.435268,14.427359,14.417985,14.409041,14.399893,14.3881645,14.376287,14.364983,14.353384,14.344345,14.338041,14.331858,14.326524,14.321943,14.312618,14.3012085,14.291203,14.28064,14.263168,14.243457,14.226654,14.20892,14.1950245,14.186106,14.177088,14.169193,14.163269,14.156691,14.149601,14.144144,14.140068,14.137393,14.137918,14.140718,14.146269,14.153437,14.15956,14.166975,14.175644,14.183591,14.192497,14.203194,14.212461,14.220022,14.226305,14.229737,14.23168,14.234705,14.239607,14.245384,14.253971,14.26462,14.273811,14.28265,14.293201,14.303563,14.313751,14.325994,14.336332,14.343307,14.348392,14.3488655,14.346016,14.339903,14.32977,14.318471,14.304903,14.282848,14.256322,14.229387,14.193576,14.156336,14.1246,14.088662,14.055254,14.030823,14.005595,13.980351,13.960153,13.941373,13.921189,13.904425,13.890821,13.87565,13.861964,13.85113,13.83816,13.824218,13.812075,13.797802,13.77987,13.762368,13.744759,13.723013,13.702244,13.6842575,13.662077,13.640078,13.622248,13.601135,13.578743,13.559832,13.538421,13.513118,13.489757,13.467397,13.439341,13.411351,13.386435,13.3559675,13.325525,13.300772,13.271648,13.23814,13.207502,13.174871,13.135382,13.098218,13.06394,13.022499,12.982643,12.948528,12.906569,12.863941,12.829246,12.78997,12.750231,12.7191725,12.68865,12.656491,12.629541,12.605667,12.577209,12.550091,12.52743,12.499854,12.470846,12.44597,12.41497,12.376562,12.339272,12.297316,12.242271,12.186909,12.135286,12.070755,12.007988,11.95703,11.89746,11.840324,11.797102,11.75027,11.701595,11.661154,11.62108,11.574961,11.533831,11.498873,11.457945,11.420038,11.390205,11.356287,11.322943,11.296314,11.266736,11.232517,11.199816,11.164215,11.116856,11.068224,11.023785,10.968597,10.915068,10.873182,10.825306,10.778233,10.741749,10.703983,10.665301,10.634445,10.607161,10.577312,10.55121,10.529269,10.502584,10.477202,10.457951,10.436939,10.415222,10.396575,10.376625,10.350779,10.324561,10.299793,10.266811,10.233082,10.204271,10.169661,10.133794,10.102867,10.065754,10.023907,9.987715,9.951072,9.912649,9.88183,9.855602,9.827322,9.8027935,9.78269,9.758324,9.734286,9.715456,9.6939535,9.672033,9.655397,9.641363,9.628801,9.61978,9.612476,9.602039,9.588359,9.573746,9.552889,9.527336,9.504021,9.477324,9.4475355,9.422417,9.39893,9.3761215,9.359944,9.348072,9.336275,9.325322,9.314947,9.297602,9.273977,9.25124,9.223301,9.190952,9.163105,9.136726,9.106243,9.077873,9.052195,9.021841,8.991364,8.964565,8.933399,8.9045105,8.88492,8.866955,8.855,8.851355,8.850414,8.854181,8.860968,8.867134,8.873809,8.879307
14.474326,14.4829,14.489384,14.493008,14.497195,14.501345,14.504813,14.5091915,14.513651,14.517176,14.521411,14.522198,14.519199,14.516816,14.513924,14.511063,14.5082,14.503901,14.49893,14.494346,14.4887,14.482683,14.47749,14.471336,14.464781,14.459426,14.453979,14.447308,14.440922,14.435284,14.428034,14.420837,14.414989,14.408424,14.402182,14.397289,14.391628,14.384726,14.378141,14.37169,14.363237,14.354519,14.346476,14.335897,14.324816,14.315348,14.304384,14.293045,14.283548,14.27322,14.261214,14.250074,14.238907,14.225307,14.212799,14.202421,14.191004,14.181822,14.175896,14.170933,14.167498,14.165472,14.165138,14.167566,14.170498,14.171972,14.164925,14.15097,14.13747,14.123699,14.112677,14.104769,14.096245,14.088219,14.081936,14.074602,14.06635,14.059637,14.054161,14.049669,14.048357,14.0494995,14.053021,14.058062,14.062351,14.067968,14.075537,14.083311,14.092444,14.103953,14.114256,14.122824,14.129982,14.1337595,14.1356735,14.138348,14.142384,14.147077,14.153984,14.162241,14.169022,14.175145,14.182409,14.18996,14.197934,14.208438,14.218372,14.225826,14.232696,14.236616,14.237621,14.236634,14.23312,14.228182,14.221407,14.208185,14.189555,14.168474,14.136322,14.09845,14.063662,14.023658,13.984903,13.95524,13.923874,13.892307,13.86743,13.844549,13.8203335,13.80058,13.784725,13.767502,13.752539,13.741015,13.727532,13.7133045,13.700991,13.686602,13.668779,13.651598,13.63439,13.613329,13.593288,13.575866,13.554203,13.53253,13.514868,13.494042,13.472191,13.453984,13.433603,13.409938,13.388342,13.367575,13.341732,13.316208,13.293586,13.266515,13.23966,13.217604,13.192019,13.163102,13.136874,13.108683,13.073238,13.03853,13.005922,12.965304,12.925211,12.890526,12.847814,12.804375,12.769022,12.729069,12.68877,12.657375,12.626505,12.594015,12.566845,12.542825,12.514318,12.487263,12.464665,12.437427,12.409112,12.385022,12.354893,12.317487,12.281096,12.240057,12.186066,12.131699,12.081053,12.017813,11.956409,11.90663,11.84858,11.793222,11.751622,11.70668,11.660115,11.62146,11.583118,11.538766,11.498934,11.4649315,11.424734,11.3870125,11.35702,11.322656,11.288549,11.261137,11.230615,11.195133,11.161169,11.124301,11.075495,11.025602,10.980139,10.923669,10.868505,10.824837,10.774335,10.7237835,10.68401,10.642712,10.600431,10.566958,10.537643,10.50618,10.479379,10.457281,10.430835,10.405742,10.386446,10.3663845,10.34668,10.330238,10.312265,10.290631,10.269886,10.249802,10.2235985,10.196188,10.171219,10.140478,10.107099,10.077105,10.03975,9.996527,9.958771,9.920299,9.879257,9.845772,9.817189,9.78628,9.759554,9.737833,9.711799,9.686119,9.665764,9.642122,9.617317,9.5977745,9.580362,9.563719,9.55115,9.540967,9.52758,9.511782,9.495918,9.473808,9.447218,9.423133,9.395582,9.364962,9.339253,9.3153305,9.292299,9.276171,9.264418,9.253076,9.242957,9.233505,9.217774,9.196424,9.17589,9.150648,9.121311,9.095831,9.071323,9.042594,9.015608,8.991176,8.962362,8.933779,8.909025,8.880383,8.853326,8.834223,8.816225,8.803603,8.799134,8.797522,8.800684,8.807095,8.81304,8.819257,8.8240795
14.390224,14.392918,14.395231,14.397169,14.399357,14.401119,14.402262,14.403353,14.403812,14.403603,14.402942,14.40159,14.400043,14.398237,14.395844,14.393312,14.390686,14.386662,14.381819,14.377168,14.371086,14.364483,14.358902,14.35232,14.345367,14.339756,14.334125,14.327351,14.320812,14.314905,14.306343,14.297193,14.2897415,14.281232,14.273041,14.266628,14.2592945,14.251131,14.243951,14.236848,14.227429,14.217623,14.208618,14.196623,14.183979,14.1732025,14.160717,14.147854,14.137165,14.125656,14.112608,14.100813,14.089194,14.075367,14.062941,14.052782,14.04204,14.0338955,14.028963,14.024351,14.021211,14.019716,14.01906,14.020388,14.02334,14.027349,14.031969,14.035711,14.038581,14.0424385,14.043514,14.0406,14.035001,14.027153,14.020029,14.011652,14.002245,13.99465,13.988242,13.9826565,13.980181,13.980106,13.981976,13.985018,13.987404,13.991049,13.9971285,14.0042515,14.013067,14.024708,14.035452,14.044575,14.052236,14.056173,14.05798,14.060253,14.063524,14.067362,14.073079,14.07979,14.085087,14.089564,14.094696,14.1001835,14.106256,14.114834,14.123625,14.130686,14.13804,14.143871,14.147427,14.150175,14.151802,14.151968,14.15086,14.144762,14.132769,14.117384,14.091619,14.058633,14.026751,13.986298,13.942914,13.907362,13.867956,13.828798,13.799698,13.773852,13.746821,13.724741,13.70694,13.687673,13.67104,13.658293,13.643601,13.628357,13.61533,13.600327,13.58221,13.565122,13.54817,13.527684,13.508305,13.491388,13.470196,13.44875,13.431084,13.410248,13.388451,13.370417,13.35043,13.327581,13.307007,13.287296,13.262947,13.239096,13.218085,13.192911,13.167897,13.1473255,13.123135,13.09639,13.072874,13.047305,13.016489,12.9865885,12.956745,12.917398,12.876932,12.841594,12.798168,12.7541065,12.718311,12.67794,12.637304,12.605675,12.574507,12.541643,12.514154,12.4899025,12.461265,12.434242,12.411747,12.384876,12.357223,12.333836,12.304525,12.268146,12.232762,12.192844,12.140313,12.087391,12.0380745,11.976389,11.916357,11.867588,11.810644,11.75629,11.71545,11.671343,11.625633,11.587676,11.550034,11.506426,11.4671755,11.433634,11.393806,11.356188,11.3260975,11.291508,11.257025,11.229233,11.198308,11.16232,11.127894,11.09066,11.04159,10.991615,10.946176,10.889708,10.8341465,10.789673,10.737717,10.684907,10.642815,10.598993,10.554132,10.518798,10.488057,10.455458,10.428087,10.40568,10.379337,10.354214,10.334335,10.313826,10.294466,10.279108,10.26254,10.242505,10.223016,10.2038,10.179657,10.155663,10.134644,10.109175,10.080286,10.052549,10.015778,9.9720745,9.933903,9.894869,9.852726,9.817889,9.788041,9.7555065,9.727207,9.704222,9.676762,9.6495905,9.62787,9.602413,9.575247,9.553358,9.533197,9.513196,9.497642,9.484951,9.468917,9.451141,9.434067,9.410786,9.383347,9.358758,9.330708,9.299731,9.273883,9.249897,9.227026,9.211274,9.199938,9.189428,9.180526,9.172319,9.15847,9.139481,9.121075,9.098262,9.071413,9.047713,9.024489,8.996772,8.970398,8.946423,8.918291,8.890695,8.86706,8.839796,8.81384,8.795174,8.777291,8.764372,8.759432,8.757397,8.760053,8.765985,8.771528,8.777069,8.781081
14.267979,14.270056,14.271946,14.273899,14.275925,14.277375,14.278311,14.279166,14.27932,14.278763,14.277566,14.275911,14.274387,14.272327,14.26945,14.266344,14.263114,14.258312,14.252684,14.247368,14.240143,14.23209,14.225234,14.217159,14.208493,14.201343,14.194129,14.185348,14.176901,14.169315,14.159343,14.149233,14.140924,14.131365,14.122035,14.114622,14.106094,14.096447,14.087826,14.079196,14.0676565,14.055644,14.044709,14.030132,14.0147505,14.001626,13.986336,13.970524,13.957384,13.9433,13.927809,13.914366,13.901535,13.886974,13.874626,13.865048,13.855368,13.848595,13.844923,13.842033,13.841009,13.84144,13.842712,13.846277,13.851601,13.858244,13.868616,13.879945,13.889933,13.900501,13.907689,13.910734,13.911214,13.908447,13.904516,13.899004,13.892046,13.88607,13.880899,13.87639,13.8746395,13.875021,13.878164,13.883816,13.889372,13.895508,13.902874,13.910484,13.92115,13.935997,13.950409,13.963518,13.97562,13.981461,13.981771,13.982214,13.983522,13.985735,13.989677,13.994501,13.998119,14.000678,14.002853,14.005298,14.009096,14.014992,14.0216055,14.027348,14.034091,14.040869,14.046377,14.052476,14.059153,14.064605,14.06956,14.071552,14.067619,14.05963,14.042,14.015213,13.987028,13.949336,13.906171,13.868976,13.827249,13.783018,13.747656,13.715956,13.68276,13.655598,13.633265,13.608753,13.588397,13.574257,13.55789,13.5411005,13.526955,13.511024,13.492407,13.475319,13.458557,13.43861,13.419871,13.403431,13.382639,13.361231,13.343293,13.322014,13.299686,13.281284,13.261129,13.238513,13.218521,13.199512,13.176347,13.153926,13.134264,13.110943,13.087971,13.069122,13.046921,13.0223465,13.000681,12.976831,12.948044,12.920322,12.892984,12.857525,12.820478,12.786848,12.742889,12.69725,12.66093,12.620238,12.579441,12.547649,12.516205,12.482916,12.455021,12.430447,12.40162,12.374666,12.35236,12.326008,12.299141,12.276487,12.248098,12.21294,12.17883,12.140396,12.090016,12.039316,11.991956,11.93236,11.873937,11.826223,11.770251,11.716513,11.675959,11.632142,11.58663,11.548779,11.511289,11.467945,11.429016,11.395788,11.356329,11.318958,11.288934,11.25437,11.219818,11.191916,11.16095,11.1249275,11.090532,11.053517,11.004985,10.9557705,10.911145,10.855656,10.800562,10.755852,10.70298,10.648247,10.603964,10.557717,10.51034,10.473198,10.44111,10.407417,10.379421,10.356584,10.329848,10.304401,10.28423,10.263027,10.243214,10.227998,10.211895,10.192471,10.173451,10.154537,10.131231,10.108555,10.088909,10.064595,10.037861,10.013507,9.982552,9.943085,9.90534,9.866453,9.823964,9.788575,9.758078,9.724415,9.694749,9.670542,9.641567,9.612692,9.5894,9.561905,9.532164,9.507767,9.484665,9.461025,9.442163,9.426625,9.407478,9.387271,9.368637,9.343866,9.315413,9.290295,9.261761,9.23056,9.204756,9.180841,9.158313,9.143148,9.132431,9.123049,9.11574,9.109169,9.097642,9.081442,9.065485,9.045339,9.021063,8.999062,8.97695,8.949951,8.923832,8.899932,8.872,8.844971,8.822183,8.796071,8.771156,8.753017,8.735426,8.722445,8.717211,8.714858,8.71703,8.722387,8.727367,8.732025,8.735048
14.119376,14.122025,14.124374,14.126663,14.129237,14.131412,14.133081,14.135005,14.136139,14.136122,14.135331,14.1335535,14.131477,14.128765,14.124941,14.120811,14.116551,14.110357,14.103207,14.0964775,14.087439,14.077392,14.0688095,14.058676,14.047663,14.038437,14.029081,14.017654,14.006702,13.996866,13.9846,13.9724655,13.962312,13.950338,13.938251,13.928373,13.91685,13.903453,13.891243,13.878986,13.862989,13.846847,13.832622,13.813042,13.792042,13.774316,13.751993,13.728521,13.7097025,13.689657,13.668813,13.652081,13.637068,13.621563,13.609903,13.601778,13.594751,13.591698,13.591768,13.594263,13.599478,13.60499,13.610847,13.619812,13.630135,13.6405,13.655224,13.670936,13.685007,13.700844,13.714651,13.724627,13.73358,13.739319,13.741507,13.741646,13.739142,13.735569,13.732149,13.729244,13.728767,13.7302265,13.73489,13.742765,13.750835,13.760251,13.771139,13.781407,13.794479,13.811649,13.828144,13.84358,13.859523,13.869728,13.87372,13.878063,13.882317,13.886138,13.891352,13.897371,13.902336,13.906952,13.9123535,13.916364,13.917375,13.918979,13.921545,13.9243965,13.92868,13.934789,13.941264,13.950385,13.96225,13.973255,13.984772,13.995359,13.99962,13.998396,13.990236,13.973175,13.952658,13.921026,13.880705,13.843988,13.802189,13.754907,13.714494,13.677616,13.638142,13.605235,13.577946,13.547564,13.5215845,13.502839,13.481178,13.459487,13.441936,13.422855,13.401857,13.383686,13.366602,13.346724,13.32823,13.312011,13.29137,13.269792,13.251415,13.229347,13.20605,13.18692,13.166264,13.143573,13.123938,13.1054535,13.083296,13.062144,13.043656,13.022009,13.000936,12.98373,12.963503,12.940967,12.920852,12.89842,12.870857,12.844185,12.818268,12.785114,12.750633,12.719124,12.6779995,12.634299,12.598254,12.557446,12.516361,12.484463,12.452731,12.4190445,12.39082,12.366005,12.337147,12.310462,12.288528,12.262901,12.236956,12.215081,12.187666,12.153844,12.121196,12.08456,12.036892,11.989067,11.944272,11.887466,11.831163,11.784751,11.729829,11.676439,11.635706,11.591562,11.545448,11.506975,11.468927,11.42517,11.386114,11.352892,11.313593,11.276438,11.24654,11.212155,11.177831,11.150167,11.119637,11.084276,11.050676,11.014774,10.967937,10.92062,10.877837,10.824541,10.77097,10.726736,10.67367,10.617561,10.571396,10.523003,10.473398,10.434702,10.4015045,10.366938,10.338383,10.315067,10.287584,10.261278,10.240393,10.217976,10.196917,10.180952,10.164295,10.144289,10.124615,10.104923,10.080297,10.05641,10.036184,10.0115185,9.985815,9.963745,9.937491,9.903738,9.870006,9.83386,9.793095,9.758436,9.728582,9.695084,9.664967,9.640133,9.610128,9.579848,9.555183,9.525902,9.4938965,9.467278,9.441503,9.4144535,9.392366,9.37393,9.351471,9.328501,9.307966,9.281325,9.251562,9.225768,9.196648,9.165243,9.139574,9.115788,9.093684,9.079207,9.069214,9.061087,9.055515,9.050726,9.041624,9.028238,9.014706,8.997179,8.975361,8.954919,8.933796,8.907343,8.881227,8.857052,8.828829,8.801878,8.779573,8.754271,8.730263,8.712738,8.695618,8.68285,8.677563,8.675085,8.676946,8.681826,8.68627,8.690091,8.6922035
13.982534,13.984995,13.987263,13.989491,13.992388,13.995174,13.997379,14.000008,14.001606,14.001621,14.000553,13.998202,13.995527,13.99208,13.987225,13.981979,13.976593,13.968804,13.959819,13.951311,13.940272,13.928228,13.917947,13.905735,13.89238,13.881127,13.869671,13.855769,13.842447,13.830368,13.814909,13.799166,13.785746,13.76949,13.752611,13.738576,13.722094,13.702837,13.685339,13.667885,13.645905,13.624521,13.605761,13.58269,13.559867,13.540763,13.51958,13.497978,13.479631,13.459782,13.43868,13.421524,13.406225,13.390438,13.378872,13.371462,13.36519,13.362234,13.3616905,13.3627205,13.366363,13.371214,13.378075,13.3883505,13.399931,13.413115,13.432327,13.452925,13.471107,13.493832,13.515501,13.531618,13.548533,13.562641,13.5711565,13.577194,13.579458,13.578537,13.577001,13.57592,13.576958,13.579739,13.585502,13.593925,13.602198,13.613668,13.628364,13.642155,13.657021,13.674517,13.690464,13.705328,13.722275,13.736647,13.747249,13.7586975,13.7687,13.776041,13.784332,13.793308,13.801254,13.810011,13.821918,13.8308525,13.83153,13.831804,13.833001,13.834928,13.838684,13.845255,13.852867,13.863481,13.8777275,13.891483,13.906313,13.921341,13.93003,13.932447,13.931286,13.923516,13.911743,13.888188,13.854,13.821283,13.783205,13.739065,13.700019,13.661585,13.618734,13.582072,13.551523,13.516921,13.485263,13.45999,13.430836,13.401923,13.379114,13.354916,13.329483,13.30864,13.290057,13.269,13.249719,13.232961,13.211638,13.189217,13.169945,13.146862,13.122589,13.102796,13.081723,13.059036,13.039791,13.021835,13.000599,12.980537,12.963032,12.942703,12.923084,12.907139,12.88842,12.867571,12.848889,12.827806,12.801529,12.775628,12.749964,12.716297,12.681616,12.651043,12.614063,12.574736,12.540166,12.500307,12.45967,12.428058,12.396498,12.362764,12.3344,12.309593,12.280983,12.25477,12.2333355,12.2084675,12.183361,12.162128,12.135481,12.102723,12.071299,12.036255,11.991027,11.945854,11.903529,11.849615,11.795643,11.75066,11.696877,11.643793,11.602732,11.557974,11.51086,11.471404,11.4324,11.38778,11.348228,11.314708,11.275266,11.238144,11.208303,11.174085,11.14011,11.112892,11.0830765,11.048811,11.016479,10.982184,10.937601,10.892651,10.852083,10.801409,10.7498,10.706446,10.653743,10.596945,10.549519,10.499641,10.448517,10.408833,10.374987,10.339963,10.311094,10.28742,10.259164,10.231686,10.209611,10.185643,10.162879,10.14554,10.127472,10.105918,10.084811,10.063652,10.036675,10.010515,9.988865,9.963787,9.938566,9.916971,9.891449,9.861542,9.833636,9.801998,9.7647915,9.732151,9.704071,9.672058,9.642676,9.618122,9.588047,9.557225,9.531868,9.501625,9.468312,9.440334,9.412811,9.383397,9.358925,9.3382225,9.313034,9.287617,9.265262,9.236742,9.205557,9.178963,9.149131,9.11738,9.091718,9.067925,9.046052,9.032045,9.022572,9.0153885,9.011158,9.00775,9.000494,8.989225,8.977509,8.96199,8.942074,8.922853,8.902563,8.876609,8.850496,8.82601,8.797379,8.770277,8.748198,8.723402,8.700098,8.683157,8.666571,8.6541815,8.649033,8.646617,8.648405,8.653046,8.657151,8.660433,8.661959
13.85457,13.857374,13.860008,13.862537,13.865778,13.868855,13.871282,13.873985,13.8756485,13.875849,13.875024,13.87278,13.8699875,13.866264,13.86087,13.854931,13.84878,13.839868,13.829499,13.819582,13.806655,13.792451,13.780252,13.765684,13.749638,13.736025,13.722094,13.705217,13.689039,13.674292,13.655155,13.63526,13.61803,13.596468,13.572784,13.5521345,13.528634,13.498659,13.469208,13.44071,13.406232,13.373673,13.3429985,13.319784,13.3080845,13.298864,13.3120985,13.331718,13.33859,13.344088,13.3434305,13.337059,13.328295,13.313658,13.29854,13.287926,13.273284,13.253912,13.233148,13.203386,13.172784,13.153306,13.147114,13.143244,13.1423235,13.15648,13.1846075,13.21763,13.246768,13.2824335,13.315468,13.33934,13.367088,13.390974,13.40498,13.4162035,13.423901,13.4275675,13.429662,13.43224,13.436201,13.441295,13.449887,13.461107,13.471602,13.485691,13.502978,13.51864,13.535112,13.55383,13.570449,13.585916,13.603443,13.618101,13.628689,13.639879,13.649393,13.656249,13.663966,13.672331,13.679797,13.688084,13.698862,13.70892,13.71656,13.72629,13.7364645,13.745408,13.757196,13.770626,13.782188,13.790573,13.799385,13.808616,13.818244,13.8280945,13.834507,13.83801,13.838976,13.835312,13.82906,13.816979,13.7983265,13.779173,13.756344,13.729593,13.702535,13.663825,13.617525,13.577265,13.542756,13.503048,13.465857,13.435547,13.400154,13.364359,13.335724,13.305631,13.27434,13.249194,13.227451,13.203543,13.182213,13.163889,13.1405945,13.115979,13.094657,13.070298,13.045411,13.025286,13.004072,12.981596,12.962847,12.945534,12.925273,12.906274,12.889692,12.870561,12.8522415,12.837429,12.820076,12.800719,12.783259,12.763308,12.738067,12.712806,12.687477,12.653856,12.619089,12.588612,12.55134,12.51305,12.481232,12.445021,12.407369,12.376928,12.34667,12.313316,12.28459,12.259826,12.231495,12.205756,12.184798,12.160587,12.13607,12.115183,12.089041,12.057051,12.02656,11.992811,11.949642,11.9068,11.866751,11.815772,11.764355,11.720963,11.668469,11.615794,11.574442,11.528997,11.48074,11.440142,11.399997,11.354264,11.313984,11.279972,11.240185,11.202944,11.173079,11.138984,11.105389,11.0786915,11.049704,11.016729,10.985878,10.953355,10.911199,10.868742,10.83046,10.782501,10.733017,10.690748,10.638735,10.581704,10.533464,10.482584,10.430458,10.3901825,10.356001,10.320815,10.291801,10.267824,10.238796,10.210037,10.186605,10.160679,10.135506,10.116035,10.095635,10.071494,10.048235,10.025214,9.996437,9.968709,9.945357,9.919035,9.893824,9.87314,9.848614,9.821394,9.79735,9.77004,9.737381,9.707979,9.682186,9.652405,9.624562,9.600891,9.571415,9.540651,9.515048,9.484351,9.450304,9.421484,9.392758,9.361605,9.335268,9.312698,9.285184,9.257586,9.233522,9.203209,9.170601,9.143148,9.112534,9.080301,9.054483,9.030529,9.008667,8.994896,8.98573,8.97924,8.976082,8.973814,8.96809,8.958601,8.948434,8.934624,8.916315,8.898125,8.878564,8.853062,8.8269615,8.80221,8.77317,8.745857,8.723908,8.699517,8.676857,8.660511,8.644545,8.632691,8.627841,8.625633,8.627504,8.632019,8.635867,8.63871,8.639776
13.685892,13.688835,13.691767,13.694879,13.6989765,13.702974,13.706225,13.70994,13.712652,13.713735,13.713791,13.712061,13.709246,13.7051325,13.698755,13.691391,13.683523,13.671795,13.658438,13.646332,13.630677,13.613355,13.598221,13.579852,13.55921,13.541156,13.521679,13.496565,13.471117,13.447051,13.415552,13.382874,13.354597,13.3213215,13.291479,13.27124,13.242231,13.224624,13.224101,13.219589,13.212515,13.205705,13.200057,13.206326,13.218424,13.223375,13.245454,13.270527,13.283133,13.293663,13.297064,13.293224,13.286751,13.274145,13.25968,13.248056,13.232993,13.213405,13.191949,13.161015,13.127009,13.101946,13.084557,13.064481,13.045877,13.036995,13.036139,13.038336,13.033848,13.032625,13.043096,13.062927,13.078249,13.101322,13.13031,13.157754,13.181068,13.195038,13.207019,13.220932,13.2336235,13.243366,13.257664,13.274527,13.289515,13.308487,13.330486,13.349756,13.369936,13.392595,13.412357,13.430271,13.450447,13.4669695,13.478393,13.490227,13.49996,13.506777,13.514309,13.522339,13.529446,13.537201,13.546996,13.5570755,13.567362,13.58074,13.594444,13.606227,13.62142,13.638065,13.652041,13.664431,13.677189,13.688708,13.699956,13.711792,13.720968,13.728075,13.734894,13.737841,13.736871,13.733938,13.726431,13.716402,13.702831,13.684715,13.664806,13.636181,13.600836,13.56905,13.542383,13.504601,13.462381,13.425693,13.382244,13.337227,13.30077,13.263451,13.224986,13.194031,13.1670685,13.137642,13.111922,13.090335,13.063345,13.035234,13.011036,12.983667,12.956224,12.934556,12.912582,12.890394,12.8725815,12.85618,12.837141,12.819332,12.803711,12.785763,12.768709,12.755016,12.738947,12.721077,12.7049675,12.686326,12.662437,12.63819,12.61356,12.580515,12.54612,12.515936,12.478872,12.441496,12.411386,12.377377,12.342248,12.31385,12.285496,12.254192,12.22715,12.203661,12.176823,12.152446,12.132544,12.1096,12.086389,12.066559,12.040918,12.009415,11.979717,11.947145,11.905904,11.865383,11.827826,11.780113,11.731587,11.690048,11.639175,11.587225,11.545815,11.499916,11.450716,11.409085,11.367786,11.320816,11.279603,11.244884,11.204471,11.166882,11.136856,11.102808,11.069618,11.043516,11.015459,10.983912,10.954626,10.923895,10.884083,10.843946,10.807748,10.76228,10.714744,10.673465,10.6220875,10.564898,10.516009,10.464333,10.411547,10.371065,10.336924,10.302011,10.27322,10.249212,10.219605,10.189596,10.16474,10.136588,10.108442,10.08617,10.062571,10.034737,10.008336,9.982588,9.951143,9.921517,9.896847,9.869045,9.843592,9.824119,9.801001,9.775974,9.754644,9.731752,9.704973,9.680563,9.658325,9.63159,9.6056595,9.583339,9.555166,9.525312,9.500212,9.469968,9.4361515,9.407248,9.378018,9.345784,9.317982,9.2937155,9.263825,9.233682,9.207405,9.174589,9.139759,9.110796,9.078728,9.045414,9.019045,8.994598,8.972498,8.958822,8.94986,8.943886,8.941554,8.940165,8.935581,8.92746,8.91856,8.906321,8.889711,8.872846,8.854505,8.830181,8.804825,8.7804365,8.751674,8.7246475,8.703092,8.67929,8.657293,8.641447,8.625965,8.614399,8.609561,8.607296,8.608956,8.613115,8.616539,8.618813,8.61931
13.494423,13.498287,13.502127,13.506147,13.511604,13.517122,13.521736,13.527111,13.531384,13.53359,13.534598,13.533144,13.529858,13.524662,13.516205,13.506221,13.495516,13.479624,13.4617,13.445648,13.424786,13.401493,13.380981,13.356136,13.327343,13.301956,13.276506,13.2482605,13.22364,13.202166,13.174425,13.144352,13.116194,13.085073,13.063006,13.054239,13.03713,13.042185,13.070175,13.092861,13.120756,13.149651,13.179361,13.219498,13.255394,13.277172,13.299063,13.316399,13.3270855,13.331505,13.328818,13.322534,13.316042,13.306262,13.295497,13.28598,13.272234,13.255245,13.238712,13.216454,13.190111,13.166458,13.137923,13.102602,13.069013,13.034515,12.997983,12.963973,12.926571,12.890156,12.872414,12.873611,12.863507,12.865126,12.88331,12.896567,12.914195,12.931606,12.94408,12.957401,12.972811,12.991734,13.016466,13.043142,13.065844,13.093338,13.12349,13.148845,13.175127,13.204345,13.2294855,13.251675,13.276543,13.296938,13.31112,13.325875,13.337998,13.346413,13.355503,13.364889,13.372892,13.3811035,13.391345,13.401516,13.411032,13.423238,13.435839,13.446846,13.4614105,13.477925,13.492468,13.510422,13.530493,13.547165,13.563276,13.580577,13.594659,13.605893,13.618767,13.628136,13.63216,13.635511,13.63478,13.630423,13.622817,13.609886,13.59582,13.5822315,13.564475,13.545547,13.528031,13.496679,13.456465,13.419878,13.375764,13.329283,13.29099,13.248076,13.201384,13.162777,13.128336,13.090508,13.057854,13.031047,12.998399,12.965596,12.938145,12.906628,12.875494,12.851755,12.828534,12.806288,12.789221,12.773546,12.755391,12.738251,12.722968,12.705309,12.688591,12.675335,12.660049,12.643401,12.628557,12.611246,12.588945,12.56612,12.542734,12.510992,12.477701,12.448451,12.412645,12.37645,12.347107,12.31391,12.28022,12.253595,12.226679,12.197562,12.172869,12.151164,12.126371,12.103825,12.085342,12.064024,12.042244,12.023376,11.998499,11.9679165,11.939372,11.90835,11.869547,11.831551,11.795956,11.750765,11.704527,11.664516,11.615248,11.564377,11.523363,11.4776535,11.428271,11.386176,11.344095,11.296064,11.253855,11.218258,11.176912,11.138648,11.108252,11.074036,11.041044,11.015352,10.98798,10.957469,10.929263,10.899674,10.861237,10.822363,10.78726,10.743146,10.696676,10.655914,10.60486,10.547613,10.498459,10.44646,10.39362,10.353466,10.319815,10.285645,10.2574835,10.23382,10.2041,10.173321,10.147446,10.117464,10.08659,10.061552,10.034654,10.002871,9.97304,9.9443,9.9098835,9.878363,9.852878,9.823764,9.797778,9.779074,9.7572975,9.733835,9.713896,9.693735,9.671125,9.6508045,9.631922,9.60866,9.585711,9.566009,9.540765,9.513388,9.489887,9.46118,9.428734,9.400766,9.372085,9.339924,9.311562,9.286274,9.254589,9.222131,9.193597,9.158064,9.120603,9.089697,9.055698,9.020804,8.993498,8.968244,8.945613,8.931803,8.92284,8.917023,8.914999,8.9139385,8.909735,8.902134,8.893843,8.882628,8.867468,8.852062,8.835353,8.812959,8.789223,8.766048,8.738541,8.712547,8.691754,8.668757,8.647348,8.631765,8.616465,8.604746,8.5994835,8.59676,8.59778,8.6012745,8.604105,8.605688,8.605531
13.316659,13.322519,13.327999,13.33296,13.339714,13.346674,13.352538,13.359232,13.364551,13.367416,13.368784,13.366883,13.362461,13.35544,13.344005,13.330725,13.31686,13.297057,13.274502,13.253352,13.225389,13.19396,13.166441,13.133665,13.094775,13.061085,13.032536,13.012733,13.007468,13.009491,13.013508,13.013155,13.005844,12.999769,13.000631,13.008159,13.021181,13.035082,13.045767,13.060618,13.08787,13.122612,13.157888,13.204525,13.251609,13.289708,13.332853,13.371073,13.395292,13.406013,13.406017,13.401985,13.398359,13.391647,13.383217,13.376682,13.356691,13.326017,13.297219,13.2591,13.215546,13.17808,13.134862,13.085964,13.044662,13.007843,12.970154,12.941981,12.92178,12.907077,12.891922,12.870577,12.845749,12.81385,12.78101,12.73289,12.709012,12.715583,12.710854,12.701337,12.705957,12.736393,12.773842,12.812203,12.84394,12.88161,12.921461,12.953856,12.986885,13.022971,13.053598,13.080351,13.110071,13.134677,13.152418,13.171186,13.186956,13.198076,13.2100525,13.222187,13.2321415,13.241659,13.253181,13.26449,13.274969,13.288164,13.301563,13.313192,13.328617,13.345951,13.360998,13.379074,13.399174,13.416004,13.432273,13.450104,13.465309,13.478277,13.492968,13.505466,13.514327,13.52396,13.53125,13.534875,13.537691,13.537611,13.534739,13.530897,13.522785,13.5087,13.488981,13.461607,13.431049,13.403667,13.369534,13.333132,13.302024,13.256674,13.201681,13.154672,13.112156,13.065177,13.024844,12.992088,12.953033,12.915237,12.884729,12.849489,12.815422,12.79032,12.765963,12.743196,12.726206,12.710785,12.692892,12.67569,12.659994,12.641588,12.624159,12.610571,12.595575,12.579847,12.566037,12.5499,12.529123,12.507807,12.48591,12.455759,12.42391,12.396042,12.361774,12.3269825,12.298712,12.266706,12.234082,12.208128,12.181619,12.153103,12.129277,12.108622,12.085227,12.064108,12.046864,12.0269375,12.005948,11.987132,11.963324,11.934471,11.907663,11.878778,11.843203,11.808044,11.773654,11.729908,11.685038,11.646,11.59804,11.548337,11.507988,11.462937,11.41398,11.371901,11.329414,11.280592,11.237463,11.200976,11.158594,11.119503,11.088615,11.054062,11.021026,10.995483,10.968441,10.938451,10.910749,10.8816185,10.843622,10.805076,10.770228,10.726496,10.680357,10.63974,10.588772,10.531562,10.482448,10.430478,10.377957,10.338385,10.305378,10.272061,10.244627,10.221447,10.1919155,10.160828,10.134401,10.10321,10.070315,10.043097,10.013502,9.978416,9.945692,9.914446,9.877584,9.844498,9.818249,9.788123,9.761471,9.742725,9.72174,9.699602,9.680752,9.661433,9.639861,9.620943,9.603969,9.583987,9.565039,9.549049,9.528002,9.504131,9.4828,9.4560375,9.4253435,9.398742,9.371126,9.339696,9.311409,9.285687,9.2529,9.218737,9.188381,9.150579,9.1108,9.078102,9.042301,9.005848,8.97755,8.9514475,8.928181,8.914093,8.904991,8.899088,8.89703,8.895943,8.891659,8.884051,8.875912,8.865254,8.851177,8.837086,8.821989,8.801643,8.7797785,8.758141,8.7323,8.707657,8.687782,8.665651,8.644741,8.629267,8.613977,8.601904,8.596045,8.592703,8.5929165,8.595644,8.5978565,8.598747,8.59794
13.207288,13.202747,13.199381,13.196533,13.194487,13.194523,13.195843,13.2014,13.207651,13.210323,13.209163,13.201714,13.190827,13.176369,13.155933,13.135731,13.11784,13.097433,13.079027,13.063774,13.047859,13.033564,13.022112,13.006753,12.991224,12.979687,12.965519,12.950594,12.942148,12.941418,12.945795,12.950342,12.949662,12.950844,12.962958,12.98452,13.014451,13.054449,13.094568,13.146643,13.19458,13.217498,13.221015,13.234288,13.254803,13.2723255,13.286999,13.296919,13.3022785,13.2992525,13.2920685,13.287199,13.2854805,13.287203,13.292289,13.299786,13.302959,13.295489,13.280893,13.260689,13.237825,13.219353,13.197644,13.175219,13.157291,13.13997,13.116934,13.080557,13.024981,12.970789,12.921919,12.876531,12.833256,12.7908325,12.753231,12.70819,12.663451,12.630869,12.601465,12.559842,12.523613,12.503396,12.513586,12.542363,12.561181,12.581345,12.615595,12.658733,12.708663,12.763594,12.80731,12.844453,12.885668,12.91962,12.943617,12.96851,12.989342,13.004358,13.02047,13.036522,13.049454,13.062088,13.076684,13.090157,13.102207,13.116821,13.131176,13.143437,13.159777,13.177999,13.193624,13.212314,13.233056,13.250474,13.267384,13.286317,13.302999,13.317626,13.334543,13.3496685,13.36117,13.374241,13.385557,13.392852,13.4001465,13.405448,13.40748,13.408227,13.406308,13.400532,13.391487,13.379485,13.365736,13.352489,13.33569,13.317902,13.301356,13.263155,13.212435,13.168752,13.13032,13.077182,13.02226,12.976501,12.923401,12.875511,12.840054,12.799859,12.762561,12.736184,12.711088,12.688473,12.672121,12.6573,12.639757,12.62225,12.605763,12.585953,12.5669,12.552074,12.535479,12.51853,12.504316,12.487764,12.467804,12.448331,12.42821,12.400317,12.370491,12.344053,12.311485,12.27852,12.251905,12.221793,12.191045,12.166418,12.140879,12.113022,12.0894985,12.0690365,12.045866,12.025051,12.008186,11.98854,11.96785,11.94944,11.926331,11.898579,11.872993,11.845505,11.812195,11.7799635,11.749031,11.709396,11.668303,11.6324215,11.58567,11.535902,11.495747,11.450912,11.402218,11.360259,11.317444,11.267823,11.223717,11.186336,11.142912,11.103041,11.071774,11.037106,11.00428,10.979052,10.95245,10.922989,10.895683,10.866816,10.828955,10.790399,10.755493,10.711796,10.665758,10.62521,10.574341,10.517336,10.4684925,10.416815,10.364878,10.326061,10.293835,10.261416,10.234655,10.21189,10.182391,10.150774,10.123595,10.090931,10.055669,10.025926,9.993209,9.954328,9.918291,9.884146,9.844434,9.809492,9.782274,9.751455,9.724079,9.704351,9.683037,9.661728,9.6443205,9.626216,9.606028,9.588454,9.572844,9.5548,9.538029,9.523954,9.50632,9.487375,9.47099,9.450622,9.424753,9.399605,9.372781,9.341732,9.313492,9.287514,9.253796,9.218014,9.185869,9.145836,9.103785,9.069338,9.031744,8.993652,8.964213,8.937105,8.912956,8.898299,8.888792,8.882463,8.880011,8.878565,8.8738165,8.86584,8.857592,8.847261,8.834136,8.821361,8.807985,8.789953,8.770342,8.750681,8.727074,8.704305,8.685711,8.664833,8.644741,8.629572,8.614469,8.6021595,8.595745,8.591795,8.5911255,8.592966,8.594463,8.59455,8.592969
13.229213,13.219777,13.210953,13.203482,13.196426,13.192206,13.189995,13.192337,13.196234,13.197188,13.193262,13.181637,13.165709,13.142971,13.109619,13.076843,13.049313,13.021056,13.000261,12.986336,12.977823,12.976392,12.977118,12.97044,12.962055,12.956034,12.946083,12.930214,12.916195,12.909222,12.909418,12.917046,12.925173,12.946078,12.968706,12.981096,12.994963,13.018917,13.049376,13.09111,13.106035,13.084873,13.060815,13.007679,12.946774,12.904964,12.88301,12.883066,12.890099,12.899105,12.90517,12.906143,12.908755,12.914463,12.922498,12.930428,12.946177,12.95956,12.962358,12.962542,12.963313,12.966747,12.96866,12.968519,12.972755,12.994844,13.03068,13.040609,12.999481,12.946897,12.899399,12.867984,12.839438,12.807106,12.772305,12.734713,12.676315,12.615591,12.571954,12.519243,12.466598,12.416393,12.393791,12.39422,12.392657,12.386026,12.392172,12.414091,12.442959,12.482433,12.520639,12.556127,12.595943,12.631872,12.662657,12.699308,12.732798,12.756229,12.780578,12.804194,12.822967,12.841458,12.861822,12.879322,12.894138,12.911071,12.926781,12.939841,12.957183,12.976269,12.992407,13.01161,13.032842,13.050699,13.068117,13.088001,13.10596,13.121946,13.140934,13.158284,13.171534,13.186889,13.200634,13.209873,13.219234,13.226927,13.231305,13.2344265,13.236603,13.23774,13.238776,13.239588,13.238941,13.236904,13.234048,13.230729,13.2262535,13.20674,13.178209,13.152418,13.1295185,13.091679,13.043891,12.99528,12.939037,12.884245,12.837681,12.786997,12.741802,12.711334,12.68314,12.658909,12.642154,12.627022,12.608847,12.590176,12.572188,12.550253,12.529001,12.512518,12.493931,12.47546,12.46065,12.443748,12.423667,12.404217,12.384115,12.356633,12.327502,12.301647,12.270004,12.23831,12.212989,12.18475,12.156162,12.133217,12.109107,12.082464,12.059797,12.040247,12.017865,11.997542,11.981068,11.961563,11.940931,11.922695,11.899588,11.871935,11.846658,11.819725,11.786899,11.75546,11.726433,11.689273,11.650715,11.617103,11.573128,11.525787,11.487068,11.443754,11.395736,11.353505,11.310437,11.260265,11.215476,11.177451,11.133352,11.093117,11.06184,11.027557,10.995423,10.970806,10.944857,10.915898,10.888746,10.859806,10.821569,10.782463,10.747021,10.7027855,10.656404,10.61571,10.564875,10.508223,10.459879,10.408727,10.357565,10.319568,10.288099,10.256409,10.230072,10.207514,10.177775,10.145361,10.117228,10.082914,10.045134,10.012748,9.976802,9.934029,9.894609,9.857513,9.814857,9.777939,9.749626,9.718084,9.690062,9.669434,9.647322,9.625646,9.608387,9.590725,9.571562,9.555187,9.540511,9.523691,9.50827,9.495402,9.480143,9.464848,9.4522505,9.436922,9.416621,9.395807,9.373251,9.345848,9.319143,9.292961,9.258312,9.22106,9.1873455,9.14555,9.101809,9.066051,9.027057,8.987563,8.957035,8.928952,8.903788,8.888294,8.878109,8.870953,8.867605,8.865316,8.859541,8.850647,8.841881,8.83144,8.818886,8.807219,8.795436,8.779721,8.762553,8.745167,8.724248,8.703853,8.686939,8.667738,8.648857,8.634272,8.619579,8.607195,8.6003,8.595783,8.594196,8.595055,8.595765,8.594961,8.592514
13.33193,13.32917,13.324492,13.320711,13.318037,13.316969,13.316118,13.316066,13.315214,13.31261,13.304943,13.289318,13.268907,13.237348,13.189033,13.140232,13.09864,13.055325,13.023178,13.002239,12.985458,12.976374,12.971167,12.952838,12.923681,12.896686,12.874602,12.854155,12.840626,12.831312,12.829033,12.836266,12.846539,12.874353,12.881172,12.851475,12.816576,12.773954,12.736214,12.707453,12.624964,12.501364,12.386202,12.1975155,11.996414,11.849038,11.7588625,11.734823,11.737171,11.753165,11.770533,11.777451,11.784761,11.792339,11.797974,11.799878,11.815401,11.839012,11.857454,11.875702,11.89797,11.922392,11.952135,11.986919,12.034385,12.12381,12.282297,12.439211,12.536198,12.6050825,12.640478,12.668421,12.705062,12.713209,12.685551,12.645905,12.600763,12.567388,12.538946,12.5082445,12.479074,12.4501705,12.418374,12.394629,12.382524,12.363369,12.341709,12.325066,12.308668,12.305948,12.319571,12.338573,12.360769,12.38534,12.413593,12.452095,12.490542,12.51786,12.547501,12.57679,12.599769,12.622117,12.6462345,12.666712,12.684324,12.704114,12.721813,12.735975,12.754521,12.774532,12.791182,12.810827,12.832372,12.850433,12.868085,12.888479,12.907242,12.924168,12.944664,12.963842,12.978754,12.996327,13.012556,13.023891,13.035519,13.045821,13.052683,13.058503,13.064251,13.068741,13.072252,13.076333,13.079578,13.081409,13.083062,13.083597,13.08301,13.082068,13.078369,13.072079,13.064409,13.052885,13.031108,12.995069,12.952278,12.902292,12.850037,12.794504,12.7455015,12.712956,12.682426,12.65583,12.637171,12.620252,12.600077,12.579521,12.559729,12.53568,12.512618,12.494978,12.475534,12.45681,12.442192,12.425883,12.405358,12.384405,12.362886,12.334158,12.304483,12.278564,12.247127,12.215908,12.191087,12.163853,12.136658,12.114969,12.092138,12.066963,12.045692,12.027668,12.006632,11.987077,11.971077,11.951728,11.930744,11.911919,11.887919,11.859182,11.833048,11.805561,11.771433,11.738352,11.7081585,11.66991,11.630684,11.596584,11.555242,11.511749,11.475303,11.434383,11.3875475,11.345199,11.302557,11.252449,11.207348,11.169104,11.124926,11.084921,11.054066,11.020598,10.989464,10.965598,10.9403515,10.9117985,10.884642,10.855512,10.816808,10.777121,10.741165,10.696386,10.64966,10.608857,10.558138,10.501944,10.45417,10.403587,10.353133,10.315775,10.284834,10.253533,10.227306,10.204742,10.174609,10.141378,10.112367,10.076696,10.036974,10.002607,9.964286,9.91868,9.876806,9.837563,9.792709,9.754234,9.725002,9.692627,9.664131,9.643312,9.620668,9.59794,9.579605,9.561516,9.542593,9.526917,9.512943,9.497179,9.482982,9.471282,9.457373,9.443244,9.431427,9.416929,9.399965,9.384428,9.367652,9.345627,9.321607,9.295992,9.261645,9.224399,9.190443,9.148061,9.103617,9.067379,9.0278225,8.987641,8.956465,8.927788,8.901834,8.885525,8.874624,8.866524,8.862116,8.858831,8.85189,8.8419485,8.832535,8.821722,8.809322,8.798292,8.787518,8.773399,8.758041,8.742426,8.723715,8.705405,8.69006,8.672493,8.654921,8.641101,8.626997,8.614748,8.607559,8.602636,8.600252,8.600189,8.600143,8.598486,8.595207
