17.119839,17.109364,17.096302,17.0839,17.065762,17.052654,17.047508,17.061024,17.079132,17.138163,17.207397,17.319332,17.430908,17.53316,17.600677,17.605772,17.581944,17.540615,17.517445,17.473557,17.38693,17.45045,17.775286,18.439306,20.316208,23.067825,25.388994,25.950096,26.299765,26.322432,26.528095,26.84343,27.096966,27.321869,27.407352,27.403652,27.377354,27.378021,27.370918,27.36877,27.386688,27.420425,27.447811,27.487236,27.520887,27.560036,27.603237,27.639175,27.679768,27.70336,27.724257,27.73031,27.728191,27.712276,27.692284,27.663685,27.634079,27.607327,27.576757,27.556305,27.530382,27.510412,27.491287,27.473629,27.462662,27.45374,27.454538,27.463314,27.49054,27.51764,27.586096,27.66885,27.80624,27.985828,28.146275,28.36474,28.529549,28.72555,28.886234,29.013264,29.161015,29.26854,29.407658,29.53085,29.664532,29.829987,29.95808,30.121788,30.244251,30.37075,30.493217,30.580189,30.694853,30.783527,30.896502,31.020258,31.125011,31.275772,31.397652,31.554714,31.697884,31.818203,31.943642,32.018356,32.097927,32.144444,32.18098,32.207405,32.220028,32.228687,32.229485,32.233356,32.2343,32.232304,32.223946,32.213192,32.201176,32.184525,32.16677,32.142246,32.12349,32.09968,32.069744,32.03629,31.98169,31.933977,31.860847,31.789375,31.723091,31.652298,31.60578,31.55196,31.519278,31.493568,31.48296,31.482578,31.498413,31.525219,31.563278,31.620983,31.677279,31.763449,31.835726,31.928823,32.019535,32.095528,32.186,32.248104,32.314713,32.34162,32.342907,32.284775,32.209255,32.031647,31.816097,31.573261,31.28439,31.064453,30.795557,30.628387,30.50069,30.518051,30.603624,30.926847,31.330643,31.926735,32.600006,33.217453,33.757355,33.946335,34.179203,34.324867,34.42892,34.53514,34.613827,34.732803,34.840515,34.94605,35.067413,35.16574,35.271706,35.327072,35.36969,35.357826,35.314217,35.215443,35.114433,34.993477,34.882626,34.798317,34.72512,34.69662,34.666664,34.651287,34.636467,34.633865,34.64206,34.68421,34.74755,34.812126,34.910805,35.001877,35.132034,35.241005,35.355118,35.487885,35.60232,35.778687,35.933777,36.13887,36.379852,36.60043,36.914314,37.164017,37.496048,37.821342,38.121586,38.501724,38.78563,39.16432,39.45909,39.69954,39.88952,39.98242,40.090164,40.158447,40.22973,40.28734,40.322994,40.351223,40.354797,40.339767,40.297836,40.249657,40.191322,40.156578,40.135612,40.150223,40.182262,40.250202,40.314766,40.401676,40.474514,40.538456,40.58882,40.60989,40.620377,40.61572,40.614445,40.615974,40.619507,40.632095,40.64795,40.66938,40.68991,40.702217,40.714573,40.721375,40.727768,40.729385,40.72902,40.721973,40.71249,40.6883,40.64795,40.59617,40.508698,40.430374,40.306,40.186134,40.05166,39.897385,39.77941,39.6251,39.51181,39.38999,39.287163,39.214558,39.14843,39.12143,39.105953,39.112434,39.121773,39.13974,39.155464,39.1753,39.19249,39.207275,39.226227,39.241386,39.26716,39.29611,39.333385,39.38656,39.43271,39.49839,39.552,39.613274,39.67353,39.7173,39.775543,39.821644,39.888733,39.971306,40.049965,40.177074,40.28901
17.124506,17.11302,17.099026,17.086084,17.068031,17.055561,17.051325,17.065212,17.083105,17.13974,17.205713,17.31413,17.423405,17.523817,17.592018,17.599758,17.581024,17.544167,17.521276,17.480995,17.401962,17.477623,17.813393,18.498024,20.370735,23.079834,25.374878,25.944542,26.317072,26.365314,26.579037,26.904602,27.167147,27.364265,27.42132,27.43679,27.435822,27.442333,27.454777,27.475891,27.516872,27.569946,27.60493,27.655869,27.699234,27.748623,27.80184,27.845713,27.894249,27.921589,27.945423,27.951603,27.949076,27.92826,27.901384,27.861408,27.818283,27.778784,27.730259,27.695194,27.648844,27.610819,27.573738,27.536976,27.512363,27.490725,27.487198,27.495152,27.528519,27.561886,27.651346,27.759916,27.930859,28.147774,28.3404,28.595793,28.783367,29.003262,29.170834,29.290073,29.413313,29.495876,29.608753,29.712471,29.824562,29.967205,30.080471,30.227669,30.33983,30.455894,30.568142,30.647396,30.75019,30.82827,30.92669,31.03534,31.1296,31.263802,31.371243,31.512516,31.647903,31.768555,31.901081,31.983906,32.07509,32.132034,32.17753,32.211395,32.227535,32.238358,32.23863,32.24159,32.240246,32.235954,32.224167,32.21044,32.194412,32.173466,32.152096,32.124844,32.10583,32.083374,32.058372,32.031673,31.988638,31.950994,31.890484,31.82815,31.767723,31.70056,31.655457,31.600729,31.56432,31.53302,31.513725,31.505661,31.511492,31.53086,31.560501,31.609959,31.659866,31.737797,31.803995,31.88909,31.973042,32.044743,32.130283,32.188824,32.25289,32.28258,32.292515,32.247578,32.181618,32.01642,31.809124,31.570644,31.283173,31.064003,30.791727,30.619383,30.48864,30.505823,30.591606,30.92581,31.34367,31.93461,32.602173,33.236595,33.782738,33.960205,34.185966,34.328773,34.432594,34.53141,34.59675,34.716324,34.835842,34.952805,35.074593,35.159958,35.25315,35.30082,35.328636,35.30686,35.264397,35.17327,35.07924,34.948013,34.813526,34.704033,34.6158,34.591064,34.56015,34.540028,34.516872,34.502502,34.501186,34.55788,34.65036,34.735847,34.859356,34.971992,35.125107,35.24487,35.360188,35.48874,35.601852,35.7798,35.939026,36.151245,36.402405,36.63208,36.96164,37.22544,37.57251,37.90445,38.204422,38.572693,38.841274,39.184464,39.45233,39.702232,39.91004,40.00741,40.114357,40.178207,40.249138,40.309986,40.34979,40.38485,40.394474,40.387604,40.350616,40.301445,40.241905,40.20748,40.191025,40.21216,40.24998,40.320267,40.3825,40.467094,40.53833,40.601067,40.652092,40.67521,40.689445,40.68856,40.69112,40.6963,40.702515,40.7162,40.73059,40.748665,40.76217,40.767006,40.766,40.76045,40.750977,40.73718,40.723824,40.700066,40.677864,40.641247,40.595367,40.54132,40.45732,40.384716,40.271873,40.16362,40.0386,39.893707,39.783115,39.63864,39.532143,39.41617,39.312256,39.231316,39.159836,39.1345,39.125156,39.137245,39.146015,39.160866,39.17366,39.18937,39.202705,39.214058,39.22964,39.242756,39.267273,39.296867,39.336014,39.39271,39.442192,39.51127,39.56591,39.626026,39.6798,39.71535,39.75811,39.789436,39.83737,39.901077,39.96478,40.073624,40.17253
17.12944,17.116707,17.10147,17.08763,17.070023,17.059008,17.055721,17.069748,17.08768,17.14211,17.204777,17.309557,17.416252,17.514336,17.58276,17.592985,17.579187,17.5467,17.52349,17.487589,17.418282,17.508057,17.857525,18.576372,20.455273,23.119122,25.381252,25.953482,26.344524,26.418106,26.642649,26.983276,27.258404,27.425072,27.448929,27.482418,27.51295,27.535416,27.578793,27.629547,27.69392,27.766804,27.813484,27.878395,27.931137,27.99014,28.052662,28.104399,28.161259,28.192928,28.220636,28.226357,28.220356,28.192036,28.157913,28.105629,28.047539,27.993326,27.923569,27.870998,27.80029,27.740881,27.682652,27.623953,27.584482,27.545872,27.533552,27.536407,27.580276,27.63303,27.755644,27.895145,28.111214,28.374992,28.603344,28.89174,29.0935,29.325638,29.495052,29.613731,29.723951,29.788578,29.87569,29.95443,30.04114,30.156075,30.250532,30.37624,30.474457,30.576387,30.674793,30.743637,30.831104,30.896032,30.976849,31.066944,31.14674,31.262657,31.35701,31.482067,31.606205,31.720037,31.854313,31.945457,32.047585,32.11446,32.168823,32.210438,32.2305,32.244087,32.24433,32.24674,32.243454,32.237186,32.222404,32.20598,32.18595,32.16042,32.135075,32.104187,32.083923,32.06148,32.040253,32.0195,31.98754,31.959953,31.913086,31.861444,31.808037,31.74575,31.702915,31.648243,31.608696,31.57235,31.544779,31.529314,31.52528,31.537104,31.558086,31.598663,31.641438,31.709755,31.76858,31.844158,31.919434,31.983986,32.063263,32.11931,32.18313,32.216263,32.230095,32.19549,32.141308,31.991642,31.795155,31.562351,31.277191,31.059868,30.783607,30.604086,30.467133,30.483347,30.572504,30.921753,31.355827,31.940012,32.600483,33.255295,33.81138,33.978577,34.197247,34.336178,34.438824,34.53213,34.589027,34.697334,34.81005,34.92773,35.05352,35.14212,35.229538,35.26349,35.26899,35.221848,35.16172,35.060654,34.96749,34.820263,34.674675,34.575718,34.496544,34.471176,34.439056,34.417984,34.395683,34.385666,34.389847,34.44747,34.545593,34.66548,34.811447,34.910263,35.0643,35.201225,35.349907,35.50463,35.616314,35.79428,35.957237,36.178482,36.442924,36.68451,37.03068,37.30718,37.66995,38.009075,38.30719,38.66017,38.91026,39.22088,39.457863,39.680374,39.879883,39.99141,40.108925,40.17548,40.24755,40.310753,40.35557,40.396957,40.410606,40.406113,40.371315,40.3255,40.27339,40.24556,40.217995,40.22709,40.26902,40.36281,40.453674,40.553047,40.622337,40.683514,40.73449,40.760704,40.78054,40.78499,40.79242,40.80102,40.808952,40.821198,40.831173,40.84195,40.84446,40.839264,40.821613,40.801258,40.772835,40.741108,40.712433,40.67222,40.639984,40.593605,40.54371,40.48781,40.407413,40.34083,40.23965,40.143288,40.03242,39.892227,39.774654,39.611656,39.486282,39.35647,39.24891,39.1727,39.106262,39.08233,39.07154,39.082367,39.09355,39.11306,39.129723,39.150166,39.16665,39.179924,39.194946,39.20587,39.225307,39.24929,39.282745,39.33622,39.385902,39.45862,39.518677,39.586143,39.645393,39.682823,39.72091,39.743645,39.781834,39.834694,39.887894,39.98333,40.072685
17.133575,17.119507,17.102709,17.087551,17.070581,17.061714,17.059696,17.074272,17.093037,17.146645,17.20721,17.309248,17.413345,17.50863,17.57585,17.587032,17.576452,17.547192,17.522362,17.490562,17.431469,17.538036,17.906958,18.678005,20.57919,23.201279,25.422049,25.982536,26.382515,26.479572,26.720383,27.073395,27.350353,27.491884,27.494524,27.54651,27.612656,27.659904,27.74065,27.822468,27.910145,28.002642,28.062214,28.141476,28.202808,28.269947,28.33957,28.396893,28.461884,28.499807,28.533192,28.538721,28.52741,28.48936,28.446846,28.379768,28.304962,28.23632,28.146334,28.07695,27.982395,27.901958,27.823242,27.744003,27.691046,27.638046,27.619986,27.621998,27.683659,27.76437,27.926933,28.098179,28.35615,28.661205,28.92163,29.241352,29.458435,29.70551,29.881142,30.003727,30.107918,30.160751,30.225063,30.277534,30.337723,30.421839,30.494118,30.593159,30.672787,30.755594,30.835268,30.890343,30.95876,31.008303,31.069258,31.138817,31.202122,31.298573,31.380043,31.48871,31.59906,31.700897,31.827578,31.918783,32.023598,32.095345,32.154144,32.20028,32.222977,32.239037,32.24026,32.243324,32.24009,32.233696,32.218475,32.201233,32.178997,32.149925,32.121254,32.085987,32.06268,32.03714,32.015587,31.996803,31.970814,31.949673,31.913048,31.870981,31.82506,31.769083,31.729456,31.676983,31.636885,31.598488,31.566547,31.546993,31.537155,31.54411,31.559086,31.592422,31.628788,31.687344,31.737907,31.80264,31.867575,31.923317,31.994928,32.04808,32.111557,32.1476,32.163246,32.135773,32.09088,31.955177,31.769772,31.543615,31.262585,31.048754,30.769238,30.58213,30.438932,30.454857,30.549007,30.912924,31.361296,31.939676,32.595936,33.273277,33.843758,34.005196,34.218937,34.35286,34.45201,34.537785,34.586514,34.675953,34.770134,34.87633,34.996395,35.085197,35.164387,35.185326,35.17454,35.111794,35.044193,34.926926,34.8182,34.661858,34.524998,34.45173,34.391327,34.3646,34.332172,34.311974,34.29412,34.293648,34.30762,34.36042,34.45128,34.590485,34.752953,34.84746,34.996674,35.136024,35.310387,35.498413,35.627777,35.82479,35.999256,36.23477,36.513443,36.76786,37.12945,37.416077,37.79035,38.132843,38.42712,38.763348,38.994186,39.274826,39.479836,39.65947,39.83178,39.947838,40.074554,40.151077,40.231476,40.30169,40.350784,40.397453,40.414543,40.41121,40.378693,40.340214,40.290558,40.257854,40.21469,40.21186,40.255257,40.37094,40.490746,40.618427,40.703857,40.77481,40.833237,40.86512,40.89103,40.89853,40.907597,40.915955,40.92341,40.93242,40.937557,40.941452,40.932602,40.915077,40.87844,40.842392,40.794395,40.744858,40.701126,40.645203,40.60373,40.548416,40.494987,40.438488,40.35919,40.2933,40.194412,40.099693,39.988472,39.84137,39.713745,39.53382,39.394722,39.255577,39.149902,39.084694,39.02775,39.005196,38.99048,38.996384,39.0083,39.030846,39.05037,39.074875,39.094772,39.11068,39.12661,39.13672,39.15269,39.171875,39.199623,39.248528,39.29664,39.37034,39.433792,39.50653,39.57196,39.61408,39.65516,39.67781,39.71685,39.770668,39.82589,39.91864,40.001602
17.136425,17.121334,17.103191,17.086859,17.070389,17.063375,17.062714,17.078274,17.098206,17.152016,17.211662,17.31208,17.41417,17.507114,17.572681,17.583755,17.574469,17.546782,17.520037,17.490921,17.43908,17.560562,17.948357,18.765663,20.689178,23.281673,25.465515,26.008015,26.413063,26.5313,26.788994,27.146091,27.411827,27.540066,27.5394,27.604134,27.697575,27.769024,27.87834,27.980885,28.087822,28.197462,28.267368,28.358128,28.42614,28.498993,28.572617,28.631895,28.704617,28.751808,28.793718,28.80155,28.786634,28.739986,28.68917,28.606262,28.515049,28.435688,28.331837,28.250687,28.138813,28.042782,27.948954,27.854858,27.792171,27.731394,27.71368,27.722137,27.803457,27.907408,28.102428,28.297836,28.577927,28.90325,29.18404,29.530533,29.76692,30.035095,30.221012,30.343706,30.44077,30.485973,30.535591,30.570356,30.610722,30.67023,30.72422,30.800568,30.863705,30.929352,30.992283,31.03543,31.08722,31.12333,31.167458,31.219955,31.269793,31.349249,31.418652,31.514555,31.614902,31.707897,31.82352,31.906322,32.00693,32.0798,32.138954,32.185986,32.209396,32.226627,32.229,32.2333,32.23165,32.2267,32.213387,32.197277,32.17504,32.144463,32.114098,32.07561,32.049286,32.0199,31.995848,31.976269,31.951736,31.93318,31.901295,31.86495,31.825539,31.775747,31.73893,31.689308,31.650265,31.61195,31.578781,31.557898,31.545795,31.550447,31.562172,31.590689,31.622398,31.673141,31.716667,31.772018,31.827827,31.875883,31.940268,31.990078,32.05214,32.09072,32.110924,32.090286,32.050285,31.923481,31.74609,31.525528,31.248981,31.038952,30.757828,30.565245,30.418293,30.43488,30.533398,30.906471,31.362759,31.938274,32.595882,33.29467,33.87832,34.034157,34.243713,34.372856,34.46663,34.543777,34.585068,34.661034,34.740334,34.82949,34.92856,35.000637,35.061943,35.074818,35.061874,35.012657,34.97313,34.85063,34.709816,34.558777,34.445602,34.38615,34.335762,34.31051,34.278877,34.258068,34.24045,34.241226,34.256958,34.30896,34.395996,34.521873,34.695072,34.83068,34.98349,35.09384,35.250465,35.450397,35.6212,35.855568,36.042244,36.29197,36.582157,36.84738,37.221786,37.51667,37.897163,38.239086,38.53026,38.853508,39.06887,39.32502,39.505836,39.66189,39.8096,39.90788,40.031437,40.120964,40.217125,40.29933,40.348274,40.397663,40.41951,40.421196,40.395256,40.368828,40.30927,40.250195,40.19947,40.201004,40.242527,40.35601,40.47441,40.629623,40.752144,40.84294,40.91498,40.953987,40.98389,40.98974,40.995453,41.000107,41.00641,41.014633,41.01947,41.023743,41.009712,40.981075,40.928074,40.879612,40.816376,40.753708,40.699493,40.63347,40.58661,40.5263,40.4716,40.418186,40.336876,40.263016,40.15068,40.04064,39.90413,39.73835,39.60913,39.439583,39.31657,39.191402,39.096725,39.038597,38.987286,38.966187,38.95101,38.953472,38.96141,38.978188,38.993355,39.013336,39.030838,39.045647,39.061966,39.073174,39.091118,39.111923,39.14046,39.18849,39.23494,39.30515,39.36483,39.43199,39.493576,39.53501,39.579865,39.608635,39.654655,39.718193,39.788002,39.887962,39.965874
17.141106,17.124752,17.10469,17.086576,17.070599,17.066057,17.067379,17.084723,17.106758,17.161963,17.221508,17.320608,17.420055,17.509531,17.571507,17.580711,17.572573,17.547325,17.517467,17.490593,17.44654,17.588846,18.006962,18.902061,20.86801,23.41901,25.549343,26.064428,26.469875,26.611437,26.892668,27.249435,27.490084,27.616032,27.633322,27.716663,27.842304,27.943066,28.086205,28.212547,28.341599,28.470608,28.552,28.655357,28.73083,28.811218,28.891642,28.956402,29.035587,29.086662,29.131546,29.137753,29.11815,29.062027,29.002312,28.906103,28.801163,28.709883,28.59099,28.498497,28.36916,28.257359,28.149021,28.040928,27.968477,27.905037,27.894508,27.913998,28.015549,28.139553,28.365177,28.585892,28.892372,29.244328,29.548988,29.933014,30.201912,30.515438,30.733646,30.868828,30.959286,30.987495,31.007502,31.010468,31.021717,31.047012,31.074886,31.118393,31.157234,31.197342,31.234737,31.258766,31.287415,31.30734,31.330845,31.362183,31.394787,31.451857,31.504894,31.582659,31.668133,31.748182,31.848103,31.919456,32.008347,32.074528,32.12858,32.172405,32.19471,32.21166,32.214752,32.21958,32.218945,32.21515,32.203415,32.188362,32.166725,32.13553,32.10411,32.06227,32.03203,31.997032,31.96812,31.945438,31.91979,31.902298,31.87526,31.846004,31.81366,31.770988,31.737972,31.693003,31.65689,31.620646,31.58852,31.568161,31.555656,31.5588,31.567688,31.590641,31.616482,31.656815,31.6907,31.733368,31.776796,31.81438,31.868595,31.91338,31.972366,32.012955,32.03781,32.025337,31.991945,31.875881,31.708103,31.49597,31.226542,31.021183,30.739983,30.543482,30.395008,30.414528,30.518723,30.903086,31.36916,31.944723,32.60262,33.312782,33.912025,34.07772,34.289764,34.41228,34.498497,34.563232,34.594257,34.65369,34.715637,34.783882,34.85797,34.91079,34.954697,34.962868,34.956436,34.915276,34.87455,34.742977,34.593773,34.461754,34.376236,34.32786,34.284737,34.2611,34.23074,34.209984,34.192947,34.194794,34.2117,34.263367,34.34519,34.45205,34.619503,34.773262,34.93769,35.04757,35.19549,35.40088,35.595444,35.880302,36.11357,36.38917,36.69011,36.96913,37.358696,37.66225,38.047302,38.38514,38.66993,38.975754,39.17224,39.399292,39.552036,39.68136,39.80014,39.87677,39.988197,40.082493,40.18902,40.287903,40.350243,40.411858,40.438564,40.447205,40.422775,40.392113,40.321045,40.250813,40.20129,40.21073,40.253784,40.367424,40.485012,40.66057,40.814854,40.9367,41.032864,41.077793,41.11274,41.11879,41.12216,41.121567,41.123817,41.12475,41.122276,41.116966,41.090027,41.048897,40.976284,40.91127,40.829376,40.7492,40.677803,40.591278,40.530594,40.456482,40.393524,40.3333,40.243523,40.162216,40.038292,39.918484,39.771576,39.60434,39.482517,39.33165,39.228355,39.121597,39.04077,38.99081,38.94599,38.926735,38.91154,38.910423,38.91369,38.9234,38.933067,38.947227,38.96149,38.974617,38.991295,39.00399,39.025017,39.048805,39.07958,39.128036,39.173485,39.2405,39.296112,39.357086,39.413265,39.4523,39.497627,39.529327,39.57846,39.64685,39.722813,39.831596,39.916256
17.145367,17.128143,17.10659,17.08702,17.071272,17.068521,17.07138,17.090296,17.114182,17.171057,17.231169,17.329773,17.427261,17.513924,17.572361,17.57911,17.571678,17.548727,17.5163,17.490227,17.450703,17.608883,18.052658,19.016193,21.021729,23.539505,25.627836,26.122059,26.52384,26.67876,26.977318,27.330744,27.548012,27.682356,27.726707,27.82541,27.971931,28.091164,28.256208,28.398033,28.540808,28.68143,28.769608,28.88028,28.960295,29.046398,29.133293,29.20473,29.285643,29.332537,29.372665,29.373774,29.350761,29.289318,29.22491,29.125376,29.016869,28.9184,28.790493,28.692478,28.554024,28.434,28.318817,28.204311,28.12677,28.066319,28.06514,28.09327,28.2042,28.334488,28.573082,28.807657,29.133461,29.50727,29.828316,30.241482,30.538448,30.896717,31.15142,31.305115,31.392818,31.402893,31.392834,31.36565,31.35305,31.351982,31.359425,31.377094,31.396648,31.41635,31.432915,31.440699,31.4518,31.4612,31.470901,31.487814,31.508251,31.549118,31.590015,31.65337,31.726543,31.796206,31.884962,31.949352,32.026417,32.082256,32.129097,32.16784,32.188072,32.203537,32.206444,32.210648,32.209606,32.205746,32.19399,32.179,32.15789,32.12698,32.09548,32.05184,32.01895,31.979824,31.94675,31.92083,31.892885,31.875021,31.85121,31.827179,31.798792,31.760323,31.730097,31.688951,31.655773,31.622087,31.592178,31.57343,31.561958,31.564743,31.57224,31.59144,31.613028,31.6456,31.672222,31.705477,31.739737,31.76953,31.816008,31.856802,31.912802,31.953861,31.98071,31.9736,31.94574,31.837294,31.676027,31.470802,31.207237,31.004807,30.72491,30.52797,30.380787,30.40385,30.512024,30.904572,31.378052,31.956192,32.612274,33.317467,33.926422,34.112255,34.332066,34.449635,34.530457,34.585804,34.60905,34.65734,34.708794,34.764717,34.8256,34.869232,34.906914,34.91562,34.918705,34.871376,34.795303,34.654594,34.528606,34.417152,34.345562,34.30033,34.258434,34.235382,34.20591,34.185944,34.169903,34.172882,34.19058,34.24231,34.320496,34.417744,34.56679,34.699253,34.87627,35.019592,35.17868,35.38259,35.56636,35.884766,36.174126,36.47361,36.779335,37.068073,37.46747,37.775864,38.162228,38.495277,38.773743,39.06646,39.25023,39.458138,39.592884,39.70482,39.806328,39.872314,39.970634,40.058,40.162506,40.272926,40.35579,40.433125,40.4621,40.475494,40.44611,40.396263,40.320183,40.263634,40.22281,40.23745,40.28531,40.40467,40.526466,40.70366,40.863663,41.009415,41.126263,41.172436,41.211037,41.219784,41.223846,41.21984,41.21742,41.208073,41.194458,41.173576,41.13195,41.08349,40.99817,40.920826,40.82612,40.73255,40.64564,40.538185,40.46196,40.37194,40.29773,40.223793,40.124104,40.041298,39.916454,39.800537,39.667923,39.519646,39.409447,39.272087,39.177517,39.080566,39.00763,38.96276,38.92212,38.90412,38.88904,38.886116,38.88723,38.893555,38.900505,38.911797,38.924442,38.936646,38.953453,38.966927,38.989716,39.015396,39.04785,39.09742,39.143185,39.209778,39.26423,39.32322,39.37658,39.413296,39.455,39.48358,39.528877,39.592827,39.660816,39.773457,39.87284
17.152195,17.13406,17.110535,17.088913,17.07328,17.072779,17.077621,17.098747,17.125328,17.184845,17.246063,17.344254,17.438951,17.521332,17.573895,17.576254,17.567997,17.546934,17.511429,17.48673,17.452261,17.632607,18.113583,19.173683,21.238918,23.71785,25.75705,26.226986,26.616457,26.777931,27.092243,27.450083,27.656128,27.806551,27.88076,27.998508,28.169163,28.30832,28.497559,28.656784,28.815159,28.96846,29.063438,29.180511,29.26316,29.351582,29.438982,29.51042,29.58757,29.6288,29.6615,29.655804,29.628954,29.562656,29.494514,29.39336,29.28534,29.187492,29.057556,28.955599,28.81017,28.68374,28.564009,28.447208,28.369205,28.313923,28.321287,28.358694,28.480556,28.619192,28.871227,29.118008,29.459076,29.851463,30.187723,30.63799,30.974909,31.37498,31.652306,31.808184,31.893303,31.904093,31.874401,31.815702,31.772232,31.73924,31.728132,31.720613,31.720356,31.7193,31.715229,31.70837,31.698235,31.689924,31.677372,31.67286,31.678186,31.699375,31.7253,31.769768,31.82529,31.879185,31.949127,32.000416,32.059914,32.10157,32.136307,32.1644,32.178703,32.188972,32.190052,32.192337,32.190895,32.187843,32.177494,32.163673,32.143356,32.11288,32.082016,32.037525,32.002617,31.959896,31.922523,31.892776,31.861076,31.84137,31.817862,31.796545,31.771076,31.737135,31.710735,31.675116,31.646576,31.617271,31.591547,31.575912,31.566833,31.56969,31.57594,31.590479,31.606438,31.628727,31.645767,31.666836,31.689423,31.709404,31.74602,31.781544,31.83319,31.87405,31.902771,31.901163,31.878918,31.778673,31.625082,31.429281,31.173267,30.972662,30.697372,30.505713,30.364716,30.394676,30.507973,30.910633,31.39333,31.975327,32.629196,33.325996,33.948387,34.163895,34.39476,34.505272,34.579727,34.623413,34.63649,34.67056,34.709183,34.751057,34.79688,34.829533,34.861454,34.870274,34.865936,34.804123,34.70874,34.57051,34.46728,34.376076,34.317753,34.27665,34.2369,34.214626,34.18659,34.168076,34.153744,34.158386,34.176994,34.22731,34.299522,34.385124,34.51483,34.628647,34.7986,34.949562,35.114403,35.33165,35.528854,35.88707,36.22155,36.57032,36.910496,37.211258,37.619762,37.93297,38.319534,38.645157,38.914055,39.189125,39.356777,39.540764,39.653336,39.74401,39.82418,39.876534,39.960335,40.04059,40.140774,40.254486,40.344814,40.433502,40.47085,40.48829,40.45946,40.408913,40.340332,40.295918,40.267464,40.29241,40.34897,40.47856,40.607567,40.79419,40.965134,41.12935,41.263588,41.31611,41.358826,41.36628,41.366974,41.35473,41.344086,41.320164,41.29248,41.25336,41.192535,41.129623,41.026558,40.935944,40.81402,40.688435,40.573067,40.43821,40.348938,40.244682,40.162476,40.081818,39.980377,39.900383,39.78139,39.673534,39.55362,39.4207,39.320866,39.19707,39.112465,39.02617,38.96192,38.922867,38.887245,38.871037,38.856705,38.852493,38.85189,38.85537,38.85997,38.86886,38.880207,38.89169,38.908775,38.923058,38.947914,38.975956,39.010696,39.062195,39.10897,39.17611,39.230133,39.28766,39.338646,39.373497,39.41227,39.43827,39.480057,39.540253,39.603626,39.715916,39.819744
17.159222,17.140648,17.115559,17.092127,17.076517,17.077915,17.084486,17.107695,17.13689,17.199205,17.261837,17.359934,17.451944,17.529934,17.576012,17.573204,17.563179,17.543598,17.505907,17.482601,17.451504,17.652012,18.169905,19.32965,21.46384,23.91716,25.914703,26.35688,26.72219,26.87607,27.195827,27.565723,27.781612,27.95428,28.051735,28.183815,28.369617,28.5201,28.722984,28.891554,29.05791,29.21655,29.31351,29.431168,29.51226,29.597967,29.67993,29.74548,29.814743,29.850151,29.875164,29.863937,29.83509,29.768566,29.701595,29.60379,29.501846,29.412806,29.290195,29.189594,29.045206,28.919424,28.80153,28.689499,28.61699,28.568958,28.582077,28.626091,28.754358,28.897392,29.153896,29.403078,29.745733,30.143154,30.486885,30.960522,31.323185,31.731533,32.00035,32.144966,32.229385,32.253033,32.225563,32.15734,32.099297,32.04922,32.028862,32.008266,31.997375,31.985168,31.970404,31.957012,31.93364,31.911667,31.882347,31.861343,31.85503,31.86053,31.87408,31.902145,31.941338,31.980326,32.031384,32.06874,32.11086,32.1386,32.16016,32.175392,32.1818,32.184593,32.18239,32.18153,32.178993,32.176544,32.167465,32.154778,32.134995,32.105003,32.075207,32.031075,31.995441,31.950912,31.910545,31.877548,31.841581,31.818829,31.792278,31.769829,31.74443,31.712755,31.689209,31.658108,31.63385,31.608955,31.587925,31.575926,31.569984,31.573486,31.578918,31.589523,31.6008,31.61472,31.624065,31.635315,31.648361,31.660255,31.688335,31.718933,31.76574,31.804916,31.83381,31.834877,31.81564,31.720886,31.573431,31.386047,31.136253,30.935352,30.666145,30.483719,30.351929,30.389763,30.506998,30.91789,31.40865,31.995443,32.648537,33.33687,33.97143,34.215057,34.456432,34.56092,34.630814,34.66573,34.67088,34.693806,34.72278,34.755245,34.79153,34.817497,34.844513,34.84977,34.827057,34.75075,34.656445,34.531246,34.444405,34.365005,34.312122,34.27301,34.234364,34.212597,34.18604,34.16942,34.157185,34.16371,34.18315,34.231384,34.29783,34.37503,34.490253,34.59044,34.74062,34.87979,35.04704,35.2846,35.505234,35.89575,36.257008,36.65909,37.04367,37.353737,37.76651,38.081497,38.46507,38.781883,39.04119,39.301117,39.456005,39.62172,39.717937,39.793076,39.857544,39.899643,39.9725,40.046455,40.140274,40.2485,40.333694,40.425095,40.470863,40.491016,40.46817,40.430893,40.378853,40.344788,40.329956,40.36721,40.43418,40.575615,40.712616,40.90986,41.0889,41.25908,41.3992,41.456665,41.499863,41.5025,41.496777,41.47445,41.454926,41.417343,41.37773,41.324017,41.24729,41.17102,41.05108,40.947495,40.79612,40.637817,40.49778,40.34327,40.247875,40.136353,40.051613,39.97142,39.874607,39.79973,39.689835,39.59091,39.47959,39.355583,39.262253,39.147167,39.06906,38.989418,38.930504,38.89509,38.86271,38.84781,38.834373,38.830025,38.829056,38.831825,38.83584,38.844276,38.85559,38.867184,38.884956,38.900078,38.92678,38.95695,38.99402,39.048073,39.09667,39.165874,39.22101,39.27896,39.329372,39.363503,39.40039,39.42427,39.462822,39.51961,39.58074,39.68893,39.788727
17.166939,17.148159,17.121655,17.096476,17.080994,17.08439,17.092777,17.118164,17.150108,17.215393,17.279549,17.377575,17.466679,17.539951,17.578455,17.569027,17.55777,17.541492,17.50251,17.480833,17.45261,17.673157,18.23077,19.50473,21.725681,24.165005,26.119068,26.519657,26.846333,26.982386,27.302479,27.69289,27.935083,28.131453,28.244104,28.388351,28.588224,28.749763,28.965902,29.142826,29.314785,29.474258,29.568882,29.681263,29.756443,29.835411,29.909653,29.968956,30.029999,30.059387,30.076939,30.0611,30.031021,29.967749,29.906265,29.813324,29.71729,29.638187,29.52615,29.430582,29.291557,29.169384,29.055376,28.94962,28.883461,28.844254,28.864372,28.915613,29.049448,29.195374,29.453173,29.701273,30.038815,30.436346,30.790943,31.279182,31.649277,32.029243,32.261246,32.3982,32.48284,32.50806,32.4972,32.449482,32.40426,32.353397,32.320717,32.28631,32.266224,32.245403,32.222992,32.2044,32.173443,32.14494,32.107735,32.075275,32.055992,32.042496,32.040993,32.050232,32.07191,32.095787,32.12799,32.151382,32.17544,32.18846,32.196632,32.198837,32.197117,32.191883,32.18577,32.18112,32.176712,32.17421,32.165546,32.153515,32.134483,32.10547,32.07688,32.033073,31.99656,31.95003,31.90641,31.869864,31.829151,31.802963,31.773054,31.74916,31.723194,31.692842,31.671421,31.644001,31.623528,31.602766,31.586403,31.578094,31.575787,31.580372,31.58405,31.589731,31.596388,31.602821,31.605576,31.607643,31.611053,31.614391,31.633198,31.658325,31.699276,31.735731,31.764011,31.766682,31.749424,31.660467,31.520275,31.341496,31.097729,30.89632,30.633291,30.460491,30.338734,30.38469,30.50479,30.924019,31.42415,32.016514,32.67055,33.35447,34.00254,34.27176,34.52311,34.62233,34.68799,34.714832,34.71289,34.724564,34.743576,34.76776,34.797424,34.82095,34.836777,34.82785,34.787743,34.70414,34.616962,34.50703,34.433823,34.363686,34.314217,34.27633,34.23828,34.216866,34.191784,34.177296,34.16742,34.176163,34.19667,34.24279,34.30356,34.37329,34.475075,34.5615,34.69745,34.831917,35.005295,35.259388,35.491646,35.9187,36.322536,36.773964,37.192753,37.51194,37.928844,38.244526,38.62281,38.928932,39.178413,39.42341,39.56569,39.713837,39.794655,39.855095,39.904697,39.937107,39.999153,40.066677,40.154438,40.25892,40.342384,40.434708,40.483852,40.50907,40.49482,40.466827,40.429314,40.407394,40.407894,40.459038,40.53763,40.692055,40.837673,41.045113,41.231224,41.40803,41.55098,41.60687,41.645924,41.642735,41.629036,41.595566,41.566696,41.515392,41.4643,41.39617,41.305702,41.222,41.08306,40.957703,40.776703,40.59382,40.44061,40.275414,40.174507,40.057312,39.97013,39.888657,39.793037,39.72048,39.61534,39.522125,39.417976,39.303154,39.217346,39.111435,39.039383,38.96552,38.91059,38.87762,38.8471,38.832672,38.819557,38.815052,38.81385,38.816376,38.820274,38.82888,38.84069,38.8528,38.871773,38.88817,38.91714,38.949738,38.989574,39.046844,39.097855,39.170033,39.227055,39.286423,39.337055,39.37085,39.406075,39.427765,39.462765,39.515644,39.57341,39.679043,39.77842
17.175161,17.156643,17.128956,17.101952,17.08694,17.09293,17.103565,17.131548,17.166813,17.23576,17.301853,17.399675,17.484894,17.551569,17.581379,17.565887,17.55369,17.540636,17.499348,17.47995,17.456387,17.702587,18.313686,19.756027,22.106628,24.527145,26.406559,26.730167,27.00071,27.115356,27.430424,27.836475,28.10319,28.34724,28.500937,28.656603,28.857325,29.01755,29.22679,29.393908,29.556114,29.706944,29.797611,29.906263,29.979794,30.057571,30.129028,30.183771,30.23854,30.263474,30.27639,30.259672,30.231684,30.176813,30.125278,30.045876,29.963154,29.895964,29.79636,29.708046,29.581318,29.471123,29.368387,29.276379,29.221664,29.195587,29.22359,29.281702,29.41708,29.560905,29.80983,30.04707,30.372032,30.759594,31.112492,31.58743,31.937212,32.271645,32.464172,32.594,32.678818,32.702988,32.708004,32.68351,32.655823,32.615726,32.583412,32.55252,32.535896,32.514637,32.49051,32.471657,32.441044,32.413063,32.37651,32.340424,32.31363,32.286858,32.273556,32.266655,32.27134,32.279728,32.2912,32.298527,32.30141,32.296318,32.287018,32.2718,32.259377,32.2433,32.231354,32.22038,32.21095,32.205757,32.193893,32.17978,32.158813,32.128754,32.100048,32.055367,32.017467,31.968588,31.921486,31.880999,31.834633,31.804043,31.769196,31.742083,31.713655,31.682533,31.661905,31.636604,31.619003,31.601822,31.590172,31.586082,31.586826,31.591337,31.593315,31.594362,31.596115,31.594389,31.589903,31.582405,31.575874,31.570375,31.578419,31.596104,31.628344,31.659351,31.684578,31.686722,31.670452,31.586922,31.454561,31.285645,31.048061,30.84447,30.586454,30.423344,30.31206,30.367504,30.491997,30.922169,31.434101,32.03584,32.694984,33.37841,34.04218,34.336304,34.597008,34.69082,34.75309,34.773724,34.76644,34.76879,34.778526,34.794083,34.81391,34.83023,34.83149,34.80931,34.75902,34.676384,34.599655,34.504467,34.44111,34.37647,34.32724,34.288597,34.249825,34.22857,34.205612,34.19477,34.188904,34.201904,34.224876,34.269787,34.324944,34.3869,34.476395,34.551636,34.675957,34.80751,34.98922,35.265427,35.517624,35.988228,36.43631,36.9374,37.38922,37.717415,38.13654,38.449974,38.81711,39.10692,39.343697,39.57202,39.701187,39.832092,39.898636,39.94567,39.98162,40.00492,40.05596,40.11599,40.19609,40.294567,40.374523,40.464546,40.514584,40.545452,40.54254,40.525604,40.506332,40.50038,40.521164,40.59051,40.68405,40.853928,41.008842,41.225132,41.414555,41.593018,41.731533,41.77979,41.8096,41.79881,41.775223,41.729595,41.691048,41.62635,41.5646,41.4842,41.379986,41.285587,41.120724,40.96782,40.761696,40.564556,40.405186,40.233704,40.12709,40.004448,39.914696,39.83168,39.73638,39.665157,39.56278,39.473175,39.373917,39.266586,39.18777,39.090847,39.025116,38.95758,38.90731,38.877163,38.849068,38.83558,38.82287,38.818283,38.817238,38.820583,38.82557,38.835968,38.84981,38.86385,38.8857,38.90461,38.937187,38.973118,39.016777,39.078655,39.13333,39.21017,39.2703,39.332382,39.38367,39.4168,39.448563,39.46575,39.49395,39.539642,39.591248,39.69261,39.79179
17.180279,17.162218,17.13379,17.10526,17.090763,17.0991,17.111645,17.1417,17.179657,17.251522,17.319134,17.416658,17.498585,17.559553,17.582985,17.564165,17.55163,17.540436,17.496342,17.47871,17.459967,17.727654,18.383839,19.97355,22.43929,24.847763,26.651619,26.890484,27.11594,27.222435,27.532593,27.938492,28.20867,28.51255,28.730097,28.89359,29.081306,29.228966,29.412613,29.55373,29.694006,29.831547,29.920712,30.03265,30.11287,30.198929,30.276031,30.330631,30.383842,30.407223,30.41954,30.404972,30.38071,30.333698,30.290043,30.22697,30.15982,30.100048,30.00649,29.921818,29.80675,29.710678,29.62054,29.542747,29.498947,29.484268,29.517881,29.58009,29.71365,29.852772,30.088253,30.3111,30.626549,31.003271,31.342686,31.786694,32.104927,32.414024,32.596146,32.722553,32.80695,32.831184,32.835205,32.81064,32.783424,32.753178,32.736023,32.726456,32.72468,32.708485,32.68477,32.667965,32.640198,32.614513,32.581406,32.54759,32.52122,32.492184,32.47507,32.460796,32.454952,32.45246,32.44809,32.44265,32.428497,32.40813,32.382996,32.352055,32.33053,32.3058,32.28951,32.27317,32.25837,32.24932,32.23244,32.2147,32.189964,32.157154,32.12702,32.08051,32.0411,31.990181,31.940481,31.89706,31.846376,31.812325,31.773315,31.743092,31.711945,31.6791,31.658253,31.633472,31.617264,31.602074,31.593712,31.593203,31.595041,31.59776,31.59909,31.597956,31.596165,31.5879,31.577396,31.56298,31.549961,31.538939,31.53962,31.551594,31.576797,31.602783,31.624474,31.624962,31.608868,31.528267,31.401016,31.24028,31.007458,30.800896,30.544056,30.38591,30.28085,30.343555,30.472973,30.91275,31.433966,32.04465,32.709755,33.39421,34.069763,34.381298,34.648064,34.737843,34.798473,34.816418,34.80693,34.8049,34.809208,34.8186,34.827065,34.830482,34.821182,34.796974,34.749,34.67252,34.600266,34.51124,34.452156,34.389366,34.339012,34.29847,34.258102,34.236748,34.215595,34.20829,34.20633,34.2238,34.249596,34.294678,34.3462,34.401894,34.48355,34.553776,34.671898,34.80176,34.9889,35.284523,35.56063,36.064224,36.5375,37.073116,37.549637,37.884117,38.304337,38.615555,38.971718,39.24655,39.472855,39.688656,39.808533,39.927654,39.984905,40.023376,40.050476,40.067642,40.110886,40.165115,40.23879,40.33149,40.4076,40.494896,40.545258,40.579445,40.58464,40.576454,40.572224,40.579674,40.6175,40.70205,40.807957,40.989944,41.151573,41.37307,41.562637,41.739567,41.871532,41.911873,41.93335,41.916946,41.886215,41.83237,41.787476,41.714073,41.645718,41.560272,41.447258,41.340435,41.151527,40.976868,40.75885,40.559845,40.39834,40.221916,40.109306,39.980904,39.888176,39.80356,39.708466,39.63847,39.53769,39.449615,39.352074,39.248055,39.172955,39.08179,39.02098,38.958965,38.913544,38.88658,38.861786,38.850044,38.83786,38.832882,38.831905,38.83612,38.84234,38.854805,38.871025,38.887375,38.912434,38.934002,38.970108,39.00905,39.056053,39.121933,39.17984,39.260704,39.323452,39.387787,39.43924,39.471294,39.49886,39.510902,39.53199,39.57042,39.61579,39.71237,39.810654
17.188364,17.171013,17.14235,17.113451,17.10036,17.11117,17.125885,17.158424,17.19967,17.27536,17.345165,17.442114,17.519194,17.571016,17.588303,17.571175,17.557661,17.544004,17.494541,17.480846,17.471565,17.771175,18.495983,20.338047,22.971642,25.28241,26.956825,27.124542,27.289165,27.369217,27.672337,28.07596,28.345684,28.686815,28.947655,29.12336,29.303045,29.433804,29.594614,29.716673,29.84006,29.967085,30.054522,30.168291,30.253748,30.34883,30.43329,30.48838,30.542492,30.567501,30.583382,30.575829,30.559608,30.526535,30.495527,30.45337,30.40589,30.358648,30.278553,30.203598,30.105106,30.026505,29.955729,29.900703,29.873882,29.876446,29.917725,29.98415,30.111778,30.240036,30.457605,30.664387,30.96022,31.310389,31.622318,32.01774,32.292694,32.571335,32.74375,32.86403,32.945984,32.97024,32.974792,32.95244,32.928345,32.906975,32.90039,32.904564,32.91403,32.91088,32.90254,32.898167,32.88936,32.878746,32.857487,32.830498,32.809063,32.78267,32.764618,32.74527,32.729805,32.717262,32.69719,32.678505,32.646633,32.610374,32.56961,32.521187,32.487457,32.44698,32.418667,32.38932,32.36318,32.34809,32.322884,32.29862,32.266727,32.22831,32.19503,32.14514,32.10357,32.050106,31.99757,31.950912,31.895199,31.856888,31.81244,31.777649,31.742191,31.705719,31.683308,31.657265,31.64119,31.627472,31.621304,31.6223,31.624708,31.626663,31.627243,31.62291,31.616436,31.599716,31.581413,31.557156,31.533722,31.51367,31.499695,31.498497,31.508612,31.524576,31.539654,31.538357,31.524517,31.450338,31.330544,31.176605,30.946613,30.736797,30.484274,30.33548,30.23816,30.309391,30.446033,30.900126,31.435307,32.060608,32.73755,33.42928,34.120148,34.447968,34.719425,34.803772,34.862247,34.876987,34.864803,34.85825,34.855595,34.8516,34.84292,34.834106,34.814976,34.789368,34.74493,34.676193,34.609756,34.52818,34.473877,34.41294,34.361027,34.318108,34.276264,34.255524,34.237877,34.236404,34.24067,34.265198,34.295456,34.34163,34.389122,34.437412,34.510452,34.57563,34.691498,34.826035,35.024693,35.35233,35.669785,36.221912,36.725,37.295303,37.79323,38.13456,38.55019,38.849915,39.187332,39.44178,39.651955,39.84968,39.95735,40.061874,40.108566,40.1376,40.15533,40.16619,40.200035,40.246445,40.31257,40.39819,40.46872,40.5516,40.601776,40.639885,40.65548,40.658607,40.673836,40.69861,40.75815,40.86123,40.981613,41.175926,41.342865,41.565178,41.748398,41.915634,42.033356,42.062675,42.0719,42.04753,42.0083,41.946144,41.895237,41.815254,41.741364,41.642365,41.507782,41.37842,41.16555,40.978943,40.754814,40.55507,40.389,40.208096,40.09372,39.963432,39.869625,39.78422,39.687614,39.615715,39.51348,39.42592,39.331085,39.233013,39.16378,39.0812,39.027306,38.972733,38.933075,38.9093,38.88704,38.876175,38.86528,38.861717,38.86211,38.869366,38.8788,38.89535,38.91533,38.935287,38.965027,38.990353,39.031105,39.073727,39.124825,39.195656,39.257668,39.34394,39.41045,39.478287,39.530216,39.56059,39.581985,39.58638,39.59485,39.620003,39.65455,39.74533,39.84572
17.195545,17.178818,17.150562,17.12263,17.111115,17.123264,17.13933,17.173492,17.2169,17.295298,17.366837,17.463184,17.536304,17.580189,17.594786,17.583641,17.569206,17.550163,17.495502,17.485977,17.485958,17.814198,18.598528,20.664333,23.42736,25.604609,27.16236,27.309422,27.429554,27.479359,27.777304,28.178383,28.444658,28.780415,29.04026,29.225798,29.40691,29.52597,29.679197,29.799324,29.91987,30.04462,30.130848,30.243885,30.329983,30.428083,30.515945,30.571823,30.629051,30.658323,30.680382,30.68131,30.673447,30.653358,30.633316,30.605495,30.571178,30.53504,30.468971,30.404942,30.319366,30.25238,30.197433,30.161617,30.148819,30.165455,30.212732,30.282057,30.403784,30.521652,30.726149,30.922626,31.19806,31.519701,31.80527,32.16172,32.406063,32.664993,32.83245,32.947067,33.025986,33.050323,33.05722,33.038933,33.019493,33.001408,32.994865,32.997623,33.00835,33.01802,33.030033,33.040565,33.05484,33.06277,33.055542,33.037376,33.023487,33.00436,32.989685,32.97164,32.953766,32.938004,32.91133,32.88633,32.84601,32.802155,32.754677,32.696865,32.65484,32.600693,32.559654,32.516968,32.479156,32.458054,32.424362,32.39336,32.354378,32.31046,32.273895,32.22084,32.177605,32.122513,32.068516,32.02015,31.961487,31.92047,31.872242,31.83384,31.7947,31.754448,31.72981,31.701138,31.683632,31.669744,31.663193,31.662682,31.66469,31.667206,31.667187,31.660206,31.650307,31.627562,31.603668,31.571651,31.538904,31.510208,31.481243,31.466173,31.460615,31.466309,31.474697,31.471895,31.460823,31.392902,31.278973,31.126814,30.896732,30.686111,30.43937,30.299326,30.20742,30.28422,30.42673,30.892384,31.438887,32.077106,32.76626,33.468964,34.17046,34.50323,34.77489,34.855392,34.912228,34.924683,34.910423,34.90143,34.893818,34.875557,34.85241,34.838547,34.81535,34.789467,34.74754,34.684,34.621952,34.545692,34.49456,34.43486,34.38205,34.337822,34.29573,34.276222,34.2622,34.265953,34.27559,34.306107,34.3401,34.387703,34.432915,34.476627,34.545002,34.60795,34.727158,34.870926,35.082348,35.43943,35.795418,36.38742,36.909428,37.494564,37.997154,38.341866,38.74907,39.0334,39.35367,39.59274,39.789215,39.97239,40.07112,40.16568,40.205997,40.229637,40.242355,40.249977,40.27777,40.318542,40.37998,40.46107,40.527466,40.606865,40.656628,40.697365,40.720238,40.73127,40.76013,40.79703,40.87155,40.986633,41.115704,41.31553,41.483086,41.700695,41.8738,42.027702,42.1308,42.15211,42.1518,42.121185,42.07612,42.009132,41.955055,41.872757,41.796326,41.682686,41.52666,41.378326,41.155327,40.972572,40.75046,40.550865,40.38093,40.19922,40.08851,39.961426,39.869003,39.783913,39.68489,39.609184,39.50351,39.4154,39.32299,39.230507,39.166344,39.09082,39.04232,38.993294,38.957344,38.935093,38.91327,38.901936,38.892258,38.890984,38.893185,38.903904,38.91677,38.937275,38.96051,38.983505,39.016914,39.045074,39.089027,39.13398,39.1877,39.261887,39.326862,39.417183,39.486656,39.55745,39.609947,39.639,39.65548,39.653664,39.65082,39.664074,39.689262,39.776672,39.881294
17.205704,17.19011,17.162544,17.13561,17.12613,17.140287,17.158438,17.194738,17.240486,17.321918,17.395561,17.49089,17.558605,17.591574,17.602753,17.600195,17.58628,17.561745,17.500336,17.496498,17.50853,17.888672,18.763409,21.087873,23.988674,26.004667,27.414509,27.526491,27.593822,27.613167,27.905739,28.30474,28.568073,28.901936,29.16378,29.357962,29.538433,29.645166,29.786545,29.89928,30.01237,30.132046,30.216679,30.333632,30.423916,30.510906,30.587656,30.64434,30.707764,30.745085,30.777664,30.79154,30.79566,30.793457,30.78809,30.77744,30.757767,30.734259,30.68518,30.635231,30.566368,30.513947,30.47776,30.46373,30.466158,30.498825,30.554878,30.634205,30.757954,30.87121,31.057863,31.231594,31.474648,31.759438,32.01554,32.332348,32.547203,32.783745,32.94285,33.051163,33.127403,33.152428,33.162655,33.14962,33.136154,33.123497,33.119022,33.1241,33.13733,33.152977,33.173843,33.19123,33.21678,33.23591,33.247574,33.252026,33.256252,33.259262,33.25953,33.258446,33.25,33.236584,33.20677,33.17665,33.129738,33.079445,33.025455,32.9589,32.90982,32.844456,32.79244,32.737274,32.68209,32.64452,32.589092,32.543163,32.49362,32.444317,32.403656,32.346832,32.301804,32.24514,32.18995,32.140163,32.078754,32.03504,31.982552,31.939465,31.895245,31.84899,31.820232,31.786282,31.765089,31.748596,31.739437,31.736183,31.73625,31.738297,31.736862,31.726421,31.712288,31.681906,31.650763,31.609049,31.562626,31.517378,31.465979,31.434607,31.408478,31.399029,31.396397,31.388172,31.377865,31.315239,31.207924,31.057684,30.831833,30.628273,30.392218,30.260853,30.175747,30.260403,30.411652,30.89064,31.448685,32.104187,32.81373,33.539314,34.25219,34.578247,34.845104,34.921898,34.97618,34.98489,34.96696,34.957607,34.946495,34.906044,34.859673,34.83857,34.80989,34.78402,34.74569,34.689278,34.632988,34.564537,34.51882,34.461998,34.409397,34.364925,34.324326,34.30761,34.29946,34.310577,34.32739,34.36559,34.404205,34.453773,34.496696,34.535572,34.60035,34.66301,34.789696,34.948383,35.181465,35.58555,36.00251,36.65001,37.189842,37.77674,38.269135,38.6166,39.0103,39.27063,39.566795,39.785885,39.963627,40.127235,40.214367,40.296394,40.329258,40.347054,40.354294,40.35793,40.378784,40.41327,40.469048,40.545456,40.608627,40.68594,40.73639,40.780838,40.812,40.831627,40.876053,40.9273,41.020134,41.149246,41.28684,41.489677,41.65482,41.86192,42.018497,42.151775,42.236492,42.25189,42.2433,42.205406,42.150146,42.070633,42.007004,41.910454,41.82215,41.694885,41.52718,41.37037,41.144096,40.964264,40.739567,40.537556,40.369812,40.194077,40.089287,39.967026,39.875732,39.789513,39.687523,39.609272,39.501583,39.413864,39.32435,39.23821,39.18022,39.113438,39.071693,39.02964,38.99843,38.978172,38.957115,38.945297,38.93575,38.93528,38.9384,38.951946,38.96811,38.993633,39.02172,39.04877,39.086517,39.11766,39.16465,39.21168,39.26809,39.346893,39.416885,39.51277,39.585476,39.659843,39.713196,39.741013,39.75093,39.740566,39.72532,39.72696,39.74337,39.828663,39.938786
17.217228,17.20288,17.176172,17.1502,17.142576,17.158543,17.17877,17.217194,17.265034,17.349197,17.424786,17.518532,17.580765,17.603989,17.613565,17.620852,17.608559,17.578894,17.510271,17.512558,17.5363,17.99205,18.980095,21.524555,24.515907,26.367474,27.627731,27.703817,27.729599,27.732216,28.023561,28.422003,28.681744,29.00963,29.267708,29.465464,29.64315,29.7395,29.869541,29.974258,30.08005,30.19312,30.273819,30.385029,30.468983,30.540403,30.606503,30.665743,30.737923,30.78521,30.830784,30.859596,30.876865,30.892662,30.901075,30.905716,30.89846,30.885765,30.852156,30.815699,30.763468,30.72553,30.706291,30.71265,30.730556,30.780191,30.846027,30.93552,31.061647,31.171663,31.339325,31.487602,31.697481,31.948149,32.17896,32.4667,32.662918,32.88233,33.033165,33.13647,33.211403,33.23799,33.252472,33.24518,33.23794,33.231117,33.22937,33.236893,33.250954,33.266907,33.2883,33.306488,33.334557,33.358517,33.38601,33.413204,33.435707,33.46218,33.479156,33.497864,33.50344,33.498077,33.473984,33.446114,33.40245,33.354652,33.30284,33.238655,33.19159,33.127007,33.072212,33.009766,32.93842,32.88332,32.804276,32.74153,32.678158,32.6202,32.573505,32.51185,32.46539,32.40847,32.354317,32.305267,32.243904,32.199493,32.144768,32.09802,32.04931,31.99668,31.962856,31.922138,31.895382,31.872692,31.857601,31.850632,31.847221,31.84755,31.843906,31.829973,31.811954,31.774569,31.736645,31.685272,31.624289,31.561,31.485039,31.435818,31.385864,31.357311,31.339752,31.320934,31.307247,31.245777,31.143002,30.992542,30.77175,30.579128,30.354568,30.229872,30.15245,30.246025,30.405071,30.898129,31.469852,32.144264,32.876778,33.63221,34.351746,34.656334,34.9132,34.98878,35.041176,35.045883,35.023167,35.008125,34.988266,34.92582,34.857937,34.829758,34.796364,34.771378,34.73681,34.68849,34.640396,34.58112,34.540504,34.487793,34.437668,34.39515,34.358677,34.346443,34.345757,34.36489,34.389008,34.43449,34.47718,34.528748,34.570515,34.606537,34.67184,34.738365,34.878716,35.058117,35.32242,35.779232,36.254772,36.957626,37.51569,38.088142,38.55005,38.890842,39.26548,39.50172,39.77227,39.970184,40.12841,40.272476,40.348694,40.41972,40.44706,40.461277,40.465233,40.46579,40.48237,40.51339,40.565384,40.63865,40.69998,40.776733,40.828636,40.87723,40.91623,40.94372,41.001583,41.064762,41.17225,41.310814,41.45211,41.651173,41.80858,41.99847,42.133484,42.242165,42.305412,42.313473,42.294212,42.247307,42.181458,42.09014,42.017784,41.907272,41.807793,41.67315,41.504265,41.349586,41.126328,40.94812,40.72168,40.52054,40.361244,40.197426,40.10041,39.984894,39.89553,39.808502,39.704285,39.624672,39.516354,39.42979,39.34323,39.263107,39.211105,39.15291,39.11789,39.08277,39.05633,39.038208,39.018204,39.006126,38.996246,38.99579,38.99935,39.015087,39.034035,39.06436,39.09735,39.12837,39.17005,39.20365,39.252846,39.30118,39.359413,39.442062,39.516586,39.618294,39.69501,39.773445,39.828255,39.855576,39.85965,39.84131,39.81653,39.810837,39.82219,39.909782,40.028275
17.228539,17.215267,17.189281,17.164051,17.157825,17.17517,17.197126,17.237541,17.287514,17.374332,17.451647,17.543606,17.600967,17.616848,17.626253,17.642477,17.631905,17.59763,17.521587,17.528486,17.56081,18.103985,19.21368,21.919819,24.95581,26.671135,27.802227,27.840519,27.836586,27.835045,28.128426,28.527176,28.782799,29.104996,29.359062,29.558483,29.731346,29.816578,29.935083,30.033129,30.136139,30.245682,30.323082,30.409172,30.464478,30.528904,30.601215,30.66502,30.74616,30.802448,30.860844,30.90438,30.934538,30.966175,30.98544,31.00336,31.006992,31.002525,30.980947,30.955482,30.918465,30.894844,30.890638,30.918055,30.955269,31.026142,31.102962,31.198145,31.31863,31.418568,31.565409,31.69265,31.876213,32.100357,32.310196,32.57511,32.7579,32.963776,33.107513,33.206944,33.281433,33.309963,33.328888,33.327164,33.32561,33.324745,33.326866,33.335934,33.34927,33.36692,33.39157,33.41237,33.445866,33.475624,33.511063,33.547333,33.57752,33.61309,33.635937,33.65985,33.671074,33.674194,33.662315,33.64374,33.61248,33.576195,33.53637,33.4877,33.453484,33.402443,33.35179,33.281815,33.194107,33.12628,33.031097,32.956215,32.875114,32.800735,32.744183,32.674507,32.62558,32.568336,32.51649,32.469368,32.41,32.36654,32.312172,32.264046,32.2126,32.154697,32.115936,32.069458,32.037724,32.006775,31.984062,31.974243,31.967537,31.965652,31.959715,31.942566,31.92101,31.877375,31.833427,31.77284,31.698975,31.621857,31.524357,31.457039,31.38358,31.336143,31.303854,31.273516,31.254774,31.193012,31.093891,30.942154,30.723904,30.538906,30.322887,30.203941,30.134811,30.237253,30.40091,30.909945,31.500835,32.193146,32.9438,33.72596,34.44749,34.726784,34.97344,35.05031,35.102257,35.103806,35.076576,35.04747,35.01085,34.93339,34.8525,34.817253,34.779457,34.755424,34.72254,34.68188,34.645588,34.596344,34.558544,34.509872,34.463333,34.423695,34.39229,34.38494,34.391853,34.418655,34.449547,34.50152,34.547615,34.600945,34.642014,34.67612,34.74337,34.814903,34.97013,35.170563,35.467457,35.96914,36.48295,37.241394,37.836082,38.39309,38.812622,39.135544,39.4892,39.709976,39.957985,40.134666,40.274925,40.40139,40.46793,40.52951,40.552727,40.565247,40.56733,40.564804,40.579285,40.6097,40.659714,40.730328,40.789276,40.864677,40.917557,40.970093,41.016975,41.05265,41.12301,41.196255,41.31485,41.45903,41.601326,41.793816,41.94172,42.11308,42.22639,42.31187,42.351418,42.346256,42.308952,42.249268,42.174557,42.07823,42.00331,41.88987,41.788498,41.651367,41.48194,41.329815,41.106277,40.925087,40.700096,40.505833,40.35626,40.204407,40.114746,40.00615,39.919514,39.83309,39.727654,39.646523,39.53752,39.45208,39.368313,39.293747,39.247177,39.196915,39.168198,39.13954,39.117645,39.101707,39.08294,39.070816,39.06099,39.060875,39.06508,39.083015,39.104572,39.138863,39.175735,39.210167,39.255447,39.291397,39.342884,39.392563,39.4523,39.537483,39.61454,39.72213,39.804672,39.88756,39.944023,39.971428,39.97107,39.94633,39.91452,39.90412,39.91235,40.004547,40.132996
17.243809,17.231483,17.206194,17.181671,17.176804,17.195518,17.219482,17.262459,17.315256,17.40544,17.48481,17.573616,17.62508,17.635654,17.64732,17.673315,17.66383,17.62394,17.540169,17.556644,17.603569,18.260727,19.52858,22.467808,25.560102,27.047787,27.978607,27.97462,27.941223,27.946342,28.249516,28.652246,28.901217,29.215427,29.461983,29.656517,29.820919,29.897205,30.0061,30.09497,30.183613,30.270649,30.327868,30.384491,30.420658,30.486069,30.571491,30.642944,30.7351,30.800562,30.871883,30.929976,30.972822,31.02118,31.052904,31.087502,31.10615,31.113802,31.107653,31.094345,31.076538,31.071053,31.083435,31.130955,31.18523,31.275305,31.360992,31.45412,31.562716,31.652699,31.782135,31.892544,32.051624,32.248817,32.43624,32.678783,32.850388,33.042572,33.178185,33.27408,33.34938,33.381187,33.406532,33.412155,33.417816,33.42421,33.430847,33.44246,33.455803,33.475327,33.50361,33.527782,33.568314,33.60528,33.649006,33.693913,33.731335,33.77619,33.805634,33.834957,33.85129,33.861828,33.86137,33.852173,33.833244,33.808144,33.77973,33.744705,33.72064,33.682884,33.642082,33.582165,33.50016,33.43344,33.329895,33.241585,33.145424,33.05845,32.995033,32.922195,32.87507,32.82259,32.77745,32.73595,32.681805,32.640617,32.585438,32.533386,32.478054,32.414757,32.37196,32.31775,32.277668,32.23653,32.20421,32.18956,32.176933,32.17093,32.16081,32.139225,32.113716,32.06337,32.012867,31.940613,31.85104,31.760242,31.635267,31.540176,31.430332,31.351894,31.293884,31.240288,31.208824,31.138205,31.038038,30.882565,30.666199,30.488562,30.280592,30.1678,30.111944,30.228378,30.396952,30.924685,31.5392,32.257553,33.0358,33.854263,34.57808,34.822784,35.054874,35.132996,35.18522,35.181824,35.146355,35.08965,35.0225,34.92632,34.832165,34.78859,34.745728,34.723915,34.698845,34.67206,34.648727,34.61148,34.57862,34.536903,34.497192,34.46335,34.440586,34.44055,34.457756,34.493813,34.532265,34.590714,34.639717,34.69467,34.736084,34.77034,34.84546,34.92864,35.109985,35.34398,35.697525,36.262722,36.818947,37.61221,38.21328,38.751404,39.13535,39.43548,39.76001,39.959194,40.176655,40.325687,40.443657,40.54949,40.605453,40.65744,40.677002,40.686913,40.687572,40.68416,40.698883,40.730156,40.779533,40.84897,40.906914,40.98298,41.038548,41.097572,41.154957,41.201004,41.284912,41.367527,41.495186,41.641197,41.780518,41.959248,42.090874,42.23472,42.31881,42.374794,42.383896,42.36028,42.301544,42.229446,42.14704,42.04841,41.973354,41.860367,41.75961,41.62265,41.453316,41.301838,41.076225,40.892,40.672882,40.491364,40.35437,40.216778,40.13555,40.035534,39.95317,39.86901,39.76403,39.682304,39.57415,39.49133,39.41211,39.3453,39.305943,39.266197,39.245884,39.225983,39.210766,39.198593,39.182983,39.172134,39.16384,39.165344,39.171314,39.19274,39.217766,39.257015,39.298424,39.33673,39.38581,39.42406,39.477592,39.528255,39.58908,39.67646,39.75589,39.869232,39.957867,40.047234,40.107414,40.135307,40.130688,40.099648,40.06172,40.04905,40.05689,40.160374,40.305977
17.255512,17.243584,17.218645,17.194527,17.190462,17.21003,17.235416,17.280321,17.335266,17.427933,17.508747,17.594664,17.64196,17.651209,17.66605,17.698088,17.688427,17.644417,17.556421,17.582928,17.644135,18.37799,19.75671,22.914146,26.069073,27.33426,28.082327,28.055077,28.001568,28.015114,28.331102,28.740192,28.98324,29.291588,29.531599,29.717873,29.874786,29.948519,30.055748,30.138603,30.206985,30.261267,30.289322,30.33124,30.374113,30.446716,30.542107,30.620346,30.720284,30.790802,30.868763,30.934055,30.983154,31.04158,31.082268,31.129622,31.160799,31.179535,31.18565,31.18018,31.176704,31.184734,31.208027,31.264889,31.324451,31.421698,31.510094,31.594873,31.692219,31.778757,31.903147,32.00815,32.154675,32.33535,32.508373,32.737442,32.903343,33.086983,33.21701,33.31098,33.387566,33.422165,33.452606,33.463745,33.474693,33.486023,33.495277,33.509354,33.523888,33.5446,33.575043,33.601746,33.64749,33.689873,33.7405,33.79283,33.836006,33.88928,33.925514,33.9613,33.9814,33.993828,33.995872,33.989174,33.973255,33.950287,33.92357,33.888847,33.86325,33.827553,33.79568,33.760338,33.705566,33.65306,33.55059,33.45144,33.351128,33.264027,33.201218,33.132507,33.09079,33.04562,33.00757,32.97191,32.92242,32.88263,32.824104,32.766014,32.706646,32.640373,32.596996,32.537125,32.489494,32.44205,32.403465,32.384216,32.366024,32.35621,32.341873,32.316338,32.28801,32.233246,32.178505,32.09767,31.997032,31.898754,31.753162,31.633953,31.49293,31.387291,31.305779,31.229588,31.184914,31.102398,30.99781,30.83842,30.622822,30.44927,30.245577,30.136757,30.093147,30.222164,30.393734,30.932928,31.562763,32.30289,33.10598,33.953476,34.680214,34.899227,35.1196,35.19767,35.250793,35.243114,35.199436,35.11743,35.02331,34.912025,34.80854,34.759483,34.712776,34.692764,34.67881,34.666008,34.649338,34.619804,34.5922,34.556828,34.523346,34.494904,34.47966,34.485565,34.510624,34.553127,34.596436,34.658546,34.708805,34.76452,34.806843,34.842712,34.926853,35.02182,35.226685,35.489685,35.895233,36.51316,37.10041,37.890236,38.45939,38.987072,39.365585,39.653015,39.955513,40.135254,40.328247,40.45661,40.558327,40.64987,40.699028,40.745388,40.76304,40.769913,40.76965,40.7679,40.78431,40.81651,40.86633,40.936417,40.995216,41.07364,41.13231,41.197205,41.26267,41.316288,41.408653,41.496025,41.62758,41.772285,41.907387,42.07329,42.190742,42.312336,42.374245,42.408615,42.395912,42.358917,42.28768,42.210594,42.12493,42.02597,41.951622,41.83941,41.73909,41.60344,41.434,41.27991,41.051476,40.866573,40.654076,40.483402,40.354927,40.226467,40.150604,40.056442,39.977516,39.895714,39.792248,39.711037,39.604664,39.524593,39.449486,39.389015,39.35534,39.32379,39.31003,39.29707,39.287468,39.27874,39.26655,39.257545,39.25141,39.254955,39.262905,39.28743,39.315155,39.358147,39.402752,39.4436,39.494873,39.53428,39.588593,39.63939,39.700447,39.788944,39.86998,39.986,40.0774,40.17202,40.236122,40.264366,40.25711,40.222305,40.181084,40.16845,40.17784,40.292618,40.453445
17.27148,17.259804,17.235214,17.211512,17.208157,17.228434,17.25525,17.30257,17.360632,17.456898,17.539707,17.62156,17.662918,17.670341,17.688587,17.727287,17.716883,17.668373,17.576164,17.620075,17.702038,18.580578,20.14407,23.497509,26.664747,27.709293,28.24445,28.150528,28.08591,28.132633,28.451029,28.856234,29.093224,29.391407,29.620052,29.794712,29.945223,30.022282,30.110374,30.161589,30.19883,30.223019,30.232574,30.271542,30.326778,30.405745,30.506271,30.5883,30.69368,30.76886,30.853468,30.926956,30.983585,31.053797,31.104677,31.167643,31.21467,31.246553,31.269943,31.278358,31.292849,31.314518,31.34861,31.416046,31.48474,31.581045,31.660196,31.739698,31.833298,31.917665,32.04,32.142452,32.27657,32.437737,32.59228,32.804085,32.96302,33.136086,33.25952,33.351826,33.431194,33.470222,33.508236,33.52723,33.545685,33.56379,33.57634,33.59462,33.61222,33.635864,33.67019,33.700634,33.753586,33.80317,33.86217,33.924713,33.978302,34.044296,34.088806,34.133316,34.159203,34.175835,34.180725,34.174637,34.16113,34.141632,34.11944,34.0891,34.065254,34.032234,34.004295,33.977295,33.936363,33.896927,33.810463,33.72077,33.62252,33.53475,33.474762,33.4142,33.381767,33.349655,33.325436,33.30198,33.266174,33.234978,33.183838,33.127098,33.06637,32.99263,32.94057,32.865578,32.804626,32.748787,32.702866,32.67701,32.64998,32.634274,32.617435,32.591835,32.56351,32.50646,32.447407,32.354126,32.235714,32.12407,31.95136,31.804161,31.618649,31.4691,31.34973,31.236557,31.170492,31.063599,30.946213,30.781776,30.568718,30.399195,30.201138,30.09756,30.061665,30.20359,30.389053,30.94759,31.59327,32.36224,33.19767,34.076866,34.809372,35.00496,35.214287,35.289654,35.33777,35.32102,35.269444,35.15344,35.02108,34.8891,34.772465,34.714146,34.66855,34.65931,34.655994,34.654785,34.646477,34.62771,34.60801,34.582172,34.558174,34.53804,34.533684,34.547688,34.582893,34.633076,34.68174,34.747337,34.798275,34.854904,34.899773,34.94001,35.04014,35.15445,35.39581,35.701553,36.18003,36.872063,37.50598,38.28709,38.802197,39.302948,39.66482,39.933136,40.205017,40.35813,40.51892,40.621414,40.703426,40.778343,40.820004,40.859966,40.875336,40.878513,40.87784,40.879425,40.89878,40.932182,40.98236,41.05368,41.114708,41.197945,41.261993,41.335354,41.41115,41.473824,41.576668,41.67025,41.804893,41.94467,42.07126,42.217148,42.314167,42.405632,42.439217,42.446617,42.408203,42.356483,42.27204,42.19049,42.102493,42.004543,41.931866,41.82185,41.72249,41.584595,41.410572,41.25157,41.022373,40.841797,40.63875,40.48025,40.36213,40.244656,40.175117,40.088448,40.01465,39.936882,39.83683,39.7574,39.6547,39.579067,39.50992,39.45795,39.431686,39.41085,39.405727,39.402084,39.40049,39.39715,39.390686,39.385086,39.38292,39.39009,39.401413,39.430702,39.462273,39.510643,39.5599,39.60463,39.659405,39.700714,39.7567,39.808273,39.870186,39.960655,40.044083,40.1644,40.260147,40.36132,40.430645,40.460472,40.45233,40.415176,40.372547,40.363014,40.377373,40.510956,40.6948
17.284191,17.272463,17.248032,17.22454,17.221348,17.241745,17.269518,17.318754,17.379194,17.478294,17.562744,17.641186,17.677677,17.684164,17.704517,17.746735,17.73504,17.68374,17.588879,17.649477,17.749931,18.773869,20.506714,23.924736,27.034895,27.968048,28.371353,28.209412,28.152164,28.240934,28.551434,28.945002,29.178383,29.466614,29.68406,29.849583,29.994728,30.07368,30.13565,30.15061,30.1632,30.175358,30.186071,30.233913,30.299423,30.380417,30.479015,30.560135,30.665907,30.74282,30.83046,30.908709,30.970163,31.047668,31.10466,31.178467,31.237503,31.2794,31.31713,31.337997,31.365173,31.39426,31.434576,31.507435,31.580963,31.669659,31.736107,31.816132,31.914356,31.998981,32.12297,32.22656,32.355038,32.50398,32.645164,32.843758,32.99694,33.162266,33.281517,33.373363,33.45587,33.49897,33.543602,33.5692,33.593876,33.617767,33.63334,33.65628,33.677837,33.70508,33.743477,33.777435,33.836433,33.8917,33.957165,34.027958,34.09079,34.166862,34.216858,34.26774,34.29824,34.318733,34.3255,34.318565,34.30597,34.289143,34.27115,34.24576,34.22503,34.193764,34.164124,34.128983,34.08448,34.04989,33.983498,33.915844,33.82515,33.738308,33.68254,33.630745,33.607277,33.587822,33.577538,33.566826,33.54718,33.52767,33.490906,33.442684,33.385536,33.30674,33.24523,33.156857,33.0856,33.02391,32.9731,32.9422,32.908657,32.88919,32.87304,32.85088,32.82501,32.769108,32.708572,32.6071,32.47451,32.350105,32.155647,31.98849,31.76305,31.570202,31.41421,31.26475,31.177425,31.04367,30.910463,30.74112,30.530275,30.362556,30.168318,30.068462,30.032814,30.182323,30.385273,30.96083,31.614601,32.4048,33.263733,34.16099,34.90027,35.088497,35.29355,35.36429,35.403778,35.37738,35.321857,35.17903,35.01525,34.867023,34.740955,34.676094,34.63535,34.63827,34.640152,34.643417,34.641075,34.630997,34.618286,34.600906,34.58546,34.57287,34.57779,34.598183,34.64077,34.695732,34.747116,34.8136,34.863808,34.920746,34.968735,35.014503,35.130974,35.26393,35.538624,35.881325,36.420235,37.170998,37.840332,38.607178,39.07056,39.54221,39.886356,40.13788,40.3848,40.516975,40.653725,40.73826,40.807163,40.871735,40.90918,40.944763,40.95819,40.95953,40.959946,40.96502,40.98726,41.021606,41.071976,41.144424,41.20774,41.29573,41.364822,41.44537,41.52922,41.59852,41.708843,41.806625,41.941513,42.07457,42.191925,42.31982,42.399864,42.468033,42.481354,42.470146,42.41539,42.355312,42.264244,42.181595,42.09381,41.997955,41.92725,41.819046,41.719635,41.577263,41.396935,41.23304,41.00482,40.83059,40.634617,40.483402,40.372078,40.261955,40.19672,40.11577,40.04664,39.973072,39.87728,39.800514,39.702065,39.63065,39.56658,39.521175,39.500343,39.487434,39.488792,39.49234,39.497406,39.498947,39.498116,39.496166,39.49826,39.509277,39.52404,39.557804,39.592743,39.64576,39.69909,39.747383,39.80557,39.848846,39.906902,39.95977,40.022972,40.115494,40.20107,40.32525,40.424786,40.530815,40.604424,40.636524,40.630013,40.59342,40.552547,40.54845,40.56951,40.721397,40.925804
17.298641,17.286858,17.262634,17.239368,17.235975,17.256065,17.285706,17.337849,17.400253,17.502068,17.588638,17.66313,17.6941,17.70037,17.722889,17.767487,17.754646,17.701084,17.600712,17.678785,17.80246,18.995468,20.914307,24.342596,27.340828,28.167526,28.464703,28.261992,28.225956,28.3591,28.664066,29.046377,29.274927,29.550564,29.754576,29.914726,30.04403,30.101578,30.136158,30.130753,30.126272,30.132664,30.149834,30.20124,30.265884,30.34553,30.442562,30.522911,30.629047,30.707449,30.79784,30.880707,30.947147,31.031471,31.09373,31.179523,31.253908,31.311047,31.366201,31.398167,31.438026,31.476093,31.528137,31.604198,31.669373,31.754372,31.823193,31.90649,32.007042,32.091156,32.213593,32.314674,32.43606,32.571556,32.696716,32.877583,33.02124,33.176834,33.292095,33.38372,33.470222,33.51828,33.570915,33.604504,33.636368,33.668488,33.690254,33.721367,33.74902,33.781567,33.82572,33.86487,33.931805,33.994087,34.069313,34.15027,34.22077,34.30532,34.360443,34.416855,34.45143,34.475224,34.486137,34.482445,34.473488,34.459194,34.443443,34.42006,34.400368,34.371647,34.344246,34.30947,34.264618,34.22868,34.171524,34.117783,34.034977,33.953354,33.902557,33.860493,33.846867,33.841087,33.845818,33.848953,33.847622,33.841957,33.820324,33.782166,33.733902,33.659954,33.597984,33.508205,33.434006,33.36653,33.309113,33.274227,33.239037,33.221054,33.206863,33.186085,33.159966,33.102776,33.04042,32.935795,32.793476,32.654816,32.432877,32.239693,31.958862,31.706455,31.504616,31.310064,31.194862,31.028261,30.876423,30.6986,30.487743,30.321766,30.130371,30.033371,29.999746,30.159233,30.38055,30.972698,31.63322,32.44395,33.326202,34.240376,34.990425,35.178482,35.381454,35.445427,35.474834,35.437355,35.37745,35.205036,35.006912,34.84086,34.708023,34.64325,34.60531,34.612656,34.619457,34.62983,34.634468,34.634377,34.62963,34.622124,34.616776,34.613144,34.62879,34.656307,34.706627,34.765747,34.81865,34.88404,34.931885,34.98768,35.038662,35.0907,35.2265,35.3816,35.695007,36.08014,36.690254,37.505074,38.204628,38.949043,39.35527,39.79892,40.127388,40.358345,40.57618,40.68584,40.797363,40.863747,40.919373,40.974262,41.008728,41.037292,41.045765,41.047836,41.052273,41.060783,41.08601,41.121376,41.171898,41.24485,41.30931,41.40114,41.475273,41.56417,41.658363,41.736816,41.856277,41.958096,42.09285,42.21808,42.3246,42.43241,42.49407,42.53762,42.53019,42.50024,42.429703,42.36205,42.26551,42.1827,42.095947,42.00274,41.93467,41.82543,41.721855,41.57527,41.39028,41.221397,40.99198,40.821198,40.630165,40.485413,40.3806,40.27838,40.218407,40.144455,40.081337,40.013405,39.923622,39.85077,39.758034,39.691772,39.6336,39.5953,39.5801,39.575523,39.583828,39.595215,39.607788,39.61497,39.620964,39.623703,39.631264,39.647278,39.666527,39.70603,39.74523,39.804035,39.862484,39.915474,39.978508,40.024834,40.086388,40.14165,40.2072,40.30288,40.39143,40.520485,40.6246,40.736652,40.815796,40.851086,40.84698,40.811287,40.773293,40.77654,40.806175,40.980103,41.2088
17.313171,17.301037,17.27692,17.253765,17.250168,17.270042,17.301748,17.356682,17.420347,17.524208,17.612736,17.68296,17.708452,17.715652,17.74033,17.785835,17.767975,17.708912,17.603191,17.701958,17.85263,19.223217,21.327482,24.711826,27.558838,28.30451,28.52819,28.301811,28.298088,28.477587,28.777008,29.147243,29.370586,29.63387,29.822922,29.972513,30.07756,30.106392,30.11943,30.107796,30.09615,30.103134,30.128342,30.180096,30.238243,30.314112,30.40865,30.487469,30.593021,30.672203,30.7644,30.850979,30.921726,31.012108,31.07911,31.175125,31.26316,31.335264,31.40717,31.449066,31.501686,31.548698,31.60894,31.685238,31.741844,31.828075,31.905724,31.994324,32.097164,32.181183,32.300976,32.398384,32.517433,32.646458,32.76043,32.92326,33.05243,33.196857,33.30899,33.40052,33.491127,33.544205,33.60497,33.64675,33.68618,33.726883,33.754967,33.794243,33.828053,33.86656,33.9174,33.962395,34.03749,34.106514,34.191933,34.282333,34.358032,34.44796,34.506336,34.566067,34.603035,34.628693,34.64325,34.643425,34.638584,34.627174,34.613888,34.593437,34.57616,34.551212,34.526634,34.493866,34.446987,34.404854,34.347412,34.29959,34.223076,34.148823,34.10366,34.07138,34.067,34.073746,34.09223,34.10859,34.123856,34.12994,34.12593,34.104294,34.071793,34.012375,33.95774,33.87651,33.806175,33.737392,33.67604,33.638664,33.60399,33.58924,33.578186,33.56138,33.538475,33.48933,33.43515,33.336784,33.188404,33.033417,32.77958,32.557163,32.214874,31.894476,31.635517,31.38335,31.2331,31.027401,30.854183,30.66383,30.450062,30.285187,30.096653,30.003208,29.973257,30.142284,30.378202,30.98405,31.650679,32.477486,33.37671,34.30036,35.062756,35.26071,35.465065,35.520588,35.5394,35.490646,35.42669,35.225166,34.993607,34.81154,34.675194,34.614197,34.578194,34.585846,34.59646,34.61422,34.625984,34.636406,34.64029,34.64363,34.649387,34.65557,34.68226,34.716476,34.773163,34.83444,34.88675,34.94905,34.993595,35.048775,35.105247,35.16738,35.328247,35.510254,35.868942,36.299255,36.976974,37.83866,38.54129,39.256752,39.62188,40.039932,40.349064,40.5571,40.745575,40.834843,40.924644,40.976788,41.02275,41.069733,41.100197,41.122757,41.128464,41.13343,41.143307,41.155174,41.18338,41.219723,41.270283,41.343323,41.40834,41.503586,41.582794,41.680336,41.785286,41.873352,42.001076,42.105156,42.237354,42.35243,42.446136,42.53285,42.5765,42.597595,42.573006,42.52848,42.44719,42.375435,42.27719,42.196236,42.112022,42.0215,41.955208,41.84283,41.733055,41.581017,41.39133,41.218475,40.987274,40.817837,40.629173,40.48855,40.38846,40.293053,40.238396,40.171936,40.11595,40.055145,39.973503,39.90631,39.82094,39.760437,39.708282,39.676407,39.66596,39.668465,39.682823,39.70147,39.721695,39.73501,39.74901,39.757637,39.772186,39.794655,39.81962,39.866196,39.91046,39.975914,40.040195,40.098698,40.167667,40.217884,40.28402,40.342476,40.411087,40.51037,40.601997,40.73587,40.8443,40.96167,41.04619,41.085278,41.085617,41.053234,41.021248,41.03529,41.076714,41.276432,41.531784
17.324757,17.312187,17.288105,17.264935,17.261486,17.281689,17.3148,17.371372,17.435785,17.540974,17.63084,17.697527,17.718737,17.727036,17.753624,17.799881,17.773602,17.705605,17.597557,17.716942,17.891693,19.399952,21.646282,25.002457,27.736656,28.416313,28.578312,28.330812,28.352953,28.57061,28.865623,29.226078,29.44514,29.70022,29.87662,30.00866,30.091335,30.104645,30.108288,30.096584,30.082737,30.088936,30.115168,30.165163,30.219921,30.293148,30.385637,30.463068,30.567978,30.647673,30.741123,30.830463,30.904373,31.00009,31.071844,31.175415,31.272243,31.353374,31.43671,31.486847,31.551128,31.605347,31.664549,31.739983,31.800213,31.891602,31.973293,32.065414,32.170006,32.254223,32.37163,32.46616,32.588764,32.720184,32.831112,32.97969,33.09185,33.225067,33.334595,33.4255,33.518967,33.575874,33.64313,33.691727,33.73802,33.785213,33.816628,33.860275,33.897675,33.940735,33.99717,34.04683,34.12819,34.202164,34.294914,34.39183,34.470886,34.563953,34.623985,34.685287,34.723175,34.74949,34.76541,34.767105,34.765144,34.757507,34.748802,34.73477,34.722923,34.70225,34.67829,34.64494,34.594013,34.546062,34.484703,34.437347,34.363243,34.294014,34.253395,34.22868,34.231068,34.246735,34.27534,34.30273,34.329002,34.340244,34.353455,34.352142,34.336205,34.29108,34.243065,34.16976,34.104076,34.038544,33.97782,33.939217,33.903717,33.889576,33.881042,33.870712,33.8544,33.823273,33.787685,33.699272,33.54091,33.361656,33.075172,32.831757,32.442135,32.06698,31.757738,31.45368,31.272404,31.033337,30.842426,30.640224,30.422722,30.25856,30.07301,29.983511,29.957823,30.133242,30.376043,30.991161,31.664883,32.502815,33.412144,34.34047,35.112778,35.321648,35.528122,35.576645,35.587418,35.53056,35.46429,35.23934,34.98047,34.786858,34.6483,34.58909,34.55459,34.56343,34.577274,34.6009,34.61844,34.637505,34.64852,34.660866,34.675785,34.690044,34.72551,34.76478,34.82583,34.887962,34.939053,34.99836,35.040195,35.095543,35.157753,35.229813,35.413147,35.618614,36.01494,36.48008,37.206257,38.09133,38.77549,39.470562,39.82537,40.226223,40.514587,40.703644,40.869255,40.943607,41.017868,41.06048,41.10095,41.141186,41.165245,41.18521,41.19313,41.200584,41.214043,41.22859,41.259117,41.296173,41.346607,41.419655,41.4852,41.583412,41.666897,41.771435,41.884727,41.980064,42.113503,42.21846,42.347366,42.45327,42.53598,42.6056,42.635166,42.639496,42.60299,42.548923,42.461494,42.388103,42.290154,42.211487,42.129963,42.04146,41.975723,41.860977,41.747025,41.589554,41.395134,41.22001,40.98757,40.818356,40.63042,40.49185,40.39445,40.303642,40.252987,40.192444,40.142403,40.087715,40.013298,39.95128,39.872284,39.81642,39.768875,39.74164,39.73453,39.74198,39.76064,39.784782,39.811214,39.829697,39.85069,39.864624,39.88555,39.91397,39.94418,39.99711,40.045807,40.11696,40.18612,40.249283,40.32332,40.376923,40.446976,40.508095,40.579247,40.681313,40.77518,40.912525,41.023952,41.144447,41.23245,41.274673,41.27939,41.250687,41.224648,41.248516,41.3006,41.52202,41.799065
17.33851,17.324772,17.300526,17.277397,17.274391,17.295235,17.329784,17.38782,17.452934,17.559086,17.649765,17.711596,17.72775,17.738367,17.767818,17.814522,17.777016,17.697186,17.585924,17.729465,17.93116,19.613686,22.041485,25.352028,27.94044,28.551014,28.647844,28.376072,28.426311,28.685696,28.975487,29.32446,29.538162,29.784286,29.945847,30.05346,30.110533,30.111977,30.107101,30.094725,30.08132,30.08796,30.113007,30.160103,30.211777,30.282146,30.372448,30.448532,30.553322,30.63431,30.730068,30.823475,30.901783,31.00475,31.082693,31.190466,31.292004,31.382698,31.47993,31.540436,31.619677,31.68404,31.744495,31.82127,31.886738,31.984526,32.07065,32.167015,32.274426,32.359882,32.476685,32.56958,32.694134,32.826275,32.934624,33.07309,33.173546,33.29895,33.40692,33.49815,33.59485,33.65545,33.728447,33.78267,33.834442,33.886665,33.920574,33.967766,34.00837,34.055748,34.117584,34.171658,34.258568,34.33672,34.436195,34.53872,34.619812,34.714523,34.775383,34.83743,34.8755,34.901665,34.91745,34.91918,34.917847,34.911896,34.905945,34.896812,34.889565,34.874176,34.85352,34.82306,34.77307,34.7247,34.658577,34.605766,34.531662,34.46746,34.432316,34.41544,34.423847,34.447754,34.483677,34.515522,34.548473,34.565926,34.592106,34.60707,34.60873,34.585865,34.55479,34.496464,34.436417,34.37539,34.314896,34.27379,34.235435,34.220604,34.214252,34.215034,34.21467,34.20809,34.191887,34.121872,33.97599,33.815453,33.508392,33.213867,32.76719,32.332985,31.946888,31.561867,31.33746,31.053028,30.838997,30.62025,30.397236,30.233917,30.05487,29.974197,29.95744,30.141584,30.390217,31.014965,31.69727,32.54502,33.460003,34.386368,35.165337,35.387444,35.59603,35.636505,35.6397,35.57232,35.498947,35.248077,34.962364,34.757523,34.61719,34.55983,34.52672,34.536644,34.55394,34.58448,34.60916,34.63936,34.659866,34.684143,34.710953,34.73547,34.781265,34.825752,34.890335,34.951912,35.00046,35.056923,35.097443,35.158363,35.23504,35.328194,35.550304,35.79251,36.25218,36.771893,37.54685,38.437267,39.081932,39.73761,40.074966,40.447037,40.70485,40.86893,41.007404,41.065987,41.12492,41.15933,41.195274,41.22912,41.24625,41.26471,41.27661,41.287426,41.305214,41.32306,41.3566,41.39476,41.445305,41.518757,41.58537,41.68757,41.77629,41.888966,42.011436,42.114677,42.253,42.356888,42.478622,42.57037,42.637306,42.68454,42.696846,42.68203,42.63345,42.57054,42.478508,42.404663,42.308586,42.233143,42.154762,42.066635,41.998238,41.878727,41.760025,41.594315,41.393196,41.21644,40.984222,40.816505,40.63111,40.4964,40.40297,40.318577,40.27349,40.221413,40.18013,40.13455,40.07109,40.017044,39.94751,39.89804,39.85636,39.834213,39.8304,39.84263,39.865517,39.895416,39.928917,39.953606,39.98339,40.00427,40.033592,40.06989,40.106888,40.16808,40.222622,40.30123,40.376713,40.445847,40.526146,40.583763,40.658432,40.722584,40.796577,40.901463,40.9974,41.137993,41.252396,41.376522,41.468918,41.514393,41.527203,41.50775,41.494335,41.535522,41.605286,41.858925,42.166283
17.347486,17.332478,17.307976,17.284946,17.282406,17.303795,17.339108,17.397793,17.46328,17.56962,17.660206,17.718391,17.731298,17.744156,17.775892,17.822533,17.777584,17.689949,17.575916,17.734097,17.951344,19.756393,22.3138,25.58627,28.070843,28.643124,28.703144,28.415833,28.481525,28.764675,29.051056,29.392746,29.602749,29.843441,29.995739,30.086245,30.128395,30.126753,30.117048,30.102333,30.090715,30.098652,30.121708,30.16674,30.2172,30.286018,30.375177,30.450703,30.556051,30.638504,30.736538,30.833332,30.91513,31.023537,31.105835,31.212614,31.312893,31.409262,31.51608,31.583778,31.673422,31.74569,31.810362,31.89028,31.95836,32.059677,32.14852,32.24775,32.35764,32.444695,32.56309,32.656494,32.779438,32.908863,33.015312,33.15287,33.253822,33.37912,33.48735,33.579735,33.678467,33.740753,33.815834,33.871597,33.924545,33.977825,34.012375,34.060806,34.102783,34.15206,34.216255,34.27221,34.361183,34.44069,34.542942,34.64749,34.72849,34.822838,34.883522,34.94538,34.983025,35.008522,35.023003,35.0235,35.02027,35.012848,35.00601,34.99711,34.9907,34.97863,34.96245,34.93709,34.892944,34.850048,34.781815,34.72163,34.645714,34.584053,34.552456,34.53972,34.55046,34.577957,34.61491,34.642525,34.674927,34.69712,34.724876,34.74244,34.752754,34.747658,34.734467,34.689808,34.633095,34.57481,34.513435,34.469597,34.42783,34.411552,34.40583,34.41603,34.432022,34.44187,34.433746,34.380028,34.262962,34.155197,33.851593,33.503326,33.019073,32.551315,32.102234,31.649961,31.392963,31.07476,30.844093,30.612955,30.385786,30.223076,30.050587,29.978886,29.970928,30.161972,30.413383,31.043594,31.731256,32.58302,33.497177,34.416744,35.195663,35.425735,35.635075,35.670662,35.67056,35.595333,35.513283,35.247147,34.94884,34.738556,34.59752,34.541138,34.50866,34.519085,34.538383,34.573425,34.602997,34.64116,34.66867,34.7017,34.737022,34.768715,34.821175,34.868496,34.93419,34.994324,35.04056,35.095963,35.13734,35.206337,35.298584,35.41288,35.669815,35.942886,36.45909,37.025665,37.82587,38.703598,39.312027,39.92908,40.24653,40.592228,40.826195,40.972183,41.09294,41.1426,41.19375,41.224957,41.259052,41.290043,41.303825,41.322266,41.337082,41.35028,41.37101,41.391106,41.42682,41.465923,41.516792,41.59085,41.658558,41.763714,41.855934,41.973717,42.10156,42.209362,42.34942,42.451027,42.56566,42.64573,42.70031,42.731323,42.731876,42.70496,42.649803,42.582695,42.489285,42.41598,42.321945,42.248802,42.172256,42.08272,42.009987,41.88583,41.76416,41.5919,41.385742,41.208633,40.978004,40.81254,40.63054,40.499825,40.409893,40.330666,40.289925,40.244537,40.21027,40.172035,40.117485,40.06998,40.00804,39.963455,39.925945,39.90689,39.90477,39.919395,39.944427,39.977524,40.015373,40.04409,40.079887,40.105675,40.140995,40.18292,40.224655,40.29167,40.350403,40.434357,40.51432,40.587624,40.672115,40.73226,40.8098,40.875767,40.95142,41.057716,41.15452,41.29653,41.412426,41.539013,41.63459,41.681732,41.701973,41.692276,41.69137,41.74819,41.833313,42.11293,42.44358
17.359121,17.3424,17.31768,17.295128,17.293198,17.314953,17.3512,17.41073,17.476645,17.582579,17.672178,17.727276,17.738014,17.753513,17.785706,17.82889,17.776562,17.68365,17.566807,17.740887,17.974823,19.923157,22.634056,25.866661,28.233173,28.759098,28.778019,28.476349,28.55449,28.857876,29.139894,29.473053,29.6781,29.912697,30.056679,30.13343,30.161308,30.15319,30.136955,30.119862,30.108809,30.117943,30.140535,30.184769,30.234423,30.30212,30.390568,30.465948,30.572742,30.657598,30.759033,30.860455,30.946896,31.062117,31.149712,31.258146,31.35908,31.460407,31.574839,31.648075,31.748255,31.830185,31.900932,31.985601,32.05671,32.16245,32.255016,32.35837,32.472427,32.562557,32.68459,32.780163,32.90434,33.03363,33.139603,33.27639,33.3768,33.50177,33.610428,33.70392,33.804497,33.868294,33.945107,34.00197,34.05562,34.1092,34.143684,34.19241,34.23509,34.285706,34.35167,34.408924,34.49956,34.58015,34.683205,34.78733,34.866917,34.95953,35.019238,35.08038,35.11737,35.141907,35.15439,35.152878,35.146435,35.13607,35.12671,35.116356,35.109787,35.100174,35.088264,35.06811,35.03048,34.99337,34.927277,34.865376,34.792625,34.73506,34.704777,34.69358,34.705555,34.734787,34.773052,34.801353,34.83368,34.85522,34.88124,34.898388,34.910583,34.91329,34.90953,34.87896,34.834354,34.789032,34.732655,34.683495,34.634487,34.614204,34.608444,34.630074,34.665947,34.69412,34.693375,34.66086,34.569572,34.481167,34.208443,33.88742,33.369125,32.82242,32.298664,31.768778,31.468864,31.105968,30.852577,30.60424,30.371107,30.209705,30.044155,29.982075,29.987465,30.190239,30.446247,31.080994,31.771137,32.62562,33.536602,34.44315,35.219994,35.46192,35.673798,35.70421,35.702198,35.610695,35.50415,35.220863,34.9189,34.705193,34.563656,34.508095,34.476814,34.488914,34.511986,34.55429,34.59135,34.641388,34.67912,34.724678,34.77192,34.813515,34.875053,34.926186,34.9935,35.052364,35.096638,35.15303,35.1979,35.281296,35.39772,35.54373,35.849976,36.164337,36.767517,37.407692,38.229652,39.067333,39.611317,40.16684,40.45866,40.768234,40.971123,41.094994,41.195396,41.23576,41.28006,41.30832,41.336525,41.36332,41.377033,41.396812,41.41423,41.429962,41.45392,41.4766,41.514854,41.55512,41.606438,41.681313,41.75038,41.859016,41.9552,42.078495,42.211723,42.324005,42.4645,42.56192,42.66597,42.73033,42.769024,42.78019,42.767,42.72579,42.66284,42.59063,42.495834,42.42376,42.332558,42.262184,42.187855,42.09678,42.01941,41.888016,41.76062,41.58336,41.37536,41.198784,40.97149,40.810158,40.63365,40.508575,40.423134,40.35034,40.315006,40.27794,40.252434,40.223495,40.18049,40.14165,40.089783,40.051666,40.01967,40.004692,40.0048,40.0225,40.050285,40.08761,40.131317,40.165485,40.209465,40.241993,40.285553,40.33513,40.383194,40.45791,40.52214,40.613068,40.698784,40.777267,40.866943,40.930267,41.01139,41.079525,41.15702,41.264427,41.361557,41.503723,41.619827,41.747753,41.845985,41.89485,41.92263,41.92302,41.937187,42.01407,42.119034,42.429764,42.786766
17.368351,17.350155,17.325432,17.30357,17.302519,17.324757,17.36132,17.42088,17.486992,17.59203,17.680069,17.733921,17.744675,17.76257,17.793755,17.83188,17.775436,17.681606,17.562435,17.744932,17.987309,20.03358,22.85276,26.064365,28.355,28.848532,28.84106,28.532366,28.613882,28.924404,29.202919,29.529913,29.730753,29.961664,30.103191,30.177673,30.200294,30.185976,30.165188,30.147116,30.135551,30.145588,30.169622,30.215206,30.26545,30.333492,30.422453,30.498486,30.60733,30.694666,30.799294,30.904575,30.994728,31.115002,31.206348,31.317783,31.420341,31.523308,31.640152,31.715443,31.821419,31.909573,31.984463,32.072327,32.14506,32.254017,32.350006,32.45745,32.576538,32.67094,32.798836,32.898808,33.027473,33.160126,33.268402,33.407177,33.50843,33.634605,33.74437,33.838997,33.940567,34.00476,34.081165,34.13664,34.188293,34.23929,34.271965,34.318596,34.359993,34.40973,34.474907,34.53138,34.620968,34.700493,34.80072,34.901123,34.97773,35.06717,35.12516,35.18508,35.22142,35.245075,35.255558,35.2519,35.241856,35.227753,35.214622,35.20076,35.19229,35.182533,35.172745,35.15569,35.123,35.090385,35.02983,34.971977,34.905697,34.852722,34.82271,34.811157,34.822792,34.851036,34.888763,34.918785,34.949345,34.96596,34.98684,34.99983,35.00708,35.006584,35.002365,34.980377,34.948914,34.9177,34.86685,34.811222,34.752174,34.72469,34.71449,34.742554,34.793564,34.83955,34.849678,34.83876,34.76539,34.67168,34.43897,34.18762,33.65885,33.04242,32.46591,31.87698,31.538162,31.135628,30.862015,30.597736,30.358501,30.19814,30.03709,29.981716,29.999752,30.214092,30.474094,31.109833,31.797962,32.651447,33.556473,34.447044,35.220337,35.474922,35.6899,35.716507,35.716843,35.608356,35.47026,35.17405,34.878765,34.66596,34.52489,34.46912,34.439117,34.45401,34.481895,34.532364,34.57742,34.639748,34.68777,34.74557,34.80394,34.854485,34.92402,34.978344,35.047123,35.10571,35.14986,35.210617,35.262024,35.363472,35.506363,35.685722,36.040234,36.39332,37.077995,37.78297,38.603333,39.380768,39.857918,40.352974,40.622276,40.898956,41.07539,41.18236,41.269096,41.30465,41.34602,41.373005,41.395584,41.419838,41.436382,41.458252,41.476936,41.494194,41.520157,41.544533,41.58448,41.62555,41.677174,41.752655,41.822777,41.933777,42.03243,42.158775,42.29429,42.40824,42.546276,42.63811,42.73127,42.781624,42.80697,42.802513,42.779144,42.727745,42.65988,42.584923,42.49041,42.420258,42.331512,42.26261,42.18875,42.095825,42.01555,41.87887,41.747345,41.56966,41.36444,41.190186,40.967842,40.81147,40.640945,40.521126,40.439445,40.37174,40.340664,40.310127,40.291603,40.270218,40.23694,40.20565,40.16262,40.130257,40.10318,40.09188,40.094048,40.1145,40.144676,40.185753,40.234726,40.273834,40.325256,40.363914,40.41497,40.47135,40.524902,40.606094,40.674843,40.771385,40.86158,40.94404,41.03776,41.103703,41.18776,41.25756,41.33635,41.443813,41.540188,41.680267,41.794205,41.92033,42.01824,42.06761,42.0989,42.10453,42.129486,42.222195,42.343018,42.675453,43.048645
17.376783,17.35719,17.332588,17.31145,17.312046,17.335724,17.371906,17.430317,17.496561,17.600819,17.687386,17.740185,17.751335,17.772203,17.803276,17.837124,17.776876,17.681465,17.558819,17.746365,17.993702,20.12585,23.042694,26.2412,28.468046,28.92982,28.897038,28.582779,28.667667,28.984608,29.259682,29.580593,29.777231,30.005146,30.14637,30.223019,30.243706,30.222998,30.198288,30.179787,30.167088,30.177942,30.20449,30.252668,30.304352,30.373737,30.4641,30.541348,30.652737,30.742722,30.850609,30.9596,31.053253,31.178143,31.272846,31.388212,31.493425,31.597286,31.716606,31.795383,31.906216,31.997398,32.07175,32.158623,32.23176,32.34337,32.443245,32.55518,32.680237,32.77994,32.915466,33.021484,33.15675,33.29492,33.407234,33.54982,33.65294,33.781296,33.892925,33.989784,34.0932,34.15792,34.233006,34.285156,34.33207,34.377884,34.407875,34.450977,34.489742,34.53692,34.599403,34.65371,34.739883,34.816277,34.912056,35.00775,35.080704,35.166473,35.22264,35.281475,35.317513,35.340675,35.34951,35.343826,35.33026,35.312252,35.294952,35.27668,35.26539,35.25411,35.245228,35.23,35.201214,35.1724,35.11808,35.065857,35.006577,34.959858,34.933895,34.9253,34.937386,34.96512,35.000404,35.02718,35.053226,35.066574,35.083332,35.093315,35.098,35.09707,35.094265,35.078236,35.053898,35.02961,34.978683,34.915916,34.844124,34.80564,34.784225,34.813946,34.87879,34.952587,34.98849,35.005424,34.953087,34.870705,34.659004,34.429817,33.90049,33.25541,32.63951,31.993317,31.609987,31.16506,30.871342,30.5904,30.344126,30.18404,30.026464,29.977043,30.007168,30.232365,30.495419,31.13089,31.816093,32.66744,33.56558,34.439087,35.21036,35.480934,35.698402,35.71999,35.726524,35.60487,35.435883,35.12494,34.8338,34.622574,34.482536,34.425232,34.39601,34.414246,34.447662,34.50741,34.56147,34.637486,34.696815,34.7679,34.837795,34.89698,34.974293,35.03197,35.102554,35.161625,35.206627,35.27375,35.333687,35.45639,35.62899,35.845787,36.250805,36.641983,37.40544,38.170303,38.977165,39.684868,40.09545,40.531525,40.77956,41.023376,41.173336,41.26432,41.339146,41.371384,41.40937,41.434593,41.454163,41.47741,41.495663,41.51906,41.538895,41.557392,41.584953,41.610687,41.65194,41.69355,41.745255,41.821167,41.892273,42.005295,42.105927,42.234623,42.371365,42.48589,42.61976,42.704624,42.78578,42.821697,42.833588,42.81337,42.779526,42.71827,42.646446,42.570057,42.477364,42.41018,42.32373,42.254807,42.178432,42.08211,42.000153,41.86181,41.729866,41.553806,41.352573,41.182236,40.966347,40.815544,40.65139,40.5367,40.458523,40.3955,40.3684,40.343887,40.331844,40.317562,40.29367,40.26981,40.235565,40.20906,40.18705,40.179764,40.184353,40.207977,40.240837,40.286026,40.340645,40.385067,40.44433,40.48933,40.548122,40.611423,40.670464,40.757896,40.830803,40.932335,41.026405,41.112362,41.209824,41.278328,41.36525,41.436634,41.51663,41.623726,41.718765,41.85556,41.965927,42.08783,42.18341,42.233345,42.2657,42.27288,42.30603,42.412804,42.548164,42.89785,43.28186
17.385738,17.36511,17.341028,17.320784,17.32333,17.348642,17.383787,17.440115,17.506098,17.609318,17.694344,17.746511,17.758728,17.782993,17.81445,17.844383,17.78173,17.68555,17.558975,17.746147,17.992378,20.180113,23.166391,26.37429,28.5737,29.012474,28.95755,28.635077,28.719313,29.03915,29.310745,29.625788,29.81808,30.044552,30.190315,30.27869,30.304672,30.277216,30.251812,30.236702,30.224092,30.23639,30.266298,30.318474,30.372826,30.44469,30.537281,30.616198,30.730268,30.822607,30.933136,31.044632,31.140411,31.267845,31.36428,31.482258,31.589241,31.69302,31.812908,31.89319,32.006317,32.099056,32.173187,32.259438,32.332287,32.446373,32.550846,32.668972,32.803314,32.91159,33.05968,33.17582,33.32244,33.47048,33.590103,33.739956,33.846893,33.979637,34.093887,34.19243,34.295822,34.359234,34.429874,34.475456,34.51472,34.55117,34.574493,34.609844,34.64352,34.685913,34.74355,34.7939,34.873734,34.94441,35.03273,35.120956,35.188232,35.268185,35.3213,35.37796,35.41324,35.435665,35.442818,35.435226,35.418217,35.39617,35.374382,35.35086,35.33585,35.321564,35.31219,35.297287,35.271317,35.24622,35.19662,35.14817,35.09558,35.056164,35.035507,35.030945,35.0437,35.07074,35.103012,35.12607,35.147133,35.157032,35.16963,35.17679,35.17922,35.178066,35.17665,35.166763,35.148514,35.125984,35.068787,34.996124,34.906784,34.85251,34.81301,34.83773,34.91018,35.018265,35.094906,35.145943,35.116898,35.05496,34.859303,34.63474,34.12293,33.478645,32.824814,32.116318,31.68677,31.195396,30.877386,30.576569,30.32109,30.160452,30.00597,29.962626,30.00417,30.240028,30.507385,31.141972,31.821907,32.66832,33.556156,34.407993,35.176804,35.46758,35.689014,35.70547,35.721024,35.582893,35.37384,35.043793,34.75836,34.550655,34.413612,34.354874,34.32869,34.353806,34.397324,34.471794,34.53914,34.634445,34.709106,34.797264,34.881966,34.953403,35.041145,35.102467,35.175545,35.23695,35.286156,35.36595,35.44014,35.593185,35.80465,36.067352,36.5389,36.990334,37.82006,38.60636,39.36245,39.981026,40.335003,40.71442,40.933563,41.140167,41.26256,41.33854,41.403374,41.433662,41.467323,41.490234,41.5104,41.535492,41.555096,41.57974,41.60034,41.619713,41.648422,41.6752,41.71734,41.7592,41.810707,41.886597,41.958252,42.072205,42.1735,42.30252,42.43773,42.550194,42.676277,42.75153,42.81859,42.839348,42.83752,42.801956,42.758358,42.68859,42.614357,42.53856,42.448593,42.383537,42.29825,42.228584,42.149742,42.051147,41.968765,41.831806,41.702744,41.531815,41.337906,41.17408,40.96752,40.823997,40.667675,40.558784,40.484554,40.42641,40.40322,40.38475,40.379356,40.372475,40.35872,40.343113,40.319054,40.29981,40.284454,40.283005,40.291397,40.320023,40.35697,40.407906,40.469902,40.52106,40.59,40.64267,40.710747,40.782154,40.847477,40.941795,41.019157,41.125862,41.223946,41.313717,41.415726,41.4877,41.578693,41.652493,41.734272,41.840652,41.93351,42.064697,42.168617,42.282135,42.37053,42.41727,42.446526,42.452652,42.490425,42.60707,42.753098,43.11274,43.50047
17.392517,17.37141,17.34788,17.328323,17.332066,17.358246,17.392517,17.44727,17.512829,17.615196,17.699215,17.75104,17.764103,17.790745,17.822731,17.850357,17.786945,17.69086,17.561943,17.746578,17.989424,20.196163,23.211166,26.438845,28.642193,29.071568,29.003082,28.67199,28.753555,29.07403,29.34321,29.654276,29.84347,30.070278,30.222473,30.324696,30.357964,30.324535,30.301033,30.291725,30.279747,30.292675,30.32483,30.380026,30.43666,30.51065,30.605072,30.685286,30.801136,30.89483,31.006754,31.11922,31.215582,31.343563,31.44028,31.558022,31.664669,31.768929,31.888681,31.968008,32.0815,32.175705,32.251663,32.33907,32.411385,32.526676,32.634174,32.757442,32.90029,33.01667,33.176666,33.302402,33.459812,33.617218,33.74375,33.90059,34.011337,34.14856,34.264915,34.363487,34.464657,34.525352,34.590523,34.629707,34.662796,34.69053,34.705933,34.732956,34.761856,34.799896,34.85333,34.900177,34.974392,35.040005,35.121864,35.203674,35.266052,35.340942,35.39135,35.4459,35.480335,35.502037,35.50801,35.49926,35.48002,35.455276,35.430443,35.403187,35.385406,35.36853,35.358223,35.34256,35.318626,35.298096,35.250137,35.200394,35.151276,35.11703,35.0997,35.097717,35.11097,35.137432,35.168167,35.190384,35.208946,35.215797,35.22529,35.2305,35.231228,35.22991,35.22956,35.225525,35.21264,35.188877,35.123367,35.04153,34.937363,34.8703,34.816017,34.833908,34.906376,35.039444,35.151146,35.228012,35.21585,35.172287,34.988007,34.762302,34.2717,33.63876,32.953915,32.19824,31.740194,31.216476,30.878876,30.562744,30.299908,30.13852,29.986322,29.947498,29.995777,30.238285,30.509768,31.144142,31.819618,32.660847,33.539238,34.373764,35.14039,35.446793,35.67205,35.686043,35.711494,35.55984,35.314896,34.967903,34.68781,34.48339,34.34973,34.29083,34.26864,34.300686,34.35395,34.44171,34.520554,34.632256,34.719707,34.821304,34.918022,35.00106,35.098038,35.16157,35.236164,35.299717,35.353577,35.44544,35.532402,35.710953,35.953857,36.252045,36.779587,37.28916,38.151028,38.91924,39.61593,40.16735,40.49814,40.84488,41.03707,41.215347,41.318497,41.384857,41.44387,41.473354,41.50227,41.52227,41.54542,41.573967,41.5942,41.61957,41.64058,41.660423,41.689766,41.717125,41.759712,41.801605,41.85282,41.928417,42.000137,42.11402,42.21496,42.342987,42.475567,42.585117,42.703987,42.771423,42.828144,42.838615,42.827446,42.78196,42.732483,42.657978,42.583153,42.5093,42.421253,42.35589,42.270027,42.19989,42.121044,42.022858,41.940636,41.80571,41.679863,41.514076,41.32684,41.168663,40.969845,40.832127,40.68148,40.57642,40.504932,40.45011,40.429527,40.41548,40.41519,40.413925,40.40779,40.398308,40.382072,40.3687,40.358963,40.362698,40.374527,40.40773,40.44837,40.50428,40.572365,40.62894,40.70556,40.76425,40.839584,40.917244,40.98734,41.086826,41.16749,41.277985,41.37905,41.471767,41.57752,41.65248,41.747105,41.82315,41.90655,42.012337,42.10334,42.229557,42.327568,42.43325,42.513695,42.5549,42.579876,42.585297,42.624466,42.74499,42.89554,43.25838,43.646
17.40136,17.380733,17.358593,17.339977,17.34482,17.371498,17.4042,17.456541,17.520947,17.621923,17.70486,17.75657,17.770943,17.800295,17.833223,17.858864,17.795418,17.699245,17.566452,17.74194,17.973995,20.172283,23.19347,26.470379,28.71999,29.152155,29.06999,28.720322,28.794567,29.114536,29.38105,29.688263,29.874462,30.099785,30.25816,30.378288,30.427097,30.395283,30.377357,30.374897,30.372187,30.39319,30.42788,30.487167,30.547087,30.623363,30.719105,30.800304,30.916637,31.009966,31.120779,31.23082,31.324379,31.447714,31.540554,31.657413,31.763695,31.863533,31.97736,32.05298,32.16296,32.2578,32.340904,32.436016,32.51004,32.630287,32.74421,32.876133,33.030945,33.15793,33.332924,33.470387,33.641014,33.809845,33.94485,34.110184,34.225445,34.367615,34.4858,34.583664,34.681637,34.73907,34.798286,34.830368,34.85549,34.872406,34.878876,34.895287,34.917442,34.950836,35.0001,35.042896,35.110306,35.16946,35.242485,35.31465,35.369186,35.435104,35.479996,35.52941,35.561016,35.580727,35.585045,35.575466,35.55494,35.52875,35.502106,35.472263,35.45231,35.43297,35.421516,35.407867,35.381805,35.352745,35.29825,35.24793,35.20101,35.17095,35.156364,35.156807,35.17093,35.19773,35.228134,35.2501,35.26866,35.275803,35.285484,35.291565,35.29441,35.29695,35.299896,35.303627,35.296207,35.2692,35.193897,35.104202,34.984318,34.90152,34.82794,34.83348,34.90088,35.057446,35.206955,35.310276,35.316414,35.295013,35.127426,34.904343,34.44809,33.83531,33.111206,32.294964,31.80162,31.23589,30.871315,30.534039,30.26039,30.097187,29.947807,29.915287,29.971497,30.222927,30.502419,31.137337,31.805723,32.642235,33.511127,34.324196,35.086895,35.411213,35.644142,35.652008,35.665657,35.485146,35.20889,34.8443,34.566772,34.366116,34.23729,34.178352,34.164124,34.209415,34.280846,34.392155,34.49074,34.628735,34.735634,34.859238,34.975,35.073753,35.184334,35.253014,35.333466,35.404747,35.4701,35.58456,35.69307,35.910347,36.196556,36.535248,37.145317,37.76184,38.650257,39.34851,39.944935,40.398746,40.694733,40.99643,41.154198,41.29826,41.380005,41.436337,41.48735,41.51305,41.540596,41.563118,41.59011,41.621735,41.642113,41.667572,41.688484,41.70848,41.738297,41.76626,41.809258,41.85106,41.901726,41.97638,42.047474,42.159897,42.259014,42.383884,42.511024,42.615013,42.72293,42.779655,42.822933,42.821262,42.800007,42.744408,42.689163,42.60955,42.53311,42.45897,42.371773,42.307175,42.221947,42.152214,42.07415,41.977432,41.896393,41.765484,41.64493,41.487198,41.309914,41.160004,40.97213,40.842545,40.702286,40.605988,40.54084,40.492073,40.474827,40.464794,40.468437,40.47199,40.47451,40.47355,40.468212,40.463272,40.462013,40.474213,40.49204,40.533203,40.580147,40.64411,40.72148,40.786076,40.873707,40.94081,41.02617,41.112343,41.18896,41.295444,41.38053,41.496284,41.601818,41.69917,41.811245,41.891495,41.992798,42.073364,42.160347,42.266315,42.355186,42.474525,42.56383,42.657814,42.725685,42.757683,42.774055,42.77587,42.81256,42.932056,43.082146,43.439087,43.817963
