14.803244,14.902538,14.997264,15.083128,15.1573715,15.235764,15.320942,15.4176855,15.523194,15.6272335,15.712643,15.776094,15.805523,15.79718,15.762129,15.63513,15.418341,15.24498,15.153224,15.227007,15.519224,15.970204,16.558315,17.050343,17.259533,17.397663,17.509224,17.580809,17.710278,17.873688,18.047176,18.21101,18.354694,18.477526,18.58377,18.683437,18.789642,18.911068,19.049269,19.203182,19.366114,19.536207,19.718847,19.91387,20.111277,20.302645,20.482655,20.651249,20.809114,20.962753,21.118576,21.283674,21.464727,21.65427,21.844442,22.025705,22.195892,22.376749,22.586218,22.83721,23.121193,23.414064,23.696407,23.95942,24.198044,24.424215,24.6502,24.870592,25.081795,25.282593,25.479418,25.67921,25.887754,26.10889,26.335667,26.566517,26.804216,27.046616,27.29124,27.538523,27.788713,28.031599,28.279255,28.542397,28.82722,29.12922,29.44289,29.774244,30.13272,30.515856,30.911663,31.295963,31.662243,32.02864,32.41182,32.8091,33.200546,33.57763,33.93861,34.29516,34.656185,35.022,35.39483,35.77666,36.114925,36.424393,36.69528,36.910442,37.052383,37.103867,36.967,36.562576,36.09272,35.65033,35.391148,35.308605,35.321075,35.362373,35.400787,35.437344,35.488834,35.536648,35.55653,35.530834,35.488407,35.480892,35.529507,35.6455,35.791565,35.915787,36.000546,36.0531,36.091244,36.150524,36.240795,36.35212,36.464413,36.558876,36.63413,36.693462,36.742714,36.77781,36.796,36.811096,36.829376,36.855927,36.885952,36.908993,36.922184,36.92053,36.89693,36.83142,36.693645,36.497383,36.288025,36.127434,36.085983,36.12702,36.17683,36.168686,36.06274,35.944336,35.89186,35.92282,36.00717,36.060024,36.041046,35.978786,35.922935,35.90342,35.902237,35.86368,35.76162,35.612305,35.44999,35.32386,35.22938,35.154575,35.080082,34.992397,34.88725,34.75504,34.596733,34.422234,34.247917,34.088764,33.960335,33.87008,33.809353,33.76123,33.70041,33.623108,33.539555,33.457516,33.395863,33.350853,33.334568,33.419113,33.689022,34.16346,34.846443,35.418983,35.63988,35.72047,35.656185,35.51746,35.34198,35.140724,34.884216,34.54211,34.14598,33.740185,33.362476,33.043922,32.740925,32.434315,32.09196,31.70057,31.267859,30.738688,30.207584,29.80166,29.474741,29.17885,28.855688,28.496807,28.116074,27.734362,27.352818,26.987133,26.626896,26.26809,25.875286,25.46879,25.066256,24.684132,24.339832,24.025028,23.742233,23.498268,23.277271,23.072866,22.87323,22.628735,22.334507,21.97923,21.609684,21.249489,20.78871,20.26808,19.858995,19.616508,19.532898,19.605871,19.857174,20.04868,20.080647,20.105673,20.077675,20.010145,19.909435,19.797432,19.673819,19.547447,19.425934,19.303411,19.165377,19.008047,18.82146,18.56101,18.20563,17.877003,17.605976,17.424007,17.321892,17.274632,17.27002,17.25739,17.228064,17.204973,17.197521,17.193495,17.187819,17.181278,17.173347,17.159775,17.147038,17.139984,17.134945,17.140547,17.146809,17.144234,17.129814,17.109667,17.083265,17.053925,17.031456,17.014324,17.008118,17.007181,17.00012,16.990412,16.98355,16.968275,16.919842,16.846575,16.778976
14.796604,14.890355,14.982635,15.067914,15.141127,15.220922,15.307433,15.405195,15.511701,15.616211,15.702595,15.768257,15.815585,15.833256,15.798125,15.671137,15.458884,15.299128,15.2274,15.322466,15.610704,16.040981,16.615772,17.070171,17.233717,17.37491,17.496277,17.59239,17.730946,17.904419,18.087282,18.258816,18.406916,18.52971,18.632187,18.726103,18.82947,18.95361,19.100979,19.2678,19.442324,19.620447,19.806316,20.000965,20.195518,20.38304,20.559992,20.727324,20.885147,21.039066,21.194359,21.358892,21.540699,21.734074,21.931568,22.120413,22.295498,22.476513,22.6814,22.924734,23.199326,23.481224,23.751661,23.992662,24.21357,24.439241,24.66497,24.887527,25.101221,25.303274,25.501163,25.701635,25.910757,26.132105,26.35836,26.58827,26.824976,27.067036,27.318562,27.582129,27.834892,28.081396,28.333582,28.601185,28.889112,29.193613,29.509998,29.843552,30.20281,30.584478,30.968472,31.344244,31.702946,32.065193,32.4477,32.844486,33.2369,33.621883,33.990112,34.352203,34.714966,35.079243,35.442036,35.770218,36.08304,36.380684,36.639076,36.84491,36.983246,37.044426,36.94676,36.56677,36.128445,35.720352,35.47159,35.392185,35.397797,35.424324,35.444557,35.4654,35.512253,35.562992,35.586617,35.56887,35.521614,35.50432,35.556847,35.677563,35.828403,35.953613,36.034954,36.084724,36.12432,36.188404,36.285137,36.401123,36.51409,36.603775,36.671284,36.723667,36.76929,36.806164,36.833317,36.856678,36.881523,36.914055,36.947277,36.96991,36.979897,36.974407,36.95057,36.88984,36.76114,36.576603,36.379295,36.2312,36.202087,36.255833,36.317104,36.317684,36.217495,36.103764,36.05817,36.097374,36.18924,36.242584,36.21461,36.13589,36.060337,36.02342,36.00969,35.96512,35.862083,35.714394,35.55517,35.430542,35.3369,35.264545,35.190887,35.098938,34.986927,34.848835,34.68902,34.519814,34.355873,34.211006,34.098724,34.0202,33.965424,33.920372,33.858887,33.7771,33.68421,33.588898,33.512817,33.456135,33.437035,33.53302,33.830486,34.340004,35.025715,35.53122,35.744766,35.808212,35.719707,35.56289,35.37634,35.16784,34.903217,34.54641,34.131218,33.709908,33.323566,33.00761,32.71348,32.416588,32.07845,31.678728,31.224403,30.725298,30.263853,29.863056,29.519464,29.21852,28.902344,28.568565,28.215588,27.867083,27.528114,27.214489,26.85753,26.460464,26.007969,25.540846,25.077805,24.645468,24.271606,23.942015,23.656647,23.416695,23.199148,22.991135,22.772789,22.480553,22.121555,21.724823,21.324038,20.775122,20.238438,19.82262,19.49571,19.270563,19.13572,19.120636,19.315935,19.693056,19.905712,19.990704,20.0245,19.999065,19.930323,19.84141,19.735462,19.609285,19.47991,19.343332,19.192705,19.034494,18.851421,18.627884,18.308231,17.931973,17.630814,17.433668,17.32946,17.293596,17.298819,17.291275,17.263166,17.236637,17.224756,17.218016,17.212502,17.209393,17.205177,17.193354,17.179745,17.170227,17.162945,17.16757,17.175968,17.177523,17.166464,17.148432,17.122728,17.09362,17.072454,17.056606,17.04995,17.045996,17.037695,17.028826,17.026548,17.013828,16.960909,16.87635,16.79194
14.800444,14.889244,14.978659,15.063438,15.137264,15.216499,15.301468,15.397794,15.506518,15.611577,15.697683,15.762042,15.806488,15.840189,15.826258,15.707872,15.501298,15.35445,15.298044,15.402232,15.683611,16.1087,16.652292,17.056774,17.21267,17.355562,17.486977,17.607603,17.756237,17.94016,18.132671,18.31227,18.465292,18.589022,18.689394,18.778778,18.879284,19.00499,19.160051,19.338366,19.5237,19.709137,19.897451,20.090973,20.282667,20.467499,20.64279,20.810427,20.970415,21.126911,21.283875,21.449036,21.631516,21.828861,22.034441,22.232716,22.415384,22.597586,22.796272,23.027632,23.288197,23.55335,23.790668,24.00511,24.224253,24.447948,24.674286,24.897903,25.112864,25.315786,25.514132,25.71519,25.925257,26.147532,26.37421,26.604288,26.840744,27.08738,27.355907,27.622383,27.87965,28.1314,28.388138,28.659605,28.950626,29.25818,29.579037,29.91691,30.279184,30.655397,31.031075,31.396086,31.743895,32.097527,32.473335,32.86518,33.26213,33.65559,34.035378,34.40896,34.781406,35.143993,35.460773,35.765244,36.06624,36.347122,36.587433,36.777584,36.906094,36.97159,36.898033,36.556324,36.150738,35.7797,35.5439,35.467525,35.465202,35.474277,35.4712,35.470608,35.505486,35.555405,35.585743,35.57942,35.538418,35.52492,35.584038,35.706654,35.856823,35.978542,36.054935,36.102875,36.147644,36.220127,36.325855,36.44818,36.563503,36.652107,36.71736,36.76879,36.816616,36.85925,36.895023,36.927437,36.96088,37.00012,37.037697,37.06378,37.07498,37.066948,37.044113,36.988163,36.86772,36.693535,36.50644,36.367413,36.344334,36.40261,36.46739,36.471848,36.378483,36.27306,36.23848,36.2869,36.38285,36.430992,36.38759,36.28808,36.191067,36.136513,36.11091,36.06202,35.960873,35.819576,35.66288,35.539913,35.448418,35.37519,35.297897,35.202057,35.08606,34.943176,34.781437,34.615974,34.461395,34.3288,34.22799,34.15862,34.109615,34.06621,34.0033,33.918224,33.81893,33.714096,33.6261,33.559242,33.53766,33.643528,33.96592,34.5234,35.20968,35.644695,35.85787,35.902542,35.79181,35.62082,35.42988,35.221935,34.95731,34.590874,34.15799,33.717987,33.316994,32.997963,32.70674,32.417408,32.086,31.685116,31.214802,30.698772,30.222307,29.817257,29.37303,28.926357,28.52265,28.165878,27.839685,27.545034,27.277054,27.03943,26.82175,26.542938,26.127356,25.581703,25.06148,24.575829,24.168594,23.824356,23.53981,23.308428,23.098518,22.886757,22.646904,22.302124,21.900808,21.4659,20.838932,20.231,19.819496,19.536386,19.280388,19.050892,18.858593,18.761488,18.873735,19.352797,19.709028,19.857834,19.956367,19.975307,19.942907,19.878397,19.780092,19.658447,19.529163,19.387602,19.22853,19.055092,18.869785,18.6634,18.382946,18.000965,17.661377,17.44564,17.338848,17.313194,17.32772,17.32559,17.29891,17.269505,17.25426,17.245827,17.241114,17.24107,17.239979,17.229548,17.214832,17.201752,17.190008,17.191177,17.199585,17.204697,17.198309,17.184517,17.161873,17.13509,17.116657,17.099945,17.090656,17.083927,17.073921,17.065695,17.067417,17.057314,16.997362,16.89873,16.7983
14.796305,14.884516,14.97233,15.05634,15.131731,15.215621,15.305225,15.4045315,15.510474,15.612044,15.696938,15.759571,15.801056,15.830415,15.838158,15.737904,15.54258,15.40952,15.365337,15.474114,15.7436285,16.160297,16.671146,17.035654,17.19334,17.338636,17.480652,17.62477,17.78526,17.968689,18.143326,18.317371,18.491156,18.649378,18.757065,18.842487,18.939798,19.064959,19.224075,19.409649,19.601412,19.790106,19.977905,20.16935,20.35269,20.521933,20.69651,20.874897,21.05175,21.216951,21.375198,21.539835,21.720882,21.919252,22.130575,22.337622,22.529045,22.714502,22.90977,23.132462,23.37212,23.587154,23.799963,24.01243,24.228554,24.451452,24.676935,24.899797,25.114462,25.317532,25.516838,25.71954,25.931675,26.156025,26.384117,26.614891,26.854172,27.113811,27.38602,27.65715,27.9195,28.175835,28.436438,28.71116,29.004906,29.315876,29.642843,29.98762,30.352787,30.723034,31.091505,31.444855,31.779991,32.12237,32.488747,32.874928,33.275276,33.677643,34.071445,34.46085,34.84982,35.182354,35.480007,35.77968,36.06862,36.33301,36.55532,36.728436,36.84424,36.9047,36.844494,36.5551,36.17505,35.83447,35.623333,35.54519,35.53025,35.517902,35.4871,35.45924,35.476128,35.52088,35.561295,35.57136,35.546757,35.545208,35.611557,35.734943,35.88115,35.996925,36.068436,36.11656,36.169323,36.253185,36.37047,36.50151,36.6224,36.714195,36.782024,36.83709,36.890224,36.940517,36.98546,37.02715,37.068752,37.113815,37.153885,37.17992,37.192654,37.19026,37.170223,37.11845,37.00557,36.84109,36.663116,36.530437,36.507088,36.56005,36.617535,36.61704,36.527912,36.432438,36.41146,36.46937,36.566025,36.603508,36.539593,36.416645,36.29783,36.22624,36.189545,36.13723,36.038414,35.900036,35.75134,35.634743,35.546635,35.472935,35.392895,35.2954,35.177624,35.033245,34.87137,34.709496,34.562035,34.439114,34.347584,34.284298,34.236683,34.19077,34.12383,34.03507,33.93034,33.81771,33.71773,33.638977,33.611725,33.721924,34.066833,34.67173,35.362373,35.738636,35.95942,35.988796,35.861237,35.681213,35.490654,35.288357,35.02936,34.657314,34.209328,33.748608,33.328445,32.999268,32.704082,32.4137,32.05419,31.582348,31.048891,30.465645,29.865814,29.368004,28.964567,28.605072,28.263712,27.943014,27.621683,27.305758,27.004738,26.729774,26.450346,26.199942,25.958893,25.542902,24.96013,24.449184,24.019358,23.666698,23.39149,23.18089,22.992586,22.788843,22.534977,22.141462,21.702538,21.212067,20.37299,19.810192,19.473051,19.224735,19.01247,18.782438,18.561832,18.419928,18.518406,19.050724,19.486353,19.697187,19.858389,19.939522,19.941761,19.897226,19.811886,19.693523,19.560366,19.416609,19.260696,19.080318,18.880575,18.672607,18.42903,18.078604,17.695778,17.460295,17.350342,17.329733,17.352383,17.354435,17.327572,17.29459,17.276155,17.266212,17.261786,17.263302,17.263664,17.253653,17.23729,17.219877,17.202665,17.199352,17.206783,17.215939,17.215702,17.207954,17.19166,17.170374,17.155622,17.14293,17.13451,17.124405,17.111818,17.10409,17.110146,17.10187,17.032658,16.916786,16.796782
14.777461,14.872772,14.9632015,15.048939,15.127348,15.217165,15.312702,15.41721,15.5267515,15.627174,15.70353,15.760538,15.797461,15.820919,15.8462515,15.761852,15.584526,15.46407,15.430617,15.538973,15.79639,16.200453,16.678892,17.012215,17.17346,17.323486,17.469799,17.625423,17.794695,17.966305,18.141605,18.320065,18.496815,18.669107,18.819258,18.912989,19.00776,19.132334,19.29409,19.483597,19.677961,19.864708,20.036823,20.201233,20.368423,20.537844,20.712017,20.890968,21.071877,21.252842,21.431671,21.60981,21.789865,21.97508,22.168703,22.367165,22.56884,22.771141,22.974266,23.180996,23.390194,23.600235,23.809069,24.018305,24.23326,24.454361,24.677225,24.897348,25.110077,25.312479,25.512535,25.717192,25.931904,26.158722,26.388695,26.620913,26.86367,27.132633,27.408169,27.683949,27.951277,28.21219,28.476372,28.753948,29.050388,29.365593,29.700558,30.05407,30.418663,30.789833,31.153105,31.496574,31.820732,32.15362,32.51255,32.896282,33.301655,33.714104,34.12366,34.53568,34.910328,35.225834,35.526413,35.82226,36.100986,36.349987,36.555145,36.711002,36.81229,36.863182,36.814453,36.580322,36.219185,35.90175,35.709736,35.632225,35.599476,35.56238,35.50008,35.440536,35.432117,35.466354,35.51567,35.545227,35.54525,35.56333,35.6377,35.761753,35.900944,36.009377,36.07686,36.12773,36.191006,36.28833,36.41852,36.559307,36.687325,36.784893,36.85869,36.920982,36.98175,37.04083,37.094784,37.1447,37.193348,37.2428,37.284737,37.311153,37.32357,37.325108,37.313034,37.266052,37.160072,37.004955,36.8357,36.70724,36.677475,36.715656,36.75472,36.73995,36.650528,36.56359,36.555206,36.61979,36.711983,36.73423,36.648098,36.503643,36.367046,36.282513,36.23798,36.181305,36.081905,35.951958,35.814644,35.70633,35.622734,35.54997,35.470013,35.37458,35.259773,35.118114,34.95774,34.798134,34.655308,34.53855,34.45214,34.390285,34.339306,34.286785,34.214123,34.122242,34.014793,33.897385,33.786808,33.694958,33.656864,33.76449,34.128647,34.748417,35.423603,35.81834,36.05034,36.076294,35.939644,35.75268,35.56135,35.36372,35.111767,34.73866,34.280293,33.798046,33.353146,32.997364,32.666466,32.313488,31.826788,31.288696,30.740578,30.219257,29.704634,29.221926,28.780529,28.398876,28.046144,27.715244,27.383127,27.047184,26.721325,26.460083,26.205578,25.918224,25.57722,25.127096,24.643093,24.181047,23.786669,23.461508,23.21226,23.031488,22.874813,22.693575,22.44253,22.008266,21.50694,20.855175,19.822865,19.253204,19.000935,18.805868,18.584885,18.30468,18.022186,17.85567,17.995682,18.576752,19.16338,19.48675,19.70097,19.84729,19.906376,19.89114,19.82507,19.72364,19.590462,19.442728,19.286224,19.106668,18.899254,18.676174,18.447773,18.13528,17.747591,17.486927,17.369965,17.351055,17.377419,17.380625,17.35144,17.31419,17.29277,17.281338,17.27628,17.277622,17.277712,17.26634,17.247763,17.226116,17.203243,17.195194,17.202217,17.21553,17.221655,17.222727,17.216412,17.204967,17.199495,17.193764,17.187222,17.17463,17.15944,17.15121,17.158813,17.148996,17.066906,16.929209,16.787088
14.737606,14.847402,14.945928,15.040659,15.129607,15.224416,15.324541,15.433302,15.545651,15.6463,15.715335,15.759039,15.788013,15.805755,15.835396,15.77174,15.618786,15.512033,15.490092,15.597406,15.841874,16.23206,16.678402,16.981443,17.147018,17.301863,17.452785,17.611143,17.7819,17.955587,18.133247,18.313498,18.493128,18.667953,18.832884,18.964703,19.067549,19.194,19.359762,19.550652,19.726343,19.887207,20.047588,20.20985,20.373873,20.540945,20.714397,20.893974,21.076378,21.25886,21.438421,21.616405,21.795252,21.979551,22.172644,22.370829,22.572872,22.775038,22.977682,23.182932,23.38916,23.59586,23.80297,24.012651,24.227823,24.44713,24.666393,24.882227,25.0915,25.292225,25.492445,25.698622,25.915422,26.144028,26.37499,26.608303,26.857805,27.127005,27.404501,27.682747,27.95281,28.21595,28.481344,28.759712,29.05761,29.376781,29.720554,30.076067,30.446737,30.819702,31.17819,31.512749,31.826427,32.150528,32.503273,32.886326,33.298317,33.72213,34.15007,34.575237,34.92717,35.23383,35.541534,35.83544,36.106106,36.3409,36.529823,36.66871,36.753605,36.792206,36.749226,36.577686,36.23089,35.930984,35.746685,35.66851,35.62408,35.560753,35.463486,35.368412,35.32835,35.34742,35.399017,35.447254,35.476673,35.520073,35.603756,35.72735,35.856163,35.954742,36.018757,36.075005,36.150444,36.262672,36.406532,36.557114,36.69226,36.796146,36.877113,36.948044,37.017475,37.08489,37.145866,37.20144,37.255573,37.308445,37.352535,37.380947,37.395565,37.398567,37.391335,37.351223,37.25256,37.108433,36.94978,36.82599,36.78751,36.806057,36.820477,36.78572,36.691925,36.61014,36.609882,36.67532,36.75702,36.761154,36.65474,36.49468,36.347885,36.257633,36.207794,36.147972,36.054115,35.936207,35.812874,35.714493,35.635727,35.563522,35.484142,35.392586,35.283844,35.148346,34.992252,34.83451,34.694706,34.582478,34.498577,34.435394,34.378513,34.318,34.240173,34.147648,34.041824,33.924095,33.805622,33.700592,33.64877,33.749,34.12268,34.750587,35.4149,35.841194,36.100338,36.13816,35.999783,35.805325,35.606956,35.406628,35.156143,34.779694,34.310596,33.801487,33.320972,32.905186,32.498768,32.113594,31.68585,31.131443,30.567905,30.02248,29.477528,28.93723,28.44871,28.085825,27.77222,27.346937,26.8654,26.300005,25.785454,25.423416,25.183672,24.956842,24.612389,24.202559,23.95115,23.68138,23.411215,23.16896,22.974186,22.831816,22.708046,22.551567,22.313614,21.848896,21.273588,20.330168,19.165436,18.539213,18.248695,18.068043,17.844599,17.518673,17.161526,16.921999,17.075611,17.749353,18.635805,19.187809,19.464577,19.674364,19.804813,19.846966,19.822014,19.75239,19.633596,19.48223,19.318901,19.135956,18.918777,18.683565,18.44563,18.17088,17.812685,17.529163,17.402376,17.380241,17.404478,17.40507,17.371834,17.33022,17.305943,17.290852,17.267067,17.259727,17.264359,17.267582,17.253378,17.22731,17.199623,17.18728,17.19427,17.210995,17.225002,17.237028,17.243172,17.2459,17.252508,17.25672,17.25516,17.242073,17.224232,17.20601,17.18159,17.15356,17.087969,16.938696,16.769558
14.668419,14.79916,14.912948,15.0181055,15.126776,15.233844,15.340154,15.453552,15.567816,15.667486,15.731928,15.761984,15.775061,15.787501,15.811874,15.772329,15.647371,15.554292,15.544479,15.6521845,15.8853655,16.25997,16.674677,16.94785,17.118343,17.278294,17.434105,17.595535,17.767834,17.941801,18.118858,18.30068,18.483418,18.66159,18.827225,18.979364,19.115349,19.250711,19.416292,19.57514,19.736025,19.897213,20.054794,20.213343,20.374016,20.538843,20.711561,20.891508,21.074682,21.257946,21.438082,21.616415,21.795004,21.979221,22.172113,22.37026,22.5722,22.773144,22.97316,23.176407,23.381592,23.588535,23.79775,24.010052,24.22721,24.445995,24.662271,24.87384,25.079277,25.277708,25.477291,25.684057,25.90182,26.13114,26.361864,26.595367,26.85012,27.117249,27.393885,27.671679,27.941536,28.204193,28.468647,28.7459,29.043722,29.365793,29.709412,30.071365,30.44879,30.822021,31.177982,31.510773,31.819244,32.14014,32.490856,32.877388,33.296246,33.728035,34.17177,34.56931,34.896763,35.21803,35.53142,35.8245,36.088184,36.308823,36.481678,36.604687,36.67641,36.70112,36.654495,36.513924,36.23279,35.940495,35.760662,35.674786,35.61923,35.539814,35.411415,35.279915,35.206985,35.20228,35.249897,35.31455,35.37616,35.450085,35.547726,35.671032,35.786972,35.873337,35.933258,35.995518,36.08364,36.210247,36.365902,36.52309,36.66182,36.769054,36.855225,36.93431,37.01162,37.08559,37.15168,37.208763,37.261944,37.314198,37.359665,37.390602,37.407883,37.41336,37.406803,37.372604,37.286438,37.157204,37.014347,36.899723,36.85497,36.85434,36.843304,36.787075,36.687386,36.6091,36.614044,36.677803,36.74781,36.73515,36.613625,36.44595,36.29632,36.203995,36.150436,36.092194,36.005486,35.899155,35.78895,35.69858,35.62256,35.547916,35.4663,35.378513,35.27813,35.15328,35.007263,34.857056,34.72119,34.611893,34.527138,34.45755,34.389233,34.3157,34.229473,34.13514,34.03209,33.91594,33.79088,33.672573,33.605476,33.69533,34.067917,34.69603,35.347916,35.82315,36.125786,36.190907,36.057636,35.85436,35.642185,35.431152,35.174118,34.78525,34.293663,33.733025,33.181854,32.650814,32.129395,31.615234,31.04729,30.288376,29.40276,28.641018,27.99461,27.152884,26.108402,24.81741,23.627434,22.765306,22.214258,21.82671,21.460335,21.183865,21.347837,21.773762,22.462154,22.964165,22.968323,22.96075,22.879206,22.770203,22.652807,22.55707,22.466686,22.322388,22.074108,21.597242,20.93751,19.600605,18.336723,17.323107,16.676945,16.260288,15.900232,15.616717,15.562759,15.707857,16.061544,16.801138,17.843353,18.67252,19.102688,19.379536,19.594069,19.736382,19.799595,19.795424,19.703545,19.556116,19.3748,19.173508,18.947672,18.698053,18.44226,18.20352,17.884438,17.583706,17.44405,17.414906,17.433136,17.427881,17.38901,17.343487,17.306786,17.27286,17.247131,17.23653,17.238401,17.244957,17.248106,17.2277,17.196835,17.18082,17.18708,17.205786,17.226162,17.248343,17.266474,17.282637,17.272709,17.263863,17.258862,17.250156,17.232494,17.205856,17.17785,17.14177,17.082394,16.94182,16.74622
14.565774,14.718724,14.856762,14.983177,15.10998,15.243693,15.36018,15.478738,15.59309,15.688832,15.74609,15.763824,15.7602415,15.763248,15.78296,15.765626,15.669188,15.591656,15.595396,15.705079,15.940908,16.28757,16.670546,16.91208,17.087975,17.253294,17.413906,17.57716,17.749262,17.923246,18.101242,18.284199,18.46846,18.648193,18.81574,18.968819,19.11639,19.264399,19.41786,19.580553,19.742764,19.902328,20.057478,20.212936,20.370897,20.534367,20.706905,20.887049,21.070877,21.254406,21.435259,21.614883,21.794752,21.980366,22.174046,22.372238,22.572035,22.768967,22.967909,23.170048,23.374813,23.58286,23.794846,24.010773,24.231138,24.450756,24.665323,24.873579,25.075554,25.271622,25.47009,25.67667,25.894505,26.123514,26.354538,26.593973,26.845972,27.10955,27.382662,27.656893,27.92315,28.182137,28.442848,28.716597,29.012115,29.330225,29.67199,30.036924,30.415033,30.786306,31.142239,31.475761,31.789494,32.113968,32.46891,32.864525,33.289932,33.72898,34.153748,34.51011,34.83294,35.166183,35.48629,35.77942,36.03625,36.242752,36.40003,36.509697,36.57291,36.592316,36.53969,36.419342,36.223637,35.942085,35.76271,35.67023,35.59991,35.50955,35.36008,35.193542,35.082275,35.04698,35.083794,35.159622,35.2523,35.359127,35.47642,35.59912,35.700417,35.772495,35.82727,35.895878,35.998142,36.13948,36.30562,36.46651,36.604748,36.71134,36.79981,36.885532,36.970123,37.05097,37.117374,37.170086,37.21807,37.266586,37.31235,37.347588,37.368572,37.376225,37.369957,37.339085,37.26644,37.15634,37.033337,36.93207,36.88405,36.866005,36.830685,36.75454,36.65065,36.577915,36.59039,36.655613,36.71661,36.688473,36.556664,36.388504,36.24076,36.14661,36.092968,36.037697,35.957024,35.860687,35.761593,35.676834,35.600246,35.519398,35.431606,35.344753,35.252197,35.140594,35.009396,34.872543,34.744484,34.636185,34.546135,34.46489,34.379105,34.28518,34.18515,34.08724,33.98717,33.87442,33.745434,33.617928,33.54096,33.623745,33.994427,34.618465,35.253613,35.788815,36.146214,36.25029,36.12563,35.91079,35.677406,35.447567,35.176815,34.76797,34.242825,33.61,32.956825,32.277115,31.506273,30.508171,29.43414,27.998156,26.519222,25.131884,23.447247,21.480919,19.402302,18.131174,17.638237,17.49234,17.506844,17.468962,17.389688,17.30188,17.313389,17.60564,18.493383,20.113857,21.635494,22.156773,22.26224,22.30969,22.295578,22.243443,22.167568,22.01959,21.739483,21.237633,20.439741,18.93265,17.063559,15.714126,15.138752,14.806677,14.595431,14.483469,14.472591,14.60326,14.938724,15.50206,16.66416,17.903086,18.587992,18.955566,19.26464,19.545542,19.748585,19.856264,19.811872,19.667925,19.462341,19.228664,18.982248,18.718208,18.449255,18.198032,17.921255,17.644169,17.483534,17.445408,17.456163,17.433697,17.384289,17.333717,17.292162,17.25574,17.225714,17.211197,17.210468,17.214533,17.225262,17.228664,17.201979,17.182493,17.18527,17.203077,17.225803,17.254576,17.274454,17.268888,17.26123,17.257254,17.25521,17.24711,17.228315,17.199127,17.166056,17.12228,17.065945,16.930986,16.719982
14.452031,14.6193695,14.781313,14.935303,15.090458,15.2515335,15.383722,15.50805,15.618238,15.704824,15.754211,15.765694,15.745727,15.735071,15.750323,15.751711,15.685643,15.635633,15.647552,15.76316,15.994433,16.3111,16.659388,16.871704,17.05376,17.224522,17.39066,17.558813,17.733292,17.908283,18.086515,18.269234,18.452965,18.632647,18.800861,18.955875,19.106224,19.257626,19.417425,19.583954,19.747395,19.905924,20.058899,20.212833,20.369577,20.532854,20.705717,20.886354,21.069983,21.253765,21.436441,21.618788,21.801876,21.990341,22.185162,22.382088,22.577599,22.772423,22.969412,23.170275,23.374784,23.584034,23.798862,24.018871,24.243412,24.465313,24.679718,24.88582,25.085209,25.279377,25.477114,25.683819,25.903288,26.133871,26.373735,26.61399,26.86186,27.120691,27.388283,27.656414,27.916132,28.168497,28.423038,28.691544,28.982246,29.29195,29.630077,29.995308,30.369902,30.743172,31.103401,31.44339,31.766088,32.103508,32.47341,32.878937,33.30693,33.733376,34.099472,34.418983,34.759113,35.10446,35.43369,35.73056,35.983753,36.179024,36.32408,36.42428,36.483696,36.50434,36.452957,36.33228,36.17439,35.946144,35.760857,35.66241,35.579594,35.472317,35.30812,35.11476,34.962738,34.892788,34.914528,34.99848,35.122704,35.266605,35.409775,35.538147,35.62648,35.68397,35.732353,35.8053,35.919613,36.073135,36.24672,36.408005,36.542286,36.64492,36.732395,36.821465,36.910114,36.992626,37.056664,37.102684,37.143356,37.186398,37.23088,37.2693,37.293713,37.302395,37.295822,37.26629,37.206417,37.118973,37.019215,36.934406,36.886406,36.85416,36.798077,36.705647,36.60061,36.53712,36.561424,36.633907,36.691067,36.65271,36.518272,36.35036,36.204983,36.11231,36.05909,36.003883,35.92513,35.833782,35.74092,35.658985,35.58064,35.494003,35.401024,35.316494,35.23499,35.1431,35.03492,34.91856,34.801884,34.691616,34.586926,34.483696,34.3685,34.24794,34.13176,34.02555,33.92674,33.819336,33.69174,33.563633,33.48745,33.572105,33.957523,34.575363,35.197887,35.800606,36.21315,36.339584,36.229454,36.01271,35.7505,35.494026,35.201283,34.746563,34.181057,33.44751,32.65393,31.672722,30.383024,29.056519,27.058212,25.033148,23.281055,20.862803,18.5064,17.09325,16.399483,16.012371,15.902019,15.972668,16.040691,16.048592,15.996042,15.918842,15.876907,15.972775,16.440987,17.34689,19.091913,21.002726,21.600357,21.747215,21.845093,21.849192,21.795197,21.631077,21.33148,20.777206,19.684576,17.778446,15.6546,14.819567,14.384605,14.064567,13.860287,13.751709,13.7530575,13.895218,14.183975,14.605038,15.212814,16.426964,17.505432,18.23253,18.784899,19.232899,19.627905,19.89121,19.922636,19.81688,19.594303,19.312477,19.030699,18.756351,18.471422,18.198914,17.96202,17.714767,17.53384,17.480509,17.466711,17.421673,17.370811,17.320126,17.276413,17.23635,17.2026,17.184158,17.179941,17.181803,17.188913,17.205107,17.210089,17.194845,17.19114,17.202848,17.223186,17.247911,17.251732,17.248844,17.245562,17.244827,17.244617,17.236292,17.215267,17.182796,17.144367,17.09433,17.033346,16.901197,16.696278
14.329008,14.518716,14.705014,14.887258,15.074802,15.268156,15.415164,15.543736,15.64884,15.724276,15.759728,15.762085,15.729178,15.703919,15.712968,15.734596,15.695523,15.67315,15.706475,15.826735,16.038195,16.32079,16.627554,16.824259,17.012547,17.19173,17.36682,17.54171,17.720026,17.897081,18.075626,18.25797,18.441206,18.620272,18.788214,18.944374,19.09711,19.252287,19.415731,19.58415,19.747278,19.90422,20.055702,20.208752,20.367285,20.532053,20.70564,20.88565,21.06805,21.252235,21.437248,21.62409,21.812866,22.005276,22.200577,22.39457,22.586689,22.778301,22.972883,23.172327,23.376465,23.58638,23.803053,24.026152,24.2541,24.477997,24.692345,24.896456,25.093414,25.28588,25.485195,25.694954,25.924517,26.166555,26.407343,26.646769,26.892143,27.146816,27.409096,27.671125,27.924042,28.169521,28.418247,28.681812,28.962505,29.266552,29.601915,29.962086,30.334326,30.71262,31.083815,31.439514,31.782108,32.143143,32.5357,32.951992,33.36045,33.70725,34.007614,34.34085,34.68937,35.046444,35.38704,35.69061,35.94326,36.130623,36.266823,36.36117,36.420612,36.445694,36.398968,36.276325,36.126255,35.9505,35.754143,35.642986,35.549175,35.42284,35.24371,35.028072,34.84032,34.73607,34.742,34.83287,34.989758,35.175278,35.352947,35.49172,35.569607,35.61158,35.65085,35.724083,35.84485,36.004257,36.17974,36.337418,36.464695,36.56092,36.64456,36.733562,36.821274,36.901413,36.961327,36.999973,37.0328,37.06915,37.110283,37.149464,37.17614,37.1864,37.17986,37.152668,37.102943,37.037254,36.961823,36.893757,36.846977,36.803005,36.72924,36.623466,36.51928,36.46655,36.505283,36.588345,36.644833,36.60953,36.479107,36.316826,36.176888,36.087086,36.033745,35.975964,35.89513,35.802704,35.70953,35.6269,35.546734,35.457638,35.364716,35.28861,35.226288,35.164486,35.09063,35.002895,34.897533,34.779076,34.645752,34.503048,34.354713,34.208035,34.074318,33.95918,33.85941,33.75609,33.636948,33.51913,33.45875,33.56849,33.97343,34.574677,35.216335,35.895638,36.297714,36.3518,36.295715,36.15005,35.8782,35.587826,35.241447,34.73232,34.129753,33.267235,32.29155,30.817568,29.35834,27.498127,25.273256,23.342094,20.78842,18.474115,17.067823,16.207975,15.808519,15.722993,15.722041,15.709487,15.707675,15.699064,15.625391,15.503452,15.392605,15.383427,15.570379,16.089989,16.974112,18.73885,20.514101,21.072979,21.255375,21.343077,21.304832,21.144146,20.827833,20.200993,18.849648,16.409626,14.870077,14.22802,13.861682,13.6736965,13.579883,13.519893,13.506586,13.556236,13.732733,14.0383005,14.432485,14.960276,15.8522625,16.838999,17.871655,18.736893,19.400812,19.896275,19.966852,19.938627,19.767477,19.43014,19.105137,18.815184,18.524313,18.230734,17.964878,17.763609,17.602652,17.50974,17.451397,17.402075,17.354404,17.304703,17.260002,17.21751,17.180502,17.157743,17.148993,17.148561,17.155563,17.16958,17.186855,17.19692,17.198273,17.203283,17.211105,17.220089,17.225529,17.22752,17.22744,17.228485,17.227737,17.216328,17.19039,17.152712,17.10819,17.052717,16.988956,16.863152,16.674131
14.189019,14.415039,14.636774,14.850412,15.065116,15.2869005,15.453745,15.582208,15.680533,15.743605,15.765342,15.755894,15.713774,15.675394,15.67482,15.708656,15.697027,15.700239,15.755229,15.875979,16.066618,16.319412,16.577513,16.776161,16.97017,17.15903,17.344978,17.528797,17.712702,17.892862,18.072575,18.254879,18.43752,18.615698,18.783104,18.939924,19.094517,19.252737,19.41881,19.588589,19.751127,19.905766,20.054665,20.205385,20.36356,20.53009,20.704948,20.885677,21.068233,21.252407,21.43842,21.627962,21.82187,22.01854,22.215023,22.407356,22.596502,22.785156,22.978033,23.17657,23.380398,23.590212,23.807194,24.031712,24.261683,24.48687,24.70095,24.90282,25.09923,25.292921,25.502142,25.725641,25.962296,26.210901,26.45658,26.697851,26.942299,27.193861,27.452108,27.709717,27.957888,28.199085,28.444561,28.701645,28.978916,29.28378,29.617945,29.969278,30.342201,30.723984,31.102512,31.469416,31.827887,32.210392,32.6256,33.028946,33.35809,33.651173,33.96369,34.30521,34.66928,35.04693,35.410526,35.732674,35.993866,36.178772,36.31108,36.40275,36.463802,36.492214,36.446762,36.31955,36.156143,35.993763,35.84983,35.7225,35.606174,35.454006,35.238647,35.00239,34.783943,34.640167,34.615242,34.699345,34.876442,35.095093,35.304302,35.45382,35.523247,35.55038,35.579414,35.649784,35.772415,35.933582,36.10813,36.262432,36.385414,36.47807,36.5599,36.648457,36.735172,36.810055,36.86467,36.89679,36.92279,36.95322,36.991127,37.030853,37.06044,37.074318,37.069706,37.045776,37.00518,36.953346,36.896305,36.840485,36.791367,36.734608,36.645336,36.530098,36.42832,36.38661,36.44004,36.534348,36.59524,36.57216,36.452927,36.301968,36.171642,36.08701,36.034542,35.974506,35.891582,35.795322,35.69739,35.611256,35.527843,35.435837,35.34295,35.275627,35.234844,35.204838,35.16424,35.10089,34.9983,34.86323,34.702858,34.5297,34.352837,34.185028,34.04098,33.924713,33.830868,33.740498,33.640553,33.549824,33.528316,33.682274,34.090374,34.63676,35.355515,36.071537,36.38997,36.400433,36.35434,36.251442,36.020855,35.681633,35.229145,34.691902,34.100224,33.112263,31.91344,30.187662,28.6335,26.739407,24.47235,22.528627,19.755754,17.704405,16.546482,15.948547,15.678389,15.58378,15.5501995,15.549105,15.539651,15.498205,15.39754,15.268784,15.200327,15.122414,15.123854,15.376942,15.918107,16.837057,18.624802,20.060888,20.53561,20.747574,20.751873,20.598541,20.26909,19.387814,17.754475,15.390137,14.341444,13.800781,13.5900345,13.514001,13.4106,13.338797,13.318686,13.356302,13.452245,13.635807,13.913439,14.239559,14.659967,15.305496,16.32035,17.950212,19.01148,19.84124,19.931437,19.855608,19.927702,19.569073,19.195389,18.885057,18.590992,18.284006,17.990059,17.76078,17.602066,17.490377,17.427902,17.38262,17.337492,17.28939,17.244905,17.201529,17.162718,17.136702,17.124279,17.121962,17.12852,17.143452,17.16364,17.1744,17.172632,17.17631,17.183151,17.194721,17.204292,17.21108,17.212538,17.211506,17.2036,17.181532,17.144606,17.098408,17.047998,16.98983,16.929527,16.814236,16.64865
14.158986,14.326543,14.576068,14.824841,15.051023,15.288917,15.481114,15.6072035,15.701545,15.756246,15.767846,15.747349,15.697202,15.6449375,15.634875,15.665181,15.684672,15.711347,15.780688,15.901365,16.075432,16.302496,16.526335,16.725399,16.925837,17.12535,17.32369,17.518192,17.70932,17.893768,18.075304,18.257883,18.44019,18.617725,18.784685,18.941896,19.097775,19.258415,19.42647,19.597078,19.758457,19.910227,20.0562,20.20433,20.36178,20.52885,20.704676,20.885883,21.067562,21.250643,21.436632,21.62776,21.825136,22.025068,22.22356,22.415968,22.603289,22.790096,22.98271,23.181595,23.385939,23.59565,23.812073,24.036766,24.267363,24.493132,24.708944,24.911383,25.113033,25.317307,25.53204,25.76352,26.011099,26.270876,26.52424,26.768887,27.01304,27.261814,27.51713,27.772617,28.01884,28.257507,28.4985,28.755333,29.037262,29.345192,29.67307,30.02228,30.39406,30.773102,31.148272,31.51352,31.876036,32.27041,32.67783,33.02185,33.329704,33.636597,33.953884,34.309196,34.701626,35.119614,35.508316,35.84028,36.11727,36.326134,36.459534,36.545235,36.602715,36.62793,36.576134,36.437817,36.258995,36.079807,35.962906,35.879807,35.757652,35.579075,35.31886,35.034286,34.789295,34.608784,34.543915,34.603096,34.78085,35.016853,35.24198,35.396717,35.458588,35.474026,35.493084,35.55799,35.679417,35.840843,36.014614,36.168427,36.293133,36.388866,36.474262,36.56545,36.652557,36.72435,36.774,36.801403,36.822765,36.84988,36.886578,36.92858,36.962887,36.982777,36.9831,36.964054,36.930626,36.88756,36.836945,36.782356,36.72331,36.64948,36.54602,36.428566,36.3343,36.304478,36.369907,36.469994,36.54553,36.542694,36.440865,36.30369,36.18545,36.10782,36.058384,35.999493,35.912674,35.811012,35.70783,35.613804,35.5231,35.42392,35.325737,35.26339,35.23828,35.233414,35.213825,35.169346,35.080757,34.940475,34.758244,34.556602,34.358322,34.18154,34.040466,33.93574,33.858635,33.79093,33.72454,33.679,33.703926,33.88395,34.26029,34.81521,35.59674,36.20695,36.398716,36.46131,36.41395,36.281685,36.031345,35.646183,35.16685,34.596138,34.020515,33.013973,31.643934,29.7749,28.151257,26.469442,24.365427,22.08574,19.12652,17.237385,16.207249,15.7200165,15.53734,15.467056,15.421889,15.388581,15.376488,15.347479,15.252769,15.116124,14.987671,14.941728,14.989352,15.05497,15.355106,15.847707,16.852634,18.62013,19.67608,20.054638,20.156643,20.019335,19.594341,18.687796,16.686413,14.889353,13.93244,13.559011,13.468401,13.367159,13.292448,13.247063,13.224562,13.236241,13.287632,13.378189,13.545908,13.784605,14.0289135,14.354483,15.063377,16.655285,18.485432,19.80969,19.925644,19.87418,19.930077,19.706333,19.291748,18.95753,18.657639,18.339443,18.026817,17.769592,17.588486,17.46862,17.405235,17.362072,17.318983,17.272715,17.228857,17.18593,17.147272,17.119375,17.10418,17.10061,17.10715,17.123735,17.145288,17.15533,17.151293,17.151985,17.158762,17.17376,17.18801,17.199722,17.200111,17.190924,17.166561,17.1232,17.071957,17.015438,16.960062,16.903456,16.848377,16.744364,16.616526
14.329176,14.412888,14.567531,14.796517,15.046568,15.28074,15.488377,15.619264,15.708123,15.761599,15.76944,15.741116,15.683277,15.616434,15.594311,15.621422,15.66802,15.715139,15.79598,15.917473,16.078972,16.280535,16.476557,16.676512,16.883633,17.093925,17.30484,17.510483,17.70929,17.898453,18.082138,18.265429,18.447903,18.625448,18.792267,18.949432,19.10561,19.267323,19.4362,19.606901,19.766796,19.915644,20.058668,20.204182,20.360754,20.52817,20.704605,20.88578,21.06599,21.247356,21.432367,21.624178,21.823696,22.025972,22.22637,22.419607,22.606789,22.793884,22.988016,23.18848,23.393806,23.602646,23.816605,24.040142,24.272808,24.503084,24.727463,24.939848,25.144356,25.349754,25.570503,25.812717,26.073326,26.346178,26.608385,26.856415,27.099619,27.344921,27.597713,27.852644,28.098812,28.336782,28.581371,28.843046,29.12861,29.433226,29.757797,30.103416,30.466097,30.831196,31.188301,31.542385,31.905775,32.296375,32.669674,33.01748,33.35804,33.68704,34.028366,34.40554,34.78837,35.17974,35.517803,35.797344,36.080395,36.361362,36.54072,36.658707,36.73856,36.77481,36.7315,36.593056,36.38936,36.18835,36.041782,35.94645,35.867058,35.72504,35.449787,35.119747,34.82144,34.61422,34.52145,34.547653,34.704815,34.931526,35.15465,35.307293,35.36344,35.371468,35.38313,35.441914,35.559013,35.71924,35.89496,36.05275,36.18488,36.29083,36.385773,36.48319,36.572937,36.644093,36.691242,36.71577,36.735397,36.7632,36.803463,36.852577,36.8961,36.92556,36.93491,36.922253,36.892876,36.85106,36.797356,36.733177,36.656937,36.563503,36.44553,36.323036,36.240784,36.224594,36.296787,36.402985,36.496517,36.514008,36.439655,36.326122,36.22274,36.154976,36.109756,36.04815,35.955364,35.84603,35.73397,35.627216,35.517902,35.40371,35.295288,35.232285,35.21312,35.21981,35.22217,35.20508,35.130405,34.98655,34.79697,34.590553,34.394547,34.227997,34.10003,34.008663,33.946877,33.901955,33.874218,33.877502,33.934143,34.105923,34.495293,35.115433,35.80958,36.221283,36.401108,36.4798,36.39029,36.210735,35.925907,35.528477,35.054493,34.46831,33.817184,32.945374,31.621572,29.624779,27.849373,26.247332,24.475147,21.79082,18.495953,16.708847,15.901077,15.588059,15.450984,15.332834,15.277821,15.26329,15.254813,15.227049,15.146648,15.03004,14.91361,14.835178,14.821832,14.88423,15.016046,15.357694,15.886192,17.200527,18.74859,19.344513,19.508757,19.393215,18.930246,17.96003,15.838718,14.483223,13.670693,13.435093,13.348551,13.263538,13.229795,13.195835,13.1718855,13.171106,13.197991,13.247128,13.317327,13.441056,13.62884,13.838217,14.278387,15.2934065,17.824629,19.579235,19.893255,19.860039,19.881952,19.824425,19.394981,19.036564,18.7236,18.394173,18.058159,17.786005,17.584885,17.44844,17.383888,17.34257,17.300407,17.25489,17.21084,17.168962,17.131847,17.102903,17.08533,17.080557,17.086994,17.105537,17.128586,17.135056,17.128527,17.130175,17.139837,17.160444,17.178219,17.191147,17.18097,17.14957,17.091854,17.015877,16.914202,16.831923,16.779476,16.741762,16.697626,16.619684,16.565718
14.434441,14.564175,14.695854,14.794365,15.022591,15.277137,15.483629,15.630635,15.713247,15.766415,15.774067,15.739002,15.672722,15.596471,15.556849,15.576017,15.637494,15.708793,15.802456,15.923773,16.074577,16.245966,16.428585,16.629704,16.844038,17.064137,17.285883,17.501997,17.708012,17.90157,18.087418,18.271603,18.454582,18.632542,18.799099,18.9554,19.110435,19.271492,19.439905,19.610102,19.76863,19.915106,20.05576,20.199083,20.35491,20.5229,20.700394,20.881811,21.060766,21.240437,21.423885,21.61484,21.814596,22.017351,22.218826,22.413519,22.602211,22.791681,22.988432,23.190722,23.396723,23.605883,23.81977,24.044735,24.284616,24.52639,24.757086,24.97137,25.178679,25.387985,25.615414,25.868368,26.141714,26.427004,26.697084,26.946384,27.1855,27.424623,27.67315,27.926228,28.173836,28.41644,28.665066,28.927515,29.208881,29.513508,29.837132,30.175814,30.522938,30.867855,31.202383,31.54055,31.896656,32.27456,32.665012,33.06157,33.446556,33.78107,34.08647,34.411263,34.67558,34.93097,35.225822,35.524246,35.811016,36.069065,36.303513,36.493423,36.622223,36.69569,36.704105,36.615093,36.426098,36.212822,36.038162,35.91762,35.80696,35.68816,35.48963,35.150578,34.82379,34.58576,34.46891,34.4768,34.607525,34.80888,35.019527,35.17076,35.22649,35.23574,35.245472,35.29975,35.411682,35.57029,35.750553,35.918446,36.0625,36.181763,36.288464,36.392624,36.484657,36.55498,36.597954,36.619637,36.639435,36.672493,36.72221,36.78467,36.84315,36.885597,36.904465,36.89848,36.87155,36.82467,36.759415,36.67789,36.57982,36.466515,36.335957,36.211357,36.138252,36.135296,36.213806,36.328655,36.43574,36.47364,36.430737,36.347404,36.264336,36.20354,36.154564,36.084705,35.983288,35.863552,35.738228,35.612247,35.477882,35.344658,35.22779,35.162056,35.143284,35.158943,35.17999,35.18457,35.110477,34.959362,34.778942,34.5946,34.42392,34.27814,34.156834,34.060883,33.994846,33.95805,33.957767,33.997616,34.12467,34.375656,34.820343,35.36286,35.834473,36.180958,36.463966,36.53481,36.35913,36.100906,35.786057,35.41933,35.026176,34.471615,33.731953,32.79403,31.633862,29.775919,27.896221,26.36481,24.466583,21.325237,17.821686,16.283875,15.673019,15.435129,15.259225,15.172739,15.144602,15.118172,15.090608,15.054667,14.992407,14.912153,14.834984,14.777079,14.742366,14.750555,14.843267,15.0733795,15.484054,16.343927,17.819786,18.758905,18.98819,18.862343,18.403303,17.276178,15.321487,14.169395,13.512319,13.344445,13.238941,13.198292,13.179236,13.146954,13.120206,13.116331,13.138964,13.1785345,13.2226515,13.2697935,13.379725,13.553396,13.847162,14.601746,16.879604,19.0521,19.884356,19.827164,19.83054,19.87231,19.530182,19.139774,18.796911,18.453287,18.100237,17.809576,17.58722,17.436178,17.37252,17.332855,17.288992,17.24191,17.195335,17.153778,17.118235,17.088022,17.067316,17.060085,17.06492,17.084728,17.105894,17.108171,17.104078,17.110542,17.126673,17.154924,17.174955,17.180344,17.14069,17.0657,16.955833,16.768011,16.547554,16.413837,16.383543,16.407413,16.437334,16.451717,16.485294
14.490311,14.539946,14.68819,14.88508,14.997264,15.228502,15.435154,15.638902,15.72336,15.775773,15.779329,15.73753,15.662704,15.579878,15.5236225,15.532818,15.592792,15.680427,15.783765,15.900755,16.039433,16.20043,16.381655,16.584097,16.805086,17.033428,17.26453,17.489885,17.702692,17.900629,18.088615,18.273598,18.456873,18.635115,18.801146,18.95607,19.109207,19.268545,19.43587,19.605421,19.763002,19.908,20.04713,20.189058,20.34505,20.514433,20.69355,20.876143,21.055178,21.233854,21.41518,21.603783,21.801304,22.005478,22.20917,22.405287,22.59522,22.787384,22.988434,23.195742,23.40635,23.61991,23.838346,24.06652,24.306671,24.550415,24.78644,25.006123,25.218067,25.431656,25.665182,25.92742,26.21179,26.50778,26.782068,27.029686,27.26262,27.494724,27.7393,27.99213,28.239422,28.479202,28.722137,28.980164,29.258184,29.55849,29.87814,30.212883,30.55833,30.887468,31.203413,31.528772,31.883204,32.281754,32.71737,33.118084,33.430542,33.683846,33.89676,34.155205,34.457855,34.841747,35.243267,35.597008,35.8846,36.09525,36.243607,36.341686,36.393433,36.426113,36.413395,36.37818,36.269276,36.030247,35.812744,35.665405,35.52423,35.35588,35.144035,34.84691,34.56688,34.36904,34.278103,34.297256,34.428467,34.628452,34.842514,35.0079,35.081867,35.10475,35.12247,35.178272,35.28764,35.44599,35.631973,35.81267,35.972256,36.102608,36.215244,36.31958,36.406967,36.469013,36.5053,36.524593,36.547726,36.591393,36.656998,36.738907,36.81674,36.87295,36.897827,36.89396,36.86406,36.80681,36.72395,36.62101,36.50145,36.371674,36.23281,36.109688,36.04946,36.06128,36.15008,36.2734,36.386368,36.441586,36.426414,36.36849,36.299915,36.23841,36.177006,36.09113,35.97452,35.83874,35.696487,35.553978,35.411335,35.27682,35.165222,35.108864,35.102947,35.135494,35.171852,35.163006,35.080704,34.95016,34.785015,34.606598,34.436405,34.287624,34.16104,34.06612,34.00847,33.993668,34.03753,34.136703,34.32695,34.625378,34.998108,35.371246,35.824284,36.31742,36.60688,36.613617,36.416397,36.14773,35.847744,35.52016,35.154037,34.60392,33.836662,32.789997,31.639442,30.194206,28.587177,26.810808,24.234379,20.62997,17.127127,15.9997015,15.529174,15.265327,15.124508,15.088471,15.060335,15.011918,14.958893,14.908822,14.857022,14.806108,14.766694,14.737339,14.706221,14.682545,14.703274,14.862087,15.241965,15.836966,17.070238,18.208544,18.531698,18.399681,17.973269,16.693634,15.01523,13.968762,13.442716,13.285493,13.177858,13.160325,13.147255,13.113045,13.083403,13.0802145,13.106618,13.1496315,13.187449,13.214948,13.246071,13.359092,13.619021,14.168148,15.818794,18.432571,19.820503,19.741909,19.768267,19.799545,19.669136,19.304564,18.906456,18.532167,18.161226,17.848236,17.59316,17.429956,17.366253,17.323645,17.275496,17.224916,17.174118,17.131336,17.096832,17.064968,17.040403,17.029661,17.031698,17.051636,17.07449,17.079603,17.081116,17.09562,17.120413,17.15837,17.174324,17.149685,17.061779,16.932812,16.680996,16.292381,16.050741,15.92664,15.927001,16.016073,16.14224,16.256844,16.38346
13.86017,14.665529,14.7062645,14.837533,15.046459,15.18546,15.352973,15.579222,15.738939,15.78598,15.785103,15.734339,15.651669,15.565318,15.499819,15.489283,15.544962,15.6332445,15.736622,15.854628,15.994482,16.154934,16.333567,16.538034,16.763117,16.99846,17.23796,17.47094,17.690613,17.893398,18.083897,18.26945,18.452394,18.630362,18.795494,18.94885,19.09977,19.25667,19.422092,19.590721,19.7477,19.892174,20.030964,20.172823,20.329733,20.500605,20.681324,20.86567,21.045557,21.225275,21.407228,21.596464,21.794962,22.002636,22.209366,22.406395,22.596794,22.791231,22.997976,23.213264,23.431152,23.644844,23.857811,24.08248,24.32235,24.569836,24.811672,25.037075,25.253977,25.47166,25.710125,25.979786,26.27157,26.572563,26.84721,27.090584,27.320244,27.54902,27.790905,28.039856,28.279413,28.511833,28.74823,28.996834,29.265564,29.559183,29.87904,30.228783,30.57434,30.880898,31.178518,31.511425,31.884026,32.296837,32.716187,33.00161,33.19043,33.468353,33.808216,34.185654,34.572884,34.96781,35.342342,35.663055,35.907524,36.098732,36.25319,36.371006,36.412865,36.308064,36.17661,36.03282,35.74269,35.332294,35.03682,34.84259,34.661213,34.4503,34.2408,34.05475,33.915634,33.847687,33.86412,33.963287,34.14526,34.37902,34.618546,34.810345,34.926617,34.983135,35.022198,35.090378,35.203987,35.365234,35.557426,35.749245,35.921257,36.05774,36.166992,36.25878,36.329353,36.375835,36.4021,36.419,36.447784,36.505814,36.591328,36.696083,36.793434,36.861954,36.89475,36.888447,36.845802,36.773193,36.671555,36.548573,36.412617,36.271034,36.13157,36.01968,35.977318,36.008465,36.109726,36.23616,36.34871,36.412464,36.412697,36.36741,36.306442,36.24283,36.168064,36.062187,35.923157,35.767204,35.613125,35.472515,35.342144,35.228672,35.14201,35.111786,35.12953,35.163708,35.178585,35.139923,35.076614,34.97884,34.835495,34.665077,34.486702,34.317516,34.166843,34.051537,33.98256,33.96793,34.03047,34.16313,34.38065,34.688953,34.961002,35.3408,35.9343,36.414185,36.620113,36.60082,36.412666,36.161865,35.89786,35.614082,35.275993,34.732174,33.962234,32.86756,31.662697,30.5182,29.235209,27.078835,23.644482,19.636612,16.584528,15.7868805,15.39286,15.150288,15.073844,15.065154,15.031181,14.958502,14.879221,14.811348,14.758952,14.721602,14.704675,14.697425,14.674982,14.637497,14.6209955,14.700228,15.001728,15.470616,16.49842,17.691412,18.119114,18.016521,17.579987,16.232113,14.805185,13.854471,13.4032955,13.229729,13.153979,13.144384,13.129385,13.089312,13.055582,13.052856,13.083767,13.134849,13.17925,13.203585,13.211274,13.245192,13.495359,13.932341,15.096497,17.77008,19.438232,19.670715,19.69646,19.652187,19.627056,19.462376,19.108778,18.664236,18.236221,17.878473,17.59977,17.428469,17.35656,17.305635,17.251343,17.196754,17.142008,17.098465,17.065609,17.034908,17.009375,16.992973,16.989838,17.008121,17.036182,17.053476,17.063398,17.089361,17.126522,17.163616,17.150497,17.081509,16.939701,16.709095,16.241331,15.838259,15.61973,15.524508,15.549035,15.656841,15.840021,16.04575,16.260286
11.300385,13.87195,14.810252,14.902977,15.013784,15.192189,15.377362,15.485031,15.671828,15.803094,15.789241,15.735138,15.646653,15.558585,15.48701,15.460609,15.503021,15.585212,15.687621,15.806134,15.947525,16.11114,16.28662,16.490627,16.717403,16.956772,17.201542,17.44065,17.66729,17.87596,18.071583,18.261227,18.44629,18.625298,18.789536,18.94099,19.089674,19.244854,19.409534,19.577662,19.733067,19.874926,20.011812,20.153046,20.31159,20.486084,20.671778,20.86111,21.044601,21.227486,21.41198,21.60417,21.80707,22.012901,22.218126,22.416088,22.609997,22.808191,23.018185,23.23412,23.450064,23.660248,23.869514,24.091555,24.330917,24.581022,24.827545,25.058308,25.280544,25.503069,25.746403,26.018969,26.311659,26.610304,26.883385,27.121883,27.348402,27.575573,27.813705,28.054806,28.283794,28.50341,28.725319,28.962614,29.22899,29.531044,29.884052,30.258825,30.588493,30.898376,31.208494,31.533245,31.881884,32.286526,32.673817,32.892796,33.1756,33.52928,33.871925,34.242226,34.648777,34.94465,35.17975,35.384556,35.517525,35.624393,35.66446,35.62378,35.515606,35.21061,34.9017,34.521896,34.088734,33.608723,33.264526,33.07207,32.991203,32.948456,32.90552,32.90139,32.957752,33.06558,33.23244,33.456734,33.72772,34.023724,34.306023,34.53402,34.693626,34.80311,34.884422,34.982727,35.115833,35.29023,35.49371,35.69789,35.88022,36.017174,36.114403,36.183704,36.22896,36.25553,36.27132,36.28808,36.32575,36.401077,36.508385,36.63583,36.75128,36.830063,36.866295,36.85491,36.79812,36.705185,36.583435,36.443443,36.29766,36.15502,36.02504,35.9328,35.91713,35.971245,36.081116,36.204308,36.308735,36.365334,36.36303,36.321144,36.25874,36.185272,36.093616,35.968037,35.811222,35.646816,35.500305,35.38935,35.302494,35.23359,35.185013,35.16604,35.16651,35.161133,35.145737,35.13313,35.102592,35.035606,34.904655,34.72143,34.50539,34.285778,34.089134,33.887356,33.704025,33.59591,33.60879,33.74275,34.01918,34.39674,34.79561,35.2481,35.802208,36.218884,36.352623,36.343792,36.22256,36.041348,35.841343,35.606037,35.289864,34.73967,33.947365,32.818565,31.58076,30.488863,29.221104,26.866966,22.61921,18.359056,16.233952,15.613985,15.2803135,15.099041,15.06591,15.070079,15.026225,14.934441,14.838211,14.759335,14.703985,14.669392,14.659999,14.661497,14.641098,14.597291,14.560429,14.599688,14.827681,15.217077,16.079475,17.206738,17.708193,17.657188,17.200947,15.917799,14.67868,13.812786,13.393761,13.209539,13.151848,13.144348,13.125577,13.081702,13.046522,13.045551,13.07963,13.13493,13.184359,13.210826,13.2079,13.205593,13.387307,13.774273,14.705757,16.961771,18.827803,19.628342,19.583681,19.56035,19.43166,19.347115,19.192028,18.824472,18.337597,17.923866,17.618973,17.423515,17.332397,17.266548,17.200916,17.140886,17.083817,17.044983,17.018383,16.995386,16.976728,16.961872,16.95891,16.97795,17.008211,17.037922,17.066168,17.102337,17.1328,17.139153,17.08202,16.968338,16.78647,16.346474,15.830397,15.470217,15.286583,15.215736,15.257081,15.371233,15.561953,15.823668,16.117662
8.335293,11.042268,13.839505,14.994686,15.106208,15.173446,15.312323,15.500703,15.554745,15.714592,15.786895,15.723261,15.637866,15.548609,15.48599,15.464369,15.495002,15.563099,15.655632,15.766821,15.901116,16.066216,16.241707,16.442034,16.667507,16.90877,17.159443,17.40518,17.641483,17.860962,18.066967,18.264599,18.454075,18.635033,18.79818,18.94698,19.09283,19.246275,19.411089,19.57956,19.733973,19.873081,20.007725,20.147028,20.307007,20.486055,20.678038,20.873787,21.062187,21.246407,21.428745,21.617153,21.81521,22.01763,22.221554,22.420528,22.617676,22.819614,23.033157,23.250286,23.464848,23.67162,23.876698,24.095509,24.333097,24.583933,24.833359,25.068853,25.297354,25.524117,25.769491,26.041008,26.33108,26.626066,26.889267,27.123323,27.347057,27.572895,27.808102,28.04178,28.256126,28.457375,28.66372,28.895655,29.176794,29.523083,29.927532,30.297112,30.644043,30.965027,31.25083,31.522852,31.819859,32.17579,32.539017,32.811653,33.012566,33.20129,33.358013,33.52127,33.707413,33.72734,33.681168,33.634716,33.552307,33.44333,33.237633,32.946335,32.484962,31.980179,31.423208,30.829336,30.366123,30.051823,29.91964,30.012686,30.345383,30.835354,31.337868,31.6663,31.906239,32.17198,32.47791,32.821396,33.18818,33.552505,33.873997,34.13278,34.329517,34.486435,34.623146,34.77011,34.94125,35.142563,35.36537,35.585857,35.77984,35.9169,36.00073,36.046516,36.067787,36.079575,36.091988,36.11583,36.16796,36.262917,36.391506,36.537777,36.664463,36.748653,36.783005,36.76201,36.68823,36.574795,36.434143,36.28356,36.138298,36.004864,35.892612,35.825397,35.83794,35.91461,36.031406,36.147186,36.234085,36.270164,36.253357,36.201424,36.12608,36.036575,35.928074,35.789543,35.628166,35.476276,35.363316,35.308834,35.286987,35.267838,35.214718,35.163498,35.117153,35.08864,35.073463,35.06915,35.06482,35.023552,34.88964,34.668613,34.404507,34.080147,33.685333,33.25385,32.837402,32.54871,32.42313,32.460934,32.677246,33.017006,33.49342,34.182766,34.897472,35.37754,35.772423,36.02362,35.880547,35.706623,35.525963,35.287903,34.937103,34.33468,33.48004,32.408268,31.303831,30.32026,28.845333,25.881174,21.318851,17.17541,15.937263,15.474218,15.184892,15.07665,15.07426,15.075443,15.018998,14.916612,14.816879,14.738567,14.683065,14.646161,14.631934,14.627209,14.602022,14.555288,14.512801,14.538459,14.7096615,15.027454,15.750017,16.708979,17.290985,17.330343,16.82514,15.633908,14.545864,13.777622,13.371546,13.204607,13.156951,13.148754,13.126999,13.083263,13.051316,13.054677,13.089743,13.141483,13.186821,13.211557,13.205752,13.183073,13.304936,13.630696,14.334062,15.977198,18.028091,19.205875,19.45422,19.452682,19.32413,19.134907,18.988092,18.802711,18.408855,17.971071,17.623169,17.384684,17.256224,17.168777,17.093744,17.03142,16.978558,16.950489,16.938288,16.92918,16.92272,16.921112,16.927534,16.953062,16.98929,17.028036,17.067244,17.09449,17.088026,17.056643,16.966656,16.815645,16.514397,15.947629,15.480734,15.190619,15.045711,15.000308,15.043074,15.150492,15.327311,15.599615,15.96319
7.4274025,8.286165,10.832302,13.841982,15.181076,15.288491,15.311392,15.4023905,15.548572,15.582075,15.675899,15.694469,15.600506,15.524578,15.482195,15.474554,15.503733,15.563788,15.643963,15.745651,15.872433,16.031656,16.21031,16.406145,16.631977,16.875397,17.12962,17.380737,17.627262,17.86091,18.07983,18.284855,18.477345,18.65869,18.82011,18.965672,19.107388,19.256594,19.419542,19.589262,19.747002,19.889832,20.02672,20.166077,20.325075,20.502926,20.69457,20.890581,21.07879,21.261766,21.440525,21.623972,21.81661,22.014578,22.216429,22.416698,22.617117,22.823143,23.04053,23.25907,23.472342,23.67593,23.876823,24.0921,24.327204,24.577759,24.829838,25.070103,25.303347,25.534208,25.780664,26.05267,26.339045,26.623205,26.875149,27.103933,27.325726,27.551502,27.784151,28.010397,28.211733,28.399723,28.600721,28.843939,29.177938,29.584276,29.990316,30.374659,30.755396,31.05162,31.271187,31.441694,31.508018,31.47221,31.47774,31.3352,31.164389,30.829624,30.50265,30.181282,29.87007,29.601133,29.36856,29.16343,28.990517,28.837463,28.678915,28.507774,28.132076,27.695698,27.243092,26.780079,26.460571,26.319813,26.40831,26.76651,27.48804,28.530489,29.614614,30.449348,30.954796,31.340427,31.73511,32.14993,32.571114,32.973812,33.31294,33.581963,33.796093,33.98713,34.177803,34.384686,34.606384,34.843704,35.09018,35.328823,35.536846,35.679726,35.759983,35.795666,35.809254,35.82346,35.848267,35.891712,35.965717,36.082043,36.229332,36.387215,36.51545,36.599377,36.62651,36.592793,36.501892,36.368515,36.214058,36.060043,35.9226,35.804615,35.71403,35.672974,35.711506,35.806267,35.924294,36.025826,36.087605,36.097748,36.063263,35.99503,35.90287,35.79646,35.675316,35.535328,35.38818,35.273785,35.220676,35.239826,35.280724,35.24643,35.152943,35.03549,34.912872,34.833775,34.8226,34.852047,34.838116,34.794273,34.64897,34.39579,33.96133,33.377922,32.701954,32.051857,31.472185,30.841707,30.310024,29.940329,29.955147,30.263208,30.793425,31.470951,32.185623,32.74685,33.41145,33.966938,34.157475,34.21606,34.172455,34.032246,33.712273,33.104984,32.248222,31.396397,30.615395,29.504158,27.742174,24.145832,19.740974,16.414667,15.670166,15.3492775,15.120778,15.059582,15.067043,15.05496,14.986071,14.880873,14.787574,14.71977,14.672841,14.637004,14.613606,14.597415,14.56453,14.516987,14.474646,14.487581,14.617191,14.875362,15.43524,16.197916,16.787577,16.858078,16.333511,15.236992,14.331503,13.678503,13.325247,13.186253,13.146904,13.136965,13.113052,13.072556,13.046671,13.054876,13.088427,13.132336,13.169147,13.189095,13.181903,13.1560545,13.225876,13.457048,13.942132,14.937676,16.807257,18.166674,18.876614,19.059698,19.118683,18.986275,18.79524,18.587854,18.2738,17.869024,17.515944,17.25525,17.094934,17.000135,16.925129,16.871595,16.831017,16.81258,16.812538,16.815315,16.824745,16.836758,16.85219,16.886581,16.933025,16.973907,16.995245,16.998543,16.965908,16.902533,16.803125,16.571823,16.081778,15.550102,15.18862,14.956961,14.858966,14.832273,14.871191,14.966051,15.128424,15.396782,15.8071165
7.2907443,7.5627,8.305483,10.69004,13.931029,15.412657,15.445093,15.389712,15.441884,15.573179,15.556781,15.584488,15.545271,15.481335,15.456528,15.467088,15.504914,15.560538,15.633762,15.731597,15.858068,16.015291,16.196825,16.39624,16.62207,16.864141,17.114285,17.365763,17.618547,17.863693,18.095852,18.310804,18.508457,18.691576,18.851948,18.994606,19.1324,19.277512,19.439037,19.610909,19.772804,19.919483,20.05705,20.194387,20.349733,20.523556,20.71232,20.906048,21.091412,21.270485,21.443424,21.61979,21.805328,21.997417,22.197294,22.398542,22.60248,22.812798,23.034239,23.254799,23.467781,23.669636,23.867418,24.07977,24.312666,24.563316,24.816055,25.058186,25.294281,25.53085,25.781565,26.052692,26.333519,26.601768,26.845043,27.069092,27.289701,27.516996,27.750435,27.975037,28.173729,28.36258,28.576908,28.867691,29.254524,29.657267,30.078405,30.490334,30.809624,31.094397,31.225033,31.1307,30.577446,29.575321,28.123108,27.292164,26.825935,26.353243,25.995876,25.707102,25.465034,25.27635,25.13984,25.046352,24.988228,24.952932,24.897429,24.823479,24.763426,24.699265,24.646088,24.623487,24.63995,24.727154,24.94433,25.389565,26.160013,27.22522,28.365086,29.518356,30.267784,30.728706,31.147167,31.563683,31.97189,32.36062,32.682068,32.936436,33.14721,33.358753,33.59854,33.861828,34.13474,34.407825,34.67525,34.92866,35.150074,35.305424,35.39591,35.440094,35.466404,35.5021,35.555443,35.629623,35.730988,35.868374,36.028656,36.187305,36.312428,36.389812,36.405827,36.358414,36.25305,36.104973,35.943165,35.79107,35.663826,35.561295,35.490086,35.47103,35.5293,35.634857,35.74678,35.828293,35.8659,35.857006,35.807888,35.727165,35.62165,35.502495,35.37551,35.247147,35.132465,35.076805,35.099464,35.20236,35.231842,35.144478,34.983654,34.668926,34.347313,34.12925,34.0602,34.113297,34.151318,34.14151,33.962627,33.58917,32.961174,32.20787,31.474157,30.74172,29.91458,28.567583,27.586374,26.973436,26.883516,27.105804,27.412079,27.753578,28.186382,28.760778,29.358625,29.885273,30.352629,30.693419,30.900812,30.932772,30.739527,30.264002,29.582375,28.904957,28.271088,27.486183,25.903109,22.35421,18.172941,16.039257,15.451117,15.250422,15.082,15.042372,15.042921,15.012341,14.932795,14.829662,14.752193,14.70471,14.672829,14.639616,14.606415,14.575461,14.530767,14.478427,14.435119,14.439978,14.5358515,14.744025,15.077086,15.656906,16.126675,16.133568,15.637801,14.722025,14.063747,13.533112,13.253822,13.14296,13.111988,13.100033,13.074583,13.038163,13.0185995,13.030805,13.062402,13.097672,13.124496,13.138067,13.129531,13.105521,13.129921,13.276442,13.570747,14.132976,15.22159,16.51492,17.532452,18.129377,18.387506,18.417715,18.317204,18.113827,17.810276,17.490953,17.213066,16.991302,16.835732,16.60631,16.409937,16.31928,16.304495,16.361425,16.464712,16.587582,16.660862,16.678934,16.700771,16.73439,16.77511,16.807732,16.824797,16.821684,16.782091,16.7172,16.520105,16.118153,15.620557,15.192244,14.925293,14.762489,14.703278,14.689111,14.726002,14.808481,14.959337,15.221013,15.65359
7.188811,7.387695,7.6742334,8.335129,10.692731,14.101336,15.575082,15.500496,15.396702,15.4697485,15.532046,15.470253,15.459433,15.400898,15.395141,15.420531,15.472353,15.5322275,15.601641,15.699466,15.830774,15.99663,16.187067,16.403114,16.62781,16.866882,17.113684,17.365566,17.623188,17.879456,18.125118,18.3499,18.55206,18.735666,18.893274,19.031614,19.163994,19.303257,19.461742,19.634491,19.799316,19.948206,20.083992,20.215355,20.362762,20.528196,20.710258,20.898922,21.079645,21.25367,21.420553,21.590124,21.769003,21.956451,22.155254,22.357296,22.564568,22.778528,23.003212,23.226099,23.440742,23.644428,23.843866,24.058626,24.291597,24.539679,24.790993,25.033834,25.27207,25.511013,25.761961,26.029446,26.299263,26.556038,26.794476,27.017895,27.241749,27.4761,27.71868,27.954433,28.172485,28.395023,28.652124,28.9558,29.323915,29.736889,30.149668,30.46848,30.72685,31.050844,31.004753,30.229454,28.86014,26.50935,24.76149,23.94368,23.569763,23.452095,23.39235,23.33433,23.297024,23.288185,23.299019,23.310036,23.319784,23.340124,23.35093,23.369667,23.39748,23.433033,23.484406,23.559221,23.6734,23.838999,24.112135,24.592793,25.344048,26.370764,27.612186,28.980381,29.804195,30.294563,30.713089,31.093397,31.451542,31.790821,32.07244,32.29734,32.496815,32.722187,32.99877,33.30921,33.626804,33.92853,34.20789,34.46616,34.69354,34.86139,34.969288,35.03372,35.084904,35.152626,35.241386,35.34838,35.47479,35.626526,35.78993,35.940765,36.05997,36.126686,36.130424,36.071503,35.957973,35.807083,35.648712,35.5048,35.387646,35.295734,35.236084,35.22985,35.297146,35.402035,35.497063,35.552967,35.569195,35.552666,35.50594,35.42501,35.315132,35.18897,35.061455,34.95501,34.887573,34.906982,35.024597,35.132828,35.117218,34.98025,34.576782,33.957275,33.389187,32.979362,32.76141,32.74635,32.806347,32.81873,32.629066,32.203648,31.629208,30.962265,30.250687,29.502821,28.33387,26.804924,25.80868,25.279755,25.072802,24.955334,24.944965,25.026314,25.261656,25.584206,25.945583,26.276278,26.561615,26.882124,27.176554,27.295067,27.222633,26.952118,26.561888,26.104853,25.584816,25.11785,23.953676,20.980606,17.283367,15.804191,15.32539,15.182435,15.050142,15.017763,15.007647,14.96265,14.877998,14.785454,14.728089,14.70138,14.679206,14.644726,14.599974,14.553719,14.496639,14.438486,14.393044,14.387887,14.448875,14.598596,14.776047,15.043175,15.267579,15.174217,14.796576,14.256741,13.757637,13.365,13.154685,13.07118,13.045667,13.028634,12.998741,12.963078,12.9472685,12.961308,12.989651,13.016848,13.0353565,13.044365,13.036441,13.017565,13.014412,13.089137,13.258544,13.553985,14.017399,14.765687,15.707552,16.427967,16.947664,17.27542,17.359077,17.243587,16.982119,16.695398,16.397186,16.080315,15.791041,15.491692,15.293137,15.240744,15.292268,15.415219,15.584988,15.785175,15.969867,16.107239,16.242489,16.363277,16.450909,16.501057,16.511,16.468801,16.362549,16.214102,15.920589,15.518039,15.148783,14.867714,14.686434,14.581786,14.54798,14.548463,14.591212,14.673968,14.81745,15.070766,15.510688
7.135848,7.253517,7.4427032,7.6828966,8.388607,10.847757,14.461229,15.610281,15.452293,15.327012,15.435547,15.420867,15.312537,15.296895,15.301082,15.341664,15.403272,15.472801,15.547841,15.650002,15.7908745,15.971321,16.177883,16.412344,16.654667,16.886889,17.130955,17.384048,17.647999,17.915377,18.17279,18.404194,18.608025,18.79144,18.948385,19.08024,19.20425,19.335108,19.4876,19.657846,19.821974,19.969273,20.09964,20.221258,20.357487,20.51176,20.68523,20.86819,21.044605,21.214376,21.377174,21.542345,21.717733,21.903326,22.101065,22.303429,22.512146,22.726852,22.951262,23.174274,23.390697,23.599564,23.80497,24.023106,24.259678,24.509563,24.75953,25.000473,25.236965,25.47377,25.719553,25.97708,26.235504,26.487076,26.72457,26.951538,27.183144,27.429218,27.688473,27.953585,28.206432,28.44257,28.704226,28.99113,29.353676,29.755836,30.065834,30.315504,30.617657,30.825006,30.196148,28.872528,26.389,24.270224,23.3923,22.907194,22.693546,22.575933,22.527292,22.488121,22.474047,22.48302,22.506567,22.531874,22.556759,22.586426,22.627974,22.680706,22.747194,22.82614,22.919863,23.028574,23.148703,23.296293,23.523113,23.918364,24.608408,25.595592,26.84982,28.45127,29.399944,29.911589,30.335577,30.698513,31.018131,31.306717,31.554731,31.744701,31.925947,32.15776,32.461693,32.81018,33.164917,33.488064,33.77155,34.025963,34.25153,34.42777,34.553375,34.641148,34.72029,34.819855,34.940098,35.072086,35.213326,35.367332,35.522003,35.66384,35.773346,35.829803,35.82508,35.76212,35.65165,35.515415,35.378242,35.25,35.139103,35.046806,34.9845,34.978996,35.048492,35.14935,35.22622,35.257637,35.256927,35.23843,35.20378,35.13468,35.029037,34.900833,34.77539,34.694725,34.679256,34.784813,34.94759,35.00892,34.96635,34.68475,33.94042,33.039635,32.23552,31.69062,31.373873,31.277782,31.269974,31.25586,31.113136,30.791779,30.34081,29.797432,29.17125,28.454472,27.215607,26.01456,25.156164,24.613138,24.330032,24.13036,24.054398,24.02869,24.030497,24.041306,24.051119,24.127106,24.300102,24.51619,24.706856,24.767128,24.717733,24.616144,24.519894,24.469248,24.224329,23.520105,22.46757,19.98937,16.916855,15.715413,15.276573,15.147173,15.026301,14.990494,14.971191,14.919399,14.8400345,14.763233,14.722086,14.708776,14.691463,14.653823,14.597741,14.537205,14.468624,14.404132,14.354776,14.337635,14.364716,14.447578,14.550198,14.5925045,14.597917,14.459869,14.212999,13.866403,13.476808,13.203529,13.049856,12.988727,12.964216,12.938656,12.901564,12.864712,12.850376,12.863955,12.888388,12.909403,12.922883,12.93068,12.926504,12.913212,12.901176,12.927369,13.022491,13.177778,13.402632,13.733887,14.203688,14.719447,15.230631,15.534539,15.596879,15.517342,15.3488655,15.1518,14.923642,14.657858,14.395493,14.228255,14.165425,14.192848,14.275709,14.370909,14.480065,14.609985,14.792471,15.010816,15.221121,15.39489,15.536274,15.618814,15.647433,15.618732,15.526334,15.3719,15.161586,14.92801,14.720105,14.56024,14.449975,14.392427,14.383192,14.403633,14.4549265,14.546343,14.692961,14.93637,15.368946
7.106744,7.1691413,7.2811265,7.4031253,7.697487,8.556714,11.384696,14.9928665,15.518408,15.34894,15.298297,15.379398,15.241444,15.159666,15.217536,15.261658,15.324886,15.398032,15.475124,15.5807495,15.729063,15.922302,16.145775,16.394135,16.65928,16.912199,17.15304,17.412586,17.687567,17.968338,18.23774,18.474247,18.677385,18.85793,19.011106,19.140848,19.259172,19.379238,19.52232,19.685638,19.84451,19.985966,20.107763,20.218079,20.342651,20.486902,20.653776,20.83339,21.008526,21.177711,21.340519,21.505577,21.680635,21.865858,22.062979,22.264578,22.47144,22.681751,22.899147,23.11625,23.330803,23.54215,23.752188,23.976898,24.21835,24.470354,24.71878,24.956991,25.18956,25.421051,25.659178,25.906233,26.15759,26.40556,26.644516,26.876867,27.116682,27.374279,27.656641,27.942972,28.192173,28.434586,28.696589,28.99125,29.365088,29.717728,29.983835,30.284191,30.430367,29.984852,28.830498,26.878506,24.458216,23.359846,22.757828,22.390041,22.254835,22.179611,22.155924,22.137438,22.123184,22.125896,22.148811,22.18238,22.219032,22.258451,22.303692,22.359385,22.430437,22.515562,22.612373,22.713284,22.800037,22.872934,22.97992,23.217857,23.753315,24.694408,25.932148,27.632133,28.901619,29.522436,29.972519,30.337656,30.64323,30.904686,31.12286,31.289948,31.450779,31.684774,32.01052,32.39225,32.780815,33.124073,33.411697,33.662144,33.88461,34.068123,34.210648,34.320827,34.424866,34.54901,34.689137,34.830788,34.97058,35.1116,35.246372,35.376007,35.474785,35.52469,35.519028,35.46322,35.371037,35.263317,35.163868,35.068447,34.96136,34.850845,34.768135,34.752678,34.827423,34.938694,35.014164,35.02908,35.012737,34.98847,34.966152,34.913654,34.815964,34.68728,34.561874,34.502884,34.53515,34.705994,34.83577,34.87489,34.7728,34.22033,33.16697,32.03374,31.034443,30.125042,29.717995,29.680721,29.785744,29.863564,29.780687,29.54676,29.210825,28.800543,28.329628,27.639235,26.505142,25.433863,24.666393,24.1505,23.854311,23.685997,23.593964,23.524515,23.465557,23.409182,23.351263,23.32086,23.327179,23.36702,23.39584,23.34855,23.241104,23.142773,23.114416,23.204641,23.124413,22.474789,21.537964,19.444277,16.854034,15.737917,15.2699175,15.134782,15.009018,14.965847,14.9419565,14.893904,14.8284645,14.764772,14.735265,14.728932,14.711983,14.669113,14.602842,14.530758,14.453505,14.384243,14.331738,14.304427,14.305515,14.331793,14.356318,14.343572,14.270977,14.112463,13.863009,13.559789,13.284996,13.088273,12.978384,12.931416,12.903186,12.867467,12.822835,12.784431,12.770698,12.782967,12.803803,12.820422,12.8312,12.839757,12.840847,12.828715,12.817584,12.822417,12.868306,12.964541,13.108276,13.309523,13.570695,13.851434,14.072023,14.147341,14.086871,13.984605,13.894593,13.81251,13.723232,13.6204605,13.525114,13.463777,13.455939,13.498772,13.563388,13.614527,13.658706,13.719945,13.830045,13.998796,14.180693,14.326651,14.443008,14.529242,14.5913725,14.624144,14.623517,14.589064,14.515426,14.420107,14.325538,14.246726,14.201764,14.191951,14.211627,14.249027,14.308695,14.406058,14.556886,14.791651,15.200103
7.1113377,7.1418133,7.2003317,7.2804804,7.4005566,7.7868214,8.9810915,12.583035,15.236235,15.435467,15.311562,15.263529,15.289597,15.166466,15.104129,15.186885,15.271082,15.335039,15.407181,15.514389,15.663523,15.860285,16.093826,16.352488,16.6337,16.920628,17.191362,17.455318,17.744595,18.041058,18.322758,18.564522,18.766127,18.939434,19.082653,19.207434,19.32268,19.438763,19.576149,19.731932,19.88065,20.011984,20.1232,20.222893,20.337736,20.474485,20.6372,20.815725,20.991728,21.162651,21.327528,21.493942,21.668879,21.850655,22.040806,22.234215,22.430822,22.627737,22.828896,23.032438,23.239029,23.447588,23.663836,23.899145,24.150372,24.408516,24.661219,24.901403,25.131931,25.358553,25.589926,25.829872,26.075357,26.320772,26.561077,26.795986,27.038353,27.301064,27.59415,27.87475,28.1221,28.389225,28.660374,28.95114,29.271809,29.577919,29.813599,29.844254,29.362717,28.436356,26.948498,24.769407,23.478558,22.824688,22.377392,22.157352,22.107542,22.116745,22.110188,22.069057,22.016933,21.984337,21.980972,21.999454,22.026215,22.054768,22.085575,22.123878,22.176723,22.24458,22.32409,22.403187,22.452374,22.458807,22.456837,22.552025,22.853083,23.556923,24.836544,26.470407,28.278965,29.094051,29.583275,29.976116,30.286533,30.536158,30.733381,30.890816,31.035778,31.272772,31.618977,32.031765,32.451817,32.81632,33.112625,33.364788,33.589222,33.782673,33.94313,34.07586,34.202877,34.34574,34.495544,34.63266,34.753803,34.86701,34.97873,35.092613,35.182243,35.23125,35.233208,35.19593,35.13749,35.072845,35.021606,34.959244,34.853775,34.72513,34.60171,34.568756,34.667316,34.807137,34.909477,34.933125,34.90319,34.86607,34.848183,34.81052,34.722527,34.591846,34.459526,34.41038,34.47931,34.60068,34.697544,34.692207,34.507202,33.580822,32.29182,30.960684,29.529713,28.537119,28.12107,28.107662,28.234821,28.36628,28.400902,28.343384,28.26193,28.029327,27.67895,26.98148,25.943403,24.963875,24.271004,23.82146,23.576315,23.431816,23.34003,23.251331,23.156784,23.05633,22.94724,22.859915,22.804579,22.77681,22.746065,22.661808,22.533014,22.402855,22.325947,22.352964,22.28801,21.821766,20.931932,19.22771,17.008638,15.879465,15.311344,15.1315365,14.993404,14.93997,14.917738,14.884011,14.8334675,14.781933,14.759434,14.754951,14.735079,14.686509,14.612754,14.533258,14.451404,14.380477,14.327778,14.296813,14.279839,14.262098,14.231726,14.163789,14.0364065,13.840015,13.610777,13.381643,13.1745825,13.026405,12.946878,12.906631,12.871341,12.825449,12.774353,12.735308,12.722428,12.733601,12.751669,12.765366,12.774773,12.788213,12.785205,12.776014,12.769299,12.770031,12.793392,12.855683,12.966837,13.117143,13.295505,13.46364,13.570617,13.5872,13.509724,13.383384,13.289778,13.22877,13.176331,13.120685,13.083919,13.067135,13.072619,13.101076,13.137824,13.162412,13.175325,13.200188,13.26475,13.374431,13.508051,13.637098,13.744045,13.835787,13.912575,13.965548,13.997698,14.013069,14.009645,13.989847,13.962959,13.949788,13.959903,13.988198,14.029974,14.081112,14.148358,14.248398,14.400899,14.630074,15.006415
7.133089,7.131058,7.182542,7.234013,7.3156953,7.5132856,8.030746,9.903881,13.748675,15.306355,15.366386,15.254044,15.17835,15.230761,15.1907425,15.129839,15.1514635,15.239966,15.3153515,15.424138,15.580657,15.788019,16.03807,16.316381,16.612532,16.920496,17.23372,17.52421,17.821953,18.125513,18.414986,18.660479,18.861097,19.032017,19.17311,19.293564,19.40445,19.517246,19.648228,19.794415,19.934027,20.05729,20.16203,20.256311,20.364872,20.494535,20.650301,20.82251,20.992788,21.157717,21.315828,21.473368,21.636427,21.806198,21.984396,22.165426,22.347809,22.526741,22.706713,22.891731,23.086441,23.292057,23.514454,23.76071,24.025955,24.298285,24.56342,24.813162,25.04945,25.278719,25.510075,25.748722,25.992807,26.23801,26.478281,26.70975,26.944733,27.20087,27.48637,27.75236,28.021175,28.299921,28.562588,28.80734,29.055166,29.049995,28.816227,28.212008,27.427229,26.190859,24.686754,23.479452,22.76524,22.336018,22.053759,21.984295,22.014511,22.03561,22.010529,21.940205,21.861076,21.808718,21.790567,21.797676,21.812025,21.824306,21.834372,21.847778,21.87392,21.915886,21.97327,22.034294,22.064236,22.038567,21.973557,21.967916,22.098389,22.504942,23.57417,25.150505,27.143795,28.468975,29.102695,29.547863,29.88627,30.135172,30.320639,30.464796,30.605053,30.850708,31.215626,31.65108,32.092445,32.47351,32.782005,33.04448,33.27942,33.491997,33.680508,33.845535,34.0017,34.16292,34.317738,34.445816,34.54742,34.632915,34.721237,34.818634,34.901108,34.9536,34.96965,34.961754,34.956635,34.965363,34.973038,34.955246,34.837227,34.65152,34.484535,34.434307,34.570732,34.787582,34.8896,34.892128,34.8439,34.785995,34.746803,34.708244,34.643127,34.548553,34.44383,34.387745,34.39903,34.456192,34.5108,34.415882,33.97456,32.742844,31.303375,29.725407,28.118053,27.353237,27.0187,26.972412,27.022596,27.107794,27.196331,27.266598,27.33566,27.271732,26.960346,26.313818,25.407145,24.555061,23.946213,23.550108,23.334187,23.200329,23.102676,22.998356,22.881422,22.75402,22.612144,22.484854,22.37914,22.299417,22.239954,22.157307,22.048006,21.936316,21.836672,21.809845,21.757473,21.4092,20.616306,19.228018,17.30961,16.109383,15.402934,15.144934,14.986502,14.919755,14.903703,14.885209,14.848852,14.8058605,14.784549,14.777147,14.752677,14.70032,14.62398,14.542695,14.461201,14.393612,14.343815,14.305217,14.274911,14.24073,14.179599,14.080294,13.919302,13.711716,13.49814,13.299357,13.127276,13.009956,12.947884,12.908005,12.86399,12.809488,12.754442,12.71672,12.705942,12.717109,12.733714,12.746424,12.759922,12.763865,12.755722,12.755719,12.753742,12.753978,12.769268,12.812199,12.896894,13.015012,13.152609,13.27046,13.326441,13.310042,13.234337,13.130833,13.045485,12.980418,12.921413,12.866489,12.834561,12.822865,12.828968,12.850051,12.876225,12.893812,12.904293,12.922264,12.961935,13.030173,13.117398,13.215853,13.311368,13.398522,13.47595,13.540154,13.589531,13.625158,13.645382,13.654358,13.670266,13.695765,13.734158,13.784929,13.842257,13.904421,13.978665,14.081003,14.230261,14.454638,14.804878
7.1516504,7.1494093,7.162422,7.2158995,7.256854,7.383991,7.662256,8.411234,11.16746,14.456917,15.240164,15.263311,15.17346,15.08329,15.121545,15.129141,15.050878,15.060396,15.154316,15.280597,15.457887,15.688698,15.963989,16.268526,16.599756,16.94049,17.287313,17.608908,17.897999,18.200943,18.488525,18.73108,18.928059,19.098228,19.241087,19.365192,19.478298,19.589184,19.712013,19.845045,19.970957,20.08154,20.176973,20.264196,20.36484,20.48473,20.62814,20.785885,20.9404,21.088408,21.22901,21.368355,21.511152,21.662254,21.824081,21.990057,22.157166,22.318218,22.477987,22.645512,22.8307,23.04026,23.271345,23.527264,23.807182,24.096779,24.380072,24.647465,24.899038,25.14128,25.382763,25.629053,25.878313,26.12638,26.365711,26.588617,26.808502,27.049011,27.323961,27.583483,27.862728,28.139208,28.372023,28.57395,28.43457,27.681248,26.732477,25.508337,24.66499,23.950241,23.14117,22.581219,22.147287,21.886902,21.774603,21.778296,21.815825,21.813982,21.761711,21.678331,21.600763,21.556221,21.54325,21.549208,21.555597,21.554688,21.548069,21.541618,21.546177,21.567091,21.609028,21.664059,21.697138,21.674744,21.59217,21.522905,21.595722,21.833225,22.516708,23.874622,25.640518,27.594042,28.482046,29.02207,29.414808,29.681395,29.86974,30.004322,30.156092,30.419243,30.802174,31.25108,31.70042,32.0888,32.407665,32.685776,32.940014,33.176727,33.39599,33.597088,33.78773,33.974316,34.141983,34.26824,34.357903,34.425037,34.496235,34.583862,34.667545,34.729733,34.76536,34.781208,34.798088,34.824753,34.85623,34.858162,34.774467,34.596855,34.371643,34.313366,34.520046,34.76059,34.86236,34.8598,34.792885,34.714104,34.653637,34.61335,34.564297,34.492603,34.40129,34.32745,34.279305,34.273407,34.227417,33.99645,33.1374,31.761454,30.267313,28.386457,27.120846,26.51736,26.255299,26.200363,26.208557,26.236763,26.280893,26.347641,26.417648,26.394968,26.127544,25.599775,24.857119,24.149866,23.62819,23.276237,23.07018,22.928728,22.815952,22.696827,22.566675,22.425077,22.265408,22.114714,21.980087,21.87294,21.799553,21.740034,21.675419,21.591162,21.486858,21.455317,21.428066,21.174454,20.508698,19.293251,17.68649,16.336227,15.526927,15.167995,14.991678,14.908344,14.896002,14.891002,14.866705,14.827726,14.803411,14.790312,14.761625,14.708853,14.635545,14.558438,14.479551,14.40642,14.355296,14.318341,14.29209,14.252842,14.1767435,14.057137,13.8909855,13.671919,13.453527,13.266738,13.116062,13.017176,12.963617,12.919853,12.866422,12.804738,12.747889,12.713146,12.705566,12.7178545,12.735748,12.747251,12.746865,12.742286,12.745426,12.753089,12.751204,12.751936,12.763811,12.796961,12.867171,12.971876,13.0947485,13.197662,13.235147,13.198772,13.113165,13.015876,12.927533,12.852391,12.783247,12.72241,12.686632,12.676947,12.689068,12.714768,12.743488,12.760504,12.769685,12.782125,12.808298,12.854757,12.915453,12.985345,13.055904,13.124706,13.189819,13.250481,13.300941,13.340218,13.367692,13.385969,13.4153805,13.45873,13.518051,13.590345,13.658316,13.728249,13.808495,13.912723,14.055776,14.269143,14.593755
7.1596956,7.1695857,7.1665945,7.1750073,7.210808,7.255517,7.433907,7.811842,8.976021,11.955866,14.487442,15.085497,15.163006,15.145067,15.115756,15.128364,15.081673,14.925948,14.908888,15.06297,15.277278,15.548461,15.867669,16.21886,16.584818,16.936556,17.33162,17.694988,17.956366,18.236113,18.505136,18.735624,18.925528,19.093931,19.239578,19.36818,19.484226,19.595402,19.710617,19.82891,19.938133,20.033241,20.116493,20.193369,20.281641,20.385477,20.507725,20.640343,20.768,20.888681,21.00339,21.118502,21.237434,21.367062,21.510122,21.660538,21.81445,21.962921,22.111053,22.270824,22.453175,22.665194,22.91102,23.1866,23.483862,23.789131,24.089222,24.377316,24.650991,24.914658,25.174894,25.43727,25.698885,25.954845,26.19577,26.410364,26.614977,26.840317,27.113644,27.379934,27.66703,27.918636,28.10714,28.110285,27.396912,25.70877,24.117336,23.20746,22.878487,22.562975,22.207989,21.894218,21.66898,21.541546,21.51487,21.537285,21.553593,21.52293,21.455984,21.382078,21.329025,21.309637,21.313114,21.323772,21.326773,21.318878,21.304422,21.288958,21.283012,21.293108,21.329607,21.390558,21.443588,21.44858,21.379139,21.283762,21.281023,21.478064,21.936405,22.9168,24.380964,26.243908,27.75139,28.428604,28.892845,29.200966,29.411182,29.550941,29.727455,30.015726,30.417467,30.873466,31.31956,31.704826,32.026997,32.316544,32.590466,32.849205,33.095036,33.32957,33.555378,33.77186,33.961586,34.099045,34.190422,34.257122,34.332848,34.422024,34.48439,34.536797,34.57398,34.598957,34.629765,34.667793,34.71545,34.72265,34.63349,34.492825,34.23421,34.182583,34.505215,34.725666,34.879547,34.89063,34.798748,34.689465,34.60832,34.568665,34.529057,34.467094,34.374603,34.273308,34.167706,34.051456,33.871647,33.26264,32.135014,30.702358,29.045761,27.305649,26.377293,25.899982,25.684616,25.607822,25.563677,25.530548,25.50618,25.50374,25.532055,25.494884,25.286959,24.886057,24.320076,23.762535,23.328331,23.015648,22.811031,22.65659,22.530394,22.40422,22.27385,22.133408,21.97392,21.819645,21.682335,21.578531,21.51273,21.480341,21.446138,21.37052,21.2877,21.267735,21.25808,21.070568,20.506182,19.434555,18.00702,16.587965,15.691914,15.215766,15.008014,14.906548,14.89524,14.899888,14.882195,14.843083,14.813267,14.794165,14.763512,14.714687,14.6439295,14.567945,14.490564,14.421167,14.370661,14.337858,14.314176,14.27153,14.188941,14.053553,13.870628,13.653507,13.426094,13.2442045,13.108181,13.021405,12.971658,12.921793,12.858677,12.790683,12.733201,12.702308,12.699799,12.7143345,12.722522,12.719358,12.717567,12.725177,12.7365465,12.743526,12.741576,12.742332,12.750746,12.776394,12.837406,12.934628,13.05675,13.165461,13.210191,13.17718,13.086542,12.978092,12.878285,12.795431,12.723575,12.663225,12.628711,12.618654,12.628421,12.651727,12.67935,12.69754,12.708575,12.719926,12.739298,12.771121,12.811747,12.859244,12.908502,12.95846,13.006269,13.050611,13.087131,13.11553,13.138236,13.15694,13.189991,13.240284,13.31032,13.396462,13.483262,13.562497,13.647814,13.753037,13.890231,14.083524,14.370814
7.156785,7.1804194,7.183702,7.167696,7.1620693,7.183246,7.253377,7.476041,7.9291945,9.223582,11.881627,14.001533,14.677378,14.932696,15.012173,14.960082,14.758448,14.517854,14.454029,14.6957035,15.057302,15.358996,15.681859,16.10456,16.504068,16.861506,17.21453,17.64972,17.950438,18.18754,18.413704,18.618372,18.796726,18.962053,19.110474,19.242573,19.357895,19.464382,19.570688,19.676153,19.770786,19.852285,19.92409,19.989628,20.062958,20.146975,20.243507,20.346302,20.443916,20.5355,20.619656,20.704628,20.795778,20.902832,21.029573,21.169868,21.31742,21.460783,21.606022,21.766712,21.953777,22.175907,22.437357,22.733948,23.053782,23.37849,23.700504,24.014814,24.314062,24.602764,24.886526,25.170069,25.449009,25.717339,25.964998,26.177359,26.375628,26.597755,26.884747,27.170757,27.413244,27.600615,27.803234,27.577772,26.36103,23.986288,22.473019,22.062378,21.926144,21.762447,21.599995,21.44899,21.33495,21.275774,21.283615,21.302763,21.29525,21.246204,21.179773,21.127565,21.10604,21.1146,21.13551,21.151789,21.154068,21.144562,21.129967,21.114721,21.107214,21.113897,21.150152,21.220947,21.299221,21.341888,21.304659,21.211775,21.150303,21.24651,21.605465,22.305725,23.434032,24.919922,26.737011,27.762718,28.356274,28.731237,28.97513,29.142664,29.352829,29.673134,30.097649,30.560356,30.99906,31.375154,31.69453,31.991623,32.276726,32.55195,32.82143,33.08683,33.34632,33.598965,33.809265,33.946136,34.051193,34.129124,34.201435,34.27512,34.33674,34.392498,34.433094,34.46366,34.5061,34.55781,34.61251,34.61096,34.484943,34.32363,34.061447,34.049953,34.46565,34.77001,34.99592,35.02704,34.89878,34.740753,34.625248,34.575024,34.54503,34.494682,34.397022,34.25075,34.055325,33.796356,33.377186,32.390583,31.134226,29.697685,27.841063,26.562588,25.827026,25.447296,25.251469,25.13434,25.02587,24.9254,24.839025,24.769655,24.718107,24.656181,24.502476,24.217735,23.8146,23.39877,23.046284,22.769455,22.565046,22.400036,22.267254,22.143574,22.02417,21.89656,21.750072,21.607082,21.481628,21.393559,21.356405,21.344294,21.31696,21.258436,21.193352,21.17974,21.180851,21.039207,20.55595,19.598652,18.260118,16.836985,15.835331,15.28603,15.0287695,14.917061,14.900779,14.908456,14.892141,14.849843,14.813803,14.79012,14.761025,14.712278,14.648042,14.579428,14.505995,14.440023,14.388155,14.3528385,14.3275,14.283596,14.195474,14.046728,13.844119,13.617228,13.3941145,13.217352,13.093996,13.017435,12.969969,12.9134655,12.84134,12.768167,12.711266,12.686993,12.684917,12.684508,12.688508,12.690879,12.695705,12.706596,12.716864,12.723457,12.72231,12.722099,12.726086,12.7439995,12.796509,12.888643,13.01404,13.134912,13.195927,13.174977,13.086504,12.973074,12.865507,12.777896,12.706135,12.647421,12.613324,12.600405,12.604578,12.622452,12.646712,12.665213,12.679104,12.69225,12.708605,12.730433,12.755458,12.7842455,12.814211,12.844572,12.871896,12.89487,12.912442,12.9263935,12.942223,12.960332,12.995621,13.048547,13.122717,13.215642,13.31481,13.410177,13.49903,13.60607,13.737931,13.912226,14.162238
7.1507154,7.1812487,7.188898,7.1716766,7.1461754,7.1398063,7.1728344,7.2812347,7.5293593,7.981961,9.051323,10.717224,12.219863,13.159979,13.486743,13.436352,12.841178,12.307999,12.223898,12.486346,13.113032,14.285374,15.429227,15.912404,16.45699,16.903784,17.212914,17.514133,17.821018,18.024418,18.18544,18.352276,18.514116,18.675411,18.823412,18.950686,19.062862,19.167868,19.26854,19.366089,19.45178,19.5247,19.588625,19.645805,19.705801,19.768038,19.835503,19.906504,19.974003,20.042692,20.112625,20.192287,20.280327,20.381498,20.498577,20.627771,20.765766,20.90544,21.04235,21.193483,21.39422,21.657547,21.9443,22.247066,22.578468,22.924055,23.261755,23.597944,23.930487,24.25297,24.56333,24.86866,25.164377,25.444735,25.70061,25.915405,26.116806,26.349651,26.662436,26.973585,27.158539,27.272886,27.508663,27.124866,25.353067,22.956137,21.831217,21.508636,21.37964,21.329636,21.26197,21.17477,21.099098,21.069191,21.093357,21.115435,21.104012,21.057531,21.005047,20.975367,20.976238,20.999386,21.025702,21.040121,21.039524,21.030264,21.019735,21.010197,21.00605,21.011894,21.045866,21.118958,21.2123,21.286959,21.290897,21.226116,21.151546,21.166155,21.390434,21.898588,22.808554,24.002579,25.62152,27.129244,27.824234,28.292206,28.589964,28.79984,29.049944,29.407497,29.860737,30.335373,30.77004,31.13818,31.45454,31.746693,32.033955,32.324963,32.61785,32.915844,33.2201,33.46302,33.656197,33.80642,33.92812,34.023018,34.10845,34.192184,34.26743,34.329926,34.37102,34.403038,34.446426,34.493015,34.527264,34.48939,34.312134,34.126312,33.826096,33.910076,34.454628,34.892902,35.213074,35.272324,35.0941,34.86874,34.70285,34.63554,34.607803,34.560585,34.451965,34.246773,33.937675,33.518612,32.76986,31.552965,30.200657,28.765936,27.038822,26.06926,25.461052,25.123299,24.908484,24.734547,24.561474,24.399351,24.25975,24.143936,24.052956,23.959446,23.825842,23.631481,23.358253,23.055693,22.766172,22.517855,22.316517,22.149723,22.021383,21.909824,21.80814,21.701138,21.580582,21.459461,21.352077,21.28436,21.261139,21.253134,21.234627,21.188917,21.135674,21.131617,21.144318,21.048428,20.623062,19.73391,18.463724,17.053812,15.963892,15.372926,15.059269,14.934517,14.905948,14.908132,14.887602,14.840607,14.800477,14.776456,14.749221,14.707115,14.65074,14.589919,14.520256,14.45357,14.39848,14.359177,14.330183,14.2815695,14.184727,14.021237,13.801849,13.56332,13.348076,13.181316,13.0751,13.012664,12.970844,12.909485,12.82926,12.751691,12.69543,12.667042,12.657236,12.664289,12.671589,12.673428,12.6747265,12.682133,12.691883,12.700124,12.701102,12.701622,12.70273,12.714132,12.758677,12.845289,12.972151,13.102257,13.176538,13.164938,13.076251,12.956631,12.842058,12.752872,12.68631,12.634759,12.606105,12.593849,12.594493,12.607759,12.628218,12.644937,12.658397,12.670034,12.681487,12.694023,12.706151,12.719406,12.732225,12.743142,12.748861,12.749157,12.748238,12.750797,12.764547,12.787631,12.828764,12.885376,12.962334,13.058905,13.163447,13.269301,13.364235,13.470914,13.596937,13.757515,13.979229
7.144084,7.175771,7.1875215,7.1759415,7.151329,7.133427,7.150913,7.2046824,7.3352137,7.579315,7.96208,8.536483,9.34293,10.079729,10.456358,10.485507,10.312378,10.123745,10.086578,10.248394,10.688471,11.588199,13.10951,15.409412,16.359243,16.729904,17.116892,17.357801,17.574368,17.738565,17.839336,17.969141,18.113865,18.264849,18.407293,18.53171,18.644249,18.750488,18.85011,18.945072,19.027824,19.09834,19.157167,19.200102,19.245583,19.294186,19.359426,19.436693,19.514177,19.554668,19.558464,19.56454,19.578506,19.61986,19.699293,19.811773,19.942314,20.076414,20.22052,20.398382,20.635237,20.940908,21.297482,21.73167,22.14474,22.489462,22.844082,23.199093,23.562323,23.924625,24.268799,24.5985,24.910913,25.203049,25.468493,25.690144,25.902271,26.157969,26.497082,26.791065,26.927998,27.019821,27.276505,26.757046,24.589306,22.39744,21.51324,21.18328,21.129175,21.142471,21.097214,21.015322,20.946808,20.928848,20.96545,21.000038,20.999577,20.96641,20.930971,20.91788,20.929085,20.954067,20.976072,20.982567,20.976505,20.967182,20.961082,20.957739,20.956781,20.95984,20.985302,21.048573,21.140001,21.229954,21.272648,21.254742,21.201538,21.182144,21.291342,21.630203,22.31156,23.316101,24.686409,26.433556,27.318146,27.880379,28.239998,28.507633,28.798496,29.196356,29.68357,30.17633,30.613567,30.971098,31.272684,31.565783,31.868534,32.18359,32.51715,32.84639,33.116615,33.35227,33.557312,33.723515,33.85952,33.969437,34.069397,34.164497,34.24612,34.313957,34.36273,34.401054,34.441105,34.465538,34.44554,34.334854,34.094383,33.803703,33.52345,33.760284,34.462902,35.049675,35.439007,35.306866,35.179432,35.039562,34.805645,34.716362,34.68871,34.64223,34.51679,34.25026,33.825626,33.244873,32.213844,30.84292,29.444977,28.008224,26.590622,25.78768,25.255117,24.915293,24.655628,24.419727,24.190262,23.979849,23.797947,23.64514,23.529911,23.429565,23.323013,23.185043,22.992264,22.75929,22.51298,22.286358,22.092793,21.93338,21.817932,21.723408,21.639809,21.553802,21.457321,21.35426,21.264256,21.210188,21.195946,21.193224,21.178423,21.13702,21.091211,21.095778,21.124971,21.019041,20.668776,19.859095,18.640223,17.25306,16.093145,15.468646,15.118462,14.961918,14.914542,14.905465,14.877417,14.8253975,14.78277,14.761746,14.734474,14.698906,14.652997,14.600144,14.53364,14.465414,14.405145,14.359007,14.322212,14.264204,14.155148,13.976124,13.742815,13.499283,13.289999,13.135666,13.044376,12.989615,12.947954,12.885902,12.807149,12.729833,12.67339,12.6483135,12.646206,12.656536,12.661407,12.656314,12.652752,12.657213,12.6671295,12.677919,12.682985,12.6868725,12.687743,12.694932,12.732666,12.81302,12.9377165,13.070557,13.150152,13.141174,13.048525,12.922138,12.80265,12.715267,12.657811,12.617533,12.598221,12.589573,12.588881,12.598654,12.615292,12.62849,12.638313,12.644881,12.649081,12.652769,12.654478,12.655443,12.653967,12.647442,12.633757,12.614527,12.59932,12.595308,12.611009,12.642174,12.6901655,12.749666,12.827133,12.924125,13.030769,13.1414585,13.242922,13.3480015,13.46897,13.616333,13.81153
7.1398296,7.1695642,7.1842933,7.181295,7.1638575,7.151449,7.1633015,7.2002397,7.2665524,7.4045715,7.64382,7.952584,8.305629,8.687599,8.988478,9.160513,9.193825,9.173822,9.165144,9.209318,9.377044,9.876483,10.988319,13.296408,15.957289,16.643324,16.788715,17.112022,17.265572,17.383234,17.44357,17.54595,17.672592,17.810583,17.949114,18.073586,18.18962,18.30034,18.402775,18.497398,18.578568,18.641693,18.695137,18.754883,18.81808,18.887568,18.927494,18.934515,18.96066,18.986969,19.005335,19.020868,19.035965,19.07262,19.151188,19.25426,19.372671,19.499823,19.644957,19.828169,20.06718,20.38571,20.768778,21.202694,21.690563,22.111774,22.473413,22.85716,23.259153,23.665443,24.049477,24.409166,24.739939,25.042896,25.31652,25.545658,25.77158,26.052315,26.400188,26.629913,26.743809,26.890024,27.115746,26.427828,24.024275,22.038584,21.25287,21.006752,21.037758,21.084625,21.031816,20.9291,20.85153,20.843788,20.885899,20.929909,20.948795,20.94608,20.935246,20.929573,20.939682,20.956314,20.966583,20.963097,20.951687,20.94222,20.938837,20.938368,20.93597,20.930176,20.93749,20.975292,21.043522,21.126492,21.192759,21.223284,21.217274,21.206371,21.249453,21.450844,21.936909,22.792318,23.995407,25.737797,26.846615,27.483887,27.904541,28.22493,28.558546,28.995079,29.51918,30.026268,30.451954,30.799625,31.107517,31.418678,31.756111,32.133015,32.45793,32.763794,33.050407,33.309303,33.533844,33.71045,33.853363,33.96714,34.066803,34.15747,34.23511,34.303585,34.36251,34.416622,34.458,34.453743,34.355675,34.142292,33.82809,33.39562,33.178787,33.613194,34.45555,35.174736,35.456474,35.248802,35.144154,35.073826,34.910233,34.791748,34.764328,34.716953,34.570915,34.239174,33.706932,32.975643,31.745598,30.24381,28.855965,27.603075,26.376755,25.677841,25.183332,24.815735,24.501543,24.208036,23.933327,23.686928,23.47212,23.289225,23.15392,23.054626,22.97389,22.878214,22.735563,22.542866,22.321571,22.109144,21.925684,21.778652,21.678831,21.599613,21.52874,21.452888,21.362747,21.266563,21.185444,21.137688,21.124323,21.120283,21.10369,21.06963,21.047945,21.067749,21.116789,20.991524,20.68298,19.992956,18.809072,17.439465,16.249113,15.593466,15.2303505,15.021136,14.942921,14.917912,14.877617,14.818395,14.774728,14.745148,14.719532,14.692455,14.656164,14.610398,14.54583,14.474773,14.407379,14.351822,14.304169,14.233842,14.110878,13.917598,13.67464,13.430979,13.228865,13.087951,13.006999,12.962593,12.928935,12.868111,12.788151,12.71122,12.657381,12.637456,12.639381,12.646989,12.646811,12.6370735,12.629311,12.631241,12.642157,12.657166,12.669138,12.680222,12.685253,12.692403,12.726061,12.800338,12.919437,13.04846,13.124876,13.111837,13.012775,12.881045,12.760538,12.678709,12.632632,12.604843,12.595705,12.591327,12.590152,12.597418,12.611058,12.620651,12.625627,12.625363,12.621428,12.617285,12.610975,12.602535,12.589485,12.568399,12.53923,12.505531,12.480971,12.473982,12.492434,12.530327,12.582115,12.641071,12.715712,12.80995,12.9160385,13.028543,13.133936,13.237667,13.355489,13.494224,13.66978
