3.2486355,3.2548048,3.2618675,3.2692776,3.2765746,3.2829804,3.2881782,3.2913713,3.2929957,3.292949,3.292207,3.2917037,3.2928107,3.2961764,3.3007975,3.3050623,3.3062315,3.3035154,3.29722,3.2887158,3.2812643,3.2783794,3.2815952,3.2853844,3.2881298,3.2894802,3.2884967,3.2858806,3.2828064,3.2805352,3.2796211,3.2810397,3.2847614,3.2905045,3.2978964,3.3068986,3.3175192,3.3306396,3.3487177,3.373162,3.4004993,3.4293437,3.4603837,3.4954758,3.5378208,3.5895412,3.6458235,3.7015572,3.7571063,3.8085995,3.8477445,3.8778882,3.9025965,3.9220605,3.937778,3.9512556,3.9634886,3.9743748,3.9840777,3.9922352,3.9984784,4.0032225,4.006731,4.009385,4.011502,4.013233,4.015063,4.017687,4.021101,4.0256,4.0312724,4.037648,4.043904,4.0491548,4.0529776,4.056365,4.06046,4.066633,4.0745487,4.082606,4.088092,4.088343,4.0833445,4.075304,4.067334,4.0647984,4.07578,4.0928197,4.109683,4.124996,4.1366277,4.145033,4.1507497,4.1524506,4.1506915,4.1471395,4.143945,4.1428576,4.1431956,4.144739,4.147725,4.151498,4.1572294,4.165596,4.1760054,4.18768,4.199074,4.2082043,4.2142525,4.214707,4.2122755,4.209975,4.2095733,4.212625,4.2181034,4.2241554,4.229377,4.23345,4.2382393,4.2454414,4.2576246,4.276542,4.29762,4.31841,4.335492,4.3469114,4.352751,4.3543663,4.353749,4.352266,4.350775,4.349387,4.34803,4.346396,4.343823,4.3395834,4.3334494,4.32642,4.320012,4.3152843,4.3120337,4.308486,4.3034134,4.2964253,4.2883463,4.280605,4.274225,4.270122,4.2682934,4.268242,4.269436,4.271343,4.2736826,4.275998,4.277786,4.278473,4.2781997,4.277419,4.27643,4.275219,4.273486,4.271214,4.2690344,4.267944,4.2681456,4.269845,4.273179,4.278827,4.2874804,4.29795,4.3094454,4.32197,4.3342056,4.344689,4.3526726,4.358411,4.362316,4.3649645,4.3662453,4.36609,4.364542,4.3618717,4.358777,4.355688,4.35285,4.3504963,4.347859,4.343195,4.333686,4.31645,4.2928286,4.2644715,4.235247,4.219757,4.2187443,4.222781,4.2265153,4.226713,4.2220755,4.212517,4.199028,4.182451,4.1648903,4.1486354,4.141977,4.145113,4.1515093,4.15814,4.162141,4.1625967,4.159767,4.153986,4.1435585,4.1263857,4.100715,4.0701637,4.0378103,4.014257,4.0051727,4.006164,4.009147,4.0095186,4.0092664,4.0092497,4.0104856,4.0134234,4.01626,4.0171003,4.015634,4.0117865,4.006822,4.001786,3.9974399,3.994025,3.991396,3.9893918,3.9877687,3.9866323,3.9860227,3.9858694,3.985865,3.985931,3.9860542,3.9862785,3.9867132,3.9873333,3.9880223,3.988832,3.98977,3.9908233,3.9918604,3.9928262,3.9937348,3.9944925,3.9949753,3.9949343,3.994366,3.9934447,3.9923115,3.9910655,3.9898152,3.988555,3.9874396,3.9865272,3.9858487,3.9849286,3.9837632,3.9824193,3.9809585,3.9793754,3.9775622,3.975346,3.9728963,3.9704142,3.9681695,3.9664462,3.965527,3.9651554,3.9648914,3.9641771,3.9629843,3.9614995,3.9597545,3.9579759,3.9561632,3.9543898,3.9525023,3.9501572,3.947421,3.9445682,3.9419508,3.9397826,3.9379325,3.9361777,3.933724,3.9312077,3.929188,3.9277253,3.9263413,3.9245818,3.9225569,3.9203315,3.9182339,3.9162512,3.9141088,3.9117384,3.9092574,3.906647,3.9040477
3.2456765,3.2515244,3.2580729,3.2649195,3.2717748,3.278122,3.2836733,3.2875826,3.2899797,3.2905126,3.2899804,3.2892199,3.289909,3.292997,3.29775,3.3025417,3.3042016,3.301549,3.2946882,3.284905,3.2763271,3.2731795,3.277225,3.2824633,3.28581,3.2873552,3.286174,3.2832012,3.2798772,3.277773,3.2771292,3.2787807,3.2826216,3.2884274,3.2959218,3.3050687,3.3158526,3.3292134,3.3465724,3.3697586,3.3956413,3.4228873,3.4527643,3.4874725,3.5305753,3.5839243,3.6415443,3.6995025,3.7545438,3.802822,3.838985,3.8671222,3.8913877,3.911384,3.9282727,3.9432554,3.9572306,3.9698205,3.9801872,3.9883518,3.9942105,3.998018,4.0000563,4.0009146,4.001157,4.001281,4.0021415,4.004524,4.0084853,4.0143948,4.0222387,4.0314255,4.04082,4.0490427,4.05529,4.060089,4.0645647,4.070179,4.076933,4.0834064,4.0870686,4.0854073,4.0786448,4.0696683,4.060505,4.057383,4.0704308,4.089302,4.107019,4.1227956,4.13476,4.1432076,4.149425,4.1518545,4.150982,4.148355,4.1458526,4.1451664,4.146476,4.149086,4.152852,4.1568165,4.16184,4.1690187,4.1780877,4.188531,4.1990542,4.20757,4.213211,4.213942,4.211879,4.2092123,4.207898,4.2093925,4.2130504,4.21762,4.222209,4.2267046,4.2326875,4.2418566,4.2558436,4.2747517,4.295453,4.3154764,4.331444,4.3418903,4.3473496,4.349143,4.349057,4.348139,4.347039,4.3458786,4.3445997,4.343014,4.340605,4.3368196,4.331543,4.325681,4.3205194,4.3168387,4.3144064,4.3115563,4.307139,4.3007593,4.2929597,4.285342,4.27884,4.27434,4.2719646,4.2712183,4.2715273,4.272604,4.274133,4.275735,4.277249,4.2783346,4.2791533,4.279434,4.2797318,4.2792716,4.2776184,4.2749763,4.272293,4.270651,4.270896,4.273272,4.2776523,4.2841463,4.2920103,4.30038,4.3098884,4.3202205,4.3304296,4.339533,4.346918,4.352524,4.356555,4.3593607,4.3607645,4.360692,4.3591995,4.3565607,4.3534813,4.3504124,4.3475847,4.3452115,4.342512,4.337773,4.328273,4.3112874,4.288015,4.2619886,4.2332835,4.218696,4.216496,4.220378,4.223842,4.223813,4.2190084,4.2093134,4.1956234,4.178872,4.1609144,4.1442103,4.1377697,4.1415157,4.1483717,4.155191,4.159274,4.159649,4.1565027,4.1501207,4.1388493,4.1208124,4.094479,4.0636244,4.031434,4.008498,3.9997816,4.0006514,4.003316,4.003982,4.0040236,4.0042953,4.0057635,4.0088234,4.011736,4.0126467,4.0112453,4.007406,4.0022945,3.996909,3.992056,3.9880524,3.9848464,3.9822984,3.9801664,3.9785857,3.9776359,3.9772675,3.9771495,3.97712,3.9771075,3.9771204,3.9772453,3.9774365,3.9776049,3.9778762,3.9782724,3.9788084,3.9793193,3.97969,3.97988,3.979803,3.9793658,3.9784307,3.9770608,3.9754899,3.9738264,3.9721718,3.9706507,3.9692888,3.968217,3.967485,3.967091,3.9665427,3.9658475,3.965086,3.9643073,3.9635062,3.9626675,3.961708,3.9608207,3.9601624,3.9599373,3.9603539,3.961575,3.9632154,3.9646814,3.9654503,3.9654305,3.9649498,3.9641118,3.963099,3.9618812,3.9605503,3.9590106,3.9570594,3.9547987,3.9523993,3.9501135,3.9481344,3.9463773,3.9446225,3.9420924,3.9393606,3.9369397,3.934895,3.9328387,3.930487,3.9278092,3.924855,3.9219916,3.9192464,3.9163795,3.9133406,3.9102423,3.9070635,3.9039705
3.2434459,3.2488098,3.254548,3.2604327,3.266377,3.2722878,3.2779565,3.2825658,3.2858706,3.2872057,3.2871432,3.2864037,3.2869368,3.289968,3.2950025,3.3004084,3.3026004,3.3000379,3.2926092,3.2816458,3.271874,3.2683663,3.273181,3.2799065,3.2839375,3.2857573,3.284429,3.281176,3.2777333,3.2759252,3.2757592,3.2778206,3.281901,3.2877796,3.2952783,3.3044353,3.3151755,3.3290944,3.3458629,3.367889,3.392822,3.4182057,3.4464457,3.4802923,3.523978,3.579476,3.640009,3.699943,3.7542787,3.800767,3.8350239,3.8617735,3.8851566,3.9048758,3.9222512,3.9390807,3.9545865,3.9678917,3.9778082,3.9849923,3.9894018,3.9909832,3.990242,3.9879928,3.9852974,3.9832969,3.9830532,3.985354,3.9902081,3.998153,4.0091357,4.022221,4.035811,4.0477705,4.0568337,4.062948,4.0673585,4.071847,4.0770116,4.081792,4.0838394,4.0807266,4.0728197,4.0628195,4.052475,4.049597,4.064943,4.086115,4.104949,4.1213713,4.133817,4.14246,4.149151,4.1523285,4.1524158,4.1508017,4.14919,4.14902,4.1509895,4.1545486,4.1587963,4.1628046,4.1668234,4.1725636,4.1800156,4.188796,4.197852,4.2053366,4.2111325,4.212329,4.210515,4.2082176,4.2063055,4.2060423,4.2073526,4.209898,4.21354,4.2184944,4.225917,4.2369614,4.2523127,4.271698,4.2921777,4.311473,4.326515,4.3362236,4.341497,4.343623,4.344233,4.3440714,4.343564,4.3427696,4.341605,4.3400135,4.337666,4.33426,4.329813,4.3251333,4.321263,4.3187084,4.3171663,4.3152027,4.3116407,4.305915,4.298729,4.2916765,4.2855616,4.2810774,4.2782593,4.2766933,4.2759123,4.2757645,4.2762775,4.27711,4.2777243,4.2789154,4.2802944,4.2813096,4.2817864,4.282112,4.281062,4.278926,4.276642,4.2751727,4.2754097,4.277582,4.281713,4.287344,4.2935266,4.3004713,4.308343,4.3168287,4.32547,4.333571,4.340624,4.3462954,4.350563,4.353593,4.3551707,4.3552504,4.353901,4.3514023,4.3484316,4.345443,4.3426313,4.340189,4.3373337,4.3324327,4.322892,4.306136,4.2833185,4.2583714,4.231419,4.2176,4.2143393,4.2174273,4.220626,4.220415,4.215538,4.2057734,4.1921515,4.175853,4.157731,4.140312,4.1337333,4.138021,4.1451607,4.15203,4.156043,4.1562057,4.152651,4.145616,4.133496,4.114643,4.08774,4.056679,4.0247335,4.0025697,3.9943147,3.9951239,3.9975002,3.9984553,3.9987512,3.9992466,4.0008698,4.003982,4.006915,4.007864,4.006512,4.002677,3.9974399,3.991753,3.986473,3.9819758,3.97828,3.975276,3.9726932,3.9706736,3.9693327,3.9686532,3.9682853,3.967997,3.9676385,3.967186,3.9667027,3.9661765,3.9655707,3.9650893,3.9648266,3.9648108,3.9648378,3.9646964,3.9642951,3.9635286,3.9623237,3.9606996,3.9587986,3.9569068,3.9550545,3.9533107,3.951826,3.9506488,3.9498966,3.9495764,3.9496799,3.9496782,3.9496055,3.949577,3.9496236,3.9497414,3.9500108,3.9504223,3.9511697,3.952365,3.9540777,3.956418,3.9593902,3.962552,3.9652421,3.9670634,3.9679394,3.9682791,3.9682283,3.9679587,3.9674058,3.9666772,3.965703,3.9643338,3.9626875,3.9608595,3.9590201,3.9573421,3.9557548,3.954014,3.9513273,3.9482584,3.9453673,3.9427218,3.9399593,3.9368098,3.9333076,3.9294567,3.9256544,3.921978,3.9182692,3.9144974,3.9107554,3.9070048,3.9033918
3.2418325,3.2465825,3.2513232,3.2560375,3.2608042,3.2659688,3.2714407,3.276533,3.280695,3.282975,3.283661,3.2832906,3.2839575,3.2870986,3.292426,3.2983372,3.3009467,3.2984247,3.2904801,3.2785926,3.2678223,3.2639923,3.2693653,3.277175,3.2818003,3.2839046,3.28255,3.279252,3.275972,3.274555,3.275002,3.2775633,3.2819276,3.2878642,3.2952926,3.304364,3.3150344,3.3289542,3.3458796,3.3672338,3.391645,3.4152112,3.4415102,3.4739094,3.5175977,3.5750031,3.6385958,3.7001135,3.7545753,3.8006,3.8332171,3.8585334,3.8809369,3.900683,3.918951,3.9365144,3.952508,3.9656215,3.9739783,3.978754,3.9803953,3.9785733,3.9740658,3.968356,3.9630067,3.9589672,3.956407,3.957169,3.96381,3.9750142,3.9886467,4.005419,4.0238104,4.0405645,4.0537176,4.062327,4.067623,4.0716815,4.0757837,4.0793495,4.0802417,4.0761385,4.0675564,4.0562925,4.044915,4.0427504,4.0595884,4.083186,4.103364,4.120706,4.133952,4.143294,4.1501236,4.1540394,4.1549892,4.1542892,4.153526,4.154088,4.156673,4.1606894,4.1651516,4.1690555,4.172224,4.176628,4.182439,4.189418,4.196706,4.2035704,4.2095127,4.210981,4.2082634,4.2054844,4.20154,4.1977386,4.195216,4.194864,4.197188,4.202883,4.212117,4.2252283,4.2438827,4.265663,4.2872705,4.3068266,4.3216553,4.3310137,4.3361793,4.338543,4.339716,4.340244,4.3403473,4.339978,4.3389874,4.3374357,4.335171,4.332114,4.3283834,4.324625,4.3216496,4.319782,4.318722,4.3171506,4.3141155,4.3093405,4.303275,4.2972865,4.2921224,4.2882266,4.285492,4.283449,4.281942,4.280925,4.2804346,4.2803884,4.2805853,4.281209,4.282283,4.2834272,4.284108,4.2840443,4.283463,4.281986,4.2803736,4.2793016,4.279449,4.2810144,4.283944,4.287966,4.292965,4.2987566,4.3052263,4.3122587,4.319664,4.326949,4.333684,4.3393626,4.3438053,4.347025,4.3487873,4.349056,4.3479037,4.345619,4.342847,4.3400087,4.3372574,4.334751,4.3317256,4.3266544,4.3171024,4.300632,4.278378,4.253975,4.229451,4.2160845,4.212371,4.214836,4.2176127,4.2171426,4.2119703,4.2023525,4.189129,4.1729336,4.1547394,4.1372395,4.130394,4.1344376,4.1416564,4.148493,4.1523104,4.152149,4.1481085,4.14038,4.1274204,4.1078105,4.080449,4.049326,4.01777,3.996508,3.988793,3.9895809,3.991689,3.9928913,3.993397,3.9940658,3.9958012,3.9989295,4.0018463,4.0027957,4.001461,3.9976368,3.9923425,3.986484,3.9809434,3.97614,3.9721422,3.9688816,3.9660454,3.9637346,3.9620423,3.9609761,3.9601593,3.9593015,3.9581861,3.956784,3.9551723,3.953452,3.951686,3.950187,3.9491513,3.948599,3.9482949,3.947906,3.947308,3.946385,3.9450855,3.9435887,3.9421077,3.9408994,3.9398594,3.9389923,3.9384365,3.938233,3.9384694,3.939065,3.9399905,3.94066,3.941177,3.941681,3.9422445,3.9428887,3.943778,3.9449568,3.9465928,3.9487586,3.9514093,3.954573,3.958146,3.9617062,3.9646335,3.9666872,3.9678407,3.9685163,3.9688716,3.969042,3.9689364,3.9686491,3.9681091,3.9671812,3.965992,3.9645867,3.9630666,3.961567,3.9600306,3.95818,3.955221,3.9517422,3.9483058,3.9449666,3.9413996,3.937372,3.9329708,3.9281843,3.9234157,3.9187913,3.9142494,3.9097872,3.905466,3.9012294,3.8971672
3.241374,3.245336,3.248838,3.2521338,3.255485,3.259674,3.264709,3.2700872,3.275077,3.27843,3.2801142,3.2804265,3.2814772,3.2848506,3.2904391,3.296721,3.2996216,3.2970695,3.2886443,3.2759585,3.2643194,3.260179,3.2659044,3.2744927,3.2796016,3.2819624,3.280662,3.277469,3.2745585,3.2737274,3.2748876,3.2779922,3.2826273,3.2885642,3.2958345,3.304765,3.3153915,3.3293655,3.3468964,3.3682344,3.3922467,3.4145854,3.4385571,3.4686837,3.5113528,3.569765,3.6352317,3.6993282,3.7564101,3.8024778,3.8339312,3.8577461,3.8785868,3.8973324,3.9153762,3.9330752,3.9489446,3.961042,3.9669948,3.9681482,3.9658346,3.9598465,3.9514704,3.9405556,3.9290586,3.9194324,3.913248,3.9129462,3.919314,3.9335034,3.9562912,3.980661,4.0035105,4.025653,4.0441704,4.056875,4.064586,4.0694847,4.0735292,4.07663,4.0769663,4.072358,4.063402,4.051399,4.0391703,4.0370054,4.054182,4.0802164,4.101877,4.120407,4.1347923,4.1451054,4.15221,4.1565747,4.158243,4.158353,4.1585765,4.159931,4.162762,4.1668344,4.1713686,4.1750765,4.177619,4.1808863,4.1851416,4.190299,4.1956615,4.2022915,4.2081656,4.209681,4.2059846,4.200199,4.192518,4.182874,4.171117,4.161226,4.1592164,4.165854,4.181029,4.2029014,4.229353,4.2564106,4.280945,4.3019133,4.317334,4.32673,4.331797,4.3341503,4.3355618,4.3365164,4.3370686,4.337043,4.3362036,4.334693,4.3325424,4.3298397,4.326766,4.3237753,4.3214283,4.3199215,4.319003,4.317609,4.3149815,4.310999,4.306059,4.3013344,4.2974024,4.2944717,4.2923307,4.290498,4.2889233,4.2876616,4.2866917,4.285969,4.2854576,4.2850895,4.2858534,4.2867365,4.287029,4.2865963,4.2854643,4.2841415,4.283054,4.2823486,4.2823277,4.2831106,4.284915,4.2878866,4.2919292,4.2967386,4.3021145,4.307993,4.314315,4.320758,4.3269825,4.33244,4.3368683,4.3401723,4.342088,4.342559,4.341653,4.3396444,4.3371468,4.334532,4.331891,4.329341,4.3261547,4.3209457,4.31147,4.295409,4.27383,4.250001,4.2279634,4.2140007,4.2107506,4.212962,4.2154093,4.2146735,4.2095566,4.199957,4.1868143,4.1706533,4.1523504,4.1347475,4.1280465,4.1323004,4.1390586,4.1452804,4.1487446,4.148161,4.143551,4.1351004,4.1213274,4.1010494,4.0733542,4.04231,4.011216,3.99087,3.9837377,3.9845877,3.9865332,3.9879646,3.9886818,3.9895482,3.9914184,3.9945645,3.9974446,3.9983513,3.9969933,3.9931812,3.9879076,3.982028,3.9764044,3.971488,3.9673738,3.964046,3.9611256,3.9586477,3.956633,3.9550896,3.9535904,3.9518023,3.949472,3.9466295,3.943422,3.940118,3.9369378,3.9343028,3.9325414,3.9316232,3.931274,3.9310122,3.930692,3.930193,3.9294944,3.928933,3.928752,3.929121,3.929761,3.930543,3.9315882,3.9329085,3.934576,3.936398,3.938323,3.939693,3.9406998,3.9414985,3.9422522,3.943013,3.9440207,3.945323,3.9470634,3.9492898,3.9518585,3.9547331,3.9577603,3.9606216,3.9628472,3.964373,3.9652467,3.965819,3.9662344,3.9665513,3.9666607,3.966607,3.966297,3.9655814,3.9645824,3.963324,3.9618516,3.9602742,3.958537,3.9563427,3.9529357,3.9489388,3.9449046,3.9408808,3.9365675,3.9317977,3.926684,3.9212239,3.9157982,3.9105487,3.9054644,3.9005504,3.895846,3.891285,3.8869073
3.2401087,3.2431781,3.2454677,3.2474995,3.249681,3.2530956,3.2577615,3.2633352,3.2690053,3.2733595,3.2761145,3.277329,3.2789764,3.2826424,3.2883067,3.2945669,3.297369,3.2945752,3.285757,3.2722924,3.260087,3.2555943,3.261087,3.2701278,3.2753155,3.2778058,3.2766867,3.2738144,3.2715027,3.271412,3.2732334,3.276801,3.2816389,3.2875676,3.29473,3.303614,3.3143075,3.3285832,3.3462253,3.3680768,3.3922524,3.4136562,3.4355617,3.4629464,3.503296,3.5608044,3.6274817,3.693473,3.7519512,3.7990782,3.8302546,3.852798,3.8722792,3.890066,3.9077253,3.925252,3.9403434,3.950476,3.9533195,3.950973,3.9449186,3.9347782,3.919713,3.9059973,3.894007,3.884153,3.8792412,3.8792825,3.8831325,3.8939612,3.9136326,3.9436445,3.9770231,4.003137,4.026789,4.0446157,4.056332,4.063652,4.0688467,4.0721836,4.0723023,4.0673695,4.058156,4.046012,4.032646,4.0297756,4.04659,4.0755796,4.0988045,4.11856,4.1340265,4.145069,4.1525345,4.156981,4.1590548,4.1597996,4.16051,4.1621785,4.1651344,4.1691284,4.173537,4.1770782,4.179125,4.181531,4.1846857,4.1885767,4.1927953,4.19919,4.204681,4.205438,4.1997128,4.1900506,4.176524,4.15373,4.1275663,4.111431,4.1070786,4.1148176,4.134426,4.1644998,4.204442,4.2418227,4.271216,4.2948885,4.3117504,4.321431,4.3261766,4.32804,4.3291745,4.3301105,4.3307886,4.3309064,4.330116,4.3286014,4.3265295,4.3240833,4.3214593,4.3189163,4.316806,4.3152695,4.314165,4.3127527,4.310478,4.307302,4.303562,4.3001738,4.297529,4.295658,4.2943125,4.293127,4.292067,4.290991,4.2899504,4.288909,4.287916,4.2870684,4.2867584,4.2873087,4.2875814,4.28728,4.286398,4.2853136,4.284377,4.2837143,4.283408,4.283415,4.2841167,4.2858896,4.28878,4.292531,4.296924,4.301877,4.3073554,4.3131022,4.318839,4.3240504,4.3284726,4.331968,4.334216,4.335084,4.33458,4.332934,4.3307543,4.328396,4.325923,4.3234177,4.320176,4.3149385,4.3056407,4.2900834,4.2692747,4.246207,4.2257166,4.212949,4.2083464,4.2104917,4.212575,4.211753,4.206775,4.1975675,4.1843796,4.16798,4.1493564,4.13169,4.125084,4.12932,4.1362953,4.141567,4.1442776,4.143207,4.138028,4.128908,4.1143956,4.093531,4.065593,4.034746,4.004118,3.9846387,3.9781253,3.9791117,3.9809976,3.982574,3.9834538,3.984492,3.9864793,3.9896057,3.9923592,3.993086,3.9915771,3.9876976,3.9824722,3.9767017,3.9712029,3.9664187,3.9624445,3.9593062,3.9565477,3.9540854,3.9518101,3.9497232,3.947386,3.9444928,3.9408243,3.936492,3.931745,3.9270253,3.9227214,3.9193373,3.9173045,3.9164815,3.9165068,3.9167686,3.9170995,3.917405,3.9177246,3.9185452,3.920084,3.9223742,3.924944,3.9275177,3.930201,3.932982,3.9359493,3.9388309,3.9415684,3.9434083,3.944623,3.9453583,3.9458966,3.946329,3.9469552,3.9478047,3.948979,3.950521,3.9522529,3.9541245,3.9560118,3.9577336,3.958967,3.959756,3.960195,3.9604964,3.960771,3.9609938,3.9610484,3.960937,3.9605532,3.9597292,3.9585676,3.9570923,3.9553232,3.953331,3.9510546,3.9482164,3.944114,3.939441,3.9347234,3.930007,3.9250147,3.919662,3.9140618,3.9082417,3.9025154,3.8970175,3.891724,3.8866158,3.8817554,3.8771014,3.872636
3.23772,3.2400217,3.2413354,3.2424126,3.2437956,3.2467089,3.2511544,3.2569041,3.2631807,3.2685256,3.2724166,3.274712,3.2770967,3.2810247,3.286486,3.2922382,3.2944741,3.2911296,3.2819371,3.267549,3.2550778,3.2502463,3.2551606,3.2644184,3.2696168,3.2721376,3.2713137,3.2689614,3.267396,3.2680464,3.2704737,3.274445,3.2794585,3.285406,3.2925353,3.3014789,3.3124201,3.3265066,3.344413,3.3671663,3.391964,3.4126568,3.4327288,3.4569664,3.4938102,3.5487304,3.6149647,3.6811466,3.7401435,3.7892847,3.821147,3.8427823,3.8614025,3.8786364,3.8960729,3.9133177,3.9272475,3.9348652,3.9342656,3.928884,3.9168866,3.8997533,3.88482,3.872159,3.862723,3.8584087,3.8581119,3.8590035,3.8610396,3.8657146,3.875289,3.8987381,3.9339375,3.973329,4.0036955,4.0268736,4.0437775,4.05484,4.0622015,4.066289,4.0663548,4.0611067,4.0517797,4.03872,4.02404,4.0205245,4.036498,4.0676165,4.093646,4.114791,4.1311417,4.142542,4.149892,4.15413,4.156224,4.1571646,4.158182,4.1600113,4.163096,4.1672544,4.1715717,4.1749597,4.1769037,4.1782703,4.1806817,4.1839633,4.188289,4.1942973,4.1991606,4.1985483,4.1900845,4.175452,4.149026,4.112679,4.08012,4.060213,4.054467,4.0628195,4.085305,4.1208262,4.1686106,4.2221575,4.2592354,4.286316,4.3048897,4.314823,4.31892,4.3198185,4.3201942,4.3206873,4.321173,4.321229,4.320406,4.318906,4.316963,4.31479,4.3125577,4.3103333,4.308312,4.3066206,4.3052435,4.303767,4.301843,4.299471,4.296855,4.2946315,4.293038,4.292119,4.2915974,4.2911463,4.2906504,4.290002,4.289197,4.288207,4.2871547,4.2862325,4.285549,4.285964,4.286313,4.2862263,4.285713,4.2850676,4.2844872,4.2839036,4.2831583,4.282404,4.2821655,4.282788,4.284503,4.287177,4.2906494,4.294823,4.299637,4.304817,4.310114,4.3150887,4.319528,4.3232937,4.326021,4.3274317,4.327427,4.326174,4.3242836,4.3221493,4.3198633,4.317482,4.3143034,4.3091702,4.3001757,4.2852364,4.2653055,4.243149,4.223605,4.212259,4.206993,4.208516,4.2104607,4.2094684,4.2042875,4.1949587,4.181967,4.1654134,4.1463156,4.128669,4.122122,4.126273,4.133423,4.1384215,4.139866,4.1381054,4.132371,4.1226196,4.1074243,4.0860357,4.0581074,4.0270386,3.9971235,3.9783492,3.9724798,3.9737031,3.9756708,3.977345,3.9783797,3.979607,3.981719,3.9847913,3.9873366,3.9877567,3.9859624,3.9819412,3.9767609,3.9711885,3.9659386,3.9614267,3.9577127,3.954862,3.9523396,3.9499252,3.9473634,3.9446425,3.9413552,3.9372888,3.9323277,3.9266706,3.9206924,3.9149895,3.910088,3.9065175,3.904498,3.9041553,3.9052706,3.9063802,3.9074807,3.9086826,3.9100943,3.9122996,3.9154372,3.919365,3.9234614,3.927322,3.931092,3.93478,3.9385085,3.9420047,3.9451928,3.9472508,3.9484568,3.9489484,3.9491038,3.9490309,3.9490678,3.94922,3.9495602,3.9501405,3.950809,3.9515219,3.9522448,3.9529166,3.953361,3.9536338,3.9538531,3.9540763,3.9543355,3.954545,3.9545617,3.954385,3.9539025,3.9529457,3.9515953,3.9498982,3.9478736,3.9455655,3.9428859,3.939601,3.9350753,3.9300866,3.9250975,3.9201407,3.9149418,3.9094605,3.9038286,3.8980784,3.8924553,3.887002,3.881937,3.8775911,3.8732944,3.8686044,3.8638127
3.2311244,3.2330015,3.233973,3.2349026,3.2363667,3.2395802,3.244429,3.250695,3.257678,3.2640226,3.2690916,3.2726107,3.2758443,3.279955,3.2848387,3.2894683,3.2905693,3.2863927,3.277061,3.2619214,3.2493544,3.244399,3.249618,3.2582488,3.2642841,3.266842,3.266499,3.2648356,3.264043,3.2653146,3.2682295,3.2725096,3.2776623,3.2836585,3.2908287,3.2999506,3.3108099,3.3246484,3.3432336,3.3668065,3.3921998,3.412769,3.4316297,3.453246,3.486516,3.5377908,3.601718,3.6676316,3.7261589,3.7747397,3.808876,3.8310242,3.8490674,3.865757,3.8826032,3.8989816,3.9112308,3.916233,3.9133449,3.904502,3.8880124,3.8722868,3.8592312,3.85015,3.8477573,3.851437,3.8562458,3.8574572,3.854256,3.8526523,3.8564897,3.8691301,3.8937037,3.932681,3.97408,4.005596,4.027357,4.042746,4.0530086,4.058402,4.058761,4.053426,4.044181,4.030014,4.0142245,4.0103016,4.025813,4.0570707,4.0866904,4.109542,4.1268167,4.1384897,4.1458855,4.150141,4.1521373,4.153107,4.1541815,4.15611,4.1592584,4.1632013,4.1672373,4.170494,4.1724424,4.1736107,4.174911,4.177749,4.1826324,4.187955,4.191739,4.189399,4.1784544,4.16096,4.12693,4.0856104,4.0530944,4.036581,4.0340424,4.039894,4.058251,4.0931726,4.1429663,4.2029514,4.2460175,4.276167,4.2957687,4.3057566,4.309188,4.3091526,4.3087673,4.3087454,4.3089137,4.3088017,4.3079166,4.306487,4.304803,4.303106,4.3015594,4.3000526,4.2986026,4.2972655,4.2960815,4.2948933,4.2935076,4.291993,4.290451,4.289182,4.288297,4.287753,4.2874413,4.2871866,4.286908,4.2864723,4.2858295,4.2849674,4.2840204,4.283192,4.2827024,4.2831244,4.283449,4.2834015,4.2830257,4.2825994,4.282219,4.2816973,4.280835,4.2798986,4.2790346,4.2788305,4.279631,4.281459,4.2842836,4.2880015,4.2924957,4.297411,4.302448,4.3072157,4.311593,4.315515,4.318617,4.3205175,4.3209925,4.320099,4.318451,4.316473,4.3143167,4.312048,4.3089743,4.304023,4.2953997,4.281126,4.2620726,4.240821,4.221903,4.2112007,4.206506,4.207223,4.2091,4.2079744,4.2025805,4.1929636,4.179905,4.163388,4.143777,4.1260424,4.119317,4.1231947,4.1304355,4.135149,4.13566,4.133317,4.1270676,4.116727,4.1008754,4.079249,4.051071,4.019577,3.9904156,3.972223,3.9670568,3.9686205,3.9707568,3.9724874,3.973639,3.9750352,3.9772716,3.9802995,3.9826338,3.9827218,3.9806108,3.976428,3.9713197,3.966014,3.961093,3.9568806,3.9533548,3.950606,3.9480782,3.9454768,3.9424653,3.939066,3.9349914,3.9301715,3.924625,3.9185865,3.912516,3.907063,3.9028149,3.899683,3.8990593,3.9004354,3.902771,3.9047465,3.906614,3.908495,3.9106212,3.913576,3.9174113,3.9218273,3.9261417,3.9299345,3.9334872,3.936901,3.9403625,3.9436157,3.9465876,3.948432,3.949401,3.9495971,3.9494052,3.9489222,3.9484806,3.9480567,3.947679,3.9474077,3.9471164,3.946795,3.9464958,3.9462538,3.9459898,3.9457173,3.945561,3.9454505,3.9453807,3.9452586,3.9449306,3.9444265,3.943685,3.942562,3.9411104,3.9393778,3.9373906,3.9351432,3.9325237,3.9293833,3.9251728,3.920745,3.9164195,3.9125423,3.9089704,3.905932,3.9027534,3.8991885,3.8953633,3.891264,3.8870783,3.8827286,3.8782983,3.8737078,3.8690438
3.2242298,3.2259884,3.2271378,3.2286086,3.23083,3.2349236,3.2406433,3.247672,3.2554114,3.262744,3.2689974,3.2737803,3.2778401,3.2819436,3.2858794,3.288835,3.2883224,3.283215,3.272612,3.257947,3.2460623,3.242015,3.2471862,3.255148,3.2617028,3.2646518,3.2649164,3.264,3.2639089,3.2657266,3.2690046,3.2734895,3.2787347,3.2847838,3.2920172,3.3013198,3.3116274,3.3257,3.3447566,3.3688362,3.3944454,3.415372,3.4336739,3.4533162,3.4832425,3.5297832,3.590066,3.6554363,3.7133436,3.7609544,3.7978573,3.8217506,3.8397098,3.8559327,3.8719168,3.88695,3.8971052,3.8995495,3.8946362,3.8820887,3.8668375,3.8535404,3.8464432,3.8443751,3.8498447,3.8581152,3.8637242,3.8656716,3.864615,3.8568826,3.849976,3.8534145,3.8695793,3.8986282,3.9393039,3.9808056,4.0107107,4.0302553,4.043769,4.0510507,4.052315,4.046706,4.0373683,4.0225616,4.006344,4.002829,4.017707,4.0482025,4.08049,4.1050177,4.1233616,4.1353903,4.142847,4.1468883,4.1488485,4.149952,4.1512074,4.153136,4.1560025,4.1595054,4.1631527,4.1662455,4.1682615,4.1695776,4.1709833,4.1737347,4.1789894,4.183371,4.1857243,4.1816816,4.170196,4.150528,4.1145525,4.0744133,4.0462036,4.034544,4.033114,4.0388784,4.0529656,4.082507,4.130152,4.190903,4.2358055,4.2675357,4.287684,4.2973037,4.3001575,4.299445,4.2985115,4.2980847,4.297942,4.2976184,4.2966537,4.2953663,4.2941575,4.2932305,4.292714,4.292353,4.291997,4.291574,4.291089,4.290542,4.289891,4.2891865,4.2883873,4.287672,4.287049,4.286486,4.2859635,4.285434,4.2849054,4.284275,4.2835026,4.28261,4.2817345,4.281044,4.2811623,4.281727,4.282073,4.2820473,4.2817082,4.281332,4.2810206,4.2806883,4.2802763,4.2792854,4.2781143,4.277362,4.277466,4.2786255,4.281002,4.2845516,4.289098,4.294121,4.2991743,4.3038435,4.3080883,4.3119755,4.3152485,4.3174915,4.3183594,4.317789,4.316354,4.314503,4.3124456,4.3102827,4.307353,4.302642,4.2944374,4.280842,4.262641,4.242242,4.22384,4.2134714,4.209216,4.209736,4.211569,4.210374,4.204816,4.1949463,4.1816483,4.164998,4.1451755,4.1271744,4.120033,4.1234255,4.1306787,4.1351013,4.1351576,4.1324224,4.1257615,4.114908,4.0984488,4.0764666,4.048037,4.0162477,3.987761,3.9701238,3.9656992,3.96762,3.969985,3.9717894,3.9730363,3.9745953,3.9769726,3.9799876,3.982149,3.981945,3.9795628,3.9752777,3.970284,3.9652958,3.960723,3.9567552,3.9532747,3.9503927,3.9475772,3.94451,3.9408717,3.9367733,3.9321423,3.9270792,3.9217427,3.9162955,3.9112191,3.9071321,3.904591,3.9038959,3.9052548,3.9080389,3.9114447,3.914577,3.9172292,3.9196038,3.921955,3.9249535,3.9285293,3.932282,3.9355793,3.9381025,3.9403167,3.9424648,3.9447818,3.9470673,3.949254,3.9505253,3.9510708,3.9509673,3.9505358,3.9498253,3.9491131,3.9483614,3.9475446,3.9467154,3.945776,3.9447544,3.9437828,3.942965,3.9422112,3.9414506,3.9407954,3.9401498,3.939487,3.938757,3.9378698,3.9372904,3.937017,3.9364202,3.9354792,3.9342146,3.9326878,3.9314082,3.9302294,3.928439,3.925509,3.9225104,3.9198983,3.9177837,3.9157872,3.913724,3.9114487,3.9086552,3.9054825,3.9017968,3.8978636,3.893715,3.8895326,3.8852406,3.8809686
3.2163186,3.2184496,3.2203307,3.222868,3.2262843,3.231464,3.2380626,3.245679,3.2539198,3.262061,3.2693896,3.2753491,3.280013,3.2836294,3.2859397,3.2864566,3.2837863,3.2772856,3.2652488,3.2521486,3.2425594,3.2402616,3.245058,3.252658,3.2589781,3.2622845,3.2632604,3.2631402,3.2637,3.2658792,3.269341,3.2738824,3.2791338,3.285223,3.2925708,3.3019764,3.313238,3.3277555,3.3470187,3.3710532,3.3953748,3.416102,3.435034,3.4549341,3.4821153,3.524361,3.5804844,3.6426997,3.699826,3.7479343,3.786089,3.8135033,3.8334389,3.8493786,3.8642583,3.8774824,3.8851285,3.8850284,3.8786922,3.869092,3.85748,3.848115,3.8441105,3.8472672,3.8545842,3.8610787,3.8666258,3.8687434,3.8666663,3.863134,3.8549676,3.8487802,3.8558378,3.8802466,3.915494,3.959247,3.9930673,4.018106,4.0346212,4.0437603,4.045911,4.0405955,4.030239,4.0175457,4.003558,3.9989314,4.012141,4.04154,4.073148,4.0999002,4.1201987,4.133677,4.142107,4.1470838,4.148944,4.1494293,4.1502256,4.152019,4.154299,4.1570277,4.159971,4.162664,4.164625,4.1660748,4.167658,4.1705084,4.174982,4.1791787,4.1808653,4.175662,4.1648316,4.1453085,4.116109,4.0785236,4.0527143,4.0456533,4.0462756,4.0511274,4.063333,4.089532,4.133711,4.187379,4.2285924,4.259778,4.2797318,4.2890954,4.291832,4.2912717,4.290471,4.289995,4.2895427,4.2887754,4.2874565,4.2860103,4.284936,4.284548,4.285017,4.2859306,4.2869134,4.2876472,4.287998,4.288026,4.2877913,4.2874355,4.286921,4.286368,4.2857513,4.28502,4.2841673,4.2832146,4.282253,4.281253,4.280218,4.279215,4.2783546,4.2778225,4.278027,4.278556,4.2788444,4.27874,4.2783356,4.2780066,4.2784214,4.2786956,4.278492,4.2777557,4.2767267,4.275938,4.2758093,4.276621,4.278696,4.282119,4.286766,4.292028,4.2972856,4.3019724,4.3059874,4.3094707,4.312318,4.3142705,4.3150287,4.314512,4.3132143,4.311511,4.3096027,4.3075886,4.3048573,4.300469,4.292801,4.28004,4.262844,4.2433386,4.2257757,4.2151556,4.210282,4.211161,4.2126904,4.211434,4.205915,4.196108,4.182824,4.1663847,4.1470084,4.128956,4.121292,4.1237297,4.1304903,4.1344285,4.1343684,4.1312933,4.124178,4.1127853,4.095686,4.0730643,4.0444093,4.012543,3.984533,3.9674177,3.9637907,3.9659758,3.9685543,3.9705896,3.9718657,3.9735668,3.9761057,3.979178,3.9812782,3.9809284,3.9784198,3.9741552,3.9693437,3.9646335,3.9602485,3.9562025,3.9522939,3.9486814,3.9449804,3.9409835,3.9365308,3.9318705,3.9271302,3.9225092,3.9182072,3.9142253,3.9109566,3.9089267,3.9086022,3.9101014,3.9134464,3.9178267,3.922339,3.9261642,3.929151,3.9316273,3.9338756,3.93648,3.939282,3.9418178,3.943581,3.9443984,3.9449015,3.9454384,3.9462528,3.9471633,3.948149,3.9484718,3.9482927,3.9476776,3.9468503,3.9457953,3.944725,3.9436142,3.9424014,3.9411058,3.9396577,3.9380937,3.9368043,3.936413,3.9361744,3.9356542,3.9348783,3.9339175,3.9328332,3.9318376,3.9308767,3.930214,3.9301887,3.9302366,3.9303212,3.9303622,3.930472,3.9305112,3.930217,3.929317,3.9273953,3.9255433,3.9242032,3.9234214,3.922834,3.9220405,3.9208672,3.9190056,3.9166667,3.913639,3.9102187,3.9065566,3.9028773,3.8990583,3.8954692
3.2091055,3.2117338,3.214428,3.2180898,3.222754,3.2289996,3.2364058,3.244491,3.2531047,3.2619243,3.270154,3.2769809,3.2817898,3.2842932,3.284347,3.2818942,3.2765298,3.2667437,3.2550669,3.2443328,3.2375543,3.2367647,3.2409768,3.248039,3.253999,3.2573376,3.259016,3.2596965,3.260962,3.2635617,3.2671251,3.2716649,3.2769017,3.2830517,3.2905738,3.3001876,3.3120317,3.3273888,3.3464878,3.3689408,3.3926775,3.4138722,3.4330003,3.4531708,3.4798598,3.5179882,3.569449,3.6275234,3.6829655,3.7329257,3.7738042,3.8047628,3.8263555,3.843216,3.8575375,3.8687713,3.8736732,3.8710623,3.8632774,3.8547947,3.8470228,3.841814,3.84173,3.84705,3.8544476,3.8617773,3.8672037,3.8689568,3.8662977,3.8608127,3.8553634,3.849842,3.8482525,3.8649693,3.8984504,3.9402041,3.9762282,4.0049877,4.0246534,4.0353613,4.0378675,4.0330353,4.022431,4.0097256,3.9992492,3.995192,4.0063963,4.033247,4.0641103,4.09279,4.115465,4.1311493,4.1405697,4.1462793,4.148183,4.148278,4.148529,4.150042,4.1515865,4.1533794,4.155463,4.157607,4.1593904,4.160886,4.1625814,4.1654654,4.1697674,4.17376,4.174927,4.170662,4.1597595,4.1408014,4.117196,4.0902443,4.065139,4.061839,4.0645037,4.069229,4.0809784,4.1056385,4.143862,4.1851482,4.2216644,4.2510595,4.270071,4.279383,4.2826624,4.282915,4.2826986,4.282393,4.281639,4.280267,4.2783117,4.276412,4.275275,4.275317,4.276743,4.2789917,4.2814302,4.2834225,4.284643,4.285142,4.285082,4.2847815,4.2843213,4.2838736,4.2833858,4.282722,4.2817945,4.280598,4.279303,4.277976,4.276708,4.2756066,4.2747707,4.2744246,4.2745285,4.274851,4.275113,4.2752237,4.2752643,4.2754774,4.2758465,4.2761955,4.2761893,4.275732,4.2749515,4.2742777,4.274032,4.274501,4.276144,4.2792525,4.28389,4.289442,4.2951374,4.300112,4.304036,4.307004,4.309037,4.3102007,4.3104315,4.309754,4.3085556,4.3070574,4.3053637,4.3035173,4.300982,4.2969275,4.2898526,4.2780666,4.2620606,4.2435856,4.226883,4.2157493,4.2102523,4.2109075,4.211964,4.2107058,4.2054486,4.195997,4.1830225,4.1672125,4.148753,4.130865,4.1227508,4.1239057,4.1297674,4.1330338,4.132943,4.129532,4.1219587,4.110045,4.09236,4.0690613,4.0402403,4.008295,3.9803705,3.9642396,3.961368,3.9638662,3.9664068,3.968535,3.9700603,3.9719281,3.974599,3.977783,3.9799337,3.9796166,3.97718,3.9730887,3.968513,3.964002,3.959612,3.9551778,3.9504752,3.945732,3.9408035,3.9356616,3.9303954,3.9254003,3.920987,3.9173536,3.9146147,3.912527,3.9112859,3.9113193,3.9129648,3.9162436,3.9209702,3.9262712,3.931185,3.9350863,3.937893,3.9400482,3.9418478,3.9437606,3.9455876,3.9468741,3.9472551,3.9467268,3.9459853,3.9454138,3.9452152,3.9451811,3.945366,3.9451346,3.9446716,3.9440827,3.9433992,3.9425235,3.941588,3.9409208,3.940498,3.9399595,3.939348,3.938607,3.9377966,3.937066,3.9360254,3.9345696,3.9332154,3.9316916,3.9297621,3.9276915,3.9255707,3.9239748,3.9233065,3.9233422,3.9237633,3.9243329,3.9252005,3.926114,3.9266534,3.92669,3.9255686,3.9246132,3.9244032,3.9250145,3.9262242,3.9267302,3.9265492,3.925423,3.9237952,3.9215498,3.9190042,3.9162693,3.9134598,3.9104617,3.907451
3.20407,3.2074127,3.211125,3.215968,3.2217562,3.228739,3.2365396,3.2447495,3.2535067,3.2628555,3.2717443,3.278912,3.2830362,3.28342,3.2804334,3.2739398,3.2642465,3.2529855,3.2423868,3.2336612,3.2282076,3.2274868,3.2305098,3.235937,3.2410712,3.2452404,3.2476082,3.2492495,3.2515113,3.2545362,3.2582092,3.2626996,3.267839,3.273949,3.281521,3.291254,3.3031633,3.3182344,3.336516,3.3578076,3.3801363,3.4006906,3.4196312,3.4389145,3.4635444,3.4978929,3.543943,3.5977662,3.6508365,3.700981,3.7441225,3.7783518,3.8041186,3.8233743,3.8384871,3.849383,3.853197,3.8496609,3.8417363,3.8328013,3.8272467,3.82529,3.8284984,3.8357797,3.8441973,3.8514276,3.8561394,3.8570404,3.8535604,3.8472395,3.8401613,3.8338647,3.8306625,3.8421226,3.8712144,3.914291,3.9524212,3.983212,4.0059824,4.0180826,4.021427,4.0167294,4.006376,3.9938898,3.9847708,3.9813392,3.9907012,4.014539,4.0446057,4.0745335,4.098302,4.1153455,4.1253047,4.130287,4.1327276,4.133932,4.1347084,4.1351376,4.1355367,4.136151,4.1372046,4.138665,4.140239,4.1419306,4.144033,4.147198,4.151492,4.1557093,4.157963,4.1548257,4.1444674,4.1271353,4.105917,4.0832,4.062871,4.057436,4.061283,4.0668826,4.08092,4.1078706,4.1417894,4.1763563,4.208619,4.235029,4.2524204,4.261404,4.2650795,4.265907,4.2658415,4.265156,4.2635694,4.2611704,4.2582893,4.2557573,4.254446,4.2548122,4.2570624,4.260476,4.264159,4.2671957,4.2690983,4.269943,4.2700124,4.269824,4.2696023,4.2695923,4.269714,4.269719,4.2694154,4.268722,4.267844,4.2668996,4.2660313,4.2653847,4.2650604,4.26528,4.265979,4.2668557,4.26752,4.2677994,4.2677493,4.267662,4.2676973,4.2677855,4.2676954,4.2673435,4.2667656,4.266242,4.265905,4.2659597,4.2669272,4.2693987,4.273793,4.2797236,4.286424,4.292664,4.297681,4.301204,4.303157,4.303918,4.3037844,4.3030925,4.3022385,4.301262,4.3000937,4.298626,4.2963758,4.292659,4.2861843,4.275472,4.260886,4.2437725,4.227801,4.2164664,4.210822,4.210391,4.2109904,4.209572,4.204233,4.194439,4.18163,4.1663675,4.1487856,4.131564,4.1232166,4.1233077,4.128379,4.1309805,4.130604,4.1267843,4.118783,4.10644,4.088331,4.0646095,4.0357194,4.0037847,3.9760199,3.960825,3.958696,3.9615283,3.9640152,3.9659767,3.9676585,3.969919,3.9727519,3.976005,3.9782336,3.978022,3.9757347,3.9718175,3.9673338,3.96272,3.9579601,3.9528081,3.9471083,3.9412236,3.9352527,3.929388,3.9239542,3.9194217,3.916132,3.9141438,3.9133296,3.9131756,3.9136388,3.9150963,3.917784,3.921724,3.9266586,3.9317603,3.9361262,3.939358,3.9414377,3.9428988,3.944025,3.9451437,3.9460473,3.946329,3.9457378,3.9444,3.9429917,3.9418678,3.9411302,3.9405987,3.940445,3.9401503,3.940042,3.9409904,3.9419851,3.942774,3.9431453,3.9430642,3.942627,3.942048,3.9413855,3.9409547,3.940568,3.940144,3.939371,3.9379835,3.9359882,3.9338088,3.931489,3.929212,3.9272356,3.9258842,3.9254022,3.925407,3.9257808,3.9261775,3.9266686,3.9270172,3.9269495,3.9264665,3.9254813,3.924984,3.9262843,3.9281554,3.92982,3.9306703,3.9307604,3.9298813,3.92855,3.9267926,3.9250238,3.9229298,3.9205847,3.9179053,3.9151444
3.1993861,3.203621,3.208599,3.2148452,3.2218866,3.2295604,3.2375891,3.2457309,3.254458,3.2641034,3.2733335,3.2803204,3.2830672,3.2806354,3.2739654,3.262188,3.2489414,3.236981,3.22755,3.2200727,3.2151895,3.213428,3.2148027,3.2179444,3.221661,3.2258291,3.2299309,3.2328644,3.2363853,3.2399008,3.2437882,3.248289,3.2533002,3.2593431,3.266962,3.27669,3.2882671,3.3023994,3.3196125,3.3393707,3.360093,3.3796675,3.3980336,3.4161768,3.4373846,3.4662695,3.5057478,3.5545719,3.6044648,3.6521096,3.695137,3.7312565,3.7611532,3.7851849,3.8030596,3.8155766,3.820253,3.8174052,3.809414,3.801845,3.7993314,3.8002224,3.8051794,3.813638,3.8223522,3.829041,3.8326771,3.8324842,3.828248,3.8217654,3.8145556,3.8073125,3.8021355,3.8109531,3.835861,3.8762946,3.919249,3.951186,3.9752421,3.9889112,3.992983,3.989407,3.98106,3.9695144,3.9595294,3.9555995,3.9648776,3.9859605,4.014085,4.043411,4.0670567,4.083849,4.0939374,4.099072,4.101408,4.102374,4.102841,4.102958,4.10298,4.1032324,4.1041,4.105668,4.107568,4.109749,4.1124926,4.116334,4.1212664,4.12599,4.128453,4.12589,4.1170416,4.102473,4.084399,4.0642796,4.047741,4.044236,4.0486045,4.05547,4.0728264,4.1014915,4.1306295,4.159913,4.187495,4.2100077,4.225115,4.2333527,4.237072,4.2380233,4.2375193,4.2358637,4.2330227,4.2293963,4.2255707,4.222342,4.220746,4.22151,4.2245173,4.2288046,4.233383,4.2371306,4.2394743,4.2405653,4.240817,4.2409525,4.2412777,4.2420974,4.243294,4.244504,4.2454586,4.2459965,4.2463207,4.2465563,4.24685,4.247359,4.248169,4.2494793,4.2511463,4.2527723,4.2538643,4.254184,4.2538004,4.2530804,4.252363,4.2517767,4.2512636,4.2507844,4.2503014,4.2499137,4.2494893,4.249071,4.249176,4.2507396,4.2546663,4.2610216,4.269261,4.27778,4.2853527,4.2909527,4.294018,4.2951374,4.2950497,4.29459,4.294353,4.2942166,4.2938604,4.292964,4.291084,4.2877064,4.281824,4.2722616,4.259286,4.243841,4.2289405,4.2176123,4.2112317,4.210003,4.2093897,4.2070627,4.20117,4.191345,4.1786327,4.163644,4.1469784,4.1308994,4.12272,4.1223783,4.1267657,4.128623,4.127594,4.1232758,4.1148887,4.1022253,4.0838594,4.060009,4.031064,3.9989784,3.9715624,3.957201,3.9557488,3.958917,3.961415,3.9632378,3.9647846,3.9674773,3.9705672,3.973893,3.976247,3.9762213,3.9741244,3.970315,3.9657264,3.96069,3.9552183,3.9490855,3.9422922,3.9353688,3.9286723,3.9226122,3.9176865,3.9143581,3.9128523,3.91297,3.9142323,3.915882,3.9176207,3.9198403,3.9226916,3.9262986,3.930387,3.934295,3.9372525,3.9391441,3.9400666,3.9406228,3.941055,3.941546,3.9419265,3.9418552,3.9412494,3.9401398,3.9390826,3.938621,3.938196,3.9378738,3.938057,3.9385476,3.9397106,3.9413605,3.9431298,3.9442968,3.944511,3.9442813,3.943783,3.9431314,3.9425788,3.942212,3.941958,3.9417837,3.9413857,3.9403975,3.938853,3.9371028,3.9352984,3.9336195,3.9322453,3.9314594,3.9313016,3.931441,3.9317188,3.9318774,3.9319234,3.9317818,3.9313154,3.93075,3.9305298,3.9312716,3.9325972,3.9340837,3.935188,3.9354095,3.9350095,3.9339645,3.9327397,3.931222,3.9293602,3.9271688,3.9246812,3.9218242,3.9189003
3.194027,3.198923,3.205042,3.2126012,3.2208385,3.2291512,3.2373369,3.245345,3.2539184,3.2635403,3.2725565,3.2785945,3.2791893,3.273543,3.2616668,3.2448988,3.2296414,3.2179663,3.2096968,3.203664,3.1986704,3.1944718,3.1923044,3.1934738,3.1956348,3.1992283,3.2043076,3.209658,3.2149558,3.2194438,3.2238932,3.2285662,3.2332382,3.2388983,3.2462592,3.2549303,3.2655025,3.2788463,3.2949069,3.3130436,3.331532,3.3494592,3.3665433,3.3824959,3.3992462,3.4217267,3.4531064,3.4937305,3.5395842,3.5833418,3.6211405,3.6547766,3.6846428,3.7118793,3.7358608,3.7541485,3.762713,3.7619672,3.7568803,3.7533474,3.7536159,3.75784,3.7645228,3.7736316,3.7827234,3.7893662,3.7926383,3.7919593,3.7876215,3.780932,3.77233,3.761589,3.7562518,3.7633657,3.7852793,3.8200684,3.86403,3.902513,3.9268098,3.9409242,3.9461126,3.9444246,3.9379544,3.9286265,3.9193769,3.9165578,3.92526,3.9426055,3.9648252,3.9901752,4.01047,4.0243177,4.032105,4.035141,4.0357265,4.0357275,4.0359898,4.036541,4.0374403,4.0386453,4.040704,4.0437965,4.0472193,4.051008,4.055571,4.06146,4.068615,4.0750747,4.0783844,4.077288,4.0712194,4.0604997,4.0447183,4.027942,4.018858,4.0205946,4.026266,4.035082,4.0531883,4.0805826,4.1077394,4.1327457,4.154783,4.1723747,4.1840773,4.190209,4.1918855,4.1905723,4.187934,4.1844683,4.1803217,4.1759777,4.1718454,4.1679964,4.16597,4.168098,4.172721,4.1780663,4.1834607,4.18767,4.1901913,4.1915007,4.192258,4.193207,4.194663,4.196862,4.1996393,4.202563,4.205305,4.2075515,4.2096834,4.211898,4.2142544,4.216822,4.219552,4.222437,4.225294,4.2276344,4.2288504,4.228715,4.22725,4.2249274,4.2227364,4.221036,4.2199,4.2192473,4.218918,4.21889,4.218629,4.217821,4.216789,4.216777,4.2195807,4.226435,4.2374935,4.2508698,4.263258,4.2730865,4.2792177,4.2821217,4.2829533,4.283243,4.28393,4.2848763,4.2855134,4.285306,4.283828,4.2807717,4.27547,4.2670984,4.255904,4.2424564,4.2290974,4.218342,4.211135,4.208024,4.20597,4.202551,4.196268,4.1864586,4.17351,4.1585817,4.142461,4.1282663,4.1211085,4.120655,4.124424,4.125331,4.1235013,4.1186705,4.1099606,4.097107,4.0786853,4.0549493,4.026051,3.993483,3.9668484,3.9531698,3.9522781,3.955772,3.9583414,3.9599962,3.9613624,3.9643962,3.9677377,3.971146,3.9736447,3.9737906,3.9717913,3.9678297,3.9627376,3.9568324,3.9503093,3.9431338,3.935526,3.9281926,3.921577,3.9161787,3.9126372,3.9112444,3.9119468,3.9142694,3.9173434,3.9202774,3.922614,3.924865,3.927147,3.9297533,3.932468,3.93485,3.936266,3.9368057,3.9365885,3.9361145,3.9358082,3.935944,3.9361353,3.9363413,3.937151,3.9377809,3.9379916,3.9380045,3.9373205,3.936786,3.9370012,3.9378097,3.9395764,3.942103,3.9445207,3.9458575,3.9468179,3.9474325,3.9476938,3.947507,3.947388,3.9476671,3.948265,3.9489045,3.9492157,3.948931,3.9480724,3.9469347,3.9456463,3.9443684,3.9434562,3.9434285,3.9436839,3.9440079,3.944313,3.9444294,3.9442787,3.9437685,3.9428215,3.9417377,3.940392,3.9397197,3.939693,3.9399338,3.93989,3.9391568,3.937913,3.9361687,3.934385,3.932527,3.9304588,3.928114,3.9254878,3.9225354,3.9195552
3.1886973,3.1941247,3.2013032,3.2099967,3.219263,3.2279637,3.2359629,3.2434103,3.2513509,3.2603316,3.268608,3.2732353,3.2715876,3.262362,3.2455125,3.2253072,3.2092772,3.1983354,3.1918025,3.1876945,3.1826496,3.176445,3.170941,3.168406,3.1692095,3.1730192,3.1786528,3.1845646,3.1908956,3.1968975,3.2024508,3.2077067,3.212838,3.2182164,3.224424,3.2325516,3.2426803,3.2550464,3.269333,3.2850223,3.3015647,3.317831,3.3332255,3.3475013,3.3622482,3.3795633,3.4023147,3.432045,3.4653976,3.4995143,3.5309336,3.5588832,3.585339,3.6132064,3.6418495,3.667046,3.6835763,3.6903415,3.6917226,3.693357,3.696838,3.7038817,3.7137866,3.724516,3.7345896,3.741559,3.745317,3.745109,3.741065,3.7312207,3.7197053,3.711347,3.7085724,3.7137465,3.7321799,3.7625146,3.7976851,3.8334737,3.8610222,3.8761158,3.881543,3.8800988,3.8762383,3.8725882,3.87148,3.8754497,3.8837714,3.8963866,3.9084291,3.9188597,3.9273508,3.9321725,3.9322712,3.9296374,3.9263604,3.923591,3.9230728,3.9247909,3.9280074,3.9320164,3.9371514,3.9430647,3.9494677,3.956535,3.9649467,3.975846,3.9890592,3.9997869,4.0071783,4.009422,4.006288,3.9991689,3.990244,3.9821274,3.980217,3.987332,3.9972506,4.0073442,4.022657,4.045459,4.0713286,4.0958595,4.1140804,4.1274004,4.134946,4.137102,4.1329665,4.124856,4.1172457,4.110897,4.105095,4.09963,4.094629,4.090881,4.0898476,4.0924397,4.0990314,4.1074066,4.1149807,4.1199474,4.1220236,4.122707,4.1234035,4.1248546,4.1275406,4.131617,4.136839,4.142555,4.1481605,4.1527176,4.1573887,4.1627073,4.168502,4.1746306,4.1806316,4.186023,4.1907,4.1939783,4.1950755,4.1936474,4.1895,4.1833887,4.1783276,4.17504,4.173545,4.17352,4.1744223,4.176136,4.177128,4.1759915,4.1723814,4.1680355,4.1671495,4.174338,4.1906786,4.2140827,4.235147,4.2511163,4.2614193,4.2669816,4.2692075,4.2704496,4.2721043,4.274145,4.275783,4.276263,4.275141,4.272317,4.2674837,4.2602167,4.250808,4.2395506,4.228132,4.218487,4.2114444,4.206907,4.203582,4.199085,4.19184,4.181468,4.168251,4.1530867,4.137245,4.125042,4.118972,4.118588,4.1217217,4.121793,4.1189494,4.1135283,4.1045475,4.091606,4.073273,4.0496984,4.0208178,3.9878983,3.9618192,3.9486547,3.9481921,3.9520009,3.9547095,3.9562335,3.9574893,3.9605384,3.9643083,3.9679332,3.9705672,3.9708524,3.9688559,3.9645572,3.9587545,3.9518123,3.944207,3.936185,3.928178,3.9209785,3.9148903,3.910552,3.9089026,3.909709,3.9123874,3.9164095,3.9205747,3.9240217,3.9262915,3.928082,3.929583,3.9312003,3.9328632,3.9342551,3.9348187,3.9346406,3.9342003,3.9337018,3.933879,3.935803,3.938109,3.9404054,3.9414597,3.9409058,3.9399838,3.9392009,3.9387674,3.9384315,3.9387937,3.9396226,3.9412694,3.9431095,3.9445016,3.9461443,3.947434,3.9483678,3.9489655,3.9492683,3.9497964,3.95081,3.952032,3.953287,3.9542708,3.954773,3.9548469,3.9546013,3.9542072,3.9538164,3.9536178,3.953683,3.9540312,3.954382,3.9546468,3.9546437,3.9542272,3.9532692,3.9517255,3.9499073,3.9477797,3.9461837,3.9451137,3.9442835,3.943193,3.9415941,3.939633,3.937337,3.9351277,3.9330344,3.930841,3.9284308,3.92578,3.9228663,3.9199684
3.1862364,3.1916392,3.1991665,3.2082088,3.217579,3.2258325,3.2327614,3.2386448,3.2443705,3.2513952,3.2581973,3.261145,3.2575083,3.244604,3.2252808,3.2051163,3.1897159,3.1809397,3.1771975,3.1753583,3.1712017,3.1646118,3.1575747,3.1531658,3.152478,3.1553366,3.1608913,3.167255,3.1742184,3.1808162,3.1870284,3.193112,3.1987262,3.2043056,3.21066,3.2188044,3.2286925,3.2403464,3.253644,3.267931,3.28293,3.2980614,3.3127565,3.3261242,3.338863,3.352434,3.3692083,3.3906739,3.415251,3.4405699,3.4640102,3.485445,3.5070727,3.5301156,3.5552642,3.580502,3.602616,3.618972,3.629603,3.6367245,3.6431708,3.6505547,3.6598487,3.6709697,3.6817498,3.6898627,3.6950042,3.6961155,3.6906695,3.683518,3.677575,3.6737804,3.6740994,3.6802602,3.6940598,3.7196605,3.7504303,3.7790923,3.8010645,3.8129196,3.817116,3.8165307,3.8162856,3.8193364,3.8270767,3.8385377,3.8476243,3.854783,3.8602757,3.8622022,3.8595407,3.8536587,3.8467965,3.840405,3.8367457,3.8335776,3.8328705,3.8351655,3.839626,3.8454375,3.852391,3.859806,3.8673162,3.8752642,3.8844259,3.8960085,3.9096994,3.9235723,3.9354992,3.9421906,3.943613,3.9420452,3.9392314,3.939649,3.9461882,3.9569793,3.9678893,3.9767556,3.9874268,4.0038357,4.023857,4.0442357,4.0610104,4.0723085,4.0747743,4.0708337,4.064495,4.0571823,4.0506406,4.0463276,4.042674,4.0389023,4.0350456,4.031887,4.031043,4.0335445,4.039377,4.04657,4.0527315,4.05626,4.0572042,4.0571914,4.0576963,4.0598936,4.0632105,4.0678,4.072972,4.0780487,4.083153,4.088076,4.0931654,4.0990276,4.105686,4.1135216,4.122199,4.1313734,4.1395454,4.14474,4.145675,4.141492,4.134042,4.12572,4.118712,4.1140842,4.1121073,4.1124597,4.114964,4.118839,4.121517,4.1207356,4.115945,4.11054,4.109501,4.118327,4.138545,4.1677732,4.2016444,4.2266455,4.241831,4.249958,4.253376,4.255205,4.2573004,4.259865,4.2619762,4.2627087,4.2616367,4.2588415,4.2543497,4.2481194,4.2405024,4.2315874,4.222434,4.2143583,4.207985,4.203398,4.198807,4.193421,4.185213,4.1737337,4.1599884,4.1443896,4.1294785,4.119693,4.115622,4.1160307,4.118481,4.1177144,4.114092,4.108181,4.09906,4.0861893,4.0680814,4.04467,4.0152664,3.982704,3.956785,3.943883,3.943716,3.9478097,3.9507108,3.9522028,3.9534163,3.9563622,3.9605055,3.9642687,3.966885,3.9670942,3.964848,3.9600015,3.9534006,3.945548,3.9372296,3.9289658,3.9212117,3.914733,3.909779,3.9072847,3.907413,3.909706,3.9134095,3.9178972,3.921867,3.9246616,3.9260135,3.9268851,3.927567,3.9284782,3.9294434,3.9303465,3.9309669,3.931438,3.9324923,3.935215,3.9381754,3.9415812,3.9447532,3.9467301,3.9472842,3.9471116,3.9467149,3.9458947,3.9452863,3.9443688,3.9439626,3.94374,3.9439254,3.9447594,3.9461598,3.94738,3.9483905,3.9490423,3.9497156,3.950777,3.9517534,3.952746,3.953947,3.9552016,3.9563217,3.9570463,3.9573174,3.957213,3.9568567,3.9564483,3.9562159,3.9562902,3.956629,3.9569802,3.9572773,3.957338,3.9569602,3.9559755,3.9543805,3.9524632,3.9501786,3.948276,3.9467626,3.945426,3.9438486,3.9418736,3.93962,3.9371138,3.93474,3.9325714,3.930366,3.9280062,3.925464,3.922721,3.9200122
3.186615,3.1915913,3.1989431,3.207665,3.2164252,3.223371,3.2283742,3.231411,3.2328305,3.236971,3.2417545,3.2435174,3.238022,3.2240891,3.2057104,3.1866646,3.1735642,3.1676974,3.1665921,3.1668968,3.1640363,3.15787,3.1505725,3.145583,3.1443663,3.1468892,3.1522074,3.158422,3.1653352,3.172092,3.1786776,3.185154,3.191043,3.1966033,3.2026916,3.2105856,3.2204058,3.2322257,3.2452173,3.259077,3.2736275,3.2882552,3.3024457,3.3148627,3.3259711,3.3367853,3.3497539,3.366259,3.3847814,3.4040844,3.4219723,3.4381804,3.4547234,3.4734032,3.4956207,3.5199308,3.5439303,3.564073,3.5797377,3.5915017,3.600498,3.60822,3.6159015,3.6248112,3.6349163,3.643693,3.649058,3.6502607,3.6483893,3.6466262,3.6462953,3.6472697,3.650802,3.657992,3.6712718,3.6930294,3.719547,3.7461157,3.7661233,3.7749684,3.775618,3.7723713,3.7723804,3.779464,3.7924395,3.8078427,3.8191943,3.8231606,3.8216271,3.8162522,3.808292,3.8013206,3.7987747,3.7973294,3.7957718,3.7946038,3.7941442,3.7951326,3.7984118,3.8038456,3.8110743,3.818544,3.8253846,3.8318863,3.839157,3.8492513,3.862361,3.8763824,3.8884587,3.89568,3.8985674,3.900569,3.9037328,3.910079,3.920392,3.931357,3.9411561,3.948649,3.955295,3.9650774,3.9799726,3.9963474,4.00945,4.0168514,4.017709,4.0131454,4.006682,4.0004334,3.996423,3.994972,3.9950285,3.9960976,3.9952312,3.992936,3.9922218,3.9951067,4.0014744,4.0089293,4.014983,4.017871,4.0175257,4.015913,4.015192,4.0171614,4.0204964,4.025759,4.031231,4.0358534,4.0400653,4.0434723,4.0461264,4.0494223,4.053529,4.0595303,4.067316,4.0762367,4.084653,4.09016,4.09079,4.0862722,4.0788174,4.071251,4.0659766,4.0639496,4.064722,4.0667753,4.0704136,4.075488,4.0792446,4.079287,4.0750666,4.0690765,4.0657554,4.0709605,4.091589,4.127466,4.1696568,4.2021813,4.223339,4.233431,4.237593,4.2394958,4.2413673,4.243746,4.245681,4.2461863,4.244877,4.241962,4.2377276,4.232443,4.226523,4.2199383,4.213174,4.2069216,4.2013636,4.196457,4.191142,4.1841736,4.1746025,4.1621466,4.1475554,4.1324472,4.120867,4.1138973,4.111869,4.112982,4.1147985,4.113242,4.10915,4.1028805,4.093703,4.080982,4.0631566,4.0399914,4.0102215,3.977847,3.9519014,3.9391074,3.9391603,3.943534,3.94666,3.9481897,3.9493756,3.952168,3.9565115,3.96024,3.9626555,3.9625635,3.9598563,3.9543273,3.946958,3.9384618,3.9298873,3.921872,3.914657,3.9097567,3.9071527,3.9064894,3.9078484,3.9108002,3.9145036,3.9183488,3.921055,3.9223847,3.9223175,3.9217076,3.9215276,3.9219837,3.9228518,3.9248967,3.9277983,3.932384,3.9365005,3.9402492,3.9439435,3.947356,3.9501033,3.9515572,3.952457,3.9526868,3.952435,3.95147,3.950169,3.9487138,3.9479153,3.94737,3.94733,3.9478316,3.948575,3.9493542,3.9498553,3.9504714,3.951262,3.9517586,3.952135,3.9525406,3.9531717,3.9539595,3.9547431,3.9552693,3.955442,3.9552379,3.9547257,3.9541306,3.953669,3.9535155,3.953651,3.9538555,3.9541025,3.9541914,3.9538832,3.9529812,3.951498,3.9496794,3.9474273,3.9454238,3.9437127,3.9421542,3.9404635,3.938496,3.9363196,3.9339347,3.9316585,3.9295924,3.9275234,3.9253457,3.923043,3.9206083,3.9182239
3.1895857,3.1938944,3.200585,3.2084792,3.216076,3.2210271,3.2234678,3.2222703,3.219777,3.2208061,3.223649,3.2248144,3.2201104,3.2081003,3.1921659,3.1760035,3.165471,3.161481,3.1616273,3.1629043,3.1612546,3.1564896,3.1506634,3.1468759,3.146344,3.1490493,3.1539702,3.1595488,3.165608,3.1715908,3.1778827,3.1842914,3.18994,3.1949098,3.2002687,3.2076511,3.2175026,3.2301888,3.2445917,3.2595615,3.2748117,3.2897506,3.3038583,3.315397,3.3247743,3.33301,3.3435802,3.3580453,3.374949,3.392669,3.4092402,3.4242697,3.4385605,3.4538615,3.471582,3.4916139,3.5133686,3.533948,3.552371,3.5676806,3.5796304,3.5888553,3.596097,3.6030893,3.6102538,3.6166854,3.6214497,3.624529,3.6267252,3.6300833,3.6348028,3.639325,3.6442792,3.6511116,3.663005,3.6837487,3.7094908,3.7351615,3.7538571,3.7616074,3.7603579,3.75505,3.7535632,3.760089,3.7736154,3.7900531,3.8018026,3.8066082,3.804196,3.7977822,3.7932813,3.792231,3.7940474,3.7976608,3.8007185,3.8025036,3.8029132,3.803138,3.804515,3.8076608,3.8125665,3.8176944,3.8222556,3.8266351,3.8319588,3.8401678,3.851004,3.862677,3.8728228,3.8791342,3.8821545,3.8840628,3.8874025,3.89433,3.903677,3.9130826,3.9208136,3.9264784,3.9325814,3.9417813,3.955526,3.972584,3.9869094,3.9947646,3.9943795,3.9881396,3.981605,3.9786515,3.9819608,3.9886384,3.9942656,3.9965158,3.9963648,3.9935389,3.9912953,3.9930232,3.9997315,4.0086336,4.016076,4.0194244,4.018918,4.016762,4.0149565,4.015147,4.017685,4.021935,4.0272474,4.0321836,4.036051,4.0382023,4.039211,4.039709,4.0404863,4.042981,4.047871,4.055124,4.062751,4.0678253,4.0681934,4.0638933,4.05795,4.0536623,4.0529757,4.0555773,4.059458,4.0636206,4.067572,4.071003,4.0737576,4.0746384,4.07327,4.068877,4.0643415,4.066048,4.078146,4.1062527,4.149617,4.1871223,4.210251,4.2214184,4.2258687,4.2273703,4.2283583,4.2297153,4.230674,4.23036,4.228487,4.2253265,4.221279,4.2167983,4.212302,4.207646,4.202841,4.1980476,4.1930747,4.1876154,4.1810856,4.172615,4.161631,4.148138,4.134141,4.122244,4.11427,4.109851,4.108949,4.1100445,4.110881,4.108584,4.1041536,4.0976152,4.088521,4.076095,4.058668,4.035827,4.006048,3.9737012,3.9475732,3.9347572,3.934987,3.9396763,3.943121,3.9448218,3.9460437,3.9486618,3.9528065,3.9561849,3.9581237,3.9574528,3.9540908,3.947918,3.9400887,3.9315538,3.923408,3.916125,3.9106681,3.908368,3.9079416,3.90845,3.9099593,3.9124544,3.9152246,3.91754,3.91857,3.9179916,3.9159236,3.9133854,3.912325,3.9138198,3.9174044,3.923725,3.9302363,3.9364004,3.9415674,3.9456615,3.9498048,3.9529352,3.955535,3.9575982,3.9587617,3.9590442,3.958799,3.957827,3.9566617,3.9552884,3.9545016,3.953817,3.9533658,3.9531555,3.9529996,3.953034,3.9527268,3.95241,3.9521184,3.95181,3.951405,3.9509652,3.9507465,3.9507735,3.9509435,3.9510167,3.9508677,3.9503827,3.9495585,3.9486265,3.947742,3.9471292,3.9467947,3.9465423,3.9463758,3.946092,3.9454606,3.9443207,3.9427247,3.9409032,3.9387193,3.936774,3.9350908,3.9335938,3.9320729,3.9303727,3.9285128,3.926455,3.92444,3.9225836,3.9207258,3.9187887,3.9167786,3.914701,3.9127083
3.1920981,3.195804,3.2016969,3.2084503,3.2146182,3.2175903,3.2175465,3.2121918,3.2059093,3.2045665,3.206006,3.2074947,3.2047384,3.1951227,3.1821046,3.169109,3.1607676,3.157918,3.158585,3.1602697,3.1595054,3.1563692,3.1524224,3.15025,3.1504447,3.153247,3.1576018,3.1620407,3.1666021,3.1712513,3.1769319,3.1831346,3.1884165,3.1926603,3.197266,3.204142,3.2141829,3.2279801,3.244069,3.2596421,3.27532,3.2904382,3.3041615,3.3153067,3.323867,3.3303854,3.339735,3.3538027,3.3709579,3.3891025,3.4059749,3.4207838,3.4335976,3.4460812,3.4598155,3.4755158,3.4942498,3.513998,3.5339298,3.5519395,3.5664737,3.577206,3.584786,3.5908237,3.5955787,3.5992422,3.603063,3.6075184,3.6128275,3.6199834,3.6282082,3.6356015,3.6418848,3.6477737,3.6583123,3.678083,3.703355,3.7275467,3.745418,3.754396,3.7534137,3.7466826,3.743342,3.7482,3.760736,3.775702,3.7860007,3.7915134,3.791915,3.789058,3.7884493,3.792203,3.799284,3.807116,3.8135438,3.8174038,3.8184428,3.8179777,3.8176198,3.8187647,3.8216653,3.8250494,3.8281674,3.831283,3.8352401,3.841701,3.849926,3.858698,3.8665116,3.8719392,3.8749416,3.8770614,3.880074,3.8859398,3.8937225,3.9007287,3.9059167,3.9097192,3.9149356,3.9246364,3.9401264,3.9592223,3.9740207,3.9828453,3.9849339,3.9818926,3.9778762,3.9775023,3.9825883,3.9905844,3.9974294,4.0001645,3.9992952,3.9962208,3.9940753,3.9951634,4.000643,4.0085897,4.0159497,4.020406,4.02166,4.021077,4.0202694,4.020251,4.022298,4.0254965,4.029434,4.033269,4.036157,4.0378914,4.0385976,4.038472,4.038087,4.039038,4.0423975,4.0482635,4.055025,4.060131,4.0614734,4.058626,4.054584,4.05248,4.0539055,4.0579605,4.0622005,4.0655437,4.0682454,4.0711937,4.0737886,4.075138,4.0747757,4.072746,4.0701056,4.069971,4.0787373,4.099943,4.135189,4.173733,4.198612,4.210911,4.215637,4.216664,4.21661,4.216668,4.2163525,4.215056,4.212614,4.2092814,4.205482,4.2016635,4.1980934,4.194743,4.1912975,4.187507,4.182829,4.176643,4.168877,4.1591196,4.1466517,4.1330647,4.120913,4.112156,4.1071563,4.1049967,4.1050663,4.1058636,4.105712,4.103341,4.098673,4.091976,4.0831256,4.0710926,4.054101,4.031595,4.0019646,3.9696689,3.943429,3.9306784,3.9311788,3.9362159,3.9399607,3.9418244,3.943014,3.9453602,3.949029,3.9518976,3.9532676,3.9519434,3.9479046,3.941187,3.9331326,3.9249058,3.9174397,3.9113405,3.907909,3.907446,3.9081156,3.9092987,3.910923,3.9127212,3.9142349,3.9152186,3.9146197,3.912088,3.9086976,3.90723,3.9091415,3.9150996,3.9226975,3.93044,3.937193,3.9423292,3.9463282,3.9495745,3.9524615,3.955429,3.9579039,3.9596605,3.9607675,3.9611735,3.9610996,3.9604332,3.9598243,3.9590309,3.9588022,3.958572,3.958358,3.9579694,3.9570982,3.9558554,3.954698,3.9537008,3.9528277,3.9519863,3.950985,3.9498258,3.948813,3.9480772,3.9475887,3.9471488,3.9466321,3.9458652,3.944786,3.9436004,3.942379,3.9413674,3.9405916,3.9398768,3.9392269,3.9384427,3.9373252,3.935791,3.933946,3.9320297,3.9298906,3.928048,3.9264827,3.9251761,3.9239469,3.9226363,3.9211993,3.9195476,3.9178224,3.9161272,3.914383,3.9125657,3.9107456,3.908945,3.907291
3.1915934,3.1947274,3.1998696,3.205491,3.2105398,3.2124128,3.210967,3.2034664,3.1964226,3.1943586,3.1956282,3.1976397,3.1961792,3.1887913,3.178007,3.166693,3.159049,3.1559787,3.1558385,3.1569018,3.156745,3.1556125,3.1537786,3.1528277,3.153368,3.1556873,3.1588056,3.1617985,3.1652048,3.1692934,3.174436,3.1801753,3.1852875,3.1893873,3.1937919,3.2004685,3.2107153,3.2252984,3.2423904,3.2590547,3.2755816,3.2905211,3.3027587,3.3123775,3.32024,3.3263664,3.3346915,3.3480592,3.3649714,3.383762,3.4014888,3.416843,3.4291832,3.4401858,3.4514701,3.4642873,3.480653,3.4991279,3.519308,3.5384803,3.553697,3.565033,3.5732749,3.5793378,3.5831947,3.5860133,3.5894334,3.5944028,3.6011806,3.609603,3.6188536,3.6273355,3.6345873,3.6394334,3.648654,3.6672578,3.6916497,3.7134175,3.7309926,3.7406225,3.7423997,3.7373657,3.7339487,3.7380543,3.749526,3.7617283,3.770443,3.7753043,3.777009,3.7771623,3.778897,3.784522,3.7932467,3.8011308,3.8071856,3.8105087,3.8111944,3.8107688,3.8106852,3.8119044,3.814723,3.8183708,3.8222222,3.826176,3.830665,3.8365917,3.8440952,3.851996,3.8590212,3.8641891,3.8672812,3.8701873,3.8742871,3.880278,3.8871832,3.8927965,3.8963695,3.8987563,3.9029872,3.9123952,3.9285164,3.9470277,3.9614923,3.970865,3.9744925,3.9737875,3.9723232,3.973968,3.9790287,3.9868329,3.9937124,3.9972045,3.9960933,3.9921875,3.9893804,3.9905272,3.996865,4.0061088,4.014702,4.019833,4.021053,4.019826,4.0179605,4.017427,4.018399,4.0211186,4.0248256,4.028375,4.0312653,4.032759,4.033118,4.032942,4.033001,4.034246,4.0372343,4.042078,4.0476594,4.052329,4.0545006,4.0534205,4.051421,4.0507846,4.052593,4.0557327,4.058822,4.062035,4.0651846,4.068346,4.071135,4.0727453,4.072526,4.071593,4.0709314,4.07191,4.078089,4.094489,4.124096,4.1600513,4.185256,4.199574,4.205157,4.2064624,4.2059736,4.2050314,4.2036877,4.201619,4.198691,4.195191,4.1914606,4.187916,4.1847982,4.182214,4.1796036,4.176407,4.171807,4.1654224,4.1571827,4.146884,4.133907,4.1209407,4.110531,4.104924,4.1020384,4.101177,4.101327,4.101283,4.099888,4.0971584,4.0924573,4.086007,4.0775423,4.0659323,4.0493355,4.027115,3.9977298,3.9655237,3.9393525,3.926865,3.9278007,3.9331818,3.937088,3.9389553,3.9398713,3.941711,3.944776,3.9471428,3.9480574,3.9462714,3.9417932,3.9348054,3.9268112,3.9191222,3.9122782,3.907563,3.905262,3.905617,3.9066932,3.9077795,3.9087172,3.9094424,3.9096608,3.9092126,3.907128,3.9047546,3.9040504,3.9069552,3.9145212,3.923608,3.9321637,3.9400594,3.9453912,3.9482975,3.9507837,3.9531865,3.955476,3.9576666,3.9595063,3.960649,3.9614115,3.9617279,3.9616737,3.9610806,3.9602926,3.9594555,3.959278,3.959148,3.9589581,3.9583578,3.9574304,3.9560356,3.9546113,3.9533825,3.9522977,3.951252,3.9499636,3.9484015,3.9468665,3.9455323,3.9444542,3.9435034,3.9425862,3.9414945,3.9401326,3.9386802,3.937141,3.93577,3.934607,3.9334815,3.9323835,3.931101,3.9294767,3.9275258,3.9254074,3.9233785,3.9212785,3.9195619,3.9181702,3.9171245,3.9162486,3.9153883,3.9144583,3.9133162,3.9119735,3.9104865,3.908854,3.9071414,3.9055123,3.9040074,3.9027283
3.1902108,3.1925278,3.196973,3.201622,3.205686,3.2070928,3.2047648,3.197598,3.1911411,3.1893106,3.1908088,3.1933613,3.1928391,3.1868658,3.1773758,3.1667678,3.1588883,3.1547804,3.1532512,3.153339,3.153994,3.1547866,3.1550841,3.1549613,3.1557078,3.15716,3.158793,3.1609702,3.1637402,3.1672118,3.1718469,3.1773381,3.182352,3.1864073,3.190762,3.1973715,3.207592,3.2225757,3.240687,3.258533,3.2752204,3.2895265,3.3013115,3.3103845,3.3175535,3.3230581,3.331365,3.344508,3.3610005,3.3792892,3.396713,3.4126978,3.4252777,3.4357624,3.445927,3.4571223,3.471642,3.4885159,3.5077944,3.526702,3.541573,3.553239,3.561543,3.56736,3.571593,3.575246,3.5790617,3.5844407,3.591931,3.6010284,3.6104832,3.6185818,3.6246684,3.6288643,3.637176,3.655209,3.679222,3.7008677,3.7182002,3.7276263,3.7301004,3.7266586,3.7235727,3.72745,3.7381668,3.749259,3.757277,3.7618718,3.7634583,3.7645044,3.7678304,3.7741473,3.7824311,3.7908733,3.7972589,3.800741,3.8014674,3.8010874,3.8011408,3.8026733,3.8060322,3.8103085,3.8148746,3.81945,3.8244493,3.8302898,3.8372626,3.8446825,3.8513665,3.8564773,3.8602307,3.8636892,3.867888,3.873317,3.8792524,3.8846025,3.8880036,3.8898625,3.8934958,3.9024115,3.91847,3.9353285,3.9494996,3.9595098,3.9639907,3.9643178,3.9644237,3.9671607,3.9738247,3.9828944,3.9905143,3.994155,3.9928102,3.988591,3.9855952,3.9868464,3.9936616,4.0035205,4.012754,4.0184126,4.019862,4.0184464,4.015989,4.0145893,4.0148215,4.016985,4.0203776,4.0237865,4.0265646,4.027917,4.028017,4.0273504,4.026681,4.0270815,4.0293093,4.0336113,4.038951,4.043662,4.0461473,4.0463386,4.0455904,4.0455923,4.047329,4.0505705,4.0541916,4.0574856,4.060439,4.0633454,4.066062,4.067993,4.068604,4.0683784,4.0687075,4.0716643,4.076868,4.089214,4.113635,4.145817,4.170241,4.185319,4.191936,4.1941023,4.1937227,4.192314,4.1903133,4.187649,4.184308,4.18064,4.1768913,4.173605,4.1711845,4.1695065,4.167774,4.1651936,4.1608286,4.154294,4.1459265,4.1354465,4.122671,4.111039,4.1035867,4.1001997,4.098811,4.098344,4.097926,4.096756,4.094212,4.0906315,4.0857725,4.0799375,4.0719194,4.060711,4.0444574,4.022481,3.9933267,3.961307,3.935408,3.923407,3.9249697,3.9307165,3.9346442,3.936356,3.9367852,3.9379299,3.9404335,3.9423437,3.9429119,3.9408636,3.93618,3.9291701,3.921443,3.914359,3.9082992,3.9045835,3.9027412,3.90309,3.9039607,3.9043322,3.9041948,3.903386,3.901899,3.9000518,3.8989778,3.8993692,3.9035144,3.911675,3.9218705,3.9317884,3.9393277,3.9455557,3.9499452,3.9527144,3.9546719,3.9565377,3.9581294,3.9594746,3.960487,3.9605734,3.959834,3.9588137,3.9578147,3.9567368,3.9558265,3.9550729,3.9550412,3.955051,3.954959,3.9545217,3.9535942,3.9521227,3.9505973,3.949367,3.948333,3.947298,3.9459932,3.9443932,3.942748,3.941215,3.9399037,3.9387515,3.937707,3.9365518,3.9351778,3.9337344,3.9321744,3.930753,3.9295104,3.928278,3.9270234,3.9255266,3.9236743,3.9215689,3.919417,3.9174814,3.9156046,3.9141698,3.9130893,3.9123988,3.9119363,3.9115417,3.9111104,3.9104614,3.9094806,3.9081745,3.90661,3.9049459,3.9034524,3.9021866,3.9012072
3.190731,3.1917377,3.1948555,3.1986666,3.2023263,3.2035027,3.2010505,3.195877,3.190886,3.1896985,3.1913304,3.1936932,3.1929927,3.1870842,3.1776047,3.1666074,3.1579096,3.1526856,3.1507192,3.1512413,3.1528194,3.1547184,3.1562328,3.1568842,3.1572826,3.1578162,3.1588323,3.1603901,3.1625304,3.1653295,3.1697943,3.1749043,3.1794052,3.1835139,3.188013,3.194686,3.2048066,3.219505,3.2379622,3.256821,3.273592,3.2872927,3.2983642,3.306375,3.3122523,3.317838,3.3268661,3.340283,3.3565447,3.3738801,3.389765,3.4038563,3.415832,3.426496,3.4370136,3.4483418,3.4622614,3.4779863,3.49578,3.5135698,3.5286775,3.540102,3.5480862,3.554265,3.5595891,3.564443,3.5691895,3.575018,3.5827765,3.5920625,3.6013715,3.6084535,3.612978,3.6166964,3.6254935,3.643918,3.6676435,3.6898422,3.7058432,3.714895,3.7173533,3.7143297,3.712453,3.7167153,3.7268956,3.7380214,3.7457938,3.750077,3.7517877,3.7529964,3.7561371,3.7619371,3.7695622,3.777228,3.783015,3.7862916,3.7872941,3.7875443,3.7883313,3.7906296,3.7947707,3.7998962,3.805364,3.810915,3.8164654,3.8222961,3.828806,3.8355536,3.8417106,3.8467388,3.8507195,3.854572,3.8593247,3.86528,3.8716207,3.8772902,3.8807292,3.882164,3.885102,3.8927002,3.9065585,3.922389,3.9366107,3.9471576,3.9526129,3.954299,3.9557767,3.9596815,3.9669957,3.976376,3.9842167,3.988237,3.9876776,3.9844718,3.9823124,3.984163,3.9910803,4.000617,4.009547,4.015121,4.0166306,4.0152254,4.0125456,4.010671,4.0102997,4.011826,4.0146008,4.017403,4.0195584,4.020302,4.0198345,4.018638,4.017474,4.017359,4.0190425,4.0228243,4.0277796,4.0324087,4.0351663,4.0358305,4.0356665,4.036212,4.038291,4.0415845,4.044981,4.047984,4.0506287,4.053297,4.0559998,4.0583506,4.0599766,4.0611634,4.062705,4.066352,4.071572,4.081917,4.1012907,4.1295805,4.152868,4.1678696,4.175297,4.17807,4.1777897,4.1762724,4.1738696,4.170912,4.1676693,4.1643505,4.1611724,4.158686,4.157237,4.156559,4.155492,4.153389,4.1492863,4.142873,4.1346493,4.1240406,4.112074,4.1028576,4.097767,4.09618,4.0956926,4.095214,4.094038,4.0918655,4.088485,4.0843472,4.07944,4.0740013,4.066323,4.0554194,4.0394025,4.017592,3.9884737,3.9567356,3.9314017,3.920205,3.922656,3.9287877,3.9325342,3.9338708,3.9335656,3.9338603,3.9358253,3.9376044,3.9380584,3.9359899,3.9313507,3.924494,3.9171023,3.9104004,3.9051323,3.9020693,3.900249,3.8999228,3.8999352,3.899245,3.8976178,3.8950016,3.8923671,3.8913026,3.892712,3.896563,3.9053712,3.9162557,3.926505,3.935823,3.943769,3.9500728,3.954011,3.9565651,3.9581578,3.9595551,3.9604478,3.9606545,3.9600039,3.9583151,3.956016,3.9537446,3.9518151,3.9502099,3.9490404,3.9482584,3.9482021,3.94808,3.9477422,3.9469423,3.9456615,3.9439821,3.9424367,3.941233,3.9403048,3.9394195,3.938332,3.9369597,3.9355197,3.9341974,3.9330883,3.9321566,3.9313745,3.9305346,3.9295144,3.9284415,3.92726,3.9262216,3.9253888,3.924591,3.9237664,3.9226627,3.9211936,3.9194984,3.9177995,3.9163294,3.914948,3.913959,3.9132943,3.9129725,3.912886,3.912871,3.9128342,3.9125805,3.9118996,3.91074,3.9092174,3.9075751,3.9061642,3.9050615,3.9042692
3.192717,3.1928802,3.194553,3.197205,3.200735,3.2022486,3.2012877,3.1985617,3.1956334,3.1954951,3.1974776,3.1995625,3.1984496,3.1923509,3.182624,3.1709285,3.1608877,3.154025,3.1508722,3.1510558,3.1530848,3.155774,3.1579938,3.159419,3.1595707,3.1595645,3.159926,3.1607504,3.161967,3.1640763,3.1680393,3.1725938,3.176773,3.1811023,3.1859217,3.1928864,3.203031,3.217308,3.2349029,3.2530088,3.2687564,3.2807984,3.2903833,3.297319,3.30345,3.3110437,3.3215868,3.335812,3.3514984,3.3672242,3.3811736,3.393505,3.4052835,3.416964,3.4290242,3.4418068,3.4562125,3.4714646,3.4878607,3.5040905,3.5187635,3.5301762,3.5379367,3.543965,3.549358,3.5549648,3.5610166,3.5676763,3.5755863,3.584662,3.5932684,3.598771,3.602363,3.607099,3.6173615,3.6367123,3.6604571,3.6830306,3.698325,3.7063785,3.70794,3.7052648,3.7047029,3.7095945,3.7192562,3.7305932,3.7387514,3.7430344,3.744473,3.7451546,3.747997,3.7535164,3.7604697,3.7670004,3.7720575,3.775208,3.7764163,3.776907,3.7783463,3.7813907,3.7864795,3.7925951,3.798978,3.805196,3.8108668,3.816378,3.822314,3.828329,3.834002,3.8390455,3.843375,3.8476896,3.8529606,3.8592286,3.8659878,3.8721306,3.8759747,3.8777335,3.8805952,3.8873649,3.8988433,3.9127722,3.92646,3.9371104,3.9431858,3.9460726,3.9491448,3.9546986,3.962901,3.9719782,3.979744,3.9841263,3.9845634,3.982802,3.9819412,3.9844842,3.991139,3.999888,4.008133,4.013474,4.015185,4.014119,4.011626,4.009593,4.008759,4.009614,4.0116014,4.0136156,4.015023,4.015171,4.014311,4.0129166,4.011698,4.01155,4.0131273,4.0167084,4.0214586,4.0260425,4.0290084,4.030082,4.0303,4.0309567,4.0327682,4.0354853,4.0382004,4.0405526,4.042651,4.0449266,4.0475035,4.0501986,4.052844,4.055555,4.0587654,4.0633106,4.0695186,4.078985,4.093505,4.1167088,4.137528,4.151842,4.1598387,4.163372,4.163477,4.16185,4.159178,4.156122,4.152979,4.149889,4.147069,4.145205,4.1446786,4.1449537,4.1446905,4.1428757,4.1389236,4.1324816,4.124292,4.114357,4.1043158,4.097354,4.093841,4.0934696,4.093561,4.0929976,4.091051,4.0879207,4.0836744,4.078962,4.073917,4.068492,4.06096,4.0502167,4.0343366,4.0126457,3.983533,3.952135,3.92764,3.9174993,3.9209685,3.9274912,3.9310312,3.931888,3.9308023,3.9302974,3.9315805,3.9333327,3.9337382,3.93168,3.9271197,3.9204226,3.9133086,3.906863,3.902152,3.8993735,3.8972986,3.8960726,3.894948,3.8932374,3.8906274,3.887757,3.8861256,3.8868728,3.8909698,3.8980217,3.9080477,3.9185777,3.928258,3.9380884,3.9459996,3.9519258,3.9553466,3.957457,3.9587736,3.9596019,3.9597678,3.9592254,3.9579165,3.955657,3.9526925,3.9497752,3.9473352,3.9453692,3.9439332,3.9429805,3.9427376,3.9422615,3.9414802,3.9402409,3.9386103,3.9367132,3.935015,3.93368,3.9326525,3.931871,3.931055,3.9300199,3.9289415,3.9279785,3.9271944,3.926586,3.9261394,3.9256802,3.925078,3.9244463,3.9237373,3.9231842,3.9228628,3.9225898,3.922277,3.9216542,3.920669,3.9194705,3.918272,3.9172666,3.9163225,3.9156728,3.9152813,3.915166,3.9152775,3.915476,3.9156785,3.9156895,3.9152267,3.9141943,3.9127238,3.9111147,3.9097593,3.908744,3.9080327
3.1982865,3.1984274,3.1993167,3.2009377,3.2037263,3.2058444,3.2065516,3.2059164,3.2048922,3.2058601,3.208084,3.2099469,3.208747,3.2028925,3.1933608,3.1814299,3.1702125,3.1615617,3.156815,3.1557713,3.1572814,3.1598172,3.1617265,3.1628788,3.1623464,3.1615458,3.1609416,3.1608336,3.1613736,3.163074,3.1663194,3.1705604,3.174633,3.178607,3.1829338,3.1897612,3.1999161,3.2143197,3.2313094,3.2473567,3.2608562,3.2707076,3.2784705,3.2854548,3.293655,3.304078,3.3174667,3.3333373,3.3492007,3.3640199,3.377127,3.3895504,3.4025514,3.4162476,3.4307911,3.4458642,3.4614272,3.476705,3.4919977,3.5066292,3.5197165,3.5303135,3.5376477,3.5431507,3.5482059,3.5538719,3.5603604,3.5671816,3.5745058,3.5824766,3.590098,3.5958543,3.6007466,3.6074634,3.6196897,3.639322,3.662281,3.6836605,3.6987503,3.7054815,3.7062445,3.7042294,3.7042513,3.7091007,3.7179317,3.7285008,3.7366507,3.741009,3.7423313,3.7428253,3.7458167,3.7516885,3.7590017,3.76579,3.7710733,3.7746437,3.7764559,3.7776499,3.779924,3.783599,3.7891164,3.7956777,3.8025327,3.808804,3.8141823,3.8191829,3.8242679,3.8293009,3.834208,3.83897,3.8434374,3.8481767,3.8537595,3.8599558,3.866605,3.8728666,3.877437,3.88033,3.8837552,3.8900492,3.8998628,3.9122224,3.9246328,3.9346077,3.9408603,3.9445894,3.9488115,3.9553943,3.964229,3.9736276,3.9813008,3.9860802,3.9876943,3.9874463,3.9877553,3.990475,3.9962966,4.00381,4.011092,4.0161986,4.0183935,4.01814,4.01639,4.014702,4.013785,4.014196,4.015516,4.0168204,4.0175705,4.0172544,4.0161657,4.014756,4.0136585,4.0136147,4.015155,4.018529,4.023014,4.0274506,4.030527,4.0319414,4.0324993,4.03325,4.0347986,4.0369544,4.039031,4.040784,4.042346,4.044126,4.0462923,4.0488625,4.051917,4.055529,4.059886,4.0651007,4.0719843,4.080759,4.092189,4.1092224,4.1264725,4.139394,4.1474543,4.1516356,4.1524086,4.151099,4.1484656,4.1453443,4.1421337,4.1391144,4.1365438,4.1350093,4.1347075,4.1351714,4.1353593,4.1336837,4.1295624,4.122802,4.1146936,4.106427,4.098646,4.0931587,4.090949,4.091052,4.0908337,4.089759,4.08737,4.0839214,4.079494,4.07426,4.068826,4.062805,4.0551305,4.0443707,4.0285225,4.0069323,3.9778419,3.9468608,3.9234867,3.914634,3.9191425,3.9259968,3.92941,3.9297614,3.9279933,3.9268618,3.927665,3.9291224,3.92931,3.9271135,3.922472,3.915782,3.9086726,3.9025135,3.898164,3.8954868,3.893102,3.8911333,3.8892233,3.887032,3.884797,3.88323,3.8838181,3.8874478,3.8941545,3.90247,3.9115953,3.9211824,3.9309142,3.9395924,3.9460208,3.950535,3.952849,3.9542265,3.9551644,3.9558337,3.9559886,3.9554114,3.9539735,3.9516673,3.9487681,3.9457235,3.9430656,3.9408593,3.9391608,3.9378011,3.937162,3.9362862,3.9350805,3.933284,3.9312415,3.929082,3.9273026,3.9260676,3.925248,3.924716,3.9242206,3.9236605,3.9231305,3.9226618,3.9223232,3.9221337,3.9220848,3.9220378,3.9218736,3.9217062,3.9214969,3.9214532,3.921648,3.9218898,3.9220796,3.921949,3.9214768,3.9207883,3.9200697,3.9194558,3.918816,3.9183207,3.9179711,3.9178023,3.9178455,3.9180138,3.9182422,3.9183393,3.91797,3.9170177,3.9156058,3.9140453,3.9127207,3.9117093,3.9109526
3.207522,3.2083514,3.2091627,3.2102594,3.2125144,3.2148578,3.2166228,3.217709,3.2183776,3.220386,3.2230442,3.2252097,3.224453,3.2195323,3.211237,3.2002602,3.1884542,3.1780622,3.1712976,3.1684241,3.1683335,3.1692927,3.1695194,3.168809,3.1668057,3.1645145,3.1626124,3.161769,3.1623206,3.1642036,3.1676126,3.1718442,3.1757278,3.1792185,3.1829696,3.189835,3.2006629,3.216106,3.2334652,3.2486215,3.2602286,3.267859,3.2738566,3.2807908,3.2907133,3.3044963,3.3216567,3.3405027,3.358294,3.3741217,3.3880992,3.4017875,3.4169765,3.433554,3.451025,3.4684489,3.4850852,3.5002794,3.5143642,3.5272624,3.53851,3.5473318,3.553259,3.5577636,3.562128,3.567236,3.5730715,3.578899,3.5850158,3.5916672,3.5984755,3.60473,3.611309,3.6203885,3.6342278,3.6536183,3.6747837,3.6937747,3.7071428,3.712863,3.7136204,3.7122395,3.71278,3.7172601,3.7250636,3.7343228,3.7413926,3.7452488,3.7467127,3.7475772,3.7504144,3.7556567,3.762632,3.7699971,3.7762356,3.7809017,3.7841792,3.7872584,3.7909791,3.7956302,3.801373,3.807742,3.8142476,3.8203006,3.8257155,3.8306363,3.8352761,3.8396273,3.8439221,3.848425,3.8530998,3.8581984,3.863905,3.8699808,3.8764124,3.8826568,3.887761,3.8916106,3.8956165,3.9014573,3.9102783,3.9215698,3.9330168,3.9424949,3.9487967,3.9528563,3.9567413,3.9626093,3.970973,3.9802895,3.988256,3.9936275,3.996116,3.9970574,3.9980738,4.0005627,4.005226,4.011237,4.0174165,4.022314,4.0251994,4.026104,4.025524,4.024604,4.023946,4.024142,4.0249424,4.0256896,4.0259714,4.0254602,4.0244527,4.02333,4.0225973,4.022797,4.0243273,4.0274086,4.0314503,4.0355062,4.0384355,4.039938,4.0406036,4.041252,4.0423956,4.0439157,4.045348,4.0465517,4.0476427,4.0489655,4.0506563,4.052866,4.0558944,4.059837,4.064767,4.0703583,4.0767517,4.084199,4.093645,4.106105,4.119399,4.1302557,4.13773,4.142174,4.1435876,4.142771,4.140375,4.137229,4.1337976,4.1304417,4.127615,4.125911,4.125492,4.126071,4.12619,4.124512,4.120272,4.113582,4.1060486,4.099175,4.093439,4.0894027,4.0879335,4.087511,4.086647,4.085105,4.082581,4.0791097,4.0748124,4.0696006,4.0637293,4.057016,4.049089,4.038188,4.022268,4.0007224,3.971702,3.9412389,3.9192147,3.911848,3.9174495,3.9246302,3.927956,3.9277444,3.9253802,3.9238172,3.9242883,3.925161,3.9250054,3.922599,3.9178069,3.9110434,3.903911,3.8978443,3.8933733,3.8902617,3.8871894,3.8843913,3.8820195,3.8801336,3.8793437,3.8803515,3.883993,3.8900857,3.8980894,3.9064813,3.9151292,3.9239545,3.9319239,3.9386292,3.9431512,3.946083,3.9474,3.9482105,3.9489474,3.9496,3.9498935,3.949484,3.9481704,3.946014,3.9434206,3.940683,3.9382753,3.9362025,3.9345498,3.933135,3.9323504,3.931281,3.929904,3.9280033,3.9259858,3.923969,3.9224308,3.921505,3.921047,3.9208694,3.920728,3.9205697,3.9204361,3.9203427,3.9203115,3.9203763,3.9205475,3.920727,3.9208174,3.9209304,3.9210448,3.9213352,3.921867,3.9224372,3.9229379,3.9231105,3.9229631,3.9225862,3.9221282,3.9216607,3.9210591,3.9204478,3.919869,3.9193764,3.9190848,3.9189787,3.9190102,3.9190035,3.9185884,3.917633,3.916242,3.91471,3.9133744,3.9122858,3.911373
3.2236986,3.2252789,3.2264497,3.2275405,3.2293496,3.231151,3.2331672,3.2351184,3.2368007,3.2395883,3.242674,3.245088,3.2454827,3.2429478,3.237598,3.228877,3.218419,3.2076626,3.1989903,3.1936474,3.1910384,3.1892927,3.1866803,3.1832702,3.1791277,3.1753008,3.1725678,3.171568,3.1725245,3.175291,3.1796727,3.1845672,3.1887116,3.192172,3.196426,3.2049596,3.2190366,3.2378502,3.2577958,3.2733295,3.2833982,3.2883244,3.2918053,3.2983067,3.3099074,3.3273256,3.3490133,3.3725533,3.393713,3.4114833,3.427819,3.4446106,3.4635134,3.4836872,3.5040898,3.523156,3.53995,3.5542054,3.5664513,3.577033,3.5858428,3.592333,3.596287,3.599082,3.601797,3.6051102,3.608871,3.612464,3.6164527,3.6212494,3.6267815,3.6328194,3.6400928,3.6502829,3.6644351,3.682727,3.7015898,3.7171707,3.7274318,3.732431,3.733711,3.7330418,3.7339547,3.7383468,3.7451527,3.752327,3.7577238,3.7609243,3.7623992,3.7630403,3.7648394,3.7689066,3.7750187,3.7822695,3.7890942,3.7949715,3.799743,3.8043532,3.8092027,3.8145308,3.8205802,3.8270798,3.8338003,3.840437,3.8466024,3.8518336,3.8564582,3.8605924,3.8647246,3.8693788,3.8745186,3.880174,3.8860283,3.8919673,3.8980823,3.9040785,3.909569,3.914644,3.9197369,3.9259608,3.9348695,3.9457686,3.956686,3.9657624,3.9722114,3.9764905,3.9800782,3.9849615,3.991726,3.999267,4.0059166,4.0107985,4.0133305,4.0144105,4.0152135,4.016787,4.0198545,4.024107,4.0290327,4.0336313,4.0371933,4.039361,4.040181,4.04036,4.0403423,4.040714,4.0413923,4.041997,4.0422664,4.0420237,4.0415106,4.0409694,4.0407114,4.0410686,4.04234,4.0447454,4.047901,4.051114,4.0534687,4.054682,4.0551476,4.0554976,4.0561604,4.05711,4.058052,4.058867,4.0596657,4.06066,4.0618277,4.06338,4.0657735,4.069193,4.073764,4.078945,4.0845523,4.090458,4.0980787,4.1068544,4.115942,4.124319,4.1306834,4.1349883,4.136935,4.1367955,4.1349626,4.132042,4.1284084,4.1243834,4.1206503,4.118165,4.1172724,4.1176786,4.11765,4.1159186,4.1119165,4.105779,4.099329,4.093647,4.0891714,4.0862927,4.084895,4.08389,4.0827518,4.081048,4.0784626,4.074957,4.070506,4.0653234,4.059154,4.052079,4.0439157,4.032796,4.0166845,3.9950743,3.9661963,3.9363236,3.915739,3.9099615,3.9166417,3.9237027,3.926706,3.9264636,3.9238381,3.9220943,3.9219174,3.9221795,3.9217052,3.919068,3.9141335,3.9073243,3.90024,3.894174,3.889196,3.8849564,3.8805692,3.8765864,3.8737507,3.8725345,3.8737636,3.87789,3.8842168,3.8921163,3.9011126,3.9101644,3.9185264,3.9261975,3.932454,3.937233,3.9400487,3.941649,3.9422128,3.942607,3.9431264,3.943664,3.9439833,3.943709,3.9425879,3.9406712,3.9383469,3.9359903,3.9339921,3.9322743,3.9309375,3.9297197,3.929163,3.9282901,3.9271827,3.9258108,3.924389,3.9230065,3.9220262,3.921536,3.9214094,3.921485,3.9215827,3.921659,3.9217184,3.9217567,3.9217634,3.9218073,3.9219334,3.9220922,3.9222054,3.922356,3.9225473,3.9229155,3.9235036,3.924108,3.9246001,3.9247563,3.924605,3.924208,3.9236836,3.9230666,3.9222393,3.9213104,3.9203424,3.9194098,3.9186654,3.9181778,3.9179096,3.9176908,3.9171474,3.916125,3.9147182,3.913199,3.911829,3.9106202,3.9094894
3.246358,3.2484703,3.250024,3.2510993,3.2524323,3.2537637,3.2553449,3.2570477,3.25879,3.261505,3.2644777,3.2673736,3.2692451,3.2692661,3.2667336,3.2609773,3.2531838,3.2441876,3.2359202,3.2292705,3.223797,3.2185912,3.2130117,3.2073376,3.2016542,3.1972215,3.1947265,3.1944098,3.1964855,3.2005992,3.2062817,3.2123475,3.2175703,3.2230844,3.2298992,3.2427495,3.2631428,3.289321,3.3136232,3.330244,3.339127,3.3414345,3.3423069,3.3470325,3.358379,3.3789053,3.406295,3.4349136,3.4654114,3.4959722,3.51966,3.539521,3.5590072,3.5794501,3.5988712,3.6177454,3.63329,3.6452641,3.6539078,3.6605778,3.6657329,3.669119,3.6701872,3.6701305,3.6696606,3.6695402,3.6699095,3.6701536,3.671055,3.6734807,3.6775103,3.6829755,3.68993,3.698818,3.7099822,3.7234786,3.7370677,3.7481525,3.7557106,3.7600431,3.7620697,3.7629857,3.7648737,3.768877,3.774126,3.779325,3.7832866,3.7858272,3.7872305,3.7879739,3.7890944,3.7918892,3.79697,3.8034987,3.809928,3.8163598,3.8222287,3.8276649,3.8331518,3.8389273,3.845056,3.851676,3.858845,3.8661742,3.8731132,3.8790512,3.8840814,3.888404,3.892595,3.8973389,3.902643,3.908638,3.9151485,3.9223099,3.9292111,3.9353445,3.94061,3.9458039,3.9519095,3.9592314,3.968401,3.9795532,3.9912484,4.001606,4.009428,4.014789,4.0187597,4.0226,4.0271015,4.032192,4.0364947,4.039461,4.040909,4.041611,4.0417757,4.042102,4.043336,4.045622,4.049034,4.0529943,4.0568523,4.059951,4.0620174,4.0633597,4.064245,4.0651846,4.0662045,4.06707,4.0676193,4.067781,4.0677247,4.067546,4.067428,4.067523,4.068059,4.069256,4.0709786,4.072892,4.0743823,4.075203,4.075534,4.0757813,4.0762243,4.0768824,4.0776963,4.078775,4.079485,4.07998,4.0803747,4.080905,4.0822306,4.0847282,4.08844,4.092656,4.0970507,4.1014276,4.1064405,4.11162,4.1170497,4.1225886,4.127136,4.130497,4.1322603,4.132249,4.130623,4.1276693,4.1237087,4.119234,4.1149077,4.1117773,4.110327,4.110178,4.109781,4.1080947,4.1046667,4.0996513,4.094459,4.08972,4.086051,4.0837755,4.082108,4.080635,4.079016,4.0770273,4.0744057,4.07096,4.0665007,4.0611243,4.0546927,4.0473585,4.038909,4.0275135,4.011174,3.9894779,3.9608192,3.931507,3.9122481,3.9079123,3.9152303,3.9216824,3.9244504,3.924366,3.921698,3.9197798,3.918999,3.91895,3.9182353,3.9153337,3.9101677,3.90314,3.895801,3.8892999,3.8835664,3.8784971,3.8734744,3.8692908,3.8669648,3.8671274,3.8707185,3.8768287,3.8844361,3.8936243,3.903273,3.9123182,3.9201193,3.926868,3.932046,3.9357991,3.9378176,3.938846,3.9391694,3.9394114,3.9397225,3.9399998,3.940075,3.9396515,3.9385045,3.9365697,3.9342961,3.9321346,3.930402,3.9289558,3.9278922,3.926985,3.926785,3.9262686,3.9256,3.9247544,3.9239142,3.9231324,3.9226677,3.9225552,3.9226785,3.922901,3.9231086,3.923279,3.9234028,3.9234562,3.9233947,3.9233181,3.9232903,3.9233117,3.9233224,3.9233754,3.9235017,3.9238036,3.924306,3.9248168,3.9251904,3.9252434,3.925013,3.92453,3.9238877,3.9230797,3.9220066,3.92077,3.9194584,3.918151,3.9170108,3.916183,3.915639,3.9152236,3.9145784,3.913537,3.912178,3.910737,3.9093971,3.9081264,3.906826
3.2718883,3.274477,3.2765355,3.2777607,3.2788017,3.2794428,3.2800088,3.2806935,3.2816958,3.283878,3.286784,3.2905087,3.2938154,3.2958686,3.2956223,3.2924964,3.2867777,3.2794068,3.2715683,3.2640023,3.2562933,3.2484498,3.2403536,3.2329874,3.2271872,3.2233167,3.222096,3.2233405,3.227156,3.2330945,3.2405753,3.248727,3.2571871,3.2661939,3.2777853,3.297678,3.3258882,3.3569818,3.384815,3.4025517,3.4102905,3.4096613,3.4069479,3.4084008,3.4176524,3.4378688,3.4664936,3.498544,3.5420256,3.591596,3.630612,3.6633978,3.6903267,3.7107158,3.7235024,3.7327352,3.7418377,3.7466898,3.7521803,3.7554045,3.7570372,3.757162,3.7555733,3.7530055,3.749699,3.7461972,3.742826,3.7396657,3.737568,3.737185,3.7384033,3.7407823,3.7440805,3.7495728,3.7567477,3.7651298,3.7733917,3.7810283,3.7869768,3.7905722,3.7926867,3.7948928,3.7983885,3.8028665,3.807682,3.8123074,3.8157835,3.8180184,3.8192549,3.8197942,3.8205433,3.8223624,3.8261855,3.8316798,3.8378444,3.8440428,3.849698,3.8548212,3.8598478,3.8654053,3.8717103,3.8787675,3.8865378,3.8944464,3.9018207,3.9080095,3.91335,3.9179418,3.92225,3.927149,3.9328327,3.9399323,3.948427,3.9573026,3.9655895,3.9725175,3.9780087,3.982893,3.9887521,3.996254,4.005842,4.0175056,4.0299244,4.041628,4.0514717,4.0589223,4.0641413,4.0682044,4.072128,4.0760937,4.0793242,4.080935,4.08084,4.07992,4.078558,4.0773745,4.0769696,4.077486,4.0793443,4.082251,4.0856495,4.0890274,4.091532,4.0934634,4.0952315,4.0972266,4.099266,4.100998,4.1022625,4.1028233,4.103018,4.1030884,4.102873,4.102379,4.101881,4.1017847,4.1023617,4.103173,4.1036563,4.103631,4.1033554,4.103262,4.1036863,4.104665,4.10585,4.1069775,4.1073265,4.107031,4.1062126,4.1053095,4.1051655,4.1060557,4.1084757,4.111532,4.1145315,4.117156,4.119411,4.121464,4.123639,4.1256332,4.1270633,4.127968,4.128356,4.1284046,4.1274176,4.124796,4.1207213,4.115752,4.110811,4.106978,4.104645,4.1035805,4.1030235,4.101653,4.0989904,4.0951223,4.091148,4.0876255,4.0846457,4.082266,4.0800076,4.077778,4.0755253,4.0731554,4.070429,4.0670166,4.062525,4.0569534,4.0502014,4.042538,4.033765,4.0220866,4.0055356,3.9837856,3.9554982,3.9267788,3.908772,3.9057581,3.9133797,3.9189856,3.9216723,3.9212828,3.918604,3.9163575,3.9152203,3.9149437,3.9139452,3.9107609,3.9053206,3.8980186,3.890182,3.8826518,3.8761258,3.8705978,3.8656936,3.8624153,3.8617392,3.8643966,3.870348,3.8777514,3.8863692,3.8962255,3.905797,3.914291,3.921268,3.9270868,3.9314437,3.934547,3.9361145,3.9367967,3.9369214,3.9369829,3.937037,3.9370213,3.9368148,3.9362087,3.9350557,3.9331677,3.9309835,3.9290388,3.927596,3.9264085,3.9255638,3.9249249,3.9251132,3.9251325,3.9249475,3.92459,3.924271,3.9240012,3.9239292,3.924055,3.924271,3.9244742,3.9246294,3.9247656,3.9248645,3.9248562,3.9246664,3.9244018,3.9241605,3.9239805,3.9238067,3.923686,3.9236603,3.923801,3.92411,3.9244094,3.924551,3.9243917,3.9239845,3.9233332,3.922502,3.9214678,3.9201593,3.9186797,3.9171252,3.915577,3.9141822,3.9131198,3.9123673,3.9117873,3.9110565,3.9100027,3.9087057,3.9073727,3.9061189,3.9048524,3.9034584
3.2988396,3.3019915,3.304542,3.3059273,3.3066025,3.3061433,3.3053522,3.3046029,3.3043468,3.3057284,3.3083763,3.3125339,3.3169737,3.3208203,3.3227973,3.3219204,3.3180308,3.3118896,3.3041606,3.2959304,3.2868168,3.276938,3.2668505,3.2582927,3.2525253,3.2496674,3.250174,3.253392,3.2592402,3.2671053,3.276764,3.2875557,3.2983637,3.310557,3.3269935,3.3524313,3.3865354,3.423214,3.455835,3.4749095,3.4804149,3.4745455,3.4656434,3.4620428,3.4679909,3.486991,3.5168777,3.5546145,3.5995824,3.6582246,3.712338,3.7527347,3.7801409,3.7938447,3.8063865,3.8139582,3.8210185,3.8247685,3.828103,3.829726,3.829995,3.8287077,3.8259501,3.822424,3.8185706,3.8146214,3.8098507,3.8050842,3.8014235,3.7987823,3.7968004,3.7946396,3.7935495,3.7945633,3.7972214,3.8018973,3.8071022,3.8122642,3.8164606,3.8191843,3.8211076,3.823679,3.8275433,3.832337,3.8373477,3.8420193,3.8455367,3.847938,3.84933,3.849778,3.8501658,3.8513079,3.8542829,3.859148,3.8651,3.8708906,3.8759494,3.8809476,3.8866358,3.8925078,3.8986626,3.9054444,3.9131763,3.9215593,3.929804,3.9369617,3.942934,3.9477916,3.9522486,3.9574552,3.9637027,3.9715166,3.980695,3.9905972,4.0000076,4.0078964,4.014184,4.0194855,4.025316,4.032731,4.0425215,4.0544844,4.0674067,4.0805435,4.091264,4.0996733,4.105824,4.110615,4.11503,4.119295,4.122677,4.124509,4.124277,4.122344,4.120233,4.118445,4.1172657,4.116697,4.1173315,4.119072,4.121728,4.124576,4.1267557,4.128731,4.1310873,4.1341333,4.1374416,4.140368,4.1426353,4.1438904,4.1445856,4.14489,4.1446047,4.1437445,4.142518,4.142032,4.1419954,4.141909,4.1413946,4.140237,4.138763,4.137488,4.13692,4.137188,4.1377535,4.1380067,4.137329,4.135747,4.133361,4.130787,4.128897,4.128191,4.129157,4.13089,4.1325283,4.1335263,4.1338296,4.133749,4.1334457,4.1329193,4.1326323,4.132557,4.1325965,4.1324096,4.1312227,4.128357,4.123866,4.1183376,4.11287,4.108565,4.105733,4.1041403,4.102992,4.101419,4.0990553,4.095826,4.0923567,4.088928,4.0855618,4.082258,4.0789824,4.07574,4.0727186,4.0698934,4.067012,4.0635996,4.05906,4.053271,4.0461655,4.0381355,4.0290127,4.017049,4.0002923,3.978492,3.95056,3.9224732,3.9055223,3.903391,3.9109585,3.9160752,3.9185133,3.9176993,3.9148302,3.9123216,3.9109278,3.9104037,3.909049,3.9054213,3.8994732,3.8913507,3.88197,3.8736398,3.8669648,3.8621378,3.8588703,3.8581018,3.8604648,3.8657641,3.8724782,3.8803692,3.8893986,3.899036,3.907967,3.9155626,3.921641,3.9266267,3.9304495,3.9332533,3.9347022,3.9353118,3.9354157,3.9354644,3.9354637,3.935361,3.9350443,3.9343786,3.9332736,3.9315863,3.929525,3.9275994,3.9261339,3.9248264,3.9237928,3.9229102,3.922955,3.9230013,3.9230418,3.923084,3.9231243,3.923172,3.923331,3.923554,3.923714,3.9237509,3.9236941,3.923592,3.9234724,3.9232805,3.922965,3.922603,3.9221563,3.9217844,3.921445,3.9211679,3.9209914,3.9209511,3.921016,3.9210262,3.9208505,3.9203982,3.919755,3.9189167,3.917916,3.9167361,3.91532,3.9137888,3.9122217,3.910688,3.909344,3.9084408,3.9078534,3.9074202,3.9068356,3.9059405,3.9048436,3.903709,3.9026113,3.901434,3.9001117
3.3196583,3.323321,3.3263633,3.3280184,3.3285236,3.3273735,3.325488,3.3234243,3.3219905,3.3224792,3.3246727,3.3289242,3.3339982,3.3389812,3.342452,3.3431616,3.3405783,3.3352926,3.3277845,3.319165,3.3091145,3.2978845,3.2866623,3.2774062,3.271832,3.269875,3.2719107,3.2769198,3.2847357,3.2946591,3.306136,3.3182616,3.329875,3.3436556,3.362932,3.3921704,3.4312863,3.473971,3.5109344,3.530542,3.532873,3.5209534,3.5052948,3.4961562,3.4985971,3.516889,3.5488763,3.5916128,3.6390805,3.690958,3.745233,3.7850637,3.812822,3.8344326,3.8504522,3.8608103,3.8670464,3.8708267,3.8729272,3.8738835,3.873828,3.8724794,3.8697796,3.866034,3.8615675,3.857338,3.8529065,3.8479536,3.8435163,3.8398843,3.836227,3.8321862,3.829411,3.8278284,3.8275242,3.829144,3.8317661,3.8347225,3.8372152,3.8388858,3.840157,3.8420167,3.8450737,3.8491998,3.8534987,3.8573728,3.8606377,3.8633392,3.865253,3.8662634,3.8669162,3.8682842,3.871381,3.8761108,3.8821979,3.8888302,3.8955808,3.9024034,3.9091263,3.915296,3.9210591,3.9272048,3.9345794,3.9432392,3.952385,3.9607017,3.9675097,3.9728107,3.977529,3.9829702,3.9895163,3.9975386,4.006637,4.0161266,4.025069,4.032737,4.039157,4.0449977,4.0515604,4.059687,4.070053,4.0826035,4.0963984,4.1096573,4.1209292,4.1300316,4.136774,4.1418505,4.1459055,4.1491256,4.1517777,4.153629,4.1545897,4.154853,4.15466,4.153979,4.153189,4.1524544,4.152458,4.1534643,4.1553454,4.1573973,4.1589317,4.1606674,4.1632414,4.1668887,4.171049,4.1746454,4.1774473,4.1794434,4.1808186,4.1815686,4.1816635,4.181142,4.1801476,4.1792293,4.1787333,4.178212,4.17719,4.175623,4.173563,4.1712046,4.1690726,4.167462,4.166214,4.1647778,4.1625357,4.159415,4.1551924,4.150426,4.146385,4.1440296,4.143811,4.144804,4.1459208,4.146245,4.145945,4.1453066,4.144103,4.142954,4.1421957,4.141808,4.1415386,4.1407127,4.13878,4.1352863,4.1302953,4.124464,4.1188593,4.114477,4.1114907,4.109602,4.107889,4.105842,4.103203,4.0997744,4.0958595,4.0915756,4.087136,4.082654,4.078229,4.074004,4.0703034,4.0671215,4.0641527,4.0607653,4.056205,4.0502486,4.0428467,4.0344877,4.02505,4.0128427,3.9959311,3.974121,3.9466057,3.9193559,3.903292,3.901711,3.9088335,3.9135318,3.9156048,3.9143414,3.9111357,3.9083858,3.906759,3.9059386,3.90416,3.8999467,3.8933096,3.883171,3.8724039,3.8635154,3.8571873,3.8539977,3.853466,3.8564854,3.8620434,3.868536,3.8760448,3.884519,3.893546,3.902659,3.9108524,3.917612,3.9228888,3.927125,3.9304256,3.9329152,3.934186,3.9346533,3.934651,3.9346426,3.9346218,3.9344926,3.9340978,3.933342,3.9322023,3.9305878,3.9286103,3.9265137,3.9247217,3.9229984,3.9214911,3.9201136,3.9196868,3.919383,3.9192834,3.919389,3.9195762,3.9198139,3.9200475,3.9202242,3.9202242,3.920001,3.9196477,3.9192495,3.9188473,3.9184494,3.9180346,3.9175649,3.9170632,3.9166615,3.9163442,3.9160993,3.9159439,3.915834,3.9157047,3.9154596,3.9150167,3.9143698,3.9136014,3.9128153,3.9120107,3.91115,3.9101748,3.9089737,3.9077044,3.9064746,3.9052806,3.9043746,3.903698,3.9031487,3.902595,3.9018764,3.9009848,3.900082,3.8992324,3.8983095,3.8972745
3.3310413,3.3348584,3.3382556,3.3402948,3.3409553,3.3396235,3.3371894,3.3343155,3.3321514,3.3320513,3.3339334,3.3382254,3.3436685,3.3492775,3.353558,3.355135,3.3532805,3.348518,3.3412023,3.3323715,3.3218265,3.3099759,3.2982621,3.2889462,3.2838483,3.282608,3.2857578,3.2919397,3.300919,3.3119128,3.3240716,3.3363886,3.3481567,3.3626728,3.3827918,3.4151516,3.4580698,3.504345,3.5434089,3.5621867,3.56104,3.5438213,3.5226324,3.5093853,3.5093517,3.526442,3.5590372,3.6041808,3.6559153,3.7083583,3.7587743,3.8004441,3.8327742,3.859065,3.8760977,3.8859468,3.8907933,3.892805,3.893344,3.8930826,3.892367,3.8911777,3.8894372,3.8871937,3.8842201,3.8806818,3.8768625,3.8725348,3.867879,3.863387,3.8589725,3.8543954,3.8502135,3.8467197,3.844265,3.8434334,3.8437786,3.8449576,3.8461244,3.8469257,3.8475866,3.8488474,3.8513446,3.8548727,3.8585196,3.8618193,3.864698,3.867347,3.869804,3.8719215,3.873756,3.8759432,3.879314,3.8840961,3.8904846,3.8979278,3.9060764,3.9143324,3.921826,3.9282727,3.9339228,3.9398456,3.9472547,3.9564104,3.9664793,3.9758227,3.9834623,3.9892359,3.9941134,3.9994788,4.005792,4.0134583,4.0220656,4.030715,4.03876,4.0456963,4.05163,4.057291,4.0638924,4.0721645,4.0828204,4.095954,4.1112604,4.1254473,4.1379786,4.147712,4.154789,4.159846,4.163698,4.166746,4.1692533,4.171195,4.172886,4.174532,4.1759024,4.1766467,4.1767035,4.1762757,4.1761203,4.176611,4.177829,4.179446,4.1809864,4.1828394,4.185363,4.1887484,4.192631,4.196272,4.199376,4.2018185,4.203665,4.2048726,4.2054653,4.205509,4.205115,4.2044334,4.2037797,4.2031536,4.202265,4.200829,4.198758,4.196087,4.193157,4.1902227,4.187293,4.18419,4.18005,4.174711,4.167947,4.1605177,4.154063,4.1497793,4.148377,4.1488733,4.149822,4.150077,4.14984,4.148818,4.147273,4.1459775,4.1450243,4.1443353,4.143687,4.14252,4.140362,4.1368217,4.131979,4.12648,4.1212683,4.1171713,4.114236,4.112152,4.110179,4.1078606,4.104968,4.1012344,4.0968843,4.092044,4.086935,4.0817523,4.0767035,4.0720167,4.0680556,4.0648146,4.061926,4.0586576,4.054161,4.0481415,4.0405474,4.0319324,4.0222206,4.0097995,3.9927511,3.9709544,3.9440165,3.9178267,3.9026175,3.901469,3.9077983,3.9118395,3.913536,3.9118376,3.908338,3.9054227,3.9036217,3.902495,3.9002275,3.8953443,3.887994,3.8765206,3.8653378,3.8567853,3.8516898,3.8507023,3.8530145,3.8581567,3.8639784,3.8712733,3.8795052,3.8882115,3.8971238,3.9059541,3.913878,3.9203477,3.9252286,3.928956,3.9317284,3.9337282,3.9345396,3.934561,3.9341302,3.9337673,3.9335158,3.933224,3.9326842,3.9318016,3.930619,3.928995,3.9268794,3.9245353,3.9224148,3.9203088,3.9183984,3.9166193,3.9158146,3.9152455,3.9149795,3.9150352,3.9152472,3.915557,3.9158037,3.915913,3.9157772,3.915347,3.9147677,3.9143271,3.9140282,3.9137263,3.913345,3.9128985,3.9124646,3.912137,3.9119225,3.9117672,3.911662,3.9115324,3.9113722,3.9111612,3.9107134,3.9100852,3.9093683,3.9086604,3.9080105,3.9072874,3.9064755,3.905559,3.9046028,3.9036791,3.9028206,3.9021795,3.9017122,3.9012039,3.9006448,3.899966,3.8991969,3.8984413,3.8976994,3.8968163,3.895769
3.3348956,3.338472,3.3417883,3.3439384,3.34479,3.343656,3.3412738,3.338274,3.3359287,3.335621,3.3374188,3.3418257,3.3475966,3.3536816,3.3584967,3.3605962,3.3591504,3.354681,3.3474846,3.3385582,3.3278534,3.3158507,3.3041081,3.294095,3.289234,3.2891662,3.292587,3.29903,3.308309,3.319449,3.3315983,3.3440547,3.3554094,3.3679867,3.387826,3.4228961,3.46952,3.5171509,3.5564742,3.573913,3.5699778,3.5491152,3.5240903,3.504897,3.4977148,3.5153997,3.552799,3.6019473,3.6561656,3.7111812,3.7617922,3.802572,3.8349972,3.860528,3.8760467,3.8850288,3.889462,3.8910987,3.8912306,3.8907487,3.8904042,3.8893757,3.888145,3.8873262,3.8861952,3.8845162,3.882248,3.8793864,3.8762393,3.8727293,3.868393,3.8635604,3.8587317,3.854113,3.8501868,3.8475275,3.8459282,3.8452792,3.8448887,3.8445468,3.844405,3.8450541,3.8469493,3.8498225,3.8529048,3.8559046,3.8588371,3.8618927,3.8651369,3.86829,3.8710308,3.87372,3.8771553,3.8818843,3.888508,3.896641,3.9059353,3.9155154,3.924171,3.9313588,3.9373405,3.9434962,3.9512506,3.9609995,3.971886,3.9820447,3.9903088,3.9963946,4.0012903,4.006355,4.012023,4.01867,4.0259624,4.033214,4.039965,4.0458713,4.051057,4.056267,4.0630064,4.0725355,4.0849657,4.099327,4.1136937,4.1277485,4.1403465,4.150305,4.1578636,4.1634755,4.167845,4.1714983,4.1748013,4.177636,4.1797585,4.1817665,4.1839933,4.185732,4.1864653,4.1863174,4.1860657,4.1863985,4.1875114,4.1892076,4.1910505,4.1931148,4.1955233,4.1984134,4.201622,4.2048073,4.2078104,4.210527,4.2129536,4.2148643,4.2160797,4.216571,4.216448,4.2164416,4.2163258,4.215865,4.214915,4.2139034,4.2117176,4.208502,4.204773,4.200806,4.1966844,4.192233,4.186837,4.1801767,4.171576,4.161757,4.1528444,4.146367,4.1431465,4.142227,4.142361,4.142458,4.141771,4.1404085,4.138899,4.1378965,4.137412,4.137125,4.136773,4.135845,4.134031,4.1310863,4.1270924,4.1226015,4.118304,4.114812,4.112115,4.1099424,4.107752,4.1052203,4.1021852,4.0983396,4.093855,4.088861,4.0835724,4.078222,4.073056,4.0683374,4.0644226,4.061282,4.058543,4.0554667,4.0511484,4.045288,4.0377307,4.0290318,4.0191283,4.0065126,3.989319,3.9675415,3.9412496,3.9160676,3.9016628,3.900876,3.906303,3.909555,3.91088,3.9088187,3.9051461,3.9022088,3.9003568,3.8989768,3.8962123,3.8906226,3.8825526,3.8705387,3.8593469,3.8517725,3.8485544,3.8501687,3.8539696,3.8593082,3.8659863,3.8739138,3.8822062,3.8904943,3.8988647,3.9072354,3.9149165,3.9212904,3.9260616,3.9295592,3.932019,3.9336774,3.9341207,3.933766,3.9329453,3.9322038,3.931651,3.9311187,3.9303908,3.9293156,3.9278297,3.9258626,3.9234724,3.9208503,3.9184046,3.915977,3.9137528,3.911672,3.9105933,3.9098244,3.9094126,3.9094086,3.9095914,3.9098794,3.9101396,3.9103494,3.9102392,3.9097853,3.9092207,3.9087818,3.9085395,3.9083369,3.9080577,3.9077325,3.9075084,3.9075222,3.907563,3.9076214,3.9077213,3.9077818,3.9077127,3.907421,3.9068174,3.9060621,3.9052587,3.9045072,3.903844,3.903225,3.902601,3.9019399,3.9012623,3.9006355,3.9001179,3.899805,3.8996263,3.8994107,3.8990595,3.898489,3.8978062,3.8971453,3.8965595,3.8959208,3.8950844
