23.852057,23.859022,23.863987,23.870525,23.877565,23.883652,23.893364,23.901966,23.913208,23.924053,23.934652,23.94746,23.95662,23.968369,23.97784,23.987469,23.998209,24.006195,24.017437,24.026785,24.03777,24.048717,24.056244,24.066349,24.074299,24.085018,24.09623,24.10521,24.117966,24.12843,24.143368,24.158905,24.173275,24.193928,24.211323,24.234562,24.25492,24.276054,24.29988,24.317099,24.338993,24.355648,24.374264,24.395624,24.41328,24.440248,24.463903,24.496778,24.530886,24.556536,24.588852,24.612228,24.639751,24.662638,24.682186,24.704514,24.719883,24.74215,24.763489,24.785643,24.815039,24.839386,24.8727,24.900227,24.93097,24.964191,24.989475,25.023132,25.048306,25.075737,25.10166,25.122997,25.150629,25.171259,25.200176,25.230621,25.258995,25.29797,25.32894,25.357851,25.375412,25.393944,25.416666,25.43461,25.460512,25.48339,25.508724,25.53877,25.563366,25.596964,25.623466,25.655487,25.688824,25.716211,25.7505,25.774681,25.804367,25.831112,25.8536,25.881065,25.900875,25.927708,25.953678,25.980673,26.017923,26.048563,26.093544,26.134106,26.178112,26.228348,26.267317,26.318226,26.356316,26.398972,26.441347,26.47493,26.519894,26.554537,26.600357,26.646885,26.687294,26.739933,26.779524,26.830864,26.87576,26.917158,26.964012,26.99675,27.04036,27.076283,27.113476,27.1571,27.191822,27.243057,27.287178,27.339787,27.397648,27.444794,27.507198,27.553902,27.61125,27.66694,27.715096,27.774744,27.817032,27.871212,27.91887,27.963781,28.012608,28.044067,28.083294,28.114061,28.146275,28.185184,28.216984,28.26008,28.293066,28.325203,28.35741,28.384418,28.422283,28.451406,28.4811,28.5047,28.522678,28.544018,28.559063,28.579796,28.600714,28.62128,28.649635,28.672916,28.692307,28.700516,28.709335,28.7184,28.725214,28.735153,28.744034,28.75526,28.768497,28.779129,28.793352,28.804388,28.819216,28.834764,28.847523,28.863602,28.875107,28.888474,28.899244,28.908184,28.918625,28.926151,28.937826,28.949917,28.96304,28.981312,28.996737,29.019756,29.039604,29.060322,29.080807,29.095352,29.113998,29.127697,29.143757,29.159863,29.173294,29.191782,29.206278,29.2247,29.241966,29.257221,29.275745,29.28907,29.305655,29.318882,29.331089,29.344864,29.355042,29.369354,29.381731,29.3962,29.412764,29.425709,29.442265,29.454166,29.467161,29.478928,29.487822,29.499352,29.508102,29.519619,29.53116,29.541603,29.555029,29.565031,29.578308,29.589745,29.600529,29.611555,29.618662,29.62536,29.627579,29.627483,29.62363,29.619028,29.612495,29.60764,29.603283,29.601467,29.6017,29.60387,29.60667,29.61045,29.614567,29.618189,29.622374,29.625118,29.629013,29.632298,29.635017,29.637045,29.6377,29.638103,29.637749,29.636799,29.635029,29.633575,29.63052,29.626987,29.621744,29.615194,29.60963,29.60281,29.598537,29.595844,29.59718,29.600464,29.607334,29.613758,29.622116,29.628853,29.633797,29.637257,29.638288,29.63814,29.636322,29.6338,29.629692,29.626135,29.62059,29.61544,29.609108,29.60125,29.594467,29.584019,29.574818,29.561897,29.54784,29.535759,29.520824,29.510431,29.49868,29.490465,29.484585,29.478954
23.959911,23.968138,23.974064,23.981592,23.989292,23.995777,24.00565,24.01414,24.025055,24.03534,24.045311,24.057167,24.065527,24.07619,24.084736,24.09343,24.103146,24.110384,24.120651,24.129242,24.139317,24.149277,24.15597,24.165218,24.172764,24.183182,24.194645,24.20419,24.218243,24.230013,24.246613,24.263508,24.278978,24.300024,24.317013,24.339039,24.35762,24.376656,24.39784,24.413073,24.432785,24.448174,24.46563,24.486244,24.503538,24.53017,24.553677,24.58641,24.620632,24.646513,24.679619,24.703968,24.733189,24.75832,24.780193,24.805805,24.823769,24.849426,24.87352,24.898132,24.929996,24.95604,24.991268,25.019737,25.05057,25.083023,25.107658,25.139458,25.16253,25.187706,25.211555,25.231342,25.25737,25.277113,25.30503,25.334751,25.362492,25.400845,25.431435,25.46333,25.484669,25.503979,25.526876,25.545296,25.571768,25.595001,25.62064,25.650677,25.675045,25.708048,25.733814,25.764671,25.796413,25.822376,25.854576,25.877073,25.904682,25.929634,25.950748,25.976833,25.995838,26.021973,26.047676,26.074463,26.11164,26.142315,26.187382,26.228241,26.27324,26.324347,26.363403,26.414352,26.452394,26.494905,26.536863,26.569984,26.613897,26.647419,26.691652,26.73656,26.775768,26.82677,26.865032,26.914896,26.958633,26.998913,27.044447,27.076221,27.11847,27.153196,27.189096,27.23132,27.26503,27.315037,27.358303,27.409973,27.46696,27.513481,27.57505,27.62106,27.677244,27.731377,27.777885,27.835585,27.87666,27.929895,27.976963,28.020702,28.068806,28.100435,28.140945,28.173046,28.205585,28.242752,28.271538,28.31184,28.344738,28.381477,28.420937,28.453804,28.492891,28.5182,28.545511,28.567604,28.584059,28.60638,28.624437,28.64928,28.674826,28.699835,28.734468,28.762793,28.792286,28.810036,28.825006,28.83893,28.849026,28.861954,28.87183,28.883171,28.895721,28.905964,28.919535,28.929619,28.940815,28.95158,28.96096,28.973179,28.982208,28.992832,29.00164,29.009083,29.017963,29.024446,29.03437,29.044579,29.055672,29.071058,29.084002,29.103233,29.119846,29.137402,29.155117,29.167887,29.184591,29.197138,29.212019,29.22719,29.239887,29.257458,29.271301,29.288961,29.305779,29.320818,29.339561,29.353355,29.371183,29.386292,29.400757,29.41801,29.431221,29.449781,29.465563,29.483334,29.502598,29.517115,29.534843,29.54689,29.559769,29.570942,29.57927,29.589844,29.597748,29.60802,29.618141,29.627224,29.638771,29.647308,29.65865,29.668474,29.677816,29.687576,29.693996,29.700584,29.703518,29.704536,29.702572,29.699734,29.695549,29.692402,29.689777,29.689148,29.689976,29.692455,29.695164,29.698738,29.702374,29.705456,29.708681,29.71054,29.712746,29.713856,29.71409,29.712917,29.711235,29.708565,29.705868,29.702744,29.699205,29.696762,29.692936,29.689312,29.684303,29.678303,29.673206,29.666742,29.662464,29.659348,29.659578,29.661568,29.66624,29.670738,29.67651,29.680878,29.68367,29.68489,29.684519,29.683113,29.680935,29.67839,29.67503,29.672413,29.66859,29.66521,29.661,29.655758,29.651373,29.643631,29.636015,29.624523,29.61158,29.600502,29.587498,29.57904,29.570091,29.564568,29.561089,29.557522
24.046242,24.055763,24.062675,24.071264,24.079788,24.08688,24.097282,24.106003,24.11708,24.127316,24.137154,24.148708,24.156778,24.167044,24.175226,24.183563,24.192814,24.199654,24.209335,24.217371,24.22667,24.23568,24.241568,24.249931,24.25699,24.266958,24.278456,24.288368,24.303389,24.316154,24.334057,24.352074,24.368504,24.389984,24.406738,24.428001,24.445423,24.463074,24.482557,24.49654,24.514982,24.529713,24.546608,24.566847,24.583931,24.610165,24.63327,24.66542,24.699165,24.724762,24.757996,24.78282,24.813114,24.839882,24.863533,24.89167,24.911625,24.939775,24.965855,24.992264,25.026072,25.053574,25.090359,25.119461,25.149895,25.181725,25.206543,25.237862,25.260025,25.284328,25.307394,25.3266,25.351917,25.371132,25.398129,25.426838,25.453653,25.490992,25.520908,25.555174,25.57972,25.599533,25.62236,25.641022,25.667767,25.691154,25.716917,25.746851,25.770977,25.80349,25.828716,25.85878,25.889494,25.914555,25.9455,25.967018,25.993431,26.017391,26.037775,26.063154,26.081764,26.107628,26.133316,26.160126,26.197447,26.228277,26.273605,26.314793,26.36037,26.4121,26.451504,26.502735,26.540846,26.58342,26.625225,26.658115,26.701319,26.733994,26.776829,26.820307,26.858643,26.908264,26.945225,26.993652,27.036228,27.075386,27.119535,27.15026,27.190994,27.224417,27.259018,27.299948,27.332794,27.381687,27.42413,27.47488,27.531013,27.576927,27.637735,27.683197,27.738625,27.791887,27.837631,27.893982,27.933762,27.984451,28.028282,28.06778,28.113558,28.14618,28.19051,28.226234,28.258856,28.2923,28.316143,28.351624,28.382921,28.421116,28.464327,28.500868,28.539005,28.559612,28.584908,28.607931,28.627033,28.651669,28.670069,28.694525,28.71905,28.743244,28.776901,28.8042,28.841217,28.870598,28.894175,28.917171,28.93404,28.955853,28.972473,28.991016,29.010427,29.02561,29.045235,29.059208,29.07282,29.084562,29.095074,29.108835,29.119085,29.131416,29.141985,29.15112,29.162094,29.170101,29.181396,29.192177,29.203777,29.219046,29.231522,29.248806,29.26305,29.278612,29.294582,29.306213,29.321333,29.332623,29.346104,29.359932,29.371511,29.387667,29.400494,29.416912,29.432796,29.44722,29.465473,29.479042,29.496693,29.511845,29.52647,29.544212,29.557957,29.577389,29.593992,29.612644,29.632656,29.647598,29.665462,29.67725,29.689632,29.699875,29.707241,29.716244,29.722757,29.731092,29.739063,29.746098,29.754877,29.761286,29.769886,29.777508,29.784885,29.793118,29.798923,29.805439,29.809174,29.811642,29.812157,29.811565,29.810558,29.809921,29.81002,29.811638,29.81392,29.817585,29.820637,29.82429,29.827353,29.829659,29.831429,29.831951,29.831987,29.830631,29.828318,29.823555,29.818897,29.812164,29.80624,29.800156,29.794128,29.790218,29.785114,29.781116,29.776085,29.770597,29.766045,29.760452,29.756868,29.754387,29.754742,29.756504,29.760183,29.7635,29.767471,29.76997,29.771019,29.770313,29.768677,29.766024,29.763275,29.760372,29.757053,29.754656,29.75131,29.74841,29.74467,29.739775,29.73568,29.72749,29.718855,29.705523,29.691006,29.679386,29.66677,29.659298,29.65215,29.648754,29.647247,29.645851
24.132519,24.143433,24.151405,24.161175,24.170662,24.178486,24.18961,24.198711,24.210148,24.220491,24.230324,24.241714,24.249586,24.259605,24.267557,24.27563,24.284527,24.291077,24.300266,24.307795,24.316332,24.32436,24.329391,24.336805,24.34333,24.352776,24.364252,24.374516,24.390484,24.404247,24.423454,24.442612,24.460037,24.482029,24.49862,24.519238,24.535637,24.552055,24.570038,24.582949,24.60027,24.614428,24.63095,24.650955,24.667831,24.693577,24.716133,24.747486,24.78049,24.805576,24.838654,24.863771,24.89492,24.923145,24.948435,24.978924,25.000721,25.030972,25.058746,25.087215,25.123135,25.151913,25.189655,25.21883,25.248856,25.280539,25.30608,25.337543,25.359213,25.383148,25.406052,25.425522,25.450268,25.468304,25.494137,25.521797,25.54755,25.583645,25.612709,25.648987,25.676434,25.69663,25.719288,25.738096,25.765,25.788452,25.81424,25.843994,25.867825,25.89983,25.92456,25.953894,25.9837,26.007965,26.037865,26.058626,26.084126,26.107368,26.12726,26.152203,26.170595,26.196354,26.222126,26.249022,26.286522,26.317518,26.363106,26.404537,26.450348,26.502497,26.54243,26.594017,26.632133,26.674786,26.716488,26.749184,26.79177,26.823708,26.865265,26.907433,26.945059,26.99339,27.029013,27.076012,27.117455,27.155521,27.198261,27.227875,27.26696,27.298923,27.332024,27.371422,27.40324,27.450735,27.49208,27.541588,27.59652,27.641542,27.701302,27.74606,27.80058,27.852924,27.89787,27.953102,27.991983,28.041145,28.08315,28.12069,28.1639,28.194609,28.235828,28.269627,28.30252,28.339169,28.367508,28.403896,28.431978,28.46629,28.504608,28.53652,28.574043,28.59825,28.626293,28.651722,28.672775,28.700428,28.721317,28.744753,28.765385,28.786198,28.815304,28.839066,28.872513,28.90123,28.927834,28.955328,28.974613,28.998985,29.01698,29.036625,29.056715,29.072239,29.09271,29.108006,29.125559,29.142645,29.157272,29.176384,29.190582,29.207603,29.222092,29.23457,29.249382,29.26007,29.274734,29.288254,29.302647,29.32098,29.335678,29.355202,29.370543,29.387049,29.403286,29.414738,29.429155,29.439604,29.452164,29.465162,29.476135,29.491804,29.5045,29.520914,29.537033,29.551773,29.570549,29.584583,29.602182,29.61639,29.629517,29.644165,29.654846,29.669392,29.681602,29.695915,29.712154,29.724833,29.740692,29.75171,29.763397,29.77298,29.77958,29.787197,29.79242,29.799082,29.805443,29.811079,29.818382,29.823917,29.831543,29.838612,29.845592,29.85393,29.860165,29.86763,29.8725,29.876316,29.878532,29.879318,29.880068,29.880701,29.88227,29.885191,29.888456,29.892776,29.895775,29.898762,29.900354,29.900978,29.900368,29.899097,29.89761,29.896175,29.895294,29.891788,29.887022,29.879745,29.873238,29.867096,29.861458,29.858015,29.853558,29.850035,29.845442,29.840282,29.835945,29.830633,29.827263,29.824986,29.82513,29.826382,29.82862,29.830357,29.832039,29.83239,29.831623,29.829296,29.826855,29.8237,29.821098,29.81853,29.81588,29.81406,29.81163,29.809525,29.806631,29.802301,29.798271,29.79044,29.782406,29.770466,29.757713,29.747478,29.736477,29.730057,29.724087,29.721392,29.720257,29.718899
24.230946,24.243443,24.252686,24.263985,24.274912,24.283924,24.29641,24.306396,24.318836,24.329826,24.34007,24.35169,24.359604,24.369633,24.37751,24.38546,24.394108,24.400436,24.409195,24.41621,24.423933,24.430872,24.434961,24.441324,24.447247,24.456087,24.467499,24.47813,24.49507,24.50983,24.530369,24.55074,24.569267,24.591976,24.60858,24.628906,24.644691,24.66032,24.677368,24.689646,24.70644,24.72047,24.737091,24.757065,24.77364,24.798527,24.820065,24.849953,24.881416,24.905294,24.9374,24.96228,24.993649,25.022806,25.049286,25.081533,25.10469,25.136833,25.16632,25.196587,25.234146,25.26374,25.302017,25.331318,25.361794,25.394552,25.421467,25.454283,25.476624,25.501717,25.52546,25.545254,25.569263,25.585968,25.61052,25.63694,25.661308,25.695675,25.72351,25.760506,25.789562,25.809784,25.8321,25.850815,25.877563,25.900871,25.926517,25.956005,25.979534,26.011116,26.035492,26.064337,26.093594,26.11739,26.146774,26.167242,26.192402,26.215458,26.235296,26.26027,26.278725,26.304657,26.330631,26.357681,26.39531,26.426373,26.472012,26.51342,26.559006,26.611225,26.651684,26.703499,26.741455,26.784107,26.825752,26.858316,26.900482,26.931889,26.972466,27.013647,27.050795,27.098307,27.133087,27.17902,27.219433,27.256474,27.297733,27.32608,27.363205,27.393335,27.42454,27.46191,27.492313,27.537811,27.57753,27.625202,27.67828,27.721844,27.779848,27.82343,27.87664,27.927889,27.971958,28.02612,28.064217,28.112041,28.152477,28.188566,28.229092,28.257114,28.293629,28.323816,28.355598,28.39394,28.425335,28.463001,28.489727,28.521698,28.556097,28.583656,28.619934,28.64653,28.675713,28.70145,28.722343,28.749998,28.771118,28.79342,28.812122,28.831356,28.858559,28.881021,28.911152,28.936852,28.962776,28.98993,29.00837,29.031218,29.047638,29.06532,29.083214,29.09697,29.1157,29.130562,29.150322,29.171356,29.188915,29.21193,29.229042,29.249477,29.266733,29.281502,29.298893,29.311382,29.328371,29.343859,29.360294,29.380991,29.397474,29.419025,29.435566,29.453018,29.469566,29.480892,29.494797,29.504635,29.51653,29.528961,29.53956,29.555008,29.567743,29.58435,29.600807,29.61588,29.635109,29.649502,29.666965,29.680206,29.691826,29.703457,29.711212,29.721075,29.72907,29.739166,29.751707,29.762142,29.776005,29.786266,29.79732,29.806408,29.812437,29.818975,29.823147,29.828465,29.833523,29.838032,29.84419,29.849102,29.856081,29.86283,29.869596,29.878038,29.884586,29.892633,29.898148,29.90269,29.905811,29.907356,29.90901,29.910254,29.912579,29.916191,29.919994,29.924564,29.927353,29.929634,29.92992,29.929071,29.926468,29.923752,29.921148,29.919939,29.920357,29.91925,29.916428,29.912067,29.908264,29.905104,29.902603,29.901344,29.899223,29.896961,29.893398,29.888767,29.884699,29.87962,29.876362,29.874323,29.87466,29.87603,29.878193,29.879707,29.881163,29.881432,29.880703,29.878727,29.876736,29.874329,29.872444,29.870518,29.868454,29.866985,29.865005,29.86326,29.860876,29.8572,29.853613,29.847164,29.840872,29.8319,29.822315,29.814362,29.805422,29.799892,29.794607,29.791965,29.790667,29.789045
24.308092,24.321745,24.331955,24.34451,24.35672,24.366837,24.380661,24.391567,24.405104,24.41687,24.427649,24.439636,24.447678,24.45779,24.465626,24.47348,24.481922,24.488052,24.496452,24.503061,24.510147,24.516266,24.519669,24.525253,24.530727,24.539131,24.550499,24.561405,24.579023,24.594463,24.615921,24.637156,24.65648,24.679775,24.6965,24.716837,24.732456,24.747833,24.764597,24.77671,24.793505,24.807722,24.824732,24.84482,24.8611,24.885143,24.905691,24.934166,24.964087,24.986721,25.017668,25.042068,25.073215,25.102669,25.129616,25.16256,25.1862,25.219803,25.250854,25.282116,25.320301,25.350063,25.388605,25.418352,25.450062,25.484507,25.512615,25.54702,25.570583,25.597488,25.622292,25.641857,25.66499,25.680801,25.704462,25.729956,25.753216,25.786144,25.812962,25.849356,25.878353,25.898327,25.920341,25.938839,25.96529,25.988367,26.01382,26.043108,26.066456,26.097826,26.12207,26.150751,26.17987,26.203564,26.232918,26.25344,26.278687,26.301888,26.321917,26.34713,26.365746,26.39191,26.41805,26.445194,26.482819,26.51381,26.559275,26.600468,26.645706,26.697798,26.738508,26.79033,26.828077,26.870674,26.912302,26.944832,26.986843,27.01804,27.058208,27.098999,27.135975,27.18335,27.218056,27.263618,27.303448,27.339886,27.380138,27.407574,27.443218,27.47192,27.501644,27.53738,27.56659,27.610409,27.648766,27.69492,27.746431,27.788723,27.845154,27.887665,27.939777,27.9902,28.033632,28.087084,28.12471,28.171694,28.211147,28.246273,28.28534,28.312103,28.346838,28.375202,28.404697,28.439438,28.466904,28.503674,28.53312,28.568985,28.607243,28.637032,28.671915,28.69439,28.71981,28.742043,28.759975,28.78342,28.801273,28.823662,28.845695,28.868038,28.900162,28.926918,28.961397,28.988216,29.011463,29.033897,29.049347,29.06834,29.08186,29.096409,29.11121,29.122623,29.13866,29.151794,29.169422,29.188517,29.204586,29.225893,29.241894,29.26104,29.277246,29.291065,29.307377,29.319128,29.335056,29.349575,29.365046,29.384575,29.40013,29.420479,29.436096,29.452583,29.468235,29.478966,29.49224,29.501728,29.513247,29.525394,29.535807,29.551022,29.56359,29.580017,29.596329,29.61126,29.63034,29.644646,29.662125,29.67551,29.687305,29.699326,29.707495,29.717922,29.726353,29.736822,29.74961,29.760153,29.774014,29.78417,29.795109,29.804043,29.809927,29.816154,29.819992,29.824802,29.829245,29.833122,29.838436,29.842712,29.84891,29.855019,29.861164,29.86894,29.875055,29.882599,29.887833,29.892183,29.895332,29.897057,29.89894,29.900352,29.90287,29.906574,29.910362,29.914791,29.9174,29.91951,29.919579,29.91848,29.91552,29.912529,29.909393,29.90755,29.906696,29.90622,29.905848,29.906023,29.906841,29.908035,29.909664,29.911062,29.911686,29.910835,29.90849,29.904545,29.900885,29.896109,29.892954,29.891155,29.892101,29.8943,29.898106,29.901207,29.90513,29.907896,29.909403,29.909842,29.909424,29.908669,29.907623,29.906212,29.90424,29.902653,29.900356,29.898357,29.895962,29.89306,29.890638,29.88641,29.882244,29.87603,29.869015,29.862955,29.855652,29.850754,29.845955,29.843475,29.842335,29.841282
24.413162,24.428326,24.439838,24.45414,24.468239,24.480051,24.495989,24.508377,24.523739,24.536854,24.548576,24.56129,24.569666,24.580084,24.58802,24.595901,24.604267,24.610327,24.618505,24.624773,24.631239,24.636505,24.639172,24.643959,24.649006,24.65698,24.668385,24.679707,24.698229,24.71454,24.737167,24.75954,24.779968,24.804203,24.821255,24.84196,24.857754,24.873188,24.890015,24.902199,24.919632,24.934616,24.952105,24.972076,24.987917,25.01064,25.029606,25.055882,25.083363,25.103962,25.132778,25.15604,25.186096,25.215305,25.242603,25.276436,25.30088,25.335346,25.366905,25.398455,25.436775,25.466564,25.505255,25.535587,25.569199,25.606194,25.63591,25.67276,25.69844,25.728424,25.754955,25.773762,25.796036,25.811626,25.834538,25.858814,25.880676,25.911697,25.937092,25.972141,26.000435,26.019913,26.041447,26.05953,26.08544,26.108128,26.133266,26.162304,26.185463,26.216694,26.240915,26.269571,26.298748,26.322521,26.352169,26.373058,26.398773,26.422495,26.443047,26.468891,26.487926,26.514572,26.540993,26.56829,26.605831,26.636602,26.681587,26.722183,26.766556,26.818031,26.858818,26.910221,26.947308,26.989466,27.030815,27.063154,27.104925,27.135933,27.175732,27.216156,27.252804,27.30032,27.335564,27.381058,27.420238,27.455994,27.494982,27.521221,27.554844,27.581493,27.609013,27.642185,27.669489,27.71049,27.746452,27.789898,27.838484,27.87833,27.931664,27.97201,28.02182,28.07044,28.112503,28.164436,28.201067,28.246593,28.284576,28.31828,28.355465,28.380745,28.413437,28.43977,28.466755,28.497608,28.521183,28.554932,28.583714,28.619051,28.657028,28.686432,28.72047,28.742058,28.766445,28.78748,28.804276,28.825748,28.841883,28.864563,28.888792,28.913662,28.947979,28.97528,29.01045,29.03756,29.060825,29.082886,29.097878,29.116173,29.129063,29.142906,29.157001,29.16806,29.18279,29.194244,29.209572,29.226234,29.240456,29.25958,29.27412,29.29154,29.306328,29.318924,29.333849,29.344652,29.35923,29.372501,29.386692,29.404644,29.41895,29.437752,29.452278,29.467653,29.482346,29.49245,29.50506,29.514177,29.525284,29.537092,29.54724,29.5621,29.574396,29.590477,29.606453,29.621052,29.639748,29.653788,29.67104,29.684364,29.696165,29.708351,29.716755,29.727455,29.736027,29.746502,29.759058,29.769306,29.7826,29.792212,29.802555,29.810883,29.81627,29.821777,29.825008,29.828953,29.832466,29.835472,29.83971,29.843231,29.848513,29.853886,29.859333,29.866383,29.872011,29.879028,29.883995,29.888186,29.891424,29.89337,29.89558,29.897234,29.89996,29.90372,29.907436,29.911686,29.91412,29.916042,29.915905,29.914581,29.911304,29.908066,29.904413,29.901917,29.899992,29.899494,29.900274,29.902733,29.905972,29.909462,29.91329,29.916103,29.918274,29.91832,29.91685,29.91357,29.910389,29.906113,29.90324,29.901733,29.90305,29.905693,29.910332,29.914234,29.919441,29.923523,29.926205,29.927872,29.928217,29.92826,29.927608,29.9264,29.924442,29.922829,29.920467,29.918482,29.916283,29.914112,29.912617,29.910023,29.907375,29.903095,29.897877,29.893263,29.886787,29.881723,29.876652,29.873917,29.872765,29.872066
24.492607,24.50884,24.52132,24.53695,24.552563,24.565783,24.58352,24.597189,24.614162,24.628504,24.64109,24.654522,24.663258,24.674065,24.682201,24.690233,24.698723,24.704906,24.713161,24.719372,24.725616,24.730488,24.7328,24.737232,24.742126,24.749931,24.76145,24.773132,24.79234,24.80926,24.832714,24.855919,24.877201,24.902248,24.919683,24.94096,24.957201,24.97298,24.990196,25.002678,25.021038,25.036942,25.054735,25.074417,25.089905,25.111511,25.129128,25.153559,25.178951,25.197746,25.224543,25.246597,25.275278,25.303799,25.331032,25.36529,25.390278,25.424423,25.455114,25.48605,25.523916,25.553555,25.59217,25.622871,25.657936,25.696892,25.72776,25.766571,25.794086,25.826694,25.854723,25.87283,25.894829,25.910965,25.933681,25.957115,25.978043,26.00769,26.032013,26.065742,26.09314,26.11214,26.133251,26.150948,26.176353,26.198692,26.223558,26.252422,26.275482,26.30671,26.331032,26.359816,26.38921,26.413195,26.443296,26.464653,26.490967,26.515306,26.536442,26.562979,26.582478,26.609604,26.636267,26.663698,26.701113,26.731625,26.776045,26.815948,26.859358,26.909996,26.950573,27.001303,27.03763,27.079163,27.120079,27.15215,27.193705,27.224644,27.264315,27.304607,27.340996,27.388853,27.424894,27.470741,27.50969,27.545095,27.583256,27.608677,27.640823,27.66588,27.69162,27.72261,27.748241,27.786694,27.820425,27.861307,27.907076,27.944544,27.994835,28.03304,28.080505,28.12724,28.167854,28.218193,28.253786,28.297943,28.334698,28.36723,28.403053,28.427385,28.458796,28.483944,28.509575,28.538494,28.56048,28.590807,28.61586,28.64649,28.68006,28.706505,28.740368,28.76446,28.790756,28.813276,28.831139,28.853697,28.870438,28.893177,28.916931,28.941956,28.974342,28.998306,29.030243,29.05665,29.082481,29.108503,29.125694,29.14664,29.161364,29.177122,29.193027,29.205648,29.221027,29.231861,29.246208,29.261627,29.274948,29.29303,29.306885,29.323463,29.337551,29.349554,29.363781,29.374077,29.387941,29.40055,29.414064,29.431202,29.444885,29.462914,29.476894,29.491726,29.505985,29.515842,29.528221,29.537231,29.548248,29.559988,29.57006,29.584797,29.596966,29.612848,29.62856,29.642887,29.661198,29.674923,29.691734,29.704643,29.716034,29.72771,29.735725,29.745829,29.75383,29.763634,29.775345,29.784897,29.79723,29.806087,29.815613,29.823154,29.827923,29.832638,29.835293,29.838455,29.841204,29.843548,29.847027,29.850044,29.854698,29.859571,29.864552,29.871094,29.876366,29.882965,29.887657,29.891605,29.894703,29.896599,29.898792,29.900455,29.903141,29.906792,29.91036,29.91442,29.91671,29.918467,29.91819,29.916752,29.913334,29.910002,29.906157,29.90342,29.901318,29.900251,29.90031,29.901615,29.903793,29.906322,29.909286,29.911545,29.913227,29.913128,29.911636,29.908512,29.905487,29.901451,29.898758,29.897306,29.89845,29.900826,29.90494,29.908337,29.912846,29.91626,29.918346,29.919361,29.919247,29.918869,29.918037,29.91671,29.914835,29.913408,29.911413,29.909801,29.908018,29.906212,29.904926,29.902498,29.899893,29.895626,29.890366,29.885849,29.878895,29.873001,29.867092,29.86385,29.862495,29.861712
24.594858,24.61232,24.625954,24.643242,24.66081,24.675846,24.695927,24.711277,24.73037,24.746319,24.760014,24.774368,24.783585,24.794903,24.803326,24.811619,24.820444,24.82696,24.835598,24.84202,24.848331,24.853113,24.855274,24.859636,24.864592,24.872437,24.88427,24.896542,24.916714,24.934439,24.95898,24.98329,25.005707,25.031921,25.049986,25.072191,25.089203,25.105595,25.12347,25.136444,25.155918,25.172798,25.190933,25.210224,25.225204,25.2453,25.261112,25.283138,25.305702,25.321835,25.34591,25.366592,25.393873,25.421417,25.447721,25.480871,25.505081,25.537876,25.567291,25.597141,25.634094,25.66325,25.701458,25.732338,25.768616,25.809395,25.841423,25.882278,25.911736,25.946936,25.976856,25.99535,26.01784,26.034464,26.057095,26.07973,26.09967,26.1278,26.150896,26.183163,26.209568,26.228,26.248579,26.265802,26.290588,26.312485,26.337002,26.365658,26.388617,26.419884,26.444378,26.4734,26.503132,26.527384,26.558058,26.580004,26.607098,26.63226,26.65416,26.681616,26.701742,26.729507,26.756477,26.784094,26.821312,26.851433,26.894997,26.933857,26.975876,27.025108,27.064974,27.114592,27.149979,27.190556,27.230728,27.262335,27.303589,27.334522,27.374191,27.414612,27.451153,27.499462,27.53603,27.58313,27.62302,27.658298,27.695625,27.720278,27.750874,27.774092,27.797646,27.825718,27.848972,27.88385,27.91448,27.951736,27.99361,28.027927,28.074295,28.109787,28.154175,28.198309,28.236835,28.284851,28.318947,28.36113,28.396145,28.427078,28.461113,28.484251,28.51404,28.537733,28.561771,28.58839,28.608324,28.63522,28.657,28.683643,28.713062,28.736397,28.76727,28.789944,28.814426,28.835266,28.851707,28.872324,28.887533,28.908255,28.929993,28.952757,28.983198,29.006508,29.03798,29.064741,29.091795,29.119379,29.137432,29.159199,29.174217,29.190098,29.205595,29.217463,29.232315,29.2432,29.257954,29.274342,29.288685,29.308586,29.324087,29.342646,29.358246,29.371258,29.386242,29.396826,29.411098,29.424221,29.438545,29.45718,29.472427,29.491556,29.505638,29.52037,29.534588,29.544682,29.557785,29.567686,29.580017,29.5933,29.604664,29.620941,29.634108,29.65108,29.667439,29.682167,29.700287,29.713417,29.728779,29.739649,29.748707,29.757149,29.762531,29.769222,29.774637,29.781929,29.791302,29.799198,29.809502,29.816965,29.824999,29.831255,29.835037,29.838661,29.840647,29.84306,29.84517,29.846933,29.849556,29.851845,29.855446,29.859226,29.863094,29.867966,29.871773,29.875984,29.878332,29.879656,29.879715,29.879257,29.878527,29.878193,29.878927,29.880974,29.883345,29.885956,29.88726,29.888004,29.887072,29.885197,29.881557,29.87827,29.874569,29.872,29.869991,29.868816,29.868633,29.869581,29.871475,29.873833,29.876621,29.87873,29.88,29.879364,29.877079,29.872828,29.868746,29.863256,29.859476,29.856846,29.856964,29.858475,29.861458,29.863987,29.86736,29.869833,29.871109,29.87154,29.871283,29.871101,29.87089,29.870415,29.869816,29.869442,29.86898,29.868622,29.868214,29.867552,29.866982,29.86492,29.862103,29.857222,29.850864,29.845161,29.83693,29.83036,29.823792,29.82013,29.818336,29.817125
24.694393,24.712776,24.727331,24.746033,24.765377,24.782095,24.804392,24.821358,24.842545,24.860136,24.874994,24.890398,24.900229,24.912258,24.921185,24.929985,24.939478,24.946619,24.956059,24.963047,24.969872,24.975025,24.977404,24.982098,24.987345,24.99545,25.007675,25.0205,25.041492,25.059855,25.085258,25.110481,25.133886,25.161259,25.180065,25.20345,25.221539,25.238836,25.257862,25.271872,25.292631,25.3103,25.328888,25.348001,25.36259,25.381477,25.39581,25.415733,25.435637,25.449202,25.470337,25.489239,25.514477,25.540136,25.564419,25.594921,25.617151,25.647514,25.675095,25.703314,25.738829,25.767157,25.804598,25.83532,25.871952,25.91367,25.946499,25.988941,26.019997,26.05722,26.089157,26.109215,26.133076,26.150183,26.172985,26.195114,26.21431,26.241127,26.263084,26.294174,26.319826,26.337664,26.357582,26.37426,26.39834,26.419735,26.443832,26.472225,26.495056,26.526346,26.551014,26.580303,26.610397,26.634924,26.666168,26.68871,26.716602,26.742613,26.765295,26.793686,26.814442,26.8428,26.869995,26.89772,26.93459,26.964153,27.00661,27.044176,27.084564,27.13185,27.170221,27.218407,27.253067,27.2925,27.331665,27.362686,27.403635,27.434673,27.474583,27.5155,27.552614,27.601688,27.638805,27.687593,27.729162,27.765163,27.802563,27.826912,27.856585,27.878418,27.90015,27.925507,27.946396,27.977686,28.005161,28.038666,28.076565,28.107746,28.150288,28.183167,28.2245,28.265966,28.3023,28.347893,28.38047,28.420773,28.45428,28.483887,28.51662,28.539013,28.567818,28.590643,28.613726,28.6388,28.65725,28.681557,28.700771,28.724293,28.750067,28.770464,28.79706,28.8163,28.837069,28.854649,28.868473,28.885773,28.898521,28.916111,28.934822,28.954023,28.981846,29.004902,29.035954,29.06232,29.088547,29.115124,29.132553,29.153397,29.16753,29.182268,29.196018,29.205929,29.219177,29.229727,29.244425,29.261368,29.276318,29.297466,29.314201,29.334263,29.350998,29.364697,29.380033,29.390598,29.40491,29.418259,29.433098,29.452919,29.46949,29.489727,29.504187,29.51918,29.533758,29.544357,29.558468,29.569412,29.583174,29.598003,29.6106,29.62819,29.642088,29.659775,29.676445,29.69133,29.709152,29.721752,29.735819,29.744831,29.751678,29.756897,29.759579,29.762695,29.765379,29.770031,29.777111,29.783558,29.792248,29.798733,29.80571,29.811066,29.814148,29.81691,29.81829,29.819992,29.821379,29.822435,29.82394,29.825253,29.827461,29.829899,29.832462,29.835632,29.83808,29.840137,29.84041,29.83937,29.836658,29.834,29.830547,29.8284,29.827461,29.8284,29.830124,29.832155,29.833214,29.833807,29.833008,29.831364,29.828243,29.825464,29.822477,29.820526,29.81903,29.818178,29.818031,29.818928,29.820705,29.823004,29.825706,29.827744,29.828674,29.827524,29.824448,29.818932,29.81355,29.806305,29.801237,29.797232,29.796223,29.796822,29.79874,29.800552,29.803009,29.80482,29.8056,29.805878,29.805794,29.80621,29.806896,29.807558,29.808447,29.80923,29.810345,29.811186,29.812048,29.812347,29.812325,29.810394,29.807198,29.801502,29.793869,29.786777,29.777367,29.770496,29.76363,29.759777,29.757622,29.756052
24.784191,24.803272,24.818552,24.838411,24.859257,24.877426,24.901665,24.920063,24.94313,24.96225,24.978233,24.9947,25.005175,25.017996,25.02752,25.036903,25.047155,25.054981,25.065308,25.072926,25.080345,25.08598,25.088657,25.093748,25.099295,25.107681,25.120241,25.133484,25.155067,25.173893,25.199919,25.225836,25.250025,25.2784,25.29791,25.322475,25.341694,25.359863,25.380274,25.395851,25.417927,25.436022,25.455076,25.474133,25.488298,25.506336,25.519749,25.538092,25.555885,25.56759,25.585953,25.60257,25.624874,25.647823,25.669724,25.69743,25.717697,25.745575,25.77126,25.797781,25.831781,25.859234,25.895859,25.926308,25.962845,26.005005,26.03846,26.082188,26.1146,26.153637,26.187609,26.2095,26.234905,26.252445,26.275501,26.297264,26.315845,26.341496,26.362383,26.392818,26.41819,26.435226,26.454206,26.470343,26.49371,26.514591,26.538254,26.566349,26.589022,26.620295,26.645098,26.674606,26.705011,26.729774,26.761528,26.784595,26.813187,26.839943,26.86332,26.892517,26.913797,26.942608,26.969906,26.997627,27.034027,27.062954,27.104233,27.140484,27.179285,27.224438,27.26081,27.307735,27.3423,27.380562,27.41843,27.448746,27.489317,27.520473,27.560654,27.60212,27.639826,27.689846,27.727768,27.777721,27.820488,27.857979,27.896244,27.920345,27.949385,27.970184,27.990467,28.01352,28.032366,28.060513,28.085213,28.115395,28.149786,28.178253,28.217497,28.248137,28.286774,28.325813,28.36014,28.40353,28.434738,28.473473,28.505848,28.53447,28.566357,28.588352,28.616676,28.639084,28.66164,28.685684,28.703075,28.725393,28.742535,28.763445,28.786175,28.804127,28.827541,28.844471,28.862638,28.877918,28.889925,28.904861,28.915817,28.931135,28.947662,28.964687,28.989662,29.010536,29.038628,29.0625,29.08628,29.110409,29.126251,29.145206,29.158047,29.171371,29.18348,29.191936,29.202976,29.211624,29.223843,29.238173,29.250946,29.26942,29.284288,29.302197,29.317177,29.329369,29.342888,29.352108,29.36463,29.37642,29.389626,29.407516,29.422546,29.441769,29.456263,29.471508,29.486526,29.497375,29.511673,29.522625,29.536291,29.550749,29.562899,29.579575,29.592583,29.609062,29.624706,29.638844,29.656334,29.669113,29.683653,29.6932,29.700413,29.705692,29.708168,29.710701,29.7127,29.716587,29.72321,29.729687,29.738722,29.745667,29.753107,29.75875,29.76196,29.764418,29.76521,29.765934,29.766018,29.765762,29.765491,29.765461,29.765995,29.767212,29.768826,29.77156,29.774136,29.776745,29.777824,29.777699,29.776072,29.774223,29.771847,29.77055,29.770687,29.773106,29.77635,29.780653,29.783562,29.786285,29.787304,29.787128,29.785498,29.783566,29.78151,29.78019,29.77929,29.77903,29.779251,29.780508,29.782467,29.78491,29.787836,29.790127,29.791471,29.790691,29.788074,29.782682,29.776978,29.76929,29.763912,29.759396,29.757776,29.757797,29.759098,29.76056,29.762644,29.764328,29.765148,29.765675,29.76585,29.76671,29.76787,29.769081,29.770672,29.772018,29.773874,29.775269,29.776684,29.777382,29.777552,29.775785,29.77266,29.767052,29.75948,29.7524,29.743073,29.73632,29.7295,29.72562,29.723396,29.721848
24.896175,24.915714,24.931507,24.952305,24.974503,24.994024,25.02015,25.039986,25.065048,25.085928,25.103296,25.121256,25.132767,25.147007,25.157757,25.168354,25.180086,25.189142,25.200996,25.20968,25.218126,25.224583,25.22781,25.233498,25.239384,25.248032,25.26078,25.274258,25.296093,25.31506,25.341328,25.367643,25.39238,25.421669,25.441965,25.467922,25.488663,25.508415,25.531033,25.548622,25.572605,25.591654,25.611954,25.63203,25.646807,25.66489,25.677647,25.694588,25.71006,25.719543,25.73429,25.747746,25.765865,25.784824,25.803253,25.826878,25.84428,25.86864,25.891697,25.91588,25.94778,25.973988,26.009407,26.039268,26.07494,26.116953,26.151014,26.196201,26.230219,26.271309,26.307873,26.332558,26.360222,26.37823,26.401585,26.422894,26.440725,26.464836,26.48426,26.513391,26.538143,26.554913,26.573265,26.588469,26.610704,26.630781,26.653719,26.68124,26.70356,26.734562,26.759335,26.788893,26.81949,26.844402,26.876629,26.900269,26.929642,26.957253,26.981443,27.011587,27.033487,27.062794,27.090145,27.117786,27.153492,27.181526,27.221195,27.25566,27.292347,27.334682,27.368484,27.413097,27.44673,27.48383,27.520943,27.550926,27.591415,27.62278,27.663517,27.705969,27.744698,27.79636,27.835691,27.887432,27.931965,27.971605,28.011913,28.036959,28.066357,28.086521,28.105803,28.126833,28.143715,28.168612,28.19027,28.216785,28.24723,28.27259,28.308046,28.336113,28.371819,28.40844,28.440865,28.482311,28.512424,28.55008,28.581978,28.610336,28.642448,28.66494,28.693954,28.716867,28.739784,28.76358,28.780373,28.801048,28.816118,28.834255,28.85345,28.868435,28.887833,28.901728,28.916372,28.928425,28.93787,28.949505,28.957968,28.970081,28.98357,28.997719,29.018774,29.036472,29.060429,29.080978,29.101597,29.122768,29.136814,29.15382,29.165455,29.177456,29.187935,29.194944,29.203285,29.209236,29.21772,29.22776,29.23682,29.250431,29.261736,29.275433,29.28699,29.296368,29.306728,29.313747,29.323442,29.332825,29.343483,29.358366,29.371027,29.38821,29.402058,29.416931,29.432053,29.443075,29.457655,29.468796,29.482529,29.496655,29.50829,29.523724,29.535416,29.54993,29.563515,29.575848,29.591454,29.603142,29.61662,29.62558,29.63227,29.636887,29.638775,29.640354,29.641418,29.644156,29.64965,29.655457,29.663853,29.670492,29.677555,29.682873,29.685879,29.687862,29.68811,29.688,29.687016,29.685678,29.683853,29.682575,29.68141,29.681164,29.68148,29.683113,29.685156,29.687449,29.688644,29.688774,29.687653,29.686249,29.684559,29.683891,29.684778,29.688305,29.692703,29.698952,29.703602,29.70849,29.711618,29.713284,29.71378,29.713247,29.712711,29.712345,29.712198,29.71233,29.712555,29.713417,29.714672,29.716242,29.718163,29.719757,29.720455,29.719437,29.716732,29.711475,29.7059,29.698582,29.693626,29.68962,29.688732,29.689568,29.692364,29.69524,29.69928,29.702885,29.705585,29.70823,29.709808,29.712183,29.71416,29.715942,29.717558,29.71862,29.71965,29.720047,29.720245,29.719774,29.719181,29.716835,29.713612,29.708115,29.700882,29.694113,29.685043,29.67836,29.671558,29.667776,29.66581,29.665028
24.97821,24.997824,25.013723,25.034887,25.057726,25.077927,25.105053,25.1257,25.151976,25.174015,25.19233,25.211428,25.223797,25.239346,25.251312,25.263147,25.276337,25.286549,25.299795,25.309406,25.318747,25.325909,25.329607,25.33574,25.341824,25.35057,25.363281,25.376741,25.398453,25.417253,25.443375,25.469702,25.494572,25.524311,25.545109,25.571968,25.593843,25.61512,25.639597,25.65847,25.68396,25.70408,25.725723,25.747326,25.763508,25.782406,25.79488,25.81108,25.82494,25.832684,25.844654,25.855759,25.87072,25.886608,25.902325,25.922707,25.937819,25.959412,25.980444,26.002836,26.033121,26.058361,26.092815,26.122105,26.156708,26.198215,26.232664,26.278902,26.314104,26.35659,26.395094,26.422157,26.451687,26.469978,26.493525,26.51447,26.53175,26.554684,26.57296,26.600687,26.624702,26.6419,26.660316,26.674679,26.695944,26.715345,26.737656,26.764635,26.786602,26.817245,26.841854,26.871286,26.901878,26.926792,26.959259,26.983261,27.013144,27.041348,27.066113,27.09694,27.119293,27.148968,27.176353,27.203932,27.239113,27.266487,27.30493,27.338036,27.373108,27.413382,27.445486,27.487774,27.519861,27.556427,27.593853,27.624111,27.664839,27.696297,27.737484,27.780762,27.820385,27.873495,27.914072,27.967422,28.013466,28.054592,28.096859,28.12354,28.153938,28.173954,28.19301,28.21312,28.228956,28.251917,28.271622,28.295776,28.323603,28.34685,28.379686,28.405975,28.439827,28.475132,28.506628,28.547274,28.577044,28.614523,28.646688,28.6755,28.708614,28.732115,28.762453,28.786373,28.810196,28.834442,28.851223,28.871174,28.88501,28.901356,28.91806,28.930866,28.947205,28.958714,28.970509,28.979874,28.987185,28.996067,29.002468,29.011898,29.022863,29.0346,29.052692,29.068228,29.089527,29.108131,29.126987,29.146706,29.159988,29.176308,29.187618,29.199203,29.208965,29.215206,29.221933,29.226147,29.232136,29.23916,29.245525,29.255527,29.264149,29.274626,29.283543,29.29079,29.298792,29.3042,29.311905,29.319698,29.328709,29.34177,29.353134,29.368763,29.381605,29.395588,29.410313,29.421368,29.436329,29.44799,29.462296,29.476784,29.488525,29.503601,29.514645,29.527931,29.539814,29.550423,29.563515,29.57317,29.58407,29.59096,29.59579,29.598465,29.599,29.598917,29.598707,29.599937,29.603622,29.607903,29.614319,29.619522,29.625004,29.629082,29.631338,29.63266,29.632626,29.632236,29.63107,29.629559,29.62734,29.625631,29.623657,29.622406,29.621628,29.621677,29.622387,29.622892,29.622663,29.621368,29.618874,29.61651,29.613754,29.612446,29.612614,29.615557,29.61952,29.625553,29.630318,29.63562,29.639565,29.642134,29.644007,29.644596,29.645306,29.64569,29.645992,29.645987,29.645702,29.645428,29.645319,29.645325,29.645386,29.645565,29.644642,29.642658,29.639027,29.63353,29.628307,29.62175,29.617565,29.61473,29.615566,29.618275,29.624065,29.629498,29.63694,29.64363,29.649136,29.654743,29.65823,29.662529,29.665352,29.66755,29.668598,29.668713,29.667784,29.666138,29.663982,29.661373,29.659483,29.656078,29.652557,29.646955,29.63987,29.63322,29.624105,29.617214,29.610191,29.606476,29.604858,29.605125
25.091959,25.11163,25.127575,25.149012,25.172428,25.193274,25.221443,25.242994,25.270618,25.294174,25.314028,25.335331,25.349533,25.367249,25.380798,25.394089,25.40894,25.420536,25.43562,25.446575,25.457148,25.465292,25.469673,25.476416,25.482716,25.491543,25.504066,25.517307,25.538496,25.556751,25.582209,25.608097,25.632736,25.66265,25.683857,25.711834,25.735315,25.758656,25.785645,25.806215,25.834284,25.85672,25.881214,25.905334,25.92284,25.94276,25.955383,25.971317,25.983809,25.989769,25.998528,26.006702,26.017681,26.02964,26.041885,26.058125,26.070309,26.08841,26.106909,26.127028,26.155231,26.179214,26.21235,26.240868,26.274364,26.315426,26.350258,26.397646,26.43422,26.478764,26.519382,26.547897,26.578613,26.597248,26.620756,26.640903,26.657152,26.678123,26.694561,26.719332,26.741566,26.760061,26.77903,26.791655,26.811127,26.829403,26.850569,26.876522,26.897804,26.92771,26.951908,26.981005,27.011448,27.036247,27.068901,27.093285,27.123688,27.15248,27.177803,27.209263,27.232002,27.261873,27.289068,27.316353,27.350637,27.376984,27.413698,27.445,27.477983,27.515682,27.545685,27.585375,27.615812,27.651287,27.688519,27.718843,27.760479,27.793222,27.8364,27.88178,27.922825,27.978102,28.02063,28.076572,28.124975,28.168198,28.213192,28.242165,28.274984,28.29617,28.315632,28.335102,28.350075,28.371162,28.388817,28.410423,28.435314,28.456165,28.486,28.510254,28.54208,28.576122,28.606874,28.64703,28.6767,28.71447,28.747524,28.777496,28.81258,28.83783,28.870453,28.8961,28.921436,28.946571,28.963541,28.98274,28.995035,29.0091,29.022503,29.032358,29.044476,29.052612,29.060387,29.065899,29.070076,29.074936,29.078358,29.083916,29.091278,29.099634,29.113647,29.12624,29.14407,29.160286,29.177027,29.195108,29.207607,29.223312,29.234407,29.24558,29.254436,29.259674,29.264168,29.265917,29.268278,29.270851,29.273258,29.277884,29.282433,29.288017,29.292892,29.296833,29.301252,29.304283,29.309093,29.314651,29.321419,29.332094,29.341766,29.35558,29.367456,29.380672,29.395329,29.406761,29.4226,29.435131,29.450336,29.465324,29.477222,29.491693,29.501675,29.513012,29.52227,29.530266,29.539667,29.546385,29.553627,29.557644,29.559969,29.560167,29.55908,29.557125,29.555637,29.55542,29.557528,29.560543,29.565464,29.569712,29.57423,29.577755,29.57983,29.58125,29.581484,29.581398,29.580448,29.579082,29.576672,29.574554,29.571651,29.569126,29.56693,29.564896,29.563839,29.562,29.559937,29.556831,29.552658,29.54918,29.545258,29.543327,29.5429,29.545567,29.54941,29.555836,29.561329,29.567837,29.573427,29.577667,29.581879,29.584267,29.587004,29.588669,29.589859,29.590008,29.589302,29.587797,29.586027,29.584106,29.581764,29.580036,29.576906,29.573559,29.56864,29.562504,29.557188,29.550903,29.54718,29.545029,29.546856,29.550568,29.558067,29.56504,29.574615,29.583385,29.590902,29.5989,29.604115,29.610329,29.61428,29.617382,29.618698,29.618599,29.616772,29.613922,29.610237,29.605968,29.602844,29.59819,29.594059,29.588009,29.580906,29.574389,29.565681,29.559227,29.552853,29.549957,29.54924,29.551044
25.184181,25.203869,25.219738,25.241169,25.264713,25.285763,25.31439,25.336414,25.364796,25.389462,25.410757,25.434233,25.450226,25.469898,25.484713,25.499088,25.515095,25.527626,25.544088,25.556149,25.567688,25.576605,25.581558,25.58879,25.595228,25.604073,25.616306,25.629185,25.64959,25.667072,25.69152,25.71658,25.740551,25.770126,25.791399,25.820068,25.844772,25.869642,25.89859,25.92052,25.95113,25.976124,26.003693,26.030396,26.049002,26.070099,26.083368,26.099648,26.111694,26.116926,26.12392,26.130234,26.13861,26.147907,26.157806,26.171217,26.18139,26.197132,26.213936,26.232506,26.25927,26.282372,26.314522,26.342497,26.375578,26.4166,26.451593,26.499626,26.537008,26.582684,26.62387,26.651894,26.682297,26.701065,26.724161,26.743301,26.758406,26.777378,26.792011,26.813507,26.83356,26.853203,26.872879,26.884125,26.901978,26.91906,26.939037,26.963882,26.984407,27.013462,27.037151,27.0658,27.09597,27.120571,27.15321,27.177773,27.208385,27.237396,27.26292,27.29455,27.317345,27.34706,27.37385,27.40069,27.434074,27.459513,27.494818,27.524773,27.556242,27.592186,27.620802,27.658955,27.688513,27.723091,27.760008,27.790375,27.833225,27.867733,27.913414,27.961227,28.003826,28.061182,28.10544,28.16373,28.21423,28.259205,28.30646,28.337322,28.372765,28.395834,28.416399,28.436172,28.451061,28.471445,28.488052,28.50829,28.531487,28.550898,28.57891,28.601921,28.632595,28.666079,28.696642,28.73692,28.766878,28.805431,28.83974,28.871172,28.908424,28.935455,28.97038,28.997757,29.024605,29.050735,29.068092,29.086967,29.098225,29.110691,29.121637,29.129242,29.138042,29.143475,29.147995,29.150345,29.151905,29.153423,29.154388,29.156754,29.161184,29.16685,29.177704,29.188059,29.203396,29.218048,29.23347,29.250685,29.262869,29.27848,29.289669,29.300735,29.309006,29.313541,29.316301,29.316048,29.315403,29.314228,29.313297,29.313297,29.314299,29.315609,29.316933,29.317936,29.31923,29.32024,29.322636,29.326416,29.331467,29.340412,29.348896,29.361591,29.373062,29.38608,29.401123,29.413174,29.430079,29.443527,29.459635,29.475124,29.487228,29.501205,29.510254,29.519867,29.526814,29.532526,29.538712,29.542892,29.547007,29.548634,29.54892,29.547256,29.54504,29.541948,29.539879,29.539072,29.54073,29.54345,29.548222,29.552578,29.557373,29.561481,29.56419,29.566628,29.567722,29.568584,29.56834,29.56753,29.565392,29.563179,29.559803,29.556404,29.55318,29.549534,29.54707,29.543365,29.539831,29.535284,29.52982,29.525505,29.520775,29.518501,29.517822,29.520592,29.524641,29.531837,29.538284,29.546206,29.553524,29.559443,29.565908,29.569992,29.574661,29.57761,29.579763,29.580326,29.579494,29.577234,29.574272,29.57092,29.56668,29.563374,29.558346,29.553766,29.547678,29.540737,29.534945,29.528355,29.52462,29.522457,29.524267,29.527853,29.535288,29.542316,29.552082,29.561245,29.569284,29.578215,29.584297,29.591646,29.596512,29.60057,29.602745,29.603144,29.601671,29.5988,29.594902,29.590014,29.586166,29.580532,29.57571,29.569023,29.561703,29.555225,29.547115,29.541466,29.53622,29.534496,29.534819,29.537981
25.290276,25.310204,25.325916,25.347221,25.37071,25.39177,25.420622,25.442968,25.471867,25.497597,25.520767,25.546577,25.563988,25.585588,25.601974,25.617882,25.63536,25.648804,25.666649,25.679836,25.692333,25.702023,25.707577,25.715317,25.721882,25.73072,25.742561,25.754913,25.7742,25.790577,25.813576,25.837318,25.860085,25.888859,25.910072,25.939283,25.96511,25.991264,26.022285,26.046047,26.079887,26.10804,26.139137,26.169422,26.190685,26.21421,26.228308,26.244347,26.25559,26.260952,26.267235,26.27224,26.2786,26.285671,26.293636,26.30464,26.313042,26.326735,26.342064,26.359266,26.384724,26.407001,26.43798,26.465292,26.49876,26.54047,26.57545,26.624405,26.662924,26.70839,26.748032,26.774094,26.803108,26.821827,26.843992,26.86153,26.874939,26.891106,26.903257,26.920578,26.937725,26.957684,26.978172,26.989182,27.005478,27.020535,27.038935,27.062359,27.081861,27.109768,27.13277,27.160763,27.190502,27.21482,27.247337,27.271973,27.302656,27.331724,27.357273,27.38884,27.41152,27.440838,27.467009,27.493187,27.52545,27.549845,27.583588,27.61212,27.642056,27.67632,27.703644,27.740484,27.769444,27.803654,27.840893,27.871853,27.9161,27.952124,28.000221,28.050932,28.096243,28.156635,28.202726,28.26364,28.316536,28.363678,28.413555,28.446419,28.48428,28.509144,28.531765,28.55299,28.568243,28.588207,28.603775,28.62278,28.644398,28.662418,28.688698,28.71056,28.740107,28.772985,28.803242,28.843716,28.874226,28.914055,28.95021,28.983648,29.023724,29.053009,29.09085,29.120419,29.149178,29.176647,29.19457,29.21325,29.223448,29.234255,29.242556,29.2477,29.25285,29.255283,29.256155,29.254932,29.253557,29.251324,29.249516,29.248276,29.249437,29.252117,29.259537,29.267506,29.280228,29.29331,29.30746,29.323957,29.335983,29.351707,29.363132,29.374193,29.381886,29.385677,29.386473,29.383915,29.37989,29.374485,29.369732,29.36443,29.361336,29.35773,29.35498,29.352615,29.35032,29.349012,29.348679,29.350508,29.353716,29.3609,29.368229,29.379953,29.391235,29.4044,29.420273,29.433273,29.45173,29.466488,29.483885,29.500156,29.51265,29.526241,29.534325,29.542072,29.54644,29.549591,29.552147,29.553448,29.55404,29.553022,29.551075,29.547455,29.544111,29.540012,29.537594,29.536543,29.53824,29.541065,29.546352,29.55143,29.557247,29.562737,29.566736,29.571003,29.573505,29.575983,29.576979,29.577114,29.575619,29.573505,29.569832,29.565605,29.561325,29.555935,29.551926,29.546146,29.540962,29.534765,29.52779,29.522486,29.516832,29.514194,29.513256,29.516245,29.520718,29.529003,29.536657,29.54641,29.555908,29.563862,29.573044,29.579174,29.586277,29.590942,29.594412,29.595665,29.594799,29.59185,29.587645,29.582714,29.576262,29.57108,29.563686,29.557476,29.549824,29.54182,29.535435,29.5285,29.524818,29.52282,29.524988,29.528923,29.537006,29.544659,29.555368,29.565605,29.574766,29.585285,29.592674,29.601643,29.607685,29.612818,29.615753,29.61646,29.614925,29.61157,29.606945,29.600897,29.595913,29.588861,29.58312,29.575562,29.567854,29.561274,29.553585,29.548622,29.54443,29.543915,29.54538,29.550163
25.401749,25.421736,25.437387,25.458447,25.481598,25.502384,25.531078,25.553474,25.583038,25.610086,25.634945,25.662779,25.681438,25.704906,25.72295,25.74052,25.759548,25.77384,25.792969,25.807192,25.82059,25.831076,25.837318,25.845688,25.852478,25.861404,25.872822,25.884531,25.90239,25.917326,25.938349,25.960243,25.981361,26.008863,26.029728,26.058994,26.085556,26.112751,26.145775,26.171417,26.208614,26.240084,26.274895,26.309383,26.334196,26.361534,26.377617,26.394836,26.40636,26.412231,26.41856,26.42312,26.428734,26.43483,26.441856,26.451553,26.458904,26.471416,26.4859,26.502243,26.526926,26.54875,26.57957,26.607239,26.641666,26.684189,26.71923,26.768097,26.806034,26.848217,26.883774,26.907522,26.93471,26.952805,26.973412,26.988829,27.000116,27.012888,27.022076,27.034737,27.048054,27.06555,27.085617,27.098122,27.113997,27.127125,27.143753,27.165342,27.1836,27.210104,27.232275,27.259453,27.28864,27.31261,27.344831,27.369343,27.399796,27.428532,27.453712,27.484676,27.506836,27.535269,27.56046,27.585663,27.616577,27.63985,27.672066,27.699352,27.728046,27.761147,27.787655,27.823921,27.852928,27.887516,27.925817,27.957966,28.00411,28.0418,28.092329,28.146057,28.194633,28.258545,28.306545,28.370033,28.425196,28.474476,28.526909,28.561666,28.601805,28.628466,28.653427,28.676723,28.69293,28.713444,28.72881,28.747307,28.767899,28.784874,28.80983,28.830786,28.859352,28.891611,28.92148,28.96217,28.993351,29.034664,29.072876,29.108486,29.151485,29.183014,29.223753,29.25547,29.286089,29.31488,29.333412,29.352068,29.361465,29.370981,29.377136,29.380245,29.38234,29.382252,29.380032,29.375763,29.371893,29.366508,29.362417,29.358189,29.35669,29.357006,29.36184,29.368084,29.379086,29.391354,29.404999,29.421556,29.433945,29.450375,29.462406,29.473818,29.481266,29.484581,29.483793,29.479229,29.472214,29.462967,29.4547,29.444448,29.437487,29.42923,29.422583,29.416975,29.411266,29.407816,29.405008,29.405167,29.40686,29.412756,29.419346,29.430664,29.442215,29.456038,29.473213,29.487469,29.50781,29.52407,29.542927,29.560085,29.573063,29.586357,29.593521,29.599468,29.601315,29.601933,29.60091,29.59936,29.596516,29.592978,29.588919,29.583637,29.579487,29.574917,29.572712,29.57212,29.574804,29.578547,29.585487,29.592203,29.600117,29.608025,29.614101,29.621105,29.625607,29.630367,29.633133,29.63464,29.634258,29.63255,29.628944,29.624163,29.619066,29.612162,29.606747,29.59906,29.592327,29.584553,29.576141,29.569923,29.563457,29.560566,29.559572,29.562944,29.56786,29.57724,29.586132,29.597874,29.609844,29.620127,29.632465,29.640993,29.650795,29.6573,29.662258,29.664408,29.663685,29.660263,29.654963,29.648596,29.640001,29.632946,29.623087,29.6151,29.605743,29.596558,29.589508,29.582207,29.578611,29.57682,29.579407,29.583712,29.59253,29.600906,29.612755,29.62428,29.63478,29.647017,29.655682,29.666225,29.673388,29.679512,29.683079,29.683994,29.682259,29.678326,29.67286,29.665537,29.65932,29.650723,29.643951,29.635387,29.62717,29.620378,29.613018,29.608694,29.605541,29.606266,29.608923,29.61538
25.49199,25.5117,25.527744,25.548782,25.57167,25.592194,25.620544,25.642742,25.673353,25.701996,25.72771,25.756718,25.776482,25.80146,25.820784,25.839607,25.85986,25.874926,25.895107,25.910126,25.924238,25.935396,25.942244,25.951195,25.95821,25.96724,25.978304,25.989452,26.006037,26.019663,26.038803,26.058975,26.078758,26.105183,26.125608,26.154575,26.181433,26.209484,26.244087,26.271057,26.310635,26.344524,26.382153,26.419998,26.447596,26.478657,26.49744,26.51748,26.530312,26.535763,26.54153,26.545963,26.551641,26.55783,26.564743,26.574043,26.580956,26.592924,26.606922,26.62268,26.64689,26.66846,26.700392,26.729698,26.764744,26.80766,26.843536,26.8918,26.92759,26.964455,26.995174,27.018177,27.044556,27.06168,27.080746,27.094261,27.10368,27.113527,27.120182,27.129131,27.138859,27.151691,27.170345,27.186073,27.202717,27.214169,27.22929,27.249208,27.266363,27.29163,27.313057,27.339523,27.368204,27.391842,27.423723,27.448029,27.47813,27.506397,27.531063,27.56126,27.58279,27.610277,27.634518,27.658802,27.688545,27.710896,27.741924,27.76833,27.796192,27.828629,27.854733,27.89091,27.920258,27.955488,27.994968,28.028305,28.07634,28.11565,28.168144,28.22415,28.275337,28.342113,28.391703,28.457195,28.514046,28.564968,28.619408,28.655691,28.697777,28.725918,28.752308,28.777014,28.79424,28.815968,28.831982,28.850586,28.870583,28.886826,28.910797,28.93107,28.958874,28.99063,29.020182,29.06103,29.09275,29.135204,29.174997,29.212288,29.257496,29.290667,29.33353,29.36681,29.398746,29.428463,29.44743,29.466099,29.474981,29.48365,29.488382,29.490131,29.490189,29.488413,29.484112,29.477802,29.472246,29.464802,29.459263,29.453115,29.449936,29.44881,29.45214,29.457436,29.467615,29.479673,29.49334,29.510366,29.523315,29.5406,29.553297,29.565172,29.572638,29.57575,29.574015,29.56815,29.559082,29.547127,29.536377,29.522587,29.512852,29.501219,29.491728,29.483723,29.475552,29.470596,29.466068,29.465103,29.465809,29.470966,29.477198,29.48849,29.500465,29.515001,29.533375,29.548742,29.570679,29.588161,29.6082,29.626085,29.639473,29.652576,29.659056,29.663652,29.663597,29.6623,29.65856,29.654863,29.649437,29.644028,29.638401,29.631985,29.627396,29.622717,29.620924,29.620987,29.624838,29.629658,29.6384,29.646774,29.65675,29.666904,29.674849,29.684292,29.690575,29.697327,29.701633,29.704374,29.705051,29.703787,29.700382,29.695288,29.689676,29.681732,29.675306,29.666298,29.65852,29.649666,29.640305,29.633526,29.626587,29.623596,29.622791,29.626503,29.631462,29.641302,29.65092,29.664047,29.677998,29.690292,29.705462,29.716183,29.728104,29.735863,29.741962,29.744862,29.744312,29.74057,29.734451,29.727024,29.716818,29.708328,29.69654,29.68715,29.676487,29.666433,29.65892,29.651436,29.647999,29.646439,29.649296,29.65371,29.662941,29.671862,29.684677,29.697372,29.709118,29.722744,29.732271,29.74393,29.751896,29.758732,29.762714,29.763718,29.761778,29.757381,29.75122,29.742886,29.73573,29.72594,29.718367,29.709003,29.700356,29.693367,29.686234,29.682402,29.680056,29.681747,29.68533,29.693062
25.612944,25.632034,25.6473,25.667387,25.689478,25.709436,25.737759,25.760464,25.792309,25.822464,25.84927,25.879898,25.901146,25.928106,25.949059,25.96946,25.991161,26.007061,26.028387,26.04432,26.059416,26.071682,26.079556,26.089668,26.097345,26.10698,26.117981,26.128609,26.14385,26.15607,26.173203,26.191399,26.209396,26.234257,26.254028,26.282597,26.309893,26.339096,26.3757,26.404263,26.446743,26.48367,26.52507,26.567348,26.598429,26.634186,26.656485,26.68042,26.696033,26.702888,26.709633,26.714327,26.720068,26.7259,26.732311,26.74094,26.747396,26.75922,26.773449,26.789349,26.81406,26.836252,26.869576,26.900265,26.936752,26.979496,27.013853,27.057613,27.088379,27.12009,27.14726,27.169102,27.194061,27.209873,27.227043,27.238377,27.245703,27.252182,27.255848,27.26038,27.265656,27.273094,27.287685,27.302631,27.321049,27.334957,27.348808,27.366184,27.382107,27.406067,27.42678,27.452597,27.480894,27.50433,27.53593,27.55998,27.589607,27.61713,27.640942,27.669832,27.69029,27.716246,27.739025,27.76192,27.790043,27.811216,27.84079,27.8662,27.893242,27.925175,27.951038,27.98748,28.017574,28.053982,28.095299,28.13039,28.181038,28.222477,28.277523,28.336052,28.389572,28.459358,28.511148,28.57875,28.637001,28.689356,28.745598,28.783293,28.827251,28.856892,28.884811,28.910973,28.929142,28.951803,28.968182,28.986824,29.006252,29.021763,29.044643,29.064022,29.090435,29.120869,29.149479,29.189775,29.221573,29.264627,29.305569,29.344177,29.39108,29.42546,29.469881,29.504272,29.537039,29.567268,29.586449,29.605011,29.613462,29.621536,29.62534,29.626198,29.624966,29.622152,29.616638,29.609188,29.6027,29.5942,29.58799,29.580944,29.577074,29.575472,29.578545,29.583836,29.59444,29.607323,29.62203,29.640556,29.654762,29.673702,29.68756,29.700375,29.70826,29.71148,29.709148,29.70221,29.691393,29.676966,29.66389,29.646652,29.63412,29.619076,29.606651,29.596138,29.585405,29.57893,29.572712,29.570728,29.570633,29.575356,29.581497,29.593136,29.605846,29.621428,29.641268,29.657883,29.68148,29.700138,29.721222,29.739594,29.753174,29.765743,29.771236,29.774088,29.77172,29.768124,29.761154,29.754894,29.746445,29.738895,29.731485,29.723919,29.719028,29.71466,29.713837,29.71526,29.721233,29.727962,29.73948,29.750187,29.763168,29.776604,29.78731,29.800098,29.80862,29.817902,29.824154,29.828434,29.83048,29.829863,29.8269,29.821661,29.815666,29.806755,29.79935,29.788738,29.779442,29.76902,29.758196,29.750513,29.74274,29.739475,29.73865,29.742878,29.748451,29.759644,29.7707,29.78602,29.802588,29.817337,29.835806,29.849022,29.863928,29.873758,29.881243,29.88499,29.884705,29.880726,29.873806,29.8653,29.853455,29.843529,29.829748,29.81881,29.806583,29.79538,29.787247,29.779415,29.77605,29.774733,29.7781,29.783016,29.793106,29.802803,29.81681,29.830767,29.843756,29.8589,29.869545,29.882275,29.890762,29.898073,29.90224,29.903202,29.900906,29.895954,29.889023,29.879597,29.871424,29.860348,29.851921,29.84174,29.832727,29.825642,29.818918,29.815742,29.81442,29.817276,29.82198,29.831192
25.70282,25.721348,25.735022,25.75372,25.77491,25.794315,25.82298,25.846672,25.879223,25.909948,25.937614,25.969563,25.991924,26.020336,26.042442,26.063953,26.08659,26.102947,26.124935,26.141449,26.157299,26.170551,26.179344,26.190594,26.19902,26.209442,26.220716,26.231157,26.245708,26.257175,26.273247,26.290287,26.306976,26.330624,26.349907,26.378258,26.405977,26.436049,26.474075,26.503733,26.548223,26.58728,26.631496,26.676998,26.710438,26.749302,26.773924,26.800505,26.818747,26.828197,26.837036,26.842188,26.847828,26.85288,26.858551,26.866444,26.872559,26.884605,26.89957,26.9162,26.942066,26.965378,26.99944,27.0303,27.06824,27.11032,27.141468,27.179317,27.205154,27.235043,27.262068,27.282776,27.30637,27.321304,27.33728,27.34732,27.35345,27.357906,27.359707,27.361397,27.363752,27.368351,27.37857,27.388824,27.408821,27.42794,27.44144,27.45677,27.471992,27.495274,27.51568,27.541264,27.569508,27.592978,27.62453,27.648432,27.677734,27.704666,27.727764,27.75554,27.775084,27.799757,27.821354,27.843128,27.870033,27.890385,27.918955,27.94374,27.97034,28.002125,28.027971,28.064808,28.095581,28.133018,28.175802,28.212257,28.264824,28.30775,28.36462,28.424652,28.479023,28.550392,28.603848,28.672592,28.731253,28.78412,28.84105,28.879322,28.924103,28.954487,28.983315,29.010239,29.028727,29.05141,29.067524,29.086,29.10511,29.12022,29.14241,29.161118,29.186207,29.215176,29.242712,29.282026,29.313381,29.356182,29.397253,29.43613,29.483376,29.517927,29.562576,29.59708,29.629799,29.659878,29.678951,29.697327,29.705626,29.713612,29.717388,29.718224,29.717018,29.714296,29.708961,29.701778,29.69552,29.687424,29.681587,29.67503,29.671724,29.670757,29.674828,29.680973,29.69292,29.707134,29.723267,29.743465,29.758926,29.779408,29.794289,29.808,29.816456,29.819992,29.81767,29.810394,29.798954,29.783495,29.769382,29.75047,29.736502,29.719687,29.705704,29.693819,29.681705,29.674437,29.667372,29.664959,29.664612,29.669373,29.675695,29.687817,29.701141,29.71753,29.738312,29.75565,29.780102,29.799274,29.820724,29.839088,29.852545,29.8645,29.869213,29.870792,29.86686,29.861748,29.852657,29.844711,29.834307,29.825417,29.816895,29.808708,29.803768,29.799894,29.800026,29.802734,29.810595,29.819,29.832733,29.845167,29.86045,29.876434,29.889315,29.904572,29.914589,29.925608,29.93317,29.93847,29.941454,29.941319,29.938782,29.933596,29.927505,29.918148,29.910263,29.89854,29.888004,29.876308,29.864243,29.855747,29.847193,29.843609,29.842527,29.847195,29.853676,29.866482,29.878983,29.896193,29.914673,29.93103,29.951515,29.966194,29.983408,29.995075,30.00348,30.007727,30.007648,30.003605,29.996292,29.987219,29.974518,29.963886,29.949047,29.937218,29.923965,29.911926,29.903343,29.895174,29.891756,29.890572,29.894428,29.900015,29.911,29.921303,29.936092,29.95073,29.964294,29.980293,29.991745,30.00497,30.01344,30.020763,30.024813,30.02563,30.023022,30.017708,30.010332,30.000307,29.991547,29.979753,29.970852,29.960262,29.951138,29.94411,29.937777,29.935095,29.934496,29.938133,29.943579,29.953732
25.815945,25.834852,25.847996,25.865995,25.886425,25.905224,25.933762,25.957857,25.99092,26.02246,26.05127,26.084976,26.10878,26.139034,26.162575,26.18544,26.209335,26.226463,26.24923,26.266289,26.283176,26.297934,26.308096,26.321075,26.330667,26.342285,26.354229,26.364964,26.379082,26.389658,26.404293,26.419743,26.43492,26.457329,26.476215,26.50456,26.532925,26.563845,26.60397,26.63601,26.683735,26.725441,26.772655,26.821363,26.857199,26.899574,26.927132,26.95734,26.979383,26.99225,27.004723,27.01187,27.019516,27.025608,27.031864,27.039883,27.045769,27.057516,27.07226,27.088737,27.114935,27.138897,27.174398,27.205914,27.241837,27.279152,27.305468,27.338346,27.361765,27.389723,27.415539,27.435003,27.457298,27.471516,27.486557,27.495758,27.501331,27.504473,27.504772,27.503813,27.503143,27.504576,27.510614,27.51728,27.535858,27.556044,27.569876,27.584988,27.599457,27.622065,27.642265,27.66775,27.696066,27.719654,27.751135,27.774767,27.803547,27.829582,27.851616,27.877813,27.896088,27.91905,27.939116,27.95945,27.984818,28.004158,28.031551,28.055645,28.081789,28.113443,28.139282,28.176622,28.208227,28.246838,28.29124,28.3292,28.383825,28.428291,28.486937,28.548328,28.603424,28.676147,28.731052,28.800344,28.858723,28.911564,28.968605,29.00708,29.052296,29.083216,29.11279,29.14037,29.159122,29.181839,29.197674,29.21563,29.233795,29.247946,29.268742,29.286339,29.3102,29.33776,29.363623,29.40112,29.4315,29.47335,29.513897,29.552406,29.599138,29.633194,29.677212,29.711174,29.743237,29.772694,29.791426,29.80959,29.81799,29.82633,29.830814,29.832306,29.832226,29.830544,29.826572,29.820873,29.815884,29.809582,29.80518,29.800438,29.798912,29.799717,29.806133,29.81411,29.828606,29.845093,29.863567,29.886312,29.903564,29.926222,29.942566,29.957655,29.96725,29.971611,29.970127,29.963264,29.952164,29.93668,29.922346,29.902803,29.88815,29.87046,29.855675,29.84306,29.830341,29.822868,29.815702,29.81349,29.813547,29.819103,29.82615,29.839434,29.853855,29.871529,29.893608,29.911827,29.937212,29.956856,29.978588,29.996834,30.010061,30.021358,30.025322,30.025757,30.02043,30.013927,30.002895,29.993414,29.98122,29.97113,29.961712,29.953094,29.948168,29.944462,29.945097,29.948921,29.958754,29.96897,29.985577,30.000547,30.01889,30.037926,30.05314,30.071297,30.083355,30.096622,30.105865,30.112457,30.116573,30.116953,30.114792,30.109493,30.103073,30.092888,30.084146,30.071339,30.059975,30.04741,30.034693,30.025932,30.017307,30.013952,30.013332,30.01899,30.026587,30.04115,30.055138,30.074352,30.094831,30.112854,30.135359,30.151482,30.170528,30.183487,30.192657,30.19736,30.197445,30.193386,30.185787,30.176342,30.162722,30.150955,30.13491,30.122433,30.10857,30.096289,30.087738,30.079903,30.076937,30.076408,30.081108,30.087547,30.099606,30.11065,30.126308,30.141552,30.155596,30.171694,30.18288,30.19579,30.203949,30.210869,30.21444,30.21492,30.211863,30.206192,30.198372,30.187822,30.178596,30.166264,30.15701,30.145782,30.136192,30.129063,30.123018,30.120817,30.121037,30.12568,30.132164,30.143654
25.905062,25.92522,25.939014,25.95736,25.977684,25.996288,26.024696,26.048847,26.082266,26.11459,26.14445,26.179707,26.20473,26.236458,26.261105,26.285019,26.309975,26.327866,26.351322,26.36884,26.386799,26.403141,26.414719,26.42952,26.440395,26.453415,26.466362,26.477776,26.492023,26.502155,26.515907,26.530342,26.544674,26.566586,26.585526,26.614208,26.643307,26.675201,26.717352,26.751583,26.80193,26.845427,26.894354,26.9447,26.98175,27.026295,27.056,27.089176,27.114685,27.130627,27.14698,27.156841,27.167704,27.176136,27.184015,27.193123,27.199276,27.210876,27.225117,27.241125,27.2672,27.291515,27.327438,27.358244,27.389835,27.42148,27.444248,27.47519,27.49902,27.526226,27.55114,27.57006,27.592106,27.606487,27.62196,27.631683,27.637619,27.640888,27.641037,27.639563,27.637926,27.63807,27.642017,27.64694,27.661465,27.678234,27.692116,27.708307,27.722551,27.745071,27.76539,27.791088,27.819658,27.843468,27.874916,27.898254,27.926495,27.951649,27.972675,27.997414,28.014557,28.036068,28.054895,28.074078,28.098272,28.116873,28.14346,28.167128,28.193027,28.224667,28.25052,28.288223,28.320381,28.359703,28.405014,28.443798,28.499454,28.54461,28.603905,28.665531,28.720497,28.793144,28.848146,28.916828,28.974167,29.026035,29.082054,29.11993,29.16462,29.1954,29.225033,29.252718,29.271446,29.29404,29.309612,29.326942,29.344055,29.357208,29.376587,29.39309,29.415945,29.44236,29.466717,29.502197,29.53114,29.57129,29.610435,29.64767,29.69278,29.725536,29.767859,29.80049,29.831245,29.859629,29.877808,29.895813,29.904657,29.913868,29.91988,29.922794,29.92501,29.92535,29.92394,29.920929,29.918226,29.915016,29.912996,29.911282,29.91256,29.916004,29.925705,29.936104,29.95375,29.972797,29.993816,30.01914,30.038095,30.062778,30.080505,30.09702,30.108093,30.113674,30.113945,30.108513,30.099197,30.085426,30.072422,30.05439,30.040712,30.024189,30.010363,29.998539,29.986916,29.980371,29.974464,29.973438,29.974804,29.981985,29.990276,30.00521,30.020897,30.03991,30.063107,30.081951,30.107826,30.127567,30.149239,30.167202,30.180153,30.19107,30.194752,30.19485,30.189169,30.182266,30.17066,30.16072,30.147993,30.137615,30.128094,30.119698,30.115154,30.111822,30.112862,30.117619,30.129032,30.140656,30.15961,30.176672,30.197334,30.218365,30.234842,30.254568,30.267775,30.282255,30.292366,30.29962,30.304367,30.3051,30.303288,30.298058,30.291494,30.28085,30.271618,30.258488,30.247128,30.234552,30.222084,30.213701,30.205727,30.203005,30.203274,30.209988,30.21846,30.234173,30.249014,30.269384,30.290855,30.309559,30.332653,30.349041,30.368193,30.3811,30.390348,30.395132,30.39524,30.391237,30.383678,30.374292,30.360474,30.348244,30.332014,30.319767,30.306248,30.294586,30.286657,30.27981,30.277678,30.2781,30.283607,30.290672,30.303333,30.314688,30.330585,30.34574,30.359562,30.37476,30.384819,30.396599,30.40404,30.410107,30.41288,30.412899,30.409433,30.403616,30.395657,30.385056,30.375832,30.36355,30.354359,30.342953,30.33321,30.326168,30.320452,30.318626,30.319426,30.32473,30.33188,30.344112
25.987074,26.00859,26.023113,26.04208,26.062717,26.08152,26.110367,26.135029,26.169243,26.202576,26.233614,26.270487,26.296747,26.329918,26.355606,26.380545,26.406555,26.425201,26.449581,26.467888,26.487171,26.505291,26.518398,26.535187,26.547493,26.562277,26.576504,26.588512,26.60297,26.612936,26.626305,26.640282,26.65424,26.676123,26.695381,26.724445,26.75439,26.788445,26.832981,26.868263,26.920162,26.964947,27.01519,27.066822,27.104717,27.150928,27.182405,27.218187,27.246874,27.265682,27.285648,27.298018,27.311823,27.322426,27.331833,27.342264,27.349108,27.361378,27.375917,27.391932,27.418802,27.444946,27.479296,27.506023,27.533213,27.561552,27.583677,27.614052,27.637579,27.664417,27.689217,27.708042,27.731152,27.74725,27.765583,27.777565,27.783817,27.787258,27.787807,27.787441,27.786716,27.787148,27.789734,27.792637,27.801262,27.81211,27.823471,27.839323,27.853775,27.876637,27.89724,27.923298,27.952206,27.976282,28.007729,28.03078,28.058472,28.082745,28.102777,28.126091,28.14212,28.162247,28.179932,28.19804,28.221163,28.239107,28.264967,28.288246,28.313938,28.345531,28.371365,28.409286,28.441814,28.48158,28.527431,28.566696,28.622915,28.668388,28.727829,28.789188,28.843695,28.91542,28.969574,29.037392,29.09383,29.144266,29.198647,29.23556,29.279303,29.309658,29.339085,29.366676,29.38529,29.407673,29.422974,29.439789,29.456057,29.468388,29.486507,29.501926,29.523134,29.547892,29.571201,29.604824,29.631916,29.66984,29.707056,29.74258,29.785591,29.816734,29.85691,29.887867,29.917059,29.944221,29.961775,29.979681,29.989151,29.999481,30.007425,30.012156,30.017242,30.02007,30.021824,30.02213,30.022238,30.022793,30.023651,30.025595,30.03022,30.036777,30.05027,30.063446,30.084648,30.106518,30.130291,30.158354,30.179115,30.20595,30.225155,30.243279,30.256138,30.263237,30.2658,30.262333,30.255566,30.244394,30.233486,30.21801,30.2061,30.191727,30.179733,30.169462,30.159813,30.154806,30.150915,30.151642,30.154821,30.164108,30.173962,30.190868,30.207977,30.228443,30.252754,30.272186,30.298447,30.318174,30.339687,30.357334,30.370008,30.380686,30.38429,30.384357,30.378674,30.371756,30.36007,30.350033,30.337227,30.326893,30.317434,30.309649,30.305984,30.30405,30.306473,30.312872,30.326342,30.33971,30.360973,30.37974,30.402306,30.42472,30.441853,30.461962,30.475159,30.489578,30.49958,30.506754,30.51167,30.512753,30.511583,30.506886,30.500471,30.48981,30.480543,30.467384,30.456036,30.443476,30.431244,30.423212,30.415852,30.413738,30.414854,30.422588,30.43191,30.448715,30.464336,30.485748,30.507866,30.526718,30.549288,30.564846,30.582882,30.59497,30.603933,30.608616,30.608643,30.604618,30.597132,30.58776,30.574356,30.562817,30.547642,30.536263,30.52356,30.512756,30.5056,30.499962,30.49884,30.500315,30.50648,30.513859,30.526505,30.537594,30.55297,30.567354,30.580223,30.594254,30.603548,30.614227,30.620707,30.625763,30.627628,30.62714,30.623272,30.617376,30.609425,30.598995,30.58995,30.577936,30.568995,30.55819,30.549253,30.54291,30.53804,30.536781,30.538195,30.543839,30.551182,30.563282
26.069674,26.093359,26.109379,26.12992,26.1518,26.171547,26.201672,26.227364,26.262947,26.297646,26.330093,26.368706,26.396225,26.430782,26.457436,26.483376,26.510525,26.530046,26.55567,26.575127,26.596113,26.616512,26.631622,26.651028,26.665226,26.68227,26.698208,26.711113,26.726326,26.736649,26.750381,26.764673,26.778946,26.801716,26.822025,26.852463,26.883823,26.91993,26.966469,27.002659,27.055553,27.10083,27.15121,27.202831,27.240734,27.287682,27.3204,27.358429,27.390276,27.412024,27.435986,27.451344,27.468807,27.48238,27.494017,27.506786,27.515173,27.529186,27.544914,27.562366,27.589642,27.615192,27.645473,27.667253,27.691372,27.718761,27.741554,27.772476,27.796124,27.82332,27.849072,27.869383,27.893707,27.91006,27.929232,27.942232,27.949207,27.954144,27.95629,27.958553,27.960167,27.962387,27.96563,27.968166,27.973547,27.980568,27.990406,28.006487,28.02179,28.045685,28.066952,28.093735,28.123175,28.147608,28.179024,28.201658,28.228638,28.251862,28.270767,28.292568,28.307482,28.326328,28.343052,28.360264,28.382574,28.40009,28.425478,28.448517,28.47414,28.505709,28.53144,28.569283,28.601763,28.641346,28.686815,28.725706,28.781185,28.82589,28.88403,28.943623,28.996422,29.06533,29.11697,29.182358,29.236795,29.284592,29.33588,29.370766,29.412365,29.441538,29.470062,29.497047,29.515297,29.537285,29.55231,29.56866,29.58423,29.59592,29.612917,29.627245,29.64658,29.669321,29.691374,29.722647,29.747366,29.782118,29.816353,29.849228,29.888994,29.917696,29.954597,29.982998,30.009863,30.035198,30.051796,30.069523,30.079887,30.091806,30.102497,30.10981,30.118923,30.125216,30.131372,30.13627,30.14029,30.146008,30.150747,30.157633,30.166687,30.177227,30.19542,30.211956,30.237293,30.26226,30.288963,30.31979,30.342285,30.371124,30.39174,30.41155,30.426636,30.435753,30.441761,30.441526,30.439072,30.432617,30.425655,30.415264,30.407063,30.397226,30.389153,30.382275,30.3767,30.374662,30.374582,30.378431,30.384674,30.397266,30.409464,30.429165,30.448107,30.470337,30.495785,30.515648,30.541925,30.561277,30.582302,30.59948,30.611847,30.622644,30.626743,30.627743,30.623276,30.617496,30.607262,30.598282,30.586796,30.577564,30.569117,30.562832,30.560556,30.560883,30.565403,30.573986,30.589684,30.604675,30.627674,30.647366,30.670776,30.693382,30.71028,30.729538,30.741776,30.755074,30.764172,30.770645,30.775318,30.776688,30.77636,30.772823,30.767502,30.75829,30.7502,30.738499,30.728237,30.71676,30.705643,30.698475,30.692112,30.69062,30.69241,30.700577,30.710114,30.726896,30.742268,30.763266,30.784588,30.802483,30.823372,30.83741,30.853516,30.86419,30.872276,30.876436,30.876297,30.872452,30.86552,30.856762,30.84468,30.834656,30.821522,30.811712,30.800714,30.79161,30.785835,30.781895,30.781921,30.784565,30.791372,30.799057,30.811497,30.822037,30.836433,30.849491,30.860842,30.872942,30.880869,30.889599,30.894436,30.897861,30.898346,30.897137,30.892876,30.88716,30.879578,30.869877,30.861546,30.850498,30.842308,30.832685,30.825,30.819643,30.815825,30.815168,30.817104,30.82281,30.830006,30.841341
26.127354,26.15298,26.17045,26.192596,26.215855,26.236671,26.268131,26.29482,26.331661,26.367489,26.40103,26.440891,26.469265,26.504744,26.53201,26.558617,26.58659,26.606783,26.633373,26.65374,26.676014,26.698202,26.714989,26.736553,26.752285,26.771055,26.788342,26.802128,26.818254,26.829147,26.8435,26.858341,26.873121,26.897018,26.918556,26.950878,26.983692,27.020271,27.067417,27.104633,27.158295,27.203562,27.25327,27.303991,27.341438,27.388376,27.421654,27.461006,27.494995,27.518785,27.545689,27.56336,27.583736,27.599804,27.613388,27.628328,27.638218,27.653864,27.670963,27.691349,27.7186,27.740437,27.76616,27.785248,27.80915,27.837568,27.860691,27.892086,27.91618,27.943897,27.971111,27.994438,28.019285,28.033138,28.048883,28.059715,28.067253,28.074142,28.078014,28.082329,28.08561,28.089392,28.0944,28.098236,28.105507,28.114033,28.125084,28.142271,28.158459,28.1834,28.205343,28.23284,28.262775,28.287525,28.318916,28.341213,28.367626,28.390059,28.408123,28.428858,28.443039,28.46109,28.477276,28.493984,28.5159,28.533266,28.558477,28.581438,28.607101,28.638653,28.664246,28.701847,28.734047,28.77312,28.81778,28.8559,28.910091,28.953611,29.009987,29.067478,29.118347,29.184267,29.233341,29.296104,29.348417,29.393715,29.442034,29.474857,29.514252,29.542162,29.56964,29.595873,29.613693,29.63527,29.65007,29.666069,29.681196,29.692524,29.708792,29.72234,29.740442,29.761684,29.78249,29.81173,29.834614,29.866722,29.898369,29.928944,29.965897,29.992502,30.026577,30.052757,30.07759,30.101295,30.117008,30.134483,30.145535,30.158737,30.171673,30.1811,30.193508,30.20264,30.212402,30.221066,30.228292,30.238205,30.24607,30.256958,30.269548,30.283203,30.30499,30.32406,30.352444,30.37959,30.40831,30.440952,30.464527,30.494587,30.51606,30.537014,30.553808,30.564554,30.573528,30.57619,30.57766,30.575588,30.572338,30.566828,30.562246,30.556831,30.552603,30.549067,30.547436,30.548206,30.551727,30.558475,30.567497,30.583004,30.597223,30.619274,30.639698,30.663313,30.689537,30.709581,30.73564,30.754519,30.775005,30.791775,30.803905,30.814968,30.819714,30.821918,30.819004,30.814672,30.806316,30.798717,30.788925,30.78105,30.773888,30.769056,30.767809,30.769901,30.77607,30.78632,30.803455,30.819286,30.842896,30.862621,30.885784,30.907751,30.92406,30.942314,30.953653,30.96592,30.974197,30.980019,30.984348,30.985807,30.986008,30.983557,30.979706,30.972649,30.96627,30.956762,30.948147,30.938282,30.928612,30.92241,30.916935,30.915768,30.917698,30.925507,30.934536,30.950226,30.964489,30.983854,31.003494,31.020046,31.03947,31.0526,31.067545,31.077297,31.084505,31.088043,31.087748,31.084188,31.077967,31.070082,31.059261,31.050304,31.038631,31.030014,31.020565,31.013115,31.008635,31.00603,31.006744,31.010109,31.017387,31.025452,31.037962,31.048244,31.062065,31.074219,31.084549,31.095009,31.101494,31.10833,31.11166,31.113605,31.112877,31.111057,31.106537,31.101107,31.093967,31.085066,31.077522,31.067547,31.060143,31.051378,31.044407,31.039627,31.036411,31.036098,31.038307,31.043983,31.051048,31.06181
26.203762,26.232525,26.252472,26.277456,26.30321,26.325975,26.359703,26.387917,26.426575,26.463833,26.498632,26.539806,26.569023,26.60534,26.633163,26.660477,26.689491,26.710611,26.738708,26.76057,26.784874,26.809647,26.82864,26.853245,26.871248,26.892332,26.911259,26.925993,26.943237,26.954994,26.970806,26.98724,27.003422,27.029316,27.052551,27.086811,27.121067,27.159227,27.207783,27.245811,27.299236,27.343222,27.39114,27.43995,27.476206,27.522396,27.55591,27.59652,27.633007,27.659262,27.690014,27.710922,27.735428,27.75521,27.771822,27.790394,27.802961,27.822647,27.841785,27.86065,27.883614,27.901466,27.92421,27.942905,27.967262,27.996769,28.02042,28.05254,28.077312,28.106997,28.13509,28.156893,28.179546,28.192064,28.206945,28.218596,28.22823,28.238676,28.245436,28.253464,28.259941,28.266792,28.275301,28.281662,28.29233,28.303432,28.316772,28.336012,28.353704,28.380333,28.403267,28.431692,28.462086,28.487019,28.518024,28.539577,28.564907,28.586071,28.602938,28.622324,28.635681,28.653,28.668869,28.685295,28.707144,28.724632,28.750023,28.773155,28.799068,28.83065,28.856052,28.893093,28.924526,28.962349,29.005074,29.041359,29.09264,29.13361,29.186403,29.239906,29.287218,29.348017,29.392914,29.450428,29.498432,29.540195,29.584568,29.614452,29.650581,29.676535,29.702484,29.727785,29.74519,29.76656,29.78146,29.79756,29.81282,29.824293,29.840427,29.853569,29.87078,29.89055,29.90984,29.936695,29.957558,29.9865,30.014828,30.04234,30.075443,30.099121,30.129313,30.152485,30.174631,30.196255,30.210873,30.22818,30.240295,30.255257,30.271164,30.283398,30.300064,30.312784,30.327087,30.34048,30.351782,30.366962,30.3787,30.394474,30.411247,30.428509,30.454235,30.47595,30.507298,30.536324,30.56666,30.600485,30.624596,30.65512,30.67694,30.698673,30.717228,30.729836,30.74271,30.749489,30.75661,30.761078,30.763474,30.765486,30.766533,30.768066,30.769934,30.77173,30.776337,30.78151,30.790607,30.80176,30.814934,30.834677,30.851788,30.877068,30.89939,30.924719,30.951744,30.971825,30.997295,31.015327,31.034958,31.051268,31.063244,31.075222,31.081501,31.086346,31.086693,31.085428,31.08109,31.076504,31.07042,31.065472,31.061047,31.059088,31.059803,31.064526,31.07269,31.084877,31.103493,31.120108,31.144054,31.16344,31.185825,31.206394,31.22134,31.237541,31.247234,31.25768,31.264656,31.269516,31.273537,31.275383,31.276762,31.276173,31.274485,31.270473,31.266539,31.260181,31.253962,31.246489,31.239017,31.234287,31.23027,31.22974,31.232048,31.239523,31.24796,31.262257,31.275047,31.292282,31.309578,31.324078,31.340927,31.352211,31.364944,31.373072,31.37886,31.381561,31.381227,31.378448,31.37369,31.367615,31.359358,31.352583,31.34383,31.33748,31.330666,31.32579,31.323273,31.322754,31.324627,31.329134,31.336966,31.345318,31.357502,31.367073,31.379576,31.389957,31.39838,31.405994,31.410055,31.413778,31.414703,31.414288,31.411701,31.408995,31.404213,31.399378,31.393177,31.385841,31.379807,31.371841,31.365898,31.358734,31.353052,31.349249,31.346949,31.347061,31.349476,31.354809,31.361334,31.370762
26.260014,26.291462,26.313604,26.34117,26.369225,26.393799,26.429516,26.45898,26.499054,26.537292,26.57285,26.614697,26.644299,26.680952,26.709003,26.736702,26.76645,26.78829,26.81767,26.840845,26.86685,26.893646,26.91425,26.941143,26.9609,26.983639,27.003647,27.018963,27.03703,27.049557,27.066927,27.085167,27.102942,27.130701,27.155226,27.190636,27.225721,27.26566,27.315533,27.353653,27.405905,27.447998,27.49392,27.540756,27.575665,27.62071,27.65398,27.695068,27.733055,27.760872,27.79434,27.817686,27.845367,27.868149,27.887333,27.909027,27.923872,27.947205,27.967503,27.981731,27.999237,28.015347,28.038416,28.059074,28.084259,28.114304,28.138405,28.17115,28.196487,28.228107,28.255798,28.272781,28.292162,28.305386,28.32253,28.337555,28.349716,28.36347,28.372786,28.384289,28.393875,28.40374,28.415655,28.424446,28.438166,28.451477,28.466953,28.48813,28.507172,28.535255,28.558975,28.588053,28.61861,28.643496,28.673946,28.694756,28.719059,28.73917,28.755144,28.773668,28.786598,28.8037,28.819698,28.836273,28.858473,28.876328,28.902206,28.925695,28.951937,28.983574,29.00882,29.045233,29.075766,29.112185,29.15279,29.187065,29.235231,29.273542,29.322712,29.37234,29.416248,29.472383,29.513618,29.565968,29.609684,29.64856,29.689932,29.717525,29.751049,29.775415,29.800138,29.824774,29.84197,29.863419,29.878666,29.895248,29.911137,29.923176,29.93984,29.953154,29.970287,29.989403,30.007729,30.033152,30.052895,30.079838,30.105885,30.131218,30.161476,30.182953,30.21026,30.231245,30.251465,30.271652,30.28553,30.302834,30.315807,30.332043,30.350033,30.364231,30.383797,30.398903,30.416214,30.432735,30.446762,30.46542,30.479671,30.498573,30.517918,30.537308,30.565166,30.588188,30.62079,30.650343,30.680992,30.714678,30.738447,30.76839,30.789814,30.811512,30.830904,30.8446,30.860207,30.87011,30.881607,30.891277,30.898247,30.906425,30.912136,30.919443,30.926428,30.932709,30.942532,30.951357,30.965042,30.979748,30.99623,31.019249,31.038559,31.066196,31.089802,31.11622,31.143612,31.16354,31.188328,31.205566,31.224466,31.240494,31.252483,31.265549,31.27346,31.281002,31.28463,31.286465,31.286213,31.284712,31.28244,31.280506,31.278849,31.27972,31.282333,31.289198,31.29866,31.312046,31.33139,31.348297,31.3721,31.390911,31.412365,31.431479,31.444996,31.459177,31.467346,31.47617,31.48209,31.486237,31.4902,31.492584,31.495235,31.496374,31.49644,31.49482,31.492825,31.488976,31.484688,31.479172,31.473553,31.470074,31.46735,31.46745,31.470192,31.477524,31.485592,31.498909,31.510597,31.526295,31.541794,31.554577,31.569061,31.578514,31.589132,31.595787,31.60038,31.602509,31.6023,31.600433,31.597172,31.592932,31.587238,31.582664,31.576818,31.572655,31.568207,31.565495,31.564579,31.565805,31.568674,31.574106,31.582253,31.590595,31.602165,31.610897,31.621971,31.6306,31.637192,31.642212,31.644146,31.645184,31.644075,31.64168,31.637592,31.63422,31.62935,31.625137,31.619904,31.61412,31.60955,31.603516,31.59896,31.593342,31.588882,31.58597,31.584425,31.584822,31.58725,31.592075,31.597918,31.605915
26.329828,26.36445,26.389236,26.419931,26.450813,26.477602,26.51574,26.5467,26.588448,26.627798,26.664188,26.706757,26.736748,26.773773,26.80212,26.830305,26.861004,26.883797,26.914787,26.93956,26.967546,26.996737,27.01941,27.048729,27.070038,27.094448,27.11589,27.132334,27.152065,27.166021,27.185345,27.205658,27.225668,27.255932,27.281967,27.32024,27.35775,27.398977,27.44904,27.486794,27.537292,27.577023,27.620285,27.664394,27.697376,27.740635,27.773304,27.814579,27.854,27.883404,27.919815,27.945911,27.977262,28.003641,28.026287,28.051249,28.067698,28.0896,28.106907,28.120165,28.13766,28.1541,28.178356,28.20039,28.226593,28.25748,28.282162,28.316,28.342054,28.372364,28.397667,28.412666,28.431744,28.446571,28.466238,28.484474,28.499588,28.51744,28.529984,28.545925,28.559515,28.573242,28.589561,28.601543,28.619234,28.635397,28.653664,28.677353,28.698105,28.728004,28.752684,28.782509,28.813206,28.837975,28.867752,28.887695,28.910858,28.92989,28.945019,28.962885,28.975626,28.992912,29.009476,29.0266,29.049625,29.068195,29.094942,29.118994,29.145706,29.177376,29.202366,29.237797,29.266949,29.301285,29.338829,29.370228,29.41399,29.448566,29.49277,29.537184,29.576502,29.626442,29.662876,29.708893,29.747223,29.781414,29.818186,29.842983,29.8737,29.896553,29.91969,29.94321,29.959972,29.981293,29.99683,30.01387,30.03048,30.043213,30.060572,30.074173,30.091343,30.109852,30.127178,30.151249,30.170048,30.194815,30.21816,30.240974,30.267982,30.286951,30.311016,30.329557,30.347603,30.366148,30.379196,30.396446,30.410316,30.427876,30.44798,30.464157,30.48663,30.504126,30.524475,30.544147,30.56088,30.583033,30.599846,30.621937,30.643864,30.665325,30.695156,30.71931,30.752851,30.782572,30.813133,30.846184,30.86922,30.898067,30.918734,30.940079,30.960173,30.974937,30.993488,31.006859,31.02328,31.038902,31.051134,31.06646,31.077595,31.091625,31.104563,31.1161,31.131985,31.144997,31.163948,31.182701,31.202911,31.229553,31.25124,31.28137,31.306248,31.333687,31.361233,31.380787,31.404537,31.420702,31.438652,31.454353,31.466377,31.480825,31.490776,31.50167,31.509415,31.51515,31.520092,31.52252,31.525146,31.527098,31.529018,31.5335,31.538486,31.548058,31.55914,31.573929,31.59396,31.611012,31.634247,31.651997,31.671932,31.689003,31.700645,31.71233,31.718695,31.725723,31.73064,31.734175,31.738392,31.741653,31.746147,31.749668,31.752203,31.753916,31.75459,31.754227,31.75265,31.749866,31.746815,31.745079,31.744116,31.745016,31.74825,31.755236,31.762648,31.774403,31.784447,31.79787,31.81083,31.821278,31.832731,31.839949,31.848007,31.85295,31.856228,31.857872,31.857965,31.857466,31.856264,31.85447,31.852118,31.85036,31.84827,31.846931,31.845509,31.845503,31.846548,31.849789,31.853693,31.859951,31.86814,31.876232,31.886753,31.894253,31.903316,31.909603,31.913837,31.915651,31.91504,31.912872,31.9094,31.904785,31.899086,31.895042,31.89027,31.886997,31.883123,31.87939,31.876734,31.873238,31.870522,31.866926,31.864056,31.862305,31.861683,31.862356,31.864693,31.868763,31.873606,31.879654
26.396189,26.433388,26.460377,26.493711,26.526993,26.555653,26.595783,26.627934,26.670969,26.711134,26.7481,26.79115,26.82141,26.858776,26.887486,26.916208,26.947906,26.971687,27.004269,27.030529,27.060246,27.091444,27.11588,27.147015,27.169277,27.194866,27.217564,27.235195,27.256882,27.272572,27.29409,27.31663,27.338943,27.371979,27.399889,27.44133,27.481123,27.522802,27.571995,27.608837,27.657108,27.694271,27.73457,27.775589,27.806356,27.847319,27.878876,27.91961,27.95961,27.989862,28.028313,28.056541,28.090874,28.12033,28.14618,28.173447,28.19017,28.209257,28.22372,28.2388,28.259754,28.278187,28.30452,28.327707,28.354992,28.386717,28.411905,28.44677,28.473438,28.501402,28.524435,28.539917,28.56089,28.577776,28.599995,28.620987,28.638805,28.660439,28.675983,28.69611,28.713547,28.731,28.751637,28.766788,28.788406,28.807379,28.828426,28.854584,28.876965,28.90857,28.934109,28.964565,28.99532,29.019936,29.049139,29.06843,29.090796,29.10925,29.124065,29.14202,29.15515,29.173351,29.191074,29.209295,29.233673,29.25327,29.281187,29.30592,29.333128,29.364716,29.389317,29.423454,29.450878,29.482718,29.516718,29.544827,29.583622,29.614052,29.652857,29.691742,29.72622,29.76978,29.80138,29.841175,29.87415,29.903307,29.935081,29.956978,29.984749,30.006012,30.027468,30.049747,30.065948,30.086948,30.1026,30.1199,30.137018,30.150284,30.16822,30.182106,30.199417,30.217583,30.234222,30.257324,30.275436,30.298798,30.32039,30.341469,30.366043,30.383032,30.404522,30.42109,30.437338,30.454418,30.466648,30.483574,30.497847,30.51607,30.537354,30.554651,30.578781,30.597645,30.619751,30.641266,30.659588,30.68379,30.702103,30.726055,30.749393,30.771885,30.802467,30.8269,30.860329,30.889439,30.91914,30.950817,30.97263,30.999811,31.01931,31.039804,31.059956,31.075233,31.095757,31.11168,31.131847,31.152142,31.16855,31.189617,31.205145,31.224598,31.24234,31.258118,31.278835,31.295124,31.31816,31.339981,31.36294,31.392124,31.415396,31.447067,31.472572,31.50037,31.527561,31.546453,31.568958,31.584015,31.600979,31.61634,31.628376,31.644081,31.65588,31.669857,31.681393,31.690754,31.700573,31.706741,31.71405,31.719738,31.725105,31.73302,31.74022,31.752207,31.764626,31.78045,31.80071,31.817516,31.839714,31.856104,31.874218,31.889156,31.898983,31.90842,31.913298,31.918995,31.923428,31.926819,31.931816,31.93626,31.942905,31.948975,31.954113,31.959265,31.962662,31.965874,31.967104,31.967182,31.966839,31.966944,31.967855,31.969616,31.973362,31.979944,31.986616,31.996712,32.005035,32.01607,32.02644,32.034576,32.04316,32.048332,32.05415,32.05774,32.060078,32.061646,32.06231,32.06343,32.064423,32.06517,32.06617,32.067184,32.068756,32.070137,32.071594,32.074043,32.076797,32.08165,32.08625,32.092896,32.10068,32.108147,32.11722,32.12327,32.130108,32.13402,32.13596,32.134865,32.132034,32.127186,32.121845,32.115555,32.108818,32.104446,32.10013,32.09798,32.095623,32.094025,32.0933,32.09236,32.0915,32.08995,32.088642,32.088017,32.088207,32.08905,32.09114,32.0943,32.097992,32.101997
26.455563,26.494617,26.5232,26.558447,26.593449,26.623423,26.664925,26.697868,26.741749,26.78244,26.819801,26.86323,26.893742,26.93149,26.960634,26.989935,27.022593,27.04728,27.08126,27.108774,27.1399,27.172634,27.198345,27.23082,27.253828,27.280285,27.303905,27.322407,27.345678,27.362898,27.386654,27.41144,27.435589,27.471375,27.501799,27.545443,27.585974,27.627785,27.676159,27.712053,27.758118,27.792778,27.830143,27.868114,27.896759,27.935375,27.96563,28.005476,28.045557,28.076176,28.116001,28.14585,28.182522,28.21437,28.242683,28.271015,28.286762,28.306808,28.323402,28.34034,28.363293,28.38303,28.410995,28.435291,28.463501,28.495878,28.521423,28.55688,28.583973,28.61148,28.634373,28.650806,28.673435,28.691715,28.715946,28.73924,28.759308,28.78408,28.80212,28.82574,28.846413,28.86705,28.891403,28.909296,28.934305,28.955715,28.979195,29.00751,29.031305,29.064377,29.090662,29.121681,29.152534,29.17706,29.205885,29.224752,29.246649,29.264889,29.27973,29.298145,29.311886,29.331232,29.350246,29.36967,29.39545,29.416054,29.445095,29.470442,29.498077,29.529495,29.55365,29.58646,29.612179,29.641594,29.672218,29.69722,29.731358,29.757925,29.791733,29.82555,29.855625,29.893448,29.920727,29.954952,29.983181,30.008106,30.035389,30.054304,30.078701,30.09794,30.11789,30.139286,30.155073,30.175877,30.191647,30.209064,30.226398,30.239887,30.258049,30.272015,30.289322,30.307167,30.323309,30.345383,30.362518,30.385109,30.406063,30.426216,30.449102,30.464476,30.483852,30.498726,30.513386,30.529026,30.540348,30.556578,30.57077,30.589092,30.610878,30.628757,30.653782,30.673409,30.696512,30.719109,30.738396,30.763813,30.78299,30.807999,30.832075,30.855028,30.88577,30.910099,30.943045,30.971323,30.999979,31.030144,31.050686,31.076168,31.094467,31.11398,31.133873,31.14933,31.1711,31.188797,31.211685,31.235456,31.25496,31.280306,31.299128,31.322632,31.343918,31.362804,31.387026,31.405674,31.431597,31.45552,31.480309,31.511078,31.535282,31.567753,31.59343,31.621166,31.647715,31.665812,31.687046,31.701057,31.717043,31.731964,31.743889,31.760498,31.773758,31.790222,31.804863,31.817177,31.831017,31.840302,31.851524,31.86035,31.868624,31.87943,31.888496,31.902485,31.91595,31.932547,31.952839,31.969288,31.990425,32.005554,32.022,32.03505,32.043327,32.050926,32.054634,32.059353,32.063553,32.067028,32.07295,32.078613,32.087326,32.095745,32.103268,32.11152,32.11736,32.123795,32.127552,32.130238,32.132385,32.134186,32.136864,32.139496,32.143776,32.150055,32.156105,32.16478,32.17163,32.18054,32.1886,32.194748,32.20088,32.204334,32.20835,32.21096,32.212643,32.214363,32.215694,32.2184,32.221375,32.22444,32.22843,32.23188,32.236618,32.24032,32.244232,32.24872,32.252846,32.25894,32.264015,32.270832,32.278107,32.284824,32.292427,32.297073,32.30186,32.303665,32.303627,32.3001,32.29545,32.288475,32.281746,32.274242,32.266853,32.262386,32.25866,32.25758,32.25666,32.257008,32.258003,32.259346,32.26013,32.26039,32.260452,32.260788,32.261665,32.262646,32.264477,32.26678,32.26945,32.27166
26.529308,26.56993,26.599903,26.63685,26.673397,26.704563,26.747269,26.780874,26.825466,26.866608,26.904305,26.94815,26.979017,27.017418,27.04734,27.07758,27.111622,27.137524,27.173306,27.202343,27.235123,27.269506,27.296474,27.33033,27.354164,27.3816,27.406292,27.42575,27.450989,27.47022,27.49695,27.524687,27.551199,27.59021,27.623413,27.669212,27.710117,27.751705,27.79877,27.833302,27.87675,27.908653,27.942703,27.977112,28.003132,28.038826,28.067394,28.105797,28.145382,28.175919,28.216654,28.247887,28.286663,28.320961,28.351826,28.38242,28.398926,28.421654,28.441366,28.46074,28.4861,28.507442,28.53739,28.563,28.592306,28.62542,28.651348,28.68725,28.714771,28.743462,28.76804,28.785889,28.81041,28.830124,28.856422,28.882019,28.90429,28.932198,28.952765,28.979954,29.003986,29.027948,29.056217,29.077011,29.1056,29.129576,29.155632,29.186203,29.211445,29.24599,29.272999,29.304523,29.33543,29.359844,29.388435,29.407108,29.428963,29.447586,29.463055,29.482834,29.497929,29.51937,29.540468,29.561834,29.58971,29.611717,29.64228,29.66839,29.696459,29.727478,29.750912,29.781816,29.805214,29.831446,29.857777,29.878864,29.907204,29.929016,29.956741,29.984455,30.009205,30.040207,30.062454,30.090221,30.113003,30.133099,30.155155,30.170488,30.190655,30.207115,30.22472,30.24427,30.258928,30.278591,30.293804,30.310715,30.327797,30.34122,30.359291,30.373152,30.390266,30.407711,30.423338,30.444485,30.46077,30.482744,30.503296,30.522903,30.544662,30.558884,30.576601,30.590004,30.603237,30.617485,30.627892,30.64323,30.657019,30.675034,30.696703,30.714512,30.73953,30.759228,30.782524,30.805405,30.824934,30.85067,30.870068,30.895344,30.919481,30.942287,30.972488,30.996216,31.02803,31.054966,31.082054,31.110188,31.129133,31.152512,31.169313,31.187508,31.206747,31.222063,31.244556,31.263546,31.288494,31.315022,31.337032,31.365887,31.387424,31.414253,31.438427,31.459845,31.486864,31.50734,31.53542,31.560808,31.586828,31.618496,31.64311,31.675743,31.701153,31.72837,31.753946,31.771097,31.790974,31.803947,31.818966,31.83348,31.845325,31.862782,31.877392,31.896149,31.913683,31.928787,31.946474,31.958778,31.973839,31.985771,31.996925,32.01055,32.021393,32.0372,32.051476,32.06852,32.08842,32.10415,32.123775,32.13734,32.15185,32.162983,32.169838,32.176,32.17901,32.183388,32.188087,32.19235,32.20004,32.207466,32.218853,32.230038,32.24032,32.25206,32.260586,32.270573,32.27715,32.2828,32.28782,32.291573,32.296295,32.29994,32.304836,32.31076,32.31608,32.32312,32.328297,32.33484,32.340416,32.34448,32.34822,32.35012,32.35262,32.3546,32.356037,32.358402,32.36074,32.365406,32.370617,32.376244,32.383408,32.3894,32.397404,32.40345,32.409836,32.416298,32.421684,32.428738,32.433968,32.44052,32.446766,32.45227,32.457817,32.46067,32.462997,32.462517,32.460423,32.454636,32.448463,32.439873,32.432285,32.42417,32.4168,32.412712,32.410072,32.410362,32.411217,32.413795,32.416695,32.420547,32.42315,32.425415,32.426968,32.42829,32.42981,32.43082,32.43218,32.43335,32.434677,32.434753
