19.043655,19.079258,19.116837,19.145882,19.170568,19.187645,19.195675,19.20426,19.21535,19.232918,19.255163,19.293257,19.347824,19.401924,19.466646,19.54458,19.615566,19.68304,19.766838,19.847633,19.916,20.0001,20.084728,20.15411,20.237274,20.328575,20.40697,20.490635,20.586882,20.673794,20.755081,20.851421,20.94001,21.012508,21.09557,21.175632,21.240559,21.315807,21.398018,21.469524,21.546974,21.63885,21.722786,21.79781,21.888294,21.97396,22.044115,22.129114,22.215961,22.2875,22.370129,22.462934,22.544907,22.62936,22.728882,22.819866,22.900372,22.994942,23.083202,23.155006,23.240757,23.329487,23.403765,23.490177,23.588247,23.675064,23.762741,23.86671,23.963459,24.049332,24.156387,24.262743,24.35048,24.45707,24.568283,24.659317,24.759182,24.868881,24.963568,25.05387,25.160198,25.259163,25.345242,25.451595,25.558594,25.647945,25.756773,25.873892,25.972738,26.082787,26.210087,26.325794,26.437946,26.575184,26.704494,26.813017,26.941086,27.060825,27.15254,27.256115,27.363785,27.454695,27.553144,27.668919,27.775673,27.87539,27.99696,28.11454,28.215649,28.343517,28.47971,28.596693,28.734161,28.885336,29.015461,29.152966,29.31102,29.453545,29.584026,29.74295,29.896824,30.027176,30.188997,30.355898,30.492935,30.653137,30.825262,30.969534,31.119596,31.296808,31.46244,31.614174,31.80677,32.002064,32.17017,32.37243,32.572273,32.726826,32.890102,33.052452,33.184067,33.319653,33.489616,33.66134,33.823994,34.044106,34.26949,34.451477,34.647415,34.8436,35.012,35.19589,35.404755,35.59599,35.794903,36.031464,36.24717,36.431217,36.65388,36.8731,37.055046,37.275864,37.51021,37.70529,37.920364,38.159164,38.367363,38.56615,38.809242,39.044296,39.250008,39.5084,39.773643,39.99601,40.26416,40.55137,40.79106,41.049347,41.341324,41.60178,41.84821,42.147114,42.431534,42.673553,42.966972,43.26024,43.50052,43.78421,44.09738,44.37165,44.67587,45.0279,45.343124,45.634407,45.98512,46.31373,46.583656,46.90226,47.210045,47.451366,47.718697,48.002243,48.245064,48.49713,48.800953,49.0885,49.35163,49.676857,49.975883,50.201164,50.438225,50.65571,50.83055,51.018383,51.20347,51.346474,51.48265,51.632744,51.76647,51.885914,52.036415,52.18395,52.30349,52.43955,52.562344,52.647278,52.725746,52.788696,52.826645,52.85513,52.878254,52.893555,52.905437,52.924664,52.94835,52.969765,52.99417,53.016773,53.03124,53.03654,53.017544,52.979538,52.93493,52.872875,52.811913,52.762215,52.702736,52.64895,52.610268,52.566795,52.51998,52.477722,52.434315,52.35885,52.260742,52.14674,52.01552,51.90767,51.826168,51.74391,51.677395,51.6285,51.568474,51.500954,51.44021,51.369778,51.282192,51.200546,51.128162,51.03544,50.94933,50.885025,50.823807,50.793633,50.794617,50.82362,50.897785,50.99163,51.11006,51.266655,51.42166,51.569572,51.764267,51.974396,52.167267,52.43418,52.745712,53.022408,53.342995,53.66423,53.894646,54.073196,54.25162,54.403362,54.532524,54.68328,54.818886,54.92413,55.01699,55.083717,55.127563,55.155422,55.15966,55.145645,55.12077,55.079494,55.03768,55.00525,54.97103,54.94563,54.930832,54.916145,54.90016
19.047186,19.082478,19.12014,19.14975,19.17535,19.19396,19.20356,19.213303,19.225418,19.243656,19.266323,19.304691,19.359339,19.4134,19.47793,19.555414,19.625868,19.69281,19.776163,19.8569,19.925522,20.010143,20.095537,20.165684,20.249645,20.341806,20.420883,20.5047,20.601465,20.689281,20.771313,20.868412,20.957558,21.030449,21.11387,21.194187,21.259296,21.334774,21.417244,21.488977,21.566858,21.658325,21.741314,21.81601,21.906422,21.992191,22.062386,22.147415,22.23436,22.3061,22.389133,22.482677,22.56547,22.650805,22.751041,22.842281,22.92283,23.017044,23.10471,23.17604,23.261429,23.349876,23.423897,23.510298,23.608463,23.695368,23.783215,23.887394,23.984161,24.069777,24.17622,24.281782,24.36884,24.474789,24.585732,24.676888,24.777073,24.887209,24.982197,25.072666,25.178865,25.277468,25.363224,25.469162,25.575645,25.66445,25.772617,25.888935,25.987019,26.096191,26.222584,26.337612,26.449188,26.585886,26.714998,26.823689,26.952232,27.072662,27.164978,27.269138,27.376972,27.467552,27.565273,27.67987,27.785507,27.884314,28.0053,28.122911,28.224354,28.353043,28.49038,28.60836,28.747505,28.899984,29.030403,29.168106,29.325888,29.46774,29.597488,29.755322,29.907894,30.03696,30.197027,30.36186,30.497025,30.654543,30.824158,30.966755,31.113882,31.288723,31.453352,31.604118,31.795982,31.990978,32.158993,32.360832,32.559837,32.71334,32.874313,33.0327,33.159607,33.289154,33.45002,33.612057,33.76605,33.973915,34.192833,34.378315,34.592186,34.800858,34.9645,35.155704,35.368652,35.55368,35.738342,35.9601,36.168633,36.351913,36.5745,36.79414,36.976616,37.19771,37.4318,37.626244,37.84043,38.077446,38.283073,38.478447,38.715927,38.94422,39.14331,39.393078,39.64942,39.864494,40.12399,40.403038,40.63698,40.88905,41.174103,41.428493,41.66922,41.962395,42.24341,42.48439,42.777412,43.07165,43.313736,43.60047,43.917133,44.194107,44.50164,44.858803,45.179092,45.47435,45.825333,46.148746,46.410965,46.719193,47.01646,47.25003,47.509087,47.784943,48.022198,48.26909,48.566692,48.85103,49.117218,49.44901,49.763634,50.013382,50.28884,50.53052,50.701496,50.889614,51.076263,51.221676,51.36019,51.513,51.648758,51.769318,51.919968,52.06611,52.18347,52.31646,52.43666,52.52047,52.59771,52.660088,52.698715,52.729652,52.75701,52.77692,52.793095,52.81653,52.842438,52.86428,52.88329,52.8964,52.902832,52.90035,52.87966,52.84761,52.81388,52.761566,52.70567,52.659428,52.60698,52.564407,52.537975,52.509476,52.475792,52.440624,52.399155,52.331993,52.251026,52.15966,52.05368,51.96505,51.897167,51.82779,51.771362,51.7303,51.68101,51.628536,51.583992,51.534363,51.47449,51.41751,51.362774,51.287796,51.20978,51.142563,51.065323,51.008198,50.98378,50.981644,51.021584,51.086906,51.175377,51.295406,51.41462,51.52791,51.67866,51.846046,52.003487,52.234093,52.518497,52.78083,53.101364,53.467636,53.7698,54.018665,54.24537,54.415253,54.569077,54.745903,54.898125,55.008957,55.1086,55.181274,55.229164,55.259735,55.266388,55.25479,55.232143,55.19413,55.15647,55.128807,55.101093,55.082325,55.0729,55.062828,55.04897
19.05065,19.085915,19.124023,19.154514,19.181301,19.201698,19.212996,19.22393,19.237051,19.255848,19.278786,19.317244,19.371763,19.425613,19.489742,19.566553,19.636269,19.702454,19.785076,19.865494,19.93418,20.01914,20.105225,20.176174,20.261059,20.354202,20.43404,20.51831,20.615917,20.704842,20.78784,20.885962,20.975924,21.049438,21.133514,21.21437,21.279848,21.35577,21.438438,21.509993,21.587456,21.67802,21.760178,21.834717,21.925104,22.010948,22.081257,22.16643,22.253647,22.325756,22.409342,22.50373,22.587414,22.673721,22.774666,22.86611,22.94677,23.040695,23.127808,23.19868,23.283745,23.37201,23.445917,23.532352,23.630669,23.717768,23.805927,23.910513,24.007524,24.093105,24.199215,24.304237,24.390816,24.496304,24.60707,24.69837,24.798859,24.909351,25.004517,25.095018,25.20092,25.299,25.384281,25.489605,25.595348,25.683392,25.790577,25.905682,26.002632,26.110504,26.235516,26.349487,26.46017,26.596003,26.724678,26.833374,26.962265,27.083359,27.17633,27.281265,27.3894,27.479649,27.576897,27.6908,27.795837,27.8942,28.015034,28.132874,28.234686,28.363968,28.501701,28.619667,28.75965,28.913296,29.044424,29.18217,29.33952,29.480715,29.609737,29.766422,29.917488,30.04495,30.202728,30.364931,30.497818,30.652042,30.818798,30.959835,31.104595,31.276852,31.43982,31.589996,31.78125,31.975685,32.143303,32.344425,32.542633,32.695534,32.855366,33.011795,33.13618,33.26202,33.41681,33.572,33.719772,33.91881,34.128937,34.307514,34.52617,34.744522,34.912777,35.107254,35.322212,35.50706,35.687798,35.899124,36.09623,36.27319,36.490425,36.707527,36.889523,37.110607,37.344833,37.539078,37.753212,37.99006,38.1952,38.3897,38.624977,38.849552,39.04403,39.28739,39.536507,39.745193,39.996742,40.267994,40.496277,40.74192,41.019783,41.268074,41.5033,41.791283,42.068314,42.305542,42.594845,42.886738,43.127945,43.414543,43.731636,44.009205,44.31809,44.67923,45.0045,45.30371,45.657043,45.979355,46.238266,46.54094,46.830276,47.055855,47.306625,47.57468,47.806206,48.047543,48.33893,48.61683,48.87534,49.195435,49.504906,49.761032,50.058647,50.32518,50.508327,50.70793,50.899406,51.043297,51.18081,51.33236,51.46814,51.59037,51.747005,51.902103,52.02771,52.168396,52.29035,52.370285,52.445084,52.50628,52.54471,52.574234,52.60065,52.617893,52.626915,52.639313,52.65327,52.665604,52.67334,52.674843,52.67199,52.65954,52.63494,52.605743,52.57418,52.524338,52.470722,52.42666,52.378372,52.342426,52.32339,52.304955,52.281853,52.2542,52.217247,52.157227,52.088974,52.019325,51.938446,51.86944,51.815865,51.760357,51.71505,51.68258,51.6453,51.609177,51.58177,51.554356,51.524895,51.496975,51.466507,51.42035,51.364964,51.31031,51.23787,51.17228,51.132942,51.10961,51.121834,51.16108,51.220425,51.303413,51.385986,51.46415,51.57015,51.69271,51.811783,51.996162,52.236122,52.465572,52.754498,53.11662,53.449577,53.769417,54.072792,54.28732,54.46215,54.665154,54.8436,54.97462,55.09451,55.18231,55.2389,55.27796,55.293133,55.288986,55.273266,55.24383,55.21495,55.19582,55.178562,55.169266,55.166805,55.16201,55.14967
19.054417,19.089802,19.128445,19.159805,19.18766,19.20957,19.222242,19.234097,19.247955,19.267065,19.290064,19.328396,19.38261,19.43613,19.49975,19.575798,19.644726,19.710081,19.791855,19.871761,19.940304,20.025337,20.11187,20.183455,20.269146,20.363056,20.443405,20.528296,20.62682,20.716724,20.800625,20.89975,20.990551,21.06469,21.149471,21.230919,21.296785,21.37315,21.455853,21.526913,21.603214,21.693037,21.775179,21.849522,21.939774,22.025652,22.096107,22.18152,22.26913,22.3417,22.425879,22.521091,22.605595,22.692753,22.794338,22.886017,22.966846,23.06065,23.147411,23.217989,23.30281,23.390968,23.464882,23.551336,23.64981,23.737167,23.825588,23.93058,24.02795,24.113693,24.21978,24.324612,24.411,24.5163,24.627045,24.718485,24.819216,24.929922,25.025127,25.115536,25.221062,25.318588,25.403353,25.508,25.612946,25.700207,25.806358,25.920223,26.01604,26.122599,26.246204,26.359097,26.468884,26.603823,26.731983,26.84056,26.969614,27.091158,27.184631,27.29026,27.398754,27.488869,27.586018,27.699821,27.80485,27.903294,28.024385,28.142565,28.244663,28.374073,28.51154,28.628983,28.768635,28.92276,29.054789,29.192364,29.349144,29.489746,29.618122,29.773758,29.923363,30.049217,30.204689,30.364285,30.494984,30.646217,30.810507,30.95044,31.09422,31.26447,31.425377,31.575037,31.765839,31.959816,32.127003,32.32746,32.525192,32.678062,32.837997,32.994537,33.118683,33.24357,33.396267,33.548744,33.693825,33.889122,34.09424,34.267166,34.476395,34.6966,34.879124,35.067535,35.275276,35.462486,35.652184,35.86534,36.05429,36.221436,36.42926,36.64035,36.81913,37.037773,37.270016,37.46232,37.674694,37.91029,38.114834,38.30883,38.543083,38.765755,38.957687,39.196907,39.440712,39.644344,39.88934,40.152874,40.374275,40.61224,40.881935,41.123787,41.353508,41.63624,41.90857,42.140633,42.424095,42.71089,42.94851,43.231388,43.545578,43.8218,44.130714,44.49318,44.820065,45.120216,45.475586,45.800003,46.06002,46.36216,46.647507,46.867195,47.112343,47.37494,47.602123,47.839058,48.12477,48.396767,48.649582,48.96227,49.262314,49.50724,49.791573,50.062756,50.26995,50.487167,50.685745,50.826904,50.96253,51.111725,51.24749,51.372818,51.540268,51.711708,51.852665,52.008587,52.13625,52.2118,52.283176,52.34088,52.37589,52.399033,52.417694,52.42478,52.418205,52.409363,52.40256,52.39928,52.395992,52.391403,52.384636,52.36831,52.33905,52.305073,52.267242,52.217896,52.17125,52.133476,52.089947,52.055176,52.03505,52.01657,51.99729,51.976807,51.9505,51.907158,51.85604,51.80127,51.7371,51.682056,51.638916,51.593777,51.556885,51.5308,51.50231,51.478493,51.46426,51.453186,51.445587,51.440125,51.43358,51.413597,51.37989,51.342857,51.288277,51.23075,51.18862,51.157227,51.15412,51.17646,51.215813,51.272827,51.32997,51.38434,51.46003,51.551308,51.64251,51.790714,51.989838,52.182938,52.42788,52.74443,53.053555,53.3947,53.765003,54.046276,54.242855,54.468292,54.671745,54.828953,54.978527,55.08937,55.157467,55.209457,55.237984,55.24511,55.239975,55.223106,55.20623,55.19814,55.19388,55.196014,55.201897,55.203697,55.194084
19.058767,19.094326,19.133568,19.165798,19.194595,19.217865,19.231789,19.24448,19.258976,19.278316,19.301304,19.339428,19.393244,19.446354,19.50938,19.584568,19.652597,19.717022,19.797798,19.877066,19.945332,20.030298,20.117167,20.189312,20.275768,20.3703,20.45097,20.536663,20.636204,20.726986,20.811699,20.911865,21.003523,21.078098,21.163292,21.245075,21.311201,21.387611,21.470251,21.541245,21.617281,21.70673,21.788574,21.862734,21.952835,22.03872,22.109339,22.195026,22.283098,22.356186,22.440996,22.537018,22.622278,22.710184,22.812366,22.904297,22.985245,23.078896,23.165318,23.235615,23.320309,23.408432,23.482304,23.56886,23.667622,23.75532,23.844044,23.94951,24.047335,24.133347,24.23958,24.344406,24.430737,24.536001,24.646791,24.738358,24.839281,24.950134,25.045319,25.135544,25.240631,25.337574,25.421797,25.525772,25.629955,25.716461,25.821619,25.934296,26.029034,26.134312,26.256567,26.368431,26.477375,26.611483,26.73918,26.847694,26.976917,27.098885,27.192825,27.299171,27.407997,27.497892,27.5952,27.709183,27.814304,27.912935,28.034302,28.152733,28.255024,28.384289,28.521519,28.638943,28.77816,28.931988,29.064098,29.201473,29.357883,29.498007,29.625834,29.780544,29.928772,30.053017,30.206158,30.363129,30.491667,30.64,30.801933,30.940905,31.084045,31.253601,31.413326,31.560654,31.750637,31.944963,32.111835,32.31179,32.50927,32.662346,32.822952,32.980526,33.1055,33.230816,33.383244,33.53473,33.67868,33.871563,34.07332,34.24314,34.447163,34.6585,34.832123,35.025215,35.24087,35.429565,35.61077,35.824577,36.020195,36.184254,36.38764,36.592796,36.764755,36.978622,37.20691,37.39531,37.60382,37.837563,38.042427,38.236343,38.47014,38.69162,38.881836,39.117985,39.357548,39.557003,39.79657,40.05377,40.269608,40.50142,40.763947,40.999237,41.222507,41.49721,41.763245,41.99243,42.2723,42.55519,42.789307,43.067955,43.37934,43.65517,43.964523,44.328087,44.656296,44.958336,45.315674,45.640896,45.90061,46.1995,46.481064,46.699257,46.943787,47.20404,47.426903,47.65921,47.938904,48.20468,48.451218,48.755188,49.045555,49.281494,49.555145,49.816315,50.01645,50.226555,50.426136,50.575886,50.719505,50.877953,51.020927,51.151184,51.321373,51.49186,51.62996,51.782494,51.909733,51.98768,52.053032,52.095757,52.114323,52.124733,52.12892,52.12667,52.119858,52.11381,52.110245,52.10795,52.10461,52.0982,52.08893,52.07036,52.039635,52.005577,51.968636,51.92147,51.877228,51.84109,51.798225,51.762894,51.74189,51.723354,51.70642,51.689983,51.668236,51.632607,51.590736,51.5458,51.493256,51.448368,51.413364,51.37655,51.346436,51.32527,51.303383,51.288765,51.284588,51.286568,51.297775,51.311882,51.323914,51.327457,51.315445,51.29484,51.257355,51.212128,51.17613,51.143982,51.13228,51.14333,51.16841,51.2068,51.246178,51.284393,51.339466,51.40873,51.479675,51.598278,51.75986,51.9171,52.117294,52.3814,52.647644,52.947376,53.332405,53.680492,53.948185,54.20623,54.41221,54.586876,54.77974,54.928516,55.00544,55.073067,55.119156,55.14099,55.150074,55.15044,55.150406,55.15794,55.173225,55.194,55.214333,55.23008,55.230827
19.064129,19.099789,19.139374,19.172308,19.202362,19.227207,19.242409,19.25597,19.271156,19.290714,19.313614,19.351385,19.40459,19.457073,19.519215,19.593212,19.660072,19.723282,19.802711,19.881027,19.948805,20.03352,20.120647,20.193361,20.280647,20.375923,20.457024,20.543629,20.64423,20.735868,20.82151,20.922283,21.014141,21.088896,21.174583,21.256998,21.323578,21.400347,21.483223,21.554298,21.630178,21.719261,21.800724,21.874546,21.964422,22.050343,22.121174,22.20723,22.295895,22.369646,22.455269,22.55225,22.638338,22.727036,22.829773,22.921844,23.002789,23.096153,23.18214,23.252104,23.336662,23.424805,23.4987,23.585457,23.684656,23.772852,23.861998,23.968094,24.066551,24.15302,24.259586,24.364555,24.45097,24.556316,24.667183,24.75882,24.85987,24.970749,25.065765,25.155672,25.260197,25.356487,25.440096,25.543335,25.646736,25.73251,25.83667,25.948183,26.041903,26.145977,26.266968,26.377895,26.486088,26.619516,26.746925,26.855549,26.985157,27.107765,27.20235,27.309708,27.419163,27.50903,27.606747,27.72115,27.826506,27.925392,28.046997,28.165524,28.267757,28.397026,28.53415,28.651308,28.79002,28.94315,29.074715,29.212046,29.36844,29.508335,29.635788,29.789677,29.936481,30.058949,30.209488,30.36351,30.489628,30.635225,30.794697,30.932247,31.074797,31.244272,31.403719,31.549799,31.737938,31.931032,32.097954,32.297462,32.494606,32.647915,32.80947,32.968903,33.09581,33.22254,33.377388,33.5309,33.67515,33.865906,34.06366,34.229897,34.42893,34.631355,34.794685,34.98352,35.199177,35.390484,35.578197,35.795948,35.99063,36.152645,36.35318,36.554703,36.722855,36.92973,37.150917,37.33528,37.540207,37.769875,37.971447,38.164654,38.398087,38.618748,38.807587,39.041176,39.27709,39.472878,39.70768,39.959343,40.17032,40.396774,40.652855,40.88192,41.09881,41.365227,41.62381,41.847946,42.121445,42.397797,42.626526,42.89911,43.2052,43.478256,43.787354,44.155304,44.48899,44.792114,45.149567,45.473724,45.731674,46.02614,46.302628,46.517677,46.758987,47.016907,47.238632,47.470463,47.746185,48.004784,48.24408,48.537865,48.816887,49.04235,49.303307,49.551075,49.740055,49.94005,50.136642,50.290573,50.438988,50.604065,50.75238,50.885773,51.055847,51.222275,51.355183,51.500946,51.622765,51.698097,51.756138,51.78688,51.793915,51.79573,51.79174,51.785805,51.781105,51.779762,51.781002,51.781357,51.779266,51.77192,51.760773,51.740677,51.70935,51.67604,51.64097,51.59635,51.55427,51.5197,51.478165,51.441925,51.417744,51.395443,51.376026,51.359596,51.339813,51.30947,51.27433,51.236275,51.19161,51.15347,51.12394,51.09268,51.06681,51.048393,51.030003,51.0208,51.023262,51.03428,51.059456,51.088993,51.116325,51.140137,51.148014,51.14363,51.123352,51.09085,51.061455,51.0318,51.01583,51.018913,51.03351,51.059704,51.08951,51.12053,51.167248,51.226704,51.287277,51.384865,51.51249,51.63295,51.78288,51.98037,52.183975,52.41828,52.75479,53.10511,53.422707,53.767254,54.036697,54.21203,54.434258,54.62706,54.738037,54.829483,54.896355,54.93721,54.964935,54.988068,55.010605,55.039406,55.08228,55.130947,55.17423,55.215065,55.238503
19.06907,19.104795,19.144548,19.177998,19.209238,19.235512,19.25182,19.266182,19.28205,19.301868,19.324686,19.362085,19.414608,19.466373,19.527512,19.600222,19.665873,19.72785,19.805885,19.883167,19.950375,20.03474,20.122034,20.195227,20.283249,20.379234,20.46077,20.548107,20.649513,20.741722,20.827868,20.928616,21.020187,21.095007,21.181213,21.264385,21.331528,21.408928,21.49231,21.563583,21.63937,21.728165,21.809292,21.882748,21.97237,22.058327,22.129374,22.215828,22.30511,22.379496,22.465885,22.563696,22.65042,22.7397,22.842747,22.934757,23.015547,23.108555,23.194132,23.263798,23.348251,23.436464,23.510456,23.597464,23.697124,23.785822,23.875408,23.982145,24.081272,24.168282,24.2753,24.380547,24.467167,24.572681,24.683601,24.77521,24.876257,24.986979,25.081688,25.1712,25.275154,25.370855,25.453926,25.55655,25.659332,25.744572,25.847988,25.958672,26.0517,26.154972,26.275154,26.385536,26.493332,26.626497,26.753979,26.86296,26.993202,27.11663,27.211964,27.32043,27.430689,27.52076,27.61899,27.733856,27.839428,27.938461,28.060097,28.178474,28.280434,28.40969,28.546745,28.663513,28.801895,28.954369,29.085215,29.222734,29.379543,29.519611,29.647045,29.80052,29.946276,30.067299,30.215622,30.367088,30.491121,30.634682,30.792114,30.92817,31.070192,31.239857,31.399776,31.546349,31.732855,31.923832,32.090576,32.28974,32.486805,32.64044,32.80316,32.964912,33.09442,33.223618,33.38223,33.538834,33.6839,33.873188,34.06718,34.229248,34.42398,34.621452,34.77954,34.958576,35.16658,35.358753,35.55954,35.78305,35.97355,36.13375,36.332554,36.533024,36.700867,36.90281,37.117676,37.298416,37.500813,37.726982,37.924873,38.116238,38.34908,38.569786,38.75797,38.990257,39.22419,39.417908,39.65009,39.8988,40.10724,40.33088,40.583477,40.808952,41.02185,41.282913,41.535797,41.75457,42.0213,42.290985,42.514603,42.781757,43.082455,43.351685,43.659435,44.03083,44.36993,44.675583,45.0338,45.356308,45.611492,45.90182,46.173557,46.384697,46.621536,46.87728,47.09979,47.33312,47.608124,47.8631,48.09825,48.384476,48.654068,48.871,49.121803,49.359978,49.54202,49.73619,49.928642,50.080635,50.22888,50.3956,50.546112,50.681053,50.85186,51.017017,51.14731,51.28842,51.403496,51.472305,51.52413,51.549175,51.55225,51.550556,51.544662,51.53873,51.53418,51.533405,51.535316,51.53605,51.53368,51.52512,51.51249,51.491302,51.45976,51.42724,51.393646,51.351116,51.310577,51.276543,51.235207,51.19732,51.1698,51.14332,51.119904,51.10118,51.080963,51.05213,51.019226,50.983093,50.940136,50.902542,50.872467,50.84038,50.813526,50.794266,50.77516,50.765945,50.769188,50.78185,50.810795,50.845833,50.879883,50.914185,50.934113,50.940926,50.933563,50.911266,50.887287,50.862106,50.846497,50.846443,50.856407,50.87933,50.909733,50.943844,50.996407,51.06109,51.12448,51.21638,51.32453,51.419075,51.52895,51.667503,51.81157,51.9858,52.242382,52.535107,52.842484,53.25084,53.604507,53.80832,54.048706,54.268467,54.421516,54.53476,54.61807,54.675735,54.72084,54.766647,54.81363,54.86735,54.94323,55.02727,55.101887,55.17923,55.239002
19.072952,19.108818,19.148937,19.182981,19.215008,19.242332,19.25959,19.274656,19.29117,19.311295,19.334112,19.37122,19.423138,19.47425,19.534496,19.606066,19.67065,19.731579,19.808428,19.88483,19.95154,20.035606,20.123016,20.196589,20.28521,20.381746,20.463573,20.551418,20.65337,20.74585,20.831848,20.932384,21.023949,21.09901,21.185654,21.269375,21.336985,21.414896,21.498741,21.570274,21.646078,21.734715,21.815617,21.88883,21.978233,22.064175,22.135403,22.222244,22.312073,22.386955,22.473919,22.572285,22.659378,22.748962,22.852104,22.943968,23.024548,23.117247,23.202536,23.272003,23.356419,23.444729,23.518837,23.606071,23.70611,23.795202,23.885147,23.992428,24.092134,24.179646,24.287128,24.392712,24.479595,24.585283,24.696228,24.787764,24.888712,24.999199,25.09358,25.18271,25.286171,25.38139,25.46405,25.566204,25.668537,25.753387,25.85631,25.966454,26.059048,26.161827,26.281576,26.391727,26.499407,26.632618,26.760403,26.869877,27.000835,27.125086,27.221134,27.33057,27.441544,27.531841,27.63052,27.745737,27.851416,27.950462,28.071949,28.190063,28.291767,28.420704,28.557505,28.674166,28.81241,28.96453,29.094988,29.2328,29.39017,29.530636,29.658266,29.811665,29.95681,30.076855,30.223545,30.373077,30.495548,30.637535,30.793423,30.92839,31.07003,31.239775,31.400112,31.547518,31.733818,31.923653,32.089363,32.288223,32.4857,32.639893,32.803993,32.968124,33.100266,33.232773,33.394352,33.552216,33.697433,33.886276,34.077866,34.235657,34.426395,34.620262,34.775383,34.951263,35.15541,35.344475,35.543427,35.771797,35.968452,36.126705,36.323658,36.52285,36.68952,36.89105,37.10365,37.28026,37.480145,37.706192,37.904892,38.09357,38.325474,38.547142,38.735397,38.967506,39.200912,39.393936,39.62535,39.873306,40.081158,40.304115,40.555794,40.780083,40.991207,41.249634,41.499504,41.715385,41.978302,42.24414,42.46483,42.728928,43.02671,43.293728,43.599476,43.968407,44.307343,44.619408,44.98226,45.304573,45.557182,45.844414,46.113365,46.322697,46.558067,46.812508,47.033836,47.26535,47.540844,47.79785,48.03376,48.316544,48.57967,48.791092,49.035454,49.267754,49.445778,49.63708,49.82746,49.978264,50.12683,50.29554,50.44896,50.58676,50.761932,50.929802,51.059372,51.19834,51.309795,51.374996,51.422295,51.44163,51.439426,51.43258,51.42154,51.412148,51.40548,51.40305,51.403923,51.40384,51.400238,51.39007,51.376015,51.35381,51.322113,51.290302,51.257935,51.21693,51.17653,51.14056,51.09548,51.05426,51.02558,50.998623,50.974945,50.95556,50.934093,50.903496,50.868843,50.831005,50.78564,50.744194,50.70845,50.670105,50.638233,50.615845,50.594116,50.582184,50.582577,50.592087,50.61779,50.651077,50.684975,50.72253,50.748787,50.762203,50.764366,50.75187,50.734863,50.715286,50.702248,50.70216,50.711056,50.735252,50.770523,50.81143,50.874966,50.95098,51.02315,51.11841,51.218956,51.299118,51.38333,51.480537,51.58091,51.70903,51.910168,52.152695,52.411865,52.786575,53.171486,53.4728,53.74372,53.96579,54.14154,54.266617,54.359917,54.428917,54.487026,54.551918,54.62204,54.701653,54.81166,54.933327,55.042984,55.160866,55.264214
19.075516,19.111595,19.15211,19.186687,19.219345,19.247753,19.266203,19.28225,19.299793,19.320591,19.343658,19.380648,19.432018,19.482452,19.541698,19.611942,19.675297,19.735035,19.810532,19.885933,19.952118,20.035885,20.123478,20.19751,20.28687,20.383953,20.465916,20.554237,20.656849,20.749565,20.834684,20.934784,21.026522,21.101696,21.18873,21.273046,21.34119,21.419739,21.504185,21.576067,21.65194,21.74046,21.821175,21.89418,21.98344,22.069456,22.140942,22.228256,22.318684,22.394073,22.481525,22.58024,22.667463,22.757072,22.860016,22.951542,23.031792,23.124117,23.20911,23.278383,23.362755,23.45114,23.525322,23.612713,23.71307,23.80254,23.892815,24.000637,24.100964,24.189034,24.297054,24.40303,24.49019,24.596014,24.706808,24.798035,24.898615,25.008537,25.102308,25.190842,25.293674,25.38838,25.470592,25.57228,25.67419,25.758667,25.861053,25.970617,26.062763,26.165077,26.284435,26.394413,26.502079,26.63549,26.76375,26.873867,27.005795,27.13117,27.228203,27.338497,27.450216,27.541092,27.64022,27.755571,27.861032,27.959717,28.080595,28.198061,28.29926,28.427837,28.564054,28.67977,28.817705,28.969868,29.100435,29.238646,29.396736,29.537899,29.66602,29.819689,29.964489,30.083693,30.22883,30.376385,30.49718,30.6374,30.79147,30.925081,31.065956,31.235458,31.396091,31.544157,31.731297,31.921087,32.085403,32.28431,32.482956,32.63835,32.804596,32.972107,33.107574,33.242775,33.40664,33.56526,33.7098,33.89652,34.084755,34.239117,34.425514,34.61582,34.769276,34.943497,35.14725,35.334846,35.52192,35.74746,35.950607,36.111046,36.307865,36.50537,36.67106,36.87181,37.083553,37.25901,37.455597,37.680717,37.881264,38.06956,38.301987,38.524826,38.713463,38.945892,39.179398,39.372364,39.603897,39.85228,40.060688,40.284264,40.536507,40.76087,40.97139,41.22852,41.476593,41.69055,41.950874,42.214157,42.433018,42.695354,42.991585,43.25747,43.5623,43.930374,44.268993,44.58155,44.946747,45.271214,45.52382,45.808617,46.074333,46.28198,46.514523,46.76664,46.98717,47.218407,47.49392,47.75027,47.9838,48.264103,48.52441,48.732178,48.971863,49.199425,49.373943,49.562576,49.753174,49.906662,50.05829,50.23123,50.388496,50.52913,50.706688,50.875908,51.00638,51.144318,51.25284,51.31487,51.357887,51.3712,51.36283,51.349335,51.330956,51.315723,51.304615,51.29758,51.294674,51.29177,51.284737,51.271248,51.25489,51.231354,51.198364,51.165466,51.133087,51.092857,51.053825,51.01949,50.975807,50.93537,50.90712,50.880547,50.856712,50.836582,50.81357,50.78058,50.743256,50.70249,50.651024,50.603,50.563484,50.52101,50.485695,50.460968,50.436626,50.42108,50.41734,50.421616,50.440742,50.46862,50.49859,50.534775,50.563843,50.58219,50.593437,50.591667,50.58284,50.570793,50.562187,50.562996,50.571198,50.59665,50.636604,50.68399,50.758553,50.8469,50.929504,51.031425,51.129555,51.20083,51.266438,51.33091,51.39526,51.485184,51.63823,51.836037,52.056248,52.392883,52.76029,53.06392,53.37241,53.628677,53.803463,53.93042,54.027367,54.10344,54.1726,54.259163,54.360634,54.477505,54.63918,54.828842,55.01302,55.254013,55.437855
19.077457,19.113724,19.154505,19.1894,19.222385,19.251637,19.271248,19.288338,19.307125,19.328876,19.352406,19.389496,19.440475,19.490303,19.548592,19.617565,19.679752,19.73839,19.812653,19.887186,19.95296,20.036572,20.12444,20.198975,20.289145,20.386654,20.468433,20.557093,20.659756,20.751982,20.8362,20.935822,21.027584,21.10266,21.189917,21.274738,21.343372,21.422533,21.507605,21.579899,21.655901,21.744396,21.825024,21.897907,21.987133,22.073322,22.145126,22.232903,22.323853,22.39964,22.487381,22.586117,22.673111,22.762371,22.864788,22.955805,23.035652,23.127615,23.212395,23.28156,23.365917,23.454342,23.528547,23.61599,23.716507,23.80621,23.896702,24.004948,24.105824,24.194427,24.303005,24.409393,24.496836,24.60274,24.713211,24.803894,24.903835,25.012882,25.105804,25.193604,25.295738,25.389957,25.471783,25.573084,25.67466,25.758854,25.86082,25.969925,26.06173,26.163746,26.282898,26.392864,26.500687,26.634499,26.763397,26.87427,27.007317,27.134012,27.232218,27.343193,27.455574,27.547218,27.646729,27.76194,27.866802,27.964718,28.084503,28.20098,28.3015,28.429657,28.565239,28.679886,28.817621,28.97012,29.101065,29.239742,29.398636,29.540657,29.669426,29.823627,29.968395,30.087067,30.23104,30.377022,30.496475,30.635191,30.787771,30.920303,31.060123,31.228989,31.389713,31.5382,31.72651,31.916958,32.080376,32.27978,32.48,32.636917,32.805603,32.976826,33.115807,33.25379,33.41828,33.57529,33.71827,33.9015,34.085518,34.236717,34.41967,34.6073,34.759377,34.93321,35.135803,35.319817,35.49705,35.71747,35.923958,36.091076,36.28991,36.485676,36.650856,36.851265,37.06349,37.239838,37.435013,37.659767,37.86207,38.05265,38.28707,38.51084,38.69995,38.932804,39.166588,39.359734,39.591805,39.841164,40.050625,40.27533,40.528793,40.7539,40.964462,41.221245,41.46863,41.681713,41.94105,42.203743,42.422546,42.68515,42.981968,43.24836,43.553425,43.921432,44.25918,44.56904,44.932808,45.25717,45.509274,45.791847,46.05462,46.260254,46.49063,46.741444,46.96184,47.193336,47.4685,47.723534,47.95519,48.23343,48.491783,48.6976,48.935223,49.161377,49.335434,49.52472,49.71881,49.8773,50.033684,50.211884,50.373085,50.51619,50.694855,50.86468,50.996918,51.134575,51.241196,51.301315,51.341404,51.350033,51.336334,51.31658,51.290607,51.268646,51.251976,51.23864,51.230194,51.223133,51.21145,51.193657,51.17421,51.147995,51.113598,51.080925,51.04975,51.01196,50.976444,50.946434,50.90809,50.872017,50.846146,50.82168,50.799137,50.77949,50.75614,50.721878,50.68238,50.638,50.580723,50.527637,50.485962,50.441353,50.404396,50.378555,50.352333,50.33316,50.324768,50.32268,50.332985,50.352608,50.375595,50.406235,50.43435,50.455124,50.47332,50.481262,50.480465,50.47667,50.47358,50.475857,50.483543,50.509106,50.55123,50.601753,50.682945,50.780243,50.871853,50.978897,51.07734,51.147064,51.207893,51.261757,51.312695,51.386967,51.515953,51.685738,51.87803,52.170757,52.489525,52.750534,53.070107,53.337837,53.482246,53.599945,53.696983,53.77703,53.855698,53.963947,54.099373,54.258076,54.492355,54.747063,54.959793,55.15876,55.273624
19.079748,19.116081,19.156902,19.19186,19.2249,19.254612,19.27502,19.2929,19.312721,19.335348,19.359344,19.396624,19.447369,19.496737,19.554283,19.62228,19.683605,19.741447,19.814865,19.888855,19.954416,20.038055,20.126263,20.201237,20.292063,20.389793,20.471252,20.560059,20.662045,20.753082,20.836937,20.936203,21.027657,21.102495,21.189781,21.27491,21.34388,21.423454,21.509003,21.581644,21.65777,21.74628,21.826885,21.899725,21.98899,22.075367,22.14745,22.235584,22.32687,22.40287,22.490705,22.589237,22.675812,22.764557,22.866346,22.956867,23.03637,23.128082,23.21278,23.281944,23.366314,23.454756,23.528957,23.616375,23.716892,23.806654,23.897226,24.005726,24.106995,24.196018,24.305052,24.411793,24.49947,24.605408,24.715517,24.805614,24.904865,25.013014,25.105125,25.19224,25.293774,25.387611,25.469162,25.570194,25.671543,25.755562,25.857279,25.966118,26.05774,26.159636,26.27877,26.388855,26.496902,26.631144,26.760643,26.87218,27.006195,27.134037,27.233284,27.34478,27.457645,27.549929,27.6497,27.764614,27.868734,27.965754,28.084354,28.199821,28.299728,28.427416,28.562618,28.676857,28.814672,28.967493,29.0987,29.23777,29.397333,29.540035,29.669323,29.823975,29.968817,30.087208,30.230476,30.37553,30.494251,30.632084,30.783928,30.915989,31.054916,31.223122,31.383795,31.532528,31.721443,31.912415,32.075832,32.27591,32.477352,32.635483,32.806114,32.980255,33.122047,33.26288,33.426968,33.580826,33.721813,33.901333,34.081146,34.229267,34.409985,34.595764,34.74598,34.919464,35.11834,35.296814,35.47428,35.692883,35.898758,36.07345,36.275047,36.469532,36.63463,36.83531,37.048283,37.225502,37.42189,37.647293,37.850185,38.04409,38.2808,38.504868,38.694122,38.926926,39.16048,39.35338,39.585472,39.835133,40.044975,40.27,40.523857,40.74916,40.959373,41.215652,41.462578,41.675194,41.934456,42.19783,42.417747,42.68193,42.980656,43.24849,43.554245,43.922012,44.258476,44.566307,44.926216,45.246445,45.495705,45.775764,46.036304,46.239822,46.46969,46.72091,46.94158,47.172935,47.447746,47.70252,47.934612,48.210728,48.465927,48.670303,48.907326,49.13459,49.31079,49.503685,49.702553,49.865227,50.02571,50.208103,50.37219,50.51704,50.696518,50.866707,50.99992,51.13756,51.243366,51.302628,51.341362,51.347588,51.33085,51.307228,51.276104,51.249187,51.22825,51.20983,51.196693,51.186024,51.170532,51.14907,51.12665,51.09723,51.06225,51.031975,51.00358,50.969887,50.93876,50.91275,50.87954,50.848083,50.825207,50.803703,50.783726,50.765865,50.743828,50.710228,50.670284,50.62357,50.564545,50.510742,50.468018,50.42263,50.38546,50.359703,50.3329,50.311523,50.29976,50.292747,50.29574,50.30819,50.324986,50.35012,50.376183,50.397743,50.42022,50.435104,50.44055,50.44375,50.445774,50.449566,50.456535,50.480392,50.521145,50.570312,50.651604,50.75112,50.84609,50.95315,51.05146,51.123825,51.189735,51.25067,51.307243,51.385204,51.51247,51.67194,51.847553,52.105324,52.386604,52.625805,52.914654,53.14344,53.252274,53.35824,53.456326,53.540375,53.627777,53.754425,53.916256,54.106422,54.395027,54.659554,54.809982,54.800728,54.73907
19.083023,19.119352,19.160069,19.194893,19.227766,19.257698,19.278706,19.29721,19.317913,19.341333,19.365795,19.403252,19.453754,19.502663,19.559471,19.626514,19.687021,19.744158,19.816887,19.89048,19.955942,20.039738,20.128391,20.203854,20.29496,20.392765,20.474173,20.563019,20.664108,20.753765,20.83701,20.935696,21.026684,21.10117,21.188368,21.273685,21.342884,21.422783,21.508701,21.581604,21.65775,21.746155,21.82666,21.899471,21.98877,22.07531,22.147636,22.236101,22.327642,22.403732,22.491505,22.589668,22.675713,22.763817,22.86493,22.954992,23.034187,23.125738,23.210453,23.279678,23.364101,23.452553,23.526714,23.614037,23.71447,23.8042,23.894756,24.003414,24.105007,24.194408,24.303867,24.410942,24.498844,24.60477,24.714436,24.803867,24.902304,25.009445,25.100695,25.187069,25.287996,25.381489,25.462765,25.563522,25.664654,25.748512,25.85,25.958614,26.050106,26.151947,26.271122,26.381323,26.489578,26.6242,26.75422,26.86631,27.00116,27.13006,27.230341,27.342228,27.455486,27.54841,27.64839,27.762854,27.866035,27.96196,28.0792,28.193577,28.292866,28.419771,28.55458,28.668997,28.807104,28.960247,29.091667,29.23107,29.391163,29.534397,29.664043,29.818966,29.963793,30.081919,30.224602,30.368992,30.4873,30.62471,30.776264,30.908169,31.04668,31.214588,31.375307,31.524296,31.71375,31.905197,32.068687,32.26938,32.471905,32.631123,32.803535,32.980362,33.124706,33.267593,33.432606,33.585014,33.72235,33.896503,34.071587,34.21723,34.39427,34.576836,34.725494,34.89811,35.09607,35.27333,35.449593,35.66568,35.871605,36.053444,36.257458,36.45066,36.615883,36.817093,37.031067,37.209377,37.407272,37.632973,37.835884,38.03397,38.27324,38.49704,38.68598,38.918087,39.150673,39.342655,39.573914,39.822845,40.032127,40.256523,40.50969,40.734306,40.943542,41.19882,41.445126,41.657383,41.91703,42.181892,42.40372,42.670563,42.972168,43.241966,43.54872,43.915993,44.25048,44.55535,44.910873,45.226685,45.472538,45.74901,46.006958,46.209213,46.438297,46.68925,46.909897,47.141403,47.416096,47.670105,47.900703,48.175415,48.429276,48.63186,48.868046,49.096138,49.27413,49.470207,49.67354,49.84024,50.00454,50.19072,50.35728,50.50348,50.68328,50.85302,50.985924,51.125763,51.232967,51.29078,51.32879,51.333977,51.315685,51.28962,51.254974,51.22438,51.20005,51.177307,51.159973,51.146057,51.127052,51.1019,51.076397,51.04567,51.010605,50.98092,50.95344,50.922493,50.89501,50.871933,50.84254,50.81508,50.795567,50.777534,50.76073,50.74523,50.725132,50.69248,50.65268,50.60668,50.548306,50.49494,50.45265,50.408207,50.37246,50.34812,50.32228,50.300346,50.286594,50.27617,50.27363,50.280556,50.292896,50.313843,50.33782,50.35901,50.384525,50.40576,50.417686,50.429302,50.439285,50.447002,50.452644,50.471985,50.507538,50.551037,50.627266,50.721867,50.809883,50.914978,51.017838,51.097046,51.171326,51.241776,51.30581,51.390297,51.52033,51.6763,51.843773,52.092865,52.360886,52.583244,52.787857,52.938923,53.037453,53.13443,53.232994,53.3238,53.422554,53.573944,53.76355,53.98456,54.230286,54.358765,54.333214,54.403458,54.518967
19.088345,19.124489,19.16481,19.1992,19.231606,19.261406,19.28274,19.301682,19.323154,19.347366,19.372318,19.409998,19.460295,19.508743,19.564796,19.63089,19.690624,19.747131,19.819283,19.892616,19.958122,20.042233,20.131447,20.207466,20.298815,20.396606,20.477863,20.566195,20.666,20.754198,20.836536,20.934294,21.024534,21.09843,21.185284,21.27056,21.339813,21.419853,21.506023,21.579145,21.655308,21.743671,21.824177,21.897038,21.986462,22.073204,22.145767,22.234528,22.326233,22.402279,22.489815,22.58739,22.672707,22.759945,22.8602,22.94973,23.02857,23.119968,23.204765,23.274117,23.358624,23.447075,23.521172,23.608353,23.708595,23.798199,23.888687,23.997473,24.099394,24.189213,24.299175,24.406649,24.494768,24.600615,24.709688,24.798283,24.895725,25.001705,25.092,25.177612,25.277948,25.371124,25.452164,25.552666,25.653608,25.73735,25.838684,25.947205,26.038704,26.140667,26.260065,26.37052,26.479065,26.614122,26.744665,26.857296,26.99303,27.122784,27.223534,27.336376,27.450634,27.544073,27.644096,27.757864,27.85981,27.954174,28.069576,28.182579,28.281105,28.407179,28.541775,28.6567,28.795315,28.948917,29.080626,29.220356,29.380896,29.524536,29.654451,29.809578,29.954447,30.072495,30.21494,30.359161,30.47753,30.61507,30.766853,30.89893,31.03732,31.20506,31.365782,31.514978,31.704836,31.896841,32.06093,32.26233,32.465706,32.625805,32.799698,32.978867,33.125465,33.270065,33.43588,33.586987,33.72094,33.889538,34.059174,34.201435,34.374657,34.554413,34.701874,34.87378,35.071404,35.248253,35.423416,35.63701,35.842445,36.02942,36.23648,36.43013,36.59552,36.79751,37.012768,37.192326,37.391407,37.618618,37.82325,38.023952,38.264313,38.487175,38.675,38.905327,39.135796,39.325966,39.555244,39.802147,40.009697,40.232143,40.48314,40.70585,40.913124,41.16656,41.411953,41.623947,41.884693,42.15242,42.377632,42.648796,42.954742,43.22718,43.534714,43.9001,44.23053,44.53024,44.878624,45.187813,45.428947,45.700584,45.955322,46.15624,46.38432,46.63488,46.855576,47.087658,47.36303,47.617,47.84637,48.119354,48.37172,48.573334,48.808968,49.0379,49.217793,49.417248,49.625122,49.79577,49.963715,50.15322,50.321575,50.46839,50.64734,50.815002,50.94577,51.086018,51.19501,51.25382,51.29187,51.29699,51.2788,51.252335,51.21657,51.184296,51.158073,51.132404,51.111828,51.0953,51.073303,51.045143,51.01735,50.985268,50.949215,50.918983,50.89178,50.862373,50.83707,50.81575,50.7887,50.76384,50.746635,50.731117,50.717175,50.70439,50.6873,50.657776,50.620613,50.577682,50.52245,50.471592,50.431473,50.389904,50.357193,50.33539,50.311768,50.290512,50.27578,50.26322,50.256256,50.25807,50.26584,50.282154,50.30371,50.324707,50.352627,50.379013,50.3964,50.415543,50.431576,50.44123,50.44746,50.46401,50.49362,50.529358,50.594803,50.679173,50.759346,50.861015,50.96802,51.055344,51.14322,51.233162,51.315437,51.417175,51.563904,51.73008,51.90703,52.132385,52.343414,52.504704,52.644463,52.75627,52.848824,52.94201,53.04351,53.14027,53.24653,53.411964,53.59282,53.7601,53.88113,53.912987,53.892216,54.082706,54.35391
19.094303,19.13007,19.16974,19.203457,19.235178,19.26448,19.285744,19.304836,19.3268,19.351631,19.377007,19.414934,19.46514,19.51326,19.568748,19.634132,19.693317,19.749405,19.821198,19.894426,19.96006,20.04452,20.13425,20.21075,20.3023,20.400005,20.480955,20.568214,20.666618,20.753685,20.835,20.931667,21.021023,21.094212,21.180515,21.265505,21.334614,21.41459,21.500864,21.574167,21.65044,21.738953,21.819628,21.892653,21.982286,22.069225,22.14193,22.230846,22.322548,22.39841,22.485582,22.582485,22.667034,22.75337,22.852749,22.941711,23.020153,23.111351,23.196182,23.265629,23.350178,23.4386,23.512627,23.599655,23.699692,23.789154,23.879597,23.988525,24.090778,24.181005,24.291489,24.399353,24.487648,24.593391,24.701897,24.789722,24.886295,24.991314,25.080868,25.16593,25.265858,25.358822,25.439667,25.539951,25.640713,25.724358,25.825623,25.934196,26.025864,26.128115,26.247917,26.358765,26.467678,26.603203,26.73425,26.847355,26.983894,27.114223,27.214973,27.328676,27.443817,27.53746,27.637339,27.750332,27.851078,27.943981,28.057568,28.169138,28.266872,28.392326,28.52697,28.642475,28.781685,28.935806,29.067818,29.207808,29.368608,29.512459,29.642498,29.797766,29.94279,30.061007,30.20366,30.348267,30.467144,30.605276,30.757645,30.89006,31.028446,31.195988,31.356548,31.505764,31.695704,31.888226,32.053406,32.255405,32.459038,32.61943,32.79397,32.974434,33.122444,33.268147,33.434303,33.584427,33.716476,33.881134,34.04618,34.18501,34.35561,34.533936,34.680687,34.852314,35.049805,35.22631,35.40081,35.612843,35.817345,36.00546,36.214943,36.41047,36.575867,36.778473,36.99473,37.175236,37.375183,37.60482,37.81218,38.013195,38.25281,38.47422,38.6604,38.888348,39.11622,39.30426,39.531094,39.775352,39.980576,40.200363,40.448326,40.66844,40.873253,41.124435,41.3688,41.58068,41.84299,42.114265,42.343456,42.61947,42.929867,43.20455,43.511856,43.873535,44.197987,44.49083,44.830425,45.132072,45.368343,45.63527,45.887016,46.0867,46.31392,46.564377,46.785522,47.01873,47.29583,47.551064,47.78071,48.052734,48.304,48.505745,48.741467,48.97119,49.15263,49.354786,49.566208,49.73986,49.910606,50.10253,50.27195,50.41886,50.596256,50.760902,50.888496,51.026085,51.134773,51.195286,51.23426,51.24073,51.224205,51.199234,51.164932,51.13349,51.107533,51.0813,51.05944,51.041653,51.017864,50.988194,50.95964,50.926056,50.888077,50.856384,50.82847,50.79853,50.772934,50.751488,50.724415,50.69967,50.682655,50.667297,50.654198,50.64289,50.628,50.601746,50.567955,50.528282,50.476482,50.42842,50.390625,50.351654,50.321205,50.301014,50.278618,50.257355,50.241493,50.227173,50.216835,50.214714,50.21878,50.23082,50.24945,50.269447,50.29723,50.32505,50.34468,50.367245,50.38595,50.39668,50.406532,50.424942,50.45237,50.483406,50.54004,50.616516,50.693565,50.794785,50.90745,51.004364,51.10899,51.22292,51.32758,51.45129,51.616272,51.78731,51.961494,52.146,52.289497,52.388596,52.51345,52.635384,52.725685,52.82409,52.932304,53.02966,53.128883,53.26748,53.391674,53.466675,53.48519,53.507103,53.597157,53.751785,53.91186
19.09917,19.13448,19.173422,19.206406,19.2374,19.266033,19.286991,19.306068,19.328314,19.353605,19.379345,19.41752,19.467728,19.515661,19.570782,19.635696,19.694523,19.750343,19.821915,19.895096,19.96082,20.045557,20.135696,20.21254,20.304205,20.401823,20.482485,20.568508,20.665579,20.751772,20.83214,20.927773,21.016262,21.08876,21.174473,21.259087,21.327976,21.407812,21.494146,21.567638,21.644135,21.73294,21.813885,21.887142,21.977001,22.064072,22.136845,22.225775,22.317337,22.39294,22.479725,22.575998,22.659843,22.745384,22.843948,22.932352,23.010353,23.101265,23.186026,23.255466,23.339975,23.428322,23.502277,23.589172,23.689054,23.778439,23.868906,23.978033,24.08062,24.171234,24.28218,24.390387,24.478834,24.584515,24.692593,24.779839,24.87579,24.980175,25.069284,25.154007,25.253696,25.346508,25.427162,25.527187,25.627728,25.711235,25.81243,25.921112,26.01302,26.11561,26.235891,26.347195,26.456528,26.592562,26.72411,26.83768,26.974886,27.105799,27.206846,27.32039,27.435291,27.528908,27.62857,27.74089,27.840689,27.932737,28.044905,28.155113,28.252083,28.377056,28.511833,28.62785,28.767609,28.922207,29.054474,29.194641,29.35558,29.49951,29.629578,29.784966,29.930223,30.048689,30.191727,30.336922,30.456448,30.595264,30.748215,30.880909,31.01921,31.186407,31.346634,31.495697,31.685465,31.878368,32.04471,32.247097,32.4505,32.610676,32.78517,32.966118,33.114914,33.261314,33.42789,33.577576,33.708374,33.87034,34.03219,34.168617,34.33763,34.5151,34.661255,34.83278,35.030396,35.20689,35.381176,35.592606,35.796227,35.983055,36.193523,36.39067,36.55589,36.75876,36.975502,37.156525,37.357773,37.58959,37.798653,37.999718,38.23836,38.458183,38.642746,38.868484,39.094063,39.280285,39.505013,39.746933,39.950043,40.16738,40.412487,40.63012,40.832638,41.081745,41.325203,41.537086,41.801003,42.075615,42.308376,42.58866,42.90264,43.178642,43.484825,43.841812,44.159615,44.44526,44.77622,45.07096,45.303017,45.56611,45.815575,46.014328,46.241096,46.49185,46.713806,46.948536,47.22788,47.48508,47.7161,47.9888,48.240196,48.44226,48.678543,48.90924,49.091858,49.296005,49.510033,49.68596,49.85896,50.052963,50.22345,50.370705,50.546906,50.708878,50.833675,50.967445,51.07299,51.132378,51.172985,51.18238,51.16803,51.144882,51.112816,51.08333,51.05867,51.03321,51.011288,50.99307,50.968155,50.937706,50.909225,50.87432,50.83433,50.800835,50.771126,50.739174,50.711884,50.689114,50.66062,50.634674,50.616768,50.600185,50.586143,50.57462,50.55992,50.53463,50.502228,50.464157,50.414032,50.36714,50.33016,50.2916,50.260902,50.240158,50.216507,50.19301,50.174664,50.15743,50.143677,50.138714,50.14075,50.14953,50.164387,50.181175,50.205387,50.230995,50.25023,50.27264,50.29352,50.308247,50.32302,50.34597,50.375404,50.40652,50.46235,50.53822,50.615303,50.721336,50.845215,50.955345,51.077534,51.212204,51.334183,51.47761,51.649193,51.799973,51.925716,52.070557,52.20049,52.300705,52.424583,52.547913,52.643448,52.758232,52.88176,52.977913,53.05553,53.1233,53.178413,53.243484,53.31086,53.369347,53.425293,53.37462,53.22673
19.105394,19.14004,19.178017,19.210049,19.24007,19.267845,19.288391,19.30733,19.329765,19.355495,19.38161,19.420082,19.470371,19.518188,19.573006,19.637547,19.696117,19.751766,19.823217,19.896412,19.962265,20.047306,20.137863,20.215075,20.30664,20.403677,20.483564,20.568224,20.663877,20.74906,20.82836,20.922832,21.010376,21.08212,21.167156,21.251318,21.319937,21.399597,21.485973,21.55967,21.63649,21.72572,21.807037,21.88062,21.970758,22.057938,22.130686,22.219501,22.310757,22.385935,22.472168,22.5676,22.650537,22.735167,22.832811,22.920551,22.99803,23.08857,23.173214,23.242641,23.327103,23.41537,23.489231,23.575975,23.675682,23.764967,23.855478,23.964859,24.06786,24.15894,24.27045,24.37906,24.467659,24.573252,24.680874,24.76754,24.862865,24.966694,25.05548,25.139988,25.239553,25.332283,25.412779,25.512516,25.61277,25.696114,25.797203,25.905987,25.998156,26.101158,26.221996,26.333817,26.443611,26.580225,26.71235,26.82642,26.964449,27.095776,27.196472,27.310226,27.425518,27.519268,27.618706,27.73005,27.828476,27.919186,28.02981,28.138794,28.234936,28.359589,28.494759,28.611422,28.751934,28.90715,29.039677,29.180004,29.341,29.484936,29.614986,29.770523,29.91615,30.035088,30.178839,30.324974,30.4454,30.585127,30.738787,30.87173,31.009747,31.176325,31.33598,31.484701,31.673649,31.86685,32.03568,32.238754,32.441513,32.60112,32.775105,32.955986,33.105175,33.252,33.418884,33.568207,33.6979,33.857243,34.01591,34.149918,34.317482,34.49411,34.63944,34.81073,35.008347,35.184723,35.35869,35.56936,35.77195,35.957664,36.167835,36.365112,36.530003,36.73263,36.94936,37.13082,37.33523,37.56956,37.778694,37.979355,38.216614,38.434517,38.61737,38.840843,39.06421,39.24878,39.471584,39.711266,39.912243,40.12705,40.36908,40.583973,40.784035,41.030853,41.273346,41.485382,41.751316,42.029858,42.26675,42.551773,42.869328,43.146095,43.449768,43.79975,44.10846,44.384666,44.70474,44.991264,45.218765,45.477924,45.725338,45.923496,46.15027,46.402,46.625504,46.86276,47.14571,47.406292,47.640083,47.915092,48.16783,48.370842,48.608078,48.83996,49.02392,49.2301,49.44659,49.62462,49.799793,49.995964,50.16774,50.315636,50.491016,50.650497,50.772385,50.90219,51.004173,51.06176,51.10234,51.113976,51.102898,51.08346,51.05538,51.028877,51.006546,50.983097,50.962196,50.944313,50.91906,50.88784,50.85881,50.824036,50.78328,50.747726,50.71512,50.67976,50.64957,50.624363,50.593044,50.564384,50.544243,50.524536,50.5073,50.49359,50.476997,50.450592,50.41811,50.38057,50.33103,50.284325,50.2472,50.207726,50.17514,50.152237,50.125523,50.09796,50.075756,50.05439,50.035896,50.02674,50.02498,50.02911,50.03961,50.05287,50.072777,50.09503,50.11282,50.136414,50.162727,50.184937,50.20935,50.242283,50.278008,50.31254,50.370888,50.449074,50.528824,50.643917,50.784435,50.912766,51.05951,51.22243,51.363182,51.508827,51.659763,51.777863,51.87394,51.999794,52.12527,52.223236,52.35376,52.49376,52.6035,52.67723,52.73546,52.78167,52.820606,52.826538,52.769623,52.677773,52.39324,52.022602,51.771618,51.065636,49.74772
19.112495,19.14635,19.183266,19.214306,19.243309,19.270355,19.29064,19.30936,19.331915,19.35805,19.384548,19.423418,19.473991,19.521912,19.576715,19.641235,19.69986,19.755598,19.827183,19.900555,19.966602,20.051937,20.14292,20.22059,20.311153,20.406528,20.485268,20.56887,20.663414,20.74763,20.825993,20.919487,21.006275,21.077457,21.161999,21.245872,21.31437,21.39399,21.48052,21.554506,21.631737,21.721512,21.803295,21.87724,21.967663,22.054905,22.127554,22.216099,22.306847,22.38147,22.467043,22.561508,22.643436,22.727165,22.823898,22.910946,22.987873,23.078018,23.162518,23.231915,23.316319,23.4045,23.478256,23.564796,23.664242,23.75335,23.84383,23.953403,24.056786,24.148298,24.260376,24.369404,24.458134,24.563662,24.670946,24.75719,24.85207,24.955572,25.04427,25.128738,25.228329,25.321047,25.401438,25.500896,25.600803,25.683907,25.784786,25.893513,25.985779,26.089012,26.210222,26.322395,26.432493,26.56953,26.70211,26.816559,26.955362,27.086956,27.186956,27.30109,27.417023,27.5109,27.610085,27.720448,27.8175,27.906805,28.016104,28.12424,28.219751,28.344334,28.48007,28.59744,28.73875,28.894554,29.02726,29.167591,29.3284,29.472101,29.601967,29.757586,29.903652,30.023167,30.167809,30.314997,30.436317,30.576881,30.73106,30.864016,31.001532,31.167072,31.325623,31.473274,31.662455,31.85707,32.027267,32.230568,32.43258,32.59142,32.764565,32.94493,33.09409,33.240993,33.408062,33.55722,33.686157,33.843536,33.999687,34.131683,34.29809,34.473793,34.6179,34.788467,34.98548,35.161255,35.334473,35.543922,35.74511,35.92951,36.138252,36.33441,36.498596,36.7004,36.917496,37.10055,37.306976,37.542503,37.75133,37.95127,38.18705,38.403355,38.58503,38.8071,39.029266,39.213097,39.43507,39.673542,39.873077,40.086052,40.32559,40.538094,40.73597,40.98066,41.22219,41.434334,41.702183,41.98442,42.225098,42.51426,42.834435,43.110905,43.41083,43.75234,44.050873,44.317085,44.626072,44.904713,45.128273,45.384552,45.631187,45.82975,46.057476,46.311073,46.53684,46.777332,47.064793,47.32972,47.56737,47.846207,48.101578,48.306175,48.54465,48.777615,48.96279,49.170578,49.388878,49.56842,49.745346,49.943424,50.116547,50.265373,50.440624,50.59848,50.718124,50.844803,50.943756,50.999557,51.039337,51.05244,51.04438,51.028244,51.004112,50.981,50.961487,50.940773,50.921715,50.904896,50.8802,50.848663,50.818943,50.78431,50.74341,50.70682,50.672276,50.633553,50.599712,50.571537,50.53666,50.504356,50.48102,50.456818,50.434574,50.41692,50.39656,50.367115,50.333145,50.29512,50.245323,50.198204,50.160458,50.1194,50.084145,50.058357,50.02781,49.99543,49.968727,49.942562,49.91839,49.903885,49.89686,49.894478,49.89877,49.90672,49.920944,49.940536,49.95935,49.98643,50.021576,50.0552,50.09375,50.141483,50.187145,50.22792,50.291622,50.374214,50.457993,50.583954,50.74386,50.893414,51.065536,51.248383,51.392372,51.518066,51.63752,51.732662,51.82045,51.944378,52.07422,52.178658,52.30567,52.418488,52.485283,52.488167,52.467003,52.457226,52.49002,52.31903,51.88034,51.379036,50.10354,48.437874,47.11474,45.533527,43.61004
19.119143,19.152277,19.18829,19.218527,19.246716,19.27338,19.293688,19.312212,19.334846,19.361328,19.388184,19.427494,19.478493,19.526707,19.581774,19.646614,19.705566,19.76163,19.833582,19.907267,19.97356,20.059185,20.150457,20.22836,20.317198,20.410435,20.4882,20.57124,20.665142,20.748627,20.826366,20.919254,21.005632,21.076567,21.160933,21.24479,21.31337,21.393139,21.479956,21.554281,21.631912,21.7222,21.804419,21.878677,21.969328,22.056595,22.129139,22.21737,22.307583,22.38166,22.466606,22.560207,22.641272,22.724262,22.820244,22.906708,22.983162,23.072973,23.157364,23.226727,23.311077,23.399181,23.47284,23.559158,23.658289,23.747149,23.8375,23.947134,24.050758,24.142553,24.255066,24.36444,24.453262,24.558771,24.665878,24.751904,24.846539,24.949928,25.038666,25.123184,25.222836,25.31556,25.395872,25.495094,25.594673,25.677488,25.778084,25.886585,25.97873,26.081928,26.203201,26.315487,26.42565,26.562832,26.695618,26.810268,26.949575,27.081383,27.18097,27.29536,27.411655,27.505512,27.604479,27.714174,27.810322,27.898653,28.00707,28.114712,28.209908,28.33459,28.470882,28.588873,28.730831,28.887058,29.019825,29.159994,29.320385,29.463638,29.593155,29.7487,29.89509,30.015064,30.160423,30.308416,30.430332,30.571402,30.725739,30.85845,30.995422,31.159737,31.316933,31.463285,31.65415,31.850971,32.020313,32.22314,32.424675,32.582863,32.755272,32.93507,33.084023,33.23079,33.3979,33.546986,33.675446,33.8316,33.986107,34.1167,34.282192,34.456894,34.599655,34.76907,34.964912,35.139606,35.311687,35.519577,35.71912,35.901955,36.10933,36.30445,36.467674,36.668724,36.88688,37.072216,37.27783,37.512894,37.722424,37.921673,38.156372,38.371838,38.55313,38.77494,38.99713,39.18118,39.403442,39.641838,39.84085,40.052975,40.29105,40.50196,40.698273,40.941372,41.182102,41.394196,41.663376,41.94825,42.191544,42.48346,42.804947,43.08042,43.37657,43.7105,44.00042,44.258606,44.55898,44.831776,45.052658,45.307564,45.55471,45.754494,45.98385,46.239655,46.46769,46.711197,47.002724,47.271595,47.512848,47.795547,48.0537,48.259834,48.499374,48.733074,48.91902,49.12773,49.347,49.5274,49.705482,49.904907,50.079117,50.22885,50.404396,50.561523,50.679947,50.80481,50.901978,50.956768,50.996353,51.01048,51.003983,50.989006,50.967087,50.946663,50.929382,50.91092,50.89352,50.877815,50.85393,50.822582,50.792595,50.757057,50.715683,50.679268,50.644653,50.60411,50.567356,50.536915,50.499184,50.463783,50.437626,50.40939,50.382446,50.360912,50.336853,50.304348,50.26886,50.230354,50.18053,50.133476,50.09562,50.053764,50.016846,49.989147,49.955994,49.920105,49.889885,49.85971,49.830467,49.810963,49.79901,49.7899,49.787254,49.7891,49.797844,49.816856,49.839718,49.871853,49.91664,49.96215,50.014496,50.075947,50.13015,50.17569,50.24287,50.327667,50.413074,50.54622,50.721203,50.88809,51.076447,51.2621,51.393364,51.49472,51.59761,51.691708,51.779697,51.904358,52.036903,52.14892,52.24884,52.284973,52.261955,52.218124,52.18161,52.155643,52.17581,51.677025,50.606873,49.458786,46.96186,43.799545,41.17997,39.062645,37.797974
19.12715,19.159473,19.194519,19.223907,19.251163,19.2776,19.29813,19.316284,19.33886,19.365635,19.392818,19.432613,19.48419,19.53288,19.588459,19.65393,19.713497,19.770164,19.842781,19.91698,19.983627,20.069935,20.16098,20.237358,20.3241,20.415878,20.493423,20.575945,20.669188,20.75207,20.829306,20.921745,21.007887,21.078726,21.16309,21.247066,21.315802,21.395805,21.48296,21.557652,21.635738,21.726501,21.80909,21.883715,21.974644,22.061913,22.134264,22.22219,22.31187,22.385296,22.469433,22.562113,22.642422,22.724697,22.819939,22.90583,22.981827,23.071304,23.155571,23.2249,23.309223,23.397268,23.470821,23.556915,23.655695,23.744257,23.834427,23.944061,24.047857,24.139858,24.252737,24.362415,24.451336,24.55682,24.663765,24.749609,24.84404,24.947346,25.036154,25.120718,25.22039,25.313066,25.3933,25.492258,25.59145,25.673931,25.774176,25.88234,25.974234,26.077288,26.198517,26.310793,26.42089,26.558079,26.690983,26.805763,26.945362,27.077389,27.17696,27.291634,27.408186,27.502028,27.600815,27.709988,27.805433,27.893057,28.000738,28.107925,28.202917,28.328022,28.465168,28.583843,28.72651,28.883024,29.015558,29.155365,29.31506,29.4576,29.586575,29.74179,29.888275,30.008581,30.154583,30.30333,30.425797,30.56726,30.721592,30.853914,30.990269,31.152884,31.308804,31.456387,31.64825,31.845144,32.014053,32.2165,32.41749,32.574974,32.7465,32.925392,33.07372,33.219986,33.386726,33.53548,33.66346,33.818512,33.971592,34.100967,34.265335,34.43884,34.58035,34.748245,34.942307,35.11541,35.28591,35.491787,35.68934,35.870228,36.076534,36.270893,36.432575,36.63467,36.853836,37.038242,37.242332,37.477425,37.68823,37.886795,38.12054,38.335594,38.51705,38.739395,38.96245,39.147366,39.370598,39.609577,39.80854,40.02027,40.257385,40.46711,40.662273,40.904133,41.144226,41.356354,41.626694,41.91374,42.159134,42.453094,42.775078,43.048897,43.340687,43.66672,43.94812,44.19854,44.4909,44.758606,44.97736,45.23185,45.480537,45.682266,45.913963,46.172546,46.40316,46.649937,46.945747,47.218742,47.463787,47.75078,48.011814,48.21888,48.45939,48.6938,48.88022,49.089294,49.30891,49.489716,49.668526,49.868927,50.044037,50.19468,50.370705,50.52746,50.64503,50.768555,50.864456,50.918625,50.95829,50.972878,50.96699,50.953247,50.93345,50.915318,50.89997,50.883553,50.86773,50.853024,50.830044,50.799107,50.769066,50.73323,50.691223,50.654026,50.61828,50.57704,50.539734,50.508034,50.467888,50.429436,50.40065,50.3686,50.337112,50.311813,50.284256,50.24907,50.212593,50.174355,50.12562,50.079834,50.042908,50.00171,49.96463,49.936188,49.90191,49.86391,49.831093,49.797653,49.76394,49.73987,49.72345,49.708263,49.69983,49.697243,49.7038,49.723,49.74659,49.785885,49.8434,49.90131,49.96684,50.039566,50.098236,50.143013,50.20629,50.285816,50.366234,50.501675,50.687298,50.865803,51.0504,51.223324,51.344666,51.44375,51.546074,51.640785,51.730747,51.8779,52.00403,52.04903,52.04928,52.036667,52.04676,51.982903,52.00853,52.02921,51.722927,50.722214,48.772854,45.868843,42.241577,39.171524,37.246906,35.700775,34.892082
19.136463,19.167904,19.201902,19.23037,19.256636,19.282646,19.303246,19.32118,19.343575,19.37036,19.39772,19.43795,19.490204,19.539562,19.595974,19.66256,19.72322,19.780956,19.854744,19.929834,19.997059,20.084236,20.174124,20.246899,20.331871,20.423077,20.500366,20.582378,20.675041,20.757492,20.83442,20.926632,21.012737,21.083662,21.16816,21.252346,21.32132,21.401636,21.48909,21.564,21.642452,21.733717,21.816772,21.89183,21.983082,22.070335,22.142403,22.229841,22.318766,22.391394,22.474607,22.566303,22.645826,22.727358,22.821865,22.907211,22.982735,23.07191,23.15612,23.22546,23.309828,23.397886,23.471375,23.557259,23.655663,23.743855,23.833733,23.943195,24.046976,24.138988,24.251976,24.361696,24.45047,24.555708,24.662338,24.747921,24.842064,24.945198,25.033981,25.118475,25.21804,25.31057,25.39064,25.48927,25.588028,25.670141,25.770004,25.87782,25.969454,26.072355,26.193508,26.30571,26.4156,26.55254,26.685246,26.799877,26.939404,27.071617,27.17157,27.286564,27.403328,27.497261,27.596043,27.704998,27.800116,27.887482,27.994604,28.10136,28.196398,28.322079,28.460285,28.580002,28.723572,28.881145,29.014568,29.154099,29.31259,29.45366,29.581211,29.735474,29.881828,30.002323,30.148788,30.29803,30.420712,30.562153,30.71602,30.84763,30.983017,31.144348,31.299343,31.44685,31.63818,31.834335,32.002853,32.20495,32.405464,32.56234,32.73289,32.91042,33.05742,33.202316,33.367725,33.515507,33.64264,33.796562,33.948486,34.076935,34.24003,34.412155,34.55251,34.718422,34.909912,35.08072,35.24898,35.452248,35.647415,35.825752,36.032593,36.228836,36.390533,36.592796,36.811104,36.993744,37.196445,37.431427,37.642887,37.84056,38.073563,38.28876,38.47101,38.694786,38.919556,39.10587,39.330597,39.57054,39.7697,39.981323,40.217903,40.426903,40.621323,40.862373,41.102074,41.31428,41.58555,41.874123,42.120872,42.41586,42.737213,43.008537,43.295235,43.612915,43.885788,44.12878,44.413734,44.67708,44.89442,45.149216,45.400032,45.604103,45.838684,46.100685,46.334488,46.585144,46.885956,47.16358,47.412605,47.70356,47.96679,48.174202,48.414772,48.648617,48.834114,49.041702,49.25946,49.438805,49.61663,49.816307,49.99112,50.1418,50.317787,50.47431,50.59149,50.714622,50.81053,50.865196,50.906013,50.921654,50.91643,50.90423,50.886444,50.870117,50.85636,50.841564,50.827007,50.813194,50.791107,50.76082,50.731075,50.695404,50.653053,50.61508,50.578297,50.535995,50.497757,50.46502,50.423485,50.382812,50.351234,50.31538,50.27962,50.251015,50.220673,50.184208,50.14853,50.112568,50.06782,50.026382,49.993073,49.955906,49.922108,49.89572,49.863464,49.826622,49.793823,49.75956,49.723267,49.69583,49.676247,49.657562,49.647236,49.644722,49.653244,49.676792,49.705494,49.75763,49.831642,49.901592,49.9765,50.051056,50.100594,50.1279,50.165188,50.218803,50.279366,50.39608,50.56446,50.727875,50.90834,51.095936,51.239063,51.344337,51.461166,51.566803,51.64634,51.738304,51.793755,51.794563,51.7866,51.78653,51.80162,51.76658,51.912773,51.89731,50.729897,48.551605,45.599056,41.706978,38.02844,35.84323,34.84079,33.988304,33.544357
19.145103,19.175758,19.208805,19.236423,19.261837,19.287128,19.307472,19.325531,19.347704,19.374187,19.401531,19.442038,19.494915,19.544994,19.60239,19.670359,19.732395,19.791449,19.866709,19.942907,20.010914,20.097866,20.185682,20.255436,20.339626,20.430859,20.507717,20.589306,20.6816,20.763866,20.840706,20.932913,21.019123,21.090233,21.174894,21.259245,21.328388,21.408892,21.496445,21.571384,21.650066,21.741772,21.82529,21.900738,21.992287,22.079529,22.151333,22.238216,22.326351,22.398235,22.480667,22.571545,22.650404,22.731335,22.82528,22.91023,22.985415,23.074429,23.158684,23.228107,23.312622,23.400803,23.474318,23.56009,23.6582,23.746044,23.835606,23.944769,24.048336,24.140152,24.252937,24.362354,24.450718,24.555449,24.661564,24.746744,24.840458,24.943249,25.031826,25.116066,25.215347,25.307621,25.387447,25.485735,25.584118,25.665913,25.765493,25.873081,25.964575,26.067423,26.188583,26.300743,26.410389,26.546925,26.679192,26.793434,26.932537,27.064896,27.16565,27.281006,27.39796,27.492104,27.591103,27.700272,27.795483,27.882767,27.989605,28.096222,28.191525,28.31762,28.456863,28.578094,28.723293,28.88257,29.017113,29.156456,29.313683,29.453012,29.578564,29.731037,29.87664,29.997158,30.14388,30.293371,30.416037,30.55718,30.710339,30.841074,30.975317,31.135914,31.29031,31.436035,31.62574,31.821062,31.989256,32.191055,32.391266,32.54775,32.71745,32.89344,33.038704,33.181652,33.345028,33.49134,33.617416,33.770416,33.92171,34.049713,34.21189,34.382755,34.521896,34.685852,34.87479,35.04328,35.209274,35.410095,35.6032,35.77923,35.98797,36.187855,36.350662,36.551807,36.7678,36.949005,37.151596,37.386368,37.597008,37.793793,38.026413,38.24221,38.425617,38.65121,38.8779,39.065598,39.291725,39.53253,39.73188,39.943535,40.180016,40.388924,40.5832,40.82415,41.063915,41.276352,41.548203,41.837433,42.08455,42.379425,42.699287,42.967926,43.250076,43.560898,43.827133,44.064606,44.34417,44.604485,44.821102,45.07641,45.32898,45.53488,45.7719,46.036934,46.273605,46.527725,46.832893,47.114326,47.366325,47.65957,47.923523,48.130737,48.37052,48.602737,48.786343,48.991253,49.205765,49.382446,49.55803,49.755653,49.929146,50.079002,50.25435,50.410576,50.52764,50.651024,50.747864,50.803772,50.846275,50.86345,50.859207,50.848488,50.832123,50.816772,50.80391,50.789948,50.776024,50.762737,50.741287,50.711655,50.682438,50.64727,50.605095,50.56684,50.529533,50.485764,50.44577,50.411896,50.369514,50.327667,50.294266,50.255844,50.217224,50.18653,50.15487,50.118954,50.08575,50.0534,50.01429,49.978928,49.950844,49.91999,49.892212,49.87043,49.843216,49.81076,49.780624,49.74796,49.711548,49.68289,49.662193,49.643433,49.635284,49.63649,49.65074,49.68341,49.722736,49.79062,49.87955,49.956177,50.031273,50.089966,50.109398,50.099937,50.086,50.087643,50.105698,50.172993,50.2951,50.425564,50.60028,50.81868,51.00372,51.13299,51.256287,51.34678,51.40281,51.422848,51.423607,51.442486,51.5011,51.544296,51.53794,51.595997,51.67073,51.26978,49.30919,45.816387,42.04132,38.598564,35.862534,34.55001,33.91001,33.3834,33.127907
19.153053,19.182959,19.215088,19.241894,19.266548,19.290983,19.310902,19.3293,19.351316,19.377417,19.404667,19.445393,19.498867,19.549671,19.60807,19.677444,19.74088,19.801281,19.87801,19.95538,20.024555,20.10917,20.194204,20.264187,20.348137,20.439013,20.515575,20.596853,20.688921,20.77112,20.847965,20.940243,21.026606,21.097927,21.182747,21.267166,21.33633,21.41676,21.504242,21.579224,21.658169,21.750252,21.834106,21.909868,22.001678,22.088924,22.16054,22.246983,22.334469,22.405758,22.487543,22.577759,22.656118,22.736628,22.830164,22.914825,22.989845,23.078804,23.163147,23.2327,23.317411,23.40578,23.479387,23.565113,23.663004,23.750565,23.839846,23.948698,24.05198,24.143522,24.255964,24.364944,24.45283,24.556957,24.662445,24.747139,24.84034,24.942665,25.030918,25.114822,25.213707,25.305637,25.385212,25.483177,25.58123,25.662737,25.7621,25.869541,25.960938,26.063803,26.185047,26.297218,26.40667,26.542824,26.674654,26.788498,26.927013,27.05957,27.161568,27.277336,27.394379,27.488735,27.588045,27.697735,27.793266,27.87999,27.986664,28.093616,28.189213,28.315496,28.45566,28.578682,28.726864,28.887861,29.021828,29.160666,29.317047,29.45517,29.578842,29.728703,29.872593,29.993137,30.140163,30.290009,30.412788,30.553776,30.706322,30.8362,30.969322,31.128857,31.282436,31.427063,31.61565,31.810246,31.978085,32.179596,32.37957,32.53578,32.704727,32.879242,33.022778,33.16382,33.325096,33.469906,33.595036,33.74739,33.898422,34.026245,34.188297,34.358124,34.495377,34.65755,34.84441,35.010975,35.175106,35.373993,35.56559,35.739998,35.950684,36.15339,36.316116,36.516426,36.730743,36.910545,37.114227,37.348892,37.55768,37.75374,37.986248,38.20277,38.38738,38.61474,38.84316,39.032017,39.259277,39.50074,39.700214,39.911983,40.14866,40.35786,40.552475,40.793858,41.034073,41.24692,41.51925,41.808723,42.055737,42.35001,42.668182,42.93441,43.212883,43.518494,43.779854,44.01335,44.289047,44.547165,44.76318,45.018837,45.272644,45.47976,45.71859,45.9859,46.224663,46.481438,46.789803,47.07383,47.327736,47.621918,47.885696,48.09259,48.331608,48.5624,48.74437,48.947033,49.15889,49.333427,49.50709,49.70288,49.875114,50.024185,50.198864,50.35469,50.4715,50.594925,50.69243,50.74936,50.79296,50.81131,50.80801,50.79824,50.782677,50.76777,50.755264,50.741653,50.727993,50.714874,50.693832,50.664757,50.636,50.60136,50.559578,50.521305,50.483593,50.438736,50.39729,50.362045,50.31784,50.27482,50.241364,50.20199,50.161667,50.129456,50.09727,50.062683,50.032272,50.00322,49.96898,49.938866,49.915443,49.89068,49.86931,49.852844,49.831856,49.80497,49.778114,49.74727,49.711624,49.68316,49.6625,49.645004,49.6395,49.643387,49.66445,49.70865,49.76026,49.842674,49.943512,50.023605,50.094048,50.122845,50.094994,50.03894,49.960674,49.89247,49.84652,49.840584,49.910187,50.020897,50.176483,50.40215,50.619736,50.816593,50.90927,50.899895,50.919373,50.983288,51.066147,51.125866,51.164513,51.20452,51.260643,51.507046,51.1192,49.8387,47.973007,43.721947,39.10846,36.514004,34.585304,33.70797,33.26529,32.975597,32.849876
19.160908,19.190247,19.221691,19.247818,19.271538,19.294827,19.314117,19.33279,19.354507,19.380077,19.407154,19.448092,19.502296,19.554031,19.61377,19.685015,19.750286,19.812416,19.89139,19.96994,20.038374,20.121082,20.20462,20.274693,20.358349,20.448826,20.525084,20.60606,20.697945,20.780138,20.857035,20.949308,21.035583,21.10682,21.191502,21.275787,21.34487,21.425201,21.512589,21.587536,21.66666,21.759077,21.84328,21.919388,22.011534,22.098888,22.170372,22.25647,22.343418,22.414192,22.495396,22.585026,22.662949,22.743107,22.836327,22.92081,22.995766,23.084839,23.169464,23.239326,23.32444,23.4132,23.487057,23.572887,23.670681,23.758038,23.847086,23.955647,24.058622,24.14983,24.26179,24.370138,24.457329,24.560526,24.664982,24.748848,24.841146,24.942589,25.030178,25.113445,25.211658,25.303085,25.38233,25.479958,25.577745,25.65907,25.758396,25.865913,25.957394,26.060501,26.182083,26.29444,26.403791,26.53963,26.671032,26.784454,26.922455,27.055046,27.157776,27.274658,27.392746,27.48763,27.587513,27.697426,27.792854,27.87962,27.986652,28.094074,28.18988,28.315872,28.45782,28.585213,28.73603,28.897545,29.03082,29.170334,29.32582,29.46145,29.582928,29.73042,29.872568,29.992031,30.138699,30.289007,30.412395,30.553867,30.706322,30.8355,30.967476,31.125557,31.27781,31.421127,31.60835,31.801985,31.969292,32.17028,32.369827,32.52567,32.69371,32.866417,33.00782,33.146584,33.305367,33.448418,33.572582,33.724533,33.875725,34.00387,34.16439,34.332165,34.4684,34.62899,34.813747,34.978348,35.140614,35.337646,35.52794,35.701275,35.91214,36.115414,36.277794,36.47715,36.6894,36.867104,37.07253,37.307426,37.513905,37.70916,37.941643,38.159065,38.345085,38.57439,38.804573,38.99449,39.222637,39.464497,39.664,39.87581,40.112923,40.322937,40.518394,40.760864,41.002045,41.21563,41.488426,41.77772,42.024128,42.317093,42.632805,42.89608,43.170456,43.470528,43.7268,43.956158,44.22766,44.483078,44.69792,44.953255,45.207664,45.415577,45.655884,45.925266,46.16597,46.424847,46.73535,47.020836,47.275715,47.570644,47.834503,48.04094,48.279263,48.508965,48.689713,48.890537,49.100136,49.272774,49.44468,49.63871,49.809692,49.957947,50.13187,50.28719,50.40368,50.526917,50.624893,50.682796,50.727554,50.747307,50.745216,50.736526,50.72189,50.70759,50.695614,50.682518,50.669296,50.656578,50.636208,50.608032,50.580124,50.546425,50.505478,50.467545,50.429688,50.383995,50.341263,50.304756,50.25882,50.21409,50.179413,50.138786,50.097717,50.06539,50.033062,49.999207,49.97078,49.944984,49.91601,49.89172,49.87329,49.855217,49.840893,49.83012,49.815243,49.793945,49.770813,49.742313,49.70733,49.678253,49.656693,49.638943,49.636208,49.645714,49.678444,49.73854,49.804367,49.909485,50.01304,50.06782,50.09951,50.072807,49.983894,49.857475,49.68267,49.514908,49.384056,49.285366,49.27951,49.34398,49.461006,49.6434,49.815506,49.94987,50.067627,50.16034,50.259914,50.39676,50.530487,50.629562,50.732914,50.813442,50.847916,50.956688,49.973076,47.804214,44.763268,40.456966,36.845806,34.943367,33.627647,33.107758,32.857925,32.639236,32.500095
19.166706,19.195518,19.226322,19.251846,19.27481,19.297302,19.316261,19.335295,19.356712,19.381699,19.408573,19.449673,19.504566,19.557228,19.618332,19.691511,19.758678,19.822659,19.90365,19.982695,20.04928,20.131123,20.214622,20.28456,20.367908,20.45803,20.53405,20.614803,20.706596,20.788803,20.865654,20.957691,21.04365,21.114668,21.199047,21.28304,21.35193,21.432108,21.519333,21.594137,21.673283,21.765856,21.850275,21.926596,22.018982,22.10643,22.17783,22.263695,22.350292,22.420742,22.50156,22.590801,22.66846,22.748413,22.841496,22.925983,23.001057,23.090471,23.17561,23.24597,23.331707,23.421059,23.495316,23.581402,23.679258,23.76654,23.855461,23.963814,24.066544,24.15749,24.269018,24.37674,24.463226,24.565418,24.668692,24.751541,24.842724,24.943012,25.029709,25.112186,25.209606,25.300495,25.379463,25.476902,25.574656,25.656015,25.755573,25.863419,25.955164,26.058664,26.180708,26.293356,26.40271,26.53834,26.669409,26.782494,26.920143,27.052723,27.155807,27.273678,27.392918,27.488518,27.589197,27.699646,27.795393,27.882896,27.9907,28.098648,28.19467,28.32211,28.466837,28.597164,28.749237,28.91121,29.044912,29.18478,29.33878,29.47172,29.591238,29.737041,29.878164,29.996838,30.143475,30.294508,30.41868,30.56084,30.713428,30.842115,30.973265,31.130096,31.281048,31.423098,31.608784,31.801044,31.96734,32.167133,32.3656,32.52068,32.687515,32.858307,32.997612,33.134235,33.29074,33.432297,33.555805,33.707794,33.859837,33.98923,34.146664,34.311356,34.447945,34.60769,34.790993,34.954155,35.115036,35.31071,35.500237,35.673744,35.882027,36.082466,36.244736,36.4429,36.654198,36.83194,37.03778,37.271713,37.47628,37.67091,37.90361,38.122093,38.30949,38.540623,38.772278,38.962868,39.191433,39.43332,39.632698,39.844482,40.082253,40.293476,40.490204,40.734253,40.97674,41.19118,41.464275,41.752907,41.998177,42.289276,42.602257,42.862732,43.133633,43.42931,43.68165,43.907753,44.175735,44.428516,44.64179,44.896065,45.150192,45.358147,45.59914,45.869736,46.111473,46.370922,46.681183,46.965847,47.219917,47.514717,47.778732,47.984756,48.22296,48.45282,48.63375,48.83441,49.04366,49.215958,49.387436,49.581017,49.751717,49.899826,50.07351,50.22847,50.344616,50.467403,50.565285,50.623566,50.668842,50.68954,50.68846,50.680527,50.66652,50.65267,50.641174,50.628574,50.615875,50.6037,50.58428,50.55738,50.53063,50.498222,50.45851,50.421272,50.383595,50.33745,50.293793,50.25637,50.209064,50.162624,50.12627,50.08426,50.042564,50.010303,49.978157,49.94499,49.917847,49.894035,49.868515,49.848236,49.83333,49.819843,49.810703,49.804714,49.795536,49.77983,49.76042,49.734028,49.697983,49.665504,49.640175,49.61906,49.61767,49.633484,49.67979,49.758045,49.839073,49.949852,50.033478,50.04889,50.028976,49.931274,49.764572,49.5493,49.253334,48.967743,48.747055,48.54943,48.45343,48.4498,48.506886,48.618496,48.72674,48.826538,49.002995,49.213764,49.40228,49.603363,49.76818,49.895195,50.03308,50.03899,49.86548,49.41639,47.744766,45.059425,41.18921,37.52083,35.4434,34.035744,33.097008,32.762306,32.58851,32.383034,32.267735
19.170069,19.198256,19.228294,19.253216,19.275806,19.298124,19.317245,19.336792,19.358109,19.38266,19.409386,19.45058,19.505966,19.55932,19.621466,19.696136,19.764782,19.830349,19.91227,19.99098,20.056435,20.138155,20.221981,20.29171,20.37481,20.464684,20.54055,20.621174,20.712933,20.795113,20.87175,20.963402,21.049026,21.11996,21.204128,21.287851,21.35654,21.436539,21.523552,21.598171,21.67723,21.769794,21.854248,21.9306,22.023008,22.110432,22.181728,22.267395,22.353748,22.424011,22.504597,22.59362,22.671137,22.75098,22.84403,22.928627,23.003914,23.093758,23.179462,23.250355,23.336739,23.426685,23.501339,23.587698,23.685669,23.772938,23.861816,23.970047,24.072624,24.163467,24.274788,24.38212,24.468132,24.569607,24.671953,24.753944,24.844156,24.943415,25.02931,25.111134,25.207909,25.298405,25.37725,25.474714,25.572632,25.654175,25.754082,25.862312,25.954323,26.058134,26.180508,26.293365,26.402718,26.538185,26.669004,26.78186,26.919277,27.051922,27.155403,27.273478,27.393093,27.489315,27.590775,27.702374,27.799257,27.887691,27.99629,28.104858,28.201332,28.33219,28.479603,28.608995,28.761166,28.924526,29.059824,29.198673,29.3507,29.482025,29.600216,29.744942,29.885868,30.005077,30.152615,30.304562,30.42926,30.571785,30.72434,30.852688,30.983446,31.139683,31.289867,31.430946,31.615147,31.80576,31.970648,32.168655,32.36544,32.519367,32.68483,32.853897,32.991577,33.126633,33.28158,33.42224,33.5455,33.697906,33.850975,33.981644,34.135944,34.297825,34.435413,34.595016,34.777657,34.94004,35.10014,35.29498,35.484108,35.65834,35.862793,36.059013,36.22162,36.41857,36.630493,36.811,37.015293,37.24678,37.450325,37.644623,37.877754,38.09729,38.28582,38.518433,38.751183,38.942093,39.17077,39.41249,39.611675,39.823425,40.06182,40.274178,40.472122,40.71765,40.961292,41.176422,41.449627,41.737446,41.981487,42.27084,42.581604,42.840057,43.108715,43.40177,43.65182,43.875954,44.141594,44.392334,44.6041,44.85716,45.110565,45.318115,45.55917,45.830086,46.071846,46.330574,46.63887,46.921177,47.173298,47.467033,47.730938,47.93676,48.17546,48.406624,48.58898,48.791122,49.00196,49.17556,49.348114,49.542797,49.71437,49.863182,50.0373,50.19221,50.30803,50.430206,50.527443,50.585327,50.63021,50.650955,50.65027,50.6425,50.628597,50.61485,50.60357,50.59128,50.579056,50.56741,50.54904,50.52353,50.49798,50.466885,50.428436,50.391964,50.354576,50.308197,50.26388,50.22583,50.177498,50.129852,50.09248,50.04929,50.0063,49.97307,49.941025,49.90883,49.882744,49.859413,49.834747,49.815723,49.802135,49.790207,49.783676,49.781197,49.777367,49.767296,49.75128,49.72631,49.68746,49.64927,49.61789,49.591248,49.58926,49.60912,49.666428,49.759884,49.852715,49.94356,49.99259,49.980316,49.925774,49.764076,49.515503,49.21499,48.80616,48.405964,48.088394,47.764687,47.549084,47.464973,47.44449,47.496532,47.591225,47.79036,48.014183,48.193336,48.37761,48.604034,48.797333,48.929607,48.98414,48.758057,48.27377,47.17737,44.917976,42.17125,39.02659,36.104404,34.43881,33.434734,32.769985,32.494514,32.285156,32.17733,32.238464
19.172684,19.200207,19.229534,19.25393,19.276094,19.297989,19.317148,19.337494,19.359262,19.383778,19.410318,19.451565,19.507355,19.561337,19.624428,19.700481,19.770596,19.838179,19.920116,19.997551,20.063042,20.144938,20.228836,20.2984,20.381287,20.470963,20.546726,20.627243,20.718904,20.80096,20.877346,20.968666,21.054024,21.12483,21.208775,21.292257,21.360779,21.440622,21.527443,21.60186,21.680763,21.773193,21.85754,21.933743,22.025974,22.11319,22.184269,22.269623,22.355663,22.425716,22.506016,22.59473,22.672035,22.75172,22.844707,22.92942,23.004986,23.095325,23.18166,23.253145,23.34022,23.43077,23.50579,23.592375,23.690407,23.777634,23.866459,23.974602,24.07714,24.168049,24.279415,24.386662,24.472473,24.573467,24.675,24.756132,24.845316,24.943443,25.02848,25.109623,25.205807,25.296047,25.374947,25.472633,25.570902,25.652763,25.753082,25.86163,25.95374,26.057634,26.180016,26.29277,26.40189,26.53694,26.667322,26.779846,26.916893,27.049475,27.153257,27.271618,27.391584,27.48824,27.590582,27.703636,27.802017,27.89161,28.002172,28.11319,28.212147,28.344221,28.491478,28.62048,28.772594,28.936827,29.073244,29.211254,29.36163,29.491577,29.608776,29.752773,29.893715,30.013535,30.162113,30.31522,30.440735,30.584085,30.737154,30.865623,30.996471,31.152496,31.30201,31.44207,31.624382,31.812529,31.975065,32.17007,32.363945,32.515823,32.679176,32.846104,32.982094,33.11577,33.2695,33.4096,33.53282,33.68725,33.840637,33.967056,34.11999,34.282623,34.421005,34.58088,34.76336,34.925343,35.084927,35.27933,35.46756,35.639866,35.84014,36.033077,36.19576,36.391853,36.604324,36.786835,36.989857,37.219276,37.42187,37.616062,37.849957,38.070847,38.260757,38.494995,38.728863,38.920105,39.148804,39.39023,39.589123,39.80072,40.039566,40.252922,40.452057,40.69906,40.943848,41.159664,41.432915,41.719807,41.962524,42.250046,42.558712,42.81547,43.082397,43.37355,43.621895,43.844433,44.10769,44.355854,44.56543,44.816505,45.06864,45.275528,45.515976,45.785957,46.02636,46.283005,46.5879,46.866585,47.115513,47.406483,47.669342,47.87541,48.115448,48.34938,48.534836,48.740654,48.955658,49.13272,49.30836,49.506165,49.680023,49.830437,50.00563,50.160454,50.275475,50.39595,50.49083,50.546673,50.58938,50.608345,50.60672,50.598183,50.583656,50.569702,50.558556,50.54682,50.535606,50.525093,50.50864,50.485508,50.461952,50.432854,50.396294,50.361,50.324104,50.277603,50.2327,50.194023,50.1447,50.0959,50.05758,50.01332,49.969234,49.93508,49.902233,49.869293,49.84262,49.81879,49.793198,49.773125,49.758575,49.747334,49.744545,49.74742,49.751167,49.74929,49.738678,49.716293,49.674053,49.627964,49.5878,49.551964,49.546364,49.56858,49.639404,49.74105,49.825424,49.8931,49.91056,49.86846,49.764908,49.521492,49.177322,48.77039,48.308304,47.768463,47.123062,46.168034,45.347786,44.994072,44.7713,44.75028,44.861267,45.056927,45.444588,45.84912,46.10626,46.351723,46.471344,46.473175,46.309425,45.782814,45.01615,43.603912,41.24368,38.82499,36.783955,34.88866,33.690887,32.992516,32.454456,32.20667,32.112453,32.126358,32.258625
19.17278,19.199774,19.22859,19.252666,19.274624,19.296345,19.31562,19.336464,19.35945,19.38485,19.411182,19.452408,19.508448,19.562893,19.626682,19.704002,19.775318,19.84348,19.92479,20.001331,20.067188,20.149271,20.233082,20.302452,20.385124,20.474648,20.550354,20.630783,20.72231,20.804173,20.880274,20.971176,21.056158,21.126738,21.210415,21.293657,21.362,21.441704,21.528313,21.602455,21.681099,21.773224,21.857248,21.933088,22.024868,22.111668,22.182415,22.267344,22.353012,22.422829,22.502777,22.591076,22.668036,22.747446,22.84028,22.925072,23.000904,23.091763,23.178759,23.250849,23.338585,23.429684,23.505024,23.591772,23.68982,23.77701,23.865812,23.973972,24.076656,24.167896,24.279701,24.38731,24.473326,24.57424,24.675268,24.755722,24.843996,24.94108,25.025337,25.105938,25.201744,25.291973,25.371153,25.46933,25.568192,25.65057,25.751455,25.860348,25.952496,26.056364,26.178593,26.291101,26.39989,26.534504,26.664478,26.77668,26.913364,27.045782,27.149652,27.267887,27.388763,27.487274,27.59113,27.7058,27.805637,27.896614,28.00909,28.122032,28.22269,28.354866,28.501026,28.629238,28.782091,28.946968,29.082891,29.22004,29.369278,29.49839,29.615154,29.759018,29.90041,30.021072,30.170929,30.325445,30.452076,30.596722,30.750984,30.880234,31.011894,31.168346,31.31746,31.456516,31.636477,31.821184,31.980251,32.170807,32.36039,32.50932,32.66995,32.834663,32.969315,33.10219,33.255432,33.39579,33.520676,33.674683,33.825302,33.948418,34.102005,34.26705,34.406467,34.567158,34.749958,34.911774,35.071,35.264923,35.451073,35.618034,35.814636,36.006096,36.16759,36.365395,36.57951,36.761242,36.962513,37.18998,37.391655,37.58587,37.820652,38.042973,38.234287,38.4701,38.704956,38.896408,39.124977,39.366005,39.564613,39.776073,40.015427,40.22988,40.430363,40.679047,40.925137,41.14171,41.41504,41.70097,41.942284,42.228043,42.534966,42.790565,43.056595,43.34706,43.594864,43.816788,44.07852,44.324455,44.531773,44.780956,45.032066,45.23851,45.478184,45.746246,45.98391,46.237125,46.537098,46.810844,47.055237,47.341953,47.60279,47.808804,48.050354,48.287926,48.477608,48.688675,48.909866,49.0922,49.272793,49.475773,49.65361,49.807007,49.98455,50.140038,50.254578,50.373352,50.465523,50.51885,50.558258,50.57423,50.57096,50.561127,50.545395,50.53074,50.519432,50.50804,50.4979,50.488792,50.474815,50.454834,50.433876,50.407333,50.372967,50.338814,50.302197,50.255154,50.2091,50.169216,50.118233,50.06778,50.028206,49.982586,49.937126,49.901817,49.8676,49.83275,49.804,49.777985,49.749516,49.72695,49.71058,49.699406,49.7005,49.7095,49.72204,49.729668,49.72518,49.70565,49.658707,49.60223,49.550568,49.50274,49.49173,49.515537,49.60179,49.70193,49.7543,49.798355,49.783436,49.698692,49.534893,49.191475,48.73481,48.25408,47.535667,46.525352,45.315723,43.888313,42.76773,42.224606,41.566704,41.094254,40.954178,40.967392,41.233276,41.56636,41.739708,41.86247,41.84903,41.737617,41.46311,40.911713,40.22898,39.145092,37.504974,35.951126,34.884354,33.837753,33.058853,32.575882,32.165802,31.991116,32.00225,32.085068,32.21351
19.169928,19.196732,19.225422,19.24952,19.271606,19.293571,19.313103,19.33397,19.358654,19.385683,19.411823,19.452986,19.509079,19.563725,19.627893,19.705788,19.777306,19.844496,19.925182,20.001772,20.067738,20.149744,20.23331,20.302444,20.384907,20.474323,20.550014,20.630405,20.721836,20.803532,20.879416,20.969902,21.05445,21.124771,21.208195,21.291222,21.3594,21.438988,21.525398,21.599262,21.6776,21.769321,21.852913,21.92827,22.019466,22.105751,22.176128,22.260609,22.345877,22.415436,22.494999,22.582802,22.659328,22.738352,22.830906,22.91566,22.991638,23.082844,23.170303,23.242802,23.330948,23.422356,23.49787,23.584652,23.68266,23.769833,23.85866,23.966927,24.069885,24.161602,24.27409,24.382378,24.468887,24.570103,24.671051,24.75117,24.838886,24.935299,25.01909,25.099442,25.19519,25.285645,25.365253,25.464022,25.563538,25.646488,25.747955,25.857216,25.949448,26.053345,26.17549,26.28785,26.396473,26.530922,26.66076,26.772825,26.90933,27.041576,27.14533,27.26363,27.38572,27.486177,27.59121,27.706823,27.807465,27.899502,28.012962,28.126333,28.226997,28.358837,28.504124,28.631262,28.785423,28.950695,29.084908,29.221407,29.370235,29.499184,29.616077,29.760294,29.902283,30.02369,30.17458,30.33028,30.457918,30.603905,30.759636,30.890036,31.02294,31.180275,31.329329,31.46763,31.645412,31.826683,31.982182,32.168175,32.353424,32.49947,32.657715,32.82094,32.955082,33.088013,33.241905,33.38288,33.50815,33.658985,33.80639,33.93024,34.085815,34.253082,34.39357,34.5552,34.738388,34.89997,35.05861,35.252388,35.43675,35.597233,35.791115,35.982944,36.1437,36.344177,36.559376,36.738224,36.937542,37.16334,37.364136,37.558258,37.793594,38.016834,38.20906,38.445847,38.68122,38.87265,39.100887,39.34149,39.539906,39.751366,39.99131,40.206837,40.408615,40.658913,40.906254,41.12353,41.39704,41.68224,41.92238,42.20681,42.512596,42.767662,43.03361,43.324455,43.572723,43.794968,44.056442,44.301437,44.50755,44.755943,45.006817,45.21321,45.452526,45.71894,45.953934,46.203773,46.498978,46.767933,47.00782,47.29023,47.54872,47.754025,47.996464,48.237053,48.430424,48.646255,48.873352,49.06101,49.24682,49.45555,49.638123,49.79534,49.976433,50.13392,50.249176,50.367836,50.458656,50.510185,50.546997,50.56055,50.55594,50.544865,50.527603,50.51165,50.49954,50.487595,50.47768,50.469376,50.4573,50.43997,50.421272,50.396866,50.364094,50.330425,50.29341,50.244934,50.19684,50.15493,50.101357,50.04844,50.007072,49.959587,49.9124,49.875744,49.840004,49.80297,49.771748,49.742905,49.71131,49.686646,49.66922,49.65837,49.662792,49.676987,49.697014,49.712387,49.71247,49.694572,49.642338,49.575623,49.512882,49.45392,49.438347,49.464863,49.557114,49.64691,49.66919,49.69703,49.6522,49.516266,49.269173,48.81731,48.254936,47.72261,46.545815,44.89232,43.263245,41.629356,40.41654,39.70701,38.64363,37.701523,37.258175,37.074265,37.048454,37.08119,37.089405,37.058308,36.971046,36.862377,36.674477,36.38273,36.06473,35.62548,34.973633,34.3049,33.66861,33.007553,32.521862,32.178375,31.924778,31.85478,31.89046,31.965107,32.050667
19.165527,19.192352,19.221167,19.245497,19.267906,19.290287,19.31017,19.331074,19.357754,19.38661,19.412342,19.453377,19.509464,19.564182,19.628855,19.706308,19.776588,19.843103,19.923626,20.000381,20.0663,20.14804,20.231241,20.3001,20.382345,20.471664,20.547377,20.627771,20.719185,20.800808,20.876549,20.966715,21.050915,21.121025,21.204235,21.287075,21.355106,21.434574,21.520802,21.594418,21.672447,21.763752,21.846895,21.921745,22.012337,22.098085,22.16806,22.252052,22.336876,22.406116,22.485235,22.572489,22.648533,22.727097,22.819279,22.903908,22.979916,23.07129,23.158989,23.231693,23.320015,23.41151,23.487038,23.573734,23.671648,23.758812,23.847685,23.956089,24.059334,24.151512,24.26471,24.373734,24.460794,24.56245,24.66352,24.743502,24.830873,24.926878,25.010439,25.090729,25.186592,25.277355,25.35741,25.456753,25.55685,25.640305,25.742275,25.85191,25.944328,26.048363,26.170574,26.282963,26.39164,26.526176,26.65609,26.768188,26.90466,27.036772,27.140339,27.260155,27.38328,27.483135,27.58789,27.703526,27.804533,27.89711,28.011187,28.124943,28.225775,28.357307,28.501595,28.627504,28.782501,28.948097,29.081062,29.217117,29.365807,29.494877,29.612074,29.756702,29.899143,30.020994,30.172516,30.328981,30.457317,30.60439,30.761412,30.892876,31.027004,31.185276,31.334385,31.472137,31.648108,31.826435,31.978832,32.16088,32.342434,32.486095,32.642567,32.80497,32.939175,33.072506,33.228928,33.37075,33.489685,33.637405,33.786133,33.91208,34.069763,34.2387,34.380104,34.542435,34.72573,34.886856,35.044197,35.23927,35.424435,35.579647,35.769997,35.962315,36.12594,36.326427,36.539722,36.716797,36.914326,37.138474,37.338333,37.532158,37.767643,37.99131,38.183975,38.421158,38.65661,38.847816,39.07555,39.315697,39.51401,39.725563,39.966125,40.182663,40.385628,40.637375,40.885834,41.103745,41.377487,41.662125,41.90126,42.18462,42.489555,42.744324,43.010513,43.302032,43.550995,43.77375,44.03557,44.280663,44.486748,44.735306,44.98629,45.192566,45.431923,45.697617,45.930977,46.178207,46.469368,46.734074,46.96991,47.248398,47.504543,47.70874,47.951485,48.194252,48.390366,48.609886,48.84195,49.034424,49.225113,49.439495,49.627007,49.78838,49.973846,50.134506,50.25157,50.37205,50.462887,50.512672,50.54806,50.56042,50.554943,50.54265,50.52356,50.505745,50.49211,50.47867,50.467995,50.45964,50.448517,50.432945,50.415825,50.3928,50.360886,50.327106,50.289047,50.23832,50.187397,50.14286,50.0859,50.029716,49.98592,49.936012,49.88675,49.848557,49.81116,49.77205,49.738743,49.707737,49.67401,49.648262,49.630615,49.62094,49.629013,49.64808,49.674652,49.69625,49.699486,49.681778,49.62357,49.546978,49.473785,49.40451,49.38537,49.417366,49.496326,49.571426,49.594875,49.611607,49.545403,49.368652,48.97309,48.37878,47.717407,47.081703,45.407375,43.310448,41.83463,39.66573,37.567833,36.265656,35.119736,34.36702,34.05619,33.91699,33.920856,33.98819,34.037796,34.06472,34.054424,34.030056,33.985886,33.902702,33.79804,33.624905,33.36,33.07416,32.73293,32.33922,32.03739,31.835844,31.699598,31.680628,31.722507,31.783045,31.835674
19.158607,19.18573,19.214996,19.239838,19.262806,19.285824,19.30624,19.32743,19.355465,19.386215,19.413342,19.45476,19.510557,19.564949,19.628502,19.705017,19.77486,19.840326,19.920292,19.997005,20.062664,20.143906,20.226532,20.294989,20.376926,20.466166,20.54195,20.622429,20.713871,20.795406,20.870975,20.960764,21.044554,21.114414,21.197414,21.28011,21.348017,21.427374,21.513412,21.586752,21.664381,21.755123,21.837671,21.911882,22.001717,22.086838,22.156403,22.239891,22.324234,22.39312,22.471706,22.558239,22.633598,22.711494,22.803082,22.887405,22.963312,23.054714,23.142525,23.21532,23.303646,23.395054,23.47047,23.556986,23.654758,23.741907,23.830833,23.939423,24.043041,24.135773,24.249838,24.359795,24.447598,24.549885,24.651215,24.731133,24.818201,24.91383,24.997225,25.077559,25.173729,25.265022,25.345695,25.445805,25.546669,25.63078,25.733404,25.843586,25.936382,26.040798,26.163387,26.276123,26.385227,26.52037,26.65083,26.763275,26.899946,27.032139,27.135803,27.256168,27.379011,27.477541,27.581057,27.695698,27.79634,27.888939,28.003235,28.117195,28.218105,28.349125,28.492859,28.61875,28.77361,28.938519,29.07056,29.206472,29.355518,29.485184,29.603085,29.74835,29.89117,30.013248,30.16507,30.32202,30.450975,30.599197,30.75783,30.890797,31.026623,31.186295,31.335735,31.47311,31.64729,31.822453,31.9714,32.1492,32.326965,32.46836,32.623398,32.785698,32.92095,33.05806,33.2119,33.347046,33.464157,33.612457,33.76363,33.891777,34.051746,34.22242,34.364693,34.527546,34.710556,34.87069,35.0262,35.220955,35.40592,35.557495,35.746025,35.939194,36.10457,36.303734,36.514057,36.688942,36.8841,37.106033,37.304535,37.497585,37.732597,37.95604,38.148483,38.385292,38.620136,38.810608,39.037384,39.276752,39.474808,39.686493,39.927864,40.145653,40.350143,40.60369,40.853516,41.072273,41.34639,41.630478,41.868553,42.15065,42.45456,42.70897,42.97541,43.26765,43.51734,43.74057,44.00313,44.249107,44.45603,44.705486,44.956867,45.16297,45.40272,45.66845,45.900906,46.146034,46.433475,46.69408,46.926033,47.200584,47.454247,47.657356,47.900368,48.145226,48.34407,48.567482,48.805096,49.003185,49.199806,49.421387,49.615555,49.782845,49.974934,50.141243,50.262566,50.386063,50.478386,50.528973,50.565224,50.577972,50.572113,50.558746,50.537117,50.516052,50.499405,50.48255,50.469303,50.459595,50.448277,50.43381,50.418007,50.396015,50.36438,50.329735,50.289673,50.235172,50.179714,50.130924,50.068626,50.00741,49.959892,49.906097,49.853462,49.812927,49.773094,49.731422,49.696014,49.66311,49.627876,49.601746,49.584473,49.576256,49.58716,49.60948,49.640793,49.66653,49.67119,49.652435,49.5887,49.50389,49.421272,49.343544,49.324337,49.367565,49.43142,49.486267,49.508545,49.532238,49.364548,49.00937,48.535927,47.893272,47.140816,46.30442,44.23518,41.68361,39.87271,37.108067,34.564228,33.22986,32.274895,31.848223,31.768253,31.74012,31.802498,31.888294,31.934551,31.967056,31.979073,31.983372,31.98161,32.00188,32.045494,32.061806,32.030952,31.957165,31.835503,31.672337,31.540302,31.459734,31.419792,31.435837,31.472221,31.509666,31.52678
19.149654,19.177505,19.20763,19.23323,19.25693,19.280682,19.301641,19.323238,19.351624,19.383646,19.413177,19.45524,19.51052,19.564312,19.626553,19.702152,19.771692,19.836014,19.91515,19.991493,20.05664,20.137165,20.219103,20.28711,20.368746,20.457968,20.533913,20.614563,20.706085,20.787523,20.86287,20.95226,21.035652,21.105263,21.1881,21.27073,21.33859,21.417892,21.503777,21.57686,21.654062,21.744194,21.82612,21.89971,21.988834,22.07344,22.142761,22.225971,22.310047,22.37872,22.45691,22.542772,22.61739,22.694498,22.78532,22.869146,22.944756,23.035946,23.123653,23.19638,23.28453,23.375715,23.450956,23.5373,23.634945,23.722061,23.811,23.919666,24.023487,24.11657,24.231243,24.341908,24.430296,24.533058,24.634537,24.714321,24.800987,24.896152,24.97932,25.059639,25.156094,25.247904,25.329144,25.429947,25.531528,25.616245,25.719494,25.830284,25.923603,26.02863,26.151995,26.265556,26.375648,26.512182,26.643929,26.757269,26.894604,27.02713,27.131012,27.250399,27.37106,27.467274,27.56819,27.680285,27.779358,27.871094,27.98502,28.09906,28.2001,28.330883,28.474613,28.601084,28.755436,28.91958,29.051434,29.187744,29.337788,29.468582,29.587517,29.733559,29.876587,29.99857,30.150242,30.307323,30.43679,30.586224,30.746815,30.881752,31.019741,31.181328,31.33157,31.46899,31.641964,31.81456,31.960537,32.13481,32.309654,32.449547,32.60402,32.767616,32.90464,33.04203,33.190086,33.318966,33.43842,33.589905,33.743736,33.873726,34.035713,34.20785,34.35074,34.513763,34.6957,34.854492,35.01137,35.20311,35.382736,35.532646,35.72178,35.91581,36.08003,36.276463,36.48339,36.655815,36.84825,37.067547,37.26422,37.45589,37.6895,37.911713,38.103058,38.338398,38.571655,38.760773,38.985962,39.2241,39.42169,39.633377,39.87548,40.094475,40.30047,40.555717,40.806755,41.026237,41.300636,41.58405,41.820858,42.1014,42.403664,42.65692,42.92263,43.214527,43.464245,43.687546,43.95066,44.197586,44.40544,44.656174,44.908623,45.115265,45.35621,45.62304,45.855743,46.10015,46.385654,46.643906,46.873707,47.14584,47.398003,47.60077,47.84426,48.09072,48.291573,48.518013,48.760254,48.96333,49.16539,49.393974,49.59503,49.76869,49.968433,50.14203,50.26941,50.398003,50.495132,50.55052,50.59137,50.60735,50.602394,50.58875,50.564323,50.5387,50.517426,50.494736,50.476303,50.463097,50.449337,50.434074,50.41835,50.396263,50.363747,50.327156,50.28409,50.224586,50.1634,50.109276,50.040485,49.97325,49.921295,49.862793,49.80612,49.762917,49.720528,49.676414,49.639484,49.60614,49.571472,49.54664,49.530746,49.52378,49.534798,49.556126,49.586494,49.610413,49.612656,49.59101,49.524925,49.438934,49.354042,49.279625,49.265915,49.31082,49.367165,49.414932,49.437294,49.38288,49.076355,48.605988,48.11216,47.460484,46.627598,45.589123,43.270126,40.26543,37.67508,34.66414,32.447388,31.559021,30.955753,30.77946,30.822395,30.86681,30.964611,31.04964,31.068424,31.073147,31.06623,31.056683,31.034138,31.054024,31.125534,31.201853,31.240417,31.226025,31.20535,31.170086,31.139513,31.12313,31.129915,31.156858,31.182833,31.20103,31.196678
