52.29747,52.26998,52.07771,51.807755,51.38913,50.902557,50.474403,49.957993,49.36306,48.82301,48.285507,47.731384,47.277008,46.858906,46.399063,45.998398,45.66068,45.25404,44.816628,44.408607,43.888325,43.15121,42.35098,41.396347,40.19848,39.097534,38.113407,37.016586,36.08353,35.356487,34.515953,33.72274,33.094234,32.381042,31.642017,31.031733,30.3907,29.723633,29.19585,28.74258,28.25861,27.869255,27.583736,27.287952,27.060244,26.920109,26.80752,26.753963,26.751192,26.77113,26.809877,26.843203,26.863482,26.869202,26.857956,26.842129,26.827587,26.82209,26.825775,26.837769,26.857306,26.874855,26.888435,26.900295,26.908964,26.916584,26.92807,26.943623,26.96049,26.98323,27.007622,27.026749,27.045845,27.063763,27.077248,27.08964,27.1049,27.11972,27.132544,27.147568,27.16037,27.169058,27.176924,27.181602,27.183332,27.18457,27.185905,27.187836,27.190964,27.193468,27.193699,27.19257,27.189198,27.18502,27.182175,27.179386,27.177296,27.17569,27.169565,27.165134,27.16686,27.17004,27.190536,27.244085,27.325268,27.453503,27.603188,27.730028,27.8421,27.881012,27.846035,27.766003,27.686756,27.722637,27.908834,28.321568,29.382427,30.989239,35.394226,40.070347,42.251396,43.766422,44.40316,44.580547,44.762417,44.83998,44.850933,44.888596,45.03566,45.23533,45.39895,45.417023,45.102203,44.575943,43.799217,42.76731,41.756054,40.31203,39.219513,39.139256,39.656185,41.139816,42.816048,43.760437,44.832256,45.584473,45.851097,45.88869,45.618187,45.253204,44.936695,44.660297,44.51777,44.46122,44.44014,44.45155,44.46669,44.476326,44.473404,44.461845,44.45082,44.447617,44.45144,44.450512,44.4406,44.419403,44.391457,44.346203,44.295593,44.25537,44.210217,44.164474,44.12622,44.083237,44.030693,43.98008,43.929768,43.86869,43.81256,43.76627,43.71158,43.663994,43.632088,43.595856,43.558212,43.524925,43.48305,43.42434,43.36129,43.296227,43.207397,43.10984,43.016304,42.895332,42.766556,42.657288,42.525955,42.38174,42.258614,42.1276,41.977528,41.842117,41.71483,41.565163,41.427055,41.313335,41.170048,41.014084,40.87608,40.695763,40.470398,40.23201,39.855812,39.340775,38.855064,38.429787,37.982212,37.643997,37.422493,37.20694,37.051662,36.96083,36.884426,36.829163,36.795345,36.77106,36.752098,36.735195,36.71306,36.677998,36.636284,36.598465,36.55095,36.49499,36.442543,36.38124,36.308533,36.244167,36.18778,36.12192,36.060562,36.00805,35.942093,35.87361,35.81388,35.74078,35.663063,35.598663,35.528107,35.454872,35.39747,35.34759,35.294846,35.25209,35.219303,35.183437,35.15465,35.136185,35.119255,35.109795,35.10833,35.11252,35.12493,35.144646,35.1709,35.227837,35.312397,35.40487,35.539467,35.675575,35.771362,35.849743,35.882416,35.878166,35.871864,35.893192,35.95672,36.05539,36.20148,36.342125,36.444504,36.533943,36.580788,36.594406,36.621475,36.679253,36.76102,36.878086,37.060516,37.24411,37.403175,37.48417,37.484634,37.494705,37.484962,37.428635,37.342587,37.214844,37.01907,36.81448,36.599464,36.38424,36.249283,36.186028,36.149452,36.139046,36.13287,36.118176,36.089386
52.445015,52.426704,52.239967,51.971935,51.551903,51.06038,50.626366,50.11193,49.517757,48.97175,48.429268,47.86931,47.410423,46.99047,46.533134,46.13754,45.804394,45.397606,44.94127,44.49917,43.88237,43.021523,42.11096,40.88064,39.42627,38.21151,37.11862,36.049335,35.28099,34.73415,34.078537,33.43494,32.91365,32.29524,31.615856,31.029976,30.408695,29.743502,29.204884,28.744457,28.255892,27.86757,27.58635,27.299793,27.08446,26.954987,26.8539,26.8106,26.8143,26.83926,26.881165,26.915154,26.934885,26.938286,26.923225,26.90341,26.88366,26.872902,26.872696,26.881207,26.898594,26.915585,26.929241,26.941963,26.951752,26.960268,26.972713,26.98896,27.00624,27.02903,27.052666,27.070509,27.087265,27.101667,27.11171,27.120716,27.132492,27.144829,27.15605,27.169628,27.181446,27.189463,27.196716,27.20097,27.20246,27.203545,27.204708,27.206295,27.20871,27.209805,27.208275,27.205416,27.200089,27.194622,27.191402,27.188984,27.188105,27.18777,27.183313,27.176113,27.1724,27.175968,27.189775,27.22883,27.293142,27.41016,27.556713,27.68322,27.80382,27.853605,27.823772,27.749943,27.654036,27.654465,27.813915,28.184528,29.11479,30.450905,34.694267,39.557068,42.181297,43.878876,44.498093,44.6158,44.884483,45.042248,45.068054,45.114777,45.266357,45.469997,45.642418,45.662468,45.326973,44.76316,43.94028,42.853897,41.788025,40.24359,39.075024,38.98129,39.50259,41.026108,42.773205,43.7933,44.92764,45.702812,45.96122,46.009228,45.7313,45.33838,45.002266,44.710617,44.561596,44.50319,44.482346,44.495285,44.511497,44.522053,44.519917,44.509117,44.49964,44.49885,44.505074,44.50626,44.49871,44.479477,44.453,44.40931,44.359932,44.320473,44.276134,44.231403,44.19426,44.15277,44.10221,44.05343,44.004837,43.94521,43.88964,43.843304,43.787872,43.73886,43.705452,43.66756,43.628716,43.595078,43.553345,43.496246,43.43587,43.373795,43.28903,43.195435,43.10511,42.98759,42.861866,42.75497,42.626293,42.48481,42.363983,42.235542,42.088272,41.955086,41.82961,41.68155,41.544323,41.430885,41.288033,41.13295,40.996178,40.817917,40.59709,40.36808,40.024834,39.52735,39.033886,38.604046,38.141052,37.78343,37.549324,37.318634,37.150154,37.05116,36.969524,36.913483,36.881958,36.86135,36.846832,36.832664,36.811317,36.774796,36.72909,36.686615,36.6331,36.57084,36.513474,36.44709,36.369736,36.30208,36.242485,36.17289,36.107933,36.052063,35.98149,35.9084,35.845215,35.768784,35.688545,35.62269,35.551453,35.47872,35.422894,35.37548,35.32731,35.289894,35.261803,35.23093,35.20555,35.188545,35.172504,35.163597,35.16298,35.16934,35.186302,35.211884,35.24447,35.31151,35.406788,35.507957,35.64994,35.786118,35.8754,35.938076,35.946274,35.91903,35.890266,35.891956,35.945107,36.039726,36.18558,36.32968,36.43682,36.531403,36.582207,36.59816,36.630836,36.700157,36.79715,36.93696,37.150703,37.357857,37.52091,37.61261,37.624763,37.6379,37.624863,37.557537,37.458687,37.31389,37.097244,36.87529,36.646454,36.4227,36.287186,36.227406,36.19706,36.193085,36.191383,36.18167,36.15625
52.565018,52.555733,52.37638,52.11306,51.695225,51.202065,50.76452,50.25399,49.660965,49.107914,48.55732,47.987293,47.520428,47.09556,46.6369,46.242203,45.909554,45.495857,45.013947,44.53415,43.792175,42.791725,41.787315,40.31321,38.59021,37.24781,36.18564,35.254295,34.644314,34.190804,33.66223,33.14475,32.714577,32.1736,31.550373,30.998924,30.402441,29.74683,29.206198,28.745945,28.2579,27.872051,27.595322,27.317093,27.112251,26.9916,26.89972,26.863983,26.871819,26.899397,26.942009,26.974957,26.99302,26.993557,26.97499,26.95185,26.927826,26.91276,26.909325,26.91483,26.93025,26.94665,26.960346,26.97393,26.984947,26.994553,27.008223,27.025368,27.043137,27.065983,27.088793,27.105255,27.119587,27.130444,27.137087,27.142792,27.151237,27.161308,27.171162,27.1837,27.19508,27.202976,27.210363,27.215015,27.21692,27.218536,27.220175,27.221851,27.22388,27.223917,27.220932,27.216618,27.209656,27.203152,27.199692,27.19768,27.198006,27.199009,27.1964,27.188244,27.181526,27.185547,27.195421,27.223476,27.271553,27.375,27.514685,27.638645,27.763515,27.820889,27.795673,27.725025,27.623434,27.606873,27.741405,28.074589,28.927973,30.136408,34.155884,39.064785,42.106995,43.98427,44.606796,44.678696,44.993057,45.199764,45.246017,45.318672,45.481396,45.686134,45.87003,45.887936,45.531685,44.9401,44.07438,42.937675,41.823204,40.1776,38.941586,38.84503,39.364716,40.92022,42.731606,43.82227,45.012947,45.80739,46.057358,46.111156,45.82599,45.411144,45.05848,44.753666,44.599014,44.539017,44.518684,44.533276,44.550484,44.561836,44.560204,44.549767,44.54122,44.542034,44.549934,44.552677,44.547035,44.529594,44.5046,44.46269,44.41488,44.376503,44.333336,44.289948,44.254105,44.214172,44.16546,44.11827,44.071022,44.012295,43.956726,43.90992,43.853287,43.80246,43.767296,43.72747,43.687035,43.652588,43.610462,43.5541,43.495422,43.435402,43.353634,43.263157,43.17546,43.060944,42.938126,42.833656,42.707825,42.569485,42.4514,42.325996,42.182053,42.051483,41.928085,41.78176,41.645332,41.532074,41.389496,41.2352,41.0997,40.9246,40.706116,40.4824,40.175995,39.701187,39.202957,38.770992,38.295357,37.920887,37.67626,37.432854,37.252937,37.14649,37.05968,37.001907,36.971275,36.952774,36.940887,36.928017,36.906406,36.867493,36.81724,36.769756,36.7101,36.64172,36.579758,36.50864,36.42702,36.356285,36.29351,36.22017,36.151733,36.09275,36.01814,35.941334,35.875584,35.7968,35.71488,35.648106,35.57659,35.50454,35.4502,35.40507,35.361073,35.32849,35.304657,35.278473,35.256546,35.241325,35.226803,35.219467,35.22075,35.230278,35.252827,35.285057,35.32448,35.401604,35.507156,35.61652,35.766846,35.90399,35.986176,36.03294,36.01812,35.97058,35.922043,35.90645,35.950073,36.040115,36.18344,36.3282,36.438606,36.53512,36.586136,36.601852,36.640354,36.72226,36.834755,36.998802,37.24586,37.477585,37.643852,37.744965,37.767677,37.7833,37.76627,37.687637,37.576237,37.414593,37.18174,36.94879,36.703697,36.468605,36.331696,36.2739,36.24783,36.248352,36.249565,36.24313,36.219887
52.670162,52.67012,52.499626,52.24299,51.830067,51.337837,50.898766,50.386703,49.79258,49.23826,48.677704,48.093586,47.616127,47.18432,46.721718,46.32493,45.989796,45.56406,45.052383,44.533955,43.675564,42.493347,41.321136,39.69427,37.779686,36.31381,35.344093,34.549362,34.05355,33.694996,33.284058,32.873238,32.51519,32.043266,31.477072,30.9632,30.390957,29.747635,29.210258,28.752499,28.266945,27.884521,27.61229,27.341698,27.146011,27.032858,26.94844,26.91814,26.928173,26.956282,26.997368,27.027634,27.042913,27.03995,27.017998,26.992046,26.96455,26.946077,26.940065,26.94312,26.95688,26.972776,26.986595,27.001144,27.01353,27.024456,27.039703,27.058113,27.076654,27.099865,27.1221,27.13734,27.149426,27.156923,27.160316,27.162884,27.168198,27.176195,27.184856,27.19661,27.207863,27.215939,27.223812,27.22925,27.231905,27.234367,27.236698,27.238533,27.240185,27.239017,27.23436,27.228424,27.219543,27.211628,27.207558,27.205421,27.206312,27.208134,27.206688,27.198938,27.191284,27.194271,27.19834,27.216213,27.253252,27.34288,27.473873,27.597408,27.723946,27.785095,27.763273,27.697855,27.592344,27.560207,27.675655,27.978292,28.756565,29.827969,33.66905,38.63954,42.032104,44.078278,44.736595,44.792107,45.09657,45.32605,45.410408,45.48055,45.646976,45.873337,46.09548,46.091633,45.699493,45.110123,44.207348,43.01924,41.859184,40.11981,38.820145,38.721077,39.24533,40.834534,42.703217,43.852066,45.093277,45.906536,46.14754,46.195267,45.902203,45.478745,45.11168,44.794277,44.63464,44.573395,44.55369,44.5698,44.587803,44.599808,44.598476,44.588127,44.580116,44.581978,44.59109,44.59501,44.590965,44.575127,44.551456,44.511295,44.46512,44.427853,44.385918,44.343815,44.309128,44.27054,44.22335,44.177376,44.131153,44.07295,44.017113,43.96969,43.911797,43.859245,43.82247,43.78095,43.73912,43.70392,43.66139,43.605614,43.548393,43.490086,43.41092,43.32323,43.237896,43.126266,43.006397,42.90439,42.78155,42.64659,42.531483,42.409378,42.269035,42.14128,42.02005,41.87542,41.739594,41.626175,41.48342,41.329487,41.195004,41.02262,40.80802,40.590477,40.305824,39.853287,39.364113,38.931534,38.44547,38.056713,37.80285,37.54877,37.359306,37.246338,37.154724,37.094833,37.0643,37.046974,37.036713,37.024445,37.002113,36.96054,36.905685,36.853157,36.78733,36.71282,36.646255,36.570297,36.484184,36.41013,36.34373,36.26613,36.193848,36.131607,36.053097,35.97303,35.905273,35.82481,35.741875,35.674614,35.60315,35.532013,35.479336,35.436584,35.39686,35.369305,35.350006,35.32901,35.311295,35.298626,35.286667,35.281937,35.285763,35.298836,35.326942,35.36536,35.41092,35.496807,35.61116,35.727196,35.88849,36.030006,36.105133,36.13296,36.09391,36.0288,35.962723,35.931763,35.966606,36.051983,36.191063,36.334656,36.448433,36.544155,36.59277,36.608448,36.652374,36.747147,36.876343,37.06652,37.348785,37.606407,37.77748,37.889446,37.922874,37.93995,37.914577,37.820946,37.6971,37.518204,37.273243,37.035316,36.771255,36.52156,36.382126,36.324875,36.30129,36.304726,36.30776,36.303345,36.28134
52.786278,52.79708,52.638012,52.390793,51.98516,51.494766,51.054024,50.535217,49.935303,49.379097,48.801243,48.193817,47.69961,47.256443,46.786102,46.383762,46.042263,45.59796,45.04088,44.460358,43.479675,42.06533,40.632645,38.773987,36.755478,35.340363,34.453648,33.793785,33.433304,33.176018,32.88396,32.579803,32.297573,31.89643,31.388287,30.913818,30.371845,29.74786,29.218384,28.766344,28.285831,27.908096,27.640953,27.37844,27.191998,27.086224,27.00873,26.98255,26.99308,27.019566,27.05644,27.081772,27.092606,27.084866,27.05907,27.030287,26.999405,26.977524,26.968748,26.96891,26.980284,26.994938,27.00819,27.023052,27.036428,27.048492,27.065304,27.085114,27.104538,27.128242,27.149944,27.163902,27.173532,27.177322,27.177128,27.17622,27.178095,27.183865,27.191278,27.202312,27.213661,27.222193,27.23096,27.237709,27.241596,27.245401,27.24886,27.25109,27.25245,27.250044,27.243626,27.236029,27.225266,27.21606,27.211542,27.20948,27.211159,27.214022,27.214104,27.208046,27.199842,27.196236,27.194965,27.208576,27.238579,27.312458,27.4289,27.547918,27.673439,27.738056,27.72107,27.6647,27.556938,27.507492,27.601713,27.8748,28.5807,29.517466,33.156807,38.17977,41.953346,44.205063,44.921196,44.954773,45.214462,45.476456,45.639942,45.691788,45.853775,46.09089,46.31221,46.299904,45.907124,45.329906,44.381298,43.127213,41.913162,40.05936,38.691654,38.60034,39.12496,40.753403,42.688316,43.89501,45.19498,46.03067,46.25477,46.29071,45.988277,45.55802,45.17434,44.84202,44.676544,44.613968,44.595,44.61281,44.63171,44.64451,44.64353,44.6332,44.625587,44.628273,44.638355,44.643288,44.640713,44.62646,44.604187,44.56596,44.521656,44.48572,44.445156,44.40438,44.370842,44.33348,44.287605,44.242622,44.197174,44.139133,44.082657,44.0343,43.974857,43.92039,43.88192,43.838623,43.795425,43.759586,43.71675,43.661697,43.606087,43.549683,43.473465,43.38899,43.30644,43.198288,43.082047,42.98312,42.864105,42.7335,42.62226,42.50443,42.368767,42.244644,42.126198,41.983673,41.848442,41.734627,41.59134,41.437485,41.303932,41.134758,40.925343,40.715515,40.452785,40.028503,39.55659,39.124744,38.631996,38.230644,37.96267,37.696335,37.497196,37.37653,37.278587,37.214752,37.182854,37.165504,37.15599,37.14397,37.120827,37.076447,37.016586,36.95838,36.885494,36.803787,36.731705,36.64978,36.557858,36.47918,36.40766,36.324028,36.246475,36.17991,36.09671,36.013226,35.94371,35.861977,35.778473,35.711082,35.640068,35.570274,35.519646,35.479836,35.445267,35.42375,35.409985,35.395576,35.38351,35.374516,35.366394,35.365543,35.372925,35.390373,35.424812,35.47,35.522125,35.61676,35.741455,35.86974,36.03967,36.182343,36.254177,36.258545,36.190945,36.109184,36.024323,35.976322,36.000923,36.07959,36.213707,36.354733,36.467026,36.557606,36.60192,36.61788,36.66793,36.78096,36.93525,37.156433,37.489296,37.78385,37.938477,38.045044,38.086555,38.106148,38.09155,37.99602,37.850338,37.65012,37.39061,37.146126,36.86235,36.59571,36.45048,36.391647,36.368645,36.37385,36.37813,36.3752,36.354073
52.893734,52.91458,52.766773,52.52922,52.130783,51.64138,51.197754,50.667984,50.056324,49.4933,48.891296,48.25393,47.739,47.28177,46.801323,46.391373,46.041245,45.57814,44.965305,44.297867,43.22679,41.619995,39.93599,37.870453,35.850014,34.598053,33.784603,33.22528,32.96878,32.789715,32.585182,32.358204,32.132626,31.781124,31.313053,30.86781,30.35337,29.749657,29.229517,28.78467,28.310263,27.937122,27.674206,27.417997,27.23842,27.13794,27.064953,27.040398,27.049494,27.072495,27.10347,27.12289,27.128796,27.116371,27.087397,27.056566,27.02317,26.998459,26.987034,26.98397,26.991959,27.004139,27.015469,27.029,27.04198,27.054127,27.07151,27.092087,27.112057,27.1361,27.157436,27.170444,27.178211,27.179157,27.176197,27.172604,27.171848,27.175953,27.182467,27.193054,27.20462,27.213648,27.223305,27.231325,27.236423,27.24156,27.246166,27.248894,27.25016,27.24695,27.239407,27.230858,27.219234,27.209843,27.205734,27.204687,27.207981,27.212442,27.214666,27.211338,27.203415,27.191935,27.188309,27.20266,27.226934,27.28798,27.390936,27.502823,27.62591,27.69437,27.683783,27.637228,27.532055,27.470335,27.536314,27.788654,28.451727,29.295774,32.720364,37.758327,41.902718,44.35826,45.14816,45.179573,45.38881,45.653114,45.869873,45.918537,46.084724,46.31418,46.49045,46.471977,46.10884,45.56074,44.568283,43.246445,41.9818,40.01735,38.5937,38.521236,39.042065,40.706085,42.700356,43.950676,45.29583,46.14937,46.361004,46.38396,46.071423,45.635983,45.236053,44.888878,44.717567,44.653763,44.635387,44.654686,44.67451,44.688232,44.68777,44.67749,44.67009,44.67309,44.68354,44.68889,44.687096,44.673878,44.652687,44.61606,44.573357,44.538517,44.499035,44.459236,44.42646,44.389885,44.34474,44.30024,44.25509,44.196823,44.139534,44.09021,44.029373,43.973404,43.93368,43.889175,43.845222,43.809216,43.766575,43.71262,43.658745,43.604317,43.53109,43.449856,43.3701,43.265488,43.15294,43.057117,42.94198,42.81576,42.70835,42.594788,42.46379,42.343285,42.22758,42.087036,41.952187,41.8378,41.69374,41.53969,41.406834,41.240746,41.03669,40.83465,40.591682,40.19637,39.74512,39.315407,38.820534,38.40998,38.12578,37.84753,37.639515,37.510418,37.40462,37.334724,37.29978,37.28113,37.27198,37.26105,37.238586,37.19372,37.131226,37.069103,36.990814,36.902885,36.82551,36.737614,36.639248,36.554974,36.477234,36.386284,36.30249,36.230972,36.142815,36.056164,35.985336,35.902836,35.819244,35.752,35.681667,35.61325,35.56452,35.52744,35.497536,35.481495,35.472805,35.464653,35.458126,35.452812,35.44848,35.451233,35.461594,35.48226,35.521217,35.571365,35.628357,35.72959,35.863365,36.004272,36.182808,36.3294,36.404167,36.391987,36.297745,36.196167,36.095215,36.03327,36.04828,36.119293,36.248245,36.385155,36.490616,36.572365,36.611275,36.627647,36.6836,36.81678,36.999393,37.25557,37.625244,37.93331,38.061577,38.156036,38.20392,38.226894,38.22628,38.144802,38.002464,37.78802,37.51015,37.25628,36.96409,36.68371,36.525555,36.46247,36.437286,36.442307,36.446907,36.444473,36.423527
52.982662,53.01156,52.872864,52.64315,52.250046,51.760155,51.312584,50.771652,50.145805,49.571243,48.943672,48.27662,47.741592,47.27098,46.780933,46.36393,46.00594,45.52927,44.86193,44.098858,42.975845,41.26362,39.422245,37.278187,35.27956,34.11937,33.401478,32.91636,32.700985,32.568733,32.41652,32.233955,32.038784,31.711626,31.264145,30.837063,30.341867,29.753187,29.240227,28.801533,28.33236,27.962742,27.702667,27.450508,27.275171,27.177845,27.1072,27.082663,27.089628,27.108894,27.134361,27.14869,27.150547,27.134605,27.103573,27.07159,27.036568,27.009636,26.995842,26.989536,26.993654,27.002623,27.01114,27.022137,27.033566,27.044857,27.06178,27.082355,27.102432,27.12657,27.147701,27.16018,27.166916,27.166267,27.16174,27.156605,27.154377,27.157585,27.163628,27.174023,27.185768,27.195114,27.205303,27.214085,27.219948,27.225964,27.231369,27.23447,27.235756,27.232208,27.224264,27.215527,27.20411,27.195578,27.192677,27.193508,27.199131,27.20563,27.210342,27.209892,27.203205,27.188389,27.185085,27.199095,27.214283,27.26715,27.363764,27.470142,27.59169,27.664452,27.660704,27.621178,27.523323,27.457369,27.487377,27.728012,28.379227,29.172989,32.381477,37.399002,41.885155,44.5123,45.38006,45.445915,45.62758,45.839886,46.03371,46.113125,46.30475,46.5216,46.648983,46.605743,46.26425,45.761505,44.73544,43.355724,42.05159,39.998528,38.535156,38.48413,39.001724,40.692787,42.73065,44.009743,45.37605,46.2389,46.452835,46.46508,46.142097,45.703094,45.2892,44.929108,44.752666,44.687805,44.66977,44.6902,44.710865,44.725525,44.725662,44.715527,44.70819,44.711113,44.721428,44.72663,44.72495,44.71221,44.691685,44.656185,44.6146,44.58042,44.541634,44.50242,44.47003,44.433853,44.389038,44.344666,44.2995,44.24088,44.182922,44.132835,44.071068,44.014183,43.97374,43.928707,43.884636,43.84886,43.806892,43.75434,43.702236,43.649704,43.57924,43.500946,43.423645,43.322174,43.21285,43.119648,43.00778,42.885193,42.78087,42.67073,42.543518,42.425934,42.31242,42.173344,42.038647,41.92366,41.77884,41.62453,41.49221,41.328697,41.12921,40.933754,40.707115,40.336716,39.904053,39.47697,38.98095,38.56281,38.264732,37.976475,37.760456,37.62298,37.508827,37.43205,37.393482,37.373226,37.364883,37.356384,37.3365,37.294,37.231915,37.168373,37.08732,36.995113,36.913433,36.82041,36.71595,36.626015,36.542015,36.443737,36.35376,36.277416,36.184616,36.095154,36.02321,35.94016,35.856598,35.78952,35.719727,35.65238,35.605095,35.56999,35.543488,35.531467,35.526535,35.523117,35.520798,35.518204,35.516556,35.521484,35.533302,35.55516,35.595917,35.64849,35.708145,35.81379,35.953697,36.10141,36.29268,36.451614,36.53235,36.51577,36.399933,36.271996,36.158943,36.088184,36.095535,36.159637,36.28331,36.4153,36.512997,36.585648,36.619164,36.63568,36.69684,36.84745,37.054348,37.347633,37.721504,38.002106,38.11667,38.210655,38.26688,38.293053,38.286118,38.222298,38.127384,37.91062,37.61136,37.34717,37.0599,36.770817,36.593903,36.525402,36.496586,36.500153,36.50444,36.501778,36.480415
53.094666,53.13217,53.002754,52.780563,52.39147,51.898254,51.443123,50.885963,50.237534,49.64183,48.97875,48.273186,47.71309,47.22604,46.72476,46.300213,45.933784,45.442238,44.71879,43.85876,42.68595,40.896454,38.941906,36.735214,34.766182,33.7032,33.0831,32.660168,32.47127,32.386887,32.283146,32.133873,31.955208,31.648312,31.221342,30.810638,30.332232,29.759012,29.256021,28.824566,28.361244,27.994957,27.737,27.487606,27.314898,27.219357,27.149426,27.123184,27.126677,27.14096,27.159723,27.168207,27.165688,27.146244,27.113487,27.080715,27.044315,27.01498,26.99828,26.98764,26.986105,26.989986,26.993683,26.999752,27.007572,27.01635,27.031078,27.050335,27.06968,27.093216,27.113815,27.125725,27.131693,27.130016,27.124508,27.118433,27.115355,27.118092,27.12389,27.134235,27.146172,27.15578,27.166386,27.17582,27.182388,27.18929,27.195633,27.199413,27.20119,27.198177,27.19096,27.183205,27.173645,27.16778,27.16758,27.172016,27.18163,27.191368,27.199776,27.203201,27.198938,27.185026,27.178589,27.187393,27.199787,27.246174,27.335175,27.436443,27.556719,27.634254,27.637913,27.604807,27.517567,27.454245,27.456879,27.680775,28.31728,29.085299,32.061855,37.049553,41.912937,44.72262,45.68713,45.814236,45.946693,46.077858,46.240894,46.374157,46.551216,46.705605,46.81067,46.749702,46.42076,45.95462,44.915222,43.49348,42.14357,39.995995,38.487885,38.45935,38.982647,40.708298,42.790142,44.092678,45.476273,46.33855,46.53997,46.551003,46.228462,45.78443,45.353886,44.978363,44.796116,44.73035,44.713097,44.735294,44.75744,44.773945,44.775482,44.76581,44.758667,44.761353,44.771225,44.77581,44.77367,44.760994,44.74095,44.70634,44.665627,44.631916,44.593555,44.55473,44.52266,44.486694,44.441936,44.397472,44.352173,44.293106,44.23447,44.183678,44.121117,44.063576,44.022694,43.977562,43.93396,43.89901,43.85829,43.807816,43.758064,43.707954,43.6409,43.566124,43.491737,43.393993,43.288445,43.198235,43.09002,42.971405,42.87043,42.764038,42.640865,42.526375,42.415215,42.27767,42.143036,42.027298,41.881607,41.726997,41.5952,41.434654,41.24009,41.052296,40.848694,40.509235,40.096714,39.671455,39.173645,38.74942,38.441963,38.137188,37.904236,37.756683,37.630615,37.54326,37.498795,37.4756,37.468075,37.463425,37.448208,37.410957,37.351967,37.28888,37.206726,37.111065,37.025043,36.926414,36.81459,36.717384,36.62525,36.517292,36.41907,36.33632,36.237453,36.144363,36.070976,35.98724,35.90377,35.836918,35.767754,35.701515,35.655586,35.622337,35.59896,35.59062,35.589146,35.59024,35.591946,35.59188,35.592484,35.59871,35.610893,35.632263,35.672817,35.72629,35.7875,35.89707,36.043472,36.19818,36.40792,36.583923,36.668716,36.65133,36.521305,36.37243,36.241356,36.156933,36.156933,36.212616,36.327957,36.451714,36.539448,36.60031,36.626877,36.643658,36.71118,36.882156,37.11773,37.463028,37.828873,38.05789,38.17585,38.278152,38.340363,38.370033,38.363503,38.303085,38.2177,38.027477,37.73645,37.456497,37.181507,36.881123,36.675354,36.599937,36.56627,36.567593,36.57148,36.568436,36.546253
53.219635,53.26356,53.14019,52.92221,52.53251,52.03067,51.563156,50.985207,50.303406,49.67139,48.964615,48.216225,47.62925,47.124718,46.612324,46.181526,45.808228,45.30362,44.53262,43.59194,42.358536,40.49514,38.46705,36.29103,34.40767,33.422585,32.862457,32.4838,32.32293,32.274136,32.203354,32.070534,31.893326,31.598976,31.190105,30.794357,30.32979,29.771685,29.28067,28.856762,28.39862,28.033813,27.775574,27.525185,27.35084,27.2537,27.181023,27.150314,27.148891,27.15739,27.169342,27.172443,27.166203,27.144295,27.11085,27.078064,27.040936,27.00925,26.989147,26.972933,26.963379,26.959446,26.955181,26.952255,26.952599,26.955486,26.96422,26.979015,26.99545,27.016418,27.035454,27.046644,27.05223,27.05056,27.045233,27.03941,27.036701,27.03978,27.04581,27.056404,27.068567,27.07835,27.0892,27.099142,27.106407,27.114342,27.1222,27.127651,27.131336,27.13126,27.127655,27.1237,27.11966,27.120052,27.125309,27.136354,27.152573,27.167294,27.180885,27.189255,27.188295,27.177631,27.166988,27.169247,27.183067,27.226109,27.309843,27.40869,27.529999,27.613796,27.62539,27.597206,27.521477,27.466732,27.453194,27.673912,28.313093,29.076338,31.893353,36.872227,42.03138,45.028828,46.04648,46.127693,46.22329,46.30657,46.446533,46.62317,46.7816,46.872368,46.943275,46.873245,46.57177,46.145195,45.10191,43.642246,42.243507,40.007378,38.45751,38.45277,38.99289,40.760677,42.88424,44.201607,45.595985,46.44345,46.61178,46.633457,46.326332,45.877068,45.428047,45.035545,44.847725,44.78173,44.766304,44.791588,44.816605,44.836708,44.84121,44.832924,44.826538,44.82904,44.83809,44.841434,44.837883,44.82437,44.804108,44.769653,44.72927,44.69571,44.65761,44.619164,44.58747,44.551857,44.50728,44.46277,44.41738,44.357906,44.298653,44.247284,44.184166,44.126305,44.085304,44.04052,43.997902,43.96421,43.925186,43.877144,43.82995,43.782375,43.71882,43.647614,43.57617,43.48226,43.380608,43.293453,43.188866,43.074062,42.97622,42.87323,42.753685,42.641953,42.532867,42.396595,42.261906,42.145416,41.998924,41.844048,41.712715,41.55497,41.36558,41.184845,40.99566,40.682423,40.29538,39.885204,39.3922,38.96197,38.64807,38.323853,38.06756,37.905243,37.762825,37.660812,37.607483,37.579155,37.570953,37.570045,37.560513,37.530502,37.47722,37.417053,37.336792,37.240326,37.15162,37.048855,36.930256,36.825405,36.72448,36.605488,36.497498,36.407043,36.30076,36.203014,36.127514,36.04254,35.9588,35.891968,35.823322,35.758003,35.71309,35.68106,35.6596,35.653416,35.6539,35.657738,35.661797,35.662907,35.664112,35.669693,35.680386,35.698967,35.73697,35.78981,35.851646,35.96465,36.119194,36.28585,36.515236,36.708088,36.799034,36.785374,36.64914,36.486248,36.332756,36.23105,36.224487,36.270473,36.373714,36.48529,36.561607,36.60924,36.628433,36.64608,36.7212,36.91531,37.179916,37.55655,37.90953,38.10188,38.2304,38.343185,38.409683,38.442646,38.439003,38.375904,38.284447,38.136307,37.868927,37.56958,37.296658,36.990353,36.769436,36.680714,36.63716,36.636,36.641415,36.639957,36.618614
53.332188,53.37879,53.25688,53.039055,52.644547,52.13134,51.650208,51.052456,50.335793,49.66282,48.915604,48.130333,47.520576,47.001953,46.48106,46.04613,45.669014,45.151833,44.34805,43.361073,42.058838,40.118484,38.049297,35.972095,34.206192,33.26906,32.721786,32.371098,32.2453,32.21463,32.15943,32.031437,31.850073,31.562275,31.167763,30.785774,30.332981,29.788525,29.30888,28.891632,28.437233,28.071941,27.811289,27.556637,27.377048,27.275547,27.197567,27.16092,27.154438,27.157795,27.164465,27.163864,27.155333,27.132435,27.099377,27.06725,27.030092,26.996605,26.973412,26.951721,26.933752,26.921215,26.907862,26.894146,26.885025,26.88012,26.880539,26.88882,26.900843,26.917837,26.934555,26.944937,26.950403,26.949442,26.9451,26.940369,26.938875,26.942837,26.949413,26.960434,26.9728,26.982676,26.993626,27.003935,27.011847,27.020855,27.030602,27.03843,27.045061,27.049686,27.051727,27.053453,27.057198,27.065845,27.077942,27.096909,27.120668,27.14082,27.159744,27.172874,27.174868,27.16652,27.153648,27.152325,27.167316,27.209372,27.291796,27.391209,27.515667,27.606056,27.624506,27.59928,27.531174,27.484764,27.465874,27.701283,28.362022,29.128448,31.910103,36.921967,42.221695,45.347534,46.3412,46.27508,46.36207,46.4589,46.600563,46.78935,46.949078,47.013344,47.03035,46.95984,46.702084,46.314568,45.26522,43.765713,42.321606,40.017868,38.438843,38.45542,39.01136,40.82405,42.9899,44.314827,45.71294,46.538822,46.6687,46.704315,46.41809,45.965775,45.49968,45.091644,44.899487,44.833984,44.821148,44.850395,44.879242,44.904064,44.91258,44.906425,44.901367,44.90397,44.912193,44.914146,44.908768,44.89386,44.872807,44.83788,44.797394,44.763786,44.72593,44.68798,44.65679,44.621773,44.577682,44.533363,44.48806,44.428333,44.368607,44.316822,44.253326,44.195335,44.15442,44.110123,44.068542,44.036076,43.99862,43.95266,43.90751,43.86193,43.801113,43.7327,43.663567,43.57277,43.474342,43.38971,43.28804,43.176193,43.080666,42.980064,42.863007,42.753105,42.645348,42.50981,42.374954,42.257885,42.110825,41.955788,41.82479,41.669098,41.484184,41.308384,41.11973,40.823112,40.464783,40.081604,39.599785,39.163445,38.843933,38.504112,38.22587,38.045143,37.884888,37.767197,37.703842,37.6689,37.657784,37.658424,37.65303,37.62905,37.58143,37.5251,37.448578,37.35389,37.26483,37.160583,37.037735,36.92697,36.81893,36.69039,36.573463,36.475822,36.36235,36.259777,36.18177,36.095047,36.01053,35.94336,35.874924,35.81019,35.765812,35.73426,35.713326,35.707542,35.708237,35.712593,35.716904,35.717625,35.717773,35.721176,35.729225,35.74396,35.778526,35.83028,35.89257,36.008736,36.17225,36.354416,36.599236,36.804142,36.90367,36.8953,36.756737,36.58517,36.412506,36.294807,36.281525,36.318428,36.40852,36.506805,36.57284,36.608875,36.622063,36.641155,36.723766,36.93945,37.227646,37.604454,37.95042,38.14012,38.274612,38.39332,38.46334,38.49889,38.497154,38.433945,38.34201,38.2229,37.973083,37.661957,37.376617,37.07106,36.856255,36.752,36.697113,36.694824,36.703644,36.706196,36.687614
53.446182,53.493477,53.370743,53.151085,52.75016,52.224926,51.73012,51.113373,50.362885,49.649567,48.863914,48.04341,47.41193,46.882996,46.35428,45.913635,45.535202,44.99037,44.15135,43.148815,41.7735,39.778275,37.72439,35.721268,34.04454,33.15584,32.6194,32.289047,32.18799,32.168453,32.12168,31.994598,31.8088,31.52508,31.143433,30.776041,30.336176,29.806461,29.338718,28.928623,28.478106,28.111832,27.847883,27.587378,27.400652,27.293285,27.208542,27.16499,27.153194,27.151554,27.15349,27.149855,27.139645,27.116447,27.08437,27.053337,27.016602,26.981678,26.955635,26.928555,26.902004,26.880527,26.8576,26.832294,26.812843,26.799366,26.790531,26.79144,26.798416,26.810875,26.824997,26.834534,26.840021,26.840076,26.837044,26.833744,26.833822,26.838896,26.846111,26.857586,26.870121,26.880024,26.891003,26.901592,26.91008,26.92015,26.931908,26.942396,26.952415,26.962532,26.971134,26.979336,26.99184,27.009628,27.029158,27.056606,27.08828,27.11403,27.138279,27.155972,27.160677,27.153908,27.141554,27.139334,27.152435,27.193493,27.276619,27.377636,27.505726,27.602333,27.626766,27.60334,27.538929,27.498444,27.481733,27.735016,28.421684,29.202774,32.02421,37.10558,42.479317,45.596184,46.512104,46.371605,46.445396,46.56797,46.741287,46.938446,47.099907,47.14417,47.111893,47.048256,46.83448,46.476837,45.42044,43.87622,42.379078,40.019955,38.423447,38.45889,39.009445,40.880157,43.113556,44.441788,45.829674,46.631508,46.740013,46.785034,46.51458,46.06259,45.578766,45.15459,44.958332,44.893597,44.88389,44.91782,44.951214,44.98162,44.994938,44.991394,44.988037,44.991005,44.998535,44.99906,44.991783,44.975365,44.95338,44.917747,44.877,44.84336,44.80578,44.76846,44.73795,44.703636,44.660194,44.61624,44.571136,44.511253,44.451088,44.39888,44.335037,44.27699,44.236267,44.19254,44.152077,44.12089,44.08498,44.040977,43.99771,43.953903,43.89547,43.82952,43.762486,43.674522,43.57905,43.496796,43.397736,43.288414,43.19478,43.096046,42.98075,42.872025,42.765087,42.62987,42.49468,42.37699,42.229393,42.074203,41.943413,41.789474,41.60829,41.43691,41.249657,40.975708,40.651897,40.29212,39.81862,39.37555,39.050095,38.698303,38.3981,38.192146,38.011658,37.87723,37.802483,37.759453,37.74351,37.743984,37.741486,37.72249,37.680233,37.62801,37.556137,37.46467,37.37658,37.272285,37.146507,37.03071,36.91626,36.778633,36.652885,36.54802,36.427162,36.31935,36.238407,36.149498,36.063797,35.99601,35.92756,35.86319,35.819107,35.787666,35.766586,35.7603,35.760242,35.76392,35.767345,35.76687,35.765083,35.765404,35.77007,35.780327,35.81095,35.86138,35.924152,36.044037,36.21669,36.412952,36.67441,36.893475,37.00199,36.999786,36.8587,36.677917,36.492867,36.360783,36.336113,36.363968,36.439537,36.522896,36.579094,36.603584,36.610878,36.631912,36.72263,36.959248,37.27026,37.654335,37.994244,38.17577,38.31609,38.440956,38.514656,38.552856,38.55306,38.490562,38.398987,38.285606,38.048553,37.748474,37.455467,37.14862,36.938194,36.824413,36.764317,36.763638,36.77542,36.783054,36.766846
53.590336,53.636528,53.51057,53.287094,52.87753,52.33826,51.82818,51.18979,50.40532,49.654133,48.827503,47.963562,47.30146,46.75646,46.22319,45.782898,45.399014,44.83023,43.96183,42.94354,41.492035,39.456245,37.444923,35.507153,33.901436,33.05417,32.53739,32.225845,32.137375,32.12047,32.070953,31.938337,31.749393,31.469631,31.101322,30.750675,30.331406,29.824665,29.37355,28.974365,28.53031,28.163256,27.894802,27.625658,27.428104,27.311852,27.217209,27.164234,27.145828,27.138477,27.135593,27.129322,27.11795,27.095436,27.065556,27.036724,27.001778,26.966637,26.938496,26.906353,26.87082,26.839518,26.805851,26.76732,26.735949,26.71257,26.692997,26.685333,26.686436,26.693535,26.70448,26.712906,26.718327,26.719532,26.718012,26.716393,26.718285,26.724586,26.732445,26.744312,26.756905,26.766743,26.777649,26.788448,26.797497,26.808643,26.822628,26.83621,26.85027,26.86699,26.883438,26.899326,26.922047,26.9502,26.977962,27.01461,27.054602,27.086033,27.115458,27.137299,27.144241,27.138504,27.126831,27.124378,27.135792,27.17725,27.262955,27.366753,27.499294,27.60154,27.630182,27.606518,27.538828,27.50034,27.499577,27.78553,28.512218,29.317978,32.304268,37.528572,42.88428,45.894623,46.675945,46.46885,46.548573,46.69296,46.877075,47.099476,47.23837,47.242577,47.210564,47.165245,46.974045,46.625137,45.576073,43.99922,42.438343,40.009872,38.394043,38.45849,39.004864,40.958443,43.284184,44.610596,46.006287,46.79008,46.85331,46.89445,46.63794,46.19075,45.683495,45.238297,45.037403,44.973915,44.968616,45.009163,45.04913,45.087643,45.108097,45.10865,45.10833,45.112617,45.119923,45.11937,45.110344,45.092445,45.06965,45.033417,44.992447,44.958755,44.92147,44.884727,44.854725,44.821053,44.77824,44.73461,44.68953,44.629257,44.568466,44.515648,44.451347,44.39331,44.352962,44.31007,44.271103,44.241547,44.207455,44.165554,44.12415,44.0821,44.025993,43.96247,43.897537,43.812622,43.720444,43.640797,43.54461,43.437946,43.34616,43.249,43.134888,43.026737,42.920135,42.78472,42.64888,42.53057,42.382477,42.227203,42.096725,41.944527,41.76718,41.60057,41.414482,41.16725,40.88801,40.568523,40.11354,39.664864,39.334034,38.968548,38.644028,38.411446,38.19823,38.034393,37.943115,37.88611,37.858124,37.85199,37.847584,37.82891,37.789284,37.740337,37.673317,37.58664,37.501427,37.399113,37.272232,37.152397,37.032158,36.885395,36.750153,36.63738,36.508034,36.393753,36.308838,36.216568,36.128674,36.05963,35.990738,35.92659,35.882805,35.85134,35.82966,35.82215,35.820526,35.822536,35.824154,35.82176,35.817207,35.813545,35.81405,35.818962,35.845207,35.894634,35.958702,36.083717,36.268127,36.48275,36.76465,37.000137,37.118763,37.122864,36.976536,36.782925,36.588615,36.439995,36.39657,36.413048,36.470734,36.5345,36.575497,36.585564,36.586903,36.610508,36.711143,36.971565,37.308987,37.71073,38.04742,38.21596,38.363613,38.496513,38.574898,38.615944,38.618324,38.55683,38.465553,38.348274,38.120552,37.838135,37.536453,37.22445,37.016434,36.89677,36.834908,36.83831,36.855423,36.873386,36.863068
53.743294,53.78743,53.65769,53.43049,53.01361,52.463203,51.941265,51.28357,50.47663,49.7062,48.843887,47.93558,47.240025,46.6732,46.13147,45.689987,45.295887,44.714653,43.8289,42.789894,41.277065,39.222725,37.2641,35.372353,33.8087,32.986603,32.490208,32.18915,32.09796,32.074215,32.01226,31.869568,31.67865,31.402431,31.045818,30.71062,30.315786,29.836302,29.404007,29.018059,28.58263,28.2159,27.94318,27.664886,27.455437,27.32938,27.224052,27.161362,27.1366,27.124184,27.117575,27.109764,27.098118,27.077274,27.050531,27.024729,26.992847,26.959148,26.930489,26.895157,26.852774,26.813482,26.770859,26.7211,26.679548,26.64774,26.619041,26.60409,26.600206,26.602642,26.61064,26.617863,26.622934,26.624828,26.624401,26.624027,26.627266,26.634438,26.642677,26.654686,26.667171,26.676867,26.687603,26.698475,26.707905,26.719833,26.735603,26.7518,26.76939,26.791914,26.815216,26.837776,26.869196,26.905949,26.940346,26.984226,27.030499,27.066006,27.098904,27.123238,27.131317,27.12591,27.11451,27.112492,27.124279,27.168108,27.257526,27.36449,27.498365,27.601412,27.630913,27.605042,27.531597,27.49517,27.519112,27.845356,28.621775,29.466555,32.689026,38.099403,43.394524,46.19694,46.800705,46.57953,46.66969,46.81511,46.983315,47.21785,47.326805,47.303413,47.30777,47.28293,47.090546,46.731422,45.702667,44.112,42.4908,39.99102,38.35196,38.44622,39.000298,41.03096,43.444897,44.793533,46.18848,46.94442,46.976723,47.011112,46.765644,46.326797,45.79551,45.32844,45.122883,45.060936,45.060562,45.10855,45.156097,45.2039,45.232628,45.23811,45.241753,45.24832,45.256172,45.255394,45.24559,45.22702,45.204018,45.167793,45.126938,45.093315,45.056286,45.019775,44.989845,44.956413,44.913956,44.87053,44.825325,44.764565,44.70311,44.64968,44.584984,44.527122,44.487343,44.44548,44.408154,44.380272,44.347908,44.307823,44.267902,44.227234,44.172924,44.11129,44.048042,43.96574,43.876488,43.79915,43.705475,43.601048,43.510635,43.414314,43.300407,43.191956,43.084976,42.948708,42.81196,42.6931,42.544617,42.389336,42.259148,42.108253,41.93404,41.77163,41.588295,41.35827,41.113655,40.844826,40.43598,40.00316,39.66291,39.280052,38.931435,38.676567,38.428402,38.22856,38.11399,38.036697,37.98894,37.968773,37.955704,37.92994,37.887527,37.838974,37.77468,37.692642,37.61149,37.512806,37.387226,37.26573,37.142136,36.98882,36.84604,36.726814,36.59009,36.46963,36.380554,36.28434,36.193455,36.122566,36.052742,35.98854,35.945007,35.913456,35.890945,35.88182,35.87815,35.87786,35.877182,35.87269,35.86537,35.858086,35.855003,35.85542,35.87848,35.928047,35.99435,36.126087,36.323536,36.556797,36.857895,37.107132,37.233173,37.24058,37.086586,36.87923,36.67725,36.513588,36.45137,36.455696,36.496593,36.54191,36.566063,36.561398,36.556915,36.582474,36.69084,36.97298,37.33677,37.75967,38.09754,38.255623,38.411278,38.55272,38.636703,38.68219,38.687477,38.625763,38.53226,38.406605,38.18212,37.91256,37.60117,37.279106,37.06903,36.94909,36.889565,36.899002,36.924034,36.956093,36.9543
53.883327,53.925552,53.79326,53.563957,53.142826,52.58584,52.05693,51.384434,50.566833,49.794094,48.902763,47.955963,47.232506,46.643433,46.08346,45.63036,45.225662,44.636875,43.739334,42.680504,41.120544,39.059242,37.151146,35.295937,33.762306,32.956017,32.467823,32.167038,32.067932,32.03354,31.958082,31.805553,31.611588,31.338024,30.99124,30.668926,30.29607,29.84153,29.426712,29.053432,28.626766,28.261211,27.985256,27.69924,27.479427,27.344826,27.230278,27.15942,27.129543,27.11328,27.104197,27.095741,27.08442,27.065619,27.042114,27.019379,26.990828,26.959274,26.931063,26.89408,26.847147,26.802235,26.753164,26.695227,26.646244,26.608334,26.573042,26.552832,26.54535,26.544338,26.550024,26.556145,26.560654,26.562725,26.562849,26.563133,26.567125,26.57477,26.583153,26.59512,26.607414,26.616943,26.627502,26.638348,26.647968,26.660372,26.677357,26.69542,26.71561,26.742432,26.770784,26.798203,26.835888,26.878716,26.917706,26.966473,27.016827,27.054852,27.089703,27.115253,27.123772,27.118357,27.10722,27.106388,27.120197,27.16734,27.260546,27.370567,27.500832,27.599243,27.627888,27.59958,27.525343,27.496397,27.541851,27.90475,28.732138,29.626286,33.050026,38.6336,43.920242,46.45831,46.867367,46.70029,46.780495,46.911118,47.064594,47.26864,47.370605,47.365417,47.387276,47.374496,47.181618,46.81436,45.804092,44.20334,42.5322,39.974415,38.31083,38.424404,38.99525,41.072258,43.550568,44.96205,46.31431,47.015965,47.071575,47.114765,46.880604,46.449524,45.89702,45.41038,45.20063,45.140198,45.14441,45.19934,45.25406,45.310585,45.347076,45.357246,45.364788,45.373867,45.382713,45.382267,45.372543,45.35408,45.331383,45.295616,45.255196,45.221798,45.184975,45.14844,45.1183,45.084785,45.04245,44.999218,44.95397,44.892853,44.83088,44.777008,44.71209,44.65454,44.615448,44.574646,44.538837,44.512444,44.48152,44.44288,44.40409,44.36447,44.311462,44.251183,44.1892,44.108883,44.021885,43.946384,43.85466,43.751846,43.662292,43.566254,43.451912,43.342613,43.234818,43.09739,42.959656,42.840294,42.69151,42.536217,42.40619,42.25614,42.08417,41.92501,41.74681,41.518616,41.28743,41.06704,40.73378,40.344715,39.98372,39.577972,39.205856,38.93208,38.659172,38.4278,38.28481,38.184425,38.114258,38.07762,38.052673,38.015953,37.96749,37.917103,37.853363,37.774734,37.697445,37.602642,37.479515,37.358032,37.233135,37.075954,36.928097,36.804398,36.662197,36.53676,36.444046,36.344124,36.25016,36.17728,36.106293,36.041832,35.998455,35.96682,35.943523,35.932785,35.92706,35.924377,35.92144,35.915092,35.90551,35.895535,35.889942,35.887314,35.908672,35.95926,36.028114,36.167526,36.377678,36.626175,36.94209,37.20099,37.331608,37.338634,37.17626,36.957527,36.746418,36.570946,36.49639,36.48938,36.517063,36.549137,36.55996,36.54253,36.53195,36.558144,36.670002,36.969467,37.357155,37.794487,38.13581,38.291855,38.455025,38.60381,38.693718,38.746117,38.755417,38.691654,38.592407,38.45897,38.234,37.969513,37.64805,37.31382,37.099167,36.98252,36.92762,36.94368,36.977554,37.02353,37.029827
54.0661,54.10929,53.975018,53.745888,53.32411,52.76453,52.231915,51.542915,50.727135,49.977516,49.04934,48.04899,47.2895,46.66593,46.0688,45.587166,45.163506,44.55765,43.640915,42.558357,40.945683,38.879448,37.032036,35.223503,33.72653,32.936394,32.454674,32.149822,32.03745,31.987675,31.894493,31.729172,31.53005,31.258595,30.922699,30.614693,30.264412,29.837132,29.443396,29.085926,28.67136,28.309296,28.031342,27.738186,27.507864,27.364395,27.240253,27.160965,27.125973,27.106037,27.09483,27.08617,27.075626,27.059536,27.040028,27.021036,26.99666,26.968235,26.941387,26.903763,26.85339,26.803837,26.749336,26.684416,26.62909,26.58603,26.545174,26.520466,26.509819,26.505611,26.508839,26.51345,26.516788,26.518215,26.518158,26.518427,26.522509,26.53018,26.538418,26.550095,26.562092,26.571417,26.581745,26.592499,26.602228,26.614964,26.632893,26.652496,26.67492,26.705511,26.73831,26.769983,26.813107,26.861143,26.90404,26.95688,27.010551,27.050564,27.0868,27.11316,27.12207,27.11687,27.106945,27.108673,27.125755,27.17812,27.274714,27.384212,27.511673,27.60386,27.625946,27.59359,27.515045,27.493053,27.577198,27.971834,28.855927,29.855753,33.601837,39.386017,44.53087,46.704346,46.8999,46.835995,46.90793,47.03003,47.180336,47.3448,47.43081,47.43985,47.47761,47.476273,47.278454,46.894688,45.916702,44.31351,42.580315,39.94554,38.24794,38.38629,38.978874,41.122314,43.688496,45.17497,46.480267,47.115955,47.188976,47.207836,46.969204,46.56357,46.011868,45.51481,45.29552,45.23698,45.246788,45.31034,45.374214,45.441833,45.487938,45.50358,45.51573,45.527847,45.53808,45.53851,45.52983,45.512634,45.491287,45.457146,45.417946,45.385094,45.348526,45.311687,45.281002,45.247093,45.20463,45.161484,45.11623,45.055035,44.992912,44.9388,44.873943,44.817097,44.779045,44.739746,44.70591,44.681328,44.652008,44.614826,44.577152,44.538536,44.4868,44.42788,44.367134,44.288803,44.20408,44.1304,44.04057,43.93919,43.850204,43.753895,43.638317,43.527405,43.418087,43.278732,43.139496,43.019455,42.87014,42.71457,42.584393,42.434723,42.26464,42.10874,41.935917,41.715324,41.495876,41.290432,41.013817,40.699303,40.393944,39.990044,39.576183,39.26448,38.9559,38.689278,38.517204,38.386917,38.283382,38.219864,38.175575,38.11889,38.057213,38.00132,37.935364,37.859344,37.786377,37.69616,37.576862,37.456936,37.332214,37.172752,37.021088,36.893944,36.746994,36.616695,36.52021,36.415977,36.318024,36.242386,36.16961,36.104404,36.0608,36.02859,36.003593,35.990013,35.980904,35.97426,35.967857,35.959057,35.946934,35.934563,35.927067,35.922146,35.943016,35.99601,36.068527,36.218994,36.445446,36.71041,37.04319,37.30291,37.41681,37.43129,37.272476,37.039696,36.8162,36.63148,36.55014,36.528423,36.540154,36.558,36.554176,36.519966,36.49997,36.526886,36.64093,36.962837,37.382843,37.825,38.17176,38.33957,38.512733,38.673737,38.774097,38.833755,38.845177,38.779343,38.67791,38.52962,38.298626,38.039833,37.70121,37.347412,37.125,37.011456,36.96106,36.98488,37.0309,37.08993,37.104805
54.27387,54.323055,54.19095,53.96555,53.54921,52.994453,52.464676,51.7627,50.95758,50.24494,49.282043,48.2201,47.41129,46.73671,46.080055,45.550854,45.09807,44.453926,43.50634,42.41072,40.75257,38.6866,36.90423,35.156452,33.705803,32.93117,32.454117,32.1418,32.01294,31.945644,31.833199,31.655529,31.453224,31.18194,30.854397,30.559956,30.22961,29.827621,29.454878,29.113674,28.712473,28.355515,28.076963,27.778093,27.538437,27.386967,27.254211,27.167515,27.12825,27.10548,27.092934,27.084578,27.075195,27.062065,27.046606,27.031319,27.011219,26.986355,26.961533,26.92442,26.872383,26.82002,26.762089,26.692581,26.633026,26.586613,26.54208,26.514263,26.501316,26.494516,26.495289,26.498016,26.499466,26.49922,26.498062,26.497463,26.500824,26.508013,26.51582,26.52702,26.538654,26.54778,26.557873,26.568466,26.578157,26.59097,26.609364,26.629887,26.653751,26.686878,26.72271,26.757286,26.804089,26.855642,26.901173,26.95678,27.01278,27.054277,27.091618,27.119,27.129065,27.125277,27.11864,27.12526,27.147697,27.20674,27.306454,27.413918,27.536415,27.618137,27.62865,27.585754,27.507723,27.506247,27.637745,28.05748,29.013456,30.185616,34.408966,40.415222,45.216057,46.942047,46.917015,46.969948,47.031998,47.15561,47.3172,47.436813,47.501442,47.520912,47.56929,47.576164,47.372704,46.97277,46.03449,44.434174,42.63301,39.89216,38.13092,38.289726,38.929855,41.167076,43.83789,45.408424,46.66201,47.222992,47.31211,47.28771,47.03682,46.669056,46.130116,45.62764,45.396584,45.340855,45.35766,45.430893,45.50424,45.582222,45.637146,45.65838,45.675873,45.692093,45.704605,45.706726,45.70008,45.685097,45.66597,45.634453,45.59719,45.565216,45.52894,45.491535,45.45999,45.42543,45.382713,45.33976,45.294853,45.234367,45.173,45.119335,45.055134,44.999367,44.96266,44.925175,44.893456,44.87057,44.84252,44.806374,44.769466,44.731613,44.68088,44.623074,44.563416,44.48681,44.40402,44.331844,44.243546,44.143173,44.05433,43.95717,43.839584,43.726357,43.614975,43.473152,43.33207,43.211227,43.061264,42.905155,42.774467,42.624413,42.455284,42.30201,42.13407,41.923203,41.713966,41.510323,41.25833,40.99833,40.761986,40.414284,40.007233,39.660896,39.31185,38.999115,38.790535,38.626144,38.482765,38.384277,38.313217,38.22862,38.147274,38.081047,38.00898,37.93354,37.864223,37.778183,37.6634,37.54651,37.42373,37.26445,37.111332,36.982765,36.8329,36.698788,36.598946,36.490288,36.38773,36.308735,36.233578,36.167023,36.12268,36.089348,36.06167,36.04397,36.03015,36.01793,36.006897,35.995255,35.980766,35.967136,35.95929,35.95395,35.976456,36.033478,36.11078,36.273945,36.51705,36.79634,37.142845,37.39609,37.48249,37.500732,37.34722,37.103275,36.869892,36.682274,36.601494,36.568245,36.56711,36.5727,36.554806,36.502438,36.47102,36.497944,36.614513,36.962128,37.417435,37.85431,38.204494,38.39252,38.579845,38.75451,38.863945,38.929153,38.943207,38.875954,38.771194,38.607735,38.369186,38.112633,37.749763,37.369644,37.13667,37.02596,36.980103,37.01272,37.07331,37.144753,37.168327
54.457825,54.515575,54.389805,54.170845,53.764034,53.219223,52.69728,51.990204,51.19148,50.500618,49.51803,48.405094,47.53977,46.80807,46.08531,45.503582,45.018856,44.319736,43.33425,42.243935,40.55804,38.496918,36.771023,35.08932,33.689713,32.929916,32.457745,32.139507,31.99723,31.916126,31.788568,31.60285,31.401371,31.129251,30.806273,30.522198,30.206703,29.823586,29.466633,29.137932,28.747276,28.39463,28.115894,27.812706,27.5658,27.408154,27.268843,27.176678,27.134418,27.109837,27.096596,27.088673,27.080318,27.069485,27.056993,27.044333,27.027319,27.00513,26.981953,26.945543,26.892813,26.83892,26.779049,26.706804,26.644646,26.596191,26.54935,26.519476,26.504925,26.49614,26.49477,26.49567,26.495113,26.492912,26.49036,26.48861,26.49099,26.497566,26.50494,26.515713,26.527054,26.536041,26.545961,26.556377,26.565939,26.578657,26.597176,26.618126,26.642761,26.67733,26.71494,26.751228,26.800259,26.854027,26.901285,26.958862,27.016796,27.059807,27.098633,27.127975,27.140427,27.13958,27.138119,27.151176,27.180119,27.245638,27.34798,27.454002,27.568632,27.637028,27.635788,27.580875,27.511086,27.540588,27.714437,28.15683,29.19294,30.556437,35.27124,41.453346,45.807938,47.13796,46.94311,47.0765,47.127964,47.2598,47.439095,47.522247,47.568142,47.593918,47.647873,47.659355,47.45382,47.046856,46.143715,44.542313,42.675217,39.820496,37.98228,38.15526,38.85502,41.19272,43.96347,45.607216,46.816776,47.312855,47.41514,47.358482,47.100147,46.762863,46.232147,45.723763,45.48352,45.43129,45.455524,45.537624,45.61841,45.703564,45.764393,45.789867,45.811913,45.83199,45.846775,45.85067,45.84619,45.833565,45.816826,45.788033,45.752747,45.721657,45.685623,45.64763,45.61529,45.580143,45.53736,45.494934,45.450817,45.391716,45.3318,45.27919,45.21608,45.16149,45.126083,45.090225,45.06015,45.03839,45.01098,44.975216,44.93863,44.90122,44.851128,44.794106,44.735294,44.659973,44.578575,44.507454,44.420227,44.320465,44.23152,44.1334,44.013786,43.89833,43.785072,43.64106,43.498375,43.37686,43.226295,43.069572,42.938175,42.78719,42.618053,42.46634,42.30191,42.098427,41.89863,41.70591,41.457085,41.20426,40.988914,40.717285,40.373894,40.025833,39.648403,39.288437,39.04146,38.845203,38.66555,38.534554,38.437023,38.325348,38.22458,38.146767,38.066708,37.989777,37.92257,37.839157,37.72795,37.614117,37.493782,37.33602,37.18313,37.054592,36.903442,36.76681,36.664406,36.551964,36.445145,36.36293,36.285404,36.217323,36.171997,36.13736,36.106773,36.08475,36.06603,36.047928,36.032116,36.01776,36.00141,35.98762,35.980732,35.976555,36.00199,36.063396,36.14534,36.319107,36.574646,36.863243,37.214752,37.459465,37.5271,37.539856,37.384026,37.134514,36.89827,36.714195,36.63875,36.602985,36.596245,36.593292,36.564728,36.49773,36.456375,36.482475,36.602844,36.973938,37.458366,37.884304,38.233162,38.43936,38.641296,38.82608,38.939213,39.007202,39.025223,38.95732,38.84614,38.673065,38.429035,38.169968,37.783882,37.378983,37.135525,37.026585,36.985268,37.026897,37.10106,37.183853,37.215088
54.64318,54.70961,54.59301,54.38435,53.991013,53.46013,52.950356,52.24775,51.438576,50.730484,49.753883,48.60797,47.669415,46.86838,46.06558,45.42306,44.909233,44.12851,43.087284,42.025906,40.318916,38.261337,36.593422,34.993423,33.65976,32.920185,32.456734,32.136192,31.983685,31.891771,31.752518,31.561485,31.362392,31.09128,30.773314,30.498556,30.197666,29.831348,29.486984,29.168728,28.786697,28.437138,28.15757,27.849556,27.59521,27.431404,27.285702,27.188328,27.143288,27.117115,27.103325,27.095758,27.088245,27.079147,27.068787,27.05795,27.042942,27.02234,27.000006,26.963604,26.909618,26.853825,26.791676,26.716305,26.651173,26.600288,26.550701,26.51841,26.502007,26.491007,26.487343,26.48632,26.48371,26.479517,26.475544,26.47266,26.474112,26.48015,26.487194,26.497658,26.5088,26.517706,26.52752,26.537788,26.547192,26.559788,26.5784,26.599754,26.62511,26.66108,26.700466,26.738472,26.789837,26.846123,26.89555,26.955767,27.01661,27.06216,27.103817,27.137058,27.15401,27.158478,27.165234,27.187431,27.224943,27.298502,27.403053,27.505573,27.60908,27.659859,27.645107,27.59399,27.534092,27.584028,27.814701,28.292044,29.403152,30.943462,36.054207,42.309196,46.188286,47.236,46.971832,47.172497,47.215096,47.356373,47.556366,47.61025,47.640396,47.670918,47.72962,47.74479,47.53936,47.130615,46.26773,44.65117,42.691692,39.712967,37.816677,38.023994,38.751213,41.194458,44.084976,45.785057,46.968536,47.4162,47.519596,47.449387,47.187065,46.85948,46.335915,45.82293,45.57386,45.52632,45.559685,45.65136,45.73858,45.83172,45.89867,45.926655,45.95089,45.972046,45.987255,45.992195,45.990395,45.98153,45.96866,45.94357,45.91033,45.879784,45.84382,45.805283,45.772324,45.736843,45.694504,45.653236,45.610622,45.553574,45.495567,45.444397,45.38293,45.329967,45.29596,45.261665,45.232967,45.21202,45.184864,45.149117,45.112614,45.075443,45.025887,44.969612,44.911552,44.83745,44.757347,44.687138,44.600895,44.501663,44.412514,44.31333,44.191658,44.07399,43.95887,43.812843,43.668716,43.54653,43.395252,43.23754,43.104927,42.95233,42.782276,42.63128,42.46968,42.272858,42.081932,41.89885,41.66131,41.417355,41.20636,40.943024,40.648895,40.380886,39.99458,39.592216,39.316452,39.077736,38.854263,38.69203,38.567734,38.42812,38.30726,38.218185,38.12775,38.046783,37.981255,37.89973,37.79158,37.68071,37.56297,37.407127,37.25492,37.12677,36.97454,36.835342,36.73021,36.61364,36.50213,36.416336,36.33619,36.26636,36.219826,36.183582,36.149586,36.12249,36.09793,36.072716,36.05105,36.033302,36.014713,36.00098,35.99563,35.99346,36.022667,36.088783,36.175323,36.35894,36.624733,36.919765,37.262062,37.491234,37.552246,37.561012,37.399124,37.142136,36.90828,36.734386,36.670013,36.642784,36.634064,36.62108,36.58582,36.506844,36.45623,36.48136,36.606197,37.004982,37.522163,37.92206,38.263187,38.493248,38.706528,38.89986,39.017036,39.08724,39.10912,39.040485,38.92234,38.737236,38.483032,38.217827,37.812576,37.385315,37.129517,37.019493,36.984528,37.03904,37.127274,37.224144,37.263344
54.836823,54.910988,54.805946,54.618248,54.246864,53.73642,53.24665,52.55629,51.734,50.996307,50.0213,48.824814,47.785786,46.896656,45.99833,45.273766,44.687317,43.807198,42.70897,41.66428,39.973312,37.956516,36.34893,34.853546,33.60739,32.89722,32.448807,32.13145,31.97303,31.8742,31.728115,31.533892,31.335443,31.071026,30.762703,30.495956,30.208868,29.858418,29.525425,29.215096,28.838802,28.490126,28.208231,27.89378,27.630787,27.46017,27.307663,27.204983,27.157238,27.129627,27.115297,27.107801,27.10061,27.092167,27.08248,27.072056,27.057339,27.03668,27.014011,26.976616,26.920593,26.862375,26.797455,26.718405,26.64978,26.595997,26.54319,26.508163,26.489723,26.476414,26.470448,26.467522,26.462868,26.456726,26.451397,26.447449,26.448086,26.453735,26.46059,26.470873,26.481874,26.490683,26.500296,26.510206,26.519222,26.53142,26.549816,26.57132,26.597176,26.634335,26.675364,26.715014,26.768776,26.827938,26.880058,26.943785,27.008926,27.058594,27.105247,27.14571,27.17092,27.184864,27.20508,27.240921,27.290243,27.373579,27.478626,27.573738,27.65964,27.688164,27.660097,27.615479,27.574207,27.65572,27.944698,28.477776,29.78693,31.776344,37.453674,43.578865,46.492798,47.220314,46.99882,47.27153,47.309696,47.464363,47.69061,47.72131,47.736057,47.76845,47.832886,47.850315,47.648567,47.248398,46.437965,44.77738,42.67247,39.581276,37.637817,37.87638,38.638523,41.194168,44.217384,45.999603,47.15157,47.53494,47.639587,47.566593,47.301956,46.972893,46.45549,45.937485,45.67923,45.638596,45.683006,45.786133,45.882477,45.98465,46.056805,46.08567,46.11044,46.131004,46.1454,46.150322,46.150146,46.144154,46.134098,46.11277,46.082886,46.054462,46.01864,45.979034,45.945457,45.909912,45.868645,45.8293,45.789013,45.734886,45.679466,45.630287,45.571068,45.520107,45.487564,45.45469,45.426857,45.406094,45.378456,45.341988,45.305103,45.2679,45.218708,45.16317,45.105927,45.033073,44.954315,44.885086,44.799934,44.70135,44.612076,44.511826,44.38815,44.268448,44.151733,44.004135,43.859077,43.73665,43.58481,43.425835,43.291515,43.136402,42.964195,42.812866,42.65318,42.46225,42.279915,42.106632,41.881416,41.645874,41.436558,41.169815,40.892345,40.66535,40.341232,39.950592,39.624657,39.349373,39.07945,38.875957,38.72387,38.554314,38.41061,38.30822,38.205273,38.11755,38.05077,37.969048,37.86259,37.754025,37.638557,37.48482,37.33376,37.206272,37.053165,36.91126,36.802994,36.68151,36.56427,36.474068,36.39061,36.31845,36.270267,36.231964,36.193684,36.16023,36.128315,36.09395,36.064636,36.04249,36.021187,36.00804,36.005325,36.0067,36.041138,36.11262,36.203857,36.397102,36.670883,36.967438,37.29044,37.497643,37.554665,37.55291,37.38114,37.12176,36.89904,36.746048,36.70198,36.69368,36.694786,36.67805,36.634483,36.54339,36.483345,36.50598,36.635994,37.052124,37.584713,37.958733,38.29898,38.55745,38.779488,38.97928,39.099617,39.170944,39.192596,39.121243,38.998817,38.800972,38.529755,38.25088,37.832527,37.386154,37.115643,37.0047,36.9787,37.050613,37.157593,37.264008,37.31225
54.981377,55.06407,54.974266,54.809925,54.465958,53.982635,53.51783,52.84488,52.014233,51.248734,50.256744,48.9921,47.84931,46.873276,45.88366,45.0689,44.370834,43.41662,42.29145,41.228424,39.596573,37.66677,36.113777,34.711586,33.544815,32.86602,32.43494,32.12566,31.967587,31.867907,31.722,31.528791,31.331245,31.077185,30.780409,30.519337,30.24069,29.90279,29.580364,29.273201,28.897436,28.546171,28.259987,27.937887,27.666195,27.489212,27.330677,27.223644,27.17386,27.145273,27.13044,27.122498,27.11478,27.105362,27.094296,27.082409,27.065834,27.043251,27.019037,26.979797,26.921429,26.860847,26.793308,26.710892,26.639103,26.58267,26.527058,26.489826,26.469872,26.455034,26.447725,26.443737,26.437935,26.430746,26.424755,26.420336,26.420715,26.426353,26.433275,26.443573,26.45445,26.463043,26.472214,26.481396,26.489647,26.501019,26.518694,26.539877,26.565739,26.60345,26.645498,26.686237,26.741737,26.803219,26.857674,26.924652,26.994228,27.04853,27.101267,27.150948,27.186703,27.21261,27.248821,27.299515,27.360558,27.451828,27.553795,27.637783,27.702114,27.713154,27.682495,27.635801,27.621784,27.755228,28.082218,28.710993,30.339134,32.961548,39.074257,44.80871,46.667107,47.15866,47.056866,47.35856,47.39881,47.565792,47.809513,47.832783,47.837555,47.868477,47.942398,47.960613,47.767624,47.391365,46.626343,44.91018,42.661163,39.485504,37.495598,37.744392,38.55728,41.1985,44.326126,46.21876,47.336243,47.643806,47.75387,47.680286,47.41411,47.082558,46.56815,46.04431,45.77875,45.745995,45.802116,45.917393,46.02409,46.13418,46.2088,46.236256,46.259357,46.27751,46.28991,46.2936,46.293396,46.288467,46.279373,46.26026,46.23326,46.207275,46.171993,46.13153,46.097237,46.061764,46.02185,45.98471,45.946995,45.89593,45.843082,45.795845,45.73869,45.689278,45.65764,45.625393,45.59747,45.576054,45.547195,45.509434,45.47187,45.43442,45.385456,45.330593,45.274128,45.202415,45.124878,45.05662,44.97255,44.87474,44.785603,44.684723,44.559776,44.438946,44.321583,44.17373,44.029076,43.90748,43.7563,43.597145,43.461876,43.304695,43.13022,42.977894,42.81891,42.631622,42.455242,42.289177,42.072952,41.84417,41.638092,41.371315,41.08197,40.83857,40.584343,40.244507,39.897804,39.601715,39.29553,39.055893,38.87906,38.683945,38.52089,38.406067,38.291344,38.195618,38.124664,38.039093,37.9309,37.822647,37.707764,37.55507,37.404877,37.277885,37.12413,36.980003,36.868942,36.742886,36.620155,36.52562,36.43872,36.36401,36.314034,36.273693,36.231407,36.19205,36.153275,36.110233,36.073677,36.047455,36.02398,36.012157,36.012787,36.018555,36.058495,36.13465,36.229294,36.429802,36.707813,37.00055,37.30078,37.484848,37.537277,37.522003,37.34149,37.086193,36.881218,36.755997,36.738,36.75461,36.77877,36.76839,36.713295,36.6111,36.542675,36.560043,36.69415,37.109673,37.63164,37.99074,38.33553,38.612946,38.839493,39.041924,39.162514,39.23255,39.249653,39.173973,39.050194,38.842518,38.55465,38.261192,37.83685,37.3786,37.09674,36.98709,36.97215,37.06276,37.18965,37.29306,37.340157
55.06627,55.16241,55.093807,54.944122,54.62796,54.179043,53.743492,53.091667,52.253708,51.458458,50.437862,49.10476,47.872456,46.82039,45.75202,44.852615,44.0317,43.042923,41.92498,40.81711,39.263855,37.44503,35.941742,34.601826,33.488064,32.83617,32.41989,32.11947,31.964975,31.867867,31.725739,31.537498,31.344969,31.099722,30.811626,30.555311,30.279549,29.952326,29.642153,29.334534,28.955559,28.599617,28.30795,27.977777,27.697891,27.515285,27.35166,27.241236,27.190044,27.160873,27.145563,27.136822,27.128056,27.116707,27.10313,27.08882,27.069344,27.044071,27.017948,26.976732,26.916286,26.853825,26.784199,26.69915,26.62492,26.566439,26.508793,26.470171,26.449413,26.433979,26.426378,26.422241,26.416283,26.409027,26.403084,26.398804,26.399467,26.405407,26.412586,26.423027,26.433758,26.442005,26.450523,26.45869,26.465897,26.47612,26.492714,26.51324,26.538696,26.576418,26.61891,26.66018,26.716621,26.779514,26.835499,26.904774,26.977894,27.036238,27.094704,27.153425,27.1996,27.237305,27.288647,27.35238,27.422764,27.51868,27.614708,27.686047,27.728294,27.731293,27.711952,27.650225,27.666283,27.86813,28.212692,28.973312,30.94194,34.132393,40.267086,45.45726,46.711914,47.160675,47.175285,47.430603,47.47551,47.649437,47.893333,47.924892,47.926735,47.95495,48.044144,48.062134,47.88246,47.545044,46.80432,45.04708,42.708088,39.448563,37.393852,37.638416,38.509064,41.20285,44.398907,46.413353,47.501854,47.73602,47.853394,47.7726,47.504704,47.178726,46.66479,46.134476,45.863846,45.838604,45.906837,46.034256,46.14981,46.265884,46.34091,46.36533,46.385174,46.39959,46.409256,46.41121,46.410484,46.40618,46.39784,46.379368,46.352905,46.3275,46.29331,46.253044,46.217804,46.18225,46.143517,46.108406,46.07302,46.024654,45.97396,45.92828,45.872543,45.823917,45.792526,45.760162,45.73146,45.708946,45.67865,45.639587,45.601425,45.563747,45.515038,45.460865,45.40515,45.3345,45.25807,45.190674,45.107613,45.010605,44.9218,44.82071,44.69517,44.57396,44.45677,44.309753,44.16659,44.04677,43.897713,43.740067,43.605225,43.447342,43.271492,43.118355,42.959633,42.774338,42.60141,42.439796,42.229065,42.004074,41.79921,41.531944,41.239433,40.991776,40.721256,40.412315,40.126015,39.811764,39.477417,39.22022,39.019615,38.80328,38.626568,38.50166,38.376476,38.272934,38.197533,38.10517,37.992065,37.88264,37.766754,37.613792,37.46383,37.337006,37.18273,37.036964,36.923744,36.794,36.666656,36.568348,36.478283,36.40111,36.349472,36.307404,36.262016,36.218163,36.174057,36.124268,36.08217,36.052986,36.028294,36.018333,36.02243,36.032536,36.0774,36.15714,36.253586,36.45922,36.73945,37.02643,37.305466,37.468525,37.515568,37.490383,37.305252,37.05542,36.869186,36.77206,36.780388,36.82245,36.876007,36.87677,36.80458,36.692062,36.61734,36.627083,36.764,37.17195,37.674004,38.025932,38.370346,38.650772,38.87962,39.08249,39.200523,39.266514,39.278736,39.19928,39.073635,38.85921,38.561592,38.260002,37.829746,37.363144,37.076103,36.970078,36.96769,37.077003,37.223568,37.312134,37.339336
55.143013,55.250984,55.20411,55.07905,54.808468,54.387924,53.938576,53.289753,52.469204,51.68785,50.629234,49.205196,47.872704,46.74376,45.5397,44.50928,43.62951,42.629128,41.517235,40.384518,38.88185,37.16674,35.75403,34.4833,33.422256,32.79964,32.401016,32.113487,31.966808,31.876076,31.741867,31.562687,31.378895,31.144001,30.865187,30.614408,30.34209,30.0215,29.718708,29.414303,29.031631,28.66653,28.366589,28.025536,27.735554,27.546463,27.377224,27.263424,27.211098,27.181643,27.16592,27.155987,27.14546,27.130798,27.112947,27.094582,27.070358,27.040813,27.01178,26.96791,26.905073,26.840664,26.768993,26.681423,26.604885,26.54449,26.485104,26.445545,26.424469,26.409172,26.402143,26.39859,26.393265,26.386692,26.381323,26.37765,26.379002,26.385475,26.393019,26.403576,26.413935,26.421535,26.428928,26.435448,26.44103,26.449493,26.464336,26.483662,26.508278,26.545504,26.587954,26.629356,26.686165,26.749828,26.806799,26.877785,26.954256,27.017017,27.082294,27.152386,27.211926,27.26487,27.335186,27.41423,27.494425,27.593088,27.67868,27.732426,27.74703,27.740995,27.738417,27.675236,27.742329,28.031273,28.38438,29.408035,31.858582,35.59312,41.54706,46.059067,46.820984,47.210327,47.307613,47.529068,47.588272,47.775867,48.019493,48.05445,48.04825,48.072617,48.179745,48.210884,48.038883,47.70709,46.99642,45.20304,42.761288,39.421898,37.283394,37.501114,38.45392,41.208183,44.472153,46.62558,47.68797,47.844765,47.969727,47.87752,47.606148,47.28734,46.769005,46.228275,45.952732,45.93688,46.02176,46.16618,46.29332,46.41662,46.49102,46.51044,46.52485,46.533478,46.539215,46.538742,46.537388,46.53395,46.52642,46.508663,46.482822,46.45806,46.425003,46.38482,46.348434,46.31289,46.27575,46.243195,46.21057,46.165245,46.11682,46.07271,46.018158,45.96977,45.93799,45.904705,45.87433,45.85,45.81756,45.776657,45.737686,45.699715,45.651318,45.59796,45.543125,45.473755,45.398766,45.33254,45.250965,45.15532,45.067257,44.966404,44.840927,44.720104,44.603928,44.459053,44.318993,44.20247,44.0578,43.903927,43.771034,43.61354,43.436768,43.28271,43.12374,42.939255,42.76828,42.609634,42.402454,42.17941,41.974365,41.705055,41.408382,41.15622,40.87275,40.582832,40.34008,40.03834,39.692696,39.41073,39.189247,38.95369,38.76346,38.628075,38.491158,38.377228,38.294548,38.193687,38.07259,37.958176,37.839508,37.68516,37.534893,37.40789,37.253036,37.105755,36.990387,36.85668,36.724144,36.62143,36.527435,36.446953,36.39302,36.34884,36.30001,36.25141,36.201744,36.144966,36.09728,36.065308,36.039993,36.032936,36.041557,36.057243,36.10781,36.19134,36.290375,36.500755,36.782192,37.063995,37.314438,37.448,37.48803,37.45441,37.268105,37.026558,36.862938,36.80029,36.84398,36.927124,37.012917,37.030838,36.977535,36.852528,36.750584,36.747826,36.88067,37.273315,37.7472,38.07293,38.40674,38.69259,38.92298,39.121304,39.23341,39.29979,39.30643,39.21798,39.08538,38.864647,38.5596,38.25168,37.82173,37.351852,37.06024,36.95552,36.96876,37.091846,37.233345,37.321247,37.347706
55.210342,55.328236,55.299736,55.198322,54.941467,54.51882,54.060696,53.41665,52.624367,51.875153,50.787113,49.27699,47.848907,46.652756,45.310413,44.154984,43.266273,42.25045,41.135868,40.023903,38.562183,36.92626,35.600475,34.38434,33.363132,32.76573,32.384228,32.111805,31.976566,31.895473,31.772537,31.604862,31.431189,31.206146,30.935745,30.690407,30.420837,30.101097,29.799053,29.499582,29.112106,28.734337,28.424427,28.071579,27.771748,27.576889,27.403103,27.287243,27.234812,27.205914,27.1903,27.179153,27.166513,27.147636,27.124302,27.10076,27.070574,27.035843,27.00346,26.956844,26.892082,26.826494,26.753702,26.664822,26.587103,26.525726,26.465664,26.42609,26.40537,26.39095,26.385174,26.382706,26.378517,26.37305,26.368523,26.365616,26.367714,26.374653,26.382427,26.392883,26.402588,26.409256,26.415155,26.419632,26.423265,26.429607,26.44231,26.460075,26.48346,26.519613,26.561327,26.602139,26.658176,26.721203,26.777847,26.848888,26.927149,26.993359,27.064861,27.146343,27.219704,27.28859,27.378029,27.471104,27.558651,27.65606,27.72716,27.760674,27.758762,27.753904,27.769842,27.726294,27.862019,28.258396,28.681091,30.055817,33.080746,37.481705,42.942207,46.49913,46.946144,47.286232,47.442776,47.644913,47.719387,47.928093,48.18062,48.21051,48.208626,48.227272,48.296066,48.321503,48.170094,47.857323,47.19209,45.35829,42.795227,39.392303,37.163643,37.33258,38.37934,41.204517,44.53758,46.82482,47.86419,47.948265,48.08013,47.974583,47.697624,47.383896,46.853413,46.297688,46.01807,46.011925,46.117218,46.283333,46.424118,46.555515,46.62837,46.64115,46.64884,46.651,46.653008,46.651043,46.650696,46.649635,46.643745,46.627403,46.602448,46.57832,46.545647,46.505253,46.46836,46.4329,46.397163,46.366867,46.336678,46.294125,46.247803,46.205074,46.151367,46.102646,46.069828,46.0348,46.001892,45.975113,45.940033,45.896935,45.856922,45.818428,45.769936,45.716923,45.66253,45.594036,45.52028,45.45521,45.375195,45.28115,45.194183,45.09403,44.969246,44.84955,44.735275,44.594078,44.45888,44.347176,44.208866,44.060905,43.93178,43.776676,43.600418,43.44579,43.286083,43.10058,42.928978,42.770546,42.563496,42.339607,42.132713,41.86,41.55888,41.302803,41.012276,40.72335,40.4954,40.235565,39.90239,39.597622,39.362564,39.112232,38.909966,38.766106,38.618473,38.49334,38.401608,38.291527,38.16043,38.038208,37.91539,37.75887,37.60811,37.4809,37.32609,37.17846,37.062065,36.925644,36.788895,36.682198,36.584175,36.499733,36.442806,36.39608,36.343742,36.29094,36.236713,36.17453,36.122997,36.08962,36.065163,36.06218,36.07596,36.09781,36.15383,36.241367,36.34792,36.562813,36.840252,37.11298,37.3333,37.43718,37.4691,37.434082,37.25174,37.01603,36.872017,36.8445,36.922318,37.026596,37.13315,37.180305,37.176453,37.053715,36.925186,36.910194,37.04662,37.402412,37.806343,38.114502,38.4486,38.736794,38.963722,39.158768,39.268227,39.331833,39.329956,39.232075,39.094414,38.8637,38.548595,38.23825,37.826424,37.35958,37.05443,36.945488,36.96704,37.097626,37.22995,37.325253,37.3599
55.277966,55.39928,55.376335,55.28164,54.994736,54.550182,54.12107,53.49724,52.722397,51.986397,50.889687,49.324707,47.82164,46.57463,45.148487,43.922363,43.02733,41.97805,40.853516,39.78791,38.375862,36.792305,35.507042,34.319878,33.322517,32.74257,32.374424,32.115517,31.991573,31.91993,31.807713,31.649904,31.483887,31.266033,31.001995,30.761047,30.492805,30.170906,29.866308,29.569984,29.17702,28.78726,28.46848,28.105959,27.79882,27.60014,27.42379,27.3075,27.255917,27.228245,27.213268,27.201305,27.1869,27.164253,27.13593,27.10768,27.072147,27.032906,26.997768,26.949066,26.883297,26.817528,26.744686,26.65583,26.578133,26.516739,26.456938,26.417923,26.397816,26.384342,26.37968,26.378119,26.374813,26.37019,26.36626,26.363823,26.366299,26.373371,26.381104,26.391224,26.400173,26.405895,26.4104,26.41307,26.415024,26.419546,26.430426,26.446833,26.469036,26.50402,26.54473,26.584558,26.639147,26.7006,26.755962,26.825745,26.904127,26.97219,27.047985,27.13819,27.2225,27.304165,27.408361,27.511173,27.602406,27.69581,27.752892,27.769154,27.76833,27.776558,27.808163,27.798285,28.000343,28.505104,29.080755,30.811977,34.350754,39.403687,44.238426,46.776634,47.029404,47.346092,47.558975,47.75097,47.833942,48.061058,48.327515,48.352093,48.366844,48.375137,48.357742,48.35032,48.234108,47.97914,47.367294,45.484787,42.795967,39.348026,37.045883,37.165154,38.288136,41.186813,44.59134,46.983566,48.001427,48.025,48.162422,48.045692,47.76216,47.44877,46.901848,46.329903,46.047123,46.048946,46.17376,46.36148,46.515564,46.654747,46.726273,46.73313,46.73506,46.732166,46.731983,46.730366,46.733074,46.735928,46.732624,46.718506,46.694786,46.67128,46.63827,46.597527,46.56102,46.525723,46.490746,46.46178,46.433105,46.392582,46.348015,46.30641,46.253357,46.2042,46.17025,46.133373,46.097893,46.068718,46.031216,45.98609,45.945004,45.905754,45.85658,45.80312,45.74844,45.679993,45.60677,45.542454,45.4635,45.3707,45.284714,45.185284,45.061268,44.94278,44.830612,44.693478,44.56353,44.456802,44.324837,44.182983,44.058212,43.90679,43.73241,43.577812,43.417374,43.229942,43.056145,42.89611,42.687016,42.460793,42.25156,41.975487,41.670734,41.41189,41.119484,40.82302,40.59157,40.37288,40.06167,39.745827,39.503956,39.24353,39.031967,38.882782,38.72734,38.593,38.493263,38.375195,38.23522,38.105835,37.979195,37.820778,37.669823,37.5427,37.38867,37.24193,37.125946,36.988525,36.84928,36.73987,36.63858,36.55037,36.490295,36.44097,36.38547,36.329506,36.272327,36.207066,36.15396,36.120712,36.09826,36.099636,36.11823,36.145668,36.20608,36.297485,36.4153,36.6351,36.904385,37.161728,37.35884,37.443283,37.46758,37.435684,37.259476,37.02642,36.89484,36.894394,36.994366,37.087433,37.198803,37.275536,37.311028,37.21024,37.08076,37.057007,37.207615,37.51539,37.82403,38.13845,38.490242,38.775894,38.996704,39.193535,39.305088,39.359474,39.34725,39.243908,39.106915,38.864643,38.536587,38.225876,37.847298,37.387165,37.05831,36.940216,36.957603,37.09134,37.23031,37.329803,37.36653
55.412025,55.503563,55.425327,55.284607,54.996773,54.582,54.16701,53.56108,52.79875,52.065468,50.976643,49.372936,47.79806,46.506245,45.013725,43.73426,42.833527,41.77212,40.646297,39.598976,38.243843,36.709476,35.43316,34.26311,33.285336,32.721977,32.367817,32.1242,32.01339,31.952404,31.851902,31.704002,31.544899,31.333023,31.075039,30.839157,30.57087,30.245289,29.937147,29.642353,29.241562,28.838024,28.509842,28.137562,27.82367,27.621937,27.443966,27.328243,27.278229,27.25235,27.238386,27.225689,27.209429,27.182774,27.149147,27.11593,27.074844,27.03105,26.993217,26.942654,26.876348,26.81094,26.73868,26.65058,26.573475,26.512493,26.453247,26.414867,26.395344,26.382706,26.378963,26.378117,26.375542,26.371578,26.368092,26.36598,26.368591,26.375538,26.383043,26.392601,26.400618,26.405287,26.408339,26.409203,26.409506,26.4123,26.421463,26.436584,26.457691,26.491507,26.531075,26.569756,26.622519,26.681843,26.735384,26.803175,26.880934,26.950333,27.03001,27.128643,27.223675,27.317875,27.43612,27.547337,27.64047,27.727943,27.770563,27.77088,27.773777,27.800209,27.855642,27.909698,28.170769,28.784016,29.638397,32.064716,36.150017,41.12091,45.210064,46.981796,47.100838,47.409554,47.675037,47.864586,47.95971,48.17863,48.431175,48.490074,48.49246,48.454514,48.413113,48.384655,48.294502,48.10862,47.55105,45.601204,42.76284,39.277184,36.91319,36.982574,38.163063,41.15027,44.65463,47.15375,48.140358,48.093834,48.23825,48.109497,47.816513,47.499283,46.930065,46.33809,46.052013,46.062218,46.207787,46.419724,46.590717,46.73903,46.810356,46.813614,46.809696,46.801422,46.799767,46.799805,46.807648,46.816307,46.816837,46.806187,46.784515,46.761925,46.72904,46.68831,46.652317,46.61737,46.58304,46.555046,46.527565,46.489056,46.44651,46.40632,46.35408,46.30449,46.26935,46.23043,46.19209,46.160294,46.120193,46.072845,46.030403,45.98996,45.939384,45.88462,45.828815,45.759495,45.686085,45.6221,45.543888,45.452045,45.36678,45.267982,45.14473,45.02764,44.918053,44.78603,44.662613,44.5619,44.4374,44.30287,44.183655,44.037594,43.86665,43.712826,43.55169,43.361633,43.184525,43.021576,42.808964,42.579395,42.36744,42.0878,41.779602,41.518387,41.22384,40.924404,40.692734,40.4881,40.194946,39.88787,39.641907,39.374966,39.157272,39.003624,38.84105,38.697533,38.58946,38.463234,38.31389,38.176815,38.046818,37.886925,37.73594,37.609188,37.455845,37.310448,37.196407,37.05824,36.91677,36.805668,36.701263,36.608685,36.544666,36.492123,36.433002,36.373917,36.314224,36.24681,36.193333,36.161224,36.141697,36.148575,36.173264,36.20793,36.27298,36.36714,36.495255,36.72455,36.985786,37.210167,37.388428,37.465675,37.48093,37.44187,37.270256,37.051636,36.93377,36.955757,37.074608,37.1659,37.283493,37.357346,37.35379,37.303986,37.2268,37.172268,37.325623,37.603058,37.85099,38.167244,38.526283,38.809742,39.037735,39.235245,39.339252,39.384995,39.36251,39.250797,39.109524,38.866768,38.52964,38.2127,37.89665,37.449593,37.07615,36.940987,36.944046,37.074627,37.221443,37.324837,37.36322
55.505493,55.54094,55.42341,55.2504,54.952724,54.562515,54.18756,53.61232,52.86293,52.129112,51.053482,49.422485,47.787033,46.454773,44.921673,43.618935,42.716805,41.658813,40.53293,39.476578,38.16008,36.65502,35.366493,34.20443,33.245884,32.703465,32.368336,32.14569,32.0517,32.002895,31.914474,31.774878,31.620102,31.411444,31.157185,30.925163,30.656866,30.326782,30.011967,29.711613,29.301128,28.88599,28.54745,28.16542,27.845781,27.642181,27.464024,27.350204,27.302553,27.279028,27.266369,27.252937,27.234703,27.203743,27.164433,27.125923,27.078888,27.030195,26.989471,26.936937,26.870152,26.805292,26.733833,26.646736,26.570358,26.509785,26.450851,26.412628,26.393185,26.380705,26.377201,26.376617,26.374325,26.370626,26.367266,26.365152,26.36745,26.37381,26.380653,26.3892,26.395943,26.399376,26.40087,26.40002,26.398891,26.40026,26.408167,26.422474,26.44294,26.476124,26.515018,26.55291,26.604176,26.66156,26.713333,26.779156,26.856354,26.927208,27.010975,27.11819,27.223877,27.33033,27.461605,27.579638,27.672836,27.753494,27.783634,27.772102,27.790405,27.844368,27.926815,28.054138,28.442017,29.25761,30.464298,33.53857,37.92093,42.366314,45.84646,47.18959,47.168,47.470787,47.78907,47.98619,48.108704,48.31449,48.528748,48.598137,48.585266,48.523727,48.4877,48.455612,48.387688,48.255512,47.73735,45.703262,42.700485,39.160038,36.735214,36.75711,37.947227,41.050373,44.709084,47.30307,48.264236,48.15602,48.3052,48.16188,47.85112,47.518738,46.91696,46.296623,46.00448,46.024357,46.194717,46.436497,46.629486,46.791737,46.865707,46.866264,46.859596,46.84842,46.846138,46.849716,46.86579,46.883484,46.890285,46.885788,46.86827,46.847923,46.81686,46.77735,46.74225,46.708405,46.67515,46.64803,46.62149,46.584812,46.544365,46.50582,46.454803,46.405033,46.368645,46.327503,46.285957,46.251183,46.208218,46.158295,46.11396,46.07159,46.018173,45.96031,45.90175,45.829704,45.754585,45.68992,45.61141,45.519623,45.43448,45.3358,45.21295,45.097263,44.9906,44.864452,44.748672,44.65513,44.539795,44.41468,44.30294,44.1645,43.99923,43.84773,43.687057,43.494705,43.313606,43.146553,42.92891,42.694935,42.47986,42.19648,41.885014,41.621754,41.32542,41.02441,40.79229,40.58882,40.308605,40.017178,39.77408,39.507324,39.28779,39.1323,38.964436,38.81229,38.69575,38.56127,38.403404,38.259766,38.125084,37.96292,37.812134,37.685318,37.535202,37.394463,37.283333,37.145103,36.99961,36.883244,36.77441,36.676617,36.60766,36.550987,36.487534,36.42537,36.363968,36.29594,36.243946,36.214508,36.19913,36.21312,36.24584,36.288326,36.364178,36.469032,36.605247,36.84743,37.102623,37.281788,37.439384,37.512688,37.51696,37.461815,37.29915,37.113884,37.017876,37.04056,37.14999,37.262592,37.36708,37.40262,37.372757,37.34755,37.32023,37.291832,37.41561,37.64837,37.878704,38.18844,38.54508,38.82765,39.059685,39.251007,39.340633,39.374382,39.340023,39.221176,39.07845,38.847187,38.51391,38.193077,37.911438,37.498875,37.12801,36.96067,36.92649,37.04146,37.199623,37.302498,37.33857
55.523117,55.507393,55.38459,55.205948,54.892906,54.511604,54.186302,53.642162,52.904686,52.173073,51.10486,49.46043,47.79574,46.443672,44.90371,43.605785,42.70459,41.662376,40.535416,39.44287,38.121284,36.613182,35.308468,34.14922,33.20916,32.690292,32.377113,32.177933,32.10106,32.06298,31.98359,31.847927,31.69328,31.484045,31.229464,30.998058,30.730846,30.397186,30.07396,29.763138,29.343315,28.920795,28.573318,28.183773,27.860744,27.656937,27.480175,27.369238,27.32418,27.302963,27.29147,27.277325,27.257267,27.222507,27.178295,27.135263,27.0831,27.030148,26.986889,26.932579,26.865309,26.800865,26.729992,26.643612,26.567642,26.50713,26.447865,26.408981,26.388874,26.375607,26.37146,26.370537,26.367981,26.364086,26.360544,26.358139,26.35979,26.365257,26.371168,26.378462,26.383877,26.386156,26.38635,26.3843,26.38232,26.382942,26.390423,26.404701,26.425282,26.458782,26.497961,26.53593,26.586895,26.64357,26.69458,26.759586,26.837112,26.909748,26.997356,27.111727,27.225754,27.341436,27.48185,27.603868,27.695791,27.771137,27.796124,27.783554,27.82458,27.908722,28.01773,28.204578,28.777538,29.875736,31.422905,34.971207,39.377373,43.022243,46.081146,47.331276,47.212738,47.5151,47.873604,48.086094,48.244217,48.439472,48.605972,48.656914,48.637535,48.58895,48.579803,48.56019,48.50124,48.385414,47.881134,45.77154,42.632484,39.015564,36.541992,36.5429,37.696014,40.910248,44.732994,47.383488,48.339935,48.20221,48.350983,48.19334,47.85974,47.50363,46.8665,46.21575,45.916344,45.946545,46.141228,46.41203,46.62719,46.805428,46.884266,46.883007,46.876755,46.86558,46.863747,46.871613,46.896873,46.924767,46.93907,46.942383,46.93065,46.913723,46.885757,46.848515,46.81495,46.78286,46.750946,46.72445,46.69844,46.662933,46.62407,46.58703,46.537342,46.487694,46.45026,46.407177,46.362778,46.325344,46.27986,46.227478,46.181015,46.13625,46.07886,46.01638,45.953686,45.877132,45.798546,45.731926,45.65158,45.558384,45.472313,45.37285,45.249702,45.13498,45.030937,44.90999,44.80111,44.714394,44.6081,44.492695,44.38891,44.258728,44.100296,43.95256,43.794235,43.6015,43.41755,43.24688,43.02466,42.786873,42.5695,42.283493,41.969902,41.70539,41.408005,41.10636,40.87396,40.66877,40.39347,40.112373,39.87873,39.618774,39.40145,39.246696,39.076263,38.917732,38.794228,38.652946,38.489075,38.341225,38.20078,38.035797,37.885918,37.759544,37.613228,37.477127,37.368122,37.22999,37.08033,36.957596,36.843018,36.739212,36.66539,36.604645,36.53715,36.47265,36.410713,36.343693,36.294655,36.268776,36.257828,36.278664,36.319107,36.36822,36.458195,36.579025,36.72276,36.970886,37.217163,37.363274,37.504204,37.571686,37.565086,37.49195,37.337746,37.18718,37.109955,37.1221,37.20942,37.33967,37.420506,37.418808,37.397133,37.360817,37.34599,37.37005,37.453766,37.643204,37.878937,38.165684,38.506203,38.78531,39.006054,39.17868,39.248962,39.268387,39.224503,39.10698,38.973026,38.76526,38.456688,38.148396,37.868034,37.50331,37.18412,36.98736,36.90959,36.997795,37.15643,37.259144,37.29782
55.53251,55.49346,55.35344,55.15045,54.837616,54.481396,54.182587,53.654564,52.925148,52.19912,51.133366,49.484753,47.814793,46.46721,44.937477,43.647705,42.744843,41.725746,40.599476,39.455757,38.099087,36.570007,35.255722,34.098816,33.176167,32.68043,32.38897,32.212418,32.151093,32.121826,32.048733,31.914114,31.757372,31.545784,31.288353,31.05493,30.78986,30.453697,30.122288,29.802963,29.37445,28.944721,28.590181,28.195168,27.870396,27.667355,27.49281,27.385109,27.34259,27.323444,27.312908,27.298058,27.27631,27.238262,27.18994,27.143177,27.086782,27.030323,26.984987,26.929222,26.861542,26.797405,26.726944,26.641033,26.565243,26.504578,26.444622,26.404633,26.383461,26.36895,26.363735,26.362165,26.359089,26.35483,26.351013,26.34824,26.34921,26.353783,26.358768,26.364872,26.369102,26.37041,26.369614,26.366787,26.36435,26.364653,26.372189,26.386856,26.40798,26.442337,26.482372,26.520992,26.572495,26.629421,26.680485,26.745632,26.824162,26.898716,26.989769,27.109879,27.230152,27.352457,27.49901,27.62324,27.713501,27.784836,27.810793,27.806908,27.86972,27.98159,28.118279,28.349325,29.110432,30.51536,32.40079,36.577507,41.083435,43.652443,46.14097,47.333435,47.22837,47.547447,47.931778,48.16162,48.349953,48.528633,48.649277,48.699814,48.675148,48.636803,48.675095,48.66926,48.60312,48.487114,47.98638,45.81707,42.570156,38.86209,36.35503,36.369114,37.47901,40.779205,44.7327,47.410324,48.378986,48.2381,48.382874,48.21272,47.85702,47.476513,46.80686,46.1285,45.822987,45.86447,46.081177,46.377205,46.61252,46.805435,46.88928,46.88708,46.880936,46.87001,46.869507,46.881332,46.91496,46.952354,46.973927,46.98516,46.97959,46.966454,46.94123,46.9062,46.874855,46.844593,46.81378,46.787582,46.76174,46.726883,46.68914,46.653355,46.604874,46.55541,46.517147,46.472404,46.425575,46.38592,46.338303,46.283684,46.23506,46.18774,46.125954,46.058273,45.990932,45.908966,45.825882,45.75652,45.673336,45.57763,45.489838,45.388947,45.26498,45.150867,45.049114,44.9325,44.82946,44.74884,44.65081,44.54445,44.448166,44.325783,44.174183,44.030807,43.876106,43.684742,43.499428,43.326244,43.1007,42.860344,42.641777,42.354477,42.039894,41.774826,41.47709,41.174538,40.941654,40.74068,40.466587,40.186756,39.96457,39.713364,39.49912,39.345608,39.173923,39.010597,38.881294,38.73443,38.565643,38.4141,38.267426,38.100185,37.952965,37.82947,37.684273,37.54805,37.43969,37.3011,37.14995,37.025177,36.903656,36.792316,36.71418,36.649918,36.579117,36.512955,36.45108,36.385788,36.340176,36.31797,36.311256,36.337826,36.38436,36.43918,36.540245,36.67399,36.82974,37.070732,37.29818,37.435932,37.570076,37.62967,37.612434,37.52526,37.372093,37.237473,37.161625,37.178356,37.26742,37.37187,37.442413,37.446033,37.42231,37.38257,37.35941,37.371628,37.447254,37.625786,37.84461,38.09282,38.408195,38.68054,38.878162,39.02247,39.070038,39.07448,39.024963,38.91749,38.801407,38.622414,38.35221,38.075653,37.809464,37.486557,37.20923,37.0031,36.895283,36.949944,37.086784,37.198647,37.256042
55.562515,55.49031,55.33674,55.143883,54.844646,54.490387,54.177357,53.649433,52.932228,52.217842,51.139893,49.49402,47.851128,46.53087,45.0383,43.77426,42.871918,41.86519,40.725643,39.526825,38.08972,36.506737,35.193016,34.04216,33.143288,32.67809,32.415497,32.267914,32.224724,32.203987,32.135353,31.998144,31.835304,31.617231,31.354076,31.117811,30.855888,30.516666,30.174627,29.845078,29.406366,28.968502,28.606184,28.205706,27.880074,27.678928,27.508041,27.4049,27.365597,27.34884,27.339108,27.322971,27.29873,27.256319,27.202908,27.151684,27.09037,27.030003,26.98248,26.92532,26.857494,26.793968,26.72421,26.639013,26.563446,26.502504,26.441511,26.399956,26.377327,26.36108,26.354404,26.35204,26.348452,26.343956,26.340004,26.337025,26.337349,26.340897,26.344772,26.349396,26.352133,26.352222,26.35023,26.346529,26.343645,26.343733,26.351593,26.367004,26.389095,26.424984,26.466682,26.50677,26.559973,26.618458,26.670715,26.737423,26.818424,26.896008,26.991482,27.117813,27.2441,27.372221,27.523445,27.648636,27.736538,27.804998,27.839432,27.856869,27.937408,28.08031,28.270336,28.615,29.62164,31.344898,33.620583,38.090843,42.40618,44.23944,46.228252,47.296272,47.24533,47.581886,47.988052,48.24476,48.463993,48.64046,48.729618,48.754967,48.744217,48.742073,48.79563,48.79847,48.717834,48.571297,48.085915,45.875534,42.519882,38.707066,36.161427,36.191284,37.24398,40.63275,44.727966,47.431152,48.41723,48.277763,48.41676,48.229904,47.845467,47.434685,46.727257,46.020317,45.71178,45.766945,46.00939,46.33374,46.590332,46.799583,46.88875,46.88427,46.876534,46.8646,46.86519,46.88079,46.92382,46.972816,47.003822,47.02523,47.027443,47.018963,46.99797,46.967514,46.940765,46.913445,46.88405,46.858112,46.832294,46.797787,46.76093,46.726364,46.67881,46.629013,46.589363,46.54234,46.492546,46.45037,46.400497,46.343414,46.292107,46.241447,46.173584,46.09852,46.024525,45.93457,45.844414,45.770355,45.68205,45.581696,45.490738,45.387215,45.261803,45.14852,45.04986,44.939102,44.843857,44.771248,44.683735,44.588913,44.50251,44.390926,44.249413,44.112877,43.96393,43.775772,43.59037,43.41581,43.18792,42.94574,42.72676,42.438972,42.12418,41.859215,41.560394,41.261635,41.0343,40.82261,40.550728,40.28843,40.081646,39.84464,39.636337,39.481506,39.306725,39.137207,39.0009,38.84634,38.671394,38.51639,38.364445,38.192184,38.042458,37.91867,37.772255,37.634567,37.525658,37.385418,37.23185,37.104637,36.97802,36.859173,36.7744,36.705505,36.63095,36.563606,36.5028,36.440323,36.39909,36.38134,36.37925,36.41133,36.463745,36.526917,36.640057,36.78636,36.961678,37.185467,37.379517,37.516388,37.64191,37.688457,37.66133,37.55957,37.401955,37.276733,37.21015,37.25271,37.358646,37.422028,37.477203,37.491142,37.46352,37.414715,37.373116,37.362617,37.423717,37.577,37.758774,37.962242,38.231167,38.464417,38.615177,38.7078,38.718304,38.702076,38.644855,38.545216,38.442314,38.30625,38.106255,37.895954,37.683983,37.430523,37.203533,36.997265,36.874935,36.90286,37.00595,37.124252,37.20363
55.57697,55.470272,55.301353,55.119156,54.825615,54.461193,54.1258,53.5982,52.900795,52.205,51.10515,49.479504,47.905937,46.634674,45.212833,44.00123,43.101135,42.080345,40.905655,39.664497,38.113518,36.444084,35.13261,33.990967,33.120537,32.688557,32.457726,32.34057,32.314224,32.299324,32.22854,32.081688,31.909115,31.68375,31.415108,31.17508,30.912827,30.570412,30.22076,29.880934,29.432142,28.986767,28.617353,28.212666,27.88774,27.689796,27.524054,27.426683,27.391167,27.377033,27.367912,27.35001,27.322697,27.27524,27.216251,27.160347,27.094002,27.02982,26.980299,26.922,26.854317,26.7916,26.722725,26.638355,26.563019,26.501736,26.43954,26.396246,26.372074,26.353992,26.34586,26.342821,26.338993,26.334679,26.331003,26.328232,26.32829,26.33102,26.33388,26.337006,26.338137,26.33691,26.333614,26.32896,26.325607,26.325489,26.333725,26.349998,26.373238,26.411072,26.45507,26.497349,26.553448,26.614977,26.669785,26.739697,26.824623,26.905987,27.006023,27.137455,27.267647,27.398733,27.551218,27.675434,27.760857,27.829666,27.879738,27.926609,28.02306,28.201931,28.464397,28.972092,30.208721,32.169235,34.826164,39.209496,43.076057,44.64131,46.30568,47.219967,47.250828,47.597317,48.015865,48.30824,48.55564,48.745766,48.82874,48.83263,48.838287,48.867767,48.92002,48.92784,48.840427,48.670845,48.186172,45.935505,42.494583,38.58098,35.999107,36.047264,37.043266,40.506664,44.7259,47.449036,48.445312,48.303062,48.436623,48.23664,47.825867,47.385345,46.647705,45.920856,45.613594,45.682568,45.94737,46.294807,46.56871,46.791313,46.883698,46.875137,46.86345,46.848602,46.84938,46.86763,46.918877,46.978893,47.01953,47.05177,47.062332,47.058537,47.042713,47.017456,46.994995,46.97101,46.94317,46.917145,46.89123,46.856804,46.82049,46.78695,46.739914,46.689335,46.64804,46.598656,46.54618,46.50197,46.450493,46.39158,46.3379,46.283997,46.209816,46.12683,46.0456,45.946777,45.848526,45.768887,45.674324,45.568245,45.47345,45.36686,45.239998,45.127895,45.032692,44.928284,44.84126,44.776947,44.69995,44.61673,44.54062,44.440994,44.311317,44.183216,44.04146,43.85854,43.675407,43.50203,43.274742,43.03328,42.81583,42.52964,42.216377,41.95272,41.655495,41.36054,41.13581,40.909195,40.651295,40.42357,40.22937,40.006992,39.808296,39.654602,39.47573,39.296333,39.149773,38.98652,38.803886,38.643097,38.48594,38.305122,38.14659,38.017235,37.86615,37.725388,37.614098,37.47065,37.31385,37.18418,37.05439,36.930237,36.83991,36.767178,36.68955,36.62117,36.560867,36.501526,36.46528,36.451897,36.4538,36.489586,36.545937,36.619225,36.745743,36.90192,37.08773,37.28785,37.44703,37.582993,37.68743,37.712044,37.68248,37.57853,37.423088,37.304733,37.25878,37.322968,37.433342,37.474854,37.518936,37.532692,37.497665,37.435837,37.369537,37.326942,37.310883,37.345573,37.415325,37.516403,37.666718,37.79435,37.85679,37.870216,37.83863,37.804337,37.77604,37.78366,37.820885,37.82419,37.743477,37.609085,37.481796,37.307827,37.128456,36.947395,36.841713,36.864693,36.943317,37.06167,37.151
55.5387,55.40526,55.218285,55.020588,54.715786,54.350174,54.01982,53.507927,52.832306,52.152184,51.040134,49.45324,47.964592,46.744965,45.40551,44.259132,43.360878,42.30787,41.08818,39.82261,38.164787,36.4048,35.087383,33.95439,33.110542,32.70672,32.503113,32.411106,32.396904,32.38401,32.305244,32.1449,31.962887,31.733006,31.461773,31.218285,30.951616,30.606644,30.254826,29.906483,29.449347,28.998173,28.623299,28.215961,27.892735,27.698421,27.538124,27.446638,27.414928,27.4034,27.394882,27.375286,27.345068,27.292904,27.22882,27.168743,27.097992,27.030558,26.979403,26.920225,26.852749,26.790775,26.722662,26.638996,26.563847,26.502258,26.439014,26.39425,26.368828,26.349293,26.340103,26.336699,26.332937,26.32917,26.326118,26.323887,26.32411,26.326435,26.328594,26.330534,26.330286,26.327904,26.323416,26.317833,26.313969,26.31355,26.32194,26.338812,26.362953,26.402493,26.448677,26.493128,26.552307,26.617256,26.675007,26.748566,26.837547,26.922361,27.025993,27.16053,27.29221,27.423567,27.574627,27.696785,27.78032,27.852238,27.918322,27.990206,28.103727,28.321262,28.65276,29.304195,30.689293,32.7773,35.736336,39.93746,43.36683,44.857353,46.33136,47.132034,47.23951,47.58683,48.00986,48.33837,48.609783,48.817284,48.908348,48.917564,48.925613,48.95906,49.021866,49.03541,48.95675,48.80102,48.290115,45.981354,42.480724,38.489258,35.88421,35.952724,36.905815,40.422424,44.73152,47.46849,48.46244,48.309307,48.439278,48.23364,47.805832,47.343044,46.590237,45.855316,45.551323,45.63153,45.9106,46.271328,46.55597,46.786247,46.878944,46.865623,46.849056,46.83046,46.83065,46.850548,46.907516,46.975517,47.02362,47.064873,47.082607,47.08261,47.071312,47.04945,47.02856,47.006973,46.98027,46.95379,46.927773,46.893425,46.857567,46.824905,46.77822,46.72694,46.684322,46.63319,46.578968,46.53361,46.48145,46.42169,46.366547,46.310345,46.231384,46.14222,46.05529,45.94941,45.844704,45.760597,45.660976,45.55029,45.45251,45.343735,45.216194,45.105476,45.01335,44.91422,44.83374,44.775906,44.706898,44.63253,44.564487,44.474724,44.355263,44.234753,44.09961,43.92242,43.74311,43.57289,43.34889,43.110607,42.89642,42.613754,42.303505,42.041996,41.749874,41.454872,41.224854,40.99317,40.75872,40.56637,40.38057,40.168823,39.97999,39.8321,39.650124,39.458893,39.300148,39.12854,38.937057,38.767593,38.604294,38.414055,38.24517,38.10745,37.949722,37.804966,37.69043,37.54319,37.383156,37.25148,37.11903,36.992058,36.899628,36.82512,36.745758,36.676285,36.615166,36.55812,36.526264,36.516396,36.52111,36.558975,36.61777,36.700535,36.840645,37.003326,37.179726,37.35879,37.49716,37.624,37.6978,37.69806,37.67257,37.58029,37.43918,37.330486,37.308983,37.370613,37.458313,37.509945,37.551994,37.550972,37.50587,37.43164,37.339653,37.257744,37.09323,36.918262,36.818672,36.766113,36.74888,36.736546,36.688187,36.60842,36.535866,36.49083,36.527443,36.73465,37.030243,37.259964,37.343468,37.29178,37.250114,37.14215,37.001877,36.86625,36.7983,36.835606,36.912727,37.027283,37.111084
55.375378,55.197945,55.01347,54.851276,54.565666,54.194565,53.850613,53.36489,52.69064,51.968807,50.901917,49.421814,48.037598,46.88256,45.65648,44.600777,43.691833,42.60046,41.334045,40.03945,38.256584,36.386536,35.05503,33.928963,33.1121,32.736046,32.559822,32.493275,32.488052,32.46787,32.375126,32.200863,32.011612,31.773964,31.499691,31.25806,30.99227,30.646069,30.289421,29.931396,29.464813,29.007198,28.626581,28.216991,27.89665,27.707317,27.554312,27.4707,27.4442,27.436413,27.429146,27.4078,27.374226,27.316504,27.246368,27.18134,27.10543,27.034262,26.981289,26.92119,26.854012,26.792887,26.72564,26.642738,26.56774,26.50573,26.441273,26.394855,26.368023,26.346907,26.336645,26.332954,26.32951,26.326698,26.32468,26.323425,26.324284,26.32653,26.32819,26.329102,26.327492,26.323845,26.318048,26.311348,26.306726,26.30571,26.313934,26.331158,26.355988,26.397144,26.445656,26.492561,26.55537,26.624466,26.68581,26.763752,26.857235,26.945469,27.05214,27.188328,27.319527,27.448755,27.595715,27.714384,27.796005,27.874474,27.956635,28.046375,28.175438,28.45146,28.87881,29.64468,31.135025,33.32204,36.540787,40.632088,43.695908,45.00733,46.28109,47.016422,47.219963,47.550526,47.967148,48.349194,48.649178,48.875237,48.97458,48.988182,49.00668,49.055424,49.133118,49.153374,49.093697,48.972797,48.423595,46.011806,42.412964,38.374104,35.797127,35.91017,36.799713,40.353638,44.747734,47.494465,48.48433,48.319523,48.44404,48.228516,47.782944,47.303196,46.54655,45.81298,45.51482,45.606205,45.89681,46.265503,46.55499,46.788322,46.878464,46.858772,46.83622,46.812935,46.812027,46.834885,46.89795,46.972984,47.027733,47.077377,47.10229,47.106575,47.099094,47.0794,47.059143,47.037655,47.010178,46.982815,46.956703,46.92276,46.88781,46.856506,46.810562,46.758717,46.7148,46.662006,46.60625,46.56005,46.507477,46.44703,46.39044,46.331985,46.248436,46.153496,46.0614,45.949226,45.838882,45.75099,45.64717,45.532883,45.43302,45.323147,45.196083,45.087578,44.999077,44.905403,44.83116,44.779335,44.71742,44.650715,44.589703,44.50865,44.398613,44.28563,44.1577,43.988014,43.8151,43.650906,43.43429,43.203564,42.99637,42.72146,42.41768,42.160324,41.87496,41.584724,41.355377,41.12089,40.894985,40.728928,40.588104,40.397614,40.206894,40.062157,39.877914,39.675766,39.502403,39.312843,39.10278,38.92064,38.748886,38.55072,38.372974,38.222725,38.052338,37.899685,37.78205,37.630165,37.466,37.33203,37.197006,37.06764,36.97361,36.89789,36.817955,36.748848,36.688606,36.632126,36.602554,36.59737,36.6042,36.64633,36.71299,36.80641,36.969917,37.14344,37.26667,37.418663,37.554268,37.649784,37.70274,37.69525,37.665417,37.58947,37.468243,37.36876,37.376884,37.435223,37.489075,37.52806,37.563393,37.553963,37.49116,37.395645,37.2499,37.080627,36.615753,36.109486,35.833504,35.637165,35.498,35.368683,35.148617,34.83855,34.606216,34.53091,34.603172,34.91326,35.323486,35.84639,36.43078,36.829742,36.912304,36.865265,36.794937,36.729652,36.72567,36.798584,36.891083,37.004894,37.085464
