33.17779,33.25762,33.356567,33.480213,33.587776,33.68184,33.76956,33.859917,33.955917,34.057034,34.161804,34.264458,34.36595,34.471035,34.578136,34.690147,34.802177,34.911575,35.01259,35.09739,35.173584,35.241875,35.309692,35.383224,35.459915,35.540375,35.625557,35.71865,35.8208,35.928963,36.035225,36.136265,36.234245,36.332134,36.430916,36.5278,36.618885,36.70541,36.78948,36.87301,36.95828,37.0476,37.14543,37.25164,37.366253,37.482418,37.594147,37.69751,37.79265,37.8835,37.9721,38.058434,38.142326,38.22336,38.30207,38.380947,38.46051,38.54094,38.622597,38.703545,38.78135,38.854282,38.92093,38.98123,39.037193,39.08787,39.13292,39.17348,39.21043,39.24521,39.2785,39.309902,39.341736,39.376064,39.415764,39.45964,39.50401,39.546535,39.5873,39.628258,39.669815,39.71055,39.74968,39.7865,39.820435,39.85083,39.877396,39.902077,39.92633,39.95176,39.97699,39.99965,40.018417,40.03548,40.054344,40.07669,40.100418,40.123474,40.144196,40.16208,40.178783,40.194557,40.209213,40.222324,40.233406,40.242455,40.247894,40.249405,40.248455,40.248375,40.25255,40.260674,40.269615,40.277283,40.282013,40.28412,40.28324,40.278484,40.27127,40.263565,40.25466,40.243614,40.226467,40.202095,40.172844,40.139336,40.102776,40.063133,40.022003,39.981068,39.941475,39.903973,39.867706,39.834328,39.80491,39.77894,39.754005,39.72718,39.696526,39.66244,39.625626,39.58502,39.537613,39.480965,39.416054,39.345543,39.27555,39.209503,39.150276,39.100616,39.061558,39.03434,39.018047,39.00789,38.99962,38.989002,38.974472,38.955696,38.931507,38.902763,38.872433,38.84426,38.81927,38.797462,38.778046,38.759895,38.741722,38.723656,38.70537,38.685753,38.663746,38.63758,38.60743,38.57348,38.539467,38.507397,38.47945,38.457718,38.44108,38.4273,38.414623,38.402237,38.39019,38.379837,38.3712,38.362648,38.35125,38.33454,38.31012,38.278637,38.24198,38.203537,38.168182,38.138836,38.118103,38.101295,38.08585,38.06642,38.04176,38.01548,37.990685,37.968216,37.9448,37.91796,37.886833,37.85353,37.821228,37.788525,37.7535,37.718884,37.68432,37.653038,37.620815,37.583405,37.534042,37.46781,37.383183,37.28611,37.181396,37.07238,36.96798,36.874207,36.797962,36.74031,36.703194,36.682777,36.674828,36.674126,36.681213,36.69037,36.698196,36.700134,36.6958,36.684258,36.663986,36.635624,36.60196,36.567894,36.534782,36.502464,36.46936,36.435257,36.396423,36.350204,36.29556,36.231422,36.156914,36.084274,36.012787,35.940987,35.86541,35.785507,35.705746,35.62684,35.54998,35.473824,35.395844,35.315628,35.231064,35.1391,35.03894,34.935677,34.824284,34.70646,34.582687,34.456467,34.32804,34.200287,34.078236,33.95876,33.83413,33.707,33.576454,33.443504,33.30847,33.17343,33.051605,32.928307,32.789917,32.57302,32.28647,31.97273,31.679886,31.42622,31.242292,31.104736,31.00214,30.93017,30.882875,30.859818,30.842003,30.814209,30.792463,30.778957,30.752892,30.684254,30.545765,30.345388,30.074812,29.761234,29.4057,29.003864,28.554289,28.101578,27.688961,27.32867,27.009449,26.739208,26.475565,26.220724,25.998917
33.378468,33.433884,33.517853,33.635162,33.75598,33.856544,33.95061,34.045807,34.145935,34.25128,34.360413,34.46836,34.57614,34.68766,34.800423,34.91794,35.03617,35.15406,35.265686,35.361855,35.4498,35.528847,35.60723,35.690567,35.77679,35.865913,35.957787,36.055424,36.1586,36.264427,36.365334,36.458725,36.54879,36.639923,36.734497,36.82939,36.919342,37.005146,37.08777,37.1693,37.25217,37.337814,37.430683,37.530968,37.639095,37.748703,37.854183,37.952248,38.04324,38.131317,38.218018,38.3022,38.383747,38.461292,38.535767,38.609802,38.683636,38.757717,38.833057,38.907784,38.979366,39.046074,39.106422,39.160934,39.21222,39.25963,39.302197,39.340702,39.375282,39.40744,39.438454,39.468258,39.499546,39.534286,39.57496,39.62065,39.667324,39.71205,39.75437,39.795864,39.83659,39.875366,39.911636,39.94463,39.974262,40.000526,40.02309,40.04404,40.06494,40.086815,40.1089,40.129036,40.14605,40.16298,40.18346,40.20907,40.237156,40.264977,40.290443,40.31298,40.334618,40.355247,40.37462,40.39276,40.409126,40.423843,40.43573,40.443703,40.449203,40.455414,40.465668,40.480133,40.496178,40.51209,40.52633,40.539257,40.549805,40.556587,40.560604,40.563267,40.563484,40.55947,40.54663,40.524372,40.49566,40.46209,40.425446,40.385803,40.345203,40.305378,40.26783,40.232742,40.198948,40.167503,40.139145,40.11313,40.08699,40.057987,40.024727,39.98816,39.949867,39.909798,39.86515,39.813637,39.75502,39.69055,39.624966,39.560524,39.500153,39.447178,39.40345,39.37041,39.3471,39.32936,39.314156,39.29857,39.281815,39.263046,39.2405,39.21397,39.185646,39.158585,39.13333,39.11051,39.089844,39.070137,39.049675,39.027885,39.00463,38.979874,38.953354,38.924194,38.892254,38.857365,38.82264,38.789196,38.75953,38.735497,38.7172,38.702656,38.68982,38.677498,38.665176,38.654305,38.64552,38.637897,38.628426,38.614243,38.592754,38.564735,38.531677,38.49688,38.463875,38.435646,38.414955,38.397896,38.38246,38.36296,38.33808,38.31192,38.287373,38.265686,38.243744,38.218758,38.18962,38.158417,38.12778,38.096756,38.0634,38.030434,37.9971,37.966526,37.935123,37.899223,37.85357,37.79414,37.719276,37.634476,37.54222,37.443542,37.345062,37.252476,37.173546,37.111,37.069046,37.043385,37.030396,37.023834,37.022995,37.023415,37.02216,37.016766,37.00798,36.994392,36.973167,36.943546,36.908443,36.87302,36.83922,36.807297,36.77485,36.741043,36.701847,36.654037,36.597504,36.53169,36.456696,36.385292,36.31582,36.2461,36.17151,36.091305,36.010704,35.93057,35.85286,35.776215,35.69828,35.618587,35.53364,35.44018,35.337566,35.232437,35.120586,35.002953,34.87968,34.75315,34.62393,34.496185,34.375206,34.259037,34.14009,34.01988,33.896896,33.770885,33.64151,33.511772,33.394386,33.27478,33.14618,32.97586,32.73414,32.40864,32.103256,31.830997,31.61932,31.474134,31.36575,31.293678,31.25734,31.252144,31.249977,31.244362,31.24337,31.24871,31.231522,31.160057,31.024628,30.822418,30.546597,30.220474,29.843624,29.423069,28.944464,28.454569,28.002935,27.599506,27.231508,26.921436,26.632816,26.369259,26.146542
33.62756,33.654713,33.716415,33.81772,33.93284,34.03518,34.132767,34.23172,34.336555,34.44716,34.561455,34.675198,34.78935,34.907394,35.02636,35.150383,35.276325,35.4041,35.527596,35.63663,35.73784,35.830467,35.922867,36.01956,36.11877,36.218933,36.319126,36.42166,36.525616,36.628418,36.723705,36.810005,36.893135,36.9784,37.06936,37.16253,37.252014,37.337692,37.419678,37.499573,37.579407,37.659973,37.745132,37.835655,37.932755,38.03103,38.12597,38.215073,38.298805,38.381477,38.46412,38.544724,38.62301,38.69676,38.766808,38.835526,38.90297,38.97004,39.038216,39.106228,39.17149,39.23236,39.287315,39.337128,39.384705,39.42962,39.47054,39.507736,39.540688,39.57097,39.600464,39.629673,39.661575,39.69793,39.740692,39.7887,39.837917,39.884697,39.928093,39.969215,40.00815,40.04433,40.077496,40.10707,40.133316,40.156387,40.176125,40.19467,40.213337,40.23269,40.252445,40.27079,40.286774,40.304085,40.326057,40.354225,40.38543,40.4167,40.445568,40.471466,40.496635,40.520943,40.544357,40.567257,40.58912,40.610123,40.629272,40.644894,40.657944,40.671165,40.687473,40.707268,40.728676,40.750565,40.771828,40.793167,40.81321,40.830284,40.845245,40.858543,40.868595,40.872505,40.86504,40.846283,40.819374,40.787125,40.751698,40.71324,40.6738,40.634922,40.598034,40.56344,40.530098,40.498795,40.470062,40.44275,40.41435,40.38215,40.345116,40.304485,40.26246,40.22036,40.176273,40.128975,40.077217,40.021027,39.96295,39.903557,39.845406,39.791763,39.745205,39.707268,39.67728,39.651855,39.629215,39.607567,39.5869,39.56617,39.54367,39.518494,39.492157,39.46643,39.44101,39.416977,39.394352,39.37214,39.348396,39.322113,39.29359,39.26365,39.232872,39.200905,39.167496,39.13259,39.09836,39.06523,39.03537,39.01001,38.99018,38.974308,38.960335,38.946922,38.933544,38.921864,38.913223,38.90715,38.900253,38.889206,38.87137,38.84755,38.81894,38.788536,38.758217,38.73113,38.709793,38.691635,38.67524,38.655384,38.63073,38.605442,38.58195,38.561234,38.540436,38.517197,38.490387,38.462296,38.43428,38.40555,38.374073,38.342308,38.309685,38.27851,38.246407,38.210014,38.166405,38.112495,38.046886,37.974766,37.896404,37.810688,37.72194,37.635067,37.557243,37.491974,37.444622,37.411194,37.389565,37.373856,37.363277,37.35417,37.34435,37.332245,37.31939,37.30397,37.28186,37.251163,37.214905,37.178265,37.143654,37.111645,37.079365,37.045547,37.006012,36.957306,36.899803,36.83338,36.75856,36.688446,36.62062,36.552216,36.47779,36.3965,36.314133,36.23202,36.15248,36.074265,35.99523,35.915028,35.829132,35.73407,35.629463,35.52291,35.41101,35.293873,35.17156,35.04559,34.917,34.79107,34.673264,34.562466,34.45129,34.33953,34.22541,34.10762,33.98519,33.861897,33.750885,33.637276,33.51255,33.37146,33.173046,32.90113,32.579967,32.300407,32.075382,31.907166,31.782797,31.705067,31.667725,31.660563,31.661781,31.662216,31.66922,31.68868,31.69129,31.637798,31.494232,31.28751,31.017202,30.704182,30.323687,29.905697,29.415857,28.900032,28.412285,27.978832,27.568539,27.209423,26.891594,26.612675,26.385586
33.887386,33.91664,33.955936,34.03369,34.12319,34.221657,34.31859,34.41901,34.527927,34.64395,34.76384,34.88376,35.00462,35.129528,35.255257,35.386612,35.521103,35.659172,35.794563,35.91633,36.031006,36.13836,36.246082,36.357655,36.47068,36.582115,36.690495,36.797623,36.90248,37.0029,37.0941,37.17562,37.254227,37.335777,37.42462,37.517258,37.607346,37.694103,37.776455,37.855125,37.931656,38.0063,38.08191,38.16005,38.242702,38.325966,38.406715,38.48352,38.557,38.631714,38.7081,38.783752,38.858227,38.928177,38.993828,39.05716,39.118202,39.178257,39.239586,39.301384,39.36129,39.417587,39.468906,39.515793,39.56111,39.6047,39.645008,39.6818,39.71422,39.74363,39.77262,39.802364,39.836216,39.875404,39.921227,39.97216,40.024025,40.07251,40.11642,40.15601,40.19191,40.224464,40.25393,40.280075,40.30333,40.323936,40.342148,40.359913,40.378174,40.39691,40.416023,40.434105,40.450043,40.46795,40.4905,40.519054,40.550438,40.581715,40.61042,40.636154,40.66143,40.686417,40.711723,40.7379,40.764355,40.791092,40.81717,40.840546,40.861526,40.881874,40.903778,40.92778,40.95255,40.977722,41.00264,41.02862,41.05471,41.079693,41.104546,41.128784,41.150116,41.164352,41.165443,41.153748,41.132187,41.104584,41.07332,41.038506,41.00212,40.965164,40.928917,40.894035,40.859966,40.827835,40.79818,40.76934,40.738678,40.70329,40.662235,40.61667,40.56933,40.522766,40.476593,40.43094,40.38452,40.336132,40.286034,40.233326,40.17939,40.127373,40.08017,40.0392,40.004128,39.97245,39.943394,39.91581,39.89044,39.86637,39.842293,39.817192,39.792023,39.767166,39.7415,39.716255,39.69153,39.666622,39.639526,39.609146,39.57641,39.54294,39.50966,39.476517,39.442986,39.409187,39.37642,39.34468,39.315365,39.289,39.267296,39.248985,39.232193,39.215874,39.19982,39.18647,39.177654,39.173126,39.16886,39.160606,39.145844,39.125454,39.100594,39.074013,39.046223,39.020435,38.998787,38.98016,38.963463,38.944176,38.921143,38.898117,38.876514,38.856842,38.83664,38.814415,38.78952,38.764137,38.73805,38.71039,38.67931,38.6474,38.614616,38.582253,38.54932,38.512497,38.470985,38.422844,38.36654,38.307076,38.24272,38.170773,38.09348,38.0149,37.94083,37.87452,37.821526,37.77887,37.746174,37.719475,37.698402,37.67994,37.66222,37.643898,37.627083,37.609344,37.58596,37.553898,37.51633,37.478348,37.44262,37.410057,37.37777,37.344162,37.305153,37.25692,37.200066,37.134468,37.060802,36.992012,36.92566,36.85811,36.783577,36.70084,36.616375,36.531837,36.449955,36.36986,36.28944,36.208427,36.121635,36.025368,35.91929,35.81187,35.700214,35.583702,35.462814,35.338097,35.211143,35.08773,34.97368,34.8684,34.76517,34.662037,34.557297,34.448586,34.334415,34.21884,34.115845,34.010063,33.89251,33.75696,33.60266,33.402588,33.118946,32.821922,32.586662,32.40084,32.252586,32.147057,32.082565,32.05193,32.03523,32.02374,32.027534,32.05486,32.078133,32.05402,31.932934,31.742208,31.499477,31.214025,30.860554,30.457851,29.981112,29.455063,28.93785,28.467154,28.021572,27.610973,27.252037,26.951885,26.710533
34.141727,34.16164,34.200645,34.257347,34.33172,34.42286,34.517105,34.618114,34.73149,34.85369,34.979897,35.106422,35.23403,35.365284,35.497143,35.635017,35.77688,35.922913,36.06712,36.198368,36.3235,36.443398,36.56446,36.689117,36.813896,36.93454,37.049507,37.160057,37.26574,37.364857,37.454117,37.533875,37.611187,37.691772,37.780384,37.873695,37.965332,38.053898,38.13732,38.21545,38.289085,38.35842,38.424973,38.49104,38.558983,38.62645,38.691643,38.75467,38.816345,38.881496,38.950096,39.019764,39.089413,39.155327,39.21659,39.27462,39.329536,39.38317,39.43814,39.494297,39.549683,39.602573,39.65171,39.697105,39.741272,39.78434,39.82466,39.86176,39.894466,39.92415,39.95351,39.984665,40.021126,40.06364,40.11298,40.167007,40.221367,40.27111,40.31489,40.352234,40.384445,40.41297,40.438652,40.461613,40.482353,40.501106,40.51854,40.536587,40.55563,40.575134,40.59513,40.614395,40.631752,40.650856,40.673454,40.70053,40.7294,40.757668,40.7833,40.805996,40.828636,40.851883,40.87697,40.904587,40.93403,40.964947,40.99652,41.02669,41.05494,41.08183,41.10868,41.135925,41.162674,41.189102,41.214912,41.242046,41.270576,41.300377,41.33287,41.366783,41.399002,41.42428,41.435913,41.434265,41.4216,41.402164,41.378235,41.3501,41.319393,41.28663,41.25267,41.21846,41.184288,41.15177,41.12185,41.09273,41.061367,41.024498,40.98098,40.931503,40.879036,40.827164,40.777176,40.73114,40.688072,40.646202,40.60356,40.557888,40.50936,40.460594,40.414284,40.37174,40.333054,40.296505,40.261875,40.228203,40.19688,40.167564,40.139656,40.112587,40.08683,40.061783,40.035645,40.009567,39.98328,39.9563,39.92656,39.893288,39.85792,39.822453,39.787895,39.754242,39.72091,39.688377,39.65725,39.627342,39.599125,39.572453,39.549004,39.52773,39.506973,39.48636,39.466717,39.451347,39.442196,39.43876,39.436142,39.429214,39.415825,39.39694,39.374092,39.349815,39.3239,39.29959,39.278397,39.260265,39.244217,39.22641,39.205917,39.1859,39.166485,39.147694,39.127357,39.105263,39.081444,39.057858,39.03273,39.00508,38.973267,38.94011,38.90673,38.873096,38.839687,38.80294,38.763733,38.720825,38.67301,38.62477,38.573242,38.51466,38.449833,38.381866,38.314568,38.25004,38.192986,38.141777,38.098118,38.060616,38.030228,38.003845,37.979973,37.95663,37.936283,37.916027,37.890785,37.85681,37.817528,37.777763,37.74027,37.706413,37.673622,37.640137,37.60177,37.55478,37.499477,37.435497,37.36341,37.29555,37.230003,37.162636,37.087612,37.003487,36.916885,36.829975,36.74566,36.6636,36.58159,36.499466,36.411728,36.31437,36.20706,36.098812,35.987137,35.87096,35.75145,35.628326,35.50366,35.383083,35.272602,35.171925,35.075172,34.97911,34.882675,34.782745,34.677265,34.57006,34.476128,34.37909,34.269707,34.141693,33.994473,33.831825,33.6591,33.398994,33.14717,32.93453,32.752724,32.60863,32.50219,32.432655,32.380997,32.34206,32.3315,32.357742,32.397,32.40175,32.314495,32.14996,31.943424,31.711689,31.404852,31.04617,30.58205,30.067902,29.539434,29.03857,28.567635,28.143147,27.750729,27.414944,27.148708
34.374786,34.391235,34.42398,34.472725,34.538937,34.624588,34.718193,34.82213,34.942238,35.072243,35.205772,35.33914,35.47275,35.608665,35.744484,35.88616,36.032097,36.18162,36.329376,36.46471,36.595127,36.722855,36.852303,36.984783,37.116165,37.241386,37.359474,37.47152,37.57786,37.677345,37.76754,37.849087,37.92864,38.01135,38.101994,38.197712,38.29229,38.383514,38.468933,38.547752,38.620087,38.686653,38.74743,38.804924,38.861176,38.914818,38.965134,39.013954,39.062973,39.11752,39.177376,39.240364,39.304703,39.36638,39.423565,39.476814,39.52665,39.575027,39.624794,39.676292,39.7279,39.77793,39.825363,39.86989,39.9135,39.95661,39.997665,40.035793,40.069836,40.1007,40.131073,40.16394,40.202675,40.247883,40.29989,40.355797,40.411182,40.461067,40.504005,40.539055,40.568233,40.593987,40.617363,40.638695,40.658318,40.676186,40.693687,40.712685,40.733196,40.754395,40.776512,40.79844,40.818977,40.840706,40.864357,40.890633,40.91755,40.943382,40.96643,40.986473,41.006268,41.027184,41.05114,41.07881,41.10944,41.142494,41.1775,41.212677,41.246964,41.27985,41.31173,41.342697,41.371796,41.3992,41.424515,41.450047,41.477474,41.50815,41.544304,41.58447,41.625004,41.659767,41.68183,41.69126,41.689583,41.680992,41.667473,41.64925,41.627823,41.602955,41.574608,41.543762,41.511246,41.479355,41.449654,41.420692,41.38923,41.351616,41.306576,41.253937,41.196716,41.139267,41.084465,41.03607,40.993973,40.956104,40.918587,40.878338,40.834213,40.78818,40.74259,40.698586,40.65663,40.61566,40.575752,40.535828,40.497543,40.461433,40.427628,40.39612,40.367596,40.34075,40.313805,40.287525,40.260994,40.23361,40.203133,40.168972,40.1329,40.097008,40.062386,40.02891,39.996216,39.965076,39.935738,39.90802,39.881634,39.855606,39.831146,39.806824,39.78147,39.755722,39.731888,39.714123,39.704224,39.701035,39.69886,39.692093,39.67903,39.660786,39.638992,39.61608,39.591915,39.569534,39.550095,39.534077,39.520294,39.505318,39.48834,39.471916,39.45491,39.437088,39.416695,39.394596,39.371483,39.348896,39.32376,39.294933,39.26127,39.225677,39.19023,39.15431,39.118767,39.080658,39.041504,39.00093,38.958054,38.917343,38.875458,38.828033,38.77482,38.71787,38.65882,38.598396,38.53965,38.482533,38.430416,38.384792,38.347824,38.31614,38.288555,38.262306,38.24007,38.218582,38.192398,38.157116,38.116196,38.074387,38.034702,37.999012,37.965225,37.931396,37.893257,37.84723,37.793064,37.730347,37.6594,37.591896,37.526733,37.45943,37.384117,37.298912,37.210457,37.1214,37.03482,36.950836,36.86724,36.783943,36.695175,36.596596,36.48771,36.37812,36.26599,36.150143,36.03248,35.91177,35.790154,35.672752,35.565304,35.46771,35.3749,35.282978,35.19187,35.09841,35.000435,34.90105,34.815784,34.727356,34.626186,34.50634,34.367104,34.211647,34.05222,33.894836,33.708836,33.49487,33.275597,33.07708,32.91803,32.80182,32.70581,32.6287,32.593685,32.609222,32.655556,32.681156,32.621296,32.48757,32.310547,32.12194,31.873554,31.572529,31.152918,30.654882,30.151443,29.656935,29.170288,28.728626,28.34557,28.003273,27.706673
34.597286,34.61377,34.644005,34.68858,34.750187,34.83398,34.930237,35.040264,35.16931,35.308395,35.44967,35.5891,35.726772,35.864555,36.000927,36.142246,36.287285,36.434532,36.579823,36.713867,36.844788,36.975754,37.108803,37.244125,37.37728,37.50318,37.621674,37.733704,37.840332,37.940872,38.03321,38.117935,38.20103,38.28698,38.38034,38.47872,38.576065,38.66968,38.75689,38.836563,38.90865,38.97443,39.03274,39.085533,39.13407,39.177406,39.215492,39.252106,39.29023,39.335644,39.388023,39.445213,39.5045,39.562088,39.61545,39.664635,39.71058,39.755203,39.80138,39.849545,39.898216,39.945637,39.991173,40.034454,40.07716,40.12023,40.16204,40.201645,40.23773,40.27054,40.30246,40.33696,40.377487,40.424248,40.477432,40.5335,40.588234,40.636944,40.67839,40.711594,40.739235,40.76433,40.787792,40.810043,40.830807,40.84986,40.869095,40.890266,40.91304,40.936752,40.961792,40.98706,41.01135,41.03634,41.061836,41.088375,41.114666,41.139572,41.161575,41.180244,41.19809,41.217045,41.2394,41.265984,41.296047,41.329124,41.365078,41.402855,41.441074,41.47837,41.514717,41.54966,41.581955,41.61136,41.636993,41.66136,41.68743,41.71785,41.7556,41.79917,41.84453,41.885387,41.9152,41.933815,41.94236,41.944717,41.942604,41.936073,41.926445,41.912605,41.893295,41.869,41.84088,41.811802,41.783997,41.756706,41.726685,41.690067,41.64529,41.591576,41.53174,41.47041,41.411827,41.360832,41.318172,41.2816,41.246098,41.207985,41.16529,41.119392,41.0724,41.025505,40.979618,40.93428,40.88938,40.843636,40.798843,40.75598,40.715996,40.679142,40.646416,40.616486,40.58793,40.561188,40.534843,40.507637,40.47722,40.443115,40.407112,40.371185,40.33647,40.302834,40.270206,40.23971,40.21142,40.18521,40.160366,40.135384,40.110588,40.083885,40.054756,40.024307,39.99668,39.97653,39.965378,39.961563,39.95896,39.951954,39.939453,39.922314,39.902252,39.88105,39.85923,39.839092,39.82177,39.807854,39.79563,39.782448,39.767654,39.753395,39.737732,39.720352,39.69979,39.67762,39.654907,39.63257,39.606926,39.576702,39.54135,39.503654,39.46618,39.427986,39.389694,39.349392,39.30849,39.267563,39.22622,39.189137,39.15313,39.113647,39.069744,39.022545,38.97155,38.916176,38.857864,38.797905,38.7409,38.690563,38.650043,38.615467,38.58627,38.558838,38.536247,38.514725,38.488495,38.452415,38.410248,38.366623,38.324753,38.28725,38.25241,38.218105,38.179817,38.134205,38.080563,38.01848,37.94817,37.880684,37.81552,37.748344,37.67267,37.586536,37.49624,37.404976,37.316025,37.230003,37.144653,37.05996,36.970016,36.87011,36.75962,36.64885,36.536514,36.42154,36.30632,36.188774,36.070686,35.95671,35.85183,35.756245,35.665367,35.57514,35.486717,35.397484,35.305046,35.211945,35.134052,35.05337,34.96022,34.84939,34.720028,34.575058,34.425255,34.27923,34.14299,33.98327,33.80606,33.56967,33.360626,33.200012,33.06778,32.95759,32.902077,32.912476,32.96605,33.007767,32.96592,32.852135,32.696182,32.52543,32.303944,32.046505,31.678963,31.219711,30.753582,30.290533,29.816471,29.36726,28.962124,28.616375,28.32668
34.79914,34.817795,34.848904,34.8938,34.955677,35.04228,35.14547,35.26534,35.406063,35.555824,35.7051,35.84967,35.989445,36.126457,36.260323,36.39765,36.53753,36.677795,36.81607,36.944946,37.07283,37.203476,37.33634,37.470627,37.60218,37.726254,37.84345,37.954628,38.06112,38.16246,38.256653,38.34414,38.430145,38.518524,38.613358,38.712936,38.811253,38.90548,38.993034,39.072765,39.14475,39.210915,39.269306,39.321045,39.36633,39.404205,39.4348,39.463646,39.49492,39.53453,39.5821,39.635117,39.690125,39.74395,39.793846,39.839706,39.88308,39.925606,39.969997,40.016464,40.063354,40.108757,40.15229,40.193935,40.23509,40.27755,40.319862,40.360817,40.399006,40.433857,40.467236,40.502876,40.54408,40.590942,40.64363,40.698414,40.751137,40.797966,40.83799,40.8704,40.89846,40.925407,40.951862,40.97802,41.00297,41.025894,41.049034,41.073868,41.10003,41.127167,41.155613,41.18473,41.21322,41.241966,41.270355,41.2988,41.326508,41.3528,41.376015,41.395443,41.413048,41.431114,41.451942,41.476685,41.504814,41.536053,41.571,41.60903,41.649017,41.689087,41.729027,41.76794,41.804176,41.836952,41.86468,41.8898,41.916103,41.946945,41.985546,42.030216,42.07665,42.118977,42.151794,42.175323,42.19057,42.20128,42.208893,42.213364,42.215923,42.214516,42.206417,42.191177,42.16979,42.14554,42.12155,42.097794,42.0709,42.037376,41.995506,41.943604,41.884224,41.82178,41.76129,41.70819,41.664078,41.626526,41.58981,41.550293,41.505352,41.456306,41.405304,41.353912,41.303547,41.2542,41.205307,41.155045,41.105076,41.05649,41.01068,40.96804,40.930073,40.8957,40.864136,40.835648,40.808556,40.78074,40.74981,40.71515,40.67847,40.641296,40.60495,40.569313,40.534832,40.502926,40.473854,40.447853,40.42401,40.400635,40.37703,40.350258,40.32014,40.28808,40.2595,40.239174,40.228073,40.224216,40.221714,40.215347,40.204697,40.1903,40.173424,40.155037,40.13624,40.11821,40.10244,40.089096,40.07647,40.06262,40.04736,40.03274,40.016647,39.99882,39.977882,39.955605,39.933144,39.91108,39.88553,39.855263,39.820015,39.78199,39.743492,39.703426,39.661697,39.617706,39.572792,39.528152,39.484253,39.44597,39.4108,39.37448,39.3358,39.29502,39.25006,39.199417,39.143074,39.083374,39.025455,38.974277,38.933548,38.89873,38.86984,38.842766,38.820976,38.800465,38.77505,38.73896,38.69619,38.651535,38.608322,38.56972,38.534306,38.499733,38.461,38.415226,38.36142,38.29943,38.229645,38.162186,38.097008,38.029884,37.953644,37.866302,37.774014,37.68038,37.588936,37.500748,37.413418,37.326973,37.23568,37.134533,37.02277,36.91137,36.799423,36.686016,36.57383,36.459984,36.345886,36.23581,36.133854,36.04032,35.95076,35.86135,35.7741,35.687286,35.598495,35.509827,35.437325,35.36274,35.276466,35.1746,35.056007,34.923145,34.786003,34.651096,34.53009,34.40305,34.250427,34.068,33.83866,33.648033,33.49298,33.36477,33.298496,33.30939,33.374153,33.419216,33.364952,33.274773,33.135563,32.964294,32.740257,32.489037,32.152653,31.734772,31.31596,30.903355,30.46868,30.037914,29.630573,29.26375,28.941036
34.986706,35.009228,35.043938,35.09247,35.158478,35.251457,35.364418,35.496246,35.6491,35.80889,35.96456,36.111935,36.25127,36.38516,36.514297,36.645157,36.777008,36.907604,37.036354,37.1585,37.282143,37.410503,37.540874,37.67165,37.79921,37.919643,38.034184,38.143562,38.24911,38.350624,38.445934,38.535175,38.622925,38.712315,38.806854,38.905342,39.002083,39.094414,39.18042,39.258865,39.33029,39.396812,39.456367,39.509216,39.55479,39.591934,39.62056,39.647034,39.676346,39.71415,39.760056,39.811016,39.86318,39.91394,39.96087,40.00415,40.04577,40.0875,40.13163,40.178,40.22453,40.269012,40.31107,40.35103,40.390343,40.431557,40.47377,40.515514,40.555443,40.592197,40.62694,40.66356,40.705032,40.751358,40.802734,40.855427,40.90576,40.950653,40.98973,41.022224,41.051735,41.081562,41.11194,41.143017,41.173325,41.201466,41.229736,41.259315,41.289886,41.321342,41.354244,41.3878,41.420837,41.453682,41.48541,41.516533,41.546623,41.5752,41.600647,41.621944,41.640366,41.658306,41.67804,41.700874,41.7268,41.755936,41.789337,41.82696,41.867798,41.90978,41.952587,41.994934,42.034855,42.071045,42.10147,42.128296,42.155785,42.187386,42.22618,42.27046,42.31593,42.357574,42.39116,42.41754,42.43769,42.45494,42.47071,42.484665,42.498398,42.508965,42.51217,42.506783,42.49343,42.47565,42.45703,42.438293,42.416023,42.387333,42.350365,42.302864,42.2466,42.185516,42.12463,42.06965,42.022896,41.98182,41.94087,41.89663,41.84639,41.79161,41.734768,41.67813,41.62358,41.571323,41.519974,41.46715,41.41398,41.36147,41.31093,41.262825,41.219025,41.17897,41.142807,41.11064,41.08074,41.05041,41.017357,40.980797,40.942375,40.902992,40.86395,40.825306,40.787643,40.752647,40.72096,40.693176,40.668884,40.646717,40.625153,40.600483,40.572235,40.541794,40.515007,40.496445,40.486717,40.48374,40.48227,40.47782,40.47036,40.46,40.447285,40.43242,40.417057,40.401104,40.3864,40.372887,40.359028,40.343582,40.32673,40.310436,40.292824,40.274048,40.252686,40.230164,40.207615,40.185234,40.159462,40.12951,40.095005,40.057465,40.018642,39.977303,39.93244,39.88472,39.835144,39.785336,39.736183,39.69271,39.653465,39.615036,39.576828,39.538628,39.497246,39.450474,39.397404,39.340775,39.285744,39.237206,39.19883,39.1656,39.137775,39.111702,39.091225,39.072292,39.04843,39.01322,38.971016,38.926502,38.883076,38.844154,38.80855,38.773758,38.734432,38.688187,38.633972,38.57206,38.503025,38.435974,38.371006,38.30403,38.22727,38.13881,38.044693,37.948975,37.855354,37.765102,37.67569,37.587326,37.494713,37.392776,37.280586,37.169594,37.058823,36.947414,36.83802,36.727226,36.61615,36.509087,36.409344,36.31718,36.228096,36.138664,36.05152,35.965874,35.87928,35.79354,35.724857,35.654915,35.57457,35.48107,35.37347,35.253742,35.13085,35.0101,34.900665,34.790504,34.665844,34.51336,34.340942,34.15078,33.992657,33.862297,33.795227,33.807335,33.86834,33.8647,33.799335,33.697052,33.5898,33.425323,33.175694,32.9085,32.5835,32.20758,31.828918,31.468065,31.08841,30.695824,30.304201,29.930885,29.585468
35.156456,35.18364,35.223713,35.27855,35.35218,35.454376,35.579224,35.72387,35.88834,36.056705,36.216515,36.364395,36.501358,36.630966,36.75488,36.87906,37.002823,37.1241,37.24412,37.360664,37.48109,37.607506,37.735504,37.862602,37.98616,38.10298,38.21453,38.321365,38.424774,38.52495,38.619568,38.708603,38.796055,38.88418,38.975906,39.070305,39.162468,39.2501,39.33252,39.408455,39.478516,39.54474,39.605087,39.659294,39.706947,39.74656,39.77774,39.806633,39.838554,39.878426,39.925755,39.977028,40.028202,40.07729,40.122345,40.163834,40.20452,40.24637,40.29123,40.338802,40.38647,40.431572,40.47339,40.512573,40.550556,40.59062,40.63244,40.6746,40.71576,40.75425,40.790527,40.828575,40.87098,40.917084,40.967316,41.018047,41.066353,41.109882,41.148666,41.181656,41.21231,41.243797,41.276245,41.310028,41.343674,41.375504,41.407967,41.44181,41.47669,41.512802,41.550457,41.588757,41.626484,41.66322,41.69786,41.730934,41.762405,41.792343,41.81938,41.84243,41.86228,41.881165,41.901108,41.923504,41.948708,41.977234,42.01055,42.04878,42.09075,42.134193,42.178627,42.222748,42.26448,42.30249,42.334694,42.36288,42.391487,42.423706,42.462395,42.505966,42.55018,42.591095,42.62581,42.65528,42.68039,42.70381,42.726616,42.748314,42.7708,42.790615,42.802956,42.806202,42.800827,42.79029,42.77835,42.76583,42.74936,42.726635,42.695908,42.65455,42.60331,42.545708,42.48626,42.430443,42.381195,42.336082,42.290123,42.240417,42.184227,42.123528,42.061226,42.000137,41.942688,41.889046,41.837105,41.783752,41.729668,41.67551,41.6223,41.570335,41.521442,41.475773,41.433918,41.395805,41.360016,41.323788,41.28532,41.244087,41.201714,41.1584,41.115234,41.072205,41.030037,40.99034,40.954285,40.92285,40.896515,40.87471,40.8555,40.834545,40.810753,40.784874,40.76233,40.747257,40.73973,40.738007,40.73768,40.735306,40.731064,40.724762,40.716095,40.70484,40.69278,40.678806,40.664783,40.650658,40.635216,40.61803,40.59957,40.58156,40.56257,40.543182,40.521927,40.49969,40.477226,40.454426,40.42825,40.39852,40.364777,40.328053,40.289696,40.248245,40.201992,40.152367,40.099937,40.04594,39.991272,39.940636,39.89392,39.849243,39.807415,39.768383,39.728386,39.684547,39.635265,39.58309,39.5327,39.488266,39.45292,39.42108,39.39325,39.367157,39.346817,39.32868,39.305977,39.271976,39.231155,39.188004,39.145454,39.106934,39.071518,39.036777,38.997498,38.951626,38.898148,38.837715,38.770565,38.704964,38.640812,38.574448,38.49775,38.408813,38.313866,38.216885,38.12173,38.02975,37.938267,37.84784,37.753983,37.651756,37.540154,37.43055,37.321632,37.212315,37.104992,36.99613,36.88671,36.781555,36.683243,36.59188,36.502937,36.413227,36.32601,36.24128,36.156254,36.07257,36.006683,35.940365,35.864906,35.77889,35.681793,35.57536,35.467278,35.36149,35.266273,35.16712,35.06111,34.9336,34.790745,34.66468,34.54944,34.44205,34.38095,34.36416,34.373405,34.366302,34.29185,34.17254,34.042313,33.90071,33.622536,33.326607,32.978714,32.632736,32.290833,31.962067,31.629402,31.284143,30.923588,30.559704,30.204884
35.316776,35.350937,35.39824,35.461205,35.544502,35.657303,35.794594,35.95182,36.126785,36.302315,36.464924,36.612114,36.745785,36.87082,36.989662,37.107685,37.224197,37.337624,37.450718,37.563416,37.682026,37.807243,37.933296,38.057236,38.1773,38.290558,38.398804,38.502335,38.602737,38.70047,38.793144,38.880653,38.96635,39.051926,39.1397,39.22891,39.315475,39.397873,39.476562,39.550457,39.61949,39.685448,39.746147,39.80149,39.851692,39.89509,39.930847,39.96444,40.00112,40.044914,40.095406,40.14859,40.200462,40.24961,40.29438,40.335526,40.376083,40.418297,40.463936,40.51278,40.56169,40.60772,40.649864,40.689095,40.72686,40.766697,40.808815,40.85157,40.89366,40.933502,40.97104,41.010483,41.053726,41.099785,41.148983,41.198082,41.244865,41.287643,41.32653,41.360313,41.391975,41.4244,41.457664,41.49242,41.52763,41.56152,41.59662,41.63343,41.671543,41.711494,41.753105,41.795372,41.836815,41.87651,41.913208,41.94745,41.979614,42.010223,42.038475,42.06348,42.085682,42.106987,42.128834,42.152504,42.17859,42.207855,42.241966,42.281075,42.32376,42.367805,42.41263,42.45707,42.49929,42.538017,42.57123,42.60029,42.629433,42.661472,42.699127,42.74137,42.784546,42.8256,42.862427,42.895943,42.926517,42.956306,42.98573,43.013977,43.043213,43.069653,43.088623,43.09872,43.100494,43.09716,43.092236,43.086357,43.076187,43.059925,43.03582,43.001095,42.95555,42.902374,42.845345,42.789505,42.738575,42.690147,42.64025,42.58642,42.525894,42.460823,42.39464,42.330376,42.27076,42.215767,42.16272,42.10835,42.05334,41.997795,41.942368,41.887203,41.833893,41.78311,41.73575,41.691334,41.64859,41.60524,41.56003,41.512947,41.46569,41.417946,41.370552,41.32341,41.277016,41.232727,41.191765,41.155563,41.125587,41.102627,41.08455,41.066845,41.047573,41.026802,41.008865,40.997375,40.99202,40.991558,40.99251,40.992374,40.991013,40.98819,40.98295,40.975067,40.966164,40.95449,40.94153,40.927536,40.911648,40.89385,40.874664,40.85521,40.834843,40.81479,40.79373,40.771984,40.749763,40.726433,40.69953,40.669617,40.63606,40.599648,40.561714,40.52039,40.47396,40.42393,40.37016,40.313286,40.253555,40.19542,40.139946,40.08697,40.039146,39.996952,39.95642,39.91426,39.868156,39.8201,39.77395,39.73285,39.699547,39.667942,39.63874,39.611473,39.590294,39.572502,39.550964,39.518646,39.48004,39.43921,39.39834,39.360455,39.32512,39.290062,39.25065,39.205296,39.152893,39.0943,39.02944,38.965603,38.90272,38.83728,38.76123,38.67285,38.578255,38.481384,38.385803,38.29281,38.19973,38.107628,38.01293,37.91088,37.800606,37.692993,37.586266,37.478962,37.373093,37.26516,37.156277,37.051804,36.95404,36.8627,36.773388,36.682983,36.595398,36.51124,36.427376,36.345467,36.282207,36.21973,36.14968,36.071606,35.985413,35.89317,35.80066,35.710587,35.630363,35.545067,35.451725,35.350285,35.24056,35.12809,35.025337,34.936226,34.88495,34.88331,34.91195,34.905464,34.8134,34.67155,34.516953,34.35927,34.096756,33.78644,33.42217,33.07852,32.766853,32.47464,32.177887,31.867638,31.539948,31.191425,30.83354
35.472923,35.517086,35.573395,35.645847,35.73971,35.863396,36.012527,36.18097,36.364628,36.54574,36.710068,36.855854,36.985966,37.106697,37.22117,37.33409,37.444923,37.552307,37.6604,37.770817,37.888756,38.013535,38.138515,38.26021,38.377663,38.487984,38.593246,38.69358,38.790955,38.886253,38.97709,39.063065,39.14708,39.230446,39.315067,39.39995,39.482025,39.56019,39.636135,39.70895,39.77767,39.843437,39.904144,39.960075,40.012333,40.059273,40.099583,40.137802,40.17917,40.22698,40.28089,40.336605,40.39029,40.44075,40.486504,40.528206,40.568993,40.61131,40.65692,40.706123,40.755424,40.801655,40.84378,40.88316,40.92137,40.961758,41.004593,41.04783,41.09028,41.13076,41.168953,41.209267,41.25315,41.29923,41.34765,41.395653,41.441452,41.483807,41.522785,41.55717,41.589264,41.621513,41.653862,41.687172,41.721104,41.754295,41.78945,41.82697,41.866478,41.908615,41.95276,41.99768,42.04148,42.082874,42.120644,42.15535,42.187714,42.218727,42.24814,42.275513,42.301117,42.32643,42.352257,42.37937,42.408356,42.439983,42.47603,42.516457,42.55986,42.604115,42.6487,42.692924,42.735077,42.774178,42.808113,42.837532,42.866493,42.89727,42.933098,42.973988,43.017036,43.060028,43.100994,43.14032,43.177803,43.215202,43.251965,43.28688,43.321777,43.352997,43.376728,43.39215,43.400322,43.404064,43.40635,43.40741,43.4039,43.39421,43.376427,43.347816,43.307426,43.25856,43.20426,43.14917,43.097622,43.04737,42.995422,42.93959,42.876976,42.80971,42.74134,42.674698,42.61249,42.554466,42.49801,42.440216,42.382404,42.32441,42.26647,42.20852,42.151604,42.09693,42.04524,41.995712,41.9471,41.897514,41.84629,41.794228,41.742897,41.691692,41.641396,41.59174,41.54274,41.49507,41.44964,41.408173,41.37319,41.34678,41.327324,41.31047,41.293488,41.27556,41.259937,41.24961,41.24418,41.243263,41.24421,41.24514,41.245342,41.244507,41.241417,41.236435,41.230755,41.222363,41.211975,41.200226,41.186317,41.1704,41.152462,41.13275,41.111446,41.090584,41.0693,41.047592,41.025017,41.000313,40.97177,40.94052,40.905987,40.8689,40.83108,40.790367,40.745262,40.696686,40.643738,40.586006,40.522858,40.45849,40.394863,40.33335,40.278465,40.231514,40.188644,40.14624,40.101562,40.055595,40.01158,39.971428,39.93795,39.904613,39.87272,39.843346,39.82084,39.80338,39.78325,39.752953,39.71704,39.67901,39.64022,39.603127,39.567772,39.532112,39.49263,39.447796,39.396538,39.33986,39.27705,39.215042,39.15355,39.08934,39.014744,38.928123,38.83541,38.74038,38.64599,38.553383,38.45996,38.367264,38.272495,38.171196,38.062645,37.956955,37.852196,37.746624,37.64151,37.533516,37.423946,37.318634,37.219864,37.12717,37.03633,36.94451,36.85606,36.772038,36.68895,36.608604,36.547897,36.48977,36.426105,36.356907,36.282715,36.205513,36.129112,36.055008,35.989723,35.918644,35.838554,35.749615,35.67183,35.599907,35.52151,35.44554,35.401264,35.410347,35.45128,35.443184,35.341927,35.175087,34.9926,34.81337,34.588898,34.283012,33.92227,33.57213,33.280327,33.01893,32.76223,32.478405,32.16741,31.83369,31.47693
35.622963,35.68004,35.74704,35.83017,35.93507,36.069393,36.229378,36.407608,36.59887,36.785294,36.95219,37.09785,37.225563,37.34314,37.454212,37.563225,37.669945,37.773136,37.87799,37.987602,38.1058,38.230835,38.35535,38.475594,38.591225,38.69933,38.80205,38.899513,38.994217,39.087288,39.17639,39.260918,39.343323,39.42495,39.5075,39.589493,39.668533,39.743805,39.817947,39.89032,39.959084,40.024765,40.08532,40.141632,40.19571,40.245747,40.29016,40.332497,40.37786,40.429268,40.48623,40.54445,40.600346,40.65278,40.70039,40.74334,40.784355,40.826126,40.870945,40.919476,40.968094,41.013542,41.054825,41.093903,41.132736,41.174133,41.21797,41.261635,41.30372,41.34365,41.381294,41.421104,41.464516,41.51001,41.55771,41.60499,41.650326,41.692497,41.7316,41.766724,41.799286,41.8311,41.86174,41.89187,41.921944,41.951622,41.98388,42.019295,42.0577,42.099922,42.144802,42.190933,42.23594,42.278122,42.3167,42.35211,42.38514,42.41709,42.448315,42.478878,42.509186,42.540062,42.571598,42.603813,42.637093,42.672134,42.710487,42.752094,42.79551,42.83911,42.882904,42.926662,42.969086,43.009254,43.044846,43.075737,43.105278,43.135353,43.16971,43.209618,43.25319,43.298965,43.34461,43.389908,43.43429,43.479088,43.522835,43.563625,43.602577,43.636494,43.663,43.682335,43.69614,43.706444,43.71574,43.723816,43.727516,43.725014,43.71411,43.69188,43.656723,43.612244,43.56088,43.506935,43.45524,43.403774,43.350616,43.29387,43.23062,43.16282,43.093876,43.026035,42.961517,42.899757,42.83851,42.77585,42.714054,42.65281,42.59191,42.530975,42.470497,42.412292,42.356853,42.30336,42.250206,42.19604,42.14057,42.08505,42.03103,41.977844,41.926193,41.87586,41.826233,41.777,41.728283,41.681698,41.640892,41.60936,41.586464,41.568436,41.551933,41.5354,41.52061,41.50991,41.503044,41.500496,41.50042,41.501198,41.50149,41.501114,41.49907,41.496517,41.494232,41.489845,41.483284,41.47525,41.46496,41.452324,41.4364,41.41671,41.39426,41.371887,41.34951,41.326927,41.303154,41.276638,41.24633,41.21381,41.17863,41.141342,41.10424,41.064972,41.02227,40.97616,40.92498,40.867317,40.80166,40.732056,40.661076,40.591183,40.5285,40.47529,40.428154,40.38371,40.33868,40.292854,40.248795,40.207424,40.17167,40.134903,40.09903,40.0665,40.041992,40.02427,40.005074,39.976612,39.94339,39.908455,39.87244,39.83693,39.802204,39.76658,39.72747,39.683426,39.63327,39.577934,39.516273,39.455345,39.39473,39.331482,39.25849,39.17432,39.08458,38.99283,38.90111,38.81038,38.7181,38.626152,38.532158,38.431953,38.32514,38.221153,38.117935,38.013634,37.908775,37.80014,37.689392,37.582634,37.482445,37.388153,37.295677,37.202415,37.11315,37.029137,36.946556,36.86741,36.809036,36.755196,36.698055,36.637527,36.57463,36.51153,36.45013,36.3908,36.339497,36.28179,36.215515,36.142113,36.075516,36.029533,36.00016,35.95453,35.923794,35.939896,35.980026,35.95384,35.838303,35.65885,35.45214,35.247192,35.04673,34.7684,34.43827,34.11165,33.819366,33.579094,33.353,33.101055,32.798134,32.461456,32.10138
35.762024,35.8337,35.912056,36.005836,36.120842,36.26478,36.433846,36.62021,36.818275,37.01026,37.181396,37.32907,37.456573,37.572773,37.681908,37.788383,37.89243,37.992893,38.095894,38.205734,38.32496,38.450665,38.57497,38.693977,38.80799,38.914238,39.01485,39.110207,39.20323,39.295036,39.38334,39.467304,39.549026,39.630203,39.712517,39.79381,39.87177,39.945686,40.018646,40.090656,40.159424,40.224945,40.285545,40.342705,40.3988,40.452034,40.50025,40.546097,40.594696,40.648994,40.708057,40.767563,40.824585,40.878082,40.92676,40.97019,41.010536,41.050667,41.09373,41.140575,41.18744,41.23098,41.270355,41.308372,41.347507,41.38974,41.43414,41.47729,41.517395,41.554516,41.589134,41.625854,41.666718,41.710648,41.757446,41.804543,41.85009,41.8925,41.932014,41.968216,42.001827,42.033775,42.062946,42.089535,42.114647,42.139355,42.16691,42.198463,42.234447,42.275574,42.320618,42.3677,42.4141,42.45781,42.498253,42.53585,42.570984,42.605164,42.639168,42.673676,42.70942,42.74649,42.784225,42.82199,42.859695,42.898106,42.938446,42.980442,43.023228,43.065666,43.108543,43.152306,43.19594,43.238564,43.277576,43.312218,43.344646,43.37619,43.41088,43.451008,43.495865,43.544468,43.59398,43.64361,43.692757,43.742622,43.791092,43.835484,43.875797,43.909794,43.936768,43.958244,43.976246,43.991913,44.007057,44.021614,44.03269,44.038074,44.034897,44.0197,43.990257,43.95014,43.901405,43.848053,43.795197,43.74154,43.686275,43.62796,43.564026,43.49626,43.427704,43.35971,43.293602,43.228397,43.16221,43.094276,43.028072,42.96322,42.898945,42.834236,42.769726,42.707817,42.649235,42.593246,42.53818,42.48264,42.42626,42.370354,42.316242,42.263424,42.212757,42.164116,42.116173,42.067436,42.01693,41.9657,41.918648,41.880604,41.85267,41.83199,41.81488,41.799133,41.784966,41.773872,41.76586,41.76203,41.761086,41.76129,41.76068,41.759308,41.75695,41.755917,41.756657,41.75641,41.754288,41.75055,41.74444,41.73523,41.720993,41.70073,41.676277,41.651283,41.626335,41.60132,41.57496,41.545826,41.51361,41.48024,41.44512,41.408752,41.373283,41.336372,41.296684,41.253174,41.203354,41.145386,41.077103,41.00298,40.925827,40.848465,40.778065,40.71795,40.66546,40.617805,40.571293,40.524372,40.478954,40.435467,40.396618,40.355957,40.316055,40.280075,40.25364,40.235558,40.217186,40.190453,40.159985,40.128532,40.095993,40.063103,40.03002,39.99529,39.957104,39.913696,39.863953,39.80838,39.74575,39.68396,39.622635,39.55926,39.48741,39.405754,39.319447,39.231888,39.14415,39.05669,38.96718,38.877594,38.785458,38.686947,38.581886,38.479137,38.37686,38.2731,38.1678,38.05787,37.94558,37.83732,37.73575,37.640396,37.546883,37.45294,37.36357,37.279934,37.197998,37.120033,37.063522,37.013405,36.96183,36.908356,36.854305,36.80232,36.75312,36.70607,36.66701,36.621696,36.569145,36.51247,36.4638,36.43199,36.41217,36.399967,36.40255,36.420685,36.432617,36.385883,36.246506,36.03636,35.80654,35.573612,35.362724,35.15435,34.882,34.616615,34.35473,34.12462,33.91591,33.677017,33.385033,33.035957,32.654846
35.88326,35.969116,36.05863,36.163094,36.288124,36.441555,36.618893,36.812653,37.01735,37.215313,37.391983,37.54339,37.672375,37.788773,37.89726,38.00245,38.10504,38.204105,38.306385,38.41725,38.537766,38.664055,38.78794,38.905357,39.017464,39.121933,39.220657,39.31433,39.40603,39.496918,39.584877,39.668777,39.750656,39.832634,39.916336,39.998863,40.07758,40.15175,40.224373,40.296555,40.36573,40.431694,40.493095,40.551807,40.610386,40.666824,40.718575,40.767525,40.81868,40.875065,40.93513,40.99475,41.051685,41.104965,41.153416,41.19629,41.23486,41.27256,41.313095,41.357323,41.40155,41.44222,41.47869,41.51465,41.553074,41.5953,41.639435,41.681557,41.7192,41.752903,41.784077,41.81688,41.854378,41.89601,41.941376,41.98797,42.033463,42.07567,42.11509,42.151993,42.1867,42.21898,42.246918,42.270096,42.289963,42.309345,42.33147,42.358295,42.39085,42.429993,42.474564,42.52227,42.570244,42.615997,42.65902,42.699654,42.737686,42.774784,42.812183,42.85105,42.89244,42.935707,42.979435,43.02265,43.064682,43.106464,43.148956,43.191685,43.23429,43.276176,43.318787,43.362946,43.408134,43.453842,43.497257,43.53739,43.574844,43.610203,43.647385,43.68932,43.736443,43.78807,43.84115,43.894203,43.947163,44.001022,44.053123,44.09996,44.140343,44.17329,44.199867,44.222725,44.243874,44.26339,44.282364,44.301125,44.31743,44.32888,44.332127,44.3231,44.29905,44.263268,44.21734,44.164814,44.110714,44.054565,43.99643,43.935577,43.870323,43.80236,43.7343,43.666805,43.599983,43.53244,43.462708,43.39109,43.32187,43.254482,43.187798,43.12002,43.05201,42.98678,42.92536,42.867447,42.811348,42.755463,42.69937,42.643913,42.59023,42.538193,42.489044,42.442944,42.39783,42.35115,42.300484,42.246193,42.19445,42.15071,42.118282,42.09516,42.077248,42.062263,42.048935,42.037815,42.029312,42.024666,42.02298,42.022163,42.019882,42.016304,42.01232,42.011337,42.01356,42.015827,42.016815,42.01602,42.01291,42.006134,41.992935,41.97216,41.946,41.918633,41.891136,41.86354,41.83436,41.80248,41.768505,41.734283,41.699097,41.663437,41.628735,41.593277,41.555187,41.512955,41.463303,41.40409,41.33281,41.254597,41.172295,41.088634,41.01127,40.94426,40.886013,40.834663,40.786346,40.73823,40.691463,40.64605,40.604324,40.56031,40.517273,40.478683,40.45115,40.433174,40.415863,40.39098,40.36338,40.335674,40.307068,40.277668,40.24737,40.214844,40.178696,40.136486,40.087097,40.03058,39.965836,39.901924,39.838814,39.774498,39.703423,39.62406,39.54113,39.457726,39.374023,39.28997,39.203476,39.116585,39.02633,38.929413,38.82589,38.724075,38.622433,38.518932,38.412773,38.301384,38.187515,38.078003,37.975426,37.87964,37.786003,37.692497,37.604126,37.52167,37.440926,37.364346,37.309433,37.26217,37.21449,37.16543,37.11682,37.07206,37.031475,36.99372,36.965008,36.931496,36.892952,36.85421,36.824123,36.809147,36.804565,36.80204,36.811188,36.83675,36.851738,36.792805,36.628574,36.386387,36.117645,35.849766,35.62169,35.425694,35.185104,34.961334,34.75135,34.554874,34.354214,34.108337,33.810085,33.46298,33.06605
35.978806,36.07583,36.174698,36.289085,36.42565,36.590786,36.778736,36.982376,37.196167,37.402588,37.58706,37.744343,37.876587,37.994644,38.10354,38.208244,38.310127,38.4086,38.51088,38.623215,38.74505,38.871597,38.994488,39.109627,39.219154,39.32135,39.417732,39.509354,39.599266,39.688644,39.77574,39.85925,39.941257,40.024223,40.109734,40.194183,40.274544,40.349747,40.422516,40.495125,40.56511,40.63201,40.69481,40.755447,40.816425,40.875797,40.930653,40.98237,41.035767,41.09397,41.15455,41.21369,41.2697,41.321648,41.3687,41.409966,41.446037,41.48091,41.51871,41.56015,41.601517,41.639236,41.67275,41.706417,41.743805,41.78572,41.829544,41.87106,41.906975,41.93819,41.96663,41.99575,42.029373,42.067753,42.110497,42.15531,42.199455,42.24028,42.278618,42.31546,42.351097,42.384056,42.41164,42.432594,42.448563,42.4637,42.48107,42.503178,42.531876,42.568245,42.61168,42.65957,42.709118,42.757324,42.803566,42.847862,42.889362,42.929897,42.97109,43.01456,43.061554,43.110565,43.15967,43.207726,43.253674,43.298813,43.34378,43.387947,43.431473,43.474144,43.517727,43.563004,43.61025,43.659367,43.70794,43.754997,43.799446,43.84089,43.88257,43.927532,43.977234,44.031433,44.087116,44.142693,44.1985,44.255447,44.31053,44.359283,44.39954,44.431458,44.457756,44.48197,44.505585,44.527596,44.548096,44.56804,44.586327,44.600777,44.607918,44.603233,44.583534,44.551823,44.509003,44.4579,44.402855,44.34422,44.282898,44.218925,44.151833,44.08329,44.01573,43.94922,43.882797,43.814644,43.743652,43.67093,43.60098,43.53282,43.464912,43.394833,43.323822,43.255424,43.190804,43.13028,43.072388,43.01535,42.958706,42.902596,42.84806,42.795532,42.74679,42.702568,42.66025,42.616325,42.566914,42.51171,42.457466,42.41001,42.37447,42.34965,42.33135,42.317406,42.3057,42.295807,42.288452,42.28457,42.28337,42.282364,42.279037,42.273457,42.267647,42.265728,42.26776,42.2705,42.27224,42.271774,42.26912,42.262688,42.249237,42.227814,42.200603,42.172043,42.143326,42.114555,42.08404,42.05082,42.016174,41.981678,41.946346,41.910576,41.874817,41.838432,41.79923,41.755737,41.70385,41.641747,41.56651,41.48443,41.398346,41.31026,41.227943,41.15579,41.0932,41.039413,40.990356,40.942116,40.894825,40.848335,40.80387,40.756775,40.71089,40.67,40.641685,40.623734,40.607296,40.584057,40.558937,40.534485,40.50936,40.483387,40.456146,40.426407,40.392708,40.35194,40.302914,40.24521,40.177803,40.11109,40.04561,39.97963,39.90889,39.83134,39.751156,39.671036,39.59053,39.50909,39.424873,39.340065,39.251194,39.15551,39.05342,38.952515,38.851803,38.748928,38.642426,38.530323,38.415855,38.306145,38.203674,38.10868,38.01622,37.924362,37.838177,37.75782,37.678936,37.604103,37.550644,37.505337,37.459915,37.41271,37.366272,37.324844,37.289215,37.257874,37.237854,37.21588,37.191948,37.172035,37.161034,37.16251,37.17189,37.179382,37.195057,37.22419,37.236404,37.164207,36.974335,36.699364,36.388355,36.080566,35.825256,35.60594,35.380417,35.172985,34.974,34.786224,34.596123,34.349747,34.036095,33.684883,33.29333
36.027664,36.13656,36.25197,36.381435,36.530647,36.71289,36.91714,37.136276,37.363625,37.58168,37.776016,37.940636,38.07737,38.19818,38.30842,38.413414,38.51529,38.61377,38.716476,38.83026,38.952972,39.079052,39.20009,39.31212,39.418392,39.5177,39.61135,39.70067,39.78859,39.87616,39.962166,40.045197,40.127365,40.211433,40.29886,40.385624,40.468174,40.545094,40.61863,40.692055,40.76311,40.8311,40.895206,40.95726,41.019623,41.08055,41.137184,41.19052,41.245193,41.30436,41.36467,41.42254,41.476616,41.52599,41.57039,41.609146,41.642433,41.67478,41.710266,41.749435,41.788418,41.823715,41.854736,41.88643,41.92266,41.96398,42.007286,42.048676,42.084198,42.11476,42.14228,42.169067,42.19917,42.233692,42.272545,42.31401,42.355244,42.39335,42.429558,42.465637,42.502098,42.536438,42.565365,42.5867,42.601933,42.615875,42.631134,42.650482,42.676224,42.709812,42.751427,42.798477,42.848446,42.898273,42.94693,42.994156,43.038452,43.081955,43.126507,43.174,43.225586,43.27894,43.33197,43.38373,43.432854,43.481075,43.528706,43.57505,43.620735,43.665634,43.71137,43.75849,43.808044,43.860615,43.91445,43.968727,44.02085,44.069313,44.116364,44.164764,44.216827,44.27298,44.33056,44.388092,44.446598,44.5067,44.565235,44.616913,44.65871,44.691414,44.71884,44.744987,44.770638,44.793945,44.81404,44.832664,44.849888,44.864014,44.871964,44.869205,44.8525,44.824707,44.785988,44.738205,44.684284,44.625042,44.56189,44.49544,44.426544,44.35691,44.288902,44.222366,44.15574,44.08694,44.015182,43.941994,43.87165,43.80304,43.734135,43.662148,43.588745,43.5176,43.449615,43.385864,43.32535,43.266365,43.208397,43.150642,43.093845,43.039146,42.989147,42.94539,42.90513,42.86431,42.81772,42.764397,42.710987,42.662975,42.62651,42.60086,42.581985,42.56835,42.557602,42.548798,42.542847,42.54028,42.54019,42.539772,42.53636,42.52981,42.522728,42.51979,42.521008,42.52327,42.52459,42.523182,42.519547,42.51223,42.497925,42.47607,42.44868,42.41993,42.39103,42.361977,42.33086,42.2968,42.26156,42.22609,42.18948,42.151802,42.112656,42.072685,42.03015,41.984,41.92965,41.86544,41.78794,41.704346,41.61743,41.528095,41.44362,41.368515,41.30297,41.247223,41.197517,41.148933,41.10035,41.0515,41.002346,40.95028,40.90005,40.85594,40.82649,40.808197,40.792267,40.77009,40.746483,40.724014,40.701168,40.67804,40.653862,40.627556,40.59703,40.558327,40.510162,40.45204,40.38286,40.31413,40.246975,40.17981,40.109642,40.033794,39.95572,39.8778,39.799225,39.719078,39.635887,39.551964,39.46351,39.3684,39.267548,39.167797,39.068806,38.96772,38.86236,38.75098,38.637375,38.528587,38.427105,38.333603,38.24294,38.15339,38.069977,37.992134,37.915413,37.842457,37.79036,37.74647,37.70225,37.655403,37.60916,37.568497,37.535385,37.508583,37.49639,37.48641,37.4777,37.476414,37.483044,37.49775,37.516624,37.528137,37.544464,37.571545,37.57817,37.493355,37.279037,36.973557,36.6198,36.269783,35.978897,35.73362,35.46544,35.23918,35.036034,34.846085,34.651863,34.405678,34.092106,33.74864,33.371307
35.9999,36.128593,36.262234,36.42016,36.609314,36.810062,37.038,37.279625,37.52622,37.75924,37.96481,38.137337,38.278988,38.403183,38.515617,38.621727,38.724342,38.823334,38.92668,39.04145,39.164246,39.288925,39.40735,39.515694,39.618244,39.714417,39.805267,39.892326,39.978226,40.063972,40.14893,40.231552,40.313934,40.39895,40.487846,40.576294,40.66061,40.73929,40.813927,40.888256,40.96022,41.0289,41.093643,41.156044,41.2185,41.279655,41.33703,41.391247,41.446583,41.506012,41.565407,41.621365,41.672848,41.71891,41.759926,41.79586,41.826717,41.857445,41.891685,41.92962,41.967438,42.001675,42.031742,42.062534,42.097878,42.13846,42.181377,42.223526,42.260544,42.29303,42.322105,42.348682,42.376457,42.40732,42.44177,42.479073,42.516884,42.55217,42.586548,42.622147,42.659885,42.696617,42.72889,42.7536,42.771835,42.788246,42.804665,42.823616,42.847652,42.878517,42.917274,42.96183,43.01007,43.059216,43.107826,43.15542,43.200233,43.24471,43.290993,43.34102,43.395542,43.451416,43.50672,43.560783,43.61222,43.662952,43.713066,43.761917,43.810417,43.85814,43.906143,43.954655,44.00547,44.059845,44.117096,44.176575,44.234592,44.288616,44.3399,44.390877,44.444473,44.50206,44.56147,44.62169,44.68396,44.748672,44.81236,44.869118,44.915382,44.951843,44.98282,45.012154,45.039963,45.064087,45.08309,45.09942,45.114212,45.126312,45.133297,45.13096,45.116394,45.09234,45.058487,45.015846,44.965492,44.908245,44.845467,44.778168,44.708183,44.637535,44.568436,44.501022,44.433475,44.36369,44.291126,44.21706,44.145615,44.075592,44.00489,43.930973,43.85545,43.7819,43.710495,43.643055,43.5791,43.51732,43.457336,43.397102,43.33692,43.27851,43.225327,43.179893,43.139847,43.101204,43.058006,43.008698,42.95913,42.913628,42.878475,42.852825,42.83307,42.818703,42.807808,42.79939,42.794456,42.793076,42.794106,42.79457,42.79176,42.785194,42.77782,42.774384,42.774952,42.776733,42.777702,42.775524,42.77101,42.763092,42.748547,42.727356,42.700916,42.6727,42.64393,42.61457,42.58261,42.54744,42.511063,42.473785,42.435024,42.39417,42.350243,42.30525,42.258526,42.21009,42.154808,42.091084,42.014374,41.9321,41.846947,41.75872,41.67403,41.59748,41.529694,41.47174,41.42036,41.37007,41.318428,41.26486,41.208282,41.148712,41.09173,41.042366,41.0099,40.989277,40.97181,40.948387,40.923798,40.900696,40.87782,40.85591,40.834137,40.811264,40.784363,40.748363,40.70204,40.64515,40.576195,40.50761,40.440437,40.373455,40.30445,40.230442,40.15407,40.07749,39.99989,39.920105,39.83711,39.753242,39.664562,39.569748,39.47022,39.372353,39.276268,39.178352,39.075752,38.966496,38.85486,38.74769,38.647415,38.555336,38.46623,38.378803,38.29797,38.22255,38.147995,38.077103,38.026665,37.984306,37.941185,37.894585,37.848236,37.80787,37.77649,37.75376,37.74921,37.751415,37.757713,37.773438,37.794907,37.818954,37.842804,37.85338,37.86477,37.88452,37.882164,37.78427,37.547905,37.21624,36.824158,36.435402,36.10038,35.792233,35.45479,35.20042,34.987152,34.78933,34.59105,34.34434,34.04465,33.72496,33.37535
35.885536,36.037098,36.190914,36.392,36.63549,36.887684,37.138245,37.40779,37.67784,37.92801,38.145058,38.32513,38.471756,38.600033,38.715897,38.8244,38.929024,39.029415,39.133804,39.24923,39.37156,39.494476,39.610233,39.715187,39.814285,39.907707,39.996227,40.081665,40.16632,40.25113,40.33586,40.418922,40.50203,40.587982,40.67756,40.76658,40.85154,40.931023,41.006203,41.08071,41.15284,41.221554,41.286377,41.348717,41.411026,41.472466,41.530853,41.586445,41.64267,41.701946,41.759644,41.81269,41.86019,41.901413,41.937523,41.9694,41.99744,42.027046,42.060844,42.098892,42.137375,42.173008,42.204853,42.23713,42.27308,42.313316,42.35593,42.398743,42.43758,42.472717,42.504135,42.53171,42.558514,42.587055,42.618492,42.65316,42.689285,42.723915,42.758446,42.795006,42.834755,42.874306,42.91047,42.939598,42.962414,42.982887,43.002193,43.02254,43.04635,43.07556,43.11198,43.154053,43.20019,43.247852,43.295216,43.341347,43.384766,43.428234,43.474274,43.524704,43.57979,43.635933,43.69159,43.746353,43.798977,43.851192,43.903076,43.954216,44.00535,44.055794,44.10547,44.1543,44.204666,44.258453,44.316124,44.377182,44.437634,44.49431,44.547684,44.599888,44.654106,44.71261,44.773994,44.837673,44.904705,44.97512,45.04487,45.108223,45.161137,45.20359,45.23957,45.272312,45.301846,45.32662,45.345367,45.361053,45.37531,45.387012,45.393997,45.39222,45.379185,45.35774,45.327774,45.289894,45.24361,45.1895,45.12845,45.061836,44.992058,44.921173,44.85123,44.78257,44.713623,44.642418,44.568573,44.492805,44.419064,44.346333,44.272728,44.196293,44.118618,44.04289,43.968437,43.897644,43.830727,43.766727,43.705162,43.64289,43.57966,43.517464,43.460415,43.411728,43.369854,43.331482,43.29062,43.245415,43.200333,43.15854,43.125755,43.10091,43.080894,43.06614,43.0555,43.04808,43.044647,43.044716,43.046738,43.04785,43.045673,43.0394,43.0321,43.028442,43.028656,43.03074,43.03237,43.03103,43.027245,43.02021,43.006886,42.9876,42.96302,42.935493,42.906296,42.87552,42.841373,42.803764,42.764973,42.724823,42.683228,42.63878,42.590363,42.540535,42.49032,42.440716,42.385883,42.324165,42.249588,42.16934,42.086258,41.99948,41.91501,41.837547,41.76791,41.707447,41.65355,41.600708,41.545315,41.48649,41.421997,41.35437,41.28959,41.23335,41.19538,41.169342,41.14705,41.11906,41.09011,41.062996,41.0372,41.014442,40.993813,40.973766,40.950424,40.91749,40.873947,40.81991,40.75332,40.686966,40.62142,40.55575,40.488415,40.416344,40.341408,40.26577,40.188828,40.109486,40.02704,39.94361,39.855194,39.761124,39.66335,39.568005,39.475372,39.381096,39.28179,39.175262,39.065994,38.96064,38.86158,38.770695,38.682884,38.59739,38.51881,38.445618,38.373318,38.30477,38.256523,38.21599,38.174274,38.128372,38.082626,38.042976,38.013283,37.9944,37.996933,38.010773,38.030846,38.061043,38.094444,38.12523,38.152477,38.161163,38.16502,38.172577,38.15454,38.037346,37.776184,37.419044,36.993324,36.568268,36.158226,35.777863,35.403862,35.122726,34.890305,34.678646,34.471855,34.229504,33.958836,33.669945,33.34218
35.72608,35.88916,36.06524,36.294556,36.59035,36.919834,37.219124,37.515125,37.811333,38.080082,38.308918,38.496574,38.6487,38.782104,38.902794,39.014957,39.122597,39.225067,39.330856,39.44671,39.56839,39.689682,39.80332,39.90585,40.002533,40.09409,40.18123,40.266125,40.35061,40.435646,40.52136,40.606155,40.69104,40.77832,40.868286,40.95716,41.041904,41.121376,41.19657,41.270615,41.342293,41.410458,41.474953,41.53695,41.598923,41.660706,41.720367,41.777603,41.8347,41.893208,41.9482,41.997116,42.039368,42.074577,42.104702,42.131706,42.156956,42.185883,42.22,42.259087,42.29965,42.33872,42.374836,42.410812,42.448708,42.488937,42.530876,42.573566,42.61348,42.65064,42.684265,42.71353,42.74096,42.76944,42.80046,42.83525,42.872543,42.909588,42.94696,42.98636,43.02874,43.07103,43.11074,43.144165,43.17176,43.19686,43.220146,43.243523,43.26882,43.298103,43.333515,43.37409,43.418827,43.465134,43.510696,43.554115,43.594467,43.635048,43.67868,43.727066,43.780178,43.83431,43.88849,43.942345,43.994682,44.046986,44.09948,44.151924,44.204834,44.257072,44.30729,44.355103,44.403267,44.454216,44.509315,44.568398,44.6277,44.684097,44.737686,44.790134,44.844566,44.90387,44.967537,45.03521,45.10749,45.183716,45.259354,45.32921,45.389153,45.43818,45.47923,45.514668,45.54512,45.570396,45.590218,45.60771,45.624393,45.638626,45.64798,45.648094,45.637016,45.617493,45.590458,45.556465,45.514217,45.46392,45.405838,45.341553,45.273598,45.203804,45.133835,45.06409,44.993553,44.920486,44.844597,44.766014,44.68853,44.611656,44.53416,44.454758,44.37504,44.29769,44.221096,44.148224,44.07971,44.014786,43.95282,43.889786,43.8249,43.76017,43.69999,43.647736,43.60293,43.563377,43.523567,43.481766,43.44093,43.4031,43.373234,43.349987,43.330647,43.31635,43.306736,43.30105,43.29956,43.30109,43.30362,43.304638,43.302383,43.29602,43.288597,43.284706,43.284813,43.287975,43.291862,43.29348,43.29271,43.28878,43.27849,43.26236,43.240196,43.213028,43.182304,43.148487,43.110252,43.068504,43.025738,42.981606,42.93674,42.88894,42.83716,42.78392,42.731762,42.68232,42.62907,42.569977,42.49792,42.41935,42.337486,42.25152,42.166893,42.088593,42.017166,41.953575,41.89603,41.839504,41.779602,41.715515,41.644096,41.569542,41.497673,41.434013,41.38883,41.354927,41.324722,41.28916,41.252693,41.218533,41.187263,41.161514,41.140327,41.121815,41.10121,41.07122,41.0308,40.980194,40.917168,40.854088,40.790985,40.727276,40.66178,40.59177,40.518364,40.443752,40.367695,40.289413,40.208454,40.126442,40.039238,39.946617,39.85101,39.758415,39.669044,39.5779,39.48152,39.3775,39.270565,39.16694,39.068962,38.97898,38.892166,38.80831,38.731606,38.66044,38.590794,38.525288,38.48044,38.44287,38.403633,38.35978,38.31617,38.278503,38.2511,38.235687,38.244186,38.26761,38.29874,38.3396,38.381294,38.41631,38.445923,38.453136,38.447334,38.437927,38.396072,38.25107,37.961864,37.579323,37.126167,36.64032,36.171894,35.750896,35.347023,35.04445,34.79164,34.567413,34.356865,34.128567,33.88556,33.613518,33.294304
35.574665,35.73575,35.91398,36.14624,36.482452,36.885014,37.271378,37.597923,37.922245,38.211975,38.454002,38.65001,38.80825,38.947342,39.07342,39.189606,39.300278,39.404755,39.51175,39.627617,39.748413,39.868286,39.980515,40.08178,40.17725,40.267963,40.35463,40.43966,40.524628,40.61058,40.697998,40.785442,40.87311,40.962685,41.053673,41.14271,41.2274,41.306984,41.382305,41.45584,41.52675,41.59401,41.657585,41.718666,41.779816,41.84158,41.902405,41.961243,42.019165,42.076668,42.12883,42.173748,42.21114,42.24096,42.265736,42.28862,42.311787,42.340508,42.375084,42.415062,42.457623,42.500454,42.54167,42.582344,42.622948,42.663593,42.70511,42.747513,42.78833,42.827225,42.863117,42.89495,42.92488,42.955933,42.989357,43.027027,43.067978,43.109543,43.151337,43.19432,43.23899,43.28311,43.3251,43.361565,43.39301,43.422157,43.4494,43.476498,43.50463,43.53555,43.57168,43.612377,43.657196,43.703274,43.74771,43.78876,43.82624,43.863644,43.904007,43.94877,43.997883,44.04802,44.0989,44.15014,44.20049,44.251038,44.30224,44.354095,44.406956,44.45923,44.508533,44.55435,44.599457,44.646614,44.697704,44.752907,44.80921,44.863922,44.917103,44.969757,45.024696,45.085045,45.150826,45.222095,45.298485,45.378838,45.458355,45.532883,45.598457,45.653114,45.69851,45.736076,45.767406,45.79409,45.81697,45.839176,45.861412,45.881233,45.895447,45.899345,45.89096,45.87284,45.84751,45.81595,45.777023,45.730667,45.676567,45.6163,45.5521,45.485382,45.417145,45.347736,45.27656,45.20234,45.124855,45.043526,44.96223,44.881165,44.799927,44.718,44.636806,44.55852,44.48082,44.407036,44.33776,44.272224,44.20951,44.145287,44.078663,44.011566,43.948357,43.892212,43.843506,43.801254,43.76098,43.721092,43.683292,43.64881,43.621773,43.60061,43.582886,43.570175,43.562836,43.560253,43.561916,43.56598,43.56961,43.57076,43.568512,43.562065,43.55434,43.549652,43.549034,43.55269,43.558815,43.563835,43.567017,43.56703,43.5607,43.548534,43.52949,43.503357,43.47168,43.43536,43.393707,43.348457,43.30211,43.254345,43.20646,43.15581,43.101448,43.045593,42.991676,42.9413,42.887344,42.827717,42.755096,42.675583,42.592995,42.507153,42.42273,42.34484,42.273212,42.207623,42.146584,42.086056,42.021606,41.9533,41.87783,41.799927,41.72454,41.655773,41.603977,41.56186,41.522408,41.477493,41.431305,41.387653,41.348137,41.3163,41.291294,41.271065,41.250015,41.22048,41.181282,41.13235,41.071434,41.01028,40.948227,40.88525,40.820328,40.75116,40.678215,40.603848,40.52817,40.450893,40.37184,40.29189,40.206673,40.11611,40.022926,39.933197,39.846634,39.75802,39.664135,39.562714,39.458836,39.357918,39.262245,39.17424,39.089344,39.007683,38.93316,38.864494,38.798416,38.737373,38.697647,38.665016,38.630424,38.591232,38.552452,38.51895,38.494907,38.482662,38.495377,38.524952,38.562683,38.60849,38.652985,38.688583,38.718678,38.72381,38.70491,38.6724,38.59677,38.41453,38.094055,37.687042,37.21701,36.668495,36.197834,35.728203,35.32498,35.014763,34.751556,34.514404,34.29567,34.068436,33.82316,33.550003,33.231007
35.452904,35.606514,35.785343,36.01904,36.357983,36.80246,37.26625,37.66496,38.01345,38.325275,38.581703,38.78724,38.952923,39.09857,39.2305,39.350746,39.46397,39.56997,39.67769,39.79323,39.913086,40.0319,40.143433,40.244408,40.33963,40.43033,40.517216,40.603004,40.689,40.776283,40.865734,40.956223,41.047344,41.140182,41.233364,41.323814,41.40972,41.490578,41.5671,41.64083,41.711266,41.777416,41.839466,41.898697,41.957947,42.01848,42.079216,42.138573,42.196503,42.252525,42.30213,42.344154,42.37832,42.405,42.42669,42.44761,42.470253,42.49977,42.535,42.57558,42.61931,42.664867,42.710125,42.754707,42.79754,42.838516,42.879753,42.92192,42.963425,43.003693,43.04171,43.076538,43.11023,43.145443,43.182796,43.224396,43.269325,43.31511,43.36055,43.40589,43.45115,43.495148,43.537243,43.57464,43.607964,43.63965,43.67008,43.701004,43.73295,43.767128,43.80576,43.848587,43.895348,43.94297,43.988106,44.028778,44.065308,44.101036,44.13884,44.179802,44.22403,44.269234,44.31587,44.363667,44.41127,44.45922,44.50816,44.558372,44.610085,44.661373,44.70939,44.75374,44.796944,44.84181,44.89022,44.942543,44.996727,45.050755,45.104706,45.158745,45.21517,45.27688,45.34413,45.41719,45.494965,45.57599,45.65577,45.73145,45.799465,45.857292,45.90531,45.94431,45.976814,46.006035,46.03363,46.062332,46.091698,46.11852,46.13896,46.147873,46.143013,46.12676,46.102753,46.07302,46.037037,45.9947,45.945316,45.890274,45.831356,45.769333,45.704483,45.637,45.566628,45.49267,45.414894,45.332146,45.248344,45.1643,45.080418,44.996555,44.91414,44.834686,44.75586,44.681053,44.610733,44.543808,44.479053,44.412426,44.34323,44.27353,44.207397,44.14753,44.09497,44.04978,44.008408,43.969353,43.93353,43.901688,43.877323,43.858673,43.843372,43.83322,43.829227,43.830933,43.837044,43.844948,43.850975,43.853374,43.851997,43.84607,43.838154,43.832283,43.830032,43.832996,43.840252,43.8478,43.85428,43.85755,43.854553,43.84587,43.82988,43.80548,43.774338,43.73767,43.6951,43.648888,43.601017,43.5513,43.50116,43.448174,43.391464,43.332935,43.276115,43.222282,43.163643,43.098755,43.021687,42.93873,42.85415,42.768654,42.68544,42.60962,42.539886,42.47387,42.409546,42.34407,42.273518,42.200027,42.1216,42.042747,41.967224,41.8966,41.840965,41.793045,41.746277,41.69343,41.638172,41.5851,41.53647,41.496536,41.464806,41.4392,41.413746,41.381165,41.339947,41.28914,41.22711,41.164536,41.100613,41.035686,40.96904,40.89862,40.824303,40.748768,40.67231,40.59529,40.517822,40.439877,40.356712,40.268215,40.177284,40.09014,40.005867,39.919327,39.82791,39.729717,39.63018,39.533684,39.442368,39.3584,39.277287,39.19941,39.12835,39.063473,39.002544,38.94783,38.915222,38.88958,38.861702,38.829453,38.79773,38.769943,38.74971,38.739662,38.753967,38.785316,38.82431,38.868904,38.909836,38.940918,38.966965,38.96589,38.928764,38.86698,38.750305,38.525276,38.17333,37.745754,37.258163,36.6893,36.213974,35.724777,35.343315,35.04451,34.776546,34.518158,34.277138,34.033287,33.773262,33.492336,33.169365
35.400936,35.53443,35.708927,35.940353,36.276894,36.723404,37.244434,37.72677,38.095963,38.430344,38.70276,38.920174,39.096046,39.2505,39.389828,39.51467,39.63011,39.73697,39.844574,39.958893,40.077026,40.19412,40.30461,40.405064,40.500015,40.590687,40.677925,40.76467,40.852047,40.940903,41.0325,41.126183,41.221153,41.317802,41.41403,41.50692,41.595123,41.67843,41.757256,41.831894,41.902164,41.96689,42.026466,42.082493,42.138153,42.195618,42.254333,42.312447,42.369255,42.42359,42.47146,42.512276,42.545876,42.57279,42.595036,42.61737,42.64232,42.674488,42.71135,42.752525,42.79655,42.84314,42.89041,42.936886,42.98031,43.020752,43.061382,43.103306,43.145473,43.186996,43.227158,43.26503,43.30271,43.342163,43.38307,43.427467,43.474678,43.52247,43.569214,43.61464,43.65831,43.700203,43.74047,43.777145,43.81093,43.84426,43.877605,43.91259,43.94928,43.98778,44.03018,44.076397,44.126114,44.17634,44.22352,44.265457,44.302822,44.338394,44.37467,44.412262,44.45159,44.491898,44.53428,44.578915,44.624153,44.670074,44.71737,44.766296,44.817043,44.86739,44.914543,44.95843,45.00146,45.046337,45.094604,45.146545,45.200996,45.25663,45.31349,45.37066,45.42978,45.493145,45.56111,45.63391,45.709953,45.78779,45.863792,45.936474,46.003128,46.061085,46.109913,46.15001,46.184395,46.217205,46.250145,46.28507,46.3207,46.353447,46.379456,46.39345,46.39296,46.37954,46.35763,46.33004,46.297016,46.258667,46.21415,46.164684,46.111706,46.05549,45.995773,45.932655,45.866158,45.795967,45.7213,45.64033,45.556824,45.47187,45.38659,45.300858,45.216415,45.13433,45.052765,44.975323,44.902225,44.832043,44.763428,44.69281,44.61987,44.546898,44.477524,44.413975,44.357895,44.31015,44.267967,44.22982,44.196037,44.166943,44.145653,44.13026,44.118176,44.11132,44.111366,44.118156,44.12987,44.143066,44.152985,44.157925,44.1585,44.15393,44.146206,44.139206,44.134865,44.13622,44.143364,44.152077,44.16046,44.165565,44.16469,44.158466,44.14516,44.123302,44.094433,44.0602,44.02021,43.97663,43.930527,43.881584,43.830765,43.776108,43.71704,43.655212,43.594017,43.534203,43.467537,43.393623,43.309494,43.22203,43.135845,43.052174,42.971962,42.899834,42.833237,42.767197,42.698177,42.624283,42.542633,42.458866,42.37455,42.293983,42.21971,42.149696,42.09361,42.043877,41.99402,41.937035,41.87567,41.815292,41.758232,41.70929,41.66842,41.634083,41.600624,41.561634,41.51492,41.458176,41.39113,41.323097,41.253815,41.18409,41.113472,41.04016,40.96332,40.88572,40.807896,40.73082,40.654724,40.57861,40.4973,40.41061,40.321594,40.236908,40.154663,40.070095,39.981514,39.88745,39.793663,39.703327,39.61835,39.54049,39.465115,39.3928,39.326874,39.267433,39.213406,39.166714,39.1429,39.12553,39.1053,39.080723,39.056686,39.034786,39.01801,39.008713,39.022015,39.05093,39.086246,39.124092,39.155388,39.175583,39.19013,39.174995,39.112736,39.016853,38.85691,38.590164,38.21173,37.770256,37.250862,36.70189,36.191513,35.732224,35.379734,35.099678,34.819195,34.53784,34.271717,34.006348,33.734207,33.449986,33.13291
35.40891,35.533928,35.692974,35.916695,36.244682,36.685936,37.241844,37.788376,38.180138,38.536377,38.826073,39.05772,39.246735,39.412727,39.5614,39.69178,39.80944,39.916397,40.02276,40.13439,40.249275,40.36322,40.47152,40.570408,40.664185,40.754066,40.841225,40.928772,41.01762,41.10817,41.201958,41.29878,41.39754,41.498024,41.59739,41.692997,41.783966,41.870132,41.95177,42.027752,42.09785,42.16086,42.217396,42.269585,42.321045,42.374702,42.430557,42.486656,42.54201,42.59507,42.64235,42.683685,42.719093,42.749123,42.774956,42.80138,42.830605,42.8664,42.905243,42.94674,42.990078,43.03599,43.082966,43.12905,43.17126,43.210175,43.249866,43.291634,43.33474,43.3777,43.420067,43.460915,43.502197,43.545197,43.588623,43.6343,43.682045,43.72976,43.77575,43.819424,43.859962,43.898415,43.9356,43.970478,44.003784,44.03797,44.073654,44.112217,44.15345,44.19638,44.242844,44.292545,44.34534,44.398342,44.447994,44.492058,44.531357,44.567993,44.603855,44.639008,44.6743,44.710365,44.749046,44.791096,44.834816,44.87995,44.926903,44.97586,45.026688,45.07691,45.124016,45.168373,45.212563,45.259106,45.30912,45.362755,45.41944,45.478508,45.539864,45.60168,45.664753,45.730553,45.799263,45.87095,45.943764,46.016335,46.086105,46.153164,46.21571,46.27145,46.31957,46.3603,46.396843,46.433388,46.471222,46.511032,46.55093,46.587563,46.617542,46.636032,46.640106,46.630337,46.61126,46.58602,46.555847,46.521065,46.48095,46.436646,46.38941,46.339275,46.28573,46.22906,46.169437,46.106617,46.038887,45.963367,45.88317,45.79966,45.714043,45.62628,45.538727,45.45235,45.366386,45.28452,45.206913,45.13189,45.05813,44.98269,44.905533,44.82893,44.756012,44.688683,44.629063,44.578777,44.535698,44.4983,44.466476,44.440186,44.42252,44.411243,44.403664,44.40143,44.406784,44.419983,44.438793,44.458908,44.474342,44.483215,44.48666,44.48405,44.477005,44.46898,44.46252,44.461586,44.467484,44.475746,44.48436,44.489563,44.489506,44.484924,44.474194,44.45581,44.431168,44.402237,44.368427,44.331272,44.290546,44.245388,44.195892,44.140434,44.078728,44.012726,43.94539,43.877,43.79899,43.712685,43.61869,43.525177,43.43672,43.35469,43.277843,43.20968,43.147007,43.082092,43.00824,42.924194,42.82779,42.729324,42.636032,42.55246,42.47982,42.411743,42.357834,42.309708,42.260914,42.20396,42.14023,42.07552,42.01166,41.9533,41.901215,41.855034,41.81015,41.76172,41.70623,41.640045,41.564487,41.487606,41.41002,41.333023,41.256638,41.17904,41.0988,41.01838,40.93873,40.861275,40.78627,40.711555,40.631424,40.545845,40.458168,40.375656,40.295258,40.21263,40.127213,40.037918,39.950806,39.86786,39.790794,39.72097,39.65336,39.588615,39.5298,39.477684,39.43238,39.39539,39.3817,39.37319,39.36078,39.34372,39.32726,39.311333,39.29792,39.28884,39.29935,39.32262,39.3498,39.37564,39.39023,39.391014,39.383415,39.342472,39.24728,39.113266,38.911896,38.609814,38.21357,37.774563,37.219437,36.663155,36.15593,35.73792,35.420456,35.148106,34.854637,34.55535,34.267963,33.98275,33.70463,33.42608,33.128033
35.455963,35.58328,35.73993,35.947525,36.258904,36.685585,37.244507,37.834984,38.272957,38.646454,38.953766,39.20136,39.406128,39.58634,39.746452,39.88353,40.003616,40.11006,40.213997,40.32157,40.43179,40.54158,40.64667,40.742966,40.83441,40.922417,41.00862,41.09639,41.186295,41.27843,41.37443,41.474358,41.57671,41.680573,41.782417,41.879723,41.972412,42.060318,42.143898,42.22058,42.290237,42.35154,42.40546,42.45472,42.50325,42.554413,42.608543,42.663433,42.717857,42.770016,42.816933,42.85887,42.896103,42.929626,42.95961,42.990646,43.024338,43.063843,43.104897,43.147263,43.190334,43.235703,43.282288,43.327606,43.36821,43.405304,43.443832,43.48518,43.528854,43.57275,43.616516,43.659546,43.703518,43.74902,43.794144,43.840492,43.888332,43.9358,43.981102,44.023098,44.060596,44.0955,44.129364,44.16211,44.194603,44.229195,44.26657,44.30815,44.353386,44.400566,44.45089,44.504036,44.559692,44.615154,44.666885,44.712597,44.75325,44.790596,44.82608,44.85935,44.891537,44.92443,44.96066,45.001366,45.045,45.091225,45.14011,45.19156,45.244766,45.296448,45.344257,45.389084,45.43388,45.481186,45.532127,45.586845,45.64531,45.707565,45.773506,45.84047,45.908264,45.97752,46.04801,46.11936,46.189568,46.25721,46.320824,46.381737,46.43927,46.49179,46.538292,46.57923,46.61763,46.657173,46.69835,46.74072,46.781975,46.819584,46.85116,46.872612,46.8808,46.87509,46.859352,46.836803,46.809525,46.778038,46.742104,46.702686,46.660957,46.61683,46.569824,46.520576,46.469536,46.416397,46.35825,46.29064,46.21579,46.135235,46.050022,45.960144,45.868443,45.77624,45.68447,45.596825,45.51378,45.433403,45.35484,45.275974,45.19658,45.118484,45.0438,44.973907,44.911476,44.859024,44.81518,44.778366,44.748238,44.72471,44.710922,44.704636,44.70272,44.706406,44.717953,44.738014,44.763992,44.79064,44.81081,44.822617,44.82778,44.82613,44.819206,44.810024,44.8015,44.79845,44.803024,44.81059,44.81905,44.824314,44.825253,44.822575,44.81485,44.800518,44.781204,44.759083,44.733486,44.705208,44.67273,44.634216,44.588207,44.533028,44.468872,44.39795,44.32299,44.244083,44.15255,44.051674,43.945877,43.84449,43.75203,43.66951,43.594124,43.52855,43.46998,43.407906,43.330704,43.23686,43.123474,43.006615,42.900146,42.809753,42.735462,42.666813,42.613663,42.566788,42.52027,42.465668,42.403084,42.33802,42.270912,42.20495,42.141865,42.083107,42.02588,41.96747,41.902466,41.82603,41.74064,41.653458,41.56617,41.480915,41.398266,41.316372,41.232964,41.149834,41.068382,40.9905,40.91627,40.842304,40.762196,40.67653,40.589043,40.50742,40.427734,40.345932,40.26273,40.17787,40.097454,40.022522,39.954437,39.894127,39.836143,39.780952,39.731415,39.688847,39.654358,39.62891,39.626427,39.626656,39.620956,39.609756,39.59929,39.588333,39.577415,39.567657,39.573578,39.58867,39.6046,39.615044,39.607864,39.581863,39.542,39.463478,39.327255,39.15091,38.910133,38.579468,38.181793,37.709312,37.14057,36.565697,36.100117,35.721497,35.420135,35.14509,34.8413,34.532204,34.233192,33.93905,33.667618,33.410206,33.14823
35.524582,35.658108,35.821617,36.01711,36.302162,36.712814,37.263123,37.88301,38.377953,38.76622,39.092056,39.35753,39.58001,39.77602,39.948513,40.092606,40.214966,40.320282,40.420948,40.523342,40.627842,40.73249,40.833458,40.92626,41.014526,41.099792,41.18422,41.271507,41.36203,41.455433,41.55351,41.65647,41.762245,41.8691,41.972603,42.07048,42.16351,42.251747,42.336025,42.412903,42.482048,42.54236,42.595024,42.643204,42.690998,42.741882,42.79609,42.85101,42.905266,42.956757,43.002983,43.044556,43.082306,43.11766,43.150352,43.18445,43.2212,43.263313,43.30595,43.349457,43.392998,43.438763,43.48593,43.531467,43.571434,43.607742,43.64602,43.687782,43.732666,43.777935,43.82332,43.868374,43.914597,43.962242,44.009068,44.056564,44.105434,44.15393,44.1998,44.24141,44.277275,44.309715,44.341007,44.371986,44.403656,44.438164,44.476315,44.51941,44.566948,44.616768,44.669365,44.72451,44.781567,44.837944,44.88999,44.935455,44.975533,45.01198,45.04618,45.077545,45.107254,45.13788,45.172577,45.212753,45.257168,45.305782,45.35814,45.41404,45.47141,45.52614,45.575607,45.621117,45.66607,45.71303,45.763535,45.81778,45.876427,45.940273,46.009296,46.080482,46.15275,46.225914,46.299316,46.372,46.441715,46.50679,46.566635,46.623333,46.67714,46.727085,46.772343,46.813652,46.853806,46.89569,46.938984,46.982216,47.022926,47.059547,47.090866,47.11383,47.125187,47.123234,47.11094,47.091293,47.06686,47.038643,47.006847,46.97223,46.93585,46.897354,46.856422,46.814087,46.771217,46.727257,46.67815,46.61807,46.548622,46.47142,46.387074,46.29577,46.200394,46.10299,46.006035,45.913307,45.825615,45.741245,45.659843,45.580067,45.501373,45.42458,45.350555,45.28006,45.216248,45.162506,45.11824,45.08213,45.05346,45.032417,45.022293,45.02086,45.02453,45.033836,45.050793,45.076256,45.107307,45.137947,45.160164,45.172333,45.1769,45.174576,45.166862,45.15644,45.14647,45.142315,45.146503,45.15445,45.163925,45.17076,45.17443,45.17534,45.172035,45.162804,45.149437,45.134422,45.1174,45.098587,45.075397,45.04466,45.00336,44.949085,44.882805,44.806965,44.724068,44.63444,44.529274,44.41382,44.295868,44.184944,44.085114,43.996628,43.916428,43.847076,43.788216,43.727287,43.648125,43.5476,43.420708,43.288773,43.171143,43.07496,42.99858,42.928253,42.873947,42.826653,42.7809,42.727615,42.665947,42.60078,42.53093,42.45755,42.38327,42.3115,42.241554,42.173428,42.09945,42.014004,41.919792,41.82335,41.72698,41.633877,41.545616,41.460365,41.37459,41.28935,41.206253,41.12771,41.05352,40.97923,40.898083,40.811153,40.722847,40.64097,40.560837,40.47887,40.396957,40.316032,40.241974,40.17505,40.116295,40.066185,40.01861,39.973824,39.934418,39.90214,39.878883,39.865093,39.87334,39.881035,39.88038,39.87323,39.86685,39.85973,39.850647,39.83979,39.839996,39.845158,39.847504,39.840073,39.80787,39.749966,39.670616,39.545647,39.362595,39.141518,38.8628,38.51884,38.099422,37.571983,36.99022,36.455795,36.03293,35.681366,35.379536,35.09836,34.793343,34.48861,34.18377,33.89215,33.63669,33.40951,33.191536
35.600094,35.740814,35.90947,36.102776,36.36531,36.75705,37.30306,37.947784,38.495262,38.898228,39.2435,39.52813,39.768967,39.98056,40.16471,40.314922,40.43871,40.542023,40.63873,40.73524,40.83321,40.93206,41.02819,41.11694,41.201378,41.28338,41.365448,41.451786,41.54251,41.63698,41.73705,41.843052,41.952137,42.061703,42.16642,42.264214,42.35676,42.44451,42.528893,42.605988,42.675316,42.736008,42.789433,42.838837,42.888397,42.941196,42.9972,43.053215,43.10757,43.158066,43.20251,43.24192,43.277763,43.31198,43.344376,43.378456,43.41574,43.458363,43.50145,43.545635,43.59008,43.63729,43.68615,43.7331,43.77381,43.810802,43.85019,43.893562,43.940495,43.98799,44.03557,44.08313,44.131912,44.182198,44.23183,44.28209,44.333908,44.38543,44.433792,44.476982,44.513077,44.544674,44.574593,44.604393,44.63514,44.668762,44.70631,44.74907,44.796722,44.84697,44.89978,44.954887,45.01149,45.066833,45.117184,45.160324,45.197803,45.23176,45.263702,45.293053,45.32099,45.35018,45.38411,45.424255,45.469994,45.52144,45.577965,45.63915,45.701775,45.760883,45.813385,45.860634,45.906143,45.952576,46.00171,46.054016,46.110905,46.17418,46.244225,46.318005,46.393925,46.471004,46.54821,46.623928,46.695488,46.760887,46.819893,46.875023,46.92708,46.97589,47.020657,47.062683,47.104534,47.148537,47.193756,47.237816,47.2781,47.31361,47.344215,47.367752,47.38137,47.382603,47.373688,47.35692,47.33526,47.310257,47.28248,47.252552,47.220947,47.18703,47.150375,47.11236,47.07431,47.03543,46.99108,46.934795,46.868202,46.79321,46.70993,46.61863,46.521847,46.42221,46.32327,46.2287,46.139675,46.05475,45.974148,45.89712,45.822556,45.750076,45.679626,45.61106,45.54792,45.494316,45.450356,45.415,45.387596,45.36863,45.36151,45.364017,45.37212,45.385498,45.40561,45.433464,45.465878,45.49652,45.517006,45.526306,45.527657,45.52266,45.5131,45.501343,45.490715,45.486855,45.492416,45.502853,45.51555,45.526596,45.53551,45.542347,45.545265,45.54212,45.534626,45.525665,45.515755,45.505005,45.490185,45.46701,45.431087,45.378853,45.312122,45.233376,45.14455,45.045937,44.928894,44.80027,44.670486,44.548088,44.43611,44.33312,44.23797,44.154953,44.088432,44.02505,43.945816,43.844913,43.71384,43.577225,43.456955,43.36131,43.286255,43.215675,43.159676,43.11064,43.063538,43.009068,42.94557,42.877758,42.803482,42.721947,42.63646,42.552063,42.46976,42.392593,42.31095,42.218704,42.11788,42.014046,41.90947,41.808605,41.71444,41.625584,41.536995,41.4489,41.363102,41.282536,41.206867,41.13073,41.04721,40.95788,40.86783,40.784813,40.703346,40.620636,40.53942,40.461967,40.393784,40.334343,40.284607,40.244583,40.207314,40.172817,40.14326,40.120705,40.10766,40.104332,40.121902,40.135834,40.139267,40.13549,40.132336,40.12845,40.12078,40.10829,40.101326,40.093727,40.079063,40.050236,39.990242,39.897705,39.775654,39.60012,39.367195,39.103413,38.806305,38.411453,37.922676,37.36496,36.826496,36.35003,35.96826,35.626427,35.321983,35.040344,34.74875,34.45252,34.15054,33.868782,33.632225,33.434826,33.25605
35.6839,35.829544,36.001904,36.194923,36.447514,36.81119,37.35603,38.02202,38.617027,39.034588,39.400818,39.70672,39.96697,40.194244,40.38952,40.54547,40.670807,40.77255,40.86586,40.956886,41.048042,41.140285,41.230553,41.31448,41.39441,41.47254,41.551727,41.6364,41.72667,41.821564,41.922928,42.03102,42.1424,42.253635,42.35869,42.455673,42.547134,42.634056,42.718422,42.796097,42.866478,42.928802,42.98456,43.036804,43.0895,43.14513,43.203148,43.260056,43.313885,43.36248,43.40415,43.440117,43.472466,43.503365,43.533028,43.56495,43.601036,43.642982,43.68595,43.731087,43.7774,43.827232,43.879032,43.928688,43.971615,44.010998,44.053093,44.099434,44.149597,44.20037,44.251175,44.30199,44.353867,44.40745,44.460876,44.515244,44.571404,44.627197,44.67932,44.725418,44.76358,44.796204,44.82637,44.855934,44.885864,44.91797,44.95379,44.99469,45.04062,45.089554,45.140823,45.19429,45.24868,45.301277,45.34825,45.38743,45.420845,45.451103,45.48005,45.507378,45.53415,45.562897,45.59716,45.638306,45.686153,45.74102,45.802235,45.86904,45.93745,46.00183,46.058678,46.109177,46.15654,46.20332,46.25123,46.301086,46.355072,46.416016,46.48484,46.558968,46.63671,46.716644,46.79729,46.876335,46.95083,47.018204,47.07834,47.133778,47.1857,47.234474,47.27955,47.322723,47.366547,47.41291,47.460487,47.506256,47.547318,47.582947,47.613487,47.63775,47.653465,47.657818,47.65238,47.638786,47.620003,47.59823,47.574303,47.548615,47.521034,47.490276,47.455826,47.419212,47.382175,47.343746,47.299507,47.24303,47.176678,47.102707,47.02072,46.930893,46.83519,46.736458,46.63889,46.545723,46.458687,46.376644,46.300194,46.228638,46.1603,46.093987,46.02903,45.964725,45.90455,45.8528,45.81016,45.775917,45.749565,45.731987,45.726654,45.7312,45.74115,45.755493,45.77514,45.801064,45.830032,45.855804,45.870346,45.87344,45.86903,45.859497,45.84684,45.83339,45.822453,45.820053,45.82854,45.84352,45.86178,45.879673,45.896286,45.911217,45.922108,45.926056,45.92444,45.920578,45.916077,45.91146,45.9035,45.886776,45.856216,45.807404,45.743168,45.66574,45.576202,45.474373,45.351936,45.21644,45.079414,44.946457,44.818375,44.691383,44.567463,44.45469,44.363976,44.283722,44.19735,44.095898,43.968613,43.839058,43.728405,43.643898,43.5785,43.514515,43.461258,43.41413,43.367485,43.31182,43.24511,43.172913,43.09319,43.00415,42.90915,42.813522,42.719513,42.63334,42.544445,42.447124,42.34152,42.23201,42.11969,42.010742,41.909946,41.816757,41.72458,41.632393,41.542316,41.45785,41.37875,41.29905,41.2121,41.119637,41.02751,40.942986,40.86001,40.77644,40.695763,40.621613,40.558594,40.505882,40.464478,40.434097,40.4069,40.38253,40.36252,40.3488,40.34442,40.34948,40.37412,40.392838,40.399593,40.398907,40.398125,40.396416,40.388992,40.37365,40.357567,40.333797,40.2984,40.24472,40.15548,40.02774,39.86302,39.634857,39.366276,39.045357,38.668045,38.21025,37.67968,37.155773,36.67488,36.26255,35.902145,35.56565,35.262085,34.993813,34.71871,34.43568,34.146767,33.880604,33.664288,33.493927,33.34693
35.78443,35.933365,36.10697,36.29769,36.542625,36.88186,37.41268,38.09813,38.73304,39.16321,39.55429,39.885983,40.169014,40.413605,40.62068,40.78323,40.911537,41.01362,41.105377,41.191833,41.275944,41.360283,41.44296,41.520706,41.595245,41.669212,41.745354,41.828423,41.918312,42.01349,42.115654,42.224762,42.33681,42.447998,42.551987,42.64706,42.736565,42.822014,42.905914,42.98413,43.055634,43.11969,43.177727,43.232407,43.287247,43.344234,43.40255,43.458908,43.511147,43.55751,43.596832,43.630142,43.65977,43.687763,43.714806,43.744667,43.779663,43.821186,43.864464,43.91121,43.960274,44.013466,44.06858,44.121216,44.16696,44.20951,44.25512,44.305183,44.359245,44.414093,44.46905,44.52379,44.579308,44.63676,44.694733,44.754173,44.815502,44.87597,44.9322,44.98201,45.02369,45.059235,45.091362,45.121574,45.15068,45.180527,45.213326,45.250763,45.293167,45.33911,45.38745,45.43807,45.489315,45.538445,45.581604,45.616863,45.646248,45.672813,45.698933,45.7247,45.751175,45.780594,45.816345,45.85946,45.910248,45.969086,46.03511,46.107372,46.181526,46.251892,46.31494,46.3714,46.423637,46.473408,46.52205,46.570717,46.622063,46.67991,46.745758,46.817738,46.89468,46.975006,47.057076,47.137756,47.21367,47.281914,47.34231,47.397438,47.448616,47.49685,47.54196,47.586235,47.632195,47.681427,47.732277,47.781406,47.825638,47.863754,47.895905,47.92151,47.938797,47.945236,47.94215,47.930473,47.913208,47.893124,47.87141,47.84867,47.823967,47.79537,47.762054,47.72548,47.687508,47.64714,47.6006,47.542027,47.474922,47.401688,47.321426,47.234398,47.142006,47.047455,46.954834,46.866974,46.78591,46.71067,46.641724,46.577778,46.51645,46.45626,46.396683,46.336945,46.280586,46.231297,46.18988,46.156036,46.1296,46.111885,46.106148,46.109924,46.118496,46.13067,46.146988,46.168274,46.19123,46.21013,46.21746,46.213776,46.20338,46.189095,46.1731,46.157845,46.146664,46.145653,46.157074,46.17701,46.20143,46.22661,46.25151,46.275085,46.2945,46.30581,46.30977,46.309868,46.309216,46.308823,46.30553,46.293335,46.26696,46.22208,46.163193,46.09262,46.010315,45.915134,45.798645,45.66764,45.532307,45.39283,45.245766,45.084198,44.913795,44.748055,44.606953,44.48497,44.374657,44.266068,44.148563,44.039375,43.955315,43.89897,43.85872,43.815186,43.775455,43.738625,43.697678,43.64284,43.572323,43.493885,43.406803,43.309704,43.20558,43.098392,42.99157,42.894577,42.79712,42.6949,42.58528,42.47101,42.350903,42.23311,42.124416,42.025543,41.92826,41.830524,41.73473,41.644707,41.56067,41.476517,41.386143,41.29117,41.197975,41.11293,41.029613,40.946487,40.867294,40.796726,40.738464,40.69162,40.657585,40.63633,40.619026,40.60475,40.594257,40.58865,40.59114,40.60205,40.630898,40.652397,40.66131,40.662857,40.663345,40.66201,40.653206,40.633736,40.60708,40.565002,40.506355,40.425232,40.305206,40.141922,39.933453,39.67011,39.321434,38.906754,38.477608,37.961906,37.448036,36.969353,36.555428,36.182587,35.836536,35.51242,35.22397,34.96882,34.71541,34.456116,34.190186,33.946342,33.75316,33.607246,33.483772
35.896408,36.044136,36.214386,36.399467,36.634537,36.957275,37.457657,38.143223,38.799675,39.28018,39.696575,40.060432,40.37184,40.637524,40.858498,41.029312,41.16227,41.266808,41.35895,41.4421,41.519238,41.594482,41.6678,41.737537,41.805443,41.874313,41.946636,42.02742,42.11612,42.210564,42.312065,42.420147,42.5306,42.63951,42.74061,42.83236,42.91856,43.001556,43.084106,43.162205,43.234283,43.29959,43.359337,43.415623,43.471336,43.52808,43.58496,43.639397,43.689545,43.73431,43.77271,43.80558,43.83476,43.861973,43.8881,43.91733,43.95249,43.994446,44.038727,44.087463,44.139446,44.19574,44.253662,44.308426,44.35624,44.40132,44.44973,44.502678,44.55989,44.618515,44.677593,44.736256,44.79544,44.85675,44.91925,44.983818,45.050133,45.11512,45.175575,45.22995,45.277008,45.318047,45.354904,45.38822,45.418373,45.44729,45.477757,45.511917,45.5506,45.593117,45.638287,45.685837,45.734097,45.78006,45.820057,45.852467,45.879036,45.903168,45.92759,45.952904,45.9804,46.01189,46.05014,46.095932,46.14976,46.211864,46.28132,46.356895,46.434685,46.509556,46.578354,46.641323,46.69966,46.754036,46.805145,46.854397,46.90464,46.960007,47.0224,47.090603,47.1643,47.242188,47.32263,47.401924,47.476265,47.54242,47.600338,47.65265,47.700882,47.746735,47.790405,47.834686,47.88198,47.933746,47.988075,48.041462,48.090393,48.132755,48.168045,48.19564,48.21437,48.22235,48.22094,48.210617,48.194016,48.174763,48.15448,48.134094,48.11196,48.085556,48.05361,48.017334,47.978622,47.93644,47.887894,47.82802,47.761177,47.68976,47.612396,47.52957,47.442738,47.35519,47.270515,47.191277,47.119297,47.053642,46.99436,46.93876,46.883812,46.828537,46.773117,46.717316,46.664474,46.61736,46.576447,46.541744,46.513577,46.493744,46.48524,46.48561,46.490173,46.498024,46.509605,46.525314,46.541832,46.55386,46.55481,46.545677,46.530766,46.51288,46.49444,46.47809,46.46716,46.467476,46.481396,46.50547,46.53504,46.56625,46.597797,46.628242,46.65458,46.672012,46.680634,46.683956,46.686264,46.688972,46.689014,46.679993,46.656944,46.616676,46.56551,46.50625,46.438026,46.358086,46.257736,46.142075,46.017776,45.878056,45.713547,45.513725,45.287697,45.055847,44.847717,44.666786,44.51834,44.393272,44.283646,44.197548,44.146305,44.124527,44.11677,44.101875,44.084312,44.066025,44.037895,43.98892,43.918175,43.836235,43.744507,43.642418,43.53244,43.414986,43.295033,43.184044,43.074345,42.9636,42.846794,42.72502,42.59471,42.46577,42.347057,42.240803,42.136963,42.032394,41.929764,41.833076,41.743362,41.654724,41.561592,41.465214,41.372047,41.287605,41.205048,41.123283,41.04622,40.979095,40.924667,40.882423,40.854477,40.84144,40.833923,40.83017,40.829834,40.832558,40.841324,40.856766,40.888123,40.9112,40.92169,40.92521,40.92675,40.92494,40.914505,40.890747,40.853584,40.792522,40.708702,40.59694,40.442226,40.239365,39.99018,39.655235,39.20066,38.75029,38.246967,37.720085,37.234245,36.813953,36.445023,36.100616,35.776115,35.47261,35.198036,34.96112,34.734512,34.503937,34.265633,34.046272,33.875275,33.74873,33.64006
36.006218,36.14656,36.307686,36.482933,36.705822,37.012306,37.48082,38.146294,38.83589,39.37715,39.822052,40.224472,40.57051,40.86209,41.100243,41.28222,41.4227,41.532654,41.627983,41.709793,41.780968,41.846622,41.909443,41.96964,42.029823,42.092613,42.1603,42.237442,42.32336,42.415173,42.513794,42.618202,42.72429,42.8282,42.92421,43.010868,43.092403,43.171665,43.251595,43.328518,43.400204,43.465683,43.526062,43.58277,43.638035,43.69304,43.746872,43.79832,43.846134,43.890182,43.92949,43.96466,43.996475,44.02622,44.05443,44.08574,44.12307,44.166847,44.21306,44.264046,44.318848,44.3777,44.437607,44.493652,44.542862,44.5898,44.640297,44.695503,44.755466,44.81794,44.88151,44.94434,45.00695,45.071587,45.137688,45.206245,45.276287,45.34468,45.40882,45.46827,45.522438,45.57177,45.616898,45.656937,45.691643,45.72284,45.753395,45.78576,45.821465,45.86071,45.90269,45.947163,45.992485,46.035637,46.07323,46.10387,46.129063,46.152138,46.176193,46.202393,46.232086,46.26655,46.30777,46.356255,46.412216,46.475964,46.546417,46.622093,46.700043,46.776188,46.848366,46.91636,46.980164,47.039597,47.094444,47.1463,47.197624,47.25216,47.311447,47.374763,47.44261,47.514626,47.589367,47.663208,47.732067,47.792393,47.844566,47.89112,47.933994,47.97551,48.01648,48.059845,48.107864,48.161682,48.21924,48.276962,48.331127,48.378574,48.417877,48.448215,48.468914,48.478767,48.47927,48.470673,48.455032,48.43695,48.418533,48.40102,48.38243,48.359665,48.33094,48.29722,48.2602,48.21885,48.171265,48.113144,48.04943,47.981937,47.909054,47.831665,47.751854,47.67315,47.59834,47.529686,47.468544,47.413902,47.36505,47.317627,47.26805,47.216278,47.163513,47.110596,47.06044,47.014565,46.972794,46.93521,46.902946,46.87795,46.863243,46.85653,46.85382,46.854927,46.860485,46.870224,46.880516,46.88677,46.88336,46.87123,46.854362,46.835346,46.816566,46.800896,46.79119,46.79281,46.808075,46.834034,46.866257,46.900627,46.93566,46.96984,47.00045,47.02249,47.035534,47.042885,47.049644,47.057,47.06153,47.056427,47.037266,47.002487,46.96027,46.914944,46.865074,46.806717,46.730858,46.640522,46.537476,46.407475,46.233543,46.0011,45.721443,45.42196,45.141293,44.892975,44.695473,44.54207,44.429047,44.355335,44.328083,44.333096,44.353336,44.365692,44.372475,44.37668,44.366615,44.328117,44.261604,44.180477,44.088737,43.986572,43.875572,43.75043,43.617466,43.48922,43.36212,43.23722,43.10791,42.97458,42.831562,42.689835,42.560295,42.44643,42.336136,42.224922,42.11557,42.0122,41.91684,41.82427,41.729294,41.632645,41.54057,41.457764,41.376793,41.297035,41.22223,41.157978,41.106243,41.067177,41.04383,41.037952,41.03968,41.04651,41.056854,41.06819,41.083176,41.102448,41.13513,41.15865,41.169975,41.174774,41.177227,41.17469,41.163338,41.13645,41.09053,41.01269,40.90486,40.761917,40.569477,40.323116,40.030922,39.57536,39.051926,38.547028,38.012726,37.49584,37.05507,36.672962,36.333855,36.01975,35.72379,35.4395,35.185127,34.97193,34.774345,34.573,34.36226,34.164677,34.010094,33.893883,33.789993
36.104607,36.231865,36.379013,36.54162,36.751236,37.04111,37.47921,38.1134,38.848774,39.454678,39.92875,40.376236,40.764275,41.08755,41.34655,41.54182,41.69126,41.80844,41.908806,41.99179,42.05948,42.11705,42.170044,42.22004,42.271744,42.327774,42.390125,42.46276,42.544888,42.632965,42.727516,42.826992,42.9274,43.025227,43.115498,43.19669,43.273,43.347878,43.424355,43.49933,43.569847,43.634937,43.695606,43.752556,43.80713,43.860146,43.91062,43.958973,44.004898,44.04945,44.091354,44.130833,44.167496,44.201935,44.23424,44.26937,44.30999,44.35626,44.404724,44.457565,44.514282,44.57441,44.634804,44.690674,44.739872,44.787186,44.83822,44.894485,44.956543,45.02265,45.090824,45.157875,45.223644,45.29082,45.359253,45.430172,45.502136,45.57233,45.63938,45.70411,45.766678,45.82656,45.883026,45.933628,45.97722,46.01493,46.049217,46.082428,46.116974,46.153873,46.1933,46.235054,46.277977,46.31919,46.3556,46.385944,46.41127,46.434937,46.460175,46.488663,46.521683,46.55966,46.603798,46.654034,46.710335,46.77304,46.84096,46.912586,46.986214,47.059486,47.131462,47.201687,47.26925,47.333035,47.392227,47.44818,47.50242,47.55755,47.614235,47.67179,47.731506,47.794044,47.858948,47.923145,47.982685,48.033997,48.07762,48.11605,48.151787,48.18753,48.22474,48.266335,48.314384,48.369774,48.429985,48.491524,48.550453,48.60257,48.64564,48.678802,48.70182,48.714417,48.71788,48.712395,48.699394,48.684044,48.66912,48.656437,48.64377,48.62728,48.604614,48.57657,48.544243,48.506763,48.46324,48.409714,48.351624,48.290154,48.223404,48.15296,48.081726,48.01361,47.950333,47.893913,47.844845,47.801773,47.76326,47.723385,47.678043,47.62858,47.577484,47.52682,47.478996,47.43422,47.391197,47.349983,47.312244,47.280075,47.256496,47.240013,47.227734,47.220387,47.21889,47.222088,47.2264,47.22805,47.222546,47.21046,47.195076,47.17855,47.163033,47.151375,47.14562,47.149895,47.166325,47.192677,47.225132,47.25972,47.29457,47.32843,47.359493,47.3833,47.39928,47.41034,47.421528,47.433548,47.44258,47.441628,47.42666,47.39808,47.365265,47.334236,47.30328,47.267876,47.218666,47.157516,47.081657,46.970345,46.798798,46.548294,46.230373,45.879078,45.539474,45.232742,44.987724,44.80277,44.67601,44.60089,44.581005,44.594105,44.62475,44.650116,44.672413,44.69303,44.69802,44.668575,44.60614,44.5259,44.435326,44.335846,44.227936,44.099686,43.957596,43.81151,43.664238,43.51993,43.37269,43.223824,43.06536,42.909386,42.76813,42.64617,42.5292,42.411556,42.29592,42.18627,42.08602,41.990517,41.894756,41.79881,41.70829,41.627594,41.548676,41.471237,41.398773,41.33674,41.28661,41.249138,41.228622,41.22842,41.2384,41.255203,41.276062,41.295742,41.316326,41.338356,41.37076,41.39254,41.40257,41.40641,41.407997,41.403687,41.391235,41.36145,41.3079,41.214375,41.081802,40.904274,40.66577,40.390415,39.968895,39.403557,38.876785,38.307476,37.764614,37.289017,36.88436,36.53051,36.2223,35.943825,35.672874,35.41357,35.185688,34.99907,34.83017,34.656586,34.470688,34.289383,34.142284,34.024487,33.91323
