22.310099,22.300524,22.292885,22.285828,22.280663,22.274378,22.264187,22.252863,22.241764,22.229507,22.214937,22.196245,22.175373,22.15728,22.14404,22.143736,22.155247,22.1763,22.198353,22.213959,22.231632,22.24387,22.255394,22.269836,22.28289,22.29121,22.293463,22.292633,22.294405,22.301231,22.317589,22.34472,22.38453,22.433151,22.487453,22.54308,22.591656,22.634398,22.67391,22.71238,22.746176,22.771502,22.788586,22.799751,22.808895,22.815174,22.810724,22.796394,22.780922,22.782051,22.809193,22.859798,22.912767,22.948242,22.961613,22.943718,22.898941,22.87607,22.981293,23.119747,23.635376,25.386261,28.968699,31.780819,32.973396,33.609184,33.876553,33.968647,33.98605,33.93837,33.82962,33.7056,33.60633,33.534317,33.489326,33.463257,33.44922,33.44136,33.43479,33.42482,33.396065,33.34956,33.283043,33.196068,33.104126,33.029564,32.975792,32.941475,32.910652,32.88016,32.84861,32.804634,32.749493,32.70323,32.67019,32.64286,32.60746,32.559967,32.50535,32.450443,32.400425,32.34929,32.297493,32.24986,32.20401,32.157936,32.11288,32.07228,32.03849,32.01226,31.992733,31.973259,31.948761,31.915495,31.871548,31.81964,31.76356,31.699444,31.624405,31.541677,31.456352,31.375738,31.301609,31.24303,31.199493,31.16961,31.143087,31.110718,31.068674,31.01691,30.959255,30.89573,30.825443,30.75085,30.6796,30.613579,30.558434,30.517876,30.490498,30.477837,30.472418,30.447304,30.4151,30.36258,30.289207,30.216358,30.167076,30.164675,30.156143,30.132832,30.062471,29.334896,28.36115,27.632534,27.19324,27.02567,26.985249,26.99015,26.971415,26.928013,26.898582,26.897644,26.911999,26.918528,26.909021,26.894924,26.891273,26.902985,26.925903,26.954416,26.981735,27.004719,27.021921,27.032133,27.034616,27.027445,27.006676,26.969282,26.917852,26.859814,26.802677,26.74896,26.694443,26.638433,26.582949,26.546986,26.550571,26.606894,26.71362,26.838963,26.956326,27.062622,27.190857,27.396233,27.717335,28.19711,28.819225,29.39814,29.674503,29.741516,29.735561,29.714428,29.6669,29.619741,29.585407,29.538895,29.467157,29.388597,29.324776,29.282974,29.259373,29.240707,29.22088,29.201565,29.179634,29.148958,29.107635,29.059832,29.014465,28.975096,28.938404,28.905281,28.879654,28.866695,28.865646,28.861792,28.84095,28.791397,28.727167,28.664368,28.615234,28.585682,28.569233,28.55455,28.534405,28.510538,28.49091,28.482021,28.479824,28.472168,28.453127,28.421457,28.385002,28.348793,28.311937,28.272602,28.229156,28.187557,28.151972,28.123928,28.103775,28.086874,28.071152,28.052643,28.029875,28.00325,27.974636,27.948193,27.925865,27.905777,27.884474,27.856363,27.82492,27.792084,27.759308,27.727797,27.697042,27.666073,27.635082,27.60474,27.574348,27.541779,27.50579,27.467173,27.427277,27.388454,27.348747,27.307367,27.26292,27.218391,27.177483,27.141956,27.11037,27.081303,27.0541,27.028412,27.00417,26.978075,26.949944,26.920048,26.888287,26.85279,26.815502,26.777994,26.74159,26.707394,26.675753,26.64692,26.62102,26.595366,26.567867,26.537014,26.503176,26.46643,26.42634,26.383379,26.339687,26.297539
22.274536,22.267246,22.26101,22.25476,22.250015,22.243048,22.230976,22.215977,22.199688,22.182436,22.164263,22.144157,22.123686,22.10603,22.092693,22.091185,22.100863,22.120764,22.14198,22.157028,22.172802,22.181248,22.187689,22.19664,22.204983,22.209496,22.208704,22.205727,22.207325,22.216255,22.236912,22.269005,22.31294,22.364386,22.419617,22.474953,22.521696,22.561373,22.59701,22.631725,22.663326,22.68891,22.708208,22.722898,22.736462,22.746166,22.742928,22.72334,22.693764,22.669426,22.666283,22.695766,22.75367,22.842045,22.946987,23.027157,23.033749,22.975622,22.976229,23.081173,23.421679,24.854116,27.890614,31.000256,32.185783,32.708065,32.893467,32.919125,32.89525,32.82356,32.71675,32.60595,32.51511,32.446384,32.4007,32.37529,32.365604,32.362267,32.358967,32.35286,32.32618,32.271904,32.2088,32.140034,32.072685,32.01467,31.94727,31.88869,31.839756,31.792168,31.744495,31.695297,31.643127,31.599075,31.56982,31.549648,31.527817,31.499916,31.467579,31.434488,31.403381,31.37323,31.342602,31.309395,31.26867,31.217957,31.162804,31.109081,31.064358,31.033855,31.014946,30.998617,30.977402,30.947296,30.90629,30.856361,30.802105,30.741398,30.673574,30.602692,30.53291,30.470932,30.41993,30.381008,30.353249,30.335632,30.319817,30.297506,30.264832,30.222115,30.173645,30.119873,30.058155,29.983063,29.908155,29.840776,29.784948,29.741646,29.713116,29.70192,29.704918,29.707165,29.69155,29.643007,29.559437,29.471542,29.430626,29.476273,29.52634,29.529148,29.42707,28.88229,28.121767,27.544725,27.17981,27.029491,26.998535,27.003534,26.98803,26.952549,26.931484,26.937931,26.958513,26.971367,26.969315,26.96407,26.970066,26.991436,27.023151,27.059456,27.093945,27.123493,27.14633,27.160742,27.165897,27.160175,27.140476,27.103987,27.052944,26.994253,26.934723,26.875828,26.813053,26.74581,26.677288,26.627377,26.615192,26.653374,26.741844,26.852287,26.963451,27.067692,27.190506,27.372585,27.639648,28.017467,28.46156,28.847897,29.031475,29.044804,29.009027,28.921062,28.843676,28.802801,28.780235,28.749386,28.702883,28.650719,28.612028,28.590832,28.573261,28.551601,28.524593,28.495342,28.466038,28.43565,28.400387,28.360882,28.320255,28.282227,28.246767,28.214321,28.181442,28.156366,28.141762,28.12742,28.104263,28.06487,28.014328,27.96477,27.926327,27.903778,27.892532,27.884094,27.872824,27.860455,27.851984,27.851574,27.854763,27.851856,27.838078,27.812775,27.781046,27.746204,27.707407,27.664944,27.619904,27.578241,27.543,27.51487,27.494385,27.477913,27.463627,27.447714,27.427153,27.402205,27.374367,27.347984,27.325403,27.304878,27.28252,27.252728,27.21885,27.183079,27.146873,27.11153,27.076511,27.040974,27.00539,26.97079,26.93615,26.90041,26.862606,26.8241,26.7861,26.750515,26.715567,26.680773,26.644516,26.60899,26.577053,26.54968,26.525486,26.50256,26.479652,26.456057,26.43208,26.404999,26.37518,26.343498,26.310429,26.274845,26.23884,26.20387,26.17101,26.140978,26.113918,26.089354,26.067162,26.044407,26.019218,25.990345,25.958395,25.923382,25.884556,25.8424,25.799438,25.758268
22.237625,22.232643,22.227135,22.220829,22.215458,22.207012,22.192654,22.174305,22.15404,22.133617,22.113766,22.094315,22.076344,22.061354,22.050026,22.048416,22.05645,22.074436,22.093794,22.1078,22.12218,22.128098,22.130917,22.135536,22.140224,22.142296,22.140453,22.137747,22.141388,22.154491,22.180916,22.218723,22.26699,22.321005,22.37703,22.43192,22.476753,22.51288,22.543823,22.574146,22.603485,22.63011,22.652782,22.672375,22.692047,22.708866,22.713114,22.699253,22.671618,22.639019,22.61784,22.621927,22.657001,22.748978,22.8932,23.0422,23.108932,23.058859,23.002901,23.071918,23.349249,24.51779,27.128418,30.26291,31.394375,31.851849,31.995886,31.997223,31.952606,31.865292,31.77232,31.68407,31.614191,31.561348,31.52689,31.507385,31.498241,31.494781,31.491693,31.48756,31.455246,31.402336,31.347042,31.292377,31.240627,31.173172,31.103794,31.042896,30.985497,30.929953,30.87809,30.825813,30.771557,30.72433,30.692312,30.669998,30.647808,30.626316,30.60432,30.581686,30.559895,30.537418,30.511477,30.481138,30.442593,30.393108,30.33575,30.277622,30.227585,30.188484,30.161142,30.141655,30.119884,30.089712,30.049294,30.00039,29.947521,29.88997,29.82829,29.766302,29.706934,29.654129,29.609768,29.57528,29.551163,29.537258,29.526237,29.51075,29.486486,29.453817,29.409927,29.35759,29.29824,29.231518,29.163944,29.102201,29.050106,29.007761,28.977203,28.961199,28.95898,28.960701,28.946701,28.897469,28.81994,28.743368,28.702688,28.730963,28.817398,28.873978,28.777233,28.417255,27.864628,27.42879,27.141409,27.012135,26.991322,26.997944,26.986946,26.96037,26.948303,26.961123,26.985054,26.999882,27.00011,26.997833,27.00719,27.03162,27.065834,27.104395,27.141636,27.174751,27.201286,27.215593,27.220354,27.214825,27.196617,27.163015,27.115467,27.05981,27.002092,26.943068,26.878273,26.807278,26.733707,26.676956,26.65641,26.684258,26.759266,26.857433,26.959963,27.056587,27.162853,27.30875,27.511051,27.77494,28.04815,28.252636,28.346275,28.330097,28.253698,28.164913,28.097399,28.060013,28.037292,28.009657,27.976269,27.947317,27.925278,27.910013,27.895351,27.872852,27.84076,27.808315,27.776875,27.745745,27.71202,27.675632,27.637667,27.600449,27.563744,27.52832,27.496778,27.473454,27.459532,27.4472,27.430061,27.402237,27.366072,27.33063,27.303585,27.288465,27.281792,27.276857,27.268951,27.259901,27.253605,27.253168,27.254858,27.251198,27.238308,27.215689,27.186462,27.152138,27.112316,27.068289,27.022633,26.98109,26.945795,26.916958,26.89566,26.879637,26.867275,26.854671,26.83722,26.814445,26.787647,26.761047,26.737568,26.715796,26.692013,26.660969,26.62579,26.58853,26.550222,26.512001,26.473316,26.43354,26.393555,26.354826,26.316319,26.277588,26.238178,26.199656,26.163616,26.131653,26.10213,26.074621,26.047115,26.021275,25.998798,25.980066,25.96352,25.946917,25.928461,25.907166,25.883503,25.855515,25.823816,25.790043,25.7551,25.718712,25.683317,25.65024,25.620337,25.593922,25.571125,25.550777,25.53238,25.512678,25.489838,25.462774,25.4325,25.398932,25.361275,25.32004,25.277893,25.23785
22.201998,22.19867,22.193085,22.186064,22.17947,22.169365,22.153038,22.132214,22.109512,22.087696,22.067635,22.050144,22.03579,22.024872,22.017109,22.016558,22.023506,22.03918,22.056047,22.068554,22.081741,22.08604,22.086376,22.087662,22.089525,22.09019,22.088829,22.088255,22.09552,22.114017,22.14673,22.190216,22.242668,22.299107,22.356361,22.411663,22.455795,22.489368,22.51614,22.542328,22.569492,22.597198,22.62323,22.64756,22.672806,22.696774,22.710058,22.706635,22.68975,22.660969,22.632664,22.61406,22.61568,22.68253,22.826658,23.010948,23.130062,23.110092,23.04065,23.08658,23.341648,24.328014,26.584572,29.603926,30.649286,31.05237,31.169949,31.16187,31.11229,31.028648,30.956766,30.887814,30.832533,30.788929,30.759336,30.742094,30.733398,30.729887,30.72776,30.72771,30.688084,30.638676,30.579796,30.515139,30.448946,30.384975,30.323896,30.26575,30.208282,30.15239,30.100695,30.048626,29.99319,29.94495,29.910332,29.884443,29.86164,29.838913,29.817272,29.798489,29.780203,29.760292,29.73646,29.70788,29.670673,29.62223,29.56481,29.50544,29.452991,29.411386,29.380371,29.354694,29.324959,29.289623,29.24569,29.193737,29.138824,29.081839,29.023651,28.967861,28.916939,28.874855,28.839325,28.809563,28.786747,28.772253,28.762508,28.751421,28.732235,28.704138,28.668922,28.626778,28.577524,28.522274,28.46714,28.414701,28.36713,28.324932,28.294964,28.276512,28.268642,28.259651,28.235481,28.192265,28.132584,28.073053,28.036554,28.049797,28.114809,28.176228,28.146168,27.939915,27.581793,27.271572,27.057678,26.959457,26.945328,26.951813,26.944748,26.92709,26.923431,26.940598,26.964235,26.976215,26.973215,26.96779,26.973843,26.994146,27.023998,27.057505,27.089123,27.119244,27.143555,27.160797,27.165615,27.160246,27.145119,27.115524,27.073166,27.023396,26.970844,26.915634,26.854774,26.788822,26.721691,26.669909,26.649652,26.670528,26.731983,26.815332,26.904245,26.98693,27.068771,27.168272,27.29235,27.434528,27.566391,27.647678,27.66587,27.624302,27.5594,27.483315,27.418884,27.37796,27.348745,27.320066,27.293411,27.271358,27.254725,27.240372,27.222439,27.197235,27.16662,27.1358,27.105965,27.076546,27.04553,27.012978,26.9795,26.94689,26.914984,26.884762,26.858723,26.839935,26.829523,26.82157,26.811596,26.794785,26.771965,26.74922,26.731869,26.722172,26.717342,26.7122,26.702835,26.691368,26.681461,26.675806,26.671972,26.664478,26.650337,26.628773,26.601372,26.567951,26.528572,26.485022,26.440908,26.40137,26.367714,26.339767,26.318901,26.304197,26.294128,26.284441,26.26926,26.247417,26.220396,26.192566,26.167377,26.14362,26.117874,26.085451,26.049213,26.011065,25.971455,25.931477,25.890368,25.847641,25.80465,25.763096,25.722225,25.681772,25.641596,25.603287,25.56905,25.54021,25.515354,25.493973,25.473755,25.456047,25.441431,25.430027,25.419971,25.408907,25.394512,25.375582,25.352425,25.323942,25.290749,25.255173,25.218592,25.181469,25.14674,25.115343,25.088005,25.064598,25.045345,25.028614,25.013584,24.996696,24.976112,24.950844,24.922287,24.890173,24.85387,24.813732,24.772556,24.733646
22.173573,22.170715,22.163948,22.155464,22.147202,22.135448,22.117577,22.095287,22.071604,22.04982,22.030521,22.015469,22.004936,21.998623,21.995312,21.99662,22.003,22.016012,22.029709,22.040056,22.0518,22.054888,22.053371,22.051994,22.051586,22.051414,22.051323,22.053957,22.065666,22.089767,22.128307,22.176722,22.232784,22.291372,22.35052,22.407745,22.453327,22.486439,22.510431,22.53294,22.557533,22.5853,22.61338,22.640623,22.668886,22.697123,22.717377,22.724514,22.721607,22.703938,22.677221,22.643387,22.614464,22.647007,22.769302,22.959942,23.111475,23.127054,23.069729,23.10019,23.358475,24.231998,26.20258,28.944382,29.950844,30.311775,30.409027,30.394638,30.32467,30.25346,30.197285,30.144451,30.102802,30.069275,30.045898,30.0324,30.025797,30.027111,30.008638,29.954212,29.88909,29.828548,29.769787,29.711697,29.653643,29.598122,29.543816,29.49104,29.43919,29.390482,29.345778,29.298897,29.249466,29.203518,29.167173,29.138706,29.114067,29.091011,29.06817,29.04411,29.021832,29.000889,28.977137,28.949778,28.91476,28.869106,28.811907,28.749222,28.694805,28.65336,28.622751,28.596909,28.56948,28.53586,28.492374,28.442997,28.391663,28.33965,28.287954,28.24023,28.197475,28.160095,28.128061,28.101526,28.081554,28.06908,28.060312,28.051174,28.036892,28.015322,27.98838,27.95689,27.920649,27.879284,27.835281,27.791573,27.750206,27.710407,27.671005,27.636726,27.61288,27.593014,27.56895,27.53357,27.48946,27.445187,27.413122,27.413885,27.45575,27.512611,27.53088,27.44233,27.243824,27.05133,26.90945,26.842941,26.8339,26.839285,26.83535,26.825705,26.82873,26.847393,26.866953,26.87188,26.859806,26.844,26.840166,26.850075,26.868458,26.891195,26.915062,26.940098,26.964844,26.978714,26.979733,26.96958,26.95122,26.925758,26.889885,26.847286,26.801872,26.753454,26.702282,26.648994,26.59649,26.556889,26.541573,26.556946,26.603432,26.66846,26.739214,26.803442,26.858948,26.909698,26.95688,27.001034,27.029707,27.032581,27.01424,26.972734,26.906754,26.843872,26.790623,26.74841,26.715626,26.68504,26.658413,26.637276,26.620792,26.605824,26.587017,26.562004,26.532732,26.50352,26.475292,26.447598,26.419207,26.390331,26.361317,26.33355,26.306711,26.281912,26.26122,26.24696,26.240372,26.236877,26.233463,26.22604,26.21426,26.201698,26.191444,26.184763,26.17957,26.172157,26.159275,26.143291,26.127796,26.11539,26.105223,26.093464,26.077778,26.057209,26.032188,26.001152,25.964401,25.923744,25.883335,25.847828,25.817902,25.793009,25.774403,25.762016,25.75407,25.745766,25.730743,25.707563,25.678455,25.648113,25.620205,25.593533,25.564802,25.529955,25.492062,25.452961,25.412773,25.372383,25.330635,25.286903,25.242899,25.20035,25.158947,25.118267,25.078379,25.040747,25.008076,24.981602,24.959984,24.94266,24.927193,24.914852,24.905497,24.899044,24.893536,24.886486,24.875324,24.858654,24.83633,24.807764,24.773796,24.737295,24.700129,24.663319,24.63005,24.600742,24.575825,24.554821,24.537985,24.523537,24.51054,24.495445,24.476494,24.452755,24.425825,24.395285,24.360619,24.321915,24.281773,24.24363
22.154219,22.150906,22.142601,22.132591,22.122616,22.10925,22.090038,22.06681,22.042955,22.02172,22.003086,21.989523,21.98129,21.978271,21.978607,21.981781,21.987923,21.998344,22.008701,22.016438,22.026352,22.028269,22.02518,22.021484,22.018986,22.018091,22.019367,22.025326,22.041508,22.070766,22.11449,22.1674,22.227211,22.288597,22.35091,22.411648,22.460392,22.49464,22.51721,22.53699,22.559584,22.587433,22.617327,22.64641,22.675411,22.704285,22.727135,22.741104,22.750023,22.74498,22.724422,22.682499,22.630402,22.629818,22.722956,22.903233,23.071175,23.120886,23.091576,23.1195,23.376556,24.214302,25.931732,28.34843,29.308443,29.615751,29.68494,29.682312,29.593664,29.532154,29.486393,29.445435,29.414684,29.390203,29.373363,29.361927,29.328943,29.273815,29.217073,29.159546,29.09755,29.03833,28.981695,28.928482,28.878073,28.834324,28.78975,28.744837,28.70133,28.663713,28.624329,28.581638,28.536058,28.492617,28.456741,28.426811,28.400116,28.375282,28.350813,28.325024,28.29876,28.271471,28.237656,28.202637,28.163837,28.118969,28.06868,28.017323,27.971416,27.93475,27.907024,27.880558,27.85241,27.82058,27.782646,27.739899,27.695509,27.651142,27.607277,27.566202,27.528347,27.493385,27.461628,27.43383,27.411345,27.395494,27.383713,27.373047,27.360085,27.344383,27.325932,27.304657,27.280178,27.250961,27.21799,27.182728,27.146976,27.110163,27.0737,27.038485,27.003956,26.97272,26.946293,26.917318,26.886992,26.85714,26.83182,26.825954,26.851597,26.902828,26.951122,26.944109,26.867186,26.772747,26.692076,26.652023,26.646255,26.649256,26.646305,26.64122,26.646751,26.662241,26.67454,26.668331,26.646214,26.61996,26.60408,26.600878,26.605858,26.615795,26.626995,26.638763,26.64841,26.652454,26.644142,26.627533,26.608654,26.584923,26.557611,26.527351,26.495497,26.461674,26.42554,26.388798,26.354416,26.32964,26.320824,26.331268,26.362175,26.406738,26.456066,26.49902,26.528622,26.541914,26.537601,26.520111,26.492456,26.458431,26.419266,26.366196,26.308258,26.253523,26.204182,26.162369,26.127909,26.096336,26.069202,26.047554,26.029484,26.012283,25.991575,25.966087,25.937689,25.909863,25.88311,25.857044,25.830894,25.804966,25.779476,25.755417,25.732494,25.711864,25.695374,25.68497,25.68202,25.682848,25.685188,25.68544,25.682297,25.677315,25.671677,25.665981,25.65873,25.647442,25.62953,25.60756,25.585384,25.565693,25.549093,25.533092,25.516018,25.496786,25.474882,25.447775,25.415771,25.380436,25.346178,25.317049,25.292995,25.273205,25.258503,25.249226,25.243305,25.235249,25.218708,25.192402,25.159517,25.125607,25.094328,25.064312,25.032257,24.99473,24.954971,24.914825,24.874249,24.833965,24.792503,24.749138,24.705711,24.663717,24.623295,24.583908,24.545567,24.509613,24.478924,24.454731,24.435558,24.4206,24.407558,24.397747,24.390694,24.386356,24.38274,24.377472,24.368076,24.353024,24.331724,24.303825,24.27025,24.234203,24.197794,24.162373,24.131096,24.103943,24.081005,24.061485,24.045622,24.031843,24.019281,24.004814,23.986795,23.964413,23.93921,23.910643,23.878271,23.841873,23.803585,23.766703
22.147081,22.142975,22.133701,22.122776,22.11145,22.096523,22.075895,22.051678,22.027527,22.006187,21.98692,21.972563,21.963959,21.961723,21.963951,21.9686,21.974874,21.983475,21.99094,21.99601,22.003635,22.003826,21.998585,21.99221,21.9874,21.985544,21.987934,21.996788,22.016844,22.0503,22.09824,22.155293,22.219423,22.28521,22.352512,22.418634,22.472073,22.509048,22.531837,22.550558,22.572626,22.60154,22.63385,22.664549,22.692543,22.71808,22.737495,22.750809,22.763752,22.76646,22.752874,22.711487,22.651173,22.63236,22.704374,22.868185,23.040295,23.116516,23.116734,23.162832,23.45097,24.299007,25.779606,27.858498,28.743818,28.979687,29.006947,28.976643,28.929218,28.894243,28.852894,28.81641,28.783125,28.756134,28.708511,28.640762,28.581093,28.531553,28.484478,28.43332,28.375906,28.31931,28.269785,28.22779,28.185787,28.145142,28.104746,28.065872,28.025415,27.985828,27.946344,27.905334,27.86303,27.823616,27.79095,27.761963,27.733986,27.706253,27.67738,27.646107,27.613615,27.579842,27.547039,27.515133,27.481236,27.442604,27.39748,27.35033,27.306923,27.2707,27.243116,27.220346,27.197428,27.170252,27.136917,27.099194,27.060555,27.02303,26.98668,26.952503,26.9202,26.888737,26.858204,26.829548,26.804262,26.784138,26.768143,26.75486,26.741924,26.729061,26.715734,26.701569,26.685638,26.66598,26.642555,26.615734,26.58677,26.555122,26.521927,26.488152,26.453886,26.420794,26.389492,26.363121,26.34451,26.328249,26.316858,26.318125,26.337841,26.381706,26.444435,26.487144,26.487022,26.459805,26.42315,26.402834,26.398844,26.398201,26.392658,26.386303,26.387966,26.395199,26.395306,26.377987,26.346203,26.311693,26.286777,26.272934,26.266346,26.263994,26.262363,26.261093,26.25689,26.24621,26.22888,26.207441,26.185207,26.163568,26.14286,26.124413,26.106842,26.088196,26.067726,26.04691,26.028185,26.0152,26.010483,26.015133,26.03062,26.054634,26.081482,26.10254,26.110014,26.098461,26.067709,26.023874,25.975027,25.923244,25.86892,25.816366,25.766064,25.717972,25.673424,25.633888,25.599718,25.568485,25.54126,25.51855,25.49817,25.477928,25.454945,25.42871,25.401085,25.374626,25.349533,25.325253,25.301096,25.277187,25.253597,25.231134,25.209753,25.190845,25.17657,25.168633,25.168505,25.172863,25.179697,25.185543,25.188534,25.188648,25.18565,25.179573,25.169239,25.153202,25.129822,25.101677,25.072998,25.0466,25.024307,25.004784,24.986715,24.969309,24.950947,24.92854,24.902136,24.873417,24.846811,24.825954,24.810041,24.79775,24.78904,24.784103,24.780434,24.771734,24.752174,24.721148,24.68311,24.644785,24.609835,24.576744,24.541687,24.501665,24.459734,24.417717,24.375793,24.334831,24.293499,24.251081,24.209488,24.169788,24.132366,24.096474,24.061775,24.02937,24.001797,23.980318,23.963224,23.949564,23.937206,23.92759,23.920338,23.9155,23.911263,23.905462,23.896023,23.88158,23.861122,23.834309,23.801968,23.76713,23.73204,23.698208,23.66856,23.642712,23.620663,23.601364,23.584965,23.570358,23.55695,23.542313,23.524937,23.504047,23.480995,23.455181,23.42611,23.393318,23.35844,23.324205
22.153984,22.149021,22.139263,22.12779,22.115044,22.098284,22.075968,22.050568,22.025942,22.00396,21.9832,21.966434,21.95539,21.951527,21.953419,21.958366,21.96447,21.97149,21.976173,21.978228,21.98277,21.980417,21.972446,21.963146,21.955978,21.953125,21.956305,21.96724,21.989906,22.02589,22.076445,22.136642,22.204933,22.275513,22.348202,22.419867,22.478027,22.518387,22.54317,22.563276,22.587423,22.619371,22.6552,22.687578,22.713642,22.733711,22.746452,22.75491,22.766687,22.772697,22.764671,22.727797,22.66818,22.64069,22.696972,22.844517,23.013435,23.109673,23.14167,23.225647,23.563759,24.397335,25.638597,27.388708,28.212114,28.38364,28.393194,28.339891,28.290108,28.258375,28.206335,28.144625,28.082973,28.011194,27.937973,27.877876,27.831516,27.795326,27.760818,27.721733,27.682104,27.644157,27.603548,27.566357,27.528988,27.490742,27.451555,27.412996,27.374834,27.337582,27.299866,27.260914,27.221249,27.18378,27.150883,27.118961,27.08675,27.05486,27.02304,26.990068,26.956816,26.923,26.89091,26.860886,26.83033,26.796925,26.759731,26.721115,26.685207,26.655243,26.632614,26.613783,26.594414,26.570673,26.540829,26.507093,26.473146,26.44146,26.411777,26.383995,26.357132,26.329517,26.300877,26.272123,26.244658,26.220661,26.200512,26.184128,26.17025,26.158636,26.148436,26.138935,26.128807,26.115847,26.09925,26.078863,26.055225,26.027946,25.997677,25.965427,25.93166,25.8991,25.870365,25.848019,25.835896,25.832745,25.834944,25.844978,25.868893,25.913622,25.977085,26.038334,26.077679,26.087088,26.07851,26.070736,26.066858,26.061947,26.05227,26.041943,26.037106,26.034618,26.02417,25.99805,25.96004,25.92051,25.889957,25.869343,25.854809,25.843525,25.832045,25.820486,25.806118,25.785854,25.759724,25.73077,25.70402,25.68376,25.67118,25.665083,25.662354,25.660122,25.653275,25.643482,25.634653,25.628231,25.62422,25.622383,25.6242,25.63028,25.637566,25.640072,25.631203,25.605707,25.56519,25.511383,25.450142,25.393955,25.344067,25.298727,25.256077,25.214462,25.174686,25.13799,25.10492,25.07473,25.047905,25.024517,25.00236,24.979773,24.955269,24.92886,24.902317,24.877403,24.854033,24.831505,24.809093,24.78666,24.764221,24.74252,24.72179,24.703547,24.690289,24.683693,24.68514,24.691645,24.701141,24.710243,24.716837,24.719816,24.717976,24.710928,24.697647,24.677376,24.649395,24.61625,24.582626,24.551552,24.525583,24.504414,24.486866,24.472477,24.458534,24.44162,24.421398,24.399765,24.380993,24.36826,24.35999,24.354445,24.350855,24.349129,24.346498,24.336075,24.312601,24.276394,24.233002,24.190296,24.152039,24.116333,24.07888,24.036821,23.99291,23.94896,23.905458,23.863607,23.822437,23.781517,23.742577,23.706215,23.672915,23.6417,23.611675,23.583763,23.559834,23.541073,23.525738,23.512491,23.499638,23.488695,23.47968,23.472782,23.46641,23.45876,23.448273,23.43387,23.41438,23.389206,23.358952,23.326292,23.293365,23.261562,23.233505,23.208605,23.186825,23.167082,23.149424,23.133156,23.118155,23.102787,23.085693,23.066235,23.04542,23.022682,22.997435,22.968964,22.938414,22.907711
22.173775,22.168201,22.15876,22.147255,22.133137,22.11443,22.09035,22.06379,22.038626,22.015652,21.993042,21.973118,21.95841,21.951313,21.951046,21.955366,21.961235,21.967278,21.969694,21.968664,21.96944,21.9636,21.952198,21.93974,21.930275,21.926537,21.930313,21.942413,21.96615,22.00251,22.053452,22.115185,22.186739,22.261597,22.338863,22.414814,22.476566,22.520138,22.548527,22.573015,22.602638,22.640293,22.680874,22.714966,22.73886,22.75321,22.759134,22.761938,22.770433,22.777012,22.772606,22.741638,22.687733,22.65768,22.702408,22.836658,22.997593,23.107937,23.171642,23.29838,23.700983,24.472404,25.52435,27.000008,27.709366,27.847675,27.832924,27.782322,27.715528,27.5954,27.484634,27.42707,27.378918,27.320335,27.258842,27.206188,27.164648,27.134073,27.107384,27.081036,27.047173,27.00991,26.972572,26.938137,26.90224,26.866322,26.829277,26.792906,26.756893,26.721767,26.686436,26.650244,26.613827,26.57913,26.547579,26.515484,26.482069,26.448214,26.414133,26.379004,26.344175,26.309963,26.279163,26.252243,26.226599,26.199799,26.170029,26.138844,26.109322,26.084267,26.065098,26.048985,26.03224,26.011269,25.98444,25.954144,25.924128,25.897284,25.873268,25.851044,25.829128,25.805477,25.77943,25.751633,25.723324,25.696804,25.673523,25.654465,25.639189,25.627518,25.618502,25.61127,25.604221,25.595192,25.583027,25.567196,25.547718,25.524088,25.496311,25.465322,25.432085,25.400093,25.37296,25.354137,25.348011,25.352709,25.364166,25.382103,25.409512,25.453182,25.514257,25.5774,25.626595,25.650955,25.655012,25.651936,25.645756,25.636242,25.62222,25.607647,25.59689,25.586704,25.569225,25.539183,25.500652,25.462456,25.432972,25.412292,25.396393,25.38234,25.366919,25.350657,25.331627,25.307295,25.277897,25.246353,25.218277,25.198792,25.189674,25.1893,25.193167,25.196587,25.197845,25.197182,25.195732,25.19329,25.187992,25.179893,25.170366,25.16211,25.154102,25.141941,25.12019,25.084469,25.03675,24.982811,24.929577,24.882273,24.840744,24.803257,24.767834,24.732124,24.69671,24.662811,24.631172,24.602379,24.576557,24.553352,24.530624,24.507298,24.482878,24.4576,24.432968,24.410063,24.388676,24.368046,24.347363,24.326271,24.304808,24.283619,24.26331,24.24543,24.232521,24.226257,24.22803,24.235077,24.245342,24.255627,24.263739,24.267925,24.266453,24.258617,24.243408,24.220367,24.189438,24.153389,24.11736,24.084507,24.057816,24.037613,24.022696,24.012703,24.003914,23.992676,23.97841,23.963299,23.951292,23.945019,23.942242,23.940762,23.93961,23.93861,23.93495,23.92154,23.893532,23.852123,23.80364,23.757046,23.716236,23.678875,23.64022,23.597206,23.552254,23.507013,23.462402,23.419981,23.379313,23.34032,23.304585,23.27219,23.243528,23.217455,23.192402,23.16903,23.148499,23.131992,23.117819,23.104443,23.090498,23.077515,23.065998,23.056454,23.047518,23.037666,23.025898,23.011534,22.993393,22.970661,22.943542,22.914173,22.88433,22.855177,22.828949,22.805054,22.783543,22.763378,22.744507,22.72668,22.710102,22.693834,22.676777,22.658377,22.639345,22.619148,22.597157,22.572575,22.546106,22.518883
22.199236,22.193604,22.184956,22.173801,22.159016,22.139599,22.115467,22.089159,22.064373,22.041157,22.017765,21.995762,21.978119,21.967941,21.965094,21.968414,21.973866,21.979069,21.97918,21.974703,21.97118,21.961391,21.94666,21.931751,21.921015,21.917332,21.921844,21.934296,21.957132,21.991283,22.040058,22.101107,22.174318,22.252039,22.332275,22.410847,22.474985,22.522125,22.556587,22.588455,22.626179,22.670647,22.715734,22.750906,22.772335,22.781128,22.780437,22.777367,22.780958,22.78528,22.781687,22.756382,22.71105,22.685217,22.725525,22.846176,22.996862,23.11507,23.206673,23.373932,23.806911,24.499228,25.403006,26.622581,27.233223,27.341301,27.325039,27.25698,27.087543,26.919754,26.843796,26.799728,26.757874,26.70634,26.65144,26.60302,26.564339,26.537287,26.514383,26.487339,26.452557,26.415615,26.37938,26.346714,26.312994,26.278791,26.243486,26.209023,26.175076,26.141819,26.10831,26.073933,26.039509,26.00634,25.97525,25.9428,25.908495,25.873386,25.838085,25.801956,25.766632,25.732698,25.70324,25.678944,25.657309,25.635876,25.612244,25.587257,25.563034,25.541931,25.52531,25.511095,25.496346,25.477861,25.454056,25.427162,25.400883,25.378239,25.358883,25.341274,25.323616,25.303688,25.280605,25.25462,25.226734,25.199173,25.174097,25.153236,25.136793,25.124548,25.115627,25.109123,25.103363,25.096485,25.087086,25.074461,25.058126,25.03754,25.012066,24.982609,24.950563,24.919777,24.894152,24.877178,24.873306,24.881006,24.896542,24.917965,24.945566,24.984447,25.036728,25.091774,25.137665,25.163609,25.170513,25.167145,25.1575,25.14367,25.126043,25.10843,25.093876,25.079418,25.059338,25.030325,24.996367,24.964573,24.941067,24.925049,24.912315,24.89996,24.885012,24.868431,24.849072,24.824978,24.796448,24.765976,24.73906,24.720898,24.713436,24.71482,24.719978,24.723793,24.724018,24.721092,24.716675,24.710487,24.700928,24.687088,24.670212,24.653215,24.635973,24.615482,24.588058,24.551018,24.507137,24.461035,24.417654,24.38031,24.347588,24.317743,24.289036,24.259026,24.228027,24.197182,24.167517,24.14053,24.11634,24.094261,24.072506,24.050274,24.027672,24.004887,23.983007,23.962646,23.943544,23.92493,23.905926,23.88611,23.865442,23.844715,23.824694,23.806957,23.793903,23.787174,23.788101,23.794243,23.803595,23.813206,23.821049,23.825113,23.82343,23.814987,23.79883,23.774696,23.743082,23.70695,23.6716,23.64019,23.615637,23.598686,23.588015,23.583178,23.579685,23.57378,23.564785,23.555119,23.548454,23.546778,23.547287,23.547422,23.546276,23.54372,23.537006,23.519266,23.486038,23.439564,23.386745,23.337393,23.29535,23.257471,23.218708,23.175499,23.130234,23.084541,23.039732,22.99759,22.958061,22.921513,22.889233,22.861067,22.83704,22.815868,22.795282,22.775736,22.757843,22.74282,22.729181,22.715197,22.699806,22.68455,22.67045,22.658287,22.646976,22.635279,22.62265,22.608795,22.59258,22.572933,22.549671,22.524364,22.498316,22.472355,22.4482,22.425503,22.404291,22.383904,22.3642,22.345211,22.327374,22.310238,22.292974,22.2751,22.257132,22.23869,22.219143,22.197575,22.174347,22.14991
22.20548,22.201334,22.19479,22.18552,22.172852,22.157133,22.138672,22.117998,22.097176,22.075653,22.053602,22.032667,22.015842,22.005379,22.001125,22.00326,22.007465,22.01098,22.008293,22.000408,21.993378,21.981129,21.965439,21.950237,21.939949,21.937962,21.943977,21.956593,21.976831,22.006443,22.050755,22.109364,22.182892,22.262276,22.343998,22.422558,22.487848,22.538948,22.581615,22.62363,22.67018,22.719383,22.7664,22.80188,22.822662,22.829395,22.824564,22.816406,22.815102,22.81572,22.8101,22.788681,22.75233,22.73339,22.772938,22.882854,23.022633,23.143929,23.256592,23.459293,23.876389,24.487091,25.260502,26.225075,26.775177,26.862946,26.822304,26.634949,26.425135,26.32122,26.266336,26.226475,26.1878,26.1405,26.089428,26.044067,26.009914,25.98265,25.956308,25.927301,25.891829,25.855125,25.820126,25.7893,25.75766,25.725273,25.691933,25.659548,25.627756,25.596344,25.564198,25.530663,25.496758,25.46369,25.432081,25.398891,25.36375,25.32791,25.292252,25.25622,25.221296,25.188194,25.160137,25.13792,25.119438,25.102118,25.08334,25.063328,25.043373,25.025425,25.010784,24.998148,24.985447,24.969887,24.949856,24.927227,24.905243,24.886803,24.871471,24.857492,24.843058,24.82612,24.805832,24.7821,24.755697,24.728527,24.703058,24.681463,24.664286,24.651272,24.641623,24.634628,24.628826,24.622766,24.614944,24.60435,24.590328,24.572365,24.549482,24.522526,24.493027,24.46464,24.440748,24.424107,24.418667,24.423443,24.436161,24.454834,24.478506,24.510406,24.552471,24.597168,24.63561,24.658133,24.663507,24.657177,24.643154,24.625,24.60457,24.585745,24.570505,24.556028,24.538015,24.514462,24.48885,24.466518,24.45147,24.441967,24.433868,24.424738,24.412106,24.39753,24.380459,24.359406,24.334755,24.30822,24.28453,24.26823,24.260872,24.260485,24.262323,24.26173,24.256851,24.248524,24.238487,24.226814,24.211937,24.193054,24.171196,24.149223,24.127663,24.104122,24.075722,24.04061,24.001438,23.962173,23.926523,23.896336,23.869846,23.845592,23.822165,23.79718,23.770508,23.743168,23.716309,23.691895,23.670229,23.650549,23.63126,23.611778,23.592308,23.57285,23.554096,23.536366,23.519432,23.502611,23.485012,23.466255,23.446388,23.426329,23.406847,23.389404,23.376133,23.368614,23.368065,23.372293,23.379444,23.386955,23.393078,23.395844,23.393333,23.384418,23.368261,23.344894,23.315195,23.282106,23.25055,23.223423,23.20327,23.19115,23.18557,23.185888,23.187222,23.185787,23.181068,23.175678,23.172895,23.17389,23.17548,23.174751,23.171104,23.164555,23.152674,23.12938,23.090693,23.040054,22.984627,22.93451,22.89302,22.855846,22.817743,22.774654,22.729485,22.684198,22.640472,22.60006,22.562954,22.529732,22.501268,22.477184,22.4572,22.439796,22.42246,22.405518,22.389309,22.374985,22.361387,22.34653,22.329681,22.31234,22.29596,22.281593,22.26847,22.25562,22.242872,22.23016,22.216448,22.200382,22.181492,22.1608,22.139212,22.117046,22.0955,22.074446,22.05402,22.033886,22.013908,21.994255,21.975433,21.957312,21.939392,21.921284,21.90343,21.885685,21.867477,21.847818,21.826681,21.803955
22.210651,22.206264,22.199413,22.189411,22.176067,22.1605,22.143034,22.12447,22.107334,22.090513,22.074417,22.0598,22.048626,22.040863,22.036465,22.03602,22.036243,22.035841,22.030071,22.021122,22.01512,22.00711,21.997665,21.986881,21.97935,21.98085,21.988794,22.000761,22.01768,22.042076,22.081364,22.137157,22.210548,22.290356,22.371761,22.446274,22.509071,22.563614,22.614468,22.665596,22.719524,22.771301,22.816504,22.84943,22.868063,22.875294,22.876602,22.869774,22.867794,22.867271,22.860397,22.845146,22.818554,22.809006,22.851559,22.95441,23.085417,23.207481,23.334871,23.550262,23.912582,24.4459,25.092264,25.812435,26.237055,26.31237,26.158371,25.967651,25.84019,25.777218,25.731491,25.691236,25.65118,25.606888,25.562363,25.522243,25.487206,25.45702,25.428713,25.398842,25.363842,25.328457,25.295536,25.267006,25.237617,25.206999,25.175175,25.14402,25.113234,25.08244,25.050331,25.016281,24.981634,24.947662,24.915066,24.88116,24.845505,24.80949,24.77414,24.738913,24.704979,24.673035,24.64621,24.625393,24.608921,24.59423,24.578701,24.562061,24.545197,24.529535,24.516262,24.504776,24.49368,24.480684,24.464195,24.445608,24.427597,24.412691,24.400463,24.38911,24.376999,24.362385,24.34457,24.323189,24.298836,24.273006,24.248257,24.227005,24.209946,24.196707,24.186485,24.178818,24.172508,24.166513,24.159388,24.14989,24.13741,24.121532,24.10125,24.077282,24.051243,24.02625,24.004967,23.989073,23.981617,23.982212,23.990114,24.00399,24.022411,24.046988,24.079016,24.11311,24.142757,24.159962,24.16238,24.153057,24.135696,24.114567,24.092588,24.07354,24.058716,24.045395,24.030365,24.01252,23.994747,23.980778,23.972843,23.968529,23.96397,23.957375,23.946865,23.934422,23.919914,23.902248,23.881748,23.859472,23.839243,23.824652,23.816643,23.813255,23.810467,23.804508,23.7942,23.780682,23.765656,23.749378,23.730513,23.708471,23.684174,23.660221,23.63739,23.613571,23.586252,23.554049,23.519238,23.485355,23.455307,23.430151,23.408154,23.388206,23.369118,23.348633,23.326202,23.302597,23.279068,23.257713,23.239008,23.222248,23.206036,23.189907,23.173908,23.157837,23.142078,23.126837,23.11194,23.096813,23.080585,23.062998,23.044083,23.024878,23.0061,22.989006,22.975513,22.967041,22.964676,22.966461,22.97072,22.975319,22.97894,22.979752,22.976017,22.966614,22.950909,22.929237,22.902706,22.874092,22.847603,22.825768,22.810686,22.803638,22.803076,22.80806,22.81353,22.81562,22.814,22.811367,22.810753,22.812733,22.813957,22.81123,22.80417,22.792961,22.775433,22.746578,22.703005,22.649254,22.592602,22.54314,22.50349,22.468063,22.431353,22.388931,22.34441,22.300274,22.258595,22.220932,22.187088,22.157661,22.133093,22.112854,22.096287,22.081692,22.066603,22.051245,22.036003,22.022015,22.008385,21.992962,21.975235,21.956572,21.938774,21.923027,21.908833,21.895454,21.882992,21.871496,21.859997,21.846996,21.831863,21.815186,21.797531,21.778816,21.7598,21.74052,21.721123,21.701622,21.681837,21.662046,21.642733,21.623901,21.605366,21.586754,21.568554,21.550898,21.533276,21.514719,21.494871,21.47316
22.224815,22.219526,22.211487,22.200146,22.186182,22.171337,22.155785,22.139328,22.124443,22.1097,22.096214,22.084763,22.076847,22.071468,22.068222,22.06791,22.067192,22.064838,22.05606,22.043633,22.034168,22.023422,22.013145,22.008175,22.009996,22.018297,22.029182,22.040768,22.055845,22.077736,22.114487,22.168894,22.241558,22.318802,22.39648,22.472834,22.54067,22.60109,22.658733,22.715816,22.774288,22.83181,22.881496,22.915152,22.931713,22.934587,22.929546,22.923409,22.919758,22.918633,22.917923,22.91802,22.907047,22.911863,22.96158,23.059212,23.180449,23.299038,23.426876,23.611778,23.929447,24.387882,24.897041,25.39584,25.63454,25.622269,25.49752,25.383646,25.316944,25.271011,25.23162,25.19305,25.152317,25.107498,25.06305,25.022049,24.986065,24.954853,24.925934,24.896622,24.8634,24.830465,24.80043,24.774647,24.74766,24.71875,24.688023,24.657387,24.62662,24.595415,24.562366,24.527092,24.49121,24.45622,24.42286,24.388687,24.353062,24.317406,24.28291,24.249046,24.21663,24.186222,24.160637,24.140816,24.125486,24.112156,24.098438,24.083717,24.068718,24.054495,24.042065,24.03122,24.02105,24.009722,23.995865,23.980408,23.96546,23.953117,23.94288,23.933117,23.92242,23.909342,23.89345,23.874203,23.851978,23.82801,23.804794,23.784834,23.768833,23.75625,23.746181,23.73824,23.731602,23.725462,23.718483,23.709478,23.697964,23.68376,23.666016,23.64539,23.623463,23.602634,23.584854,23.5708,23.562431,23.559757,23.563126,23.572098,23.585556,23.603985,23.627949,23.653505,23.675774,23.688366,23.688534,23.677498,23.658512,23.63592,23.61325,23.594143,23.579489,23.566753,23.553585,23.539444,23.526669,23.517708,23.513466,23.511265,23.507801,23.501957,23.492329,23.48108,23.4682,23.452797,23.435328,23.416485,23.399183,23.386038,23.37729,23.370949,23.36393,23.353468,23.339106,23.322205,23.304174,23.28529,23.264404,23.241137,23.216341,23.192398,23.170078,23.147434,23.12226,23.093388,23.062593,23.033085,23.007221,22.985691,22.966991,22.950266,22.934505,22.917738,22.899164,22.879238,22.859207,22.841,22.825226,22.811317,22.797997,22.78484,22.771744,22.758312,22.744804,22.731438,22.718143,22.704506,22.68972,22.673538,22.655945,22.637987,22.62025,22.603802,22.590414,22.581295,22.577374,22.576897,22.578327,22.579979,22.580967,22.579735,22.574732,22.564953,22.54998,22.53038,22.507355,22.4833,22.461658,22.444508,22.43359,22.430563,22.433846,22.442322,22.450851,22.455399,22.455751,22.454556,22.454689,22.45649,22.456707,22.451857,22.441566,22.426031,22.403301,22.369728,22.322557,22.2672,22.211042,22.16375,22.127207,22.09451,22.059853,22.018522,21.974827,21.932129,21.892765,21.858232,21.828014,21.802486,21.78157,21.764557,21.750511,21.737621,21.72374,21.70915,21.694397,21.680637,21.667233,21.651957,21.634342,21.61558,21.59755,21.581406,21.566933,21.553566,21.541489,21.530903,21.520887,21.509914,21.497272,21.483309,21.4684,21.452215,21.435215,21.417505,21.39919,21.380434,21.361092,21.341484,21.322079,21.302921,21.283997,21.264967,21.24644,21.228764,21.211504,21.19373,21.17488,21.153982
22.248451,22.241447,22.231396,22.218224,22.203493,22.189362,22.175621,22.161152,22.148495,22.136322,22.126368,22.119646,22.116838,22.115273,22.1142,22.113937,22.111694,22.106613,22.09447,22.078758,22.066261,22.05346,22.04222,22.03687,22.038511,22.046616,22.05503,22.062485,22.072748,22.09092,22.12609,22.180634,22.254623,22.33738,22.423286,22.507458,22.582647,22.650826,22.716581,22.781746,22.847496,22.910395,22.962454,22.995953,23.010822,23.010914,23.002163,22.990767,22.980167,22.971592,22.964024,22.964516,22.974697,23.003681,23.064878,23.155224,23.25975,23.364689,23.481102,23.65157,23.929417,24.299065,24.66984,24.973965,25.077253,25.021458,24.936916,24.875813,24.82647,24.792112,24.756145,24.716486,24.673756,24.627869,24.5831,24.541943,24.505583,24.473984,24.445229,24.417248,24.38653,24.35662,24.3298,24.306906,24.282326,24.25502,24.225143,24.194569,24.163227,24.131126,24.096834,24.060282,24.023312,23.987564,23.953846,23.919958,23.885082,23.850527,23.817482,23.785446,23.754848,23.726112,23.701756,23.682636,23.667929,23.655224,23.642384,23.62862,23.614685,23.601402,23.589573,23.579147,23.569435,23.558964,23.546629,23.533066,23.519947,23.509026,23.499786,23.490788,23.480867,23.4688,23.454403,23.43711,23.41713,23.395538,23.3746,23.35674,23.342537,23.331245,23.321812,23.313871,23.306965,23.300484,23.293339,23.284527,23.273712,23.26085,23.245365,23.227825,23.209766,23.192905,23.178673,23.166946,23.158684,23.153973,23.153715,23.158289,23.16705,23.179956,23.196983,23.215199,23.231052,23.23955,23.237991,23.226334,23.20729,23.18499,23.163094,23.144922,23.13095,23.118856,23.106869,23.094788,23.084515,23.077633,23.07438,23.07221,23.06844,23.062418,23.053085,23.042505,23.030636,23.016647,23.00113,22.984543,22.969074,22.956533,22.9467,22.937706,22.927282,22.913513,22.89651,22.877731,22.85828,22.838406,22.817059,22.793995,22.770046,22.747225,22.726223,22.705322,22.682625,22.657106,22.630096,22.60442,22.582047,22.563484,22.547432,22.533287,22.520061,22.506134,22.490688,22.473938,22.457104,22.44175,22.428577,22.417099,22.406092,22.395212,22.38419,22.372583,22.360563,22.348408,22.336193,22.323723,22.310314,22.2957,22.27974,22.2633,22.246815,22.23125,22.218216,22.208735,22.203636,22.201256,22.200243,22.199324,22.197966,22.194983,22.189072,22.179348,22.165527,22.148306,22.128716,22.108767,22.091263,22.077896,22.07024,22.070301,22.076488,22.087584,22.098476,22.104906,22.106604,22.106049,22.106016,22.106869,22.105488,22.098257,22.08472,22.065296,22.038437,22.001898,21.953354,21.898392,21.84436,21.80015,21.767172,21.737488,21.704914,21.664642,21.62151,21.579956,21.54263,21.51109,21.484386,21.462524,21.444782,21.43029,21.417957,21.40592,21.392551,21.378176,21.363556,21.34996,21.336954,21.322414,21.305721,21.28785,21.270523,21.254757,21.240582,21.227554,21.215862,21.20575,21.19635,21.186268,21.174828,21.162247,21.148844,21.134178,21.118687,21.102337,21.085106,21.067127,21.048302,21.029022,21.009808,20.990705,20.971811,20.952564,20.933653,20.91588,20.898829,20.881584,20.863392,20.843132
22.285378,22.276018,22.263523,22.248478,22.233044,22.219536,22.207329,22.19455,22.183731,22.173977,22.167234,22.165064,22.167149,22.169096,22.169971,22.169083,22.164703,22.156353,22.14095,22.122482,22.107384,22.092655,22.080162,22.074461,22.07605,22.083363,22.08813,22.088997,22.091923,22.104376,22.137941,22.195553,22.276533,22.368149,22.464024,22.558512,22.64296,22.719414,22.79202,22.862558,22.931923,22.99665,23.048124,23.079668,23.092442,23.090454,23.079306,23.064568,23.048483,23.03323,23.019464,23.018127,23.031334,23.068127,23.137043,23.230446,23.333462,23.432869,23.537846,23.681269,23.897987,24.166252,24.406952,24.559544,24.576164,24.518436,24.458103,24.410854,24.375832,24.345963,24.308792,24.265856,24.220259,24.172768,24.127243,24.085524,24.048674,24.016766,23.988352,23.961918,23.933687,23.906729,23.882853,23.862484,23.840008,23.814156,23.784973,23.754398,23.722502,23.68972,23.654745,23.617752,23.58063,23.544987,23.511757,23.479006,23.445848,23.413343,23.382544,23.352797,23.32434,23.297424,23.2743,23.255787,23.241356,23.228842,23.21635,23.203058,23.189781,23.177225,23.16593,23.155756,23.146042,23.135536,23.123436,23.11037,23.097662,23.086906,23.077759,23.068947,23.059448,23.04815,23.035,23.019485,23.001781,22.982822,22.964603,22.949293,22.937262,22.927517,22.918854,22.91093,22.903671,22.896748,22.88942,22.880827,22.870716,22.859056,22.845438,22.830368,22.815361,22.801676,22.790443,22.78107,22.77375,22.768425,22.76585,22.76681,22.771046,22.77855,22.788996,22.800362,22.81022,22.814774,22.811825,22.800564,22.783113,22.763103,22.743767,22.727844,22.715364,22.704178,22.692917,22.681541,22.671738,22.664768,22.660784,22.657732,22.653412,22.64738,22.638569,22.628698,22.61753,22.604279,22.589554,22.573633,22.558289,22.544956,22.53334,22.5219,22.508953,22.493183,22.474966,22.45567,22.43615,22.416664,22.396158,22.374422,22.35215,22.330887,22.311255,22.291855,22.271244,22.248646,22.225067,22.202934,22.183895,22.168243,22.15472,22.14286,22.131754,22.120014,22.106968,22.092697,22.078379,22.065292,22.054081,22.04432,22.03483,22.02538,22.01562,22.005116,21.993988,21.982548,21.971071,21.959545,21.947468,21.934515,21.920355,21.905594,21.89043,21.875774,21.863173,21.853573,21.847633,21.843811,21.840982,21.838175,21.835157,21.831081,21.82488,21.815786,21.803505,21.788609,21.77189,21.755066,21.740625,21.730055,21.724815,21.72718,21.735481,21.748564,21.761444,21.769562,21.772545,21.772408,21.77185,21.77137,21.768044,21.758257,21.741623,21.719154,21.689901,21.652782,21.605442,21.55281,21.50198,21.46093,21.43106,21.403877,21.372898,21.33331,21.290392,21.249687,21.213968,21.184946,21.161257,21.142418,21.127167,21.114456,21.103146,21.091509,21.078363,21.064041,21.049381,21.035812,21.023254,21.009752,20.99443,20.978043,20.961948,20.94706,20.933565,20.920992,20.909542,20.89952,20.890083,20.879967,20.868586,20.856182,20.843147,20.829062,20.814487,20.799206,20.782888,20.765549,20.747149,20.728233,20.709179,20.690052,20.671135,20.651543,20.63208,20.614101,20.597166,20.580294,20.562595,20.54291
22.33361,22.322506,22.308426,22.29245,22.276857,22.263968,22.252752,22.240887,22.230743,22.2221,22.216827,22.21722,22.221943,22.225172,22.226057,22.222614,22.214565,22.201904,22.183117,22.162598,22.146015,22.130484,22.117725,22.112377,22.114235,22.120605,22.12125,22.115196,22.111359,22.11944,22.153114,22.215235,22.304012,22.405369,22.512253,22.617653,22.711048,22.794312,22.87098,22.94305,23.011486,23.073221,23.119894,23.146675,23.156136,23.152214,23.13986,23.123398,23.103964,23.08398,23.06558,23.06318,23.080778,23.12606,23.200996,23.29317,23.38753,23.472004,23.553898,23.657745,23.803947,23.969343,24.096798,24.148209,24.118645,24.057995,24.00588,23.971764,23.944294,23.9147,23.874844,23.828949,23.781368,23.732944,23.686836,23.644508,23.607002,23.574516,23.546059,23.520626,23.494127,23.46931,23.447487,23.428753,23.40775,23.383095,23.354832,23.324825,23.293251,23.260883,23.226597,23.190647,23.154768,23.120434,23.08866,23.057829,23.027046,22.997112,22.968876,22.941528,22.91523,22.890099,22.8682,22.850262,22.836075,22.82371,22.811504,22.798656,22.785957,22.774143,22.763485,22.753666,22.744007,22.733343,22.721142,22.708097,22.695295,22.684336,22.67503,22.666262,22.657085,22.646397,22.634266,22.620285,22.604637,22.588223,22.57267,22.559822,22.549812,22.541357,22.533203,22.52507,22.517214,22.509605,22.501923,22.493519,22.48417,22.473804,22.462093,22.449469,22.437302,22.426542,22.418026,22.410944,22.404886,22.399488,22.395124,22.392834,22.392796,22.395338,22.400063,22.405642,22.41037,22.411383,22.40707,22.396202,22.380436,22.362919,22.346191,22.332432,22.321213,22.310524,22.299318,22.287645,22.277023,22.268696,22.263016,22.258493,22.253365,22.247187,22.238789,22.229496,22.21893,22.206324,22.19216,22.17656,22.160988,22.146694,22.13358,22.120502,22.106218,22.089783,22.071568,22.052807,22.034145,22.01578,21.996735,21.97676,21.956438,21.936914,21.91874,21.900867,21.882303,21.862478,21.842205,21.823467,21.807598,21.794683,21.783508,21.773697,21.764364,21.754377,21.743143,21.730682,21.718105,21.706446,21.6963,21.687271,21.678345,21.669382,21.660072,21.650005,21.639294,21.628233,21.617249,21.6065,21.595695,21.584385,21.572025,21.558922,21.545086,21.531342,21.519241,21.509676,21.50319,21.498363,21.494263,21.490122,21.485939,21.481155,21.474937,21.466656,21.455938,21.443138,21.428795,21.414392,21.402298,21.393929,21.390633,21.39476,21.404547,21.418959,21.433235,21.442553,21.44637,21.44622,21.444792,21.44277,21.437431,21.425295,21.405998,21.381308,21.35107,21.315102,21.270918,21.222227,21.175594,21.13787,21.11089,21.085835,21.055996,21.016739,20.973728,20.933468,20.898817,20.87178,20.85059,20.834148,20.82072,20.809124,20.798306,20.786762,20.773706,20.75937,20.744644,20.731262,20.719233,20.706825,20.692883,20.677711,20.662735,20.64866,20.635803,20.623585,20.612211,20.602077,20.59236,20.581875,20.570091,20.557383,20.5443,20.53064,20.517035,20.502934,20.487598,20.470854,20.452744,20.433956,20.414703,20.395157,20.375607,20.355972,20.337141,20.319649,20.30297,20.286411,20.269337,20.25071
22.386337,22.375267,22.361877,22.347794,22.335217,22.325706,22.316936,22.305601,22.29463,22.284954,22.277952,22.277094,22.280216,22.280764,22.278141,22.269442,22.255877,22.238033,22.21617,22.19497,22.178978,22.164814,22.1539,22.150614,22.154045,22.160267,22.157288,22.145164,22.135887,22.141197,22.176193,22.243305,22.339508,22.449722,22.56631,22.680561,22.780046,22.86642,22.942595,23.010916,23.07264,23.125446,23.16238,23.181086,23.18541,23.178938,23.165924,23.14936,23.12941,23.108036,23.088215,23.085932,23.106703,23.156586,23.231176,23.314331,23.390541,23.4493,23.497158,23.552559,23.627007,23.701834,23.741413,23.72914,23.67634,23.615826,23.573277,23.546572,23.521088,23.489258,23.447197,23.400219,23.352661,23.304749,23.258884,23.216398,23.178333,23.145191,23.116396,23.091444,23.066036,23.042645,23.022106,23.00435,22.984358,22.960865,22.933949,22.905329,22.875143,22.844435,22.812279,22.778818,22.74546,22.713501,22.68406,22.655748,22.627716,22.6006,22.574944,22.549896,22.525623,22.502144,22.481403,22.464058,22.450153,22.43805,22.426228,22.41396,22.40197,22.39096,22.381004,22.371632,22.362164,22.351528,22.339317,22.32633,22.313427,22.30226,22.292812,22.284092,22.275215,22.265053,22.253767,22.24113,22.227346,22.213333,22.200333,22.18974,22.181423,22.17393,22.165997,22.157402,22.14869,22.140118,22.131756,22.123299,22.114513,22.10528,22.09526,22.0848,22.075077,22.066736,22.060421,22.055223,22.050282,22.044962,22.03917,22.034071,22.03038,22.028828,22.028961,22.029781,22.030113,22.027706,22.021576,22.010445,21.995684,21.980019,21.965256,21.953049,21.94252,21.93187,21.920288,21.907776,21.895748,21.88551,21.877739,21.871458,21.865328,21.858803,21.850704,21.841991,21.832153,21.820429,21.807064,21.792,21.776484,21.761696,21.747875,21.734344,21.72018,21.70453,21.687641,21.67051,21.653538,21.636864,21.619606,21.601566,21.583252,21.56551,21.548786,21.53239,21.515669,21.498291,21.480968,21.465214,21.45202,21.44138,21.432194,21.424057,21.416203,21.407593,21.39775,21.38659,21.375029,21.36396,21.353994,21.344795,21.335579,21.326351,21.316843,21.306732,21.296104,21.285225,21.27458,21.264479,21.254787,21.244951,21.234213,21.222557,21.209839,21.196926,21.185247,21.17574,21.168839,21.163288,21.158306,21.153255,21.148237,21.142944,21.136772,21.129234,21.119877,21.108849,21.09644,21.084038,21.074009,21.067734,21.066338,21.072115,21.08315,21.098503,21.113766,21.123798,21.128017,21.127354,21.1245,21.120739,21.113533,21.099424,21.07811,21.05209,21.022146,20.988796,20.949282,20.905804,20.863823,20.829361,20.804646,20.780926,20.75154,20.712225,20.668732,20.628168,20.594467,20.56955,20.550333,20.535446,20.52304,20.511932,20.501303,20.48985,20.477013,20.462467,20.447506,20.434053,20.42221,20.410545,20.397575,20.383236,20.369091,20.355713,20.343422,20.331657,20.320354,20.309738,20.299206,20.288128,20.2759,20.262835,20.249748,20.236568,20.224125,20.211414,20.197243,20.18114,20.16315,20.144363,20.12546,20.106659,20.08787,20.068924,20.050627,20.03337,20.01662,19.99995,19.983013,19.965034
22.4418,22.43304,22.422852,22.413342,22.406551,22.402351,22.396713,22.385643,22.372826,22.360777,22.349836,22.343273,22.339603,22.332794,22.322834,22.306332,22.285704,22.262203,22.237663,22.21687,22.203047,22.191948,22.18448,22.184448,22.190342,22.19733,22.192274,22.176579,22.164711,22.169716,22.206932,22.278198,22.379208,22.49438,22.615341,22.731796,22.829922,22.91158,22.979206,23.035748,23.083012,23.119946,23.142303,23.150503,23.148697,23.139927,23.127571,23.11357,23.097387,23.080055,23.06406,23.064405,23.087067,23.13576,23.201305,23.26582,23.314445,23.339226,23.34773,23.355047,23.368563,23.376225,23.359175,23.312857,23.25063,23.195362,23.15926,23.13477,23.10772,23.07294,23.029655,22.98296,22.936508,22.88995,22.844986,22.802916,22.764753,22.73124,22.702179,22.677486,22.652664,22.629976,22.609888,22.592262,22.572695,22.550116,22.524689,22.497927,22.46988,22.441586,22.412308,22.382065,22.351934,22.322968,22.296398,22.270935,22.245773,22.22141,22.198137,22.175201,22.152805,22.130873,22.111298,22.094584,22.081024,22.069206,22.057796,22.04615,22.034855,22.024586,22.015287,22.006382,21.997303,21.986996,21.975182,21.96257,21.949821,21.938622,21.92907,21.920366,21.911713,21.90197,21.891384,21.879925,21.86783,21.855972,21.845226,21.83656,21.829567,21.822678,21.814754,21.805613,21.795996,21.786385,21.777172,21.768393,21.759823,21.75131,21.742489,21.733624,21.725723,21.719265,21.71476,21.7113,21.707752,21.703148,21.697025,21.690495,21.684685,21.680601,21.677776,21.675323,21.672459,21.66737,21.659601,21.647957,21.633457,21.618534,21.60443,21.59239,21.581299,21.569498,21.556412,21.542007,21.527658,21.514751,21.504217,21.495523,21.48777,21.480394,21.472359,21.46429,21.45542,21.44498,21.432884,21.418976,21.4043,21.390049,21.376755,21.364029,21.351181,21.337395,21.322731,21.307934,21.293173,21.278534,21.263176,21.24702,21.230595,21.214527,21.199207,21.184156,21.169018,21.153645,21.138706,21.125324,21.11418,21.105251,21.097515,21.090654,21.083935,21.076431,21.067719,21.057545,21.046562,21.035551,21.025139,21.015162,21.00516,20.995197,20.985126,20.974688,20.96394,20.953094,20.942722,20.9332,20.924513,20.916021,20.906784,20.896454,20.88479,20.872627,20.861298,20.851765,20.844456,20.838272,20.832586,20.82683,20.821163,20.815407,20.809134,20.80212,20.79383,20.784195,20.773335,20.76259,20.754387,20.75019,20.750786,20.75834,20.77052,20.786499,20.802235,20.812313,20.816196,20.814255,20.809471,20.804066,20.795662,20.780617,20.758318,20.731995,20.703245,20.673206,20.638966,20.600883,20.563602,20.531773,20.50873,20.485943,20.45653,20.416307,20.371656,20.331041,20.298763,20.276339,20.259546,20.245914,20.234009,20.223265,20.212273,20.200172,20.187044,20.172127,20.156792,20.143166,20.131401,20.120289,20.108425,20.095917,20.083351,20.071201,20.059765,20.04845,20.037136,20.026068,20.014809,20.003078,19.99033,19.976871,19.963692,19.950726,19.939114,19.927559,19.914608,19.899513,19.88232,19.86427,19.846018,19.82785,19.809635,19.791162,19.77324,19.755945,19.738808,19.721628,19.704428,19.68674
22.503971,22.500751,22.496113,22.491419,22.487675,22.484135,22.478191,22.465729,22.449333,22.432718,22.415768,22.402035,22.390432,22.374546,22.354328,22.328667,22.30079,22.27203,22.245327,22.225658,22.214912,22.207855,22.204784,22.208588,22.21722,22.225662,22.22046,22.204365,22.19347,22.20092,22.240845,22.313553,22.411045,22.520817,22.636578,22.7463,22.834993,22.903622,22.95502,22.992586,23.018501,23.034256,23.038507,23.035128,23.02745,23.017254,23.006912,22.99789,22.98935,22.981045,22.973541,22.978489,23.000977,23.04197,23.089802,23.127491,23.142836,23.131464,23.103203,23.071968,23.043743,23.012207,22.967773,22.909428,22.848312,22.798016,22.763111,22.7356,22.70427,22.666555,22.623219,22.577927,22.533367,22.48889,22.44565,22.404964,22.367645,22.334509,22.305685,22.281374,22.256992,22.234547,22.214333,22.196217,22.176533,22.154518,22.130424,22.105598,22.079916,22.054327,22.028137,22.00129,21.974627,21.948957,21.925419,21.902824,21.880379,21.858532,21.837372,21.816349,21.795723,21.775373,21.75705,21.741135,21.727997,21.716522,21.70554,21.694494,21.683813,21.674114,21.665272,21.656698,21.648,21.638214,21.627068,21.615105,21.602749,21.591667,21.582092,21.573471,21.56506,21.5558,21.545946,21.53563,21.525085,21.51516,21.50638,21.499332,21.49339,21.486965,21.47905,21.469547,21.459248,21.448809,21.438807,21.429577,21.420902,21.412586,21.404217,21.39597,21.388817,21.38327,21.379845,21.377674,21.375494,21.372059,21.36665,21.360252,21.354183,21.349434,21.345531,21.341536,21.33695,21.330273,21.321339,21.30902,21.29392,21.278313,21.263119,21.249437,21.236172,21.221828,21.205997,21.188696,21.171345,21.155323,21.141678,21.1302,21.120424,21.111845,21.103722,21.096409,21.088827,21.08013,21.069878,21.057934,21.0452,21.032795,21.021374,21.010666,21.000072,20.9888,20.976799,20.96458,20.952156,20.939514,20.925882,20.91133,20.896461,20.881828,20.867767,20.853907,20.840107,20.826416,20.813356,20.801764,20.79219,20.784534,20.777866,20.771923,20.766043,20.759438,20.751621,20.742207,20.731522,20.720222,20.709045,20.698002,20.68703,20.67622,20.665491,20.654655,20.643738,20.632929,20.62281,20.613785,20.605984,20.598656,20.590729,20.581585,20.570816,20.559225,20.548126,20.53854,20.53093,20.524284,20.518085,20.511793,20.505535,20.499277,20.49276,20.485977,20.478424,20.469852,20.460281,20.45099,20.44448,20.44236,20.44518,20.454773,20.468378,20.484875,20.50062,20.510117,20.5129,20.509117,20.502691,20.496147,20.487179,20.47245,20.450687,20.42523,20.398222,20.371395,20.341976,20.308453,20.274136,20.243866,20.221926,20.199749,20.169779,20.128431,20.083263,20.044018,20.013536,19.99287,19.978146,19.965828,19.954315,19.943363,19.931606,19.918564,19.904745,19.890072,19.875465,19.86253,19.851372,19.841183,19.830574,19.819437,19.808159,19.797031,19.786339,19.775414,19.7641,19.752645,19.740814,19.728676,19.715666,19.702044,19.68887,19.676128,19.665207,19.654655,19.642824,19.628792,19.612541,19.595385,19.57787,19.560375,19.542686,19.52458,19.506832,19.489325,19.471592,19.45367,19.435944,19.418121
22.56791,22.571276,22.572464,22.572058,22.570297,22.566479,22.557255,22.537033,22.510536,22.483475,22.457127,22.436195,22.417648,22.395073,22.368454,22.336094,22.300161,22.268032,22.240646,22.222454,22.214275,22.210459,22.21075,22.21714,22.227356,22.236801,22.232613,22.218784,22.210312,22.219994,22.260101,22.32687,22.412651,22.509167,22.611687,22.707363,22.780136,22.828531,22.858643,22.873724,22.875156,22.868065,22.854774,22.84077,22.82827,22.817385,22.809345,22.805416,22.804525,22.8052,22.805367,22.812708,22.830982,22.858696,22.884449,22.894215,22.879528,22.839508,22.785807,22.731266,22.681267,22.633083,22.580795,22.523228,22.46767,22.421032,22.384401,22.351498,22.315098,22.274704,22.231693,22.18819,22.145914,22.104073,22.063408,22.02509,21.989605,21.957712,21.92974,21.906006,21.88198,21.859447,21.838627,21.819567,21.799305,21.777464,21.754402,21.731277,21.707808,21.684736,21.661432,21.637737,21.614292,21.591702,21.570972,21.550978,21.531023,21.511518,21.492443,21.47343,21.45478,21.436293,21.41962,21.404964,21.392654,21.381844,21.371494,21.361132,21.35102,21.341614,21.332764,21.323986,21.315132,21.305367,21.294422,21.282644,21.270231,21.258907,21.248993,21.24035,21.232265,21.223755,21.215027,21.206284,21.197636,21.18988,21.1832,21.177845,21.173035,21.167257,21.159676,21.150288,21.139893,21.129124,21.118658,21.10899,21.099895,21.091099,21.082174,21.073118,21.064924,21.05832,21.054,21.051346,21.04909,21.045914,21.040987,21.03508,21.029488,21.024862,21.020638,21.015812,21.01012,21.00242,20.99271,20.979874,20.964088,20.94738,20.930592,20.914766,20.89898,20.881943,20.86345,20.843674,20.824055,20.805908,20.790207,20.776888,20.765823,20.756634,20.748882,20.742718,20.736757,20.730087,20.721947,20.712254,20.701876,20.69178,20.682653,20.674229,20.665966,20.657135,20.647583,20.637684,20.627281,20.616259,20.60394,20.590544,20.576786,20.563221,20.550093,20.53712,20.524323,20.511906,20.50028,20.490112,20.481781,20.475079,20.469177,20.463873,20.458637,20.452698,20.445522,20.43665,20.42611,20.414476,20.402582,20.390629,20.378857,20.367447,20.35632,20.345324,20.334429,20.323776,20.313927,20.305315,20.29816,20.2916,20.284527,20.276134,20.265923,20.254765,20.243866,20.234306,20.226254,20.21902,20.212275,20.205414,20.198536,20.191711,20.184872,20.178173,20.171112,20.163332,20.154903,20.147364,20.14335,20.144466,20.149733,20.161413,20.176575,20.193684,20.209274,20.21794,20.219666,20.215042,20.208084,20.201393,20.1929,20.179111,20.157509,20.132338,20.10717,20.083986,20.058716,20.028728,19.996315,19.967693,19.945572,19.922417,19.891344,19.849949,19.805593,19.76751,19.738337,19.718605,19.704111,19.692186,19.68047,19.668356,19.656225,19.643677,19.630741,19.616882,19.602814,19.59018,19.57931,19.569742,19.560123,19.550219,19.540215,19.530102,19.519978,19.509392,19.498188,19.486612,19.474566,19.462399,19.449507,19.43605,19.42306,19.41053,19.399973,19.389923,19.378727,19.365421,19.34988,19.333492,19.316698,19.299923,19.282887,19.265282,19.247898,19.230022,19.21133,19.192265,19.173565,19.155184
22.614132,22.622513,22.628712,22.632515,22.633934,22.629854,22.615005,22.585106,22.54765,22.51034,22.474648,22.444832,22.417583,22.388092,22.357203,22.320484,22.279728,22.244518,22.216856,22.200012,22.194363,22.191408,22.192749,22.199371,22.209225,22.218212,22.213673,22.201702,22.196592,22.208633,22.246933,22.301918,22.374619,22.455544,22.539175,22.613144,22.659893,22.682543,22.687084,22.676073,22.653255,22.625301,22.597889,22.575912,22.559982,22.548868,22.542707,22.542469,22.546925,22.553482,22.55745,22.563255,22.573269,22.584837,22.588783,22.57518,22.539295,22.482866,22.417938,22.355627,22.300594,22.251526,22.203136,22.152683,22.103804,22.059292,22.019503,21.980856,21.939922,21.897566,21.855232,21.813744,21.774094,21.735378,21.698036,21.662964,21.630234,21.600368,21.573797,21.55077,21.52697,21.504002,21.4822,21.461843,21.440636,21.418634,21.396332,21.374844,21.353565,21.332928,21.312386,21.291674,21.27119,21.251377,21.233076,21.215258,21.19742,21.180023,21.163006,21.146133,21.129677,21.1132,21.097954,21.084347,21.07267,21.062288,21.052269,21.042198,21.032253,21.02274,21.013443,21.003994,20.994476,20.984104,20.972683,20.960464,20.947613,20.936066,20.92611,20.917923,20.910812,20.903923,20.897251,20.89026,20.88367,20.878092,20.87341,20.869587,20.865788,20.86068,20.85362,20.844753,20.834425,20.82393,20.813286,20.803211,20.793512,20.783829,20.77362,20.762768,20.7522,20.742907,20.73589,20.730904,20.726847,20.722466,20.717,20.711025,20.705585,20.700907,20.696205,20.69051,20.683857,20.675528,20.665504,20.652687,20.636848,20.61958,20.601711,20.58419,20.566406,20.54737,20.527134,20.506153,20.485863,20.467432,20.45158,20.438122,20.427181,20.418556,20.412003,20.40735,20.403097,20.398367,20.39224,20.384672,20.37653,20.368597,20.361511,20.354969,20.348507,20.341476,20.333715,20.325481,20.316406,20.306313,20.294685,20.281906,20.26875,20.255808,20.243242,20.23085,20.218723,20.207165,20.196583,20.18747,20.180065,20.174057,20.168694,20.163797,20.158936,20.153408,20.146637,20.138123,20.127659,20.11575,20.10336,20.09095,20.078886,20.067417,20.056435,20.045586,20.034721,20.024326,20.014729,20.006311,19.99929,19.992846,19.985905,19.977583,19.967402,19.956158,19.94504,19.935135,19.926651,19.919022,19.911945,19.904762,19.897549,19.89035,19.88324,19.876507,19.869682,19.862438,19.855,19.849258,19.847954,19.852612,19.861553,19.8765,19.894093,19.911716,19.926994,19.935001,19.935818,19.929916,19.922699,19.916758,19.90947,19.896729,19.87581,19.851753,19.82898,19.809265,19.78761,19.760551,19.730904,19.703068,19.679882,19.655071,19.622559,19.580692,19.536655,19.499409,19.470575,19.450214,19.43523,19.422579,19.410124,19.397636,19.385506,19.373518,19.361515,19.348595,19.335178,19.322823,19.312138,19.302837,19.293758,19.284607,19.275444,19.266205,19.25683,19.246857,19.236118,19.224878,19.213148,19.201363,19.188839,19.175632,19.162716,19.150227,19.13972,19.129784,19.118845,19.105988,19.091,19.075304,19.059206,19.043068,19.02658,19.009382,18.992203,18.97411,18.95485,18.935009,18.91554,18.896784
22.60557,22.61485,22.62147,22.624767,22.624664,22.616686,22.596249,22.560757,22.517693,22.475407,22.435001,22.400936,22.369501,22.33553,22.30003,22.260788,22.22062,22.184608,22.157005,22.139013,22.132652,22.130772,22.132172,22.137463,22.14495,22.151594,22.147175,22.138325,22.138128,22.153109,22.188305,22.232086,22.288612,22.34863,22.408092,22.453077,22.471237,22.469223,22.447634,22.414474,22.374262,22.332819,22.296576,22.27013,22.252592,22.24146,22.236008,22.23674,22.242249,22.248983,22.250553,22.24983,22.248476,22.244038,22.230362,22.201397,22.155087,22.094349,22.029915,21.970325,21.919323,21.875774,21.834404,21.791477,21.74811,21.70506,21.663021,21.620724,21.577383,21.534506,21.4934,21.454199,21.417425,21.382133,21.348465,21.316929,21.287235,21.259615,21.234531,21.212112,21.188414,21.164946,21.142189,21.120674,21.098835,21.077026,21.055706,21.03528,21.015144,20.996468,20.978407,20.960499,20.94274,20.92548,20.909424,20.893513,20.877373,20.861614,20.846325,20.831438,20.817104,20.802668,20.789173,20.776972,20.766315,20.756756,20.747414,20.737843,20.728058,20.718113,20.70782,20.697065,20.686174,20.674492,20.661861,20.648514,20.634665,20.622528,20.612373,20.604752,20.599018,20.594349,20.590475,20.586418,20.582401,20.578693,20.575317,20.5723,20.568895,20.563828,20.556427,20.547106,20.536488,20.526115,20.515987,20.506443,20.497152,20.487648,20.47718,20.464645,20.451431,20.438875,20.428219,20.41956,20.412083,20.404823,20.397335,20.390125,20.383938,20.378593,20.373043,20.366245,20.35839,20.349215,20.338772,20.32612,20.310753,20.293667,20.27562,20.257357,20.238644,20.218922,20.198513,20.178127,20.159073,20.14226,20.128136,20.11639,20.107138,20.100231,20.095478,20.092522,20.089813,20.086601,20.081982,20.076027,20.06962,20.063374,20.05788,20.052803,20.047707,20.042048,20.035622,20.028534,20.02032,20.010704,19.99936,19.986744,19.97371,19.960928,19.948523,19.936417,19.924734,19.913895,19.904219,19.896017,19.889399,19.883987,19.879063,19.874458,19.869774,19.864424,19.85783,19.849438,19.838982,19.826954,19.814348,19.800985,19.78814,19.776115,19.764961,19.754465,19.744337,19.734776,19.725761,19.717506,19.71024,19.703323,19.695904,19.687168,19.676659,19.66526,19.654018,19.64405,19.635899,19.628698,19.622042,19.615181,19.608135,19.60093,19.593685,19.586777,19.57991,19.573025,19.566525,19.562374,19.563145,19.570415,19.58318,19.601593,19.621887,19.640812,19.656094,19.662996,19.662361,19.65546,19.648447,19.64381,19.638248,19.62785,19.610485,19.590256,19.570765,19.553333,19.53387,19.508633,19.479723,19.451405,19.426493,19.399672,19.365627,19.323273,19.279245,19.241201,19.210835,19.18919,19.173012,19.159283,19.146389,19.13401,19.12223,19.110815,19.099556,19.08763,19.075294,19.063732,19.05344,19.044167,19.03506,19.025928,19.016851,19.007914,18.999134,18.989798,18.979725,18.969173,18.958181,18.94715,18.93528,18.922543,18.90981,18.897324,18.886501,18.876146,18.86488,18.852007,18.837337,18.822193,18.806698,18.791206,18.775425,18.758953,18.742336,18.724834,18.706087,18.68649,18.66711,18.648264
22.517366,22.523193,22.525835,22.523975,22.51796,22.504564,22.479845,22.44162,22.396875,22.354147,22.315065,22.282965,22.25322,22.22015,22.184921,22.146381,22.108475,22.076538,22.049564,22.029533,22.019463,22.01648,22.0169,22.019962,22.024532,22.029018,22.0267,22.022928,22.02683,22.042168,22.070843,22.105015,22.143051,22.178738,22.209515,22.225395,22.216927,22.190746,22.150446,22.104797,22.0559,22.00882,21.96977,21.94225,21.924385,21.913025,21.906837,21.905842,21.908424,21.910414,21.904926,21.894726,21.881596,21.864166,21.839125,21.803139,21.75549,21.69902,21.642088,21.590284,21.546333,21.508778,21.472784,21.434816,21.394932,21.353302,21.311028,21.2682,21.225256,21.183659,21.144638,21.108196,21.074673,21.043121,21.013329,20.985313,20.958603,20.933193,20.909525,20.887646,20.864168,20.840652,20.817516,20.795204,20.771141,20.748005,20.72643,20.707108,20.689018,20.672987,20.657988,20.64329,20.62853,20.613934,20.599983,20.585701,20.570927,20.55648,20.542671,20.529598,20.517307,20.505108,20.494041,20.484032,20.475182,20.467133,20.45912,20.450546,20.441086,20.430504,20.41874,20.406132,20.39333,20.379898,20.365658,20.350773,20.335524,20.322325,20.311537,20.304234,20.29985,20.297321,20.296032,20.294819,20.292963,20.290474,20.287556,20.284515,20.280823,20.275288,20.267105,20.256855,20.245638,20.234703,20.22465,20.215412,20.20639,20.196997,20.18637,20.173214,20.158451,20.143389,20.129536,20.117548,20.106747,20.096184,20.085455,20.07565,20.067581,20.060734,20.053783,20.0456,20.036358,20.026175,20.015303,20.003042,19.988771,19.972843,19.955818,19.938202,19.92011,19.901459,19.882774,19.864876,19.84882,19.835176,19.824207,19.815533,19.809055,19.804508,19.80162,19.80009,19.79846,19.796124,19.792406,19.78749,19.782246,19.777126,19.772635,19.768497,19.764322,19.759666,19.75426,19.748034,19.740475,19.73117,19.719976,19.707432,19.694328,19.681442,19.668941,19.656914,19.64538,19.634523,19.62497,19.61707,19.610886,19.605904,19.601278,19.59673,19.591894,19.586262,19.579298,19.570486,19.559584,19.547024,19.533865,19.520126,19.507078,19.495094,19.484293,19.4747,19.465916,19.457554,19.449413,19.441475,19.43387,19.426228,19.417995,19.408699,19.398027,19.386272,19.375034,19.365385,19.357748,19.351212,19.345318,19.339308,19.333113,19.326439,19.319122,19.311947,19.304924,19.298275,19.292637,19.290037,19.292835,19.302614,19.31804,19.338802,19.360842,19.380846,19.395885,19.401436,19.39952,19.392895,19.386646,19.383245,19.379711,19.37252,19.35925,19.343231,19.32742,19.31184,19.294044,19.269958,19.240753,19.211351,19.1846,19.156013,19.12098,19.078064,19.032505,18.992714,18.961157,18.938618,18.921135,18.906393,18.89293,18.88054,18.86913,18.85836,18.84792,18.837091,18.825983,18.81538,18.8056,18.796309,18.786968,18.777576,18.768375,18.759453,18.75077,18.741745,18.732244,18.722507,18.712467,18.702381,18.69146,18.679562,18.667381,18.655039,18.64362,18.632278,18.620056,18.60664,18.591932,18.57704,18.562012,18.547222,18.532478,18.517284,18.501978,18.485596,18.46775,18.448761,18.429718,18.410854
22.347475,22.347466,22.344624,22.337132,22.325918,22.308838,22.282503,22.245285,22.202633,22.162748,22.127737,22.10001,22.074245,22.044052,22.010574,21.976055,21.94324,21.913555,21.886385,21.864683,21.853153,21.848282,21.84672,21.847223,21.849117,21.851974,21.85096,21.850277,21.855576,21.86803,21.887302,21.908394,21.927336,21.940039,21.942041,21.93224,21.903069,21.861248,21.812439,21.762016,21.711273,21.664534,21.626684,21.600037,21.582254,21.570223,21.562237,21.558004,21.555935,21.551655,21.53865,21.52014,21.498169,21.472559,21.442026,21.404654,21.360264,21.310982,21.262749,21.218819,21.181158,21.148174,21.115826,21.08115,21.043922,21.004297,20.963621,20.922585,20.881947,20.842937,20.806728,20.773489,20.743557,20.715921,20.690022,20.665482,20.641674,20.618536,20.596632,20.575983,20.552364,20.5273,20.502361,20.478203,20.453075,20.429745,20.409039,20.392275,20.377752,20.365292,20.35389,20.342651,20.330975,20.31886,20.306534,20.293297,20.27943,20.26593,20.253307,20.241707,20.231224,20.22113,20.212173,20.204044,20.19665,20.189707,20.18255,20.174492,20.164928,20.153435,20.140097,20.125685,20.111115,20.096094,20.080471,20.064388,20.048248,20.03461,20.023945,20.017628,20.015148,20.015057,20.016136,20.016504,20.015532,20.013224,20.010117,20.006676,20.002449,19.996393,19.987516,19.97641,19.964066,19.952053,19.9411,19.930386,19.920431,19.910686,19.899063,19.885256,19.869305,19.852335,19.835888,19.820978,19.807016,19.79325,19.779613,19.76714,19.756784,19.748272,19.739998,19.730728,19.720673,19.710283,19.699974,19.689257,19.677301,19.66369,19.648664,19.632412,19.615454,19.598267,19.581753,19.566883,19.554451,19.544754,19.537762,19.532959,19.530054,19.528557,19.527918,19.527641,19.526524,19.524347,19.520878,19.516436,19.511768,19.507175,19.503136,19.499407,19.495714,19.491741,19.487144,19.481739,19.474895,19.466116,19.454844,19.441635,19.42799,19.414772,19.40211,19.389956,19.378317,19.367428,19.357841,19.349958,19.343866,19.338943,19.334274,19.329494,19.32425,19.318062,19.310482,19.30088,19.288853,19.275322,19.261448,19.247852,19.235258,19.22412,19.214434,19.206123,19.198654,19.19152,19.184261,19.176582,19.168427,19.159615,19.149948,19.13938,19.127823,19.1157,19.104538,19.095219,19.088127,19.082275,19.077122,19.07191,19.066505,19.060537,19.05379,19.046875,19.03999,19.033691,19.028889,19.02774,19.032433,19.044582,19.06276,19.085966,19.108921,19.128721,19.142586,19.146801,19.143776,19.136517,19.130047,19.126892,19.124601,19.11996,19.110682,19.099398,19.086197,19.072353,19.05629,19.034061,19.006363,18.977474,18.949795,18.919666,18.883211,18.839258,18.793177,18.753315,18.72145,18.697636,18.678707,18.66286,18.6488,18.63634,18.625229,18.614986,18.605236,18.595394,18.585396,18.57573,18.56646,18.557178,18.547588,18.537933,18.528585,18.519688,18.511105,18.502398,18.493477,18.484573,18.475506,18.466335,18.456276,18.445148,18.433504,18.421295,18.409275,18.396906,18.38366,18.369596,18.354744,18.339962,18.325241,18.311012,18.297163,18.283192,18.26923,18.254175,18.237564,18.21957,18.20119,18.182571
22.103575,22.09712,22.088852,22.076591,22.061739,22.043137,22.017754,21.984352,21.94696,21.912388,21.882675,21.8597,21.838158,21.812145,21.782814,21.752174,21.721977,21.692177,21.664572,21.643738,21.632568,21.626116,21.622595,21.62078,21.620241,21.619728,21.616741,21.615013,21.617231,21.623024,21.630749,21.636234,21.63648,21.629189,21.611986,21.58551,21.545914,21.49864,21.447992,21.398834,21.351555,21.30935,21.275303,21.250679,21.233196,21.220192,21.209816,21.201756,21.194628,21.184252,21.16503,21.140656,21.113316,21.083866,21.052216,21.01698,20.97799,20.936377,20.895977,20.8585,20.825474,20.795467,20.765388,20.732965,20.698053,20.660938,20.623081,20.585224,20.547989,20.51233,20.479414,20.44962,20.423336,20.39947,20.377186,20.356005,20.3353,20.314346,20.292343,20.270504,20.24607,20.220673,20.195436,20.171349,20.147781,20.126617,20.108658,20.095028,20.083746,20.074429,20.066017,20.057545,20.048206,20.03778,20.026417,20.01366,20.000206,19.987158,19.97524,19.96465,19.95551,19.947098,19.939829,19.933125,19.92667,19.920288,19.913372,19.90517,19.894962,19.882256,19.867367,19.851421,19.835472,19.81934,19.802908,19.786346,19.77016,19.756954,19.74726,19.74245,19.741898,19.744299,19.747673,19.749401,19.748734,19.745995,19.742275,19.738266,19.733465,19.726852,19.716785,19.703716,19.688923,19.674091,19.660526,19.647942,19.637157,19.627346,19.616493,19.60323,19.58705,19.568693,19.550182,19.532742,19.515955,19.499006,19.482403,19.468071,19.456467,19.446922,19.438038,19.428505,19.418413,19.408169,19.39827,19.388508,19.378153,19.366486,19.353485,19.339207,19.324429,19.309977,19.296799,19.285755,19.277267,19.271366,19.267832,19.266184,19.265972,19.266615,19.267223,19.267204,19.265753,19.263035,19.259203,19.25478,19.250443,19.246315,19.242731,19.239422,19.236221,19.232975,19.229282,19.224733,19.218418,19.209703,19.198376,19.185326,19.171953,19.159138,19.147009,19.135258,19.123957,19.113485,19.104198,19.0961,19.08913,19.083172,19.077482,19.071764,19.065529,19.058216,19.049372,19.03864,19.025942,19.012117,18.998262,18.984854,18.972635,18.962053,18.953075,18.945587,18.939053,18.932867,18.926348,18.918924,18.910343,18.900597,18.889778,18.878204,18.86597,18.853867,18.842955,18.834003,18.827356,18.821991,18.817337,18.812634,18.807665,18.802162,18.795952,18.789343,18.782684,18.776857,18.772926,18.772995,18.778927,18.792309,18.81186,18.836185,18.860073,18.879536,18.891714,18.893818,18.888908,18.880348,18.873295,18.870275,18.869322,18.86721,18.860859,18.852062,18.841492,18.83059,18.816889,18.796783,18.771067,18.74332,18.715698,18.685196,18.648605,18.605232,18.560581,18.521507,18.489292,18.464382,18.444187,18.427372,18.412754,18.40013,18.38912,18.379156,18.369879,18.360796,18.351704,18.342865,18.33406,18.324848,18.315151,18.30535,18.29595,18.287128,18.27866,18.270252,18.261864,18.253738,18.245537,18.237173,18.22785,18.217415,18.206287,18.194273,18.181755,18.168472,18.154285,18.139568,18.124523,18.109764,18.09524,18.081451,18.068329,18.055439,18.042774,18.02912,18.013927,17.997196,17.97979,17.961723
21.804256,21.79269,21.780588,21.765377,21.748611,21.72984,21.706665,21.678173,21.64615,21.616123,21.591352,21.572792,21.555258,21.533316,21.507786,21.479527,21.450943,21.42328,21.397747,21.377325,21.3651,21.357094,21.351665,21.345478,21.338802,21.33261,21.32542,21.31953,21.3158,21.313087,21.309559,21.302696,21.290102,21.270882,21.244772,21.212349,21.17067,21.124268,21.076988,21.032547,20.990904,20.954296,20.92426,20.90131,20.883495,20.868732,20.85537,20.84328,20.831532,20.816471,20.79343,20.766132,20.73665,20.706444,20.675938,20.643995,20.610329,20.575361,20.541403,20.509247,20.480074,20.452728,20.424864,20.394718,20.36222,20.32777,20.292866,20.258308,20.224564,20.19239,20.16295,20.1368,20.114485,20.094566,20.075928,20.056776,20.036552,20.015759,19.99412,19.972466,19.948807,19.925018,19.90166,19.879719,19.858482,19.840034,19.825058,19.814392,19.805925,19.799109,19.792925,19.786415,19.778694,19.769312,19.757786,19.744022,19.729597,19.715973,19.7042,19.694418,19.686516,19.67958,19.67361,19.667809,19.661709,19.655235,19.64801,19.639355,19.628468,19.6147,19.598415,19.581087,19.563955,19.547165,19.530533,19.51396,19.497782,19.484499,19.475058,19.471237,19.472754,19.477638,19.483412,19.486967,19.48759,19.485622,19.482338,19.478165,19.472433,19.464397,19.45264,19.437855,19.421167,19.404362,19.389198,19.375841,19.364487,19.35402,19.34285,19.329094,19.312113,19.292759,19.272703,19.253101,19.233456,19.213472,19.194334,19.178207,19.166008,19.156898,19.14888,19.140371,19.131428,19.122375,19.1137,19.10514,19.09573,19.085041,19.073593,19.06152,19.049633,19.038822,19.02977,19.022945,19.01827,19.015524,19.014454,19.014675,19.015785,19.017092,19.017561,19.016678,19.014095,19.010334,19.005833,19.001131,18.996815,18.992857,18.9894,18.986126,18.982937,18.97987,18.976643,18.972729,18.96713,18.95911,18.948875,18.93742,18.925701,18.91436,18.902569,18.890991,18.879627,18.868753,18.858746,18.849663,18.841518,18.834232,18.827301,18.820427,18.813019,18.804482,18.794472,18.783009,18.770367,18.756992,18.743786,18.731089,18.71951,18.709497,18.70102,18.693962,18.687908,18.68229,18.676323,18.669228,18.660555,18.650404,18.639084,18.627144,18.614803,18.60271,18.591845,18.582933,18.576357,18.571152,18.566734,18.562447,18.558022,18.553097,18.547386,18.541111,18.534847,18.52966,18.526655,18.527626,18.533964,18.5472,18.566383,18.590176,18.613926,18.632689,18.64338,18.64369,18.636826,18.626358,18.617628,18.613335,18.612133,18.611095,18.606997,18.601017,18.59449,18.58773,18.577656,18.560741,18.537445,18.511341,18.484476,18.454504,18.418903,18.377163,18.33413,18.295986,18.263805,18.238258,18.217262,18.19984,18.184849,18.172016,18.160915,18.150955,18.141804,18.133121,18.124577,18.116302,18.107811,18.098658,18.088902,18.079052,18.069695,18.061008,18.052696,18.044575,18.036663,18.029247,18.021837,18.014215,18.005655,17.995956,17.985466,17.973835,17.961073,17.94712,17.932194,17.916916,17.90171,17.88697,17.872608,17.859169,17.846653,17.834705,17.823196,17.810911,17.797201,17.78192,17.765747,17.74854
21.478062,21.462284,21.44677,21.42912,21.410727,21.392115,21.37175,21.348728,21.322998,21.298344,21.277342,21.26101,21.245697,21.226292,21.203243,21.17739,21.15097,21.125198,21.100853,21.07948,21.064121,21.051052,21.040676,21.0299,21.018204,21.00647,20.994228,20.98278,20.972198,20.96118,20.948486,20.933323,20.9142,20.890724,20.862204,20.829847,20.791328,20.750114,20.709084,20.670883,20.635418,20.604263,20.577888,20.55629,20.537949,20.52123,20.50507,20.489538,20.47433,20.456387,20.431875,20.404127,20.37485,20.34573,20.317272,20.2886,20.259338,20.22958,20.200687,20.17295,20.14723,20.122688,20.097374,20.06987,20.040035,20.008198,19.976063,19.944569,19.914213,19.885788,19.860165,19.837366,19.816746,19.798332,19.781086,19.763529,19.744919,19.725496,19.705662,19.685831,19.663944,19.642056,19.621138,19.601986,19.583769,19.56757,19.554487,19.54573,19.5391,19.533901,19.529137,19.523796,19.516819,19.50739,19.495152,19.48027,19.464783,19.450512,19.438799,19.42968,19.422852,19.417204,19.412277,19.406994,19.400738,19.393524,19.385223,19.375378,19.363293,19.348343,19.330967,19.312824,19.295174,19.278341,19.262035,19.246033,19.230484,19.217678,19.208752,19.205719,19.208672,19.215303,19.22294,19.228134,19.230202,19.22925,19.226578,19.222536,19.21635,19.207523,19.194897,19.179451,19.162292,19.14527,19.130219,19.116901,19.10511,19.093628,19.080814,19.065193,19.046295,19.025177,19.003262,18.981693,18.960028,18.938305,18.917904,18.900751,18.888144,18.879435,18.87241,18.865332,18.858082,18.850594,18.843132,18.835392,18.826742,18.81709,18.806995,18.796932,18.787739,18.780334,18.775173,18.772308,18.771236,18.771519,18.772898,18.775114,18.777054,18.778214,18.777918,18.77579,18.771908,18.766869,18.761105,18.755732,18.751015,18.746769,18.742928,18.739157,18.735413,18.731937,18.728676,18.725208,18.72046,18.713522,18.704535,18.694403,18.6841,18.674171,18.663939,18.653408,18.64264,18.631817,18.621326,18.611423,18.602276,18.59388,18.585873,18.577953,18.569489,18.559969,18.549194,18.537458,18.525105,18.512379,18.499865,18.48779,18.476648,18.46688,18.458511,18.451448,18.445442,18.44001,18.434353,18.427576,18.419052,18.408867,18.397482,18.38556,18.37338,18.361458,18.350655,18.341633,18.334843,18.329556,18.325134,18.321077,18.317131,18.312828,18.307735,18.301983,18.296267,18.291794,18.289593,18.291107,18.297249,18.309523,18.32747,18.350014,18.37275,18.390726,18.400507,18.399889,18.39185,18.379856,18.369312,18.363121,18.360672,18.359598,18.3573,18.354713,18.352386,18.350027,18.344072,18.33101,18.310823,18.286823,18.260914,18.2314,18.196499,18.15604,18.114462,18.077211,18.045246,18.019405,17.997932,17.98015,17.964882,17.95176,17.940372,17.930151,17.920818,17.912231,17.903881,17.895899,17.887589,17.878485,17.868774,17.859024,17.849836,17.841362,17.83326,17.825436,17.817963,17.811136,17.804424,17.79751,17.78972,17.780817,17.771057,17.75999,17.747288,17.733025,17.717651,17.702059,17.686798,17.672123,17.657907,17.644695,17.632593,17.621338,17.610695,17.599545,17.587156,17.573261,17.55835,17.542145
21.148924,21.130074,21.111721,21.09179,21.071934,21.052841,21.033728,21.013622,20.991653,20.970284,20.951376,20.936062,20.920221,20.90141,20.879812,20.85572,20.830826,20.805252,20.77945,20.75467,20.735369,20.718998,20.705006,20.691174,20.67611,20.659725,20.642414,20.625359,20.608572,20.591038,20.572231,20.552563,20.530956,20.507011,20.479784,20.450537,20.417402,20.382835,20.348774,20.316925,20.287304,20.261017,20.237995,20.217896,20.199554,20.181602,20.16354,20.14573,20.12841,20.109169,20.084822,20.058136,20.030373,20.00325,19.977165,19.951496,19.925837,19.90026,19.875557,19.85168,19.829163,19.807346,19.784546,19.759632,19.732372,19.703094,19.673824,19.645287,19.617575,19.58958,19.564856,19.543564,19.52556,19.509663,19.494493,19.479067,19.462677,19.445183,19.426949,19.40873,19.388714,19.369133,19.349203,19.331547,19.315289,19.301594,19.290968,19.284117,19.278856,19.274529,19.270313,19.26531,19.258398,19.248596,19.235695,19.220036,19.204071,19.189758,19.178638,19.170647,19.165264,19.161259,19.157648,19.152977,19.146492,19.138325,19.12862,19.117268,19.10379,19.087711,19.069595,19.051184,19.033672,19.017437,19.002031,18.987118,18.972725,18.960754,18.952332,18.949417,18.952372,18.959194,18.9673,18.973225,18.976107,18.975826,18.97352,18.969498,18.963049,18.953875,18.94097,18.925434,18.908527,18.892092,18.87784,18.86517,18.853493,18.841446,18.827456,18.810364,18.78984,18.767029,18.743519,18.72062,18.698112,18.676025,18.655615,18.638641,18.626362,18.618164,18.612055,18.606379,18.60073,18.594578,18.587925,18.580404,18.571875,18.562778,18.553757,18.54556,18.538929,18.534565,18.532597,18.53273,18.534199,18.53643,18.539164,18.542166,18.544603,18.545685,18.54443,18.5406,18.53491,18.528385,18.521996,18.51646,18.511957,18.508146,18.504631,18.500854,18.496647,18.492374,18.488285,18.48424,18.479286,18.472652,18.464573,18.455936,18.447594,18.439837,18.431988,18.423363,18.413998,18.40398,18.393757,18.383621,18.37387,18.364716,18.355919,18.347206,18.337925,18.327694,18.316463,18.304688,18.29272,18.28051,18.268383,18.256496,18.245249,18.235077,18.226143,18.218376,18.211784,18.206017,18.200306,18.193724,18.185507,18.17567,18.164673,18.153229,18.141586,18.13012,18.119572,18.110485,18.103428,18.097881,18.093288,18.089254,18.085583,18.08169,18.077038,18.071695,18.066425,18.062508,18.060848,18.062487,18.067968,18.078808,18.095064,18.116096,18.137844,18.155413,18.165035,18.164604,18.156746,18.144678,18.133678,18.12666,18.123531,18.122408,18.121353,18.121307,18.12245,18.123985,18.121672,18.111954,18.09442,18.072105,18.046928,18.017677,17.98323,17.943676,17.903187,17.866587,17.834803,17.8088,17.787006,17.768929,17.75333,17.73981,17.727951,17.717318,17.70763,17.698925,17.69056,17.682665,17.674435,17.665354,17.655777,17.64618,17.637209,17.628912,17.620968,17.613358,17.60619,17.599789,17.593601,17.587242,17.580122,17.571955,17.562943,17.552553,17.540203,17.526054,17.51069,17.495155,17.48006,17.465542,17.451447,17.438303,17.42633,17.415356,17.405136,17.394691,17.383213,17.370369,17.356482,17.341166
20.822138,20.801523,20.781473,20.760265,20.739647,20.720531,20.701256,20.680271,20.657734,20.63527,20.614588,20.59724,20.581001,20.562866,20.542585,20.519972,20.496315,20.4713,20.445202,20.418888,20.397362,20.378984,20.36266,20.346386,20.328358,20.308079,20.286366,20.264397,20.242424,20.220024,20.197346,20.175417,20.1535,20.130886,20.106497,20.0814,20.054087,20.026134,19.99865,19.972527,19.94793,19.92575,19.905716,19.887287,19.869503,19.851147,19.832224,19.813385,19.79527,19.776157,19.753323,19.728867,19.70365,19.679207,19.655708,19.632736,19.609947,19.587536,19.566036,19.545204,19.525269,19.50566,19.48489,19.46223,19.437603,19.41006,19.380653,19.352287,19.32549,19.30016,19.2781,19.259579,19.24464,19.231472,19.218483,19.204803,19.189955,19.173923,19.157253,19.13915,19.118938,19.09953,19.081408,19.066114,19.052526,19.041538,19.033226,19.027817,19.023285,19.0191,19.014597,19.00917,19.001804,18.991522,18.97813,18.962173,18.946411,18.932865,18.923126,18.91696,18.913582,18.911617,18.909506,18.90551,18.898806,18.88966,18.878633,18.866028,18.851578,18.8349,18.816645,18.798534,18.78172,18.766602,18.752525,18.738955,18.7258,18.71453,18.706228,18.702698,18.704472,18.709969,18.71695,18.722294,18.725014,18.724783,18.722431,18.718044,18.710945,18.701117,18.687862,18.672384,18.655949,18.640368,18.627129,18.615406,18.604282,18.592352,18.57804,18.560507,18.53955,18.516335,18.492516,18.469482,18.447247,18.425907,18.406519,18.390621,18.379324,18.37206,18.367004,18.362621,18.358349,18.353413,18.347597,18.34054,18.332348,18.323845,18.315895,18.309322,18.304672,18.302368,18.302244,18.303848,18.306385,18.309227,18.31222,18.315115,18.317253,18.317726,18.315525,18.310612,18.304104,18.297195,18.291046,18.28614,18.282642,18.280098,18.277718,18.274572,18.270218,18.265095,18.259695,18.254265,18.248135,18.24082,18.232765,18.225006,18.218266,18.212559,18.20685,18.200233,18.192633,18.183987,18.174757,18.165222,18.1557,18.146477,18.137447,18.128338,18.118614,18.108017,18.096647,18.084963,18.07325,18.061161,18.048882,18.036589,18.024637,18.0135,18.003376,17.994305,17.98653,17.97985,17.973629,17.966948,17.958986,17.949703,17.939426,17.928757,17.917929,17.907158,17.897049,17.888058,17.88078,17.87491,17.870047,17.865877,17.862217,17.858421,17.853933,17.848776,17.84377,17.840195,17.838758,17.840157,17.844624,17.853737,17.868015,17.887379,17.9081,17.925491,17.93554,17.936253,17.92978,17.91903,17.908985,17.902348,17.8993,17.898281,17.89803,17.899752,17.903511,17.908167,17.908705,17.901524,17.885933,17.864935,17.840517,17.811745,17.777832,17.739017,17.699303,17.663038,17.631298,17.605137,17.583036,17.564686,17.548723,17.534805,17.522507,17.51147,17.501392,17.49247,17.483952,17.475971,17.46769,17.458637,17.449244,17.439867,17.431114,17.42292,17.41505,17.40752,17.40051,17.394348,17.388489,17.382519,17.375933,17.368374,17.360003,17.350317,17.338528,17.32487,17.309944,17.294796,17.280037,17.265766,17.251762,17.238567,17.226467,17.215378,17.205143,17.194912,17.18387,17.171667,17.158455,17.143835
20.510296,20.486526,20.463795,20.440363,20.417572,20.396242,20.376,20.355316,20.333382,20.311142,20.290012,20.271667,20.255085,20.237118,20.21723,20.195152,20.17184,20.147137,20.121016,20.094097,20.07095,20.050472,20.031933,20.013542,19.993168,19.969955,19.944904,19.919182,19.89331,19.867268,19.841705,19.817856,19.79541,19.773483,19.751091,19.729038,19.706144,19.68333,19.660995,19.639477,19.618986,19.600304,19.583141,19.566784,19.550316,19.532593,19.514032,19.495506,19.477879,19.460117,19.439632,19.418121,19.396059,19.374725,19.354023,19.333607,19.313204,19.293076,19.273666,19.254719,19.236134,19.217657,19.198448,19.17596,19.150429,19.12303,19.095648,19.06963,19.045698,19.024027,19.005457,18.989937,18.977362,18.96613,18.954655,18.941807,18.926624,18.909958,18.892717,18.875143,18.85624,18.838459,18.82286,18.810307,18.799408,18.790594,18.783754,18.7789,18.774223,18.76938,18.763876,18.757355,18.749031,18.738085,18.724525,18.709002,18.69431,18.6824,18.674751,18.670948,18.669872,18.66993,18.669064,18.665396,18.658142,18.647884,18.635647,18.622223,18.607513,18.591095,18.573566,18.5565,18.541042,18.5276,18.5153,18.503464,18.491924,18.481758,18.474003,18.470055,18.470367,18.473602,18.477978,18.481104,18.482166,18.480791,18.477463,18.472,18.463804,18.45301,18.439217,18.423588,18.407341,18.392185,18.379452,18.368298,18.35771,18.346292,18.33255,18.315815,18.29589,18.273918,18.251444,18.229816,18.20916,18.189579,18.172012,18.157776,18.14787,18.141811,18.137901,18.134693,18.131542,18.127636,18.122753,18.116604,18.109447,18.10213,18.095509,18.09029,18.086893,18.085495,18.085815,18.087353,18.089447,18.091696,18.09408,18.096365,18.09777,18.097397,18.09439,18.088966,18.082453,18.075981,18.070612,18.066872,18.06486,18.064056,18.063347,18.061401,18.057487,18.052029,18.045654,18.038822,18.031103,18.022348,18.013248,18.00514,17.998821,17.994259,17.990265,17.985685,17.980297,17.973831,17.966703,17.958988,17.950886,17.942566,17.933949,17.924858,17.91496,17.90424,17.892872,17.881145,17.86916,17.856417,17.843132,17.829689,17.816452,17.803787,17.79195,17.781067,17.771614,17.763538,17.756304,17.749115,17.741268,17.732567,17.723145,17.713398,17.703491,17.693554,17.684032,17.675285,17.667915,17.661814,17.656717,17.652344,17.648502,17.644522,17.639906,17.634722,17.62979,17.626328,17.624817,17.625652,17.628826,17.635975,17.648085,17.665565,17.68504,17.70221,17.712883,17.715176,17.71077,17.70222,17.694164,17.688927,17.686722,17.686092,17.686398,17.689293,17.694965,17.701874,17.70432,17.698658,17.684345,17.664574,17.641474,17.613997,17.58126,17.543385,17.504284,17.468098,17.436165,17.409729,17.387278,17.368687,17.352448,17.338268,17.325676,17.314384,17.30401,17.294899,17.286217,17.2781,17.269794,17.260925,17.251986,17.243097,17.234697,17.226646,17.21885,17.211365,17.204447,17.198368,17.192638,17.186848,17.180552,17.173367,17.165375,17.156221,17.145,17.131985,17.117676,17.103062,17.088669,17.074585,17.060644,17.047352,17.034977,17.0235,17.012894,17.002497,16.991512,16.979588,16.966812,16.952795
20.195522,20.17143,20.148314,20.12495,20.102295,20.081047,20.061321,20.041588,20.02073,19.999336,19.97844,19.959747,19.94263,19.924297,19.903906,19.881367,19.857649,19.832695,19.806301,19.778837,19.75433,19.732183,19.711973,19.692116,19.670319,19.645527,19.618681,19.590858,19.562729,19.53452,19.5072,19.481894,19.45876,19.436989,19.415764,19.395702,19.375916,19.356838,19.338303,19.32028,19.303005,19.287146,19.27248,19.258171,19.243256,19.226665,19.209099,19.191654,19.17528,19.15944,19.141571,19.123127,19.104258,19.08598,19.067959,19.049809,19.031273,19.012592,18.994427,18.976494,18.959023,18.939342,18.917896,18.895184,18.87133,18.846447,18.822338,18.799704,18.779308,18.761177,18.745796,18.73278,18.721386,18.709757,18.697632,18.684135,18.668991,18.652758,18.636139,18.619865,18.602844,18.587189,18.573826,18.56336,18.5543,18.546734,18.540363,18.535175,18.529589,18.523495,18.516558,18.508642,18.499245,18.487833,18.47467,18.460356,18.447517,18.4379,18.432785,18.431538,18.432682,18.434414,18.434288,18.430454,18.422379,18.410986,18.397923,18.384327,18.370106,18.35461,18.338259,18.322472,18.308445,18.29666,18.286125,18.276066,18.266241,18.257439,18.250631,18.24654,18.245354,18.245888,18.246792,18.246607,18.244932,18.241444,18.236345,18.229208,18.219511,18.207481,18.193027,18.1772,18.161114,18.146297,18.133877,18.123114,18.113071,18.102528,18.090118,18.075241,18.057674,18.038357,18.018578,17.999563,17.981396,17.9642,17.94883,17.936462,17.928082,17.9233,17.920517,17.918396,17.916143,17.913092,17.909164,17.904205,17.898525,17.892754,17.887514,17.883324,17.88052,17.879143,17.878887,17.879295,17.879986,17.88089,17.882235,17.883774,17.88456,17.883686,17.880445,17.875223,17.869415,17.863983,17.859756,17.857258,17.856625,17.857357,17.858162,17.85744,17.854185,17.848763,17.841816,17.83385,17.824612,17.814177,17.803423,17.793999,17.786943,17.782383,17.779228,17.776203,17.772902,17.76887,17.764349,17.759127,17.75309,17.746178,17.738302,17.729443,17.719574,17.708899,17.697662,17.68593,17.67352,17.659828,17.645329,17.630672,17.616241,17.602232,17.588844,17.576313,17.565235,17.555674,17.547215,17.53928,17.531322,17.523062,17.514412,17.505503,17.49646,17.487339,17.478462,17.47008,17.462751,17.456528,17.451263,17.446686,17.442554,17.43821,17.433277,17.427908,17.422892,17.41937,17.417559,17.417572,17.419296,17.424393,17.434242,17.449657,17.467623,17.48431,17.495445,17.499146,17.496649,17.490118,17.483955,17.48012,17.478737,17.478333,17.478737,17.482128,17.488937,17.497196,17.500647,17.495771,17.482391,17.464153,17.443436,17.418694,17.388557,17.352722,17.314903,17.279127,17.24714,17.220522,17.197834,17.17913,17.162804,17.148623,17.135971,17.124651,17.114182,17.104948,17.096098,17.08777,17.079393,17.070717,17.062267,17.05388,17.045803,17.037811,17.029978,17.022434,17.015486,17.00932,17.003502,16.99769,16.99147,16.984432,16.976618,16.967804,16.957104,16.94478,16.93118,16.917156,16.903131,16.889252,16.875435,16.862087,16.8494,16.837399,16.826248,16.815422,16.804241,16.792397,16.779884,16.766518
