1.1327944,1.1352627,1.1376796,1.139966,1.1421405,1.1439481,1.145284,1.146168,1.1468756,1.147562,1.1482,1.148808,1.1494024,1.1499312,1.1504716,1.1511228,1.1518698,1.1526942,1.1535275,1.1543512,1.1550717,1.155622,1.1560345,1.1564051,1.1567955,1.1570771,1.1573132,1.157524,1.1577085,1.1578405,1.1579658,1.1580994,1.1582739,1.158426,1.1585822,1.158701,1.1587489,1.1586761,1.1584835,1.1581601,1.1576717,1.157095,1.1564643,1.1556942,1.1548555,1.1540468,1.1533586,1.1528511,1.1524613,1.1521386,1.1518524,1.1516376,1.1514456,1.1511819,1.1508524,1.1505761,1.1503911,1.1502606,1.1501414,1.1500211,1.1499405,1.1499767,1.1501616,1.1504965,1.1509211,1.1513863,1.1518427,1.1522983,1.1527174,1.1530782,1.1533806,1.1536936,1.154017,1.1543648,1.1547208,1.155093,1.1554947,1.155938,1.1564121,1.1569093,1.1573855,1.1577764,1.1580399,1.1582584,1.1583768,1.1583526,1.1581748,1.1578152,1.1572142,1.1563327,1.1551561,1.1537032,1.1521257,1.150537,1.149026,1.1476098,1.1463149,1.1452119,1.1444359,1.1439492,1.1436521,1.1434712,1.1433839,1.1434145,1.1436398,1.1440085,1.1443896,1.1447003,1.1448839,1.1449429,1.1448379,1.1446292,1.144433,1.1443498,1.1444676,1.1447953,1.1450322,1.1453335,1.1455715,1.1459017,1.1464047,1.1471844,1.1481824,1.1492693,1.1504934,1.1520181,1.1539834,1.1565013,1.1597502,1.1633936,1.1675406,1.1725111,1.1784039,1.1850468,1.1921849,1.1992198,1.2060112,1.2132732,1.2211475,1.2295506,1.238117,1.246496,1.2544212,1.2618953,1.2691342,1.2764506,1.2840664,1.2915503,1.2986313,1.3051059,1.3107074,1.3155165,1.31975,1.3234167,1.3265343,1.3290257,1.3308554,1.3321003,1.332756,1.3329644,1.3330088,1.3330823,1.3333485,1.3338373,1.3344162,1.3350217,1.3356059,1.3363383,1.3371687,1.3377512,1.3381685,1.3382758,1.3378923,1.3370492,1.3361225,1.3354812,1.335423,1.3359923,1.3369397,1.338095,1.3393208,1.3408895,1.3429487,1.3453244,1.3479197,1.3505726,1.3531063,1.3550247,1.3562975,1.3568338,1.356822,1.3565352,1.356107,1.3556925,1.3553226,1.3548994,1.3542254,1.3531202,1.351651,1.3500489,1.3484197,1.3466022,1.3444881,1.3420801,1.3394138,1.3367373,1.3341801,1.3317803,1.3295982,1.3275101,1.3252714,1.3227487,1.3198495,1.3167212,1.3135725,1.3104097,1.3070726,1.3033423,1.2992122,1.2946632,1.2898328,1.2849896,1.2803767,1.2760873,1.2719989,1.2678617,1.2635252,1.2588549,1.2539463,1.2490841,1.244402,1.2398607,1.2351183,1.2300106,1.2246156,1.219116,1.2134943,1.2082617,1.2034919,1.1990972,1.1945816,1.1898425,1.1851044,1.1804948,1.1763911,1.1728866,1.169818,1.1669312,1.163983,1.1608958,1.1576912,1.154511,1.151503,1.1487129,1.1462402,1.1440729,1.1421497,1.1405721,1.1394284,1.1386225,1.1382222,1.1380694,1.1381218,1.13832,1.1385176,1.1387801,1.1387432,1.1387893,1.1390773,1.1392869,1.1392444,1.1387177,1.13802,1.1371336,1.1363547,1.1354964,1.1344554,1.1331031,1.1315606,1.1298504,1.1279577,1.1261387,1.1245228,1.123038,1.1217649,1.120479,1.1189406,1.1173276,1.1160963,1.115348,1.115149,1.1153092,1.1156274,1.1158836,1.1158617,1.1155815,1.1155744,1.1161277,1.1167306,1.1172171,1.1175474,1.1178952,1.1182556,1.1184626,1.1185681
1.1174294,1.1199739,1.1227818,1.1255996,1.1282215,1.1304293,1.1321458,1.1334226,1.1345472,1.1356459,1.1367215,1.137775,1.138796,1.1397458,1.140727,1.1418434,1.1430615,1.1443152,1.1454439,1.146421,1.1473272,1.1480899,1.1487066,1.1492574,1.1497958,1.1501904,1.1504668,1.1506569,1.1508346,1.1510079,1.1512294,1.1515079,1.1518784,1.1522746,1.1527123,1.1531045,1.1534082,1.1535819,1.1536065,1.1534419,1.1530066,1.1523995,1.1517098,1.1509316,1.1501564,1.1494606,1.1489465,1.1485982,1.1483952,1.1482961,1.1482683,1.1483383,1.1484349,1.1484476,1.1483445,1.148211,1.1480742,1.1478806,1.1476045,1.14727,1.1469731,1.1468239,1.1468544,1.1470612,1.1474003,1.1478138,1.1482503,1.1486979,1.1490928,1.1494188,1.1496695,1.1499019,1.1501868,1.150542,1.1509559,1.151413,1.1518373,1.1523237,1.1529043,1.1535215,1.154168,1.1548092,1.1554174,1.1559318,1.1562085,1.1563711,1.1564145,1.1563394,1.1560664,1.1555356,1.1547084,1.1536052,1.1523395,1.1510029,1.1496465,1.1483457,1.1470987,1.1459627,1.1450408,1.1442726,1.1436319,1.1430794,1.1426277,1.1423123,1.1422155,1.1423001,1.1424761,1.1427023,1.142936,1.1431439,1.1433716,1.1435609,1.1437571,1.1439404,1.144181,1.1444737,1.1446247,1.1447124,1.1446953,1.1446836,1.1447484,1.1447663,1.1447787,1.1448312,1.1449308,1.1451955,1.145791,1.1467228,1.1480145,1.1498976,1.152417,1.1555105,1.1592368,1.1635617,1.1683557,1.173307,1.178408,1.1839488,1.1900274,1.1966069,1.203503,1.2105434,1.217679,1.2248201,1.2319578,1.2392933,1.2469063,1.254547,1.2619584,1.2688588,1.2749567,1.2802031,1.2847528,1.2886918,1.2920861,1.2948759,1.2970165,1.2985804,1.2996238,1.3002615,1.300687,1.30109,1.3016523,1.302382,1.3030983,1.303709,1.3041911,1.3047203,1.3053793,1.3059695,1.3064141,1.3065872,1.306359,1.3058538,1.3052721,1.3048794,1.3049657,1.3056185,1.3068562,1.3086264,1.3108594,1.3135748,1.3169072,1.3204749,1.3241162,1.3276163,1.3303068,1.3326281,1.3345463,1.335897,1.3366584,1.3370373,1.3371916,1.3373132,1.3374512,1.3375171,1.3372812,1.336551,1.3353957,1.3340364,1.3326118,1.3309593,1.3289311,1.3265635,1.3239596,1.3213081,1.3187382,1.3162711,1.3139999,1.3118565,1.3096504,1.3072557,1.3045471,1.3016226,1.29864,1.2956676,1.2923776,1.2886767,1.2846012,1.280152,1.2754631,1.2707747,1.26632,1.2621361,1.2581002,1.2539817,1.249649,1.244975,1.2400548,1.2351663,1.2304428,1.2258399,1.2210426,1.2159195,1.2105342,1.2049878,1.1993456,1.1941154,1.189367,1.1850927,1.1809986,1.1767973,1.1725774,1.1685172,1.1649184,1.1618404,1.1591456,1.156596,1.1539662,1.1511996,1.1483456,1.1455255,1.1428545,1.1403911,1.138207,1.1362666,1.1346049,1.1332862,1.1323907,1.1317954,1.1315119,1.1313859,1.1313751,1.1314235,1.1314226,1.1314752,1.1313169,1.1311839,1.1311641,1.131176,1.1310713,1.1307006,1.130156,1.1293752,1.128639,1.1278105,1.1268878,1.1258025,1.1246331,1.1234273,1.1221445,1.1209205,1.1198012,1.1186965,1.1176642,1.1165822,1.1153202,1.1140484,1.1129085,1.1120887,1.1116753,1.1116028,1.1116962,1.1117873,1.1116867,1.1113658,1.1112944,1.1116983,1.1120663,1.1123052,1.1124184,1.1125457,1.1126904,1.1127074,1.1126509
1.1018147,1.1033318,1.1055105,1.1080396,1.1104804,1.1125653,1.1142118,1.1155016,1.1166935,1.1179053,1.1192183,1.1205684,1.1219149,1.1232285,1.1246024,1.1261076,1.1276846,1.1292338,1.1306314,1.1318626,1.1329522,1.1339297,1.134781,1.135526,1.1362249,1.1367459,1.1371455,1.1374627,1.137773,1.138098,1.1384821,1.1389424,1.1395166,1.1401356,1.1408134,1.141462,1.1420351,1.1424841,1.1427817,1.1429253,1.1428163,1.142528,1.1421497,1.1417139,1.1412675,1.1408541,1.1405745,1.1404996,1.1405776,1.1407552,1.1410005,1.141344,1.1416972,1.1419655,1.1420952,1.142134,1.1420746,1.1418549,1.1414781,1.1410077,1.1405668,1.1403023,1.1402631,1.14044,1.1408062,1.1412811,1.1418042,1.1423457,1.1428332,1.1432343,1.1435366,1.1438153,1.1441481,1.1445482,1.1450067,1.1455042,1.1460134,1.1466169,1.1473372,1.1481321,1.1489875,1.1498826,1.150692,1.151428,1.1519806,1.1524065,1.1527267,1.1529579,1.1530054,1.1528027,1.1523455,1.1516776,1.1508628,1.1499646,1.1490002,1.1479698,1.1469238,1.145925,1.1450161,1.1441648,1.1433685,1.142617,1.1419487,1.141408,1.1410716,1.1409068,1.1408594,1.1408741,1.14094,1.141072,1.1412783,1.1414875,1.1417241,1.1419477,1.1421871,1.1424003,1.1425517,1.1425782,1.1424602,1.1422818,1.1420254,1.1417258,1.1414214,1.1410955,1.140559,1.1400054,1.1397543,1.1398351,1.1402683,1.141123,1.1421185,1.1434512,1.145267,1.1475937,1.1503861,1.1535956,1.1571536,1.1610932,1.1655042,1.1703742,1.1756227,1.1811483,1.1869185,1.1929139,1.1991856,1.2058723,1.213021,1.220685,1.2284731,1.2360365,1.2430847,1.2493688,1.2548463,1.2596092,1.263729,1.267143,1.269806,1.2718232,1.2733827,1.274579,1.2754793,1.2762778,1.2771682,1.2781677,1.2790967,1.2798421,1.2803762,1.2808478,1.2814089,1.2820946,1.2827482,1.283181,1.283217,1.2829642,1.2826087,1.2824157,1.2826717,1.2835214,1.2850773,1.2873323,1.2900598,1.2932591,1.2963551,1.2994156,1.3025327,1.3055587,1.3081443,1.310514,1.3125955,1.3142511,1.3154227,1.3162329,1.3167899,1.3172925,1.3178043,1.3182665,1.3184303,1.3180814,1.3173041,1.316374,1.3153028,1.313916,1.3121023,1.3098934,1.3074355,1.3048683,1.3023473,1.2999072,1.2976649,1.2955872,1.2935015,1.2912748,1.2887459,1.2859786,1.2831099,1.2802037,1.277045,1.2735416,1.2697515,1.2656977,1.2614411,1.2570152,1.2526886,1.2486038,1.244638,1.2405714,1.236296,1.2316968,1.2268603,1.2220511,1.2173975,1.2128555,1.2081358,1.2031367,1.1979105,1.19255,1.1870604,1.1819733,1.177556,1.1736038,1.1698414,1.1660347,1.1621732,1.1584973,1.1552403,1.1524312,1.1499472,1.1475868,1.1451747,1.142674,1.1401312,1.1376213,1.1352172,1.132992,1.1310425,1.1293459,1.1279263,1.1268106,1.1260593,1.125531,1.1252437,1.1250963,1.1250125,1.1249304,1.1247922,1.1246233,1.1242175,1.1238682,1.1235759,1.123205,1.1227953,1.1223404,1.1217637,1.1210129,1.1202965,1.1195563,1.1187782,1.1179358,1.1170659,1.1162121,1.1153274,1.1144917,1.1136966,1.1128739,1.1120585,1.1111714,1.1101263,1.1091087,1.1081916,1.1074663,1.106955,1.1067246,1.1066337,1.1065849,1.106447,1.1061723,1.1061866,1.1066449,1.106976,1.1071696,1.107296,1.1074502,1.107615,1.1076508,1.1076295
1.0897858,1.0903112,1.0918378,1.0938294,1.0956175,1.097035,1.0981153,1.099004,1.0999124,1.1009082,1.1019827,1.1031778,1.1044599,1.105816,1.1072699,1.1088507,1.1104858,1.1120889,1.1135969,1.1149964,1.116251,1.1173867,1.1184107,1.1193615,1.1202296,1.1208929,1.1214399,1.1219162,1.1223989,1.1228855,1.1234262,1.1240441,1.1247765,1.1255624,1.1263957,1.1272297,1.1280363,1.1287816,1.1294484,1.1299605,1.1302247,1.1303313,1.1303508,1.1302888,1.1301453,1.1299772,1.1299039,1.1300352,1.130307,1.130675,1.1311004,1.131591,1.1320752,1.1324838,1.1327435,1.1328944,1.1329172,1.1327376,1.1323895,1.1319598,1.1315687,1.1313616,1.1313947,1.1316655,1.1321807,1.1328537,1.1335995,1.1343601,1.1350411,1.1355927,1.1360202,1.1364076,1.1367974,1.1372149,1.137661,1.138119,1.1386158,1.1392119,1.1399217,1.140739,1.14166,1.1426629,1.1436574,1.1445944,1.1454036,1.1460607,1.1466163,1.1470903,1.1474267,1.1475637,1.1474766,1.1472567,1.1469346,1.1465119,1.145992,1.1453936,1.1447269,1.1440573,1.1433806,1.1426833,1.1419775,1.1412772,1.1406283,1.140085,1.1397011,1.139437,1.1392033,1.1389611,1.1387663,1.1386592,1.1386431,1.1386676,1.1387334,1.138828,1.1389469,1.139015,1.1389776,1.138801,1.1384778,1.1380804,1.137617,1.1371219,1.1366042,1.1360385,1.1353724,1.1347926,1.134214,1.1337876,1.1337351,1.1340103,1.134398,1.1349492,1.1356226,1.1365042,1.1378124,1.1395402,1.1416329,1.1441052,1.1470001,1.1503141,1.1540186,1.1580493,1.1623507,1.1669805,1.1720723,1.1777432,1.1840389,1.1909308,1.1982017,1.2055634,1.2127011,1.219387,1.2254622,1.2308195,1.2355107,1.2395389,1.2428539,1.2454939,1.2476194,1.2493068,1.2506316,1.2517856,1.2529756,1.2542372,1.2554116,1.2563651,1.2570751,1.2576842,1.2583246,1.2590215,1.2596747,1.2601457,1.2603118,1.2602346,1.2599957,1.2597849,1.2599862,1.260786,1.2621965,1.263977,1.2661226,1.2686982,1.2714,1.2741566,1.2769644,1.2797468,1.2824566,1.2849569,1.2872183,1.2891462,1.2906965,1.2919267,1.2928843,1.2937574,1.2946357,1.2954755,1.296071,1.2962923,1.2960812,1.2956225,1.2949682,1.293956,1.292496,1.2906079,1.2884104,1.285987,1.2835143,1.281143,1.279007,1.27707,1.2751634,1.2731655,1.2709026,1.2684033,1.2657572,1.2630296,1.2601626,1.257029,1.2536077,1.2499356,1.2460907,1.2420919,1.2381248,1.23421,1.2302339,1.2262497,1.2220838,1.2176483,1.2130129,1.2084241,1.2040026,1.1997008,1.1952498,1.1905391,1.1856232,1.1807635,1.175875,1.1712799,1.1671972,1.1635294,1.1599767,1.1564214,1.1528852,1.1495569,1.1466023,1.1440303,1.1417406,1.1395714,1.1373906,1.1351589,1.1329081,1.1306951,1.1285655,1.1265821,1.1248305,1.1232796,1.122011,1.1210251,1.120348,1.119831,1.1194792,1.1192014,1.1189532,1.1187003,1.1183983,1.1181068,1.1175866,1.1170671,1.116627,1.1161855,1.1157281,1.1152673,1.1147289,1.1140751,1.1134334,1.1127914,1.112116,1.111392,1.1106535,1.109937,1.109188,1.1084635,1.1077468,1.1069895,1.1062963,1.1055701,1.1046755,1.1037667,1.1030223,1.1024482,1.101984,1.101688,1.1015298,1.1014438,1.1013201,1.1011068,1.1012084,1.101741,1.1021541,1.1024628,1.1027293,1.1030097,1.1032809,1.103427,1.1034396
1.0843064,1.0839257,1.0848095,1.0861723,1.0872259,1.0879414,1.0884385,1.0889056,1.0894959,1.0902059,1.0910432,1.0920427,1.0931544,1.0943584,1.0956862,1.0971226,1.0985858,1.1000022,1.1013243,1.1025655,1.1037097,1.1047511,1.1057162,1.1066442,1.1075191,1.1082115,1.1087927,1.1092982,1.1098216,1.110362,1.1109631,1.1116464,1.1124442,1.1132928,1.1141806,1.1150513,1.1159005,1.1167436,1.1175799,1.1182933,1.1187742,1.1190975,1.1193246,1.119452,1.1194708,1.1194036,1.1194142,1.1196351,1.1200159,1.1204985,1.1210215,1.1215442,1.1220536,1.1225009,1.1228228,1.1230824,1.1232457,1.1232171,1.1230361,1.1227865,1.122575,1.1225235,1.1226892,1.1230831,1.1237507,1.1246171,1.1255708,1.1265298,1.127379,1.1280677,1.1286029,1.1290586,1.1294707,1.1298652,1.1302515,1.1306227,1.131001,1.1314409,1.1319727,1.1326244,1.1334063,1.1342998,1.135258,1.136158,1.1369298,1.1375664,1.1381211,1.1386034,1.1389923,1.1392741,1.1394613,1.1396222,1.1397388,1.139784,1.1397839,1.1397743,1.1397251,1.1394956,1.1391476,1.1387178,1.1382418,1.1377478,1.1372794,1.1368906,1.1366178,1.1364068,1.1361611,1.1358912,1.135627,1.1353908,1.135197,1.1350261,1.1348894,1.1348172,1.134804,1.1347694,1.1346478,1.1343949,1.133999,1.133517,1.1329813,1.1323833,1.1317233,1.1309988,1.13026,1.1296316,1.1291087,1.12882,1.1287711,1.1287277,1.1287221,1.1287509,1.1288273,1.1290445,1.129543,1.1302546,1.1312871,1.1326444,1.1343216,1.1363064,1.1385976,1.1411579,1.1439726,1.1471114,1.150686,1.1547992,1.159516,1.1647766,1.1705528,1.1766791,1.1828952,1.1888521,1.1943762,1.1993766,1.2038493,1.2077501,1.2110429,1.2137834,1.2160678,1.2179279,1.2194045,1.2206445,1.2218422,1.2230544,1.2241695,1.2250576,1.2257084,1.2262462,1.2269104,1.2276576,1.2283726,1.2289667,1.2293615,1.2295845,1.2296407,1.2296598,1.2298851,1.230494,1.2316113,1.233175,1.235173,1.2373152,1.2398198,1.2425998,1.2454586,1.2482958,1.2510686,1.2537253,1.2562499,1.2585821,1.2606574,1.2625008,1.264108,1.2655611,1.266959,1.2683293,1.2694695,1.2702004,1.270502,1.2705145,1.2703348,1.2698379,1.2689407,1.2676411,1.266006,1.2641104,1.2620711,1.2599862,1.2581289,1.2564685,1.2548516,1.2531754,1.2512589,1.249105,1.2467749,1.2443604,1.2418461,1.2391192,1.2361807,1.23299,1.2295907,1.2260267,1.2223275,1.2185276,1.2148443,1.211201,1.2073653,1.2032871,1.1990674,1.1949136,1.1909337,1.1870781,1.1830796,1.1791191,1.1750563,1.1709523,1.1666894,1.1626306,1.1589221,1.1555583,1.1522998,1.1490507,1.1458542,1.1428756,1.1402286,1.137914,1.1358526,1.1339183,1.1320212,1.1301057,1.128188,1.1262037,1.1242073,1.1223459,1.1207178,1.1192949,1.1181264,1.1172082,1.1165493,1.1160059,1.1155849,1.1152115,1.1148584,1.1145105,1.1141398,1.1138285,1.1133296,1.1128507,1.1123972,1.111985,1.1115551,1.1111276,1.1106055,1.1099625,1.1093099,1.1086619,1.1079774,1.1072438,1.1064918,1.1057571,1.1050568,1.1044517,1.1038475,1.1031947,1.1025726,1.1019242,1.1011347,1.1003355,1.0996493,1.099103,1.0986228,1.098272,1.0980626,1.0979557,1.0978525,1.0976824,1.0978218,1.0983667,1.0988009,1.0991642,1.0995061,1.0998751,1.1002041,1.1002805,1.1002467
1.0852946,1.08369,1.0838892,1.0844884,1.0847821,1.0847309,1.0846417,1.0846751,1.084875,1.0851955,1.0856805,1.0863559,1.0871873,1.0881708,1.0892909,1.0904937,1.0916917,1.0928123,1.0938206,1.0947474,1.0956113,1.0964205,1.0972112,1.0980035,1.098803,1.099425,1.0999644,1.1004623,1.1009917,1.101546,1.1021677,1.1028678,1.1036757,1.1045046,1.1053281,1.1061137,1.106876,1.1076642,1.1084996,1.1092701,1.1098514,1.110281,1.1106067,1.1108158,1.1108963,1.1108761,1.1109036,1.111119,1.1114856,1.1119376,1.1124157,1.1128749,1.1133181,1.1137416,1.1140897,1.1144305,1.114744,1.1149154,1.1149684,1.1149671,1.1149843,1.1151187,1.1154183,1.1159124,1.1166692,1.1176293,1.118672,1.1197045,1.1206094,1.121346,1.1219262,1.1224031,1.1227968,1.1231267,1.1234093,1.123647,1.1238645,1.1241071,1.1244061,1.124806,1.1253295,1.1259832,1.1267147,1.1274164,1.1280191,1.1285188,1.1289575,1.1293292,1.129627,1.1298677,1.1301013,1.1303873,1.1306868,1.1309667,1.131262,1.131594,1.1319051,1.1321263,1.1322112,1.1321579,1.1320221,1.131847,1.13169,1.1316168,1.1316116,1.131577,1.1314794,1.1313167,1.1310992,1.1308436,1.1305666,1.1302783,1.1300151,1.1298459,1.1297712,1.129726,1.1296295,1.1294442,1.129154,1.128784,1.128348,1.1278312,1.1272388,1.1265662,1.1258469,1.1251833,1.1246727,1.1244161,1.1243896,1.1244576,1.1245558,1.1244212,1.124137,1.1239166,1.1239035,1.1241009,1.1245492,1.1252217,1.1260808,1.1270721,1.128229,1.1295383,1.1309304,1.1324761,1.1342986,1.1364837,1.1391422,1.1423054,1.146025,1.1502342,1.1547598,1.1592484,1.1635537,1.167587,1.1712966,1.1745996,1.1774641,1.1799415,1.1820664,1.1838305,1.1852427,1.1864071,1.1874952,1.1885848,1.1896027,1.1904445,1.1910911,1.1916307,1.1922193,1.1928658,1.1934971,1.1940697,1.1945531,1.1949513,1.1952181,1.1954198,1.1956881,1.1961823,1.1970906,1.1984499,1.2002287,1.2022765,1.2046745,1.2072462,1.2099898,1.2127733,1.2155554,1.218338,1.2210991,1.2237879,1.2263315,1.2286628,1.2307051,1.2326462,1.2346869,1.2368045,1.2387602,1.2402568,1.2412407,1.2418919,1.2423534,1.2425334,1.2422575,1.241607,1.2406313,1.2393801,1.237941,1.2364416,1.2350737,1.2338172,1.2325981,1.2312719,1.2297282,1.2279689,1.226043,1.224046,1.2219961,1.2197487,1.2172538,1.2145036,1.2115402,1.2084403,1.2052679,1.2020973,1.1989739,1.1958301,1.1926442,1.1893197,1.1858125,1.1823666,1.179104,1.1759931,1.1728282,1.1696417,1.1663649,1.1629912,1.1593769,1.1558976,1.1526861,1.1497219,1.1468256,1.1439307,1.1411107,1.138492,1.1361516,1.1340976,1.1322746,1.1306081,1.1289468,1.12724,1.1255064,1.1237197,1.1219487,1.1202824,1.1188104,1.117518,1.1164331,1.1155655,1.1149263,1.1143804,1.1139399,1.1135386,1.1131617,1.1128032,1.112417,1.1120819,1.1115661,1.1110934,1.1106665,1.1102678,1.1098423,1.1093929,1.1088345,1.108139,1.1074251,1.1067042,1.1059339,1.1051927,1.1045287,1.1038575,1.1032021,1.102597,1.101986,1.1013336,1.1006975,1.100041,1.0992689,1.0985099,1.0978479,1.0973046,1.0968051,1.0964277,1.0961926,1.0960829,1.0960078,1.0958779,1.0960431,1.0965836,1.0969992,1.097345,1.0976756,1.0980358,1.0983481,1.0983958,1.0982335
1.0903544,1.0882043,1.087367,1.0873617,1.0871375,1.0864539,1.0856831,1.0850917,1.0848243,1.0847149,1.0847554,1.0849701,1.0853528,1.0859592,1.0867329,1.0876107,1.0884941,1.0893049,1.0900242,1.090692,1.0913132,1.0918972,1.0925012,1.0931582,1.0938742,1.0944698,1.0950222,1.0955551,1.0961311,1.0967369,1.0974133,1.0981702,1.0990217,1.0998609,1.100646,1.1013639,1.1020458,1.1027575,1.103533,1.1042697,1.1048427,1.1052661,1.1055784,1.10577,1.1058313,1.1057991,1.1057985,1.105959,1.1062557,1.1066318,1.107013,1.1073434,1.1076341,1.107914,1.1081872,1.1085386,1.1089348,1.1092532,1.1094909,1.1096842,1.10987,1.1101264,1.1104953,1.1110182,1.1117636,1.1126813,1.1136503,1.1145877,1.1154001,1.116066,1.1166015,1.1170379,1.1173732,1.1176146,1.1177804,1.1178846,1.1179574,1.1180363,1.1181484,1.1183245,1.1185927,1.1189854,1.1194671,1.1199617,1.1204013,1.1207733,1.1211069,1.1213775,1.1215827,1.1217413,1.1219084,1.1221468,1.1224277,1.1227202,1.1230555,1.1234397,1.1238005,1.1241052,1.1242802,1.1243186,1.1242859,1.124229,1.1242023,1.124264,1.1244249,1.1245934,1.1246777,1.1246644,1.1245639,1.1243925,1.1241663,1.1239052,1.1236727,1.123568,1.1235948,1.1236898,1.123762,1.1237901,1.123753,1.1236012,1.1233325,1.1229672,1.122518,1.1219919,1.1214149,1.1208692,1.1204222,1.120161,1.1200831,1.1201069,1.1201277,1.1200086,1.1195316,1.1190397,1.1186948,1.1185298,1.1185567,1.1187457,1.1190643,1.1194698,1.1199708,1.1205227,1.1210171,1.1214993,1.1220863,1.1228392,1.1237702,1.1250167,1.1267072,1.1288499,1.1313764,1.1340524,1.1367683,1.1394343,1.1419785,1.1443038,1.1463914,1.1482577,1.1499015,1.1512871,1.1524031,1.1533206,1.1541789,1.1550562,1.1559004,1.1566288,1.1572236,1.1577442,1.1582855,1.1588694,1.1594313,1.1599491,1.1604187,1.1608341,1.1611352,1.1613512,1.1615797,1.1619527,1.1626341,1.1636587,1.1650317,1.1667762,1.1688445,1.1710033,1.1731699,1.1753955,1.1777349,1.1802835,1.1830747,1.1860592,1.18908,1.191928,1.1945732,1.1970417,1.1994214,1.2018139,1.2040503,1.2058736,1.2072146,1.2082452,1.2091091,1.2097182,1.2099714,1.2098933,1.2095132,1.2089093,1.2081815,1.2073948,1.2066782,1.206027,1.2053369,1.2045248,1.2034924,1.2022246,1.2008159,1.1993797,1.1979517,1.1964308,1.1948602,1.1931233,1.1912253,1.1891543,1.1870008,1.1848073,1.1825669,1.1802602,1.1778619,1.1753035,1.1725851,1.1698983,1.1673644,1.1649547,1.1625133,1.1600204,1.1574488,1.1547885,1.1518755,1.149044,1.1464002,1.1439211,1.1414696,1.1390009,1.1366026,1.1343684,1.132349,1.1305678,1.1289911,1.1275094,1.1260773,1.1246421,1.1231863,1.1216822,1.1201975,1.1187747,1.1174805,1.1163173,1.1153129,1.1145018,1.1138678,1.113265,1.1127949,1.1123829,1.1120075,1.1116614,1.1113269,1.1110506,1.1105759,1.110138,1.1097502,1.1093795,1.1089693,1.1085054,1.1079242,1.1071947,1.1064382,1.1056945,1.1050162,1.1043568,1.1036928,1.1030222,1.1023569,1.1017278,1.1011021,1.1004453,1.0998094,1.099158,1.098402,1.09767,1.0970399,1.096518,1.096026,1.0956441,1.0954014,1.0952966,1.09524,1.0951295,1.0952916,1.0957987,1.0961736,1.0964799,1.0967671,1.0970718,1.0973141,1.0973445,1.0972152
1.0953217,1.0932164,1.0917783,1.0908765,1.0902569,1.0894532,1.0885179,1.0876957,1.0871199,1.0866916,1.0865192,1.0865074,1.0865831,1.0866904,1.0870245,1.0875182,1.0880594,1.0885643,1.0890155,1.0894558,1.0898682,1.0902567,1.0906867,1.091197,1.0917946,1.0923052,1.0928061,1.0933177,1.0938966,1.0945187,1.0952265,1.096025,1.0969174,1.0977745,1.0985286,1.0991733,1.0997522,1.1003475,1.1010022,1.1016212,1.1020801,1.1023912,1.1025956,1.1026912,1.1026723,1.1025839,1.1025352,1.1026453,1.102884,1.1031888,1.1034708,1.1036685,1.1038092,1.1039417,1.1041086,1.1044152,1.1048341,1.1052444,1.1056147,1.1059446,1.1062311,1.1065385,1.1069126,1.1074023,1.1080668,1.1088532,1.109641,1.110373,1.1109946,1.1115103,1.1119428,1.1123027,1.1125653,1.1127236,1.1127932,1.1127999,1.1127814,1.1127706,1.1127822,1.1128203,1.1129063,1.1130898,1.113364,1.1136975,1.1140236,1.1143184,1.1145965,1.1148186,1.1149759,1.1150799,1.1151761,1.1153251,1.1155181,1.1157348,1.115996,1.1162944,1.1165476,1.116722,1.1167674,1.1166961,1.116581,1.1164682,1.1164078,1.1164427,1.1165917,1.1167834,1.1169264,1.1170094,1.1170411,1.1170206,1.1169496,1.1168396,1.1167462,1.116763,1.1168987,1.1171057,1.117301,1.1174831,1.1176397,1.1177331,1.1177382,1.1176326,1.1174481,1.117199,1.116884,1.116544,1.1162205,1.1159837,1.1158466,1.11572,1.1154833,1.1151127,1.114573,1.1140054,1.1135354,1.1131872,1.1129782,1.1128957,1.1129197,1.1130152,1.113168,1.1133006,1.1133502,1.1133478,1.1132355,1.1130861,1.1130128,1.1131176,1.1133885,1.113936,1.1148028,1.1158848,1.1171279,1.1184711,1.1198508,1.1211758,1.122427,1.1235982,1.1246704,1.1255943,1.1263425,1.126953,1.1275303,1.1281406,1.1287413,1.1292741,1.1297219,1.1301355,1.1305778,1.1310563,1.1315011,1.1318913,1.1322384,1.1325295,1.1326942,1.1327457,1.1327549,1.1328385,1.1331437,1.1337273,1.134623,1.1358789,1.1374261,1.1390338,1.1405919,1.1422169,1.1440501,1.1462607,1.1489327,1.1520474,1.1554724,1.1589174,1.1621778,1.1650611,1.1676421,1.1700885,1.1722839,1.1740415,1.1753626,1.1763996,1.1772988,1.1779947,1.1784284,1.1786283,1.1786338,1.1785438,1.1783707,1.1781611,1.1779699,1.1777887,1.1775182,1.1771235,1.1765692,1.1758254,1.1749921,1.1741877,1.1734539,1.1727022,1.1719339,1.1710176,1.1699842,1.1688013,1.1675407,1.1662192,1.1648464,1.1633959,1.161823,1.1600705,1.1581589,1.1562486,1.1544476,1.1527193,1.1509466,1.149143,1.1472757,1.1453224,1.1431059,1.1409335,1.1388837,1.136931,1.1349678,1.1329648,1.1310165,1.1291883,1.1275148,1.1260275,1.124712,1.1235325,1.1224155,1.1212788,1.1200778,1.1188183,1.1175816,1.1163802,1.1152604,1.1142247,1.1132967,1.1125219,1.1119238,1.1113997,1.1110156,1.1106977,1.1104198,1.1101706,1.1099432,1.1097622,1.1093657,1.1089926,1.1086619,1.1083292,1.1079465,1.1074905,1.1069188,1.1062033,1.1054566,1.1047062,1.1040075,1.1034085,1.1027803,1.1021291,1.1014788,1.1008761,1.1002873,1.0996792,1.0990872,1.0984786,1.09777,1.097091,1.0965173,1.0960426,1.095587,1.0952253,1.094997,1.0949059,1.0948629,1.0947555,1.0948962,1.0953581,1.0956867,1.0959482,1.0961859,1.0964332,1.0966046,1.0965712,1.0964414
1.0991951,1.097815,1.0966489,1.0953343,1.0938312,1.0924197,1.0912763,1.0902712,1.0894241,1.0887259,1.0882514,1.0879247,1.0878342,1.0879097,1.0881138,1.0884838,1.088924,1.0893416,1.0896991,1.0899855,1.0902283,1.0904489,1.0907049,1.0910474,1.0914886,1.0918571,1.0922464,1.0926838,1.0932105,1.0937827,1.0944378,1.0951793,1.0960096,1.0967889,1.097431,1.0979352,1.0983572,1.0987804,1.0992489,1.099673,1.0999334,1.1000475,1.1000651,1.0999974,1.0998402,1.0996453,1.0995045,1.0995228,1.0996608,1.0998529,1.0999997,1.1000383,1.1000129,1.0999836,1.1000162,1.1002347,1.1006367,1.1011069,1.1015863,1.1020304,1.1023811,1.1026905,1.1030195,1.1034374,1.1040056,1.1046534,1.1052592,1.1057854,1.1062136,1.1065768,1.1069009,1.1071826,1.1073806,1.1074808,1.1074994,1.107472,1.1074414,1.1074363,1.10746,1.107486,1.1075261,1.1076308,1.1078203,1.1081007,1.1084138,1.1087227,1.1090294,1.1092811,1.1094583,1.1095657,1.1096382,1.109735,1.1098675,1.110026,1.1102221,1.1104347,1.1105773,1.1106205,1.1105313,1.1103432,1.1101297,1.1099391,1.1098208,1.109808,1.1099172,1.110099,1.1102871,1.1104748,1.1106701,1.1108525,1.110997,1.1110935,1.1111808,1.1113238,1.1115336,1.111775,1.1119779,1.1121657,1.1123359,1.1124545,1.1124902,1.1124191,1.1122888,1.1121302,1.1119365,1.111722,1.1114963,1.1113052,1.1111584,1.1109873,1.1106979,1.1102853,1.1097548,1.1091897,1.1086829,1.1082491,1.1079054,1.1076622,1.1075196,1.1074632,1.107476,1.1074692,1.1073818,1.1072252,1.1069897,1.1066964,1.1064224,1.1061552,1.1059568,1.1059102,1.1060424,1.1062847,1.1066611,1.1071789,1.107801,1.1084558,1.1091301,1.1098065,1.110455,1.1110221,1.1114726,1.1118207,1.112138,1.1124736,1.1127954,1.1130676,1.1132845,1.1134863,1.1137141,1.1139704,1.1141834,1.1143339,1.1144407,1.1144791,1.1143583,1.1140647,1.1136566,1.1132462,1.1129694,1.1129098,1.1131338,1.1137006,1.1145434,1.1154454,1.1163054,1.1172355,1.1184151,1.1200328,1.1221805,1.1248754,1.1280191,1.1313076,1.1344879,1.1373265,1.1398644,1.1421888,1.1442144,1.1458182,1.1470592,1.1480838,1.1489767,1.1496522,1.1500556,1.1502428,1.1502917,1.1503497,1.1504157,1.1504704,1.1505114,1.1505165,1.150396,1.1501561,1.1498235,1.1493962,1.1489677,1.1486263,1.1483881,1.1481516,1.1479121,1.147584,1.1471969,1.1466792,1.1461036,1.1454817,1.144819,1.1440843,1.1432393,1.142237,1.1410971,1.1399312,1.1388291,1.1377642,1.1366472,1.1355147,1.1343265,1.1330507,1.1315053,1.1299739,1.128514,1.1270983,1.1256464,1.1241443,1.1226864,1.1213162,1.1200521,1.1189277,1.117939,1.1170741,1.1163216,1.1156048,1.1148944,1.1141443,1.1132681,1.1123664,1.1114967,1.1106801,1.1099389,1.109306,1.1088324,1.1084392,1.1081874,1.1080016,1.1078479,1.1077197,1.1076145,1.107535,1.1072253,1.1069182,1.1066417,1.1063446,1.1059904,1.1055593,1.105027,1.1043735,1.1036882,1.1029961,1.10229,1.1015975,1.1009039,1.1002524,1.099671,1.0991547,1.0986478,1.0981231,1.0976036,1.0970634,1.0964265,1.0958248,1.0953382,1.0949452,1.0945655,1.0942676,1.0940957,1.0940523,1.0940477,1.0939627,1.0941029,1.0945472,1.0948589,1.0951024,1.0953186,1.0955424,1.095691,1.0956485,1.0955231
1.1021115,1.1013528,1.100343,1.0989873,1.0973287,1.0953586,1.0936345,1.0923034,1.0913086,1.0904734,1.0898557,1.089374,1.089033,1.0889115,1.089047,1.0893546,1.0897617,1.090209,1.0906695,1.0911503,1.0915809,1.0918841,1.0921502,1.0923631,1.092597,1.0927649,1.0929921,1.0933039,1.0937212,1.0941753,1.0946901,1.0952734,1.0959373,1.0965449,1.0970047,1.0973177,1.0975447,1.097764,1.0980122,1.0982058,1.0982325,1.0981175,1.0979207,1.097661,1.0973376,1.0970001,1.0967246,1.0966024,1.096587,1.0966218,1.0965999,1.0964609,1.0962605,1.0960662,1.0959587,1.096082,1.0964717,1.0970201,1.0976408,1.0982349,1.0986655,1.0989698,1.099237,1.0995657,1.1000416,1.1005738,1.1010338,1.1013961,1.1016669,1.1019024,1.1021322,1.1023452,1.1024926,1.1025603,1.1025653,1.1025522,1.1025634,1.1026254,1.1027336,1.1028385,1.1029339,1.1030678,1.1032917,1.1036067,1.1039693,1.1043367,1.1047082,1.1050296,1.1052706,1.1054227,1.1055137,1.1056026,1.1057187,1.1058621,1.1060338,1.1062055,1.106283,1.1062435,1.1060638,1.105792,1.1054986,1.1052351,1.105048,1.1049658,1.1050086,1.1051471,1.1053379,1.1055862,1.1058977,1.1062378,1.1065602,1.1068308,1.1070693,1.10731,1.1075606,1.1077893,1.1079378,1.108047,1.1081247,1.108143,1.1080779,1.1079247,1.1077443,1.1075819,1.1074376,1.1073039,1.1071577,1.1070178,1.1068861,1.1067119,1.106432,1.1060512,1.105562,1.105027,1.104511,1.1040218,1.1035821,1.1032267,1.102985,1.1028705,1.1028721,1.1029006,1.1028962,1.102859,1.1027846,1.1026692,1.10254,1.1024077,1.1022756,1.1021736,1.1021085,1.1020981,1.1021814,1.102383,1.1026851,1.1030333,1.1034192,1.1038276,1.1042384,1.1046026,1.1048825,1.105058,1.105175,1.105263,1.1053107,1.1053073,1.1052603,1.1052105,1.1051779,1.1051702,1.1051157,1.1050024,1.1048545,1.1046337,1.1042322,1.1036168,1.1028098,1.1019043,1.1010336,1.1002965,1.0997906,1.0995896,1.0996394,1.0997597,1.0998666,1.1000714,1.1005373,1.1014233,1.1028049,1.1047165,1.107082,1.1096454,1.1121924,1.1144948,1.1165625,1.118458,1.1201316,1.121501,1.1226156,1.1235696,1.1243787,1.124934,1.1251836,1.1252155,1.1251383,1.1251144,1.1251585,1.1252197,1.1252666,1.1252704,1.1251589,1.1249743,1.1247857,1.1245952,1.1244678,1.1244478,1.1245246,1.1245927,1.1246561,1.1246481,1.1246076,1.1244885,1.1243542,1.1242049,1.1240568,1.1238642,1.1235877,1.1231813,1.1226671,1.1221608,1.1217206,1.1213012,1.1208209,1.1203032,1.1197228,1.11904,1.118089,1.1171391,1.1162239,1.1153107,1.114351,1.1133447,1.1123829,1.1114912,1.1106718,1.1099517,1.1093309,1.1088052,1.1083897,1.1080161,1.1076543,1.1072378,1.1067822,1.106298,1.1058221,1.1053689,1.1049559,1.1046369,1.1044395,1.1043073,1.1043055,1.1043701,1.1044639,1.1045086,1.1044937,1.1044843,1.1042343,1.1039702,1.103726,1.1034491,1.1031142,1.1027123,1.1022308,1.1016613,1.1010606,1.1004527,1.0998247,1.0992,1.098562,1.0978997,1.0972381,1.0966425,1.0961308,1.0956283,1.0951169,1.0946065,1.0940588,1.0935564,1.0931814,1.0928969,1.0926218,1.0924151,1.0923276,1.0923543,1.0924084,1.0923672,1.092538,1.0930072,1.0933471,1.093617,1.0938594,1.0941151,1.0943043,1.0943301,1.0942862
1.103084,1.1034733,1.1027313,1.1012433,1.0994543,1.097503,1.0955768,1.0939205,1.0926502,1.091562,1.0907731,1.090224,1.0898039,1.0896027,1.0896361,1.0899105,1.0903363,1.0907962,1.0912778,1.0917735,1.0922139,1.0925639,1.09285,1.0931057,1.0933933,1.0935192,1.093546,1.0936542,1.093874,1.0941164,1.0943851,1.094699,1.0950918,1.0954422,1.0956681,1.0957673,1.0958071,1.0958505,1.0959218,1.0959361,1.0957844,1.0954933,1.0951262,1.0947089,1.0942389,1.0937575,1.0933262,1.0930309,1.092826,1.0926814,1.0924951,1.0922155,1.0918994,1.0916111,1.0914326,1.0915205,1.0919626,1.0926771,1.0935607,1.0944486,1.0950873,1.0954813,1.0957367,1.0960011,1.0964124,1.0968779,1.0972636,1.0975444,1.0977262,1.0978761,1.0980284,1.098176,1.0982777,1.0983279,1.0983466,1.0983758,1.0984744,1.0986514,1.0988817,1.0991087,1.0993192,1.0995449,1.0998251,1.1001862,1.1005948,1.1010005,1.1013982,1.1017338,1.1019791,1.1021351,1.1022263,1.1023047,1.102406,1.1025403,1.102716,1.1028914,1.102973,1.1029398,1.1027639,1.1024945,1.1021941,1.1019123,1.101696,1.1015725,1.1015677,1.1016679,1.101848,1.1021197,1.1024885,1.1029139,1.1033372,1.1037103,1.1040351,1.1043292,1.1045935,1.1047955,1.1048846,1.1049068,1.1048789,1.1047821,1.1046059,1.104366,1.1041312,1.103957,1.1038465,1.1037803,1.103714,1.1036487,1.1035738,1.1034502,1.1032343,1.1029344,1.1025331,1.1020701,1.101592,1.1010984,1.1006157,1.1001942,1.099883,1.09972,1.0997026,1.099752,1.0998161,1.0998888,1.0999668,1.1000379,1.1001086,1.1001742,1.1002107,1.1002142,1.1001749,1.1001277,1.1001291,1.1002197,1.1004,1.1006286,1.1008985,1.101196,1.1015062,1.1017783,1.1019747,1.1020784,1.102122,1.1021204,1.102064,1.1019647,1.1018372,1.1017189,1.1016126,1.1015358,1.1014382,1.1013186,1.1011972,1.101019,1.1006405,1.0999919,1.0990654,1.0979676,1.0967889,1.0956202,1.0945705,1.0937313,1.0930798,1.0925066,1.0919685,1.0915657,1.091424,1.0916364,1.092233,1.0932562,1.0946646,1.096252,1.0978422,1.0992446,1.1004863,1.1016488,1.1027308,1.1036999,1.1045557,1.1053255,1.1059592,1.106322,1.1063681,1.1062068,1.1059556,1.1057738,1.1056912,1.1056436,1.1055944,1.1055241,1.1053833,1.1052365,1.1051695,1.105166,1.1052502,1.1054282,1.1056709,1.1058844,1.1060786,1.1061971,1.1062753,1.1062806,1.1062716,1.1062601,1.1062685,1.1062634,1.1062231,1.1061232,1.1059792,1.1058791,1.1058497,1.1058393,1.1057825,1.1057434,1.1056504,1.105453,1.1049623,1.1044661,1.1039739,1.1034575,1.1028731,1.1022685,1.1017358,1.1012857,1.1008971,1.1005813,1.10033,1.1001463,1.1000571,1.0999997,1.0999379,1.0998013,1.0996187,1.0994008,1.0991902,1.0990002,1.0988507,1.0987813,1.0988137,1.0988891,1.0990703,1.0992923,1.0994995,1.0996846,1.099854,1.1000109,1.0999079,1.0997623,1.0996109,1.0993898,1.0991015,1.0987606,1.0983454,1.0978585,1.0973308,1.0967827,1.0962088,1.0956339,1.0950465,1.094445,1.0938647,1.0933622,1.0929022,1.0924426,1.0919907,1.0915228,1.0909314,1.0904222,1.0900772,1.0898305,1.0896089,1.0895145,1.0895295,1.089644,1.0897747,1.0898035,1.0900412,1.0905645,1.0909618,1.0913022,1.0916055,1.091927,1.0921967,1.0923376,1.0924275
1.1020098,1.1042495,1.1040242,1.1024439,1.1004788,1.0985065,1.0966849,1.0949981,1.0934287,1.0922208,1.091407,1.0908291,1.0904007,1.0901805,1.0901358,1.0902567,1.0905149,1.0909853,1.0914972,1.0919902,1.0923996,1.0926977,1.0929139,1.0930846,1.0932636,1.0933442,1.0932853,1.0932808,1.0933692,1.0934169,1.0934508,1.0935104,1.093654,1.09378,1.0938206,1.0937696,1.0936921,1.093637,1.0936193,1.0935549,1.0933335,1.0929763,1.0925481,1.0920675,1.0915318,1.0909622,1.090409,1.0899525,1.0895603,1.0892446,1.0889254,1.0885655,1.0882082,1.0878986,1.0876973,1.0877669,1.0882597,1.0891502,1.090342,1.0915959,1.0925193,1.0931137,1.0934367,1.0936499,1.0939801,1.094363,1.0946872,1.0949271,1.095067,1.0951699,1.0952681,1.0953648,1.0954316,1.0954777,1.0955293,1.095626,1.0957897,1.0960311,1.0963273,1.0966256,1.096908,1.0972018,1.0975422,1.0979476,1.0983856,1.0988004,1.099188,1.0995026,1.0997229,1.0998547,1.0999216,1.0999912,1.100097,1.1002357,1.1004157,1.100608,1.1007292,1.1007545,1.1006479,1.1004465,1.1002011,1.0999551,1.0997493,1.0996146,1.0995816,1.0996449,1.0997915,1.1000369,1.1003883,1.1008072,1.1012325,1.1016111,1.1019373,1.1021956,1.1023853,1.1025122,1.1025276,1.1024711,1.1023633,1.1022086,1.1019962,1.1017182,1.1014608,1.1012981,1.1012342,1.1012425,1.1012667,1.101261,1.101228,1.1011659,1.1010497,1.1008859,1.1006422,1.1003332,1.0999223,1.099464,1.0989861,1.0985405,1.0981877,1.0979784,1.0979198,1.0979416,1.0980017,1.0980923,1.098217,1.098367,1.0985479,1.098749,1.0989429,1.0990944,1.099177,1.0992172,1.0992746,1.0993958,1.0995892,1.0998209,1.1000795,1.1003563,1.1006417,1.1008856,1.1010501,1.1011147,1.1011026,1.1010169,1.1008537,1.1006389,1.1004035,1.1001904,1.0999997,1.0998571,1.0997277,1.0996203,1.0995624,1.0995133,1.0993441,1.0989778,1.0983815,1.0975852,1.0965625,1.0953345,1.0940711,1.0928919,1.0918088,1.090812,1.0898871,1.0891397,1.0886568,1.0883853,1.0883455,1.0886214,1.0892029,1.0899231,1.0906291,1.0911548,1.0915391,1.0919175,1.0923424,1.0928278,1.093331,1.0938234,1.0942006,1.0943089,1.0941222,1.0937568,1.0933255,1.0929773,1.0927455,1.0925651,1.0924052,1.0922647,1.092114,1.0920255,1.0920813,1.092237,1.0924761,1.0927805,1.0931083,1.0933859,1.0936263,1.093785,1.0938933,1.0939198,1.0939233,1.0939245,1.0939558,1.0939932,1.0940299,1.0940617,1.0940974,1.0941997,1.0943766,1.0945745,1.0947342,1.0949261,1.0950625,1.0950943,1.094864,1.0946262,1.0943754,1.0940943,1.0937886,1.093488,1.0932897,1.0931847,1.0931247,1.093123,1.0931547,1.0932273,1.0933783,1.0935539,1.0937086,1.0937774,1.093791,1.0937679,1.0937617,1.0937865,1.093864,1.0940127,1.0942413,1.09448,1.0947816,1.0950818,1.0953193,1.0955064,1.0956604,1.0957803,1.0956265,1.0954039,1.0951542,1.0948262,1.0944408,1.0940349,1.0935946,1.0931237,1.0926194,1.0920831,1.0915092,1.090924,1.090333,1.0897433,1.0892056,1.0887766,1.0883946,1.0880328,1.0877008,1.0873644,1.0869498,1.0866083,1.086407,1.0862188,1.0860825,1.0860109,1.0860431,1.0862031,1.0864084,1.0865006,1.0867944,1.0873985,1.0879021,1.0883355,1.0887463,1.0891839,1.0895824,1.0897938,1.0899597
1.0989876,1.1040189,1.1049336,1.1034826,1.1012905,1.0991962,1.0974147,1.0958023,1.0942943,1.0929179,1.0918486,1.0912626,1.0908625,1.0906484,1.09055,1.0905566,1.0906638,1.0908546,1.0912027,1.0915413,1.0918119,1.0920181,1.0921683,1.092274,1.0923935,1.0922999,1.092135,1.0920664,1.0920339,1.0920002,1.0919504,1.0919228,1.091993,1.0920699,1.0920901,1.0920367,1.0919731,1.0919409,1.0919538,1.0919338,1.0917735,1.0914899,1.0911438,1.0907396,1.0902697,1.0897334,1.0891654,1.0886402,1.0881493,1.0877565,1.0874157,1.087106,1.0868316,1.0865946,1.0864146,1.0864501,1.0869296,1.0879056,1.0893242,1.0909028,1.0921202,1.0929265,1.0933242,1.0935061,1.0937555,1.0940437,1.0942873,1.0944593,1.0945337,1.0945643,1.0945858,1.0946162,1.0946438,1.094684,1.0947591,1.0948948,1.0951004,1.0953807,1.095711,1.09604,1.0963528,1.0966719,1.0970342,1.097445,1.0978658,1.0982413,1.0985502,1.0987418,1.0988688,1.0989621,1.0990324,1.0990857,1.0991619,1.099283,1.0994632,1.0996748,1.0998123,1.099875,1.0998256,1.0996865,1.0994937,1.0992832,1.0990851,1.098933,1.0988543,1.0988498,1.0989157,1.0990719,1.0993277,1.0996497,1.0999811,1.10027,1.1005075,1.1006982,1.1008413,1.1009176,1.1008804,1.100774,1.1006179,1.10041,1.1001568,1.0998924,1.099685,1.0995865,1.0996021,1.0996997,1.099822,1.099955,1.1000199,1.1000352,1.1000072,1.0999397,1.0998008,1.0996029,1.0993727,1.0990913,1.0986906,1.0983002,1.097976,1.0977705,1.097684,1.0976565,1.0976497,1.097653,1.0976766,1.0977213,1.0978079,1.0979043,1.0980284,1.0981485,1.0982435,1.0983186,1.0983762,1.0984936,1.098675,1.0988834,1.0991043,1.0993336,1.0995685,1.0997661,1.0998932,1.0999274,1.0998816,1.09975,1.0995271,1.099246,1.0989482,1.0986879,1.0984691,1.0983248,1.0982295,1.0981991,1.0982704,1.0984153,1.0985208,1.0985079,1.098315,1.0979257,1.0972711,1.0963515,1.095232,1.0940096,1.0927233,1.0914824,1.090343,1.0894158,1.0887825,1.0883667,1.0881461,1.088178,1.0884938,1.0889208,1.0892718,1.0893762,1.0892775,1.0891023,1.089004,1.0890546,1.0891948,1.0893774,1.0894705,1.0893049,1.0888815,1.0883226,1.0877414,1.0872796,1.0869579,1.0867102,1.0865045,1.0863577,1.0862538,1.0862637,1.0864533,1.0867469,1.0870812,1.0874431,1.0877926,1.0880755,1.0883096,1.0884542,1.0885551,1.0885806,1.0885881,1.0885975,1.0886397,1.0886881,1.0887434,1.0888048,1.0888727,1.0889988,1.0891905,1.0893966,1.0895631,1.0897582,1.0898972,1.0899332,1.0897288,1.0895476,1.0893734,1.0891767,1.0889807,1.0888181,1.0887761,1.0888441,1.088964,1.089128,1.0892906,1.0894641,1.0896944,1.0899363,1.090152,1.0902826,1.0903659,1.0904324,1.0905411,1.0906968,1.0909202,1.0912142,1.0915709,1.0919039,1.0922503,1.0925509,1.092746,1.0928609,1.0929242,1.0929394,1.0926769,1.0923332,1.0919473,1.0914849,1.0909796,1.0904794,1.0899763,1.0894704,1.0889332,1.0883536,1.0877275,1.0870876,1.0864525,1.085841,1.0853002,1.0848789,1.0845125,1.084174,1.0838711,1.0835702,1.0832016,1.0829111,1.0827787,1.0827644,1.0827179,1.0827328,1.0828676,1.0831369,1.083414,1.083561,1.0839076,1.0845563,1.0850898,1.085506,1.0858898,1.0863295,1.0867208,1.0869904,1.0872447
1.0936604,1.1027977,1.1058347,1.105134,1.1029147,1.1006628,1.0988086,1.0972109,1.0957756,1.0944421,1.0933847,1.092607,1.0920763,1.0918368,1.0916485,1.0914996,1.0914465,1.0914295,1.0914735,1.0915923,1.0917337,1.0918195,1.0918932,1.0918643,1.0917621,1.091538,1.0912516,1.0911084,1.0911165,1.0911454,1.0911548,1.0911785,1.0913057,1.0914497,1.0915514,1.0915875,1.0916164,1.0916827,1.0918044,1.0919185,1.0919232,1.0918236,1.0916686,1.0914338,1.0910926,1.0906305,1.0900788,1.0895102,1.0889627,1.0885506,1.0882634,1.0881367,1.0881431,1.0881126,1.0879693,1.0878086,1.0880611,1.0889792,1.0904999,1.0923009,1.0937815,1.0946596,1.0951927,1.0953712,1.0955231,1.0956974,1.0958314,1.0959134,1.0959215,1.0958971,1.0958555,1.0958401,1.0958555,1.0959146,1.0960274,1.0962054,1.0964488,1.0967599,1.0971122,1.0974543,1.0977712,1.0980852,1.0984342,1.0988057,1.0991282,1.0993667,1.0995414,1.099648,1.0997186,1.0997659,1.0997825,1.099793,1.0998244,1.099896,1.1000233,1.1001856,1.1003205,1.1004069,1.1004078,1.1003361,1.1002116,1.1000549,1.0998795,1.0997258,1.0996139,1.0995469,1.0995277,1.0995781,1.0997123,1.0999035,1.1000979,1.1002505,1.1003551,1.1004194,1.1004491,1.1004341,1.1003308,1.1001862,1.1000193,1.0998247,1.0996106,1.0994087,1.0992761,1.0992547,1.0993474,1.0995178,1.0997144,1.0999212,1.1001254,1.1002903,1.1003586,1.1003878,1.1003579,1.1002752,1.1001589,1.1000016,1.0997996,1.0995746,1.0993619,1.0992024,1.0991062,1.0990279,1.0989366,1.0988002,1.0986296,1.0984588,1.0983298,1.0982654,1.0982596,1.0982735,1.0982862,1.0983126,1.098386,1.0985185,1.0986898,1.0988381,1.0989785,1.0991147,1.0992537,1.0993657,1.0994225,1.0994039,1.0993133,1.0991366,1.0988615,1.0985239,1.0981731,1.0978726,1.0976391,1.0975069,1.0974553,1.0974987,1.0976849,1.0980062,1.0983832,1.0987511,1.0990334,1.099169,1.0990207,1.0985157,1.0976641,1.0965345,1.0951664,1.0937953,1.0925498,1.0915723,1.0909185,1.0904348,1.0901024,1.0900378,1.090304,1.0906955,1.0909669,1.0908928,1.0905101,1.0900071,1.0895572,1.0892618,1.0890843,1.0889928,1.088865,1.0885246,1.0879874,1.0873549,1.0867323,1.0862446,1.0859027,1.0856388,1.0854201,1.0852747,1.0852058,1.0852729,1.0855249,1.085875,1.0862634,1.0866637,1.0870359,1.0873287,1.0875574,1.087704,1.0878079,1.0878329,1.0878372,1.0878452,1.0878872,1.0879259,1.0879614,1.087996,1.0880253,1.0881032,1.0882418,1.0883896,1.08849,1.0886099,1.0886678,1.0886137,1.0883353,1.0881057,1.0879042,1.0877057,1.0875359,1.0874224,1.0874336,1.0875508,1.0877142,1.0879107,1.0880849,1.0882462,1.0884383,1.0886251,1.0887854,1.0888698,1.0889257,1.0889902,1.0891265,1.0893298,1.0896223,1.0899936,1.0904171,1.0907899,1.0911348,1.0913942,1.0915164,1.0915353,1.0914869,1.0913856,1.091014,1.0905604,1.0900596,1.089489,1.0888863,1.0883062,1.0877421,1.0871832,1.086588,1.0859377,1.0852334,1.0845168,1.0838172,1.0831633,1.0825968,1.0821581,1.0817829,1.0814509,1.0811825,1.0809231,1.0806007,1.0803628,1.0802914,1.080292,1.0802994,1.0803745,1.0805645,1.0808468,1.0811226,1.0812522,1.0815765,1.0822315,1.0827799,1.0832138,1.0836191,1.0840845,1.0845032,1.084799,1.0850747
1.0836024,1.0985782,1.1048399,1.1058824,1.1041596,1.1019045,1.0998904,1.0982063,1.0968039,1.0955372,1.0945387,1.0937668,1.0931225,1.0927205,1.0924578,1.0921857,1.0920161,1.0918369,1.0917461,1.0917115,1.0916308,1.0914899,1.091377,1.0912848,1.0911578,1.0908835,1.090724,1.0907626,1.0909681,1.0912015,1.0914065,1.0916085,1.0918927,1.0921686,1.0923669,1.0924597,1.0925095,1.0925765,1.092705,1.0928649,1.0929619,1.0929983,1.0930116,1.0929391,1.0927336,1.0923612,1.0918405,1.0912435,1.090657,1.0902691,1.0901321,1.0902762,1.090538,1.0907252,1.090657,1.0903695,1.0902467,1.0905764,1.0917432,1.0934975,1.095019,1.0959773,1.0966403,1.0968632,1.0969248,1.0969899,1.0970376,1.0970709,1.0970526,1.0970271,1.0970333,1.097071,1.0971384,1.0972619,1.0974345,1.0976614,1.0979471,1.098299,1.0986896,1.099051,1.0993658,1.0996511,1.0999513,1.1002505,1.1004841,1.1006467,1.1007428,1.1007838,1.1007929,1.1007845,1.1007723,1.1007676,1.1007792,1.1008106,1.1008954,1.101009,1.1011051,1.1011721,1.1011827,1.1011435,1.1010671,1.1009682,1.1008594,1.1007653,1.1006916,1.100615,1.1005489,1.1005331,1.1005837,1.1006784,1.1007664,1.1008127,1.1008158,1.1007884,1.10074,1.1006682,1.1005365,1.1003876,1.1002424,1.1000893,1.0999317,1.0997941,1.0997238,1.0997539,1.0998834,1.1000756,1.1002893,1.1005163,1.1007514,1.1009808,1.1011832,1.1013396,1.1014022,1.1014218,1.1014097,1.1013551,1.1012465,1.1010995,1.1009495,1.1008389,1.1007496,1.1006385,1.1004902,1.1002958,1.1000566,1.0997987,1.0995772,1.0994277,1.0993575,1.0993273,1.099318,1.0993367,1.099407,1.099524,1.0996652,1.0997739,1.0998197,1.0998287,1.0998371,1.0998322,1.0997882,1.0996828,1.0995064,1.0992385,1.0988595,1.098407,1.0979357,1.0975199,1.0971944,1.0969943,1.0968945,1.0968994,1.0970571,1.0973766,1.0978217,1.0983597,1.098917,1.0994134,1.0996714,1.0995502,1.0989966,1.09802,1.0966296,1.0951673,1.0938438,1.0928435,1.092208,1.0917094,1.091325,1.0912367,1.091584,1.0921537,1.0926254,1.0926821,1.0923154,1.0916907,1.091049,1.0905374,1.0901649,1.0899355,1.0897299,1.0893469,1.0887996,1.0881699,1.087577,1.087153,1.0868802,1.0866927,1.0865529,1.0864935,1.0865216,1.0866871,1.0870265,1.087447,1.0878878,1.0883169,1.0887024,1.0890012,1.0892187,1.089345,1.0894271,1.0894377,1.0894377,1.0894485,1.0894997,1.0895389,1.0895607,1.0895586,1.0895281,1.0895333,1.089597,1.0896661,1.089682,1.0897024,1.0896459,1.0894618,1.089062,1.0887328,1.0884557,1.0882134,1.0880178,1.0878909,1.0878897,1.0879924,1.0881321,1.0882927,1.0884045,1.0884717,1.0885386,1.0885814,1.0885942,1.0885499,1.0885115,1.0885184,1.0886331,1.0888358,1.0891455,1.0895452,1.0899856,1.0903559,1.0906711,1.0908813,1.0909376,1.0908787,1.0907431,1.090565,1.090142,1.0896595,1.0891371,1.0885545,1.0879446,1.0873533,1.0867751,1.0861858,1.0855466,1.0848322,1.084067,1.0833205,1.082597,1.0819273,1.0813583,1.0809343,1.0805964,1.0803056,1.0800836,1.0799062,1.0796502,1.0794618,1.0794168,1.0794306,1.0793836,1.0794005,1.0795329,1.079752,1.0799618,1.0800303,1.0803008,1.0809171,1.0814462,1.0818774,1.0822902,1.0827647,1.08319,1.0834765,1.0837259
1.0676988,1.0899103,1.1010877,1.1046861,1.1041087,1.1021595,1.0998936,1.0979627,1.0966384,1.09551,1.0946769,1.0940236,1.0934552,1.093061,1.0928695,1.0927172,1.0925195,1.0923069,1.0921701,1.0920415,1.0918933,1.0917788,1.0917428,1.0916803,1.0916439,1.0915539,1.0916073,1.0918729,1.0923054,1.092742,1.0931156,1.0934608,1.0938569,1.0941765,1.0943666,1.0944355,1.0944613,1.0944556,1.0945089,1.0946603,1.0948298,1.0949874,1.0951263,1.0951512,1.0950128,1.0946608,1.0940907,1.0933385,1.0925524,1.092028,1.0919018,1.0921956,1.0925995,1.0930463,1.0932429,1.0929477,1.0925962,1.0925891,1.093279,1.0946114,1.0960767,1.0971575,1.0978997,1.0982225,1.0982677,1.0982814,1.0982907,1.0982934,1.098268,1.0982628,1.0983176,1.0984652,1.0986772,1.0989033,1.0991404,1.0994028,1.0997168,1.1001083,1.1005464,1.1008989,1.1011747,1.1013997,1.1016234,1.1018305,1.1020094,1.1021185,1.102143,1.1021298,1.1021006,1.1020846,1.1020935,1.1021247,1.1021712,1.1022248,1.1022832,1.102339,1.1023746,1.1023875,1.1023631,1.1023068,1.1022341,1.1021603,1.1020968,1.1020496,1.1020093,1.1019753,1.1019379,1.1019065,1.1019158,1.1019567,1.10198,1.1019576,1.1018977,1.1018207,1.1017352,1.1016469,1.1015218,1.101404,1.1013076,1.101213,1.1011178,1.1010377,1.1010122,1.1010671,1.1011982,1.1013696,1.1015508,1.1017461,1.1019628,1.1021929,1.1024119,1.1026165,1.1027839,1.1028967,1.102961,1.1029855,1.1029489,1.1028608,1.1027534,1.102669,1.1025848,1.1024671,1.1023041,1.1020977,1.1018655,1.1016197,1.1013961,1.1012459,1.1011897,1.1011857,1.1012155,1.1012733,1.1013733,1.1014949,1.1016047,1.1016426,1.1015863,1.1014576,1.1013069,1.1011949,1.1011043,1.1010119,1.1007864,1.10043,1.0999421,1.0993515,1.098726,1.0981541,1.0976906,1.0973694,1.0971582,1.0970395,1.0970598,1.0972395,1.0975848,1.0980978,1.0987238,1.0993862,1.0999002,1.1000636,1.0997484,1.0988834,1.0974133,1.0957844,1.0942953,1.0931978,1.0925246,1.0919724,1.0914996,1.091345,1.0917498,1.0924902,1.0931621,1.0935128,1.0934355,1.0928364,1.092092,1.0914841,1.0910187,1.0907642,1.0905988,1.0902936,1.0898471,1.0893334,1.0888677,1.0885823,1.0884521,1.0884106,1.0884085,1.0884758,1.088612,1.088871,1.0891911,1.0895271,1.0899073,1.0903151,1.0906945,1.0909952,1.0912225,1.0913645,1.0914588,1.091465,1.0914464,1.0914369,1.0914662,1.0914748,1.0914626,1.091425,1.091366,1.0913519,1.0914055,1.091468,1.0914822,1.0914668,1.0913147,1.0910091,1.0904884,1.0900508,1.0896819,1.0893788,1.0891361,1.0889702,1.0889215,1.0889643,1.0890377,1.0891205,1.0891283,1.089062,1.0889652,1.0888226,1.0886531,1.0884458,1.0882808,1.088194,1.0882438,1.0883958,1.0886667,1.0890378,1.0894392,1.0897577,1.089998,1.0901537,1.0901718,1.0900549,1.0898545,1.0896347,1.0892084,1.0887597,1.0882899,1.08777,1.0872264,1.0866919,1.0861578,1.0856109,1.0850492,1.0843754,1.0836182,1.0828269,1.0820515,1.081337,1.0807676,1.0803833,1.0801077,1.0799041,1.0797485,1.0795889,1.0793347,1.0791366,1.079057,1.0790246,1.0788854,1.0788141,1.0788623,1.0789979,1.0791628,1.0792209,1.0794501,1.08002,1.0805256,1.0809549,1.0813777,1.0818661,1.0823021,1.0825787,1.082799
1.0490786,1.0749875,1.092314,1.1000519,1.1015072,1.1001801,1.0976231,1.0953512,1.0937698,1.0929435,1.0927477,1.0926373,1.0923513,1.0923237,1.0925224,1.0926805,1.0927145,1.0927061,1.0927591,1.0928569,1.0929174,1.0929594,1.0930606,1.0931929,1.0933645,1.0934751,1.0937195,1.0941508,1.0947182,1.0952022,1.0955298,1.0958035,1.0960902,1.096323,1.096469,1.0965154,1.0965025,1.0964888,1.0965436,1.0966796,1.0968283,1.0969758,1.0971262,1.0971627,1.0970199,1.0966039,1.095915,1.0948821,1.0937953,1.0929848,1.0927625,1.0931485,1.0936363,1.0941327,1.0945287,1.0944787,1.094251,1.0941522,1.0945516,1.0956011,1.0968933,1.0979254,1.0987251,1.0992637,1.0994666,1.0994974,1.0995145,1.0995419,1.0995696,1.0996428,1.0997899,1.1000285,1.1003302,1.1006229,1.1008854,1.1011328,1.1014178,1.1017861,1.102195,1.102534,1.102783,1.1029551,1.1031067,1.1032501,1.1033766,1.1034584,1.1035023,1.103523,1.1035308,1.1035414,1.1035756,1.1036425,1.1037252,1.1038036,1.1038535,1.1038713,1.1038566,1.1038167,1.1037514,1.1036766,1.1036061,1.1035459,1.1034784,1.1034253,1.1034026,1.1033764,1.1033454,1.1033326,1.1033487,1.1033823,1.1033741,1.1033087,1.1032082,1.1030967,1.1029868,1.1028866,1.102767,1.1026902,1.1026549,1.1026223,1.1025865,1.102553,1.1025555,1.1026132,1.1027193,1.10284,1.1029586,1.1030908,1.1032578,1.1034598,1.1036752,1.1038934,1.1040907,1.1042378,1.1043556,1.1044326,1.1044436,1.1044018,1.1043355,1.1042778,1.1042033,1.1040847,1.1039288,1.1037451,1.1035578,1.1033576,1.1031859,1.1031232,1.1031479,1.1031965,1.1032839,1.103389,1.103513,1.1036252,1.103688,1.1036632,1.1035523,1.1034086,1.1032782,1.103171,1.1030707,1.1029434,1.1027491,1.102454,1.1020133,1.1013792,1.1006622,1.0999507,1.0993407,1.0988891,1.0985525,1.0982914,1.0981556,1.098167,1.098356,1.0987519,1.0993153,1.0999951,1.1006358,1.1009853,1.1008501,1.1000624,1.0984676,1.0966027,1.094867,1.0935915,1.0928133,1.0921545,1.0915325,1.0911882,1.0914606,1.0922756,1.093139,1.0934596,1.0933771,1.0928771,1.0921154,1.0914314,1.0909443,1.090738,1.0906599,1.0904578,1.090143,1.089817,1.0895891,1.0895417,1.0896113,1.0897131,1.0898068,1.089931,1.090077,1.0902746,1.0905831,1.090953,1.0913522,1.0917715,1.0921514,1.0924491,1.0926632,1.0927821,1.0928466,1.0928202,1.0927694,1.0927346,1.0927508,1.0927527,1.092743,1.0927042,1.0926361,1.0926077,1.0926448,1.0926878,1.0926696,1.0926441,1.0925357,1.0922725,1.0917727,1.0913037,1.090874,1.0905294,1.0902483,1.0900428,1.0899394,1.089913,1.0899103,1.0899067,1.0898061,1.0896051,1.0893469,1.0890219,1.0886772,1.0883136,1.0880216,1.08783,1.0877872,1.0878458,1.0880232,1.0883008,1.0885959,1.0887995,1.0889416,1.0890307,1.08897,1.0887835,1.0885231,1.088277,1.0878718,1.0874895,1.0871143,1.0867081,1.0862896,1.0859134,1.0855277,1.0850787,1.0845375,1.0838737,1.0831466,1.0824,1.0816569,1.0809755,1.0804113,1.0800056,1.0797211,1.0795183,1.0793675,1.0792104,1.0789526,1.0787213,1.0785396,1.0784277,1.0782776,1.0781704,1.0781808,1.0782764,1.0783924,1.0784397,1.0787103,1.0792844,1.0797832,1.0802307,1.0806775,1.0811903,1.0816514,1.0819371,1.0821502
1.0302818,1.0570359,1.0792856,1.0915759,1.0961778,1.0965072,1.094459,1.0919616,1.0897961,1.0890055,1.0892806,1.0897611,1.0901792,1.090951,1.0917654,1.0923204,1.0927427,1.0930889,1.0934415,1.0937773,1.0940855,1.0943722,1.0946599,1.0949697,1.0953361,1.09562,1.0959537,1.0963616,1.0968397,1.0972722,1.0976498,1.0979683,1.0982819,1.0985255,1.0986624,1.0986829,1.0986323,1.0985737,1.0985942,1.0987183,1.0988677,1.0990247,1.0991951,1.0992341,1.0990574,1.0985034,1.0975606,1.0962427,1.0946281,1.0934434,1.0930536,1.0935113,1.0941607,1.0948193,1.0953386,1.0954611,1.0952564,1.095235,1.0955429,1.0963483,1.0974619,1.0984612,1.0993409,1.1000594,1.1004857,1.1006469,1.1006721,1.1007149,1.1007719,1.1008927,1.101101,1.1013821,1.1016905,1.1019888,1.102266,1.1025431,1.1028622,1.1032357,1.1036451,1.103989,1.1042173,1.104348,1.1044395,1.1045258,1.1046052,1.1046572,1.1046836,1.1047021,1.1047235,1.1047642,1.1048428,1.1049638,1.1050982,1.105222,1.1053131,1.1053584,1.1053615,1.1053188,1.1052272,1.1051396,1.1050787,1.1050432,1.1049967,1.1049542,1.1048994,1.104835,1.1047654,1.104708,1.1046739,1.1046536,1.1046236,1.104579,1.1044903,1.1043735,1.1042745,1.104209,1.1041418,1.1041049,1.1041024,1.1041055,1.1041019,1.1040908,1.1041021,1.1041503,1.1042155,1.1042643,1.1042933,1.1043303,1.1044097,1.1045339,1.104722,1.1049383,1.1051428,1.1053263,1.1054717,1.1055783,1.1056089,1.1055763,1.1055132,1.105442,1.1053451,1.1052114,1.1050415,1.1048548,1.1046951,1.1045654,1.1044458,1.1044197,1.1045231,1.1047056,1.104938,1.105161,1.1053655,1.1055148,1.1055677,1.1055017,1.1053284,1.1051254,1.1049526,1.1048337,1.1047473,1.1046436,1.1044545,1.1041336,1.1036315,1.1030082,1.1022911,1.1015033,1.1008313,1.1003386,1.0999529,1.0995717,1.0993197,1.0992177,1.0992913,1.0995828,1.1000471,1.1006613,1.10133,1.1017711,1.1017661,1.1010854,1.0994081,1.0973244,1.0953338,1.0938436,1.0928615,1.0921099,1.0914121,1.0909059,1.0909619,1.0917518,1.0927448,1.0932126,1.0932791,1.0929234,1.0922272,1.0915254,1.0910289,1.0908744,1.0908921,1.090782,1.0905418,1.0902886,1.090147,1.0902325,1.0904646,1.0907474,1.0910097,1.0912703,1.0915133,1.0917642,1.0920837,1.0924413,1.0928216,1.0932202,1.0935416,1.0937715,1.0939386,1.0940176,1.0940382,1.0939721,1.0938945,1.0938425,1.0938414,1.0938386,1.093852,1.0938532,1.0938212,1.0938134,1.0938582,1.0939212,1.0939007,1.0938492,1.093704,1.0934005,1.0928571,1.0923747,1.0919545,1.0916072,1.0913186,1.0910847,1.0909162,1.0908022,1.0907094,1.0906241,1.0904429,1.0901532,1.0897751,1.0892906,1.0887942,1.0882838,1.0878677,1.0875652,1.0874109,1.0873437,1.0873816,1.0875144,1.0876536,1.0877302,1.0877709,1.0877461,1.0876118,1.0873761,1.087074,1.086821,1.0864532,1.0861597,1.0859202,1.0856975,1.0854452,1.0851717,1.0848815,1.0845157,1.0841163,1.0835552,1.0828693,1.0821207,1.0813708,1.0806775,1.0801083,1.0796962,1.0794033,1.0791929,1.0790333,1.0788099,1.0784416,1.0781302,1.0779386,1.0778234,1.0776713,1.077569,1.0775743,1.077661,1.0777593,1.0777893,1.0780584,1.0786521,1.0791771,1.0796647,1.0801374,1.0806653,1.0811577,1.0814917,1.081747
1.0158801,1.0394397,1.0644583,1.0819578,1.0902221,1.0929964,1.0920451,1.0896814,1.0872915,1.0864209,1.0867877,1.0876355,1.0885007,1.0898004,1.091088,1.0921786,1.0929303,1.0936046,1.0942351,1.0947881,1.0952656,1.0956794,1.0960665,1.0964638,1.096912,1.0972688,1.0976605,1.0981119,1.0986235,1.0990806,1.0994782,1.0998166,1.1001494,1.1004126,1.1005759,1.1006235,1.1005955,1.1005495,1.1005758,1.1007032,1.1008489,1.1010151,1.1012173,1.1013064,1.1011605,1.1005237,1.0993456,1.0976007,1.0953568,1.0937427,1.0931373,1.0936656,1.0945332,1.0953133,1.0959488,1.0962417,1.0961463,1.0960451,1.0963888,1.0971055,1.098043,1.0990453,1.1000125,1.1008493,1.1013978,1.1015918,1.1016307,1.1016293,1.1016848,1.1018562,1.1021346,1.1024857,1.1028477,1.1031773,1.1034646,1.1037395,1.1040547,1.1044267,1.1048393,1.1051743,1.1053759,1.1054659,1.1055121,1.1055613,1.105617,1.1056592,1.1056833,1.1057088,1.1057477,1.1058162,1.1059313,1.1060953,1.1062706,1.1064281,1.1065361,1.1065769,1.106558,1.1064913,1.1063933,1.1062872,1.1061964,1.1061347,1.106098,1.1060704,1.1060364,1.1059918,1.105934,1.1058805,1.1058416,1.1058099,1.1057625,1.1056858,1.1055975,1.105458,1.1053352,1.105267,1.1052165,1.105206,1.1052313,1.1052532,1.1052551,1.1052278,1.1052239,1.1052763,1.1053357,1.1053708,1.1053852,1.1054114,1.1054895,1.1056308,1.1057951,1.1059663,1.1061084,1.1062548,1.1063906,1.1064863,1.1064994,1.1064308,1.1063373,1.1062342,1.1060983,1.1059171,1.1056954,1.105494,1.1053511,1.1052125,1.1051285,1.1051695,1.1053605,1.1056352,1.1059592,1.1062429,1.1064761,1.1066202,1.106633,1.1065061,1.1062562,1.1059811,1.1057549,1.1056161,1.1055375,1.1054605,1.1052921,1.1049707,1.1044362,1.1037428,1.1029987,1.1022446,1.1014783,1.1008747,1.1003635,1.0999045,1.0996383,1.0995579,1.0996559,1.0999837,1.1004403,1.1009876,1.1015954,1.102067,1.1021786,1.1015755,1.099959,1.0978037,1.0956247,1.0940056,1.0929877,1.0921953,1.0914112,1.0908296,1.0907543,1.0914376,1.0924714,1.0931218,1.093364,1.0932425,1.0927546,1.0920901,1.0915663,1.0913951,1.0914023,1.0912943,1.0910785,1.0908608,1.0908065,1.0910503,1.0914714,1.0919445,1.0923607,1.0927281,1.0930378,1.093285,1.0935447,1.0938344,1.0941374,1.0944349,1.0947099,1.0949371,1.0951,1.095174,1.0951889,1.0951185,1.095036,1.094982,1.0949839,1.0949855,1.0950001,1.0949948,1.0949484,1.0949216,1.094942,1.0949733,1.0949662,1.0949497,1.0948465,1.0946044,1.0940958,1.0936186,1.0932055,1.0928621,1.0925658,1.0923097,1.0920992,1.091919,1.0917411,1.0915422,1.0912215,1.09078,1.090267,1.0897143,1.0891763,1.0885623,1.0880309,1.0875994,1.0872988,1.087066,1.0869256,1.0868759,1.0868366,1.0867652,1.0867027,1.0866189,1.0864568,1.0862013,1.0858955,1.0856636,1.0853474,1.0851843,1.0850683,1.0849124,1.084733,1.084568,1.0844359,1.0842056,1.0838568,1.0833461,1.0827029,1.081988,1.0812593,1.0805776,1.0800176,1.0796008,1.0792825,1.0790207,1.0787566,1.0784044,1.0780128,1.0776961,1.0774922,1.0773683,1.0772021,1.0770786,1.0770583,1.0771208,1.0771973,1.0772171,1.0774789,1.0780579,1.0785719,1.0790528,1.0795364,1.0800934,1.0806321,1.081038,1.0813404
1.0054865,1.0252742,1.0505016,1.0720463,1.085149,1.0909811,1.0918217,1.0904502,1.0882255,1.0871935,1.0873423,1.0880797,1.0888219,1.0901208,1.0915606,1.0927842,1.0937178,1.0945568,1.0953243,1.0959716,1.0965147,1.096971,1.0973904,1.0978231,1.0983143,1.0987129,1.0991331,1.0995972,1.1001132,1.1005778,1.1009979,1.1013683,1.1017437,1.1020601,1.1022955,1.1024234,1.1024711,1.1024783,1.1025274,1.1026506,1.1027695,1.1029322,1.1031779,1.1033798,1.1033552,1.1027286,1.1013756,1.0991249,1.096296,1.0941722,1.0932823,1.0938354,1.0949268,1.0957938,1.0965109,1.0968274,1.0968086,1.0967221,1.0969548,1.0975775,1.0985024,1.0995564,1.1006043,1.1015279,1.1021405,1.1023917,1.1023717,1.1023335,1.1024146,1.1026531,1.1030066,1.1034245,1.1038357,1.1041955,1.1044881,1.1047544,1.1050608,1.1054337,1.105844,1.1061664,1.1063521,1.1064258,1.1064614,1.1065114,1.1065757,1.1066353,1.1066854,1.1067345,1.1068017,1.1069007,1.107046,1.1072371,1.107434,1.1076083,1.1077316,1.1077772,1.1077495,1.1076665,1.1075491,1.1074278,1.1073234,1.1072487,1.1072009,1.1071672,1.1071312,1.1070848,1.1070213,1.1069553,1.1069005,1.1068435,1.1067683,1.1066408,1.106485,1.1063212,1.1061971,1.1061333,1.1060988,1.1061137,1.1061714,1.10623,1.1062691,1.106278,1.1062816,1.1063015,1.106331,1.1063406,1.1063383,1.1063571,1.1064377,1.1065855,1.1067438,1.1068813,1.107037,1.1071941,1.1073321,1.1073799,1.1073484,1.1072731,1.1071684,1.1070489,1.1068997,1.1067185,1.1065159,1.1063099,1.1061265,1.1059647,1.1058778,1.1059282,1.1061404,1.1064297,1.1067524,1.1069995,1.1071873,1.1072738,1.1072135,1.1070065,1.1066715,1.106308,1.105988,1.1057694,1.1056638,1.1056073,1.1054636,1.1051469,1.104534,1.103719,1.1028492,1.1019399,1.1010292,1.100257,1.0996218,1.0991354,1.0989293,1.0990274,1.0993748,1.0998693,1.1003857,1.1009765,1.1016269,1.1021518,1.1023196,1.1017253,1.1001568,1.0979656,1.0957162,1.0941252,1.0932195,1.0924841,1.091654,1.0909672,1.0907689,1.0913019,1.0923604,1.0931772,1.0935979,1.0935966,1.0932548,1.0927333,1.0921826,1.0918779,1.0916947,1.091543,1.0913855,1.0911956,1.0912609,1.091712,1.0923672,1.0930333,1.0935321,1.0939169,1.0941887,1.0944195,1.0946984,1.0950006,1.0953212,1.0956314,1.095908,1.0961276,1.0962771,1.0963367,1.0963378,1.0962572,1.0961616,1.096098,1.0960929,1.0960908,1.0961013,1.0960875,1.0960262,1.0959809,1.0959771,1.0959835,1.0959486,1.0959017,1.0957725,1.09551,1.0950322,1.0946102,1.0942345,1.0938938,1.0935695,1.0932708,1.0930214,1.0928063,1.09259,1.0923227,1.0919058,1.0913644,1.090754,1.0901065,1.0894997,1.0888853,1.0883176,1.0877817,1.087343,1.0869629,1.0866698,1.0864544,1.0862527,1.0860589,1.0859232,1.0858119,1.0856593,1.0854392,1.0852201,1.085109,1.0849204,1.0848087,1.0847594,1.0846747,1.0845747,1.0844855,1.0843772,1.0841672,1.0838575,1.0833975,1.0827997,1.0821213,1.0814168,1.080747,1.0801889,1.0797522,1.0793846,1.0789863,1.078558,1.0781457,1.0777166,1.0773684,1.077136,1.0769893,1.0768015,1.0766532,1.0766053,1.0766416,1.0766958,1.0767045,1.076957,1.0775175,1.0780092,1.07847,1.0789325,1.0794669,1.0799863,1.0803602,1.080641
0.9992626,1.0145814,1.0383918,1.0629815,1.080692,1.090422,1.0940161,1.0939153,1.0925238,1.0915217,1.091153,1.0913535,1.0918794,1.0926039,1.0937011,1.0945761,1.0954294,1.096235,1.0969672,1.0975689,1.098062,1.0984707,1.098856,1.0992734,1.0997708,1.1001873,1.1006244,1.1010985,1.101624,1.1021087,1.102566,1.1030035,1.1034713,1.1038868,1.1042328,1.1044686,1.1046035,1.1046546,1.1046867,1.1047447,1.1047667,1.1048639,1.1051188,1.1054604,1.1056387,1.1051443,1.1037233,1.1011214,1.0976572,1.0949669,1.0937321,1.0942056,1.0954547,1.0964634,1.0971956,1.0974951,1.0974553,1.0972991,1.0972645,1.0977757,1.0988607,1.1000011,1.1011101,1.1020744,1.1026819,1.1028354,1.1027008,1.10261,1.1027914,1.1032193,1.1037369,1.1042674,1.1047359,1.1051323,1.1054133,1.1056404,1.1059206,1.1063161,1.1067641,1.1071208,1.1073332,1.1074519,1.1075497,1.1076715,1.1078203,1.1079688,1.1081133,1.1082348,1.1083608,1.1084994,1.1086628,1.1088511,1.1090279,1.1091737,1.1092873,1.1093225,1.1092949,1.1092128,1.1090968,1.1089755,1.1088645,1.1087747,1.1087077,1.1086571,1.1086063,1.1085445,1.1084626,1.1083765,1.1083059,1.1082184,1.108098,1.107938,1.1077586,1.1076037,1.1074868,1.1074133,1.1073703,1.1073773,1.107429,1.1074874,1.107528,1.1075375,1.107542,1.1075675,1.1076043,1.1076233,1.1076318,1.1076611,1.1077508,1.1078942,1.1080341,1.108166,1.1082749,1.1083723,1.1084366,1.1084219,1.1083575,1.1082428,1.1080961,1.1079371,1.1077697,1.1075871,1.1073972,1.107219,1.1070646,1.1069238,1.1068461,1.1068959,1.1070961,1.1073585,1.1076303,1.1077999,1.1078556,1.1078123,1.1076455,1.1073492,1.1069348,1.1064749,1.1059902,1.1055913,1.1054215,1.1053767,1.105226,1.1048088,1.1039578,1.1028104,1.101608,1.1005147,1.0995703,1.0987335,1.0980189,1.0974991,1.0974023,1.0977683,1.098489,1.0993665,1.1001086,1.1007154,1.1012996,1.1018002,1.1020759,1.1016676,1.1000297,1.0976719,1.0954287,1.0939023,1.0933167,1.0928662,1.0920372,1.0911278,1.0905924,1.0909944,1.0921602,1.0931625,1.0937428,1.0938847,1.0936124,1.0931109,1.092531,1.0921072,1.0918295,1.0915556,1.091225,1.0911152,1.0913758,1.0921227,1.0930887,1.0940017,1.0946383,1.0951034,1.0954186,1.095665,1.0959594,1.0962772,1.0966201,1.0969467,1.0972248,1.0974324,1.0975575,1.0975893,1.0975621,1.0974543,1.0973291,1.0972378,1.0972092,1.0971861,1.0971744,1.0971351,1.097042,1.096967,1.096931,1.0969081,1.0968451,1.0967698,1.0966157,1.096338,1.0958483,1.0954144,1.0950248,1.0946608,1.0942993,1.0939441,1.0936223,1.0933224,1.0930169,1.092666,1.0922242,1.0916762,1.091052,1.090412,1.0898361,1.0892364,1.088654,1.0880809,1.0875728,1.0870875,1.0866649,1.0863233,1.0860386,1.08581,1.0856988,1.0856481,1.0855794,1.0855076,1.0854313,1.0854306,1.08535,1.0853176,1.0852699,1.0851514,1.085001,1.0848684,1.0847268,1.0844684,1.0841365,1.0836803,1.0831027,1.0824435,1.0817468,1.0810666,1.0804718,1.0799658,1.0794829,1.0789982,1.0785121,1.078037,1.0775561,1.0771631,1.0768869,1.0767006,1.0764784,1.0762951,1.0762107,1.0762131,1.0762379,1.0762277,1.0764644,1.0769986,1.0774574,1.0778818,1.0783064,1.0788014,1.0792837,1.0796127,1.0798459
0.9956588,1.0066848,1.0270405,1.0528617,1.074841,1.0891129,1.096109,1.0980206,1.0976396,1.0968584,1.0962677,1.0961084,1.0962038,1.0963686,1.0965531,1.0971146,1.0977131,1.0983601,1.0989609,1.0994557,1.0998564,1.10019,1.1005208,1.1009043,1.1013875,1.1018043,1.1022453,1.1027253,1.1032579,1.1037614,1.1042876,1.104845,1.1054629,1.1060212,1.1064951,1.1068318,1.1070268,1.1070817,1.1070468,1.1069856,1.1068529,1.1068263,1.1070347,1.1075052,1.1079082,1.1076074,1.1061912,1.1033709,1.0993235,1.0960517,1.0944448,1.0947678,1.0960783,1.0972204,1.097939,1.0981992,1.0981688,1.0978045,1.0976417,1.0981765,1.0994278,1.1006944,1.1018641,1.1028408,1.1033888,1.1033152,1.1031444,1.1030364,1.1032389,1.1037369,1.1044129,1.1050733,1.105576,1.1059722,1.1062579,1.1064858,1.1067417,1.107095,1.1075567,1.1080166,1.108309,1.1085131,1.1087235,1.1089708,1.1092823,1.1095573,1.1097717,1.1099482,1.1101196,1.1102886,1.1104667,1.1106524,1.1108193,1.1109508,1.1110115,1.1109807,1.1109228,1.1108414,1.110733,1.1106188,1.1105051,1.1104002,1.1103137,1.1102457,1.1101801,1.110103,1.1100037,1.1098996,1.1098111,1.1097339,1.1096406,1.1094856,1.1093044,1.1091392,1.1090114,1.1089394,1.1088856,1.1088678,1.1088805,1.1088967,1.1089015,1.1088822,1.1088579,1.1088536,1.1088626,1.1088636,1.1088604,1.1088718,1.1089278,1.1090325,1.1091357,1.109216,1.1092646,1.1092827,1.1092565,1.1092052,1.109107,1.108969,1.1088101,1.1086358,1.1084352,1.1082368,1.1080734,1.1079366,1.1078159,1.1076946,1.107616,1.1076431,1.1077933,1.1079807,1.1081479,1.1082025,1.1081479,1.108022,1.1078076,1.1074777,1.1070188,1.1064692,1.1058586,1.105373,1.1050752,1.1048263,1.1044295,1.1037083,1.1026475,1.1013825,1.1001532,1.0991017,1.0981952,1.0973902,1.0966997,1.0962236,1.0962807,1.0969596,1.0980272,1.0991735,1.1000113,1.1005793,1.101093,1.1015272,1.1018136,1.1015083,1.0999882,1.0975432,1.0952396,1.0937924,1.0935051,1.0934266,1.0927564,1.091532,1.0904965,1.090604,1.091757,1.0929599,1.0936776,1.0939429,1.0937474,1.0932324,1.0926172,1.0920663,1.0916553,1.0911509,1.0907202,1.0907068,1.0911974,1.0922863,1.0936041,1.0948191,1.0956662,1.0962076,1.0965571,1.0968161,1.0971363,1.0974817,1.0978593,1.0982146,1.0984982,1.0986893,1.0987805,1.098774,1.0987089,1.0985637,1.0983973,1.0982666,1.0982041,1.0981544,1.0981153,1.0980452,1.0979171,1.0978093,1.097743,1.0976949,1.0976075,1.0975091,1.0973341,1.0970321,1.0965226,1.096076,1.095672,1.0952833,1.094887,1.0944767,1.0940819,1.0936913,1.0932949,1.0928569,1.0923445,1.0917742,1.0912237,1.090719,1.0903246,1.0898868,1.0894498,1.0889692,1.088495,1.0879736,1.0874894,1.0870705,1.0866686,1.086359,1.0862994,1.0863457,1.0863705,1.0863612,1.0863297,1.0863726,1.0863165,1.0862715,1.0861934,1.0860163,1.0857733,1.0855379,1.0852983,1.084996,1.0846136,1.0840936,1.0834894,1.0828314,1.0821406,1.0814564,1.0808415,1.0803169,1.0798054,1.0792696,1.0787158,1.0781711,1.077629,1.0771772,1.0768408,1.0765933,1.0763166,1.0760804,1.0759428,1.0758921,1.0758698,1.0758222,1.0760279,1.0765238,1.0769396,1.0773163,1.0776904,1.0781333,1.0785646,1.0788361,1.079012
0.9935547,1.0006195,1.0162272,1.0400456,1.0657978,1.0849108,1.0959743,1.1005299,1.1014514,1.1013458,1.1008432,1.1003778,1.0999572,1.0996087,1.0995312,1.099721,1.1000896,1.100528,1.1010202,1.1014495,1.1017973,1.1020951,1.1023992,1.1027611,1.1032283,1.1036353,1.104069,1.1045421,1.1050637,1.1056029,1.1062175,1.1068482,1.107521,1.1081474,1.1086974,1.1091096,1.1093693,1.1094592,1.1094098,1.1092489,1.1089331,1.1087282,1.108847,1.1093934,1.1099621,1.1098446,1.1084483,1.1054518,1.101029,1.097218,1.0952574,1.0954139,1.0967348,1.0979642,1.0986722,1.0989087,1.0988901,1.0984038,1.0982655,1.0989552,1.1003633,1.1018186,1.1030729,1.1040586,1.1044886,1.1043663,1.1041883,1.1040897,1.1042836,1.1047611,1.1054051,1.1060332,1.106513,1.1068933,1.1071744,1.1073995,1.1076362,1.1079566,1.1083834,1.1088431,1.1092578,1.1095997,1.1099412,1.1103196,1.1107371,1.1111065,1.1113899,1.1116095,1.1118069,1.1119797,1.112138,1.112284,1.112402,1.1124866,1.112513,1.1124605,1.1123576,1.11227,1.1121664,1.1120585,1.1119397,1.111818,1.111711,1.1116261,1.1115482,1.1114593,1.1113482,1.1112349,1.1111435,1.1110642,1.1109726,1.1108551,1.110719,1.1105826,1.1104479,1.1103492,1.1102573,1.110194,1.110152,1.11011,1.1100628,1.1100004,1.1099393,1.1099014,1.1098752,1.1098404,1.1098039,1.1097789,1.1097906,1.1098452,1.1098855,1.109892,1.1098585,1.1097959,1.1097112,1.1095965,1.1094453,1.1092694,1.1090865,1.1088994,1.1087129,1.1085662,1.1084547,1.1083629,1.1082826,1.1081847,1.1081047,1.108099,1.1081779,1.1082635,1.1083028,1.1082335,1.1080831,1.1079011,1.1076717,1.1073592,1.1069403,1.106401,1.1057488,1.1051672,1.1047633,1.1044525,1.1039764,1.1031239,1.1019247,1.1005721,1.0993505,1.0983918,1.0976615,1.0970249,1.0964493,1.0960304,1.0961952,1.097106,1.0984012,1.0996981,1.1006632,1.1012492,1.1015589,1.1018395,1.1020727,1.1016791,1.1002321,1.0978893,1.0955067,1.0941011,1.0939276,1.093946,1.0934033,1.0922288,1.0908418,1.0904058,1.0913227,1.0925708,1.0933765,1.0937438,1.0936089,1.0930513,1.0923443,1.0916419,1.0910525,1.0903885,1.0899014,1.0899775,1.0906856,1.0920684,1.0937381,1.095303,1.0964353,1.0971051,1.0974984,1.0977745,1.0981228,1.098511,1.0989258,1.0993105,1.0995932,1.0997579,1.0998065,1.0997529,1.0996485,1.0994639,1.0992534,1.0990789,1.0989809,1.0989039,1.098839,1.0987384,1.0985765,1.098439,1.0983467,1.0982801,1.0981653,1.0980246,1.09781,1.0974647,1.09692,1.0964568,1.0960352,1.0956261,1.095208,1.0947545,1.0942806,1.0937741,1.0932531,1.0927093,1.0921335,1.0916151,1.0912421,1.0909631,1.0907407,1.0904329,1.0901778,1.0899043,1.0896076,1.0891836,1.0887707,1.0883815,1.0879699,1.0876005,1.0873979,1.0873226,1.0872805,1.0872252,1.0871925,1.0872226,1.0871227,1.0870099,1.0868685,1.0866606,1.0864058,1.0861411,1.0858514,1.0854789,1.0850536,1.0845428,1.0839444,1.0832908,1.0825949,1.0818989,1.0812681,1.0807222,1.0801802,1.079603,1.0789953,1.0783913,1.0777897,1.0772748,1.0768683,1.0765479,1.0762029,1.0758996,1.0756965,1.0755785,1.0754915,1.0753901,1.0755486,1.0759959,1.0763634,1.0766892,1.0770113,1.0773993,1.0777748,1.0779867,1.0781015
0.9924505,0.99620724,1.0067911,1.0261774,1.0532279,1.0768538,1.0930398,1.1010672,1.1039132,1.1044931,1.1038866,1.1031358,1.1024547,1.101949,1.1017447,1.1017966,1.101965,1.1023211,1.1028175,1.1032867,1.1036844,1.1040176,1.1043355,1.1046891,1.1051296,1.1055021,1.1059058,1.1063576,1.1068921,1.1075028,1.1081152,1.1087413,1.1094282,1.1100769,1.1106563,1.1111014,1.111397,1.111514,1.1114587,1.1112564,1.1108567,1.1105678,1.110666,1.1112509,1.1118855,1.1117921,1.1103531,1.1071446,1.102506,1.0982876,1.0960681,1.0961154,1.0974153,1.0986419,1.0993503,1.099573,1.0995377,1.0991037,1.0990777,1.0999266,1.101509,1.1031122,1.1044347,1.1053606,1.1056327,1.1054386,1.1052629,1.1051924,1.1053519,1.1057589,1.1062932,1.1067705,1.1071546,1.1074959,1.1077622,1.1079838,1.1082036,1.1084869,1.1088572,1.1092829,1.1097171,1.1101842,1.1106477,1.1110902,1.1115437,1.111941,1.1122297,1.1124427,1.112617,1.1127459,1.1128378,1.112901,1.1129463,1.1129807,1.1129751,1.1129019,1.1128223,1.1127248,1.1126175,1.1125066,1.1123719,1.1122217,1.112086,1.1119771,1.1118814,1.1117758,1.1116476,1.1115248,1.1114354,1.1113678,1.1112887,1.1111712,1.1110244,1.110876,1.1107426,1.110624,1.110498,1.1103942,1.1103262,1.1102667,1.1101949,1.1101017,1.1100049,1.109925,1.1098572,1.1097748,1.1096797,1.1096008,1.1095681,1.1095757,1.1095747,1.109546,1.1094716,1.1093612,1.1092142,1.1090274,1.1088036,1.1085701,1.1083547,1.1081698,1.1080347,1.1079416,1.1078687,1.1078305,1.107803,1.1077337,1.1076618,1.1076281,1.1076348,1.107625,1.1075473,1.1073687,1.1071349,1.1069195,1.1066952,1.1064277,1.1060708,1.1055422,1.1049113,1.104408,1.1040888,1.1038325,1.1033632,1.1024561,1.1012008,1.0998459,1.0987027,1.0979589,1.0975673,1.0971656,1.0967096,1.0963993,1.0966775,1.0976309,1.098855,1.1001011,1.101064,1.1016734,1.1019335,1.1020808,1.1022558,1.1019413,1.1004444,1.0982243,1.0958381,1.0944304,1.0943098,1.0942373,1.0938056,1.0927646,1.0913582,1.0905652,1.0910716,1.0921574,1.0930192,1.0934432,1.0933064,1.092744,1.0919338,1.0911276,1.0903957,1.0896069,1.0890675,1.0892154,1.0900197,1.0916404,1.0936885,1.0956552,1.0970469,1.0978922,1.098381,1.0987113,1.0990877,1.0995193,1.0999823,1.1003888,1.1006554,1.1007802,1.1007771,1.1006733,1.100534,1.100316,1.1000648,1.0998485,1.0997162,1.0996146,1.0995274,1.0993991,1.0992057,1.0990405,1.0989203,1.0988154,1.0986454,1.0984343,1.0981517,1.0977955,1.0972699,1.0968115,1.0963722,1.0959166,1.095434,1.0949013,1.0943339,1.0937147,1.0930605,1.092385,1.091742,1.0912583,1.0909402,1.0907829,1.0907786,1.0906997,1.0905558,1.0903825,1.0902171,1.0899522,1.0896616,1.0893444,1.0889549,1.0885379,1.0882174,1.0879825,1.0877764,1.0875931,1.0874574,1.0874361,1.0873392,1.087242,1.0871189,1.0869236,1.0866737,1.0864103,1.0861185,1.0857453,1.0853214,1.0848153,1.0842259,1.0835816,1.0828882,1.082186,1.0815427,1.080983,1.0804241,1.0798256,1.0791874,1.0785466,1.0779034,1.0773381,1.0768715,1.0764859,1.0760779,1.0757132,1.0754497,1.0752685,1.0751177,1.0749581,1.075063,1.0754576,1.0757774,1.0760567,1.0763313,1.0766718,1.0769984,1.0771595,1.0772216
0.99240184,0.99374735,0.99974316,1.0137365,1.0374393,1.0647957,1.0868039,1.0991132,1.1045952,1.1062818,1.1057796,1.1048172,1.1039295,1.1033905,1.1032181,1.1032879,1.1034931,1.1038764,1.1043775,1.1048799,1.1053137,1.1056905,1.1060371,1.1063821,1.1067832,1.1071006,1.1074462,1.1078658,1.1084278,1.1090107,1.1096072,1.1102217,1.1108994,1.1115415,1.1121213,1.1125813,1.1129205,1.1131122,1.1131549,1.1130059,1.112597,1.1122746,1.1123122,1.1129078,1.1136132,1.1134676,1.1119077,1.1084504,1.1036134,1.0991511,1.0967858,1.0967883,1.0980396,1.0991802,1.0998893,1.1000929,1.1000903,1.0997899,1.0998862,1.100873,1.1026027,1.1043451,1.1056758,1.1063879,1.1064744,1.1062522,1.1060493,1.1059341,1.1060178,1.106276,1.1065881,1.1068804,1.1071634,1.1074407,1.1076765,1.1078789,1.1080621,1.1082764,1.108541,1.1088746,1.1092557,1.1096933,1.110239,1.1107249,1.1111786,1.1114929,1.1116878,1.1118066,1.1118901,1.1119436,1.1119719,1.1119696,1.1119456,1.1119101,1.1118374,1.1117079,1.1115378,1.111382,1.1112499,1.1111294,1.1109767,1.1107923,1.1106234,1.1104951,1.1103913,1.1102805,1.1101453,1.1100278,1.1099634,1.1099365,1.1098939,1.109792,1.1096382,1.1094692,1.1093009,1.1091447,1.1089828,1.1088512,1.1087663,1.1086886,1.1085885,1.108459,1.1083283,1.1082222,1.1081383,1.1080382,1.107912,1.1077971,1.1077409,1.1077378,1.1077316,1.107697,1.1076035,1.1074603,1.107254,1.1069815,1.1066597,1.106344,1.1060824,1.1059117,1.1058025,1.1057129,1.1056676,1.1056733,1.1056926,1.1056404,1.1055646,1.1054932,1.1054246,1.1053362,1.1051699,1.1049206,1.1046367,1.1044376,1.1042945,1.1041374,1.1038426,1.1033471,1.1028304,1.1024989,1.1023641,1.1022892,1.1019638,1.1011417,1.0999601,1.0987172,1.0977559,1.0973854,1.0972328,1.0970109,1.0966938,1.0964849,1.0968444,1.0977212,1.0987966,1.0999463,1.1008077,1.1014159,1.1017971,1.1019261,1.1020235,1.1017141,1.100338,1.0981789,1.095842,1.0944762,1.0943965,1.0942774,1.0939972,1.0930096,1.0916877,1.0907658,1.0909789,1.091831,1.0926188,1.0930567,1.0928738,1.0922368,1.091362,1.0904734,1.0896147,1.0887051,1.0881345,1.0882809,1.0890665,1.0909698,1.0933716,1.0957494,1.0974895,1.0985188,1.0991722,1.0996233,1.1000288,1.1004329,1.1009399,1.1013496,1.1015705,1.1016295,1.1015651,1.1014115,1.1012468,1.1010051,1.1007233,1.100472,1.1003122,1.1001921,1.1000896,1.0999382,1.0997176,1.0995107,1.0993398,1.0991688,1.0989552,1.0987374,1.0984604,1.0981126,1.0975938,1.0971477,1.0967035,1.0962074,1.0956635,1.0950571,1.0943948,1.0936198,1.0927658,1.0918615,1.0910287,1.0903736,1.0899872,1.0898877,1.0900474,1.0902133,1.0902438,1.0901831,1.0901155,1.0899587,1.0897837,1.0895634,1.0892107,1.088767,1.0883762,1.0880505,1.0877526,1.0874946,1.0873086,1.0872543,1.0871392,1.0870361,1.0869186,1.0867372,1.086501,1.086251,1.0859683,1.085602,1.0851872,1.0846951,1.0841241,1.083499,1.0828209,1.082124,1.0814791,1.0809151,1.080353,1.0797515,1.0791065,1.078452,1.077788,1.0771902,1.0766802,1.0762458,1.0757912,1.0753827,1.0750763,1.0748497,1.0746473,1.074435,1.0744865,1.0748277,1.075099,1.0753362,1.0755696,1.0758712,1.0761601,1.0762849,1.0763113
0.99331707,0.9929949,0.9955723,1.004436,1.0233731,1.0509655,1.077709,1.0951741,1.1038184,1.107016,1.10689,1.1058451,1.1048335,1.1043775,1.1043655,1.1045613,1.1048617,1.1053119,1.1058985,1.1064507,1.106871,1.1072474,1.10759,1.1079168,1.1082809,1.1085447,1.1088508,1.1092644,1.1097996,1.1103486,1.1109104,1.1114936,1.1121442,1.1127667,1.113337,1.113807,1.1141932,1.1144762,1.1146507,1.1146135,1.1142564,1.1138964,1.1138588,1.1144102,1.1151234,1.115031,1.1132765,1.1096039,1.104572,1.099931,1.0975057,1.0974742,1.0986159,1.0996563,1.1003429,1.1005151,1.1005278,1.1003795,1.10057,1.1016238,1.1034143,1.1052536,1.1064733,1.1069992,1.1070098,1.1067495,1.1065162,1.106344,1.106292,1.1063162,1.1064074,1.1065736,1.1067786,1.106997,1.1071917,1.1073474,1.1074556,1.107556,1.107717,1.1079557,1.1082458,1.1085997,1.1090596,1.1095549,1.1099677,1.1102033,1.110276,1.1102586,1.1102307,1.1101989,1.1101549,1.1100794,1.1099484,1.1097682,1.1095376,1.1092451,1.1089399,1.1086953,1.1085244,1.1083946,1.1082327,1.1080248,1.107835,1.1077032,1.1076064,1.1075103,1.1073947,1.1073079,1.1072911,1.1073241,1.1073446,1.1073028,1.1072015,1.1070698,1.1069175,1.1067581,1.1065843,1.1064425,1.1063516,1.1062603,1.1061342,1.1059728,1.105828,1.1057518,1.1057231,1.1056886,1.1056328,1.1055813,1.1055744,1.105608,1.1056252,1.1055987,1.1054953,1.1053165,1.1050551,1.1047096,1.1043189,1.1039464,1.1036409,1.103417,1.1032449,1.1030973,1.102997,1.1029527,1.1029149,1.1027992,1.102636,1.1024609,1.1022896,1.1021152,1.1018991,1.1016643,1.1014872,1.1014194,1.1014256,1.1013724,1.101136,1.1007298,1.1003339,1.1001987,1.1002966,1.1004379,1.1002624,1.099514,1.0984316,1.0973282,1.096623,1.0964869,1.0964859,1.0963724,1.09612,1.0959537,1.0963087,1.0971353,1.0981624,1.0992117,1.1001027,1.1006902,1.1010907,1.1012299,1.10129,1.1010089,1.0997634,1.0977812,1.0955725,1.0942354,1.0941849,1.0941539,1.0939474,1.0930182,1.0917685,1.0908803,1.0908452,1.0915312,1.0922456,1.0926145,1.0924007,1.0916846,1.0907251,1.0897667,1.0887741,1.0876682,1.0870352,1.0870808,1.087961,1.0900614,1.0927882,1.09558,1.0977064,1.0990319,1.0998801,1.1004413,1.1008713,1.1012119,1.1016855,1.1020671,1.1022215,1.1022515,1.1021521,1.1019576,1.1017637,1.1014854,1.1011722,1.1008947,1.1007111,1.1005733,1.100455,1.1002815,1.1000329,1.0997806,1.0995607,1.0993624,1.099134,1.098902,1.0985864,1.0981932,1.0976399,1.0971849,1.0967305,1.0962003,1.0956123,1.0949783,1.0942942,1.0934243,1.0923648,1.0911938,1.0900457,1.0891619,1.0886807,1.0885141,1.0886517,1.0889618,1.089225,1.089284,1.0893236,1.0893285,1.0893408,1.0892518,1.088984,1.0885696,1.0881581,1.0877799,1.0874085,1.0870852,1.086845,1.0867434,1.0865864,1.0864466,1.0863054,1.0861146,1.0858755,1.0856283,1.085349,1.0849866,1.0845835,1.084108,1.0835612,1.0829635,1.0823119,1.0816327,1.0809963,1.0804384,1.0798852,1.0792929,1.0786572,1.0780063,1.0773389,1.0767272,1.0761937,1.0757322,1.0752544,1.0748273,1.0745027,1.0742545,1.074022,1.0737736,1.0737803,1.0740728,1.0742991,1.0744982,1.0746939,1.0749621,1.0752195,1.0753212,1.0753253
0.9948346,0.9933897,0.9936944,0.9988083,1.0127406,1.0372612,1.0670464,1.0893843,1.1017107,1.1068445,1.107425,1.106456,1.1054058,1.1051127,1.105339,1.1057334,1.1061623,1.1066549,1.1072667,1.1078422,1.1082859,1.1086515,1.1089628,1.1092654,1.109601,1.1098342,1.110126,1.1105155,1.1110035,1.1115139,1.1120403,1.1125954,1.11323,1.1138448,1.1144174,1.114905,1.1153408,1.115721,1.116041,1.1161361,1.1158538,1.1154742,1.1153579,1.1158273,1.116478,1.1163305,1.1145039,1.1105533,1.1054174,1.1005893,1.098199,1.0981468,1.0991167,1.1000373,1.100678,1.1008062,1.100785,1.1008364,1.1011174,1.102104,1.1038156,1.1056232,1.1066964,1.1071587,1.1070943,1.106808,1.1065614,1.1063447,1.1061397,1.1059523,1.1059237,1.1060365,1.1062201,1.1064324,1.1066,1.1066959,1.1067138,1.1067102,1.106775,1.1069281,1.1071482,1.1074395,1.1078324,1.1082423,1.1085663,1.1087186,1.1086723,1.1085386,1.1084098,1.1082752,1.1081115,1.1079018,1.1076436,1.1073588,1.1070342,1.1066477,1.1062741,1.1059866,1.1057897,1.1056435,1.1054779,1.1052794,1.1051233,1.1050386,1.104989,1.1049364,1.1048567,1.104804,1.104825,1.1049039,1.1049836,1.1050134,1.1049876,1.1049256,1.1048317,1.1047196,1.1045871,1.1044838,1.104429,1.1043735,1.104283,1.1041605,1.10406,1.1040374,1.1040766,1.1041244,1.1041586,1.1041944,1.1042655,1.104365,1.1044333,1.1044415,1.1043544,1.1041716,1.1038884,1.1035115,1.103087,1.1026846,1.1023555,1.1020902,1.1018506,1.1016235,1.1014308,1.101289,1.101147,1.1009212,1.1006398,1.1003367,1.1000483,1.099794,1.0995734,1.09941,1.0993452,1.0993675,1.0993919,1.0992813,1.0989757,1.0985385,1.0981929,1.0982101,1.098494,1.0987856,1.0986764,1.0979187,1.0968623,1.0958738,1.0953562,1.09531,1.0953455,1.0952028,1.0948904,1.0946661,1.095038,1.0959567,1.0969837,1.0980232,1.0989096,1.0995004,1.0998789,1.1000024,1.1000661,1.099855,1.0987854,1.0970356,1.0950274,1.0936775,1.0936124,1.0937338,1.0935636,1.0927285,1.0915611,1.0907161,1.0906115,1.0911522,1.0917668,1.0920506,1.0917835,1.0910503,1.0900769,1.0890777,1.0879712,1.086711,1.08587,1.0857732,1.0866339,1.0888183,1.0918186,1.095007,1.0975907,1.0993911,1.1005412,1.1012399,1.1016433,1.1018312,1.1021774,1.1025877,1.1027513,1.1028008,1.1026834,1.1024442,1.1022048,1.1018846,1.1015353,1.1012212,1.1009926,1.1008062,1.1006377,1.1004128,1.100108,1.0998162,1.0995615,1.0993145,1.0990298,1.0987091,1.0982914,1.0978084,1.0971979,1.0966895,1.0961888,1.0956329,1.0950474,1.0944648,1.0938494,1.0930324,1.0918825,1.0905037,1.0891172,1.088043,1.0874114,1.0871162,1.0871513,1.0874008,1.0876892,1.0878574,1.0879759,1.0881239,1.0883263,1.088417,1.0883207,1.0879931,1.0876102,1.087216,1.0868065,1.0864482,1.0861691,1.0860155,1.0857961,1.085587,1.0853844,1.085151,1.0848811,1.0846162,1.0843265,1.083961,1.0835654,1.0831077,1.0825874,1.082021,1.0814012,1.0807481,1.0801286,1.0795839,1.0790455,1.0784692,1.0778501,1.0772128,1.0765536,1.0759437,1.0754075,1.0749419,1.0744632,1.074041,1.0737209,1.0734742,1.0732328,1.0729651,1.0729402,1.0731919,1.0733776,1.0735396,1.073699,1.0739346,1.0741646,1.07425,1.0742426
0.9961952,0.99428916,0.9930098,0.9954281,1.0048672,1.0255237,1.0548337,1.0811613,1.0981001,1.1056869,1.107487,1.1068492,1.1058216,1.1056442,1.1060437,1.106614,1.1071568,1.1076648,1.1082652,1.1088204,1.1092587,1.1096444,1.1099836,1.110297,1.110624,1.1108488,1.1111054,1.1114523,1.1119034,1.1123822,1.1128848,1.1134293,1.1140707,1.1146983,1.1152861,1.11579,1.116256,1.1167045,1.1171438,1.117366,1.1171794,1.1168208,1.1166677,1.1170719,1.1176455,1.1174059,1.1154687,1.1114005,1.1061672,1.1012226,1.0988495,1.0987887,1.0995762,1.1003743,1.1009536,1.1010184,1.1009899,1.1012034,1.1016169,1.1025319,1.1040914,1.1057342,1.1066779,1.1070813,1.1070652,1.1068305,1.10656,1.1062573,1.1059362,1.105673,1.105598,1.1057012,1.1059151,1.1061759,1.106351,1.1063976,1.10635,1.1062956,1.1063507,1.1065111,1.1067188,1.1069942,1.1073668,1.1077685,1.108083,1.1081948,1.1080742,1.1078479,1.107646,1.1074814,1.1073208,1.1071095,1.1068039,1.10642,1.1059872,1.1055009,1.1050506,1.1047077,1.1044611,1.1042755,1.1040971,1.1039255,1.1038496,1.1038811,1.1039581,1.1040264,1.1040438,1.104065,1.1041403,1.1042602,1.1043823,1.1044595,1.1044827,1.104465,1.1044111,1.1043382,1.104247,1.1041851,1.1041675,1.1041446,1.1040839,1.1039859,1.103905,1.1039021,1.1039664,1.1040542,1.1041398,1.1042315,1.1043566,1.104504,1.1046093,1.1046433,1.1045742,1.1043985,1.1041152,1.1037321,1.1032999,1.1028888,1.1025484,1.1022675,1.1020033,1.1017383,1.1014761,1.1012366,1.1009909,1.1006668,1.1002877,1.0998846,1.0995115,1.09921,1.0990012,1.0988947,1.0988843,1.098892,1.0988116,1.0985303,1.0980546,1.0975285,1.097173,1.0972345,1.0975714,1.0978765,1.0977339,1.09692,1.0958209,1.0949075,1.0944784,1.094496,1.094497,1.0941978,1.0937068,1.0933466,1.093704,1.094736,1.0958295,1.0968678,1.0977404,1.0983081,1.09865,1.0987382,1.0987868,1.0986327,1.0977287,1.0962057,1.0944312,1.0930917,1.0929295,1.0931392,1.0929782,1.0922438,1.0912077,1.0904317,1.0902863,1.0907829,1.0913389,1.0915421,1.0912368,1.0904961,1.0895264,1.0884885,1.0872961,1.0860218,1.0850205,1.0845826,1.0853446,1.0874712,1.0905784,1.0941211,1.0973299,1.0997735,1.1013222,1.102108,1.1023498,1.1022893,1.1024826,1.1029668,1.103291,1.103358,1.103234,1.1029751,1.1027136,1.1023753,1.1019919,1.101623,1.1013334,1.101084,1.1008532,1.1005713,1.100214,1.0998703,1.0995779,1.0992999,1.0989678,1.0985723,1.0980608,1.0974598,1.09674,1.0961454,1.0955837,1.0950024,1.094441,1.0939624,1.0934801,1.0927697,1.0916241,1.0901093,1.0885445,1.0872892,1.086498,1.0860684,1.085978,1.0861661,1.0864317,1.0866892,1.0868199,1.0869789,1.0872079,1.0874717,1.0875582,1.0873384,1.0870223,1.0866492,1.0862148,1.0858071,1.0854594,1.0852311,1.0849357,1.0846422,1.0843573,1.084062,1.0837445,1.0834484,1.0831392,1.0827646,1.0823727,1.0819314,1.081435,1.0808973,1.0803081,1.0796808,1.0790787,1.0785472,1.0780249,1.0774648,1.0768628,1.0762402,1.0755926,1.074992,1.0744619,1.0740017,1.0735328,1.0731251,1.0728216,1.0725886,1.0723509,1.0720742,1.072026,1.0722432,1.0723922,1.0725203,1.0726445,1.0728474,1.0730523,1.073124,1.0731106
0.996988,0.99549675,0.9932513,0.99376595,0.9995019,1.0153375,1.0415816,1.0707109,1.0921566,1.1033944,1.1071167,1.1071693,1.1062365,1.1060443,1.106432,1.1070697,1.1076548,1.1081496,1.1087167,1.1092398,1.1096747,1.1100922,1.1104763,1.110832,1.1111846,1.1114178,1.111666,1.1119918,1.1124225,1.1128876,1.1133921,1.1139555,1.1146332,1.1152984,1.1159139,1.1164271,1.116894,1.1173701,1.1178858,1.1182182,1.1181493,1.1178708,1.1177533,1.1181417,1.1186584,1.1183143,1.1162453,1.1120827,1.106882,1.1019006,1.0994732,1.0993881,1.099964,1.1007073,1.1012051,1.1012366,1.101239,1.1014624,1.1019759,1.1029171,1.1043091,1.1057506,1.1066041,1.1069958,1.1070564,1.1069169,1.1066427,1.1062765,1.1059175,1.1056471,1.1055562,1.1056995,1.1059651,1.1062568,1.1064711,1.1065742,1.10651,1.1064615,1.1065995,1.1068804,1.107206,1.1075754,1.1079866,1.1084204,1.1087685,1.1089085,1.1088123,1.1085887,1.1083862,1.1082532,1.1081423,1.1079679,1.1076798,1.1073222,1.1068211,1.1062726,1.1058145,1.105482,1.1052117,1.1049695,1.1047373,1.1045551,1.1045406,1.1046951,1.1049304,1.1051638,1.105308,1.1053884,1.1054746,1.1055889,1.1057117,1.1058097,1.1058737,1.1059105,1.105921,1.1059065,1.1058478,1.1058125,1.1058123,1.1057968,1.1057354,1.1056268,1.1055233,1.1054888,1.1055138,1.1055548,1.105613,1.105702,1.1058335,1.1059883,1.1061032,1.1061532,1.1060805,1.105897,1.1056169,1.1052663,1.1048756,1.1044741,1.10413,1.1038384,1.1035573,1.103272,1.102982,1.1027057,1.1024132,1.1020441,1.1016393,1.1012383,1.1008667,1.1005735,1.100377,1.1002665,1.100199,1.100069,1.0997821,1.0992677,1.098602,1.0979813,1.0976164,1.0976998,1.0980036,1.0981646,1.0977945,1.0967324,1.0954812,1.0945632,1.0942152,1.0943016,1.0941907,1.0936902,1.0929022,1.0923591,1.0926802,1.0938137,1.0950235,1.0960708,1.0969195,1.0974313,1.0976992,1.0977526,1.0977714,1.0976338,1.0968993,1.0955862,1.0940033,1.0926639,1.0923227,1.0924919,1.09246,1.091815,1.0909278,1.0902433,1.0900984,1.0905914,1.0911198,1.0912608,1.0909241,1.0901896,1.0892491,1.0881534,1.0869452,1.0856657,1.0846381,1.0838583,1.0843933,1.0863522,1.0894759,1.093369,1.0971283,1.1000681,1.1019228,1.1027024,1.1027025,1.1024109,1.1024818,1.1029525,1.1034789,1.1036584,1.1035957,1.1033741,1.1031151,1.1027492,1.1023195,1.1019039,1.1015741,1.1012975,1.101049,1.1007581,1.1004008,1.1000619,1.099767,1.0994928,1.0991716,1.0988038,1.0982778,1.0976053,1.09676,1.0960256,1.0953555,1.0947057,1.0941341,1.0937493,1.0934243,1.0928392,1.091701,1.0901006,1.0884039,1.087016,1.0860994,1.0855355,1.0853093,1.0854343,1.0857205,1.0860394,1.086184,1.0863299,1.0865498,1.0868349,1.0869453,1.0867958,1.0865943,1.0862937,1.0858628,1.0853987,1.0849643,1.0846372,1.0842373,1.0838403,1.0834583,1.0830927,1.0827261,1.0823996,1.082069,1.0816779,1.081273,1.0808271,1.0803465,1.0798345,1.0792704,1.0786624,1.0780722,1.0775499,1.0770383,1.0764911,1.0759016,1.0752923,1.0746558,1.0740651,1.0735425,1.0730894,1.0726295,1.0722358,1.0719497,1.0717299,1.0714977,1.0712152,1.0711462,1.0713305,1.0714447,1.0715375,1.0716269,1.0717975,1.0719776,1.0720379,1.0720152
0.99720997,0.99645644,0.99404144,0.9933017,0.99619055,1.0072147,1.0288591,1.0576816,1.0833645,1.0992684,1.1061654,1.1075114,1.1068697,1.1065043,1.1065768,1.1070278,1.1075835,1.1080248,1.1085751,1.1090846,1.1095335,1.1099972,1.1104407,1.1108501,1.1112387,1.1114914,1.1117406,1.1120541,1.112479,1.1129512,1.1134834,1.1140871,1.1148143,1.1155219,1.1161621,1.1166726,1.1171188,1.1175933,1.1181479,1.1185652,1.1186118,1.1184399,1.1184034,1.1188195,1.1193144,1.1188898,1.116705,1.1124544,1.1072907,1.1023198,1.0998731,1.0997484,1.1002097,1.1008791,1.1013145,1.1013496,1.1013471,1.1015205,1.1020834,1.1030622,1.1043948,1.1056969,1.1065564,1.106988,1.1071022,1.1070126,1.1067574,1.1063668,1.1059337,1.1055937,1.1055195,1.1057284,1.1060462,1.1063523,1.1065888,1.1067326,1.1067705,1.1068178,1.1070014,1.1073244,1.1077142,1.10813,1.1085705,1.1090279,1.1094434,1.1096513,1.1096241,1.109438,1.1092567,1.1091595,1.109129,1.1090817,1.1089073,1.1086317,1.1082417,1.1078639,1.1075737,1.1074057,1.1072094,1.106955,1.1066514,1.1063564,1.1062928,1.1064513,1.1066896,1.1069181,1.1070762,1.1071724,1.1072576,1.1073577,1.1074708,1.1075794,1.1076756,1.1077545,1.1078115,1.1078389,1.1078122,1.1077881,1.107778,1.107747,1.1076735,1.107556,1.1074317,1.1073506,1.1073111,1.10729,1.1072978,1.1073465,1.1074355,1.1075411,1.1076069,1.1076151,1.1075184,1.1073315,1.1070752,1.106773,1.1064411,1.1060879,1.105764,1.1054726,1.1051916,1.1048994,1.1045938,1.1042967,1.1039801,1.1036055,1.103223,1.1028745,1.1025767,1.1023501,1.1022047,1.1021235,1.1020523,1.101845,1.1013796,1.100698,1.0999343,1.0993309,1.099062,1.099225,1.0994637,1.0993383,1.098542,1.0970318,1.0954863,1.0945289,1.094301,1.0944304,1.0941657,1.0934932,1.0925031,1.0917037,1.0919902,1.0932199,1.0945048,1.0955945,1.0964153,1.0968506,1.097017,1.0970356,1.0970066,1.0968249,1.0962079,1.0951355,1.09373,1.09237,1.0918392,1.091852,1.091973,1.0915296,1.0908307,1.0902636,1.0901337,1.0905478,1.0910351,1.0911406,1.0907807,1.0900675,1.0891728,1.0880921,1.0869106,1.0856491,1.0846046,1.0837302,1.0839975,1.0857369,1.0888503,1.0929348,1.0969803,1.1002635,1.1024373,1.1033182,1.1031405,1.102566,1.102423,1.1028681,1.1035058,1.1038452,1.1038325,1.103633,1.1033602,1.1029534,1.1024675,1.1020019,1.1016375,1.1013464,1.1010969,1.1008167,1.1004795,1.1001654,1.0998943,1.0996428,1.099359,1.0990047,1.0985029,1.0978389,1.0969815,1.0962088,1.095451,1.0947161,1.0940928,1.0937252,1.0934851,1.0930009,1.091902,1.0902736,1.0885005,1.0870069,1.0859494,1.0852052,1.0847936,1.0848341,1.0851872,1.0856818,1.0859313,1.0860832,1.0862644,1.0864093,1.0864552,1.0863414,1.0862514,1.0860262,1.0856194,1.0851207,1.084615,1.0841949,1.0836889,1.0831934,1.0827227,1.0822924,1.0818833,1.0815316,1.0811827,1.0807763,1.0803554,1.0798956,1.0794042,1.0788856,1.0783285,1.0777346,1.0771497,1.0766284,1.0761214,1.0755824,1.0750027,1.074406,1.0737834,1.073206,1.0726935,1.0722482,1.0717928,1.0714059,1.0711277,1.0709134,1.0706804,1.0703886,1.0702993,1.0704529,1.0705347,1.0705948,1.0706534,1.0707963,1.0709558,1.071002,1.071001
0.9968456,0.9969436,0.995147,0.99362254,0.99459994,1.001503,1.0173707,1.0433104,1.0725507,1.0929359,1.1044807,1.1078372,1.1078277,1.1071931,1.1066387,1.1065259,1.106909,1.1074147,1.1079645,1.1084969,1.1089852,1.1094999,1.1100035,1.1104639,1.1108849,1.111152,1.1113968,1.111696,1.1121216,1.1126127,1.1131829,1.113833,1.1146036,1.1153426,1.115996,1.116498,1.116918,1.1173778,1.1179488,1.1184266,1.1185713,1.1185055,1.1185632,1.119031,1.1195312,1.1190557,1.1167831,1.1124499,1.1072404,1.1022968,1.0998518,1.0996592,1.1001893,1.1007628,1.1011531,1.1011875,1.1011466,1.1012967,1.1018867,1.102915,1.1042514,1.1055219,1.1064336,1.1069422,1.1071277,1.1070788,1.1068004,1.1063337,1.1057839,1.105367,1.1053205,1.1055415,1.1058879,1.1062325,1.1064732,1.1065974,1.1066897,1.1068449,1.107079,1.1074069,1.1078062,1.1082313,1.1086836,1.1091614,1.1096288,1.109911,1.1099554,1.1098261,1.1097164,1.1097203,1.1098223,1.1098976,1.1097827,1.1095275,1.1093202,1.1092385,1.1093069,1.1094761,1.109523,1.1093974,1.1090926,1.1087072,1.1084871,1.1084573,1.1085324,1.1086371,1.1087139,1.1087642,1.1088092,1.1088643,1.1089394,1.1090229,1.1091049,1.1091748,1.1092244,1.1092489,1.1092507,1.1092411,1.1092215,1.109173,1.1090837,1.1089549,1.1088128,1.1086948,1.1086087,1.1085578,1.1085402,1.1085587,1.1086073,1.1086586,1.1086664,1.108619,1.1085043,1.1083293,1.1081042,1.1078312,1.1075258,1.1072085,1.1068959,1.1065993,1.1063045,1.105993,1.1056834,1.1053882,1.1050792,1.1047366,1.1044108,1.1041392,1.1039481,1.1038175,1.1037428,1.1037138,1.1036814,1.103509,1.103042,1.102324,1.1016372,1.1012416,1.1012459,1.1015451,1.1017069,1.101155,1.0996778,1.097479,1.0954822,1.094449,1.0943933,1.0945704,1.0942703,1.0934148,1.0922586,1.0912066,1.091425,1.0927262,1.0940593,1.0952102,1.0960053,1.0963576,1.0964122,1.0963664,1.0962634,1.0960402,1.0954776,1.0946007,1.0933998,1.092025,1.0913117,1.0911812,1.0913334,1.0911562,1.0907209,1.0902946,1.0901803,1.0904541,1.0908213,1.0909222,1.0905721,1.089886,1.0890406,1.0880337,1.0868845,1.0856501,1.084614,1.0837237,1.0838706,1.0854187,1.0884309,1.0925541,1.0967783,1.1003683,1.1028411,1.1037626,1.1034935,1.102732,1.1024064,1.1027272,1.103325,1.1037545,1.1037462,1.1035284,1.1032157,1.1027551,1.1022136,1.1017082,1.1013268,1.1010427,1.100816,1.1005651,1.1002659,1.0999889,1.0997528,1.0995367,1.0992897,1.098978,1.098523,1.0978656,1.0970409,1.0963091,1.0955905,1.0948273,1.0941377,1.0937262,1.0934808,1.0930325,1.0919882,1.0903676,1.0885682,1.0869945,1.0857804,1.0848083,1.0841597,1.0840919,1.0845661,1.085371,1.085736,1.0859683,1.0860546,1.0860368,1.0860095,1.0858811,1.0858731,1.0857258,1.0853477,1.0848036,1.084207,1.0836906,1.0830954,1.0825273,1.0819931,1.0815156,1.0810745,1.0807041,1.0803444,1.0799305,1.079504,1.07904,1.0785372,1.0780023,1.0774286,1.076812,1.0762136,1.0756899,1.0751865,1.0746535,1.0740829,1.0735002,1.0728955,1.0723376,1.0718391,1.0714029,1.0709474,1.0705571,1.0702735,1.0700531,1.0698099,1.0695031,1.0693929,1.0695184,1.0695727,1.0696061,1.0696406,1.0697584,1.0699105,1.0699859,1.0700164
