8.819342,8.817709,8.816952,8.816933,8.816662,8.816257,8.8159275,8.815402,8.814571,8.813572,8.812061,8.810282,8.808915,8.8079405,8.807068,8.806289,8.805462,8.804033,8.801897,8.799658,8.797089,8.794387,8.79236,8.790705,8.789157,8.7880745,8.787384,8.786338,8.785188,8.784294,8.782985,8.781235,8.77948,8.777023,8.774397,8.772591,8.771196,8.770868,8.771397,8.771567,8.771923,8.772585,8.773376,8.774843,8.776721,8.778221,8.779301,8.779151,8.777513,8.774766,8.769587,8.76334,8.757685,8.75059,8.743635,8.738198,8.7323,8.727414,8.724403,8.720634,8.717349,8.71583,8.715026,8.717225,8.723068,8.730265,8.74181,8.754854,8.765129,8.784642,8.773777,8.72698,8.659817,8.615772,8.612696,8.605989,8.622896,8.654535,8.677113,8.702793,8.726002,8.742664,8.752161,8.757816,8.75788,8.715794,8.780506,8.807144,8.533534,7.9984007,7.407127,6.9805226,6.480215,5.967773,5.5371943,5.0941057,4.698104,4.4408817,4.247163,4.093541,4.002917,3.9426675,3.8914409,3.8607376,3.842751,3.828647,3.8203878,3.8151872,3.810501,3.8067107,3.8040426,3.8015275,3.798561,3.7957208,3.793154,3.7900953,3.7873797,3.78542,3.7836013,3.7829847,3.7836418,3.785328,3.7886162,3.792693,3.7972856,3.8048306,3.816825,3.8321466,3.8602376,3.904603,3.953809,4.0500727,4.206315,4.385045,4.6674614,5.0884066,5.5383697,6.0319357,6.5712414,7.0371056,7.4464808,8.045286,8.604187,8.929272,8.91754,8.815523,8.85088,8.839923,8.828669,8.822908,8.801138,8.7711,8.74439,8.724455,8.714815,8.736639,8.781437,8.847307,8.888233,8.881863,8.864468,8.846811,8.840567,8.839239,8.840532,8.845377,8.852341,8.863588,8.879441,8.895478,8.91539,8.938724,8.959166,8.979654,9.002888,9.023002,9.039814,9.05864,9.0748825,9.087088,9.100933,9.114187,9.124559,9.135474,9.146299,9.154753,9.162636,9.170862,9.177391,9.182508,9.1877575,9.191597,9.193896,9.196186,9.198824,9.201739,9.2058735,9.211519,9.2171135,9.222843,9.229752,9.235859,9.240694,9.245825,9.249853,9.252488,9.255072,9.257255,9.258904,9.260783,9.262629,9.264025,9.265392,9.266953,9.268378,9.269604,9.271036,9.272514,9.273857,9.275581,9.277531,9.279203,9.281041,9.283116,9.284907,9.28643,9.288471,9.290907,9.293467,9.297203,9.3014145,9.304934,9.30904,9.31304,9.315983,9.319042,9.3225765,9.325708,9.328405,9.331141,9.333248,9.334855,9.336434,9.337433,9.337778,9.337715,9.337207,9.336647,9.336191,9.336081,9.336487,9.337141,9.338504,9.34017,9.341539,9.343078,9.344549,9.345728,9.347263,9.349312,9.351383,9.353603,9.356487,9.359539,9.362635,9.366991,9.37204,9.376774,9.382824,9.389276,9.394508,9.400213,9.406389,9.41172,9.41699,9.4234915,9.429632,9.434853,9.440699,9.445667,9.449226,9.452734,9.455395,9.456926,9.458189,9.459009,9.459137,9.45861,9.457213,9.455133,9.452801,9.449499,9.445976,9.44315,9.439728,9.435942,9.432577,9.428452,9.423531,9.419188,9.415255,9.411091,9.407774,9.405248,9.402851,9.401318,9.400595,9.399939,9.399524
8.635978,8.632292,8.629492,8.627588,8.624859,8.621756,8.61911,8.615931,8.612216,8.608761,8.6047325,8.599973,8.59585,8.592405,8.588612,8.585162,8.5822315,8.578533,8.57443,8.570826,8.566929,8.563076,8.56023,8.557833,8.555307,8.553177,8.551466,8.549261,8.547264,8.5459585,8.544498,8.543048,8.541806,8.5400095,8.538038,8.536619,8.535469,8.534927,8.535984,8.538739,8.542239,8.545862,8.5490265,8.5533085,8.558078,8.56188,8.565218,8.567158,8.566988,8.565402,8.561511,8.556567,8.552202,8.546925,8.542101,8.538631,8.53497,8.532516,8.531625,8.530062,8.529451,8.530694,8.532879,8.539651,8.550771,8.563105,8.579282,8.59581,8.608637,8.614815,8.593142,8.552601,8.509198,8.506999,8.547962,8.587493,8.625814,8.64837,8.658379,8.670576,8.681269,8.689535,8.77626,8.731017,8.493322,8.100935,7.7568836,7.479189,6.9912777,6.25035,5.508915,4.9691467,4.451552,4.1042047,3.9350624,3.803349,3.74687,3.7438917,3.7429135,3.7443833,3.7440767,3.7435665,3.7419853,3.7404401,3.7401028,3.739457,3.7390122,3.7390013,3.7389832,3.7386918,3.7380679,3.7372344,3.735694,3.7337213,3.731697,3.729058,3.7263474,3.724062,3.7215042,3.719432,3.7183194,3.7175608,3.717411,3.7177086,3.7179692,3.718852,3.7201252,3.7210894,3.7235985,3.7271469,3.7302954,3.7320538,3.7325752,3.7354445,3.7460656,3.8145883,3.9450994,4.103017,4.432019,4.9343424,5.5178475,6.2962418,7.0561852,7.6010876,7.9216547,8.249962,8.644611,8.829166,8.831496,8.750106,8.758141,8.761749,8.745248,8.719123,8.6695595,8.635885,8.642553,8.68358,8.717847,8.714529,8.692981,8.669933,8.659924,8.655713,8.654512,8.658604,8.666397,8.679081,8.696861,8.714656,8.736624,8.762627,8.785778,8.809149,8.836315,8.860622,8.881535,8.905712,8.927301,8.943874,8.9627695,8.980709,8.994518,9.009462,9.024721,9.036982,9.048609,9.06132,9.072067,9.080935,9.090616,9.098534,9.103993,9.109823,9.115553,9.120531,9.126748,9.13443,9.141642,9.148844,9.157479,9.165102,9.171073,9.177407,9.182507,9.186019,9.189636,9.192993,9.19574,9.198944,9.202541,9.205719,9.208923,9.212801,9.21644,9.219549,9.22314,9.2265415,9.229286,9.23254,9.2359295,9.238686,9.241604,9.244785,9.2474575,9.249728,9.252556,9.255638,9.258707,9.263013,9.267775,9.271758,9.276436,9.281144,9.284797,9.288753,9.293442,9.297661,9.30134,9.305074,9.307846,9.3098,9.311594,9.3125515,9.312716,9.312378,9.31153,9.31069,9.30996,9.309633,9.309919,9.310496,9.311596,9.312809,9.313683,9.314775,9.315668,9.316147,9.317132,9.3187275,9.320486,9.322472,9.325222,9.328274,9.331419,9.335884,9.341097,9.346001,9.352257,9.358938,9.36437,9.3702755,9.376638,9.382067,9.387367,9.393536,9.399025,9.403566,9.408514,9.41263,9.415583,9.418502,9.420757,9.422098,9.423243,9.424,9.424084,9.423513,9.422003,9.419759,9.417275,9.413802,9.410143,9.407238,9.403519,9.399159,9.39517,9.3904085,9.384869,9.380111,9.375879,9.371515,9.368188,9.365755,9.363641,9.362549,9.362244,9.362155,9.362256
8.443941,8.43892,8.434534,8.431,8.425922,8.419968,8.414719,8.408428,8.401163,8.394573,8.387267,8.378599,8.370907,8.3643265,8.357037,8.350773,8.345955,8.34066,8.335592,8.331478,8.327238,8.323263,8.320388,8.317922,8.314915,8.3118305,8.308921,8.304993,8.301212,8.298511,8.295465,8.292486,8.290047,8.286858,8.283093,8.27992,8.277138,8.274086,8.274078,8.279251,8.28595,8.292761,8.298545,8.305904,8.313782,8.320059,8.326078,8.330969,8.333403,8.33435,8.333725,8.332192,8.331026,8.329929,8.32954,8.329841,8.330526,8.332653,8.335606,8.338103,8.342195,8.347803,8.354155,8.366578,8.3830385,8.399256,8.418463,8.438242,8.455179,8.441855,8.428093,8.437397,8.465864,8.504473,8.534643,8.55562,8.577518,8.594116,8.607161,8.595637,8.525351,8.422128,8.493521,8.286997,7.7062807,6.9140244,5.9478035,5.1940327,4.6932335,4.2501755,4.0064573,3.9229155,3.8455265,3.7954526,3.7656314,3.7389746,3.719994,3.709641,3.7021985,3.697703,3.6965795,3.696805,3.6983628,3.700912,3.703358,3.7068796,3.7107596,3.7137635,3.7166452,3.7188544,3.7198424,3.7201686,3.7194996,3.7179728,3.7161968,3.713757,3.7111397,3.7088819,3.7062817,3.70391,3.7022753,3.700596,3.69877,3.6969848,3.6948247,3.691934,3.689128,3.6867297,3.6843188,3.683188,3.6833866,3.6860704,3.6931386,3.702517,3.7153187,3.736463,3.763307,3.7945952,3.845375,3.929549,4.0309563,4.2908697,4.7488117,5.2617283,6.0821133,7.110935,7.932652,8.446821,8.593257,8.524827,8.668813,8.731369,8.698095,8.686586,8.660379,8.624918,8.594898,8.58296,8.57057,8.548783,8.52113,8.495676,8.482128,8.473625,8.469363,8.471239,8.475618,8.485322,8.501291,8.518255,8.53942,8.564863,8.58787,8.611635,8.640289,8.666883,8.690245,8.718048,8.743732,8.763937,8.78739,8.810135,8.827869,8.847002,8.866739,8.88286,8.898352,8.915659,8.930694,8.943346,8.957691,8.97014,8.979265,8.989383,8.999485,9.008011,9.01779,9.029076,9.039164,9.048934,9.060013,9.069389,9.076733,9.08449,9.090824,9.095349,9.100124,9.104737,9.108618,9.11317,9.118546,9.123559,9.128696,9.135075,9.141205,9.14652,9.152762,9.158678,9.163362,9.168781,9.174235,9.178516,9.182908,9.18751,9.191233,9.194359,9.197994,9.201635,9.205077,9.209725,9.214762,9.218977,9.224022,9.229422,9.233938,9.238972,9.245076,9.250671,9.255662,9.260883,9.264875,9.267688,9.270336,9.2719,9.27239,9.27232,9.271626,9.270852,9.270163,9.269841,9.270081,9.270548,9.27145,9.272406,9.273033,9.273779,9.274382,9.274744,9.275664,9.277309,9.279205,9.281382,9.28443,9.287809,9.291274,9.296146,9.301765,9.307013,9.313696,9.320862,9.326731,9.333123,9.33996,9.3456745,9.351122,9.357073,9.361998,9.365904,9.3699045,9.373009,9.375158,9.3772135,9.378802,9.379827,9.380913,9.381893,9.382308,9.3821,9.380783,9.37838,9.375521,9.371374,9.367075,9.363861,9.360266,9.356243,9.352466,9.347996,9.342848,9.338461,9.334562,9.330523,9.327482,9.32534,9.323662,9.3231535,9.323446,9.324087,9.324682
8.159817,8.145003,8.130814,8.119181,8.104255,8.088535,8.075604,8.060895,8.045287,8.032226,8.018545,8.003087,7.989847,7.9786625,7.966523,7.9572487,7.951581,7.9467993,7.9428415,7.939145,7.935036,7.9309416,7.9279795,7.9256434,7.923463,7.9220476,7.9213085,7.921006,7.9218493,7.923553,7.9264884,7.9307184,7.934911,7.9397264,7.945862,7.952017,7.9585676,7.967101,7.9762845,7.9857492,7.997551,8.009621,8.020006,8.032278,8.044015,8.052488,8.061241,8.069425,8.075069,8.079407,8.0833645,8.086646,8.089899,8.094465,8.099789,8.104662,8.111071,8.119759,8.128511,8.13716,8.1483,8.159248,8.167669,8.182537,8.202339,8.222285,8.245691,8.277405,8.314086,8.339425,8.366312,8.396847,8.432333,8.456657,8.46052,8.451118,8.475992,8.538158,8.6209545,8.610025,8.255535,7.638419,6.902568,6.0903544,5.448639,4.8676057,4.36882,4.076091,3.8894608,3.7384658,3.6650317,3.6440015,3.628039,3.6230044,3.6232305,3.6259446,3.6319022,3.638633,3.6468241,3.657979,3.669055,3.6792765,3.689477,3.69588,3.6984947,3.701851,3.7049248,3.7069826,3.7085974,3.709233,3.7088242,3.7077794,3.705692,3.7031488,3.7006752,3.6978657,3.6955497,3.6939893,3.6926503,3.6921415,3.6923506,3.6928072,3.6934972,3.6939,3.6937513,3.6926613,3.6906886,3.688962,3.6821737,3.6713986,3.6613305,3.650575,3.640714,3.6337476,3.6275237,3.6221037,3.6196165,3.6199675,3.626682,3.6464014,3.6722605,3.752098,3.9123392,4.105548,4.456319,5.031039,5.661525,6.4289165,7.346978,8.092325,8.690575,8.798009,8.575724,8.591234,8.608543,8.59976,8.560344,8.525307,8.484537,8.444292,8.399462,8.356902,8.332448,8.321709,8.316511,8.308748,8.290386,8.278067,8.280507,8.293453,8.312931,8.338495,8.362422,8.390812,8.427874,8.463106,8.493114,8.527819,8.559446,8.584616,8.61453,8.645997,8.672506,8.696126,8.717325,8.7335,8.748873,8.765223,8.778789,8.789917,8.803363,8.815664,8.824692,8.834843,8.848442,8.863547,8.880774,8.901089,8.919111,8.93633,8.952576,8.964092,8.973705,8.984066,8.992706,8.998926,9.005412,9.011293,9.015812,9.0207,9.026173,9.031222,9.036459,9.043223,9.050085,9.056295,9.063879,9.071364,9.077424,9.084501,9.09165,9.097233,9.102901,9.108695,9.113203,9.116872,9.120758,9.124155,9.127079,9.130716,9.134346,9.137245,9.141115,9.146619,9.152418,9.158695,9.166389,9.173542,9.180023,9.187328,9.193434,9.197912,9.202448,9.205748,9.207542,9.208855,9.209488,9.209684,9.209748,9.210169,9.211078,9.212233,9.213812,9.215376,9.216606,9.218189,9.219839,9.221193,9.223276,9.226082,9.228851,9.231986,9.236015,9.240024,9.24374,9.24889,9.254775,9.260231,9.26717,9.274668,9.280887,9.287718,9.295013,9.301026,9.306625,9.312504,9.31715,9.320742,9.324274,9.326918,9.3287525,9.330559,9.332113,9.33329,9.334734,9.336313,9.337326,9.337667,9.336838,9.334665,9.331856,9.327656,9.323086,9.319466,9.315292,9.310576,9.306208,9.301109,9.295303,9.290426,9.2861595,9.281866,9.278776,9.27668,9.2752285,9.275184,9.276011,9.277629,9.279491
7.7419643,7.723693,7.7064857,7.6925488,7.6753855,7.657589,7.64279,7.6262803,7.6097364,7.596924,7.58426,7.570997,7.5604596,7.551937,7.543276,7.5373344,7.5342145,7.5321417,7.5308022,7.529322,7.5275497,7.525791,7.5246644,7.524003,7.5238314,7.5244308,7.5256205,7.527831,7.5312247,7.5350246,7.540559,7.5477514,7.554674,7.562945,7.5735044,7.5839133,7.594703,7.6087866,7.622467,7.633897,7.6474924,7.6612005,7.673213,7.6877,7.702276,7.713524,7.725666,7.7380753,7.747776,7.756217,7.7656555,7.774872,7.783846,7.79604,7.809889,7.8224316,7.8382635,7.857291,7.8744674,7.889758,7.9076896,7.928177,7.9539495,7.9980917,8.040596,8.06171,8.096146,8.144381,8.193784,8.2424555,8.28669,8.31596,8.323191,8.333054,8.350541,8.381745,8.350431,8.16756,7.871951,7.3419394,6.574703,5.8066206,4.9657173,4.2736225,3.9228868,3.6863785,3.5863843,3.590189,3.587578,3.5865712,3.5831056,3.5760283,3.5751193,3.5829248,3.5943098,3.6095896,3.6275697,3.6418934,3.6535044,3.6642158,3.6721072,3.6788344,3.6850662,3.688233,3.688652,3.6891007,3.6889834,3.6883683,3.6871595,3.6850395,3.6826055,3.6798043,3.6761584,3.6727123,3.6697607,3.6668298,3.6649632,3.6641183,3.6641011,3.6655378,3.667693,3.6705823,3.6744561,3.6779993,3.6810672,3.683885,3.6855154,3.6867313,3.6840603,3.6776755,3.6712055,3.6620214,3.6505923,3.6396992,3.6236014,3.604288,3.5890932,3.5772626,3.5707202,3.5724826,3.5783973,3.5834303,3.5892293,3.5969484,3.6224446,3.7672167,4.040616,4.5343504,5.4008226,6.346513,7.2288485,7.9500103,8.331591,8.6214485,8.596013,8.435287,8.431648,8.415961,8.38081,8.331438,8.275356,8.224226,8.190386,8.153384,8.1242895,8.098059,8.058853,8.029341,8.01824,8.019133,8.025714,8.038317,8.052533,8.073332,8.10647,8.142854,8.176275,8.218628,8.259297,8.291004,8.330063,8.371687,8.406583,8.439901,8.471922,8.497333,8.521463,8.547436,8.568842,8.58584,8.605288,8.622786,8.636167,8.652302,8.672993,8.69435,8.717804,8.744694,8.768095,8.789661,8.810417,8.825477,8.837658,8.850392,8.860558,8.867618,8.874661,8.880766,8.885398,8.890463,8.896429,8.902342,8.908842,8.917482,8.926422,8.934622,8.944706,8.954572,8.962386,8.971198,8.979494,8.985426,8.990948,8.9961405,8.999948,9.002962,9.006035,9.00868,9.010994,9.014019,9.017311,9.020172,9.02421,9.030087,9.03632,9.0433235,9.052028,9.060151,9.067614,9.075611,9.082066,9.086936,9.091909,9.095585,9.097631,9.09918,9.099972,9.100243,9.10041,9.101002,9.101735,9.101904,9.102158,9.102226,9.101958,9.1012535,9.099961,9.098576,9.097546,9.0978565,9.099346,9.100801,9.103767,9.108349,9.11422,9.121825,9.129801,9.136894,9.145795,9.155393,9.163434,9.172403,9.182045,9.189985,9.197345,9.20509,9.211296,9.2162075,9.2213745,9.22564,9.228794,9.232302,9.235608,9.238165,9.241397,9.245142,9.248098,9.250283,9.251486,9.250974,9.249416,9.24658,9.243034,9.239965,9.236286,9.2318945,9.227707,9.222817,9.217307,9.21285,9.209251,9.205864,9.203633,9.202185,9.201696,9.202911,9.204997,9.208487,9.212778
7.349293,7.3342295,7.3207026,7.309979,7.2972016,7.2840343,7.2728825,7.260702,7.2494593,7.2418623,7.2352276,7.2296767,7.226527,7.224639,7.224005,7.224889,7.226202,7.2281933,7.2306094,7.232684,7.2349854,7.2375402,7.2397904,7.242073,7.2446384,7.247001,7.24926,7.2521048,7.2553225,7.258495,7.2628164,7.2682314,7.2734365,7.2797327,7.2878532,7.29593,7.3043227,7.315609,7.3270903,7.3372808,7.3491206,7.360834,7.371086,7.3839064,7.398079,7.410221,7.423634,7.438078,7.450037,7.4609017,7.473822,7.4870996,7.5001993,7.518058,7.538685,7.557746,7.5815077,7.609563,7.6347504,7.6578894,7.6877575,7.7269545,7.786227,7.866102,7.928234,7.951397,7.996895,8.055585,8.10584,8.146244,8.171503,8.181168,8.176712,8.177805,8.148059,8.055805,7.739173,7.14001,6.394336,5.425728,4.586133,4.1280293,3.8149996,3.6938434,3.678742,3.6488023,3.6203723,3.5998106,3.588437,3.5831513,3.5866532,3.5941837,3.6049087,3.6187892,3.6321912,3.6486855,3.6651382,3.6754928,3.6804152,3.681087,3.678811,3.676252,3.673527,3.6713576,3.6697407,3.6676297,3.6650088,3.6624317,3.6592605,3.6553426,3.6516712,3.6478925,3.6435106,3.6397758,3.636797,3.6340046,3.632422,3.6318626,3.6323829,3.6346326,3.6376371,3.6417007,3.6472008,3.6524634,3.6574547,3.6630144,3.6676283,3.6711583,3.675149,3.6788864,3.681983,3.6826992,3.6804752,3.6760345,3.6628146,3.6439173,3.6272974,3.612834,3.597477,3.5862172,3.5789323,3.5764103,3.5843406,3.5987678,3.6240664,3.6597261,3.699862,3.7371933,3.9619555,4.4406385,5.152976,6.315242,7.4262595,8.126827,8.327996,8.232809,8.295568,8.281391,8.230919,8.190478,8.140707,8.095108,8.056556,7.9952784,7.937294,7.887311,7.8298063,7.788497,7.76239,7.740081,7.7209654,7.70942,7.707223,7.711131,7.7270746,7.7514277,7.7774334,7.8155527,7.855517,7.8869705,7.926734,7.9694386,8.005247,8.044261,8.085619,8.120041,8.153184,8.190288,8.222101,8.247971,8.277114,8.303497,8.324472,8.349843,8.378025,8.403088,8.43001,8.459414,8.4843855,8.507315,8.533468,8.5556345,8.572292,8.589083,8.601902,8.6105795,8.6191225,8.62691,8.633472,8.641397,8.651527,8.661779,8.672689,8.6869545,8.701496,8.714716,8.730904,8.746572,8.758816,8.772261,8.784366,8.792543,8.799681,8.805686,8.809572,8.812465,8.815142,8.817414,8.819601,8.822902,8.827322,8.831814,8.838236,8.846924,8.855701,8.8664875,8.880629,8.894457,8.908123,8.920681,8.929365,8.936413,8.943822,8.9495125,8.95281,8.955441,8.9567995,8.957172,8.957481,8.958181,8.958761,8.958275,8.957873,8.957275,8.956211,8.954113,8.950794,8.94738,8.944006,8.942377,8.942816,8.9429,8.944939,8.949877,8.957355,8.966886,8.976469,8.984686,8.994734,9.005248,9.013869,9.023361,9.033344,9.041362,9.048599,9.055998,9.061821,9.066459,9.071442,9.075681,9.078865,9.082796,9.08769,9.092569,9.098445,9.105427,9.111383,9.116527,9.121157,9.123661,9.124546,9.12455,9.123545,9.122313,9.120703,9.118277,9.115575,9.112268,9.108618,9.105736,9.10312,9.101086,9.100597,9.101067,9.103018,9.106952,9.111526,9.1182785,9.126583
7.1022077,7.0880613,7.0754356,7.0654287,7.0531883,7.0409927,7.0313854,7.021104,7.0119724,7.006112,7.001277,6.997834,6.9966526,6.9965067,6.998514,7.002575,7.006874,7.0128345,7.019613,7.025324,7.0316896,7.038419,7.043912,7.049181,7.054571,7.0588603,7.062461,7.0665865,7.0707045,7.0744543,7.0792646,7.084856,7.0899544,7.095887,7.1031456,7.110108,7.1172466,7.1267605,7.136404,7.1448765,7.1554604,7.166025,7.174694,7.184901,7.1959743,7.2056894,7.216768,7.229347,7.2404537,7.251093,7.2644577,7.2787285,7.2929296,7.312337,7.334812,7.355611,7.381586,7.413335,7.443841,7.477442,7.528537,7.5954742,7.693468,7.7838545,7.835573,7.866065,7.914872,7.974078,8.02556,8.051685,8.047539,8.0361805,8.090429,8.09701,7.878158,7.3008547,6.4114437,5.5196304,4.827155,4.236189,3.914226,3.7926996,3.6884432,3.6333861,3.6126869,3.597898,3.593601,3.599257,3.609914,3.6278014,3.6492624,3.6702776,3.6807508,3.680588,3.6783655,3.677538,3.6771097,3.676547,3.6751096,3.6729422,3.6706967,3.6685698,3.6659546,3.6633177,3.6610072,3.6582038,3.6550698,3.652216,3.6486816,3.6442533,3.6400719,3.6358685,3.6311014,3.6271408,3.6240563,3.6211748,3.6195207,3.618894,3.6193218,3.6216083,3.624804,3.6291828,3.6349845,3.6404698,3.645814,3.6520529,3.6574779,3.6617565,3.6662693,3.6699424,3.6725295,3.6751463,3.677282,3.6785421,3.6786413,3.6787794,3.6790867,3.6803298,3.6724591,3.6549678,3.634945,3.6127353,3.5962157,3.5879884,3.5855749,3.596702,3.6191325,3.6522894,3.7337692,3.8956175,4.1321306,4.720025,5.6320577,6.6578403,7.654538,8.212429,8.311138,8.194351,8.037131,8.019005,7.9906015,7.9551783,7.912346,7.86067,7.7965913,7.7229567,7.6390033,7.5798197,7.532139,7.4787197,7.4287558,7.3933344,7.3787384,7.369622,7.3676286,7.372757,7.3812437,7.3979154,7.419634,7.439633,7.4653273,7.4961386,7.52519,7.558258,7.594327,7.6247473,7.654952,7.6904287,7.7229958,7.751341,7.7856894,7.8188763,7.8459826,7.877014,7.909339,7.936983,7.9675646,7.9999733,8.027153,8.053987,8.09013,8.12425,8.1490755,8.174101,8.193431,8.206835,8.22065,8.23439,8.246742,8.262028,8.281408,8.300133,8.318566,8.342087,8.365847,8.387404,8.413921,8.439903,8.460509,8.483318,8.504431,8.519291,8.532898,8.5444355,8.551586,8.556715,8.560818,8.563581,8.566056,8.569809,8.575426,8.581767,8.591626,8.606511,8.62272,8.643169,8.670946,8.699061,8.728092,8.753208,8.76932,8.782949,8.797712,8.8096695,8.817121,8.823645,8.827755,8.829458,8.830741,8.832071,8.833544,8.835079,8.837561,8.840151,8.842003,8.843961,8.845342,8.845998,8.8471775,8.849316,8.851875,8.854532,8.858427,8.863136,8.868375,8.875531,8.882982,8.889161,8.896343,8.903133,8.908078,8.912926,8.917225,8.919968,8.921696,8.922423,8.92215,8.92169,8.920683,8.919403,8.918304,8.917961,8.921815,8.928955,8.936961,8.946867,8.9558,8.963961,8.972151,8.97784,8.981352,8.984525,8.986523,8.987606,8.988642,8.988869,8.988284,8.987215,8.986219,8.985205,8.982367,8.980568,8.981892,8.985441,8.99118,8.999149,9.007309,9.018663,9.032503
6.8840685,6.8734765,6.864438,6.8575277,6.849043,6.840802,6.834597,6.8282123,6.823226,6.8208084,6.8195148,6.820089,6.822477,6.825685,6.8306484,6.83655,6.8420873,6.8495693,6.857896,6.864865,6.8726535,6.880834,6.8874636,6.893817,6.9004745,6.9058533,6.910297,6.9150205,6.9191437,6.9225216,6.926461,6.9305696,6.9340787,6.9379888,6.9426823,6.947172,6.9517326,6.957676,6.963682,6.9690537,6.976066,6.983435,6.9896946,6.997265,7.005964,7.014037,7.0237837,7.0355535,7.046546,7.0575404,7.0720053,7.0878253,7.103667,7.12371,7.146343,7.167839,7.194451,7.2293596,7.2660933,7.309595,7.3914404,7.49287,7.6018057,7.681011,7.717396,7.754756,7.8049846,7.8415036,7.850711,7.8652844,7.941553,8.02218,7.9169316,7.447961,6.7152977,5.844945,4.924674,4.291896,3.92644,3.686315,3.616897,3.609364,3.5948358,3.5891514,3.5927987,3.6073027,3.6346416,3.658296,3.6643233,3.6705394,3.677627,3.6849785,3.6856582,3.6807127,3.67595,3.6719198,3.6682425,3.6654313,3.6630402,3.660838,3.6591287,3.6575694,3.655391,3.6528606,3.650476,3.6473837,3.6438289,3.6406407,3.6367874,3.6320465,3.6276557,3.6233873,3.6187277,3.6149755,3.6120567,3.6094136,3.6079688,3.6074545,3.6078925,3.6099467,3.612767,3.616702,3.6220436,3.6272116,3.63231,3.6384053,3.6437762,3.6479766,3.6523356,3.6556919,3.6578455,3.6603358,3.663032,3.6655564,3.669086,3.673749,3.6780224,3.6825397,3.683168,3.6783636,3.671574,3.6632051,3.6493576,3.6311784,3.6050754,3.5828514,3.5752332,3.5789142,3.590202,3.6193194,3.658638,3.8450513,4.326519,5.050578,6.089027,7.110222,7.7744055,8.052406,8.013918,7.9096584,7.828643,7.7669806,7.739396,7.7223015,7.660941,7.5618,7.4633284,7.365259,7.2752934,7.1995134,7.125406,7.075123,7.0562,7.0375595,7.023696,7.0174446,7.014367,7.016855,7.0255094,7.035595,7.049779,7.0672092,7.083151,7.100794,7.119915,7.136396,7.1534123,7.1747565,7.195876,7.2152786,7.2399554,7.2652817,7.2869496,7.3130636,7.3409863,7.3646593,7.3903713,7.418009,7.4415426,7.4644194,7.4931774,7.519312,7.5388536,7.558919,7.574463,7.5849414,7.595272,7.6044464,7.6123257,7.6251297,7.642831,7.660482,7.6784782,7.702021,7.7262363,7.748328,7.7761297,7.804246,7.8271604,7.8531494,7.8782353,7.8967285,7.9142246,7.9300737,7.940896,7.9493475,7.957245,7.9632673,7.968212,7.974615,7.9822526,7.9897375,8.000723,8.017088,8.03508,8.05756,8.089316,8.124142,8.162715,8.205819,8.24348,8.275244,8.312127,8.345323,8.368536,8.39109,8.409725,8.4219475,8.433253,8.445263,8.4564905,8.467688,8.483233,8.499828,8.51417,8.5300455,8.545256,8.557505,8.572025,8.586867,8.598497,8.610483,8.62525,8.639822,8.653488,8.671068,8.688465,8.702496,8.716998,8.730293,8.740761,8.751656,8.761705,8.768351,8.773146,8.776262,8.777184,8.777365,8.7767,8.775686,8.775078,8.775659,8.780338,8.78793,8.797828,8.8093,8.818983,8.828867,8.840032,8.849246,8.856139,8.863184,8.8685665,8.872061,8.876388,8.879639,8.880756,8.880726,8.879957,8.878891,8.876869,8.875506,8.876464,8.879305,8.883995,8.890394,8.896764,8.9049,8.915083
6.7475796,6.740404,6.73423,6.729786,6.7243643,6.71922,6.715475,6.7117715,6.7094145,6.7089844,6.7095304,6.7119317,6.7157116,6.720092,6.7258015,6.731784,6.7371507,6.7443523,6.752343,6.759058,6.766656,6.7747316,6.7813635,6.7878017,6.794875,6.800894,6.80599,6.811264,6.815565,6.8188553,6.822422,6.8258142,6.8285437,6.831455,6.8348103,6.8379354,6.841139,6.8448057,6.847802,6.8498225,6.8525934,6.856062,6.859563,6.864214,6.870148,6.8760366,6.8836765,6.893557,6.903338,6.913539,6.9274635,6.9431953,6.9592834,6.979574,7.0028343,7.0253816,7.05255,7.091278,7.1363506,7.198347,7.3115673,7.431625,7.5137444,7.5681925,7.595222,7.630167,7.648712,7.662517,7.6870265,7.7293453,7.711873,7.5577145,7.0476947,6.1293364,5.202859,4.483843,3.943328,3.7316167,3.6623545,3.6201508,3.6066034,3.5955286,3.5983338,3.6148114,3.6339371,3.6537528,3.680354,3.6978712,3.6922874,3.6826367,3.6736054,3.6664615,3.6593657,3.6545737,3.652434,3.6508029,3.6496255,3.6487103,3.6479774,3.647289,3.6466417,3.6459413,3.6446867,3.6428914,3.641008,3.6382308,3.63468,3.631341,3.6274033,3.62273,3.6185591,3.614595,3.6104283,3.6072135,3.6047838,3.602633,3.601494,3.6010988,3.6014738,3.6031017,3.6053023,3.608405,3.612825,3.6172833,3.6217146,3.627152,3.6320267,3.6358247,3.6397219,3.6426373,3.6444335,3.645947,3.6472168,3.648375,3.6499052,3.651678,3.6533382,3.654849,3.6591895,3.6660674,3.6736598,3.6823215,3.68221,3.671588,3.651093,3.62281,3.5990002,3.5785859,3.5707493,3.5810208,3.5995908,3.622976,3.7449262,3.979928,4.5797153,5.5295835,6.470396,7.251502,7.6516695,7.6741967,7.616075,7.547715,7.533886,7.536153,7.4955616,7.405811,7.30488,7.180787,7.0577,6.964298,6.874922,6.816797,6.79605,6.771985,6.751769,6.739883,6.7310467,6.726221,6.7271113,6.73003,6.7356186,6.7417474,6.745551,6.7482505,6.7503605,6.7524376,6.755332,6.760297,6.766555,6.773056,6.78223,6.7930555,6.803377,6.817686,6.834639,6.849546,6.8656683,6.8838587,6.8997793,6.914558,6.930232,6.94291,6.953122,6.9639325,6.972162,6.9771852,6.9812665,6.9832015,6.9840674,6.9886065,6.9962482,7.004717,7.014303,7.0277863,7.0424404,7.056141,7.0741305,7.093305,7.10958,7.1287184,7.1482763,7.1635437,7.1785383,7.193263,7.204438,7.2138166,7.2237024,7.2320004,7.2386975,7.246783,7.2550855,7.262191,7.2716007,7.284623,7.298579,7.315734,7.340331,7.3683414,7.3994884,7.4424505,7.48695,7.52485,7.5697494,7.611706,7.642355,7.6733136,7.700905,7.7206526,7.7396564,7.7608347,7.7808895,7.8004174,7.827009,7.856007,7.882309,7.91304,7.944023,7.9694815,7.9990997,8.030428,8.056145,8.082382,8.113842,8.143634,8.170578,8.204159,8.236761,8.2630005,8.291941,8.32032,8.343523,8.368752,8.393801,8.412327,8.427973,8.4423485,8.452368,8.4599285,8.467981,8.475908,8.483395,8.49355,8.506678,8.519796,8.537525,8.5587635,8.577688,8.597376,8.619701,8.638943,8.654751,8.673261,8.68955,8.700901,8.712637,8.721983,8.727392,8.731335,8.734097,8.736077,8.738267,8.741888,8.747128,8.753168,8.762913,8.775594,8.7876835,8.803234,8.818785
6.6803865,6.674302,6.6683497,6.664031,6.6587105,6.653678,6.6500664,6.646367,6.643715,6.6427274,6.6423817,6.6433964,6.6456175,6.6482344,6.652579,6.657967,6.66303,6.669861,6.677553,6.6841125,6.6916633,6.699855,6.706706,6.713433,6.7209916,6.7276087,6.733348,6.739415,6.744525,6.7485304,6.7529993,6.757416,6.7610536,6.7649903,6.7692947,6.7730513,6.7769384,6.7809834,6.7833657,6.7836723,6.7842903,6.7854824,6.7868977,6.788908,6.7917933,6.794969,6.7996387,6.806452,6.8138986,6.822191,6.833996,6.8480916,6.86306,6.8840694,6.909582,6.9341736,6.963319,7.0077972,7.063207,7.1511993,7.28119,7.390873,7.4338346,7.468737,7.4941998,7.5139027,7.489602,7.500384,7.5894375,7.619839,7.2550516,6.5603046,5.6831007,4.775028,4.210224,3.9115715,3.724831,3.658821,3.6224067,3.5978327,3.5964456,3.6078649,3.6333432,3.6610925,3.6748266,3.6757755,3.6729343,3.6703067,3.6659446,3.6609964,3.6568022,3.653552,3.6483173,3.6434493,3.6409543,3.6386514,3.6372285,3.6367888,3.6366868,3.636928,3.6371882,3.6372278,3.636858,3.6358626,3.6345766,3.6324244,3.6292925,3.6261146,3.6223462,3.6179934,3.614247,3.6106954,3.6070404,3.6043515,3.6024866,3.6008244,3.5999017,3.5995317,3.5997448,3.6010008,3.6027873,3.6052806,3.6089373,3.6127357,3.6165533,3.6214144,3.6259036,3.6294327,3.6330283,3.635651,3.637199,3.6383333,3.6388474,3.6390562,3.6395602,3.6403098,3.6410332,3.6413522,3.6431522,3.646592,3.6506085,3.6551275,3.6589174,3.6614215,3.6666622,3.659082,3.6374702,3.6090274,3.579574,3.5658765,3.5671217,3.5944753,3.6552136,3.715343,3.9654922,4.4592156,5.023894,5.9470053,6.8116302,7.2079163,7.3334074,7.3411446,7.3324633,7.325467,7.3136315,7.266091,7.1734114,7.0559216,6.927456,6.8191366,6.7201614,6.6556807,6.6311655,6.604144,6.580058,6.564248,6.5526814,6.544244,6.541027,6.540063,6.540313,6.540595,6.5396576,6.5369205,6.5328584,6.529395,6.5266814,6.524393,6.523238,6.522814,6.52325,6.5251656,6.5278716,6.532715,6.5398836,6.5471387,6.5560646,6.5667067,6.5761013,6.5849786,6.5949497,6.6033993,6.610152,6.617132,6.622076,6.6247144,6.6261787,6.625824,6.624613,6.623014,6.621457,6.6208744,6.6212325,6.623005,6.626108,6.6296167,6.6350083,6.6417246,6.6480265,6.656045,6.665243,6.67321,6.681572,6.690753,6.698554,6.70549,6.7134852,6.7206783,6.7265177,6.7334137,6.7402053,6.7457786,6.752555,6.76101,6.769534,6.780005,6.7942133,6.808825,6.8222265,6.8448563,6.8719263,6.8958774,6.9243584,6.9518995,6.9731083,6.9956365,7.0173426,7.0341377,7.050994,7.071142,7.091071,7.1104183,7.136468,7.1656933,7.193486,7.2285676,7.265746,7.296483,7.3319683,7.3716745,7.40645,7.4418154,7.483388,7.5214777,7.5549192,7.596299,7.6364098,7.668647,7.7072744,7.747136,7.7798414,7.8159857,7.8532295,7.8821855,7.9077086,7.933056,7.952717,7.968518,7.98698,8.006067,8.023647,8.0458145,8.071234,8.094313,8.123532,8.160252,8.194946,8.229977,8.268625,8.301611,8.329363,8.363897,8.396217,8.419657,8.442318,8.461117,8.474181,8.486399,8.498375,8.508523,8.518326,8.532141,8.548397,8.564479,8.588982,8.619724,8.648661,8.687141,8.724093
6.6009626,6.5955753,6.5907736,6.5873046,6.5829926,6.5789366,6.576089,6.5732236,6.5713763,6.570979,6.571174,6.572681,6.5752153,6.5780287,6.5825534,6.588049,6.593157,6.5999784,6.607607,6.6140947,6.621562,6.629688,6.636526,6.6432896,6.650976,6.6577826,6.6637316,6.6700354,6.6753116,6.6793957,6.683881,6.688191,6.6916523,6.6953464,6.69926,6.702565,6.705808,6.709479,6.712434,6.7143536,6.717228,6.7191153,6.718858,6.71863,6.7191677,6.7207155,6.723714,6.7288485,6.7350836,6.742628,6.7539573,6.7680416,6.7832603,6.805188,6.832341,6.858679,6.8904753,6.944665,7.015975,7.1383586,7.2606096,7.3252153,7.35263,7.3754234,7.379283,7.3488383,7.390317,7.4534245,7.4634438,7.0604157,6.20181,5.3112516,4.5777082,4.028328,3.7861085,3.674511,3.6103659,3.5894823,3.5815623,3.5902348,3.6129196,3.633476,3.6445794,3.6512222,3.656078,3.6551702,3.6519692,3.6493034,3.64814,3.6438391,3.6379523,3.633679,3.6289747,3.6255958,3.624185,3.6232824,3.6234708,3.6243596,3.6253982,3.6268554,3.6281512,3.629046,3.629693,3.6296194,3.6290152,3.6277366,3.625546,3.6231341,3.6199303,3.6160917,3.6128302,3.6098228,3.6068206,3.60471,3.6033218,3.6022005,3.6016517,3.6014202,3.6015592,3.6024258,3.6036997,3.6055117,3.608259,3.6111917,3.6142035,3.6180909,3.6214855,3.6237297,3.625963,3.627142,3.6271832,3.626846,3.6260507,3.6252723,3.6247663,3.6243129,3.6240387,3.6239862,3.6249943,3.6266508,3.6278205,3.6299152,3.6331382,3.6366363,3.640951,3.6403048,3.6331275,3.6197352,3.5977325,3.5759077,3.5553079,3.5521874,3.574946,3.6017716,3.6888313,3.9130201,4.2252107,4.81783,5.6174316,6.289734,6.859811,7.14598,7.132232,7.1419706,7.1443377,7.1218014,7.0720797,6.972172,6.8391128,6.7246118,6.6130943,6.541498,6.5191517,6.488925,6.461549,6.4439993,6.4309406,6.420436,6.4149723,6.4120827,6.4100256,6.4078875,6.4049063,6.3998804,6.393562,6.388296,6.3835278,6.3782973,6.373828,6.370104,6.3660975,6.363136,6.361454,6.3608785,6.362217,6.364581,6.3681135,6.3729167,6.377425,6.3817315,6.3866644,6.3908777,6.3942614,6.3975058,6.399169,6.3993254,6.398037,6.3949347,6.3914084,6.386933,6.381814,6.3778358,6.3747897,6.372156,6.370819,6.370407,6.3708153,6.372326,6.3742223,6.377086,6.3809996,6.3848004,6.389036,6.3940926,6.398691,6.402898,6.4079785,6.4127083,6.4165688,6.4210935,6.425448,6.42892,6.4330063,6.4381323,6.4434624,6.4503,6.4597044,6.469285,6.478121,6.491226,6.5058775,6.5187597,6.5345397,6.550535,6.563428,6.5775948,6.591999,6.6036634,6.615486,6.629772,6.6438284,6.6572647,6.675086,6.6943235,6.7118196,6.734087,6.7578526,6.7776203,6.80075,6.826701,6.849283,6.8720074,6.898446,6.9230175,6.9454,6.975042,7.0048413,7.028455,7.057246,7.0877833,7.113636,7.144102,7.178481,7.2073135,7.2327604,7.2588634,7.2799,7.2971053,7.3176956,7.3390446,7.3583126,7.3834724,7.413368,7.4409494,7.474605,7.515973,7.5548344,7.594343,7.6396303,7.6807585,7.7171383,7.7634745,7.809762,7.8465133,7.8867736,7.9245505,7.952555,7.9804764,8.00979,8.0355215,8.060803,8.094034,8.129021,8.160528,8.206471,8.261869,8.312837,8.379263,8.448473
6.529972,6.5250344,6.520996,6.518095,6.514472,6.511096,6.5087776,6.5065074,6.505248,6.505286,6.5058813,6.507704,6.5103693,6.513221,6.517577,6.522673,6.5273256,6.5334816,6.5402956,6.546053,6.552686,6.5599546,6.5661583,6.572406,6.579666,6.586254,6.592119,6.5984087,6.6037283,6.6078563,6.6123643,6.616638,6.6200185,6.623599,6.627322,6.63039,6.633253,6.6366634,6.639926,6.642826,6.646777,6.6497784,6.6506615,6.6520023,6.6526356,6.652547,6.654241,6.658722,6.6651897,6.673217,6.685489,6.701295,6.719107,6.74483,6.773795,6.798503,6.8357563,6.910366,7.0062895,7.135642,7.22654,7.2454896,7.2638106,7.25989,7.245925,7.244817,7.329994,7.2145987,6.798671,5.9455442,4.9357643,4.2648983,3.8647819,3.6653562,3.6154764,3.587494,3.5740204,3.5775623,3.592442,3.610324,3.6270204,3.638333,3.636479,3.6307378,3.6297557,3.6298985,3.628448,3.6253166,3.6229227,3.617455,3.6110005,3.6064968,3.6028123,3.6012745,3.6013796,3.602382,3.604694,3.6073265,3.610068,3.613295,3.6160202,3.6181421,3.6200995,3.6212525,3.6217718,3.6219552,3.6214042,3.620382,3.6184404,3.6157699,3.613399,3.6111803,3.6089993,3.6075296,3.6066134,3.6059241,3.6055982,3.6054118,3.60538,3.60573,3.6063387,3.6072845,3.6088176,3.610488,3.6121821,3.6142862,3.6158671,3.6165407,3.6168292,3.6160998,3.6146197,3.6124382,3.6097438,3.6073914,3.6046834,3.6017504,3.5996268,3.59832,3.5979438,3.5984113,3.5987253,3.600048,3.6026022,3.6054595,3.6079931,3.6111207,3.6138957,3.6141434,3.6088576,3.5966601,3.5745115,3.5540624,3.551796,3.5661016,3.5871449,3.6611931,3.7862132,4.0307875,4.5611353,5.2212334,5.969813,6.607185,6.8792,6.9364047,6.97314,6.9901996,6.9792643,6.914094,6.79525,6.6761107,6.5509863,6.46847,6.446876,6.4229116,6.3972983,6.3759246,6.3616323,6.3509216,6.3463216,6.3444443,6.343914,6.343455,6.3417287,6.3381577,6.3323183,6.326435,6.3212566,6.3153076,6.3098135,6.3048773,6.299011,6.293745,6.2898417,6.286271,6.2840524,6.283204,6.282903,6.2834015,6.2842736,6.285145,6.2862463,6.2868176,6.2865305,6.285472,6.283347,6.28081,6.276514,6.2704287,6.264485,6.257547,6.249632,6.2430544,6.2374654,6.231669,6.227179,6.223922,6.220582,6.218058,6.2164946,6.215205,6.214691,6.2148666,6.215416,6.2166877,6.218256,6.219779,6.221835,6.2238665,6.2255106,6.227357,6.2289424,6.230036,6.231169,6.232738,6.2346973,6.237651,6.242135,6.2469673,6.251812,6.25743,6.2626224,6.267065,6.2727776,6.279047,6.284483,6.2906055,6.297127,6.302605,6.3081703,6.3150425,6.321884,6.3283806,6.336968,6.3458104,6.353282,6.362816,6.372999,6.381502,6.391723,6.403132,6.4128113,6.422302,6.433078,6.4431562,6.4526873,6.46603,6.4798894,6.4908495,6.5045953,6.5199966,6.5337877,6.550992,6.5719023,6.590457,6.6070437,6.6246066,6.6392403,6.6513586,6.666198,6.6818094,6.6958656,6.714731,6.7376437,6.7588916,6.7840805,6.814206,6.8420773,6.8703413,6.9042044,6.93671,6.96624,7.0044146,7.0438557,7.0764074,7.1163006,7.1576242,7.1901503,7.223941,7.261099,7.2942667,7.326051,7.36773,7.412113,7.4528923,7.5120854,7.58269,7.6469154,7.726738,7.8126354
6.4812765,6.4766293,6.4727335,6.4699216,6.4664073,6.463147,6.460929,6.458788,6.4576383,6.4577136,6.458285,6.45992,6.462242,6.4646864,6.4683695,6.47261,6.4764304,6.4814615,6.486994,6.491647,6.4970484,6.50308,6.5083714,6.513855,6.520451,6.526651,6.5323086,6.5384855,6.5438337,6.548053,6.552704,6.55717,6.560735,6.5645466,6.5685253,6.5717945,6.5748606,6.5783644,6.581495,6.5840816,6.5873,6.59082,6.594101,6.5986357,6.6015553,6.6018963,6.6039915,6.6091704,6.616783,6.6263056,6.6410275,6.6595488,6.6797,6.7081156,6.738944,6.7641664,6.8145976,6.913211,7.025548,7.120633,7.168853,7.1663275,7.1720033,7.144718,7.123702,7.179122,7.1171713,6.6162863,5.7686014,4.814169,4.086859,3.816687,3.6682796,3.6033688,3.5764723,3.5640721,3.5709074,3.592793,3.615832,3.623809,3.6199136,3.6173174,3.6159778,3.6149383,3.6139202,3.6140382,3.6112223,3.6056173,3.5998964,3.5935278,3.5885448,3.5851753,3.5827715,3.5825143,3.583684,3.5858762,3.5894303,3.5930958,3.5969758,3.601337,3.6049376,3.6078777,3.6107938,3.6129727,3.614511,3.6159897,3.6168528,3.6170197,3.6164079,3.6150942,3.613739,3.6123528,3.6109328,3.6099772,3.6094317,3.6089926,3.6087117,3.6084807,3.6082356,3.6080742,3.608038,3.6081462,3.6085236,3.6090016,3.6094334,3.609839,3.6098533,3.6094546,3.608283,3.6062334,3.6039774,3.600566,3.596351,3.592603,3.587957,3.5828326,3.57897,3.5760694,3.5741477,3.5740848,3.5751312,3.576961,3.5796232,3.582396,3.5862384,3.5903828,3.5934763,3.5963807,3.600945,3.6024857,3.5949402,3.5776448,3.5613785,3.5537074,3.565473,3.606361,3.660555,3.7648463,4.047882,4.464445,5.044078,5.843239,6.4706993,6.687811,6.818275,6.8646865,6.8808365,6.8586,6.776186,6.67065,6.5427265,6.444003,6.4097776,6.392496,6.3734713,6.352565,6.3392177,6.3299356,6.326914,6.326292,6.3273134,6.3285575,6.328332,6.3267055,6.3221083,6.3163743,6.3115187,6.3058996,6.300638,6.2958345,6.290085,6.2847652,6.2806473,6.27643,6.2729387,6.2706175,6.268457,6.2666893,6.265521,6.264406,6.263173,6.2613583,6.2585325,6.2544513,6.249683,6.24533,6.2390738,6.231186,6.223873,6.215477,6.205848,6.1976414,6.1904435,6.1826935,6.176283,6.171262,6.1656094,6.16066,6.157084,6.153399,6.150394,6.1485705,6.1470647,6.145974,6.1454415,6.1451674,6.1451917,6.1453843,6.1454916,6.1454363,6.144983,6.1442714,6.1431103,6.141767,6.1408443,6.1403904,6.1404862,6.140971,6.1414866,6.142128,6.142782,6.143406,6.144236,6.1453934,6.146638,6.147919,6.1492434,6.1503735,6.151538,6.153371,6.1556263,6.1579638,6.1613264,6.1650405,6.168309,6.172579,6.177106,6.180778,6.1852727,6.1903343,6.1945934,6.1986256,6.2029657,6.206515,6.209337,6.212304,6.2150283,6.217428,6.220949,6.2258015,6.230771,6.236929,6.2444477,6.251218,6.257625,6.2646923,6.270773,6.275819,6.282237,6.289364,6.296038,6.305132,6.316117,6.3260927,6.337571,6.350813,6.3627377,6.374549,6.389806,6.4055977,6.4201813,6.439586,6.460297,6.477768,6.502366,6.530927,6.555135,6.5812902,6.6111794,6.6380315,6.6627502,6.6955523,6.731971,6.7670946,6.8182125,6.8790135,6.9340086,6.9992933,7.0700474
6.4438677,6.43943,6.43563,6.432825,6.4292803,6.425972,6.423727,6.421589,6.420448,6.420505,6.4210196,6.422478,6.424513,6.42663,6.429782,6.4333715,6.436576,6.44078,6.4453864,6.449257,6.4537926,6.4589825,6.463684,6.468693,6.4748926,6.4808664,6.4863977,6.492498,6.49784,6.502083,6.5067863,6.5113525,6.5150356,6.5190244,6.523237,6.5267344,6.530071,6.5338974,6.5373015,6.5400867,6.543623,6.5474653,6.550952,6.555475,6.5606503,6.565207,6.570225,6.576898,6.5850515,6.596177,6.6144137,6.635436,6.654367,6.679223,6.71134,6.745457,6.817726,6.936178,7.04809,7.088953,7.0966897,7.0908356,7.0748253,7.0534096,7.034685,7.0738335,6.6253786,5.739658,4.8766356,4.173401,3.7842693,3.6867375,3.6046882,3.5644236,3.556902,3.5678444,3.588106,3.6021397,3.601876,3.601379,3.6002069,3.5989425,3.6000228,3.6011944,3.6007128,3.5989933,3.5955377,3.5914934,3.5876083,3.583194,3.579753,3.5775971,3.5763924,3.576935,3.578455,3.580912,3.5844817,3.587975,3.5916495,3.595602,3.5988011,3.6015165,3.6046276,3.607297,3.6092095,3.6111302,3.6124141,3.6129193,3.6130223,3.6126478,3.612087,3.6114461,3.6106436,3.6100345,3.6097646,3.6095555,3.6093726,3.609149,3.6087718,3.608214,3.6076522,3.6070814,3.6066108,3.6063416,3.606121,3.6058137,3.605227,3.604344,3.6026802,3.6002276,3.5976696,3.5938897,3.5891743,3.5849626,3.5804067,3.5751698,3.5707715,3.5672686,3.5644755,3.5634637,3.5635996,3.564612,3.5665312,3.5685492,3.5709605,3.5741594,3.577301,3.5799756,3.5830975,3.5856423,3.5877476,3.5842748,3.5758147,3.5666652,3.5604124,3.576096,3.6127877,3.6752787,3.8275115,4.067894,4.4943886,5.175089,5.846053,6.3984427,6.6842294,6.7033134,6.7581224,6.7777653,6.742796,6.6822963,6.564693,6.4414816,6.376523,6.354027,6.3440657,6.3354263,6.3271213,6.3199387,6.3156166,6.3128114,6.3105326,6.3085194,6.306382,6.3033285,6.299056,6.29482,6.2906923,6.2856092,6.280754,6.2764263,6.2715597,6.267175,6.2636614,6.2598095,6.2559185,6.252635,6.249299,6.245942,6.243208,6.2405243,6.2372766,6.2339315,6.2306156,6.2261,6.2209225,6.2161446,6.2096295,6.2017937,6.19474,6.1867375,6.1775603,6.169652,6.1626177,6.154906,6.148471,6.1434937,6.1379404,6.133129,6.129677,6.1261244,6.1232657,6.121526,6.1199684,6.1177616,6.1154604,6.113825,6.112301,6.111109,6.1100874,6.1086802,6.106819,6.1048737,6.10216,6.0989084,6.096172,6.0936823,6.0912476,6.089272,6.087409,6.0850277,6.0826817,6.0807433,6.078574,6.076742,6.075528,6.073986,6.0723715,6.071138,6.0699615,6.0692244,6.0692334,6.0695763,6.0704803,6.071681,6.072709,6.0740957,6.0754366,6.076356,6.0776806,6.0792613,6.0805397,6.0815578,6.0822945,6.0823374,6.081804,6.0804353,6.0787516,6.077468,6.076538,6.076803,6.0780563,6.0802164,6.083522,6.086785,6.0898523,6.0930686,6.095603,6.0975323,6.100007,6.1029835,6.1060123,6.1104574,6.1162457,6.121745,6.1281624,6.135648,6.1424804,6.1494102,6.158658,6.168704,6.1783667,6.1918716,6.2072277,6.22089,6.2381444,6.2570715,6.272767,6.28933,6.3073335,6.3228292,6.337117,6.3556194,6.375406,6.393951,6.4198456,6.4498777,6.476904,6.509572,6.5451574
6.400852,6.3965993,6.3927875,6.3898478,6.386086,6.382551,6.3801613,6.377926,6.376748,6.376794,6.377266,6.378578,6.380357,6.382149,6.384795,6.3877707,6.3903837,6.3938813,6.397804,6.4011645,6.4051785,6.4099197,6.414339,6.4191256,6.4251337,6.430995,6.4364786,6.4425807,6.4480267,6.4524384,6.4574385,6.462433,6.4665422,6.47106,6.4759007,6.4799376,6.4837475,6.488052,6.491833,6.494925,6.4988666,6.503131,6.506963,6.511801,6.517963,6.524167,6.531618,6.5412183,6.551592,6.564266,6.583287,6.6043825,6.623173,6.64933,6.688236,6.73357,6.850764,6.9690495,7.0184526,7.026971,7.017273,6.9952803,6.9255056,6.928336,6.8422403,6.5358076,5.71725,4.7479243,4.1319146,3.750062,3.6127214,3.5854049,3.551684,3.5477262,3.5651228,3.5788164,3.589932,3.5918427,3.5862432,3.5835142,3.5838995,3.5850768,3.585414,3.5848966,3.5837865,3.5816967,3.5790038,3.576711,3.5747857,3.572747,3.5714035,3.5708318,3.5711203,3.5726552,3.5746467,3.5771284,3.5802898,3.5832539,3.586246,3.5896053,3.5925565,3.5951846,3.5984123,3.6013985,3.6036544,3.6060336,3.6078038,3.6086936,3.609316,3.6094904,3.6093357,3.6090488,3.6086848,3.6084762,3.6084936,3.608584,3.6085913,3.6084385,3.6079586,3.6070695,3.6060994,3.6049829,3.6037784,3.6028183,3.6019604,3.601036,3.6000485,3.59894,3.5970657,3.594421,3.5916715,3.5877142,3.5827303,3.5781837,3.5732622,3.5676928,3.563014,3.5591376,3.5554848,3.5531888,3.551903,3.5513487,3.5520358,3.5533252,3.5554314,3.5585718,3.5616863,3.564752,3.5681975,3.5716445,3.5760887,3.5803676,3.5811672,3.5783558,3.5696578,3.567346,3.5780146,3.6070995,3.676423,3.792698,4.023903,4.5106754,5.1274805,5.7914276,6.337191,6.561961,6.6052628,6.6527348,6.6666975,6.6464615,6.5876827,6.482131,6.382786,6.327153,6.303829,6.303879,6.297915,6.2920675,6.287898,6.285074,6.282554,6.280144,6.2776976,6.274457,6.2705035,6.2669134,6.2632217,6.2586045,6.2541075,6.250005,6.2452745,6.2408676,6.2372413,6.23337,6.22963,6.226561,6.2232027,6.219455,6.216087,6.212647,6.208351,6.204129,6.200367,6.1954937,6.190196,6.1854534,6.179291,6.1721287,6.1657696,6.1585827,6.150301,6.1430907,6.136673,6.129411,6.12277,6.1168647,6.1102448,6.1044164,6.1001234,6.0955596,6.0916424,6.089052,6.0865564,6.083729,6.0812426,6.079356,6.077505,6.0759697,6.0746384,6.0728316,6.070532,6.0681963,6.065007,6.0612307,6.058014,6.0548716,6.05147,6.04846,6.0456057,6.041971,6.038436,6.035556,6.032347,6.029296,6.0267935,6.02332,6.0195274,6.0165863,6.013653,6.0107603,6.0086074,6.0068398,6.0048428,6.0029154,6.0011907,5.9991345,5.9968796,5.9948606,5.9928637,5.990818,5.988969,5.986797,5.9837704,5.980397,5.9769363,5.972163,5.9671993,5.963105,5.9586496,5.955136,5.953233,5.9518404,5.9511876,5.9510255,5.950803,5.950222,5.949319,5.948308,5.9471674,5.946411,5.94617,5.9464073,5.9473104,5.948409,5.9496937,5.951171,5.952565,5.954161,5.9567966,5.9603963,5.9643717,5.970744,5.978943,5.9868007,5.996483,6.0070796,6.0158844,6.0248427,6.034945,6.0438566,6.0515203,6.0609555,6.0707335,6.0799265,6.092236,6.1058064,6.117573,6.132379,6.148713
6.360558,6.3564396,6.352607,6.3495383,6.3455667,6.3418236,6.3393135,6.337023,6.3358893,6.336025,6.336563,6.337947,6.339731,6.3414135,6.3438196,6.346471,6.3487716,6.3519096,6.3555145,6.358673,6.362529,6.367214,6.371668,6.376527,6.382635,6.3885937,6.3941693,6.400385,6.4059825,6.4105706,6.4158583,6.4212637,6.425787,6.43083,6.436305,6.4408855,6.445157,6.449912,6.4540434,6.4574213,6.4617424,6.466419,6.4706125,6.4758906,6.482278,6.488568,6.49737,6.509444,6.522156,6.5364404,6.5559826,6.5778556,6.599371,6.627773,6.683702,6.763321,6.889305,6.9692974,6.960162,6.958256,6.918945,6.8501167,6.790988,6.691439,6.342535,5.651412,4.741225,4.0277257,3.7475996,3.5983853,3.5605404,3.5384452,3.5350568,3.553424,3.5743127,3.5782802,3.5758452,3.571701,3.571394,3.5716696,3.573096,3.5749826,3.5738754,3.5715094,3.5699663,3.5687685,3.5676866,3.566955,3.5665207,3.5662413,3.5663886,3.5668616,3.5680442,3.5700476,3.57216,3.5744984,3.5772016,3.5796375,3.5820317,3.5849752,3.58785,3.5905013,3.593806,3.5969582,3.5994437,3.6021476,3.6042867,3.6054752,3.6063867,3.6067963,3.6067805,3.6065958,3.60644,3.6064696,3.6066318,3.606863,3.6069312,3.606758,3.6061153,3.6049213,3.6036391,3.6021326,3.600427,3.5990005,3.5976965,3.5963664,3.5951679,3.5939915,3.5921106,3.5895572,3.5869472,3.5831604,3.5782757,3.573696,3.568533,3.562815,3.5581188,3.5540724,3.5498352,3.546571,3.5442145,3.5422776,3.541716,3.5422125,3.543994,3.546999,3.5499706,3.5535412,3.557631,3.561037,3.5636635,3.5682375,3.5733042,3.5774117,3.5771656,3.5721474,3.5668292,3.5762377,3.6116953,3.6720867,3.7627835,4.044219,4.500262,5.0627813,5.7872562,6.2977557,6.4262877,6.525057,6.5677733,6.5856104,6.5884013,6.529736,6.4347954,6.349439,6.291127,6.275214,6.267432,6.2617846,6.258365,6.2560735,6.254284,6.252375,6.249976,6.2466393,6.2423,6.238248,6.234235,6.2293587,6.2246475,6.220277,6.21506,6.210085,6.2059975,6.201689,6.19781,6.1948824,6.191475,6.1875944,6.1840553,6.180312,6.175584,6.170926,6.166753,6.161503,6.1560545,6.1513615,6.145472,6.138789,6.1328917,6.126227,6.118531,6.1118174,6.105972,6.098826,6.0916376,6.084915,6.0772886,6.070418,6.065222,6.0595474,6.054405,6.050811,6.047311,6.0441904,6.042084,6.0403514,6.0386305,6.037178,6.035899,6.034237,6.032212,6.0302024,6.027525,6.0244102,6.0217686,6.0191483,6.0162144,6.0135345,6.0109787,6.0077095,6.0044394,6.0016437,5.9985285,5.995513,5.992978,5.989395,5.985459,5.982378,5.979216,5.9757624,5.9727516,5.9699845,5.966505,5.962991,5.959964,5.956348,5.9525547,5.949336,5.946007,5.9424987,5.9393697,5.9359646,5.931242,5.9261775,5.9213657,5.9151506,5.9088683,5.903617,5.8976545,5.8924155,5.888975,5.8857403,5.8828826,5.880711,5.8785276,5.8756456,5.8726583,5.8698945,5.866643,5.8637524,5.861658,5.859532,5.857673,5.856251,5.854575,5.852522,5.850622,5.8488693,5.8471775,5.8463216,5.846172,5.84717,5.8496313,5.8525424,5.856751,5.8618507,5.86621,5.870474,5.8756185,5.880265,5.883645,5.887535,5.8917575,5.896163,5.902543,5.909939,5.9164314,5.9249573,5.934561
6.3301687,6.3261156,6.322338,6.3192773,6.3152843,6.3115273,6.3090444,6.306843,6.3058853,6.3062186,6.306942,6.3085976,6.3106303,6.3124413,6.31491,6.317562,6.319871,6.322971,6.326504,6.3296027,6.3334417,6.338199,6.3427935,6.347846,6.3542128,6.360399,6.366151,6.372529,6.3782325,6.382883,6.388241,6.393749,6.398403,6.403653,6.4094057,6.414239,6.41875,6.423751,6.428072,6.431588,6.4361353,6.44109,6.445537,6.451125,6.457902,6.464589,6.4738836,6.486723,6.5005164,6.5164757,6.5384107,6.5637703,6.590071,6.6213055,6.698348,6.8222065,6.90321,6.9285107,6.9168215,6.90765,6.817247,6.6878986,6.693778,6.3458714,5.635873,4.842761,4.1323853,3.7523346,3.6481557,3.5605912,3.526924,3.5247812,3.5440857,3.5609598,3.5618443,3.5607061,3.5590389,3.5589545,3.5607536,3.5638585,3.5660324,3.565907,3.5651526,3.5639663,3.5631905,3.563033,3.563218,3.563521,3.563818,3.5641785,3.5646782,3.5653005,3.5665007,3.5682845,3.5700755,3.5722816,3.574836,3.5770779,3.5793855,3.5822835,3.5851583,3.5878432,3.5912323,3.5945005,3.5970922,3.5999355,3.602243,3.603588,3.6046813,3.605288,3.605425,3.6053727,3.6052985,3.6053305,3.6054707,3.6056178,3.605537,3.6052022,3.6043203,3.6028187,3.6012535,3.5994487,3.5974486,3.595801,3.5942898,3.5927424,3.5913901,3.590117,3.5882187,3.5858603,3.5836017,3.580182,3.5756323,3.571292,3.5664198,3.5609345,3.5562863,3.552113,3.5475953,3.543995,3.5413747,3.5388863,3.5375009,3.537166,3.5377684,3.539844,3.5425315,3.546103,3.5498924,3.5526814,3.555172,3.5573344,3.5600805,3.5645766,3.5703077,3.571941,3.5682023,3.5661485,3.582162,3.619904,3.6717854,3.822294,4.1075306,4.5270395,5.2329445,5.891734,6.237795,6.429453,6.4853544,6.5368767,6.5633235,6.5449486,6.4941826,6.4097667,6.3186207,6.266931,6.2530737,6.245266,6.241538,6.2386346,6.2360897,6.233279,6.229993,6.2256355,6.2201157,6.2150307,6.210063,6.204148,6.198592,6.1935735,6.187742,6.1823244,6.1779404,6.173052,6.1683283,6.1645765,6.1602497,6.155596,6.151613,6.1474047,6.142144,6.1370173,6.132457,6.126773,6.120946,6.1159744,6.1098104,6.102916,6.0968924,6.090119,6.082324,6.075518,6.069641,6.0619035,6.054081,6.04747,6.0398808,6.032915,6.027564,6.0216365,6.016132,6.012197,6.008443,6.005068,6.0027237,6.000738,5.9987097,5.9969983,5.9955325,5.993821,5.9920025,5.9903393,5.988253,5.985833,5.9837303,5.9816866,5.9794044,5.97729,5.9752297,5.9725456,5.969611,5.9667654,5.9634695,5.960453,5.958254,5.955655,5.952957,5.950762,5.9484324,5.945711,5.9431534,5.9406776,5.9375916,5.9346037,5.9321656,5.929345,5.92642,5.9239087,5.9213924,5.91875,5.916354,5.9138384,5.9097843,5.9049573,5.9002934,5.8941793,5.887966,5.882798,5.8769417,5.871697,5.868107,5.864602,5.861288,5.858618,5.855927,5.852406,5.848817,5.8455477,5.841693,5.838215,5.8356295,5.832929,5.830504,5.828645,5.8265233,5.823947,5.8214817,5.8190393,5.8162284,5.8139486,5.8123055,5.81114,5.8110895,5.811755,5.813196,5.8151636,5.8167725,5.8182592,5.819084,5.818909,5.818142,5.81693,5.815975,5.815566,5.815994,5.817814,5.82029,5.823932,5.8283367
6.3004003,6.2963877,6.2927537,6.289834,6.2859745,6.282355,6.280011,6.2780123,6.2773438,6.277971,6.279019,6.280963,6.2831945,6.2852287,6.287942,6.2908144,6.2933216,6.2966204,6.300312,6.3035183,6.3074846,6.312498,6.317439,6.3229074,6.3297377,6.3362794,6.3422956,6.3489256,6.354814,6.3596015,6.365059,6.370658,6.3754196,6.380844,6.386816,6.3918285,6.3964925,6.401599,6.405955,6.4094763,6.414081,6.4191628,6.4237556,6.4295597,6.4366283,6.4436464,6.4535613,6.4676657,6.4832273,6.5015965,6.5259876,6.555628,6.588372,6.6479664,6.7412443,6.84562,6.894024,6.894142,6.875602,6.8285,6.744455,6.610356,6.4478006,5.7489195,4.82705,4.2054253,3.770793,3.6107676,3.5621166,3.5206077,3.517212,3.5359435,3.5492904,3.5555553,3.5533276,3.550404,3.5497975,3.551913,3.5541027,3.556248,3.556726,3.5555058,3.555168,3.5555465,3.5563228,3.5575547,3.5591574,3.5605352,3.5616255,3.5628319,3.56398,3.56501,3.5664973,3.5682266,3.5697236,3.5715227,3.5736537,3.5756216,3.577693,3.5803971,3.583157,3.5857606,3.5890498,3.5922246,3.5947428,3.5975466,3.5998902,3.6013227,3.602531,3.6032758,3.603514,3.6035237,3.6034002,3.6033282,3.603448,3.6035347,3.603327,3.602836,3.6016955,3.599845,3.5979667,3.5959115,3.5938005,3.5921795,3.590712,3.589173,3.5878122,3.5865693,3.5847754,3.5826225,3.5806012,3.5777345,3.57409,3.5706553,3.5666852,3.561795,3.5572586,3.5530977,3.5482986,3.5441217,3.540842,3.5372777,3.5346084,3.5331826,3.5323284,3.532795,3.5342116,3.5364423,3.5397518,3.5431385,3.5465353,3.5498273,3.552716,3.5556226,3.561627,3.5683527,3.5725513,3.567079,3.5649562,3.5768342,3.6016388,3.672832,3.8322759,4.09111,4.643507,5.3369217,5.949324,6.3007708,6.405077,6.471928,6.5336404,6.5517025,6.52402,6.4616394,6.3679056,6.291204,6.252813,6.230199,6.2241025,6.2202215,6.2160873,6.211464,6.2065954,6.2004375,6.1928415,6.185924,6.179246,6.171471,6.164375,6.1581163,6.151005,6.1445932,6.1395283,6.133916,6.12856,6.1243553,6.119625,6.114398,6.109781,6.1050315,6.0991793,6.093623,6.0888433,6.0830574,6.077264,6.072356,6.066346,6.059705,6.053941,6.047507,6.040097,6.033268,6.0261726,6.017671,6.0099783,6.003685,5.9963226,5.989418,5.984043,5.977969,5.9723577,5.968505,5.965184,5.9623003,5.9602456,5.958476,5.956605,5.9549613,5.953527,5.9518213,5.950059,5.9485283,5.9466844,5.94462,5.9428773,5.941297,5.9396343,5.9381227,5.9366136,5.934556,5.932333,5.930317,5.9279413,5.9257298,5.924094,5.922186,5.920219,5.918623,5.91693,5.9149456,5.9130454,5.911147,5.9087296,5.9062924,5.90421,5.9017467,5.899208,5.8970985,5.895103,5.8931093,5.8913383,5.889445,5.8867016,5.883635,5.8806796,5.8768196,5.8729134,5.8696756,5.8660393,5.862565,5.859887,5.857196,5.854363,5.8518276,5.8491964,5.8456736,5.8421082,5.8389482,5.835373,5.832283,5.830036,5.827775,5.8258557,5.8244476,5.8228455,5.8209763,5.8192353,5.817501,5.815469,5.8137627,5.812601,5.810736,5.8086243,5.806945,5.805512,5.8043838,5.8034725,5.8022614,5.7999845,5.7970343,5.7937794,5.7895765,5.7856746,5.7825956,5.7796087,5.7777214,5.7769394,5.776457,5.776408
6.270135,6.265298,6.261254,6.2582474,6.254386,6.2509084,6.248769,6.247012,6.246688,6.2476788,6.249131,6.251529,6.254165,6.256609,6.2598066,6.263157,6.266087,6.2698727,6.274042,6.277629,6.2820315,6.2874975,6.2928,6.298628,6.305832,6.3126287,6.31878,6.325441,6.331196,6.3357534,6.341176,6.3469024,6.351804,6.3574038,6.3635616,6.368703,6.3734636,6.3786077,6.3829346,6.386407,6.3910213,6.3961806,6.400861,6.4067993,6.414057,6.4213037,6.431713,6.447029,6.4643917,6.4846516,6.514443,6.5505447,6.584179,6.6809635,6.785467,6.8345995,6.858967,6.848666,6.8173304,6.7491846,6.655011,6.4349937,5.8800783,4.958784,4.1562996,3.806505,3.601504,3.549881,3.520039,3.5109565,3.5261254,3.5441267,3.5469503,3.5452738,3.5439913,3.5429697,3.5445518,3.5472624,3.5482035,3.5482001,3.5474362,3.5468354,3.5474417,3.5492063,3.5511909,3.5533142,3.5555842,3.5573344,3.5587254,3.560286,3.56172,3.5629144,3.5644722,3.5661426,3.5675352,3.5692122,3.5712974,3.5733285,3.5754993,3.5783632,3.581268,3.5839643,3.5872836,3.5904016,3.5928302,3.5955486,3.5978703,3.5993466,3.6006277,3.6014721,3.6017914,3.6018603,3.6017334,3.6015754,3.6015697,3.6014447,3.6009903,3.6002936,3.5989287,3.5968854,3.594883,3.5927196,3.5905397,3.5889,3.5874515,3.5859337,3.584579,3.5833297,3.581584,3.5795236,3.5775838,3.5749912,3.5718193,3.5688562,3.5653281,3.560872,3.556547,3.5522223,3.5470529,3.5424237,3.5387096,3.5345907,3.531292,3.5292764,3.5275278,3.5267692,3.5270014,3.5278547,3.5301776,3.533432,3.5371203,3.541577,3.5451684,3.547128,3.5512857,3.5587394,3.5671756,3.5675442,3.5616994,3.557958,3.5627978,3.5917697,3.6698623,3.7849708,4.137376,4.732188,5.4130588,6.0108457,6.3177185,6.373966,6.472373,6.5285883,6.5244675,6.5006437,6.418075,6.3217077,6.2688313,6.2268586,6.20798,6.203701,6.1977963,6.1909266,6.1840887,6.1758633,6.1660337,6.157217,6.148821,6.139173,6.130501,6.122969,6.11452,6.1070385,6.101219,6.094835,6.0888224,6.0841503,6.079006,6.0732875,6.0681925,6.0630636,6.056848,6.0510244,6.046036,6.040041,6.0341215,6.029173,6.0231943,6.016734,6.0112424,6.00537,5.9979925,5.9906063,5.9830523,5.974516,5.9673347,5.961694,5.9554095,5.9496336,5.9450235,5.9397507,5.934814,5.9313917,5.9284415,5.925873,5.924035,5.922445,5.920743,5.9192495,5.9179726,5.9164615,5.914942,5.9136667,5.9121704,5.9105573,5.9092503,5.908156,5.9070663,5.906082,5.905075,5.9036055,5.902028,5.9007177,5.899132,5.8975835,5.8963656,5.8948727,5.893302,5.8920393,5.890708,5.8891554,5.88765,5.8860993,5.884058,5.881893,5.879953,5.8776116,5.875163,5.873129,5.871215,5.869372,5.8678203,5.8661633,5.864126,5.862109,5.8601823,5.8576775,5.855169,5.8531146,5.8508453,5.848613,5.8467817,5.8448625,5.8426657,5.840559,5.83831,5.8352647,5.8321958,5.8294973,5.8265123,5.8240128,5.8222446,5.82054,5.81919,5.818252,5.817202,5.8160076,5.8148904,5.8137436,5.8123426,5.811099,5.810224,5.8085318,5.8063273,5.8043823,5.8023815,5.800491,5.79895,5.7971077,5.7944593,5.791482,5.788262,5.7839594,5.7797875,5.776424,5.772897,5.770064,5.7681546,5.7661166,5.7643175
6.24487,6.238351,6.233378,6.2300053,6.225936,6.2225122,6.220537,6.2189226,6.2187977,6.2200227,6.2217407,6.2245455,6.2276306,6.230489,6.2342052,6.2380886,6.241497,6.245862,6.2506313,6.254713,6.259674,6.2656136,6.2711754,6.277195,6.2845564,6.2914176,6.297541,6.3040447,6.3094854,6.313662,6.3188505,6.324486,6.3293524,6.334997,6.341255,6.346484,6.351304,6.356461,6.3607597,6.364199,6.368853,6.374089,6.378804,6.3847713,6.3920593,6.399373,6.4100213,6.426063,6.444623,6.4658475,6.501685,6.545187,6.580817,6.6914053,6.7891273,6.7962093,6.8103924,6.7916145,6.738028,6.684063,6.4968357,6.0675845,5.189501,4.3117356,3.837966,3.6729207,3.5601263,3.522482,3.5134487,3.5224986,3.536446,3.5388405,3.5387132,3.53737,3.5370812,3.5385303,3.5408993,3.5422735,3.5416276,3.540495,3.5401375,3.541113,3.5428438,3.5454268,3.5478816,3.5502944,3.5525005,3.553936,3.555059,3.5563269,3.5575223,3.5585365,3.5599022,3.5615048,3.5629764,3.5648527,3.5672846,3.5696857,3.572279,3.5756488,3.5789673,3.5819576,3.5855134,3.5887308,3.5911698,3.593881,3.59621,3.5977283,3.5990767,3.6000113,3.600409,3.6005495,3.6004858,3.600294,3.600117,3.5997124,3.598967,3.5980625,3.5965354,3.5944428,3.5924685,3.590303,3.5880475,3.5862918,3.5847542,3.5831614,3.5817387,3.5803885,3.5785503,3.5764053,3.5743792,3.5716631,3.568301,3.565133,3.5613618,3.5568838,3.5526667,3.548128,3.5426803,3.5379074,3.5342152,3.5303082,3.5272524,3.5253234,3.5234776,3.522264,3.5218453,3.5218973,3.5230703,3.5253084,3.5283413,3.5328612,3.5372047,3.5401523,3.5431726,3.5477397,3.5537233,3.5612354,3.5625563,3.5571303,3.5495605,3.561351,3.6051018,3.650499,3.8552694,4.280381,4.817066,5.583896,6.144333,6.255743,6.3914976,6.4726143,6.496329,6.5060306,6.4416847,6.3430886,6.2895336,6.233651,6.1999383,6.1948094,6.1860313,6.1761885,6.1676607,6.1578856,6.1466475,6.1367316,6.1274157,6.1167536,6.107192,6.098942,6.089708,6.0815573,6.075234,6.0682936,6.0617313,6.0566063,6.0510035,6.0449,6.0395827,6.03428,6.0279427,6.0220103,6.016838,6.010561,6.004385,5.999302,5.9932394,5.9868317,5.981497,5.9760323,5.968481,5.9606667,5.953928,5.9463243,5.9398813,5.9349794,5.929885,5.925378,5.921676,5.917432,5.9133005,5.9102373,5.9073095,5.9046783,5.9028664,5.9013386,5.899749,5.8984184,5.8973303,5.896111,5.8949504,5.894001,5.8929043,5.891748,5.89083,5.8901033,5.8893704,5.88867,5.887946,5.8868237,5.885537,5.884404,5.8829966,5.8815794,5.880442,5.879016,5.877492,5.876254,5.874941,5.8733788,5.8718257,5.870203,5.868041,5.8657446,5.8637056,5.8612547,5.8586464,5.856412,5.8542128,5.852065,5.8503046,5.8484964,5.84626,5.8440237,5.841895,5.8391304,5.8363686,5.834119,5.831607,5.829318,5.827656,5.825857,5.8238354,5.8219337,5.819887,5.8171663,5.8144665,5.8121066,5.809437,5.8071527,5.805528,5.803941,5.8026447,5.801718,5.800711,5.799523,5.79834,5.7970676,5.795418,5.793825,5.7924566,5.790956,5.789686,5.788783,5.787768,5.7867327,5.78584,5.784775,5.783305,5.7816467,5.7797613,5.776972,5.7741103,5.7718396,5.7694683,5.7675104,5.7661057,5.7645617,5.763151
6.223629,6.21554,6.209887,6.2061796,6.201971,6.1986566,6.1968565,6.195341,6.1952868,6.19658,6.1983914,6.201386,6.204728,6.207853,6.211946,6.216251,6.22005,6.2248907,6.2301474,6.234622,6.2399845,6.246299,6.252122,6.258352,6.2658634,6.2727776,6.2789106,6.2853856,6.290796,6.294997,6.2997913,6.304796,6.3091974,6.3146343,6.320917,6.326272,6.3312054,6.3364134,6.340701,6.344145,6.34888,6.354188,6.3588862,6.364772,6.3719397,6.379184,6.3898993,6.4062696,6.4255304,6.447627,6.4867225,6.537893,6.589999,6.676158,6.7426796,6.753717,6.7656813,6.724995,6.6397657,6.635109,6.2622824,5.5349684,4.657546,3.9531083,3.6809397,3.5915272,3.5275753,3.5122552,3.5232172,3.5311046,3.5352783,3.534524,3.5341203,3.5342596,3.534956,3.5353563,3.5353546,3.53468,3.5335183,3.532887,3.5335116,3.5349932,3.5375986,3.5410957,3.5441456,3.5471518,3.5496168,3.5508518,3.5515885,3.5523553,3.5531323,3.5538778,3.5550551,3.5566034,3.558095,3.5600576,3.5627294,3.5654562,3.5684454,3.5723119,3.5760546,3.579358,3.5832102,3.5866165,3.5891552,3.5919533,3.5943613,3.5959587,3.5974135,3.598475,3.5989714,3.599185,3.5991292,3.5988655,3.5985875,3.5980067,3.5970511,3.5959675,3.5942569,3.5920167,3.5899549,3.5877252,3.5854192,3.5836127,3.5820065,3.5802917,3.5787196,3.5772285,3.575214,3.572892,3.5707216,3.567843,3.564312,3.5609999,3.55706,3.5523305,3.54792,3.5434475,3.5379758,3.5331898,3.529703,3.5261064,3.523314,3.521491,3.519532,3.5178137,3.5167046,3.515943,3.5161839,3.5177112,3.5201879,3.5245976,3.5297866,3.5344949,3.5380602,3.5415344,3.545889,3.5525615,3.5569134,3.556097,3.549167,3.545534,3.5617855,3.5949469,3.690634,3.96097,4.3895884,5.125514,5.818852,6.148692,6.3244405,6.4017706,6.4586096,6.482662,6.44188,6.3629704,6.301405,6.2383795,6.201261,6.1930313,6.1783953,6.1638074,6.1542625,6.1437078,6.1319466,6.1215453,6.111909,6.1008506,6.090882,6.082295,6.0726542,6.0641108,6.0574665,6.050146,6.043147,6.0376196,6.0315924,6.025081,6.019475,6.013938,6.0073776,6.0012884,5.996007,5.989645,5.9834576,5.9784145,5.9724894,5.9662657,5.9610586,5.9555893,5.948264,5.9410343,5.935195,5.928852,5.92348,5.9192286,5.9143605,5.909751,5.9060183,5.9017124,5.8974943,5.8943686,5.891464,5.8889055,5.887207,5.885893,5.88459,5.883512,5.882596,5.8815784,5.8806305,5.8798733,5.879001,5.8780804,5.8773537,5.8768225,5.876304,5.875792,5.8752437,5.874324,5.873201,5.872181,5.8708735,5.8695116,5.868392,5.86697,5.8654394,5.8641953,5.862876,5.8613005,5.8597193,5.858055,5.855831,5.853468,5.8513727,5.848853,5.8461785,5.843899,5.841653,5.8394613,5.837673,5.835861,5.833664,5.8315024,5.829462,5.826845,5.8242393,5.8220973,5.8196487,5.8173647,5.8156786,5.813821,5.8116703,5.809605,5.807355,5.8043795,5.8015285,5.7992144,5.796585,5.794321,5.7927084,5.7911305,5.7898216,5.788863,5.7878485,5.7866745,5.785507,5.7842374,5.7825522,5.7808743,5.7794013,5.7776785,5.776087,5.774868,5.773468,5.772007,5.770755,5.7693157,5.7674723,5.7656164,5.7637453,5.761359,5.7591105,5.7573247,5.755399,5.7536926,5.752369,5.750809,5.749155
6.2053976,6.1930914,6.1849413,6.18091,6.176212,6.1723614,6.1700854,6.1679597,6.1672916,6.1681743,6.169654,6.1724916,6.175909,6.1792088,6.183679,6.1885033,6.1928062,6.198268,6.2041636,6.209141,6.214984,6.221716,6.22781,6.2342377,6.2418623,6.248784,6.2548876,6.261282,6.266598,6.270747,6.275342,6.2800856,6.284293,6.2894516,6.2953186,6.300215,6.3045473,6.309456,6.3138022,6.3172283,6.3220544,6.3274937,6.3322563,6.3382063,6.3454533,6.352796,6.3637657,6.3801517,6.3998775,6.424862,6.4661016,6.522586,6.59305,6.651545,6.6811414,6.693084,6.6848555,6.6403313,6.557141,6.4019938,5.749029,4.8454685,4.139736,3.685146,3.576178,3.5296478,3.5071402,3.5128675,3.5246563,3.527659,3.5274243,3.528378,3.530017,3.5311322,3.530919,3.5299153,3.528056,3.526414,3.5257406,3.5256581,3.52695,3.5291119,3.5324912,3.536727,3.5402493,3.54358,3.545981,3.546834,3.547218,3.5474937,3.547804,3.5482197,3.5491176,3.550507,3.5519328,3.5538838,3.5566735,3.5596094,3.5628772,3.5671058,3.5711613,3.5746937,3.578765,3.5823126,3.5849226,3.5877774,3.5902357,3.5918903,3.5934281,3.594593,3.595172,3.5954466,3.5953834,3.5950294,3.5946317,3.5938516,3.5926678,3.5913992,3.5895112,3.5871458,3.5850215,3.5827427,3.5803828,3.5785108,3.5768185,3.5749688,3.5732589,3.57166,3.5695434,3.5671504,3.5649352,3.5620089,3.5584176,3.5550356,3.5509944,3.546105,3.541617,3.5373378,3.5321941,3.527728,3.524469,3.5212398,3.5188098,3.5172038,3.5152345,3.5131664,3.5115523,3.510182,3.5096512,3.510476,3.5123262,3.516035,3.5207925,3.5253582,3.5303044,3.534029,3.536037,3.5401416,3.54526,3.547996,3.5427835,3.5335789,3.5333014,3.545232,3.5838127,3.7338767,3.988758,4.5537443,5.298211,5.896678,6.1750836,6.291201,6.383722,6.4387217,6.439398,6.3881006,6.311776,6.2429566,6.2077394,6.194847,6.175932,6.1568003,6.1428204,6.128629,6.11526,6.105135,6.095512,6.0844927,6.0745664,6.0660706,6.0565314,6.0480566,6.0414433,6.0341043,6.026961,6.0212145,6.014941,6.0081735,6.0023823,5.9966984,5.989997,5.983809,5.978465,5.9720726,5.9659348,5.9609957,5.9552784,5.949327,5.944378,5.939188,5.933322,5.928184,5.9238114,5.918352,5.9132004,5.9091835,5.9043827,5.899786,5.8961806,5.8919816,5.8878603,5.8848114,5.8819537,5.8795238,5.8779993,5.876794,5.8756037,5.8746157,5.873763,5.872826,5.8719697,5.8712974,5.8705206,5.86969,5.869026,5.868554,5.8680825,5.8675976,5.867067,5.8662033,5.8651524,5.8641815,5.862897,5.861513,5.8603506,5.8588758,5.8572884,5.8560038,5.854652,5.8530455,5.8514347,5.8497334,5.84746,5.845046,5.8429065,5.8403215,5.837569,5.8352184,5.8328795,5.830576,5.828695,5.8268104,5.824566,5.822406,5.8203907,5.8178377,5.8153133,5.8132386,5.810855,5.8086195,5.806963,5.805128,5.80299,5.800926,5.798678,5.7956934,5.792784,5.7903404,5.7874947,5.784955,5.7830844,5.781127,5.7795095,5.7784395,5.777316,5.776038,5.7747755,5.773405,5.7715836,5.7697506,5.768123,5.7661543,5.7642593,5.762765,5.761025,5.7592,5.757656,5.7559204,5.7538204,5.751843,5.749962,5.747734,5.745723,5.744108,5.742277,5.7405047,5.739021,5.737174,5.735072
6.2007914,6.1814566,6.1689367,6.1618786,6.1547256,6.1492724,6.1458025,6.1421213,6.1398315,6.1395135,6.139947,6.1419816,6.1450577,6.1482306,6.152857,6.1581025,6.162858,6.1688943,6.175373,6.1807885,6.187002,6.1940165,6.2002745,6.2068014,6.21445,6.2213283,6.227375,6.233673,6.238881,6.242942,6.2474823,6.2521944,6.2563477,6.2612395,6.2665777,6.270872,6.2745647,6.278783,6.282715,6.286047,6.2910194,6.2968,6.30188,6.30829,6.3160734,6.3238497,6.3350325,6.351939,6.372912,6.401247,6.4418535,6.4966407,6.5739684,6.6120977,6.613469,6.616902,6.5849886,6.5114427,6.38134,5.9618473,5.1052475,4.247526,3.8001385,3.5635903,3.528547,3.5032444,3.5035548,3.516767,3.518431,3.5184703,3.5201426,3.5241675,3.5265198,3.5263555,3.5241518,3.5220423,3.5199826,3.5190368,3.519106,3.5198681,3.5220556,3.5250223,3.5290065,3.5335803,3.537142,3.540078,3.5419145,3.5423133,3.5423236,3.5421078,3.5419374,3.5419793,3.5425131,3.5436459,3.5449364,3.5467994,3.5495896,3.5525951,3.5559783,3.5603747,3.5645838,3.5682313,3.5724216,3.5760536,3.5787072,3.5815954,3.5840795,3.5857613,3.5873413,3.58856,3.589179,3.5894763,3.589372,3.5889058,3.5883737,3.5873861,3.5859852,3.5845513,3.5825253,3.5800905,3.577952,3.575666,3.5732822,3.571358,3.5695887,3.5676231,3.5658097,3.564148,3.5620034,3.5596306,3.5574493,3.5545588,3.5509782,3.547574,3.5434809,3.538529,3.534068,3.5299668,3.5253794,3.5215807,3.5187168,3.5160866,3.5142863,3.5131383,3.5114975,3.5095146,3.5077903,3.5061946,3.5051403,3.5051851,3.5060058,3.5082219,3.5115595,3.5150099,3.5203183,3.5249963,3.5271413,3.5298033,3.533801,3.537345,3.5365539,3.5299861,3.5233917,3.5178723,3.5398343,3.6215746,3.7320561,4.0791116,4.726898,5.428808,5.911541,6.1766386,6.277626,6.375821,6.4234056,6.399618,6.3252854,6.256087,6.218522,6.2008834,6.178193,6.1548347,6.1359606,6.1174355,6.1013117,6.0905104,6.0809183,6.0704184,6.061139,6.0532618,6.0444555,6.036639,6.030526,6.023673,6.016843,6.0112104,6.0050244,5.9983044,5.9925394,5.986884,5.9802055,5.974036,5.968718,5.9623947,5.956397,5.9516373,5.9461966,5.940599,5.935978,5.9311085,5.926222,5.9223986,5.918949,5.9143353,5.9098406,5.9064326,5.9024906,5.898492,5.894952,5.8908978,5.8869405,5.8840237,5.881246,5.878931,5.877526,5.876352,5.8752265,5.874332,5.8735604,5.8727303,5.8719788,5.8713818,5.8706665,5.8698583,5.869175,5.868656,5.868084,5.8674726,5.866811,5.865782,5.864565,5.863444,5.861965,5.8603764,5.859045,5.85739,5.855629,5.8542156,5.8527484,5.8510227,5.849312,5.8475156,5.845125,5.8425884,5.840337,5.837595,5.8346424,5.832101,5.829518,5.826915,5.8247623,5.822611,5.820077,5.8176785,5.815473,5.8127384,5.810095,5.807952,5.8055105,5.8032417,5.8015738,5.799745,5.797658,5.795679,5.7935467,5.7907205,5.7878857,5.7853622,5.782343,5.779539,5.7773867,5.7750015,5.7728863,5.77141,5.769824,5.7680206,5.7662992,5.7644925,5.7621813,5.7599225,5.7579455,5.7555704,5.7533216,5.751585,5.749608,5.7475786,5.745886,5.7440033,5.741809,5.739807,5.7379155,5.735677,5.7336354,5.7319775,5.7300344,5.7280655,5.7263646,5.724209,5.721728
6.2089243,6.182644,6.165586,6.1528044,6.1410685,6.1329784,6.1280236,6.1223116,6.1178994,6.1159844,6.1149864,6.1158123,6.1182137,6.120974,6.1254635,6.13089,6.1359024,6.14229,6.149124,6.1547785,6.1611443,6.168234,6.174516,6.1810336,6.1886387,6.195463,6.2014685,6.2077136,6.212868,6.216883,6.221354,6.2259393,6.2299347,6.2346344,6.239717,6.2437773,6.2474174,6.25091,6.253934,6.2570634,6.26221,6.2684994,6.274085,6.28123,6.289844,6.2982454,6.309534,6.3277273,6.350754,6.3807454,6.4194717,6.467808,6.5365667,6.5648627,6.5530477,6.540719,6.4974794,6.3511715,6.092489,5.482457,4.602193,3.917119,3.654832,3.5250626,3.5008085,3.4996157,3.5070772,3.514101,3.5120635,3.5143306,3.5192654,3.5232277,3.5229428,3.519884,3.5164907,3.5140395,3.513002,3.5134091,3.5136282,3.5154572,3.5189586,3.5226214,3.5270581,3.5316668,3.534913,3.537006,3.5381055,3.5381663,3.5377853,3.537107,3.5365129,3.5362108,3.5363898,3.5372596,3.5384126,3.5401816,3.5429344,3.5459392,3.5493422,3.5537856,3.5580487,3.5617425,3.5659888,3.5696666,3.5723467,3.5752568,3.5777535,3.579442,3.5810316,3.5822587,3.5828757,3.58316,3.5829868,3.5824037,3.5817428,3.5805707,3.5789907,3.5774314,3.5753164,3.572861,3.570746,3.5684922,3.5661275,3.5641887,3.5623765,3.5603383,3.5584602,3.5567636,3.5546193,3.5522819,3.5501416,3.547287,3.5437112,3.5402822,3.5361447,3.5311694,3.5267491,3.522708,3.5185816,3.5154912,3.5131867,3.511325,3.5103068,3.5097454,3.508684,3.5071173,3.5055609,3.5039895,3.502573,3.5018091,3.5013409,3.5018594,3.5039053,3.5068614,3.5107694,3.51585,3.5210547,3.5250247,3.5281477,3.5306444,3.5355108,3.5317261,3.5212517,3.5117383,3.5155392,3.5571887,3.6194317,3.831595,4.3044567,4.890205,5.6011286,6.080629,6.173731,6.3110886,6.3933415,6.390848,6.342051,6.2767725,6.227788,6.2073164,6.1802526,6.1529565,6.1319766,6.111129,6.092248,6.079277,6.0694256,6.059519,6.051092,6.0439796,6.036085,6.029114,6.0236635,6.0174985,6.0112,6.0058737,5.9999733,5.9934907,5.987885,5.9823656,5.9758067,5.9697256,5.964483,5.9582796,5.9524584,5.9478893,5.942726,5.9374714,5.93312,5.9283566,5.9229,5.9182777,5.914647,5.9110174,5.90818,5.9059806,5.903633,5.90063,5.897049,5.8931103,5.889303,5.8865223,5.8839216,5.8817067,5.880311,5.8791876,5.8782215,5.8775454,5.876952,5.8763447,5.8758073,5.875366,5.874792,5.8740673,5.873399,5.872855,5.8721952,5.871457,5.8706656,5.8693943,5.867872,5.866475,5.8646755,5.8627872,5.861232,5.8593354,5.8573446,5.855757,5.8541255,5.852222,5.8503504,5.8484116,5.8458424,5.8431168,5.8406916,5.837714,5.834477,5.831667,5.8287535,5.8257484,5.8232265,5.8206997,5.8177295,5.814945,5.8124065,5.8093367,5.806445,5.804138,5.8015156,5.7990923,5.7973204,5.7954044,5.7932787,5.791317,5.789229,5.786503,5.7837944,5.781398,5.778482,5.775691,5.7734857,5.7709846,5.7684674,5.7663913,5.7641106,5.7614975,5.759076,5.756611,5.7535706,5.750704,5.748251,5.745353,5.742694,5.7407117,5.7385483,5.7364016,5.7346296,5.732668,5.730418,5.7283955,5.726491,5.7242513,5.7222137,5.7205496,5.718575,5.716547,5.714782,5.7125416,5.7099466
6.231832,6.1989985,6.174805,6.1548524,6.131547,6.1146393,6.108049,6.100356,6.0939264,6.090124,6.0877047,6.0869894,6.0880866,6.0899053,6.0937824,6.0991,6.104191,6.1107845,6.1178613,6.1236553,6.1300497,6.137089,6.143308,6.1497493,6.1572895,6.164092,6.170109,6.176372,6.181532,6.1855373,6.1899557,6.1943846,6.1981597,6.2025537,6.2072015,6.210845,6.2141275,6.217307,6.21993,6.222202,6.22736,6.2343717,6.2404985,6.2484856,6.2580166,6.2671356,6.279672,6.2990303,6.3224993,6.351411,6.3966765,6.4442606,6.4864426,6.5020337,6.4777684,6.437953,6.3909607,6.1468735,5.7085533,4.9586973,4.1548643,3.6976547,3.5546458,3.4945436,3.4872143,3.5016346,3.5055482,3.503529,3.5053792,3.5110393,3.5162544,3.5172071,3.5147963,3.510976,3.5083508,3.5069432,3.506549,3.5072575,3.5080948,3.5106432,3.5147147,3.5186644,3.5232487,3.527682,3.530579,3.5324225,3.5332851,3.5331542,3.5325956,3.5316787,3.530816,3.53026,3.5300999,3.5306222,3.5315144,3.5330238,3.5355167,3.538305,3.5414991,3.5457153,3.549789,3.5533252,3.5574083,3.5609536,3.5635338,3.5663278,3.5687065,3.5702977,3.5717843,3.5729024,3.5734258,3.5736184,3.5733068,3.5725656,3.5717556,3.570401,3.568674,3.5670362,3.5649076,3.5625315,3.5605307,3.558402,3.556149,3.5542681,3.5524836,3.5504625,3.5486221,3.547001,3.5450082,3.542873,3.5409179,3.5382707,3.534875,3.531559,3.527527,3.5226808,3.518423,3.5145807,3.5108762,3.5084567,3.5070014,3.5058746,3.5054064,3.5053108,3.504777,3.5037413,3.5025578,3.5011451,3.4994817,3.4981298,3.4970014,3.4963071,3.496826,3.4982555,3.5013373,3.5060954,3.5109248,3.517328,3.5216742,3.522628,3.5257206,3.528203,3.525034,3.5099404,3.5003653,3.5168455,3.5507689,3.6454134,3.959394,4.437484,5.1876235,5.822399,6.0568676,6.2271814,6.33994,6.378071,6.355126,6.2870045,6.2227364,6.2065334,6.1771975,6.145504,6.1229362,6.1001577,6.079813,6.066197,6.0557466,6.04599,6.038354,6.0319324,6.024881,6.0187283,6.0139656,6.008541,6.0028563,5.9979095,5.9923763,5.986202,5.980791,5.975423,5.968979,5.962965,5.957779,5.9516673,5.9459915,5.941595,5.9366865,5.931736,5.9276323,5.923108,5.917858,5.9132686,5.9093604,5.9052696,5.9019628,5.899373,5.8964043,5.8936315,5.891441,5.888918,5.8865757,5.88499,5.883748,5.882286,5.8808446,5.879694,5.8786354,5.8778667,5.877222,5.8765697,5.876051,5.8756943,5.875294,5.8747635,5.874216,5.8737693,5.8731804,5.8724723,5.871689,5.8703938,5.868819,5.867365,5.865495,5.863534,5.861918,5.8599596,5.8579044,5.8562655,5.8545885,5.852639,5.8507366,5.848782,5.8462048,5.8434744,5.8410378,5.838028,5.8347187,5.831816,5.8287725,5.825593,5.8229055,5.8202133,5.8170633,5.8141365,5.8114977,5.8082943,5.8052626,5.8028374,5.800079,5.7975206,5.7956443,5.7936287,5.791441,5.7894754,5.787418,5.7847853,5.7822003,5.779916,5.7771072,5.774356,5.7721295,5.7695293,5.7667737,5.7643986,5.761731,5.758626,5.755748,5.7528286,5.7492642,5.7459755,5.7432475,5.740038,5.737074,5.73483,5.732318,5.729811,5.7277713,5.7255335,5.723015,5.7207966,5.718726,5.7163115,5.714119,5.71232,5.710171,5.7079678,5.706065,5.7036834,5.70096
6.239436,6.220683,6.201619,6.181591,6.152581,6.1240764,6.1055202,6.0846233,6.069914,6.0646257,6.0587783,6.0550957,6.054558,6.054993,6.0577803,6.0625963,6.067484,6.073969,6.080955,6.0865817,6.0926476,6.09926,6.105134,6.1112804,6.1186213,6.1253943,6.1314735,6.1378613,6.1431456,6.1472263,6.1516676,6.155966,6.1595,6.1635313,6.16765,6.17078,6.1735697,6.1764264,6.1788387,6.180634,6.185632,6.19307,6.1999273,6.209001,6.219619,6.2295094,6.2439613,6.2643065,6.2870064,6.313799,6.363994,6.408431,6.4207497,6.419551,6.3855476,6.3298683,6.189164,5.8303175,5.3284144,4.517176,3.828104,3.5826056,3.504046,3.4816074,3.4868188,3.4988208,3.499011,3.496213,3.501707,3.5075555,3.5096273,3.5069382,3.5039537,3.501231,3.5001864,3.5003366,3.5005922,3.5014057,3.5030668,3.5062385,3.5104861,3.5143027,3.5185199,3.522421,3.5249035,3.5265017,3.5271988,3.526987,3.5264177,3.5254045,3.524335,3.5235324,3.5231462,3.5234327,3.5240726,3.5252004,3.5272152,3.529582,3.5323496,3.5360768,3.5397387,3.5429564,3.5467196,3.5500264,3.5524483,3.5550742,3.5572913,3.558745,3.5600786,3.561018,3.561384,3.5614486,3.560979,3.5600777,3.5591202,3.5576007,3.5557625,3.5540829,3.55199,3.5497537,3.547923,3.5459929,3.5439286,3.542163,3.5404522,3.5384934,3.5367303,3.5352254,3.5334342,3.5315566,3.5298367,3.5274787,3.5243683,3.5212593,3.5174322,3.5128212,3.5088053,3.5052304,3.50192,3.5000346,3.499238,3.4988708,3.4990745,3.4994574,3.4995275,3.4991722,3.4985495,3.497608,3.4961882,3.494722,3.493295,3.4916317,3.490593,3.4903104,3.4917984,3.4955058,3.4998252,3.507297,3.5141416,3.517112,3.518367,3.5226226,3.5248199,3.5149236,3.5019197,3.501392,3.5145693,3.548383,3.7341065,4.060485,4.689585,5.4327645,5.922325,6.123595,6.2555304,6.3389187,6.349175,6.2925253,6.221024,6.201808,6.1685185,6.133746,6.110025,6.0856876,6.0641756,6.050194,6.0398684,6.0304317,6.0231695,6.01723,6.010813,6.0053596,6.0012546,5.99658,5.9915814,5.987111,5.982053,5.9762754,5.971098,5.96589,5.9595375,5.953551,5.9483833,5.942319,5.936751,5.9325027,5.92782,5.9231405,5.9192667,5.9149923,5.910059,5.9056764,5.9016886,5.8972425,5.8934774,5.890546,5.8870955,5.884231,5.882516,5.8804407,5.878527,5.8772807,5.876421,5.875656,5.87502,5.8745155,5.874118,5.873892,5.873704,5.8735943,5.87365,5.8738008,5.8736057,5.8731294,5.872667,5.8723745,5.8719697,5.8714066,5.8707385,5.8695583,5.8680906,5.866743,5.86499,5.863131,5.8615885,5.859707,5.857709,5.856098,5.8544426,5.8525157,5.850642,5.8487267,5.846216,5.8435564,5.8411727,5.838212,5.834921,5.8320055,5.828929,5.825694,5.822953,5.820218,5.817032,5.8140945,5.811474,5.8082886,5.8052588,5.802822,5.8000336,5.797419,5.795478,5.7933946,5.7911577,5.7891874,5.787162,5.784623,5.7821646,5.779998,5.777316,5.7746553,5.77247,5.769867,5.767046,5.764574,5.761755,5.7584224,5.7553062,5.752138,5.7482653,5.744675,5.7416716,5.7381186,5.7347813,5.7321935,5.729231,5.726241,5.7238216,5.7211924,5.7182713,5.715728,5.7133646,5.7106056,5.708088,5.70601,5.703518,5.70099,5.6988487,5.696293,5.6935015
6.203264,6.2138205,6.2125955,6.2026315,6.180623,6.1496506,6.1217227,6.0868406,6.060194,6.049856,6.03704,6.0279894,6.0251503,6.023713,6.0249844,6.0289392,6.0332737,6.0392675,6.045821,6.0510364,6.056558,6.0625663,6.0679846,6.0737677,6.080893,6.0876703,6.0938625,6.1004543,6.1059446,6.110155,6.1146736,6.118889,6.1222153,6.1259184,6.129558,6.132228,6.1345797,6.13704,6.139309,6.1412582,6.146004,6.1534095,6.1609464,6.1710014,6.182661,6.193325,6.209278,6.230424,6.252059,6.275469,6.3232784,6.361024,6.355891,6.3400135,6.2880406,6.2080345,5.9356985,5.4870415,5.0213413,4.250189,3.6686754,3.5368705,3.4852424,3.478827,3.488807,3.4892688,3.4911146,3.495257,3.500413,3.5026908,3.5007663,3.4969301,3.4950206,3.4941287,3.4943328,3.495457,3.4963527,3.4975789,3.4999084,3.503542,3.5077395,3.511147,3.514639,3.51772,3.5196567,3.5207958,3.5211406,3.5207598,3.5201278,3.5190117,3.517798,3.5168438,3.5163763,3.5165758,3.5170612,3.5178742,3.5194097,3.5213013,3.523581,3.5267408,3.5299158,3.5327427,3.5361128,3.5391355,3.5413778,3.5438366,3.5459425,3.5473394,3.548633,3.5495691,3.5499454,3.549985,3.549446,3.5484533,3.5474105,3.5458033,3.543919,3.5422382,3.540204,3.5380971,3.536399,3.534554,3.5325265,3.5307555,3.5290184,3.5270252,3.5252748,3.5238457,3.522232,3.520616,3.5191493,3.5170789,3.5142367,3.5113168,3.507695,3.5033343,3.4995708,3.496264,3.4933038,3.491775,3.4912753,3.4914975,3.4923794,3.4932437,3.4939723,3.4943733,3.4943924,3.4941545,3.4934337,3.492341,3.490944,3.4887786,3.4867468,3.4854016,3.485052,3.4874308,3.4917126,3.4982393,3.5068145,3.51373,3.5164452,3.5180206,3.5187953,3.5193276,3.5105968,3.5006428,3.4966145,3.5216436,3.637001,3.8273149,4.2848654,5.039811,5.718798,5.999062,6.1741176,6.27872,6.320338,6.2930202,6.2291307,6.195137,6.156047,6.120861,6.0961704,6.070926,6.0488462,6.0347834,6.02493,6.015687,6.0083017,6.0025215,5.9963923,5.99137,5.987751,5.9836664,5.9792614,5.9752355,5.970622,5.965205,5.960211,5.9551034,5.948764,5.9427285,5.937519,5.931425,5.925887,5.9217215,5.917178,5.9126825,5.908971,5.9048605,5.900089,5.895849,5.892045,5.887861,5.88437,5.8816843,5.87862,5.8757067,5.87333,5.870575,5.8679223,5.866051,5.864445,5.863765,5.8640065,5.8642025,5.8645945,5.8650684,5.865478,5.8661537,5.867019,5.8678064,5.8679514,5.867695,5.8674927,5.8675585,5.8675995,5.867435,5.8671227,5.8663406,5.8651824,5.8640213,5.862489,5.860835,5.8594475,5.857725,5.855861,5.854331,5.852738,5.850872,5.8490534,5.8471947,5.8447647,5.842184,5.83986,5.836957,5.833707,5.8308096,5.827749,5.8245287,5.821805,5.8191004,5.815963,5.8130894,5.810544,5.807474,5.8045673,5.802225,5.799526,5.7969646,5.795038,5.79296,5.7907324,5.788786,5.786808,5.784364,5.78202,5.7799582,5.7774043,5.774865,5.7727737,5.7702746,5.7675467,5.7651377,5.7623725,5.7590714,5.7559566,5.752779,5.748872,5.7451773,5.7419863,5.738179,5.734557,5.7317147,5.728451,5.725139,5.722455,5.7195573,5.7163563,5.7135787,5.7109995,5.7079744,5.7051992,5.7029,5.700142,5.6973715,5.695059,5.6924105,5.689635
6.127041,6.158628,6.1744266,6.179187,6.170372,6.1543407,6.1431627,6.112708,6.0747094,6.047015,6.02199,6.005127,5.9996834,5.995839,5.995422,5.998479,6.00193,6.0071707,6.013181,6.0179973,6.023077,6.0286665,6.0338016,6.039385,6.0464487,6.0533295,6.059693,6.0665274,6.0722327,6.076571,6.0811615,6.085293,6.088422,6.091825,6.0950446,6.0973253,6.099327,6.101485,6.103614,6.105573,6.1100993,6.1174736,6.1254516,6.136186,6.1488643,6.1605206,6.1771092,6.199507,6.22075,6.2365294,6.278055,6.3107853,6.2969275,6.2772226,6.1852345,6.0194106,5.711454,5.2038755,4.661893,4.0102844,3.5736332,3.5014846,3.4760613,3.4765263,3.482272,3.482758,3.4862907,3.4918733,3.4965456,3.4954126,3.49191,3.4902377,3.489445,3.4896584,3.490643,3.4919329,3.493455,3.4954977,3.498273,3.5021935,3.5062585,3.5092406,3.5120304,3.5141187,3.5151873,3.5157838,3.5155578,3.5146546,3.5136123,3.5121863,3.510881,3.509975,3.5094361,3.5095005,3.5098858,3.5106115,3.5118747,3.5133522,3.5152054,3.51786,3.5205626,3.5229256,3.5257962,3.5284255,3.530398,3.5326147,3.5346441,3.536124,3.5376067,3.5389576,3.5397553,3.53995,3.539424,3.5383692,3.5372896,3.5356607,3.533801,3.5321798,3.5302377,3.5282526,3.5266356,3.524579,3.5221815,3.5200934,3.5180771,3.5158386,3.5140057,3.5126328,3.5112736,3.510085,3.5090444,3.5073237,3.5046785,3.5018318,3.4983375,3.49419,3.490691,3.4876907,3.4851363,3.4840126,3.4838758,3.4844394,3.4857335,3.487108,3.4886103,3.489921,3.4906783,3.491209,3.491258,3.4906778,3.4895837,3.4874368,3.4850333,3.4831512,3.4819157,3.4830356,3.4860523,3.4919033,3.500175,3.5072594,3.5126324,3.5151343,3.5146985,3.514964,3.509468,3.500814,3.4924061,3.501964,3.5689511,3.688263,4.0361567,4.6888123,5.3545094,5.837552,6.134304,6.2162027,6.2808037,6.2885985,6.2397976,6.1837997,6.139636,6.107298,6.0814567,6.05587,6.0346317,6.021734,6.0112967,6.0013847,5.9938464,5.988109,5.982151,5.9774694,5.9742727,5.9707146,5.9668427,5.963212,5.9589853,5.9538603,5.948987,5.9439187,5.937527,5.931388,5.9260902,5.9199104,5.9143424,5.910203,5.905732,5.901349,5.8977394,5.8937454,5.889098,5.88496,5.8812523,5.877182,5.8738055,5.8712287,5.868307,5.8655634,5.86335,5.860779,5.858315,5.85657,5.854995,5.853845,5.853306,5.8528857,5.852597,5.8525743,5.8526998,5.85336,5.854391,5.855284,5.856205,5.857115,5.857881,5.8588524,5.859915,5.860677,5.861218,5.861414,5.8608894,5.859847,5.8584948,5.85702,5.8557577,5.854165,5.8524046,5.8509316,5.8493805,5.847547,5.845772,5.8439903,5.8416533,5.839155,5.836893,5.8340554,5.8308554,5.8279896,5.8249636,5.8217883,5.8191137,5.8164635,5.813404,5.810621,5.808169,5.8052263,5.80245,5.800217,5.797637,5.7951727,5.7933035,5.7912807,5.7891083,5.787217,5.785306,5.782967,5.78074,5.778782,5.776369,5.773979,5.7720156,5.7696695,5.7671056,5.7648335,5.762211,5.759053,5.75605,5.7529736,5.749173,5.7455616,5.742427,5.738667,5.7350626,5.732214,5.7289305,5.7255864,5.722875,5.7199593,5.716751,5.713978,5.7114086,5.7084055,5.705659,5.7033863,5.70068,5.6979856,5.695751,5.693167,5.6904373
6.020801,6.0548754,6.091106,6.1178694,6.134365,6.1392994,6.140459,6.124008,6.095854,6.0691857,6.03353,5.9975867,5.9766874,5.9680223,5.963443,5.963813,5.9662538,5.970441,5.9756145,5.9798474,5.9844017,5.9895983,5.994531,6.000003,6.0071115,6.0141783,6.02077,6.027876,6.0337734,6.03819,6.0427666,6.0466948,6.0495205,6.0525074,6.0552087,6.0570564,6.058715,6.0605917,6.0625772,6.0645123,6.068595,6.0756373,6.083867,6.0950546,6.108673,6.121359,6.137968,6.160774,6.181677,6.194164,6.2222323,6.24034,6.225952,6.1853247,6.027173,5.76554,5.4448023,4.905634,4.2946653,3.781849,3.4995065,3.480672,3.4718432,3.4732895,3.4755335,3.478687,3.4849172,3.489512,3.4892907,3.4862678,3.4835505,3.4836414,3.484209,3.4859643,3.4881396,3.48987,3.4923444,3.4953618,3.4984813,3.5023954,3.505873,3.5080037,3.5096169,3.5102763,3.5101666,3.509771,3.508706,3.507339,3.5060673,3.5045896,3.5033991,3.5026383,3.5020976,3.5019436,3.5020165,3.5023,3.502935,3.5037694,3.5049071,3.50669,3.5086467,3.51045,3.5127926,3.5150948,3.5169108,3.5190327,3.5210946,3.5226824,3.5243402,3.5259519,3.527042,3.5276444,3.5275836,3.526876,3.5260386,3.5245953,3.522749,3.5210025,3.5190544,3.5169897,3.5151572,3.5129495,3.510357,3.50804,3.505768,3.5032113,3.5011258,3.4996078,3.4981682,3.497035,3.4961295,3.4947267,3.4925704,3.490193,3.48723,3.4835868,3.48039,3.4775255,3.4752054,3.4744272,3.4746442,3.475728,3.4776678,3.4796584,3.4820466,3.4845366,3.4864087,3.4880404,3.4892137,3.4894667,3.489015,3.4872847,3.4848332,3.4826348,3.4806004,3.4803152,3.4817872,3.485788,3.492804,3.5000014,3.5075095,3.5127926,3.514005,3.5139432,3.51298,3.5080361,3.4970255,3.4930906,3.523674,3.5913076,3.8076634,4.3064485,4.915063,5.5833807,6.0263004,6.126175,6.222513,6.274206,6.25092,6.1850085,6.130006,6.09074,6.06488,6.0409374,6.020849,6.0070868,5.9954777,5.984438,5.9763694,5.970458,5.964454,5.959975,5.9571495,5.9540944,5.9507465,5.9474897,5.943615,5.938708,5.933865,5.928731,5.922144,5.915763,5.910263,5.9038687,5.898158,5.893961,5.889477,5.885132,5.8815784,5.877656,5.8731,5.8690443,5.8654165,5.8614492,5.8581853,5.855717,5.8529477,5.8503847,5.848343,5.8459654,5.843687,5.84206,5.8405457,5.8392076,5.8383083,5.8375816,5.8369393,5.836601,5.8364706,5.836791,5.8374915,5.838155,5.839079,5.8400936,5.840981,5.842471,5.8442793,5.8457203,5.8468695,5.847782,5.8479934,5.8476777,5.8471327,5.8464375,5.8458185,5.844973,5.8439817,5.843115,5.8421736,5.840945,5.839526,5.8378086,5.8355346,5.833105,5.8308897,5.828104,5.824951,5.8221254,5.8191576,5.816074,5.813515,5.811039,5.8082085,5.8056455,5.803402,5.8007154,5.7981796,5.796133,5.793759,5.7914724,5.7897253,5.7878294,5.78579,5.7840176,5.7822385,5.780074,5.7780285,5.7762403,5.7740545,5.7719135,5.770171,5.76812,5.765899,5.7639294,5.761654,5.7588863,5.756218,5.753457,5.750012,5.7466974,5.7437935,5.7402787,5.7368717,5.7341557,5.7310123,5.727796,5.7251835,5.7223873,5.7193255,5.716694,5.714268,5.711447,5.7088804,5.706765,5.704265,5.7017994,5.699767,5.697417,5.6949263
5.787648,5.910552,5.9828506,6.015777,6.0560474,6.086507,6.0995417,6.103836,6.098505,6.086384,6.0566826,6.011937,5.974211,5.953807,5.9389944,5.933863,5.9339967,5.9360876,5.9399366,5.9434347,5.9474535,5.952463,5.957471,5.9631233,5.970545,5.977928,5.9847746,5.9920955,5.9980497,6.0024014,6.00679,6.0103655,6.012798,6.015312,6.0175176,6.019023,6.0204725,6.0222435,6.024209,6.02617,6.029841,6.036416,6.0445786,6.0558395,6.0700526,6.083508,6.0998325,6.1204963,6.1387386,6.152359,6.1701813,6.1721406,6.1541786,6.0669317,5.8413963,5.533553,5.181238,4.6228905,4.0139465,3.632072,3.4663973,3.472036,3.4680285,3.4686382,3.47127,3.4776742,3.4847615,3.4863682,3.4814882,3.478641,3.4779863,3.4790223,3.480783,3.4837065,3.4866648,3.4889483,3.4923038,3.496048,3.4993448,3.5030723,3.5058463,3.5070949,3.5075455,3.5068564,3.5056417,3.504177,3.5022497,3.5005026,3.499115,3.4976807,3.4966078,3.495916,3.495266,3.4947205,3.4942708,3.493712,3.4932976,3.493258,3.4935641,3.4945297,3.4959621,3.497508,3.4997191,3.502044,3.5039291,3.506217,3.5085073,3.5102868,3.5121546,3.5139399,3.5151846,3.516161,3.5165935,3.5162446,3.5155463,3.5141735,3.5122955,3.5104656,3.5085068,3.5064497,3.5045984,3.5024683,3.499837,3.4973097,3.494769,3.4917822,3.4892209,3.4872808,3.4853263,3.4836988,3.4824014,3.480832,3.4788227,3.4767456,3.4741807,3.4710612,3.46834,3.4658642,3.4640942,3.4639282,3.4646957,3.4665437,3.4692824,3.4718957,3.4750714,3.4786265,3.4816008,3.4844866,3.4869266,3.4881182,3.4885397,3.4876726,3.4856617,3.4834967,3.480995,3.479599,3.4797754,3.4817562,3.486899,3.4933805,3.501161,3.509212,3.5137959,3.5144134,3.5158439,3.514135,3.5061355,3.4958036,3.5065024,3.546268,3.662568,4.0188036,4.537615,5.247948,5.822648,6.040125,6.1589727,6.2405615,6.248979,6.2041216,6.141448,6.0839534,6.054134,6.0291815,6.008691,5.9932346,5.980142,5.967744,5.958931,5.9527297,5.946543,5.9421196,5.939536,5.936799,5.933751,5.930669,5.9269285,5.922019,5.917039,5.911701,5.9048023,5.8981094,5.8923655,5.885725,5.879855,5.8755884,5.8710713,5.866746,5.8632307,5.8593607,5.8548717,5.850873,5.8472915,5.8433795,5.840175,5.8377695,5.835099,5.8326597,5.8307295,5.828489,5.826337,5.82479,5.8233337,5.8220506,5.8211803,5.8204308,5.81972,5.8192434,5.8189335,5.8188515,5.819081,5.8194227,5.81993,5.820487,5.8210354,5.822392,5.8241634,5.825615,5.826782,5.82775,5.8282623,5.8285646,5.828755,5.8287983,5.828774,5.8286076,5.8283234,5.828027,5.827669,5.827072,5.8261414,5.8247404,5.8228455,5.8207836,5.818868,5.816437,5.8136406,5.811105,5.8084784,5.8057847,5.803549,5.8012977,5.79873,5.796438,5.794446,5.7920694,5.7898245,5.788004,5.785884,5.7838306,5.7822537,5.7805405,5.7786884,5.777074,5.7754593,5.773485,5.771619,5.7699976,5.7680225,5.7661147,5.7645864,5.762829,5.760966,5.7593284,5.7574534,5.7551613,5.7529216,5.7505827,5.747628,5.7447476,5.7421994,5.7390866,5.7360353,5.7335825,5.730728,5.727792,5.725399,5.7228413,5.720048,5.7176585,5.7154675,5.7129364,5.710656,5.708788,5.7066073,5.7044797,5.702732,5.7007275,5.6986036
5.427064,5.745966,5.87529,5.899869,5.9544177,6.0097365,6.039759,6.0637016,6.0745034,6.072849,6.064929,6.033893,5.9915657,5.9553394,5.9264126,5.914054,5.910282,5.909216,5.9113874,5.9141116,5.9176693,5.922714,5.928043,5.9341264,5.942066,5.9498262,5.9568987,5.9643316,5.9702015,5.9743648,5.978449,5.9816093,5.98365,5.9857435,5.9875755,5.988889,5.990282,5.9921265,5.9942265,5.996312,5.9998407,6.006092,6.0140066,6.0251293,6.039622,6.0535336,6.0698752,6.086604,6.099704,6.114663,6.132533,6.1260757,6.093029,5.948849,5.679465,5.3854146,4.9607625,4.37221,3.8345466,3.5604732,3.4620843,3.4636426,3.4607344,3.4636977,3.469633,3.477571,3.4824586,3.48117,3.4763346,3.4743693,3.474896,3.4765737,3.479105,3.4823294,3.4852128,3.4878607,3.4916897,3.4957407,3.4991088,3.5027237,3.5051098,3.5058641,3.505646,3.5041318,3.5021987,3.5000384,3.4974976,3.495403,3.4938302,3.492272,3.4911036,3.490295,3.489345,3.488295,3.4873009,3.4858317,3.4842892,3.4833694,3.4830194,3.4835994,3.4850187,3.48672,3.4892454,3.491901,3.493989,3.496579,3.4992018,3.5012388,3.5033727,3.505394,3.5067797,3.5078325,3.5083253,3.5079298,3.5069904,3.5053704,3.5034342,3.5017529,3.4998834,3.4981275,3.4967563,3.4948823,3.4922087,3.4894094,3.4865646,3.48309,3.4799652,3.4774904,3.4748616,3.4725032,3.4705353,3.4683042,3.4657795,3.4634268,3.460721,3.4578676,3.4557793,3.454145,3.4534464,3.4542518,3.4557981,3.4584916,3.4619532,3.4650936,3.4688416,3.4730706,3.4767466,3.480696,3.4841928,3.486125,3.4873471,3.487454,3.4861298,3.484201,3.4815693,3.4795403,3.4789143,3.479837,3.4832788,3.4880574,3.4946918,3.503696,3.510551,3.5126371,3.513022,3.5121627,3.5117226,3.5011823,3.500188,3.5221822,3.596868,3.8680549,4.29513,4.915169,5.583647,5.982568,6.106311,6.1954546,6.232274,6.2285886,6.1681457,6.091052,6.051726,6.020823,5.9979315,5.981984,5.967601,5.9540043,5.944584,5.938179,5.9318676,5.9274693,5.925026,5.922413,5.9194126,5.916294,5.9124746,5.907378,5.9021583,5.8965645,5.8893585,5.882412,5.8764896,5.869696,5.863757,5.8594837,5.8549976,5.850739,5.847287,5.8434877,5.8390675,5.8351116,5.8315487,5.8276424,5.824438,5.8220367,5.8193913,5.817008,5.8151426,5.812995,5.8109446,5.8094697,5.808062,5.8067837,5.8058653,5.80503,5.8041635,5.803501,5.8030214,5.8027477,5.8028116,5.8030376,5.8034577,5.804041,5.8046246,5.805564,5.8067718,5.8077993,5.8086343,5.809246,5.8095174,5.8097124,5.8099256,5.81005,5.8100443,5.809859,5.809534,5.809215,5.8088255,5.808305,5.8076754,5.8068557,5.805685,5.804304,5.802956,5.801198,5.799073,5.797072,5.7950478,5.793,5.791236,5.789158,5.7867603,5.7846746,5.782877,5.7807474,5.7787485,5.77713,5.7752423,5.773415,5.7720137,5.770484,5.76882,5.7673583,5.765888,5.7640676,5.7623277,5.760812,5.7589617,5.757183,5.7557774,5.754184,5.7525325,5.7511024,5.749489,5.747524,5.7455997,5.7435884,5.7410374,5.738538,5.7363195,5.7335973,5.7309103,5.728739,5.7261934,5.723557,5.7214003,5.7190866,5.7165556,5.714392,5.7124147,5.710147,5.7081265,5.70649,5.7046103,5.7028008,5.7013183,5.6996183,5.6978054
4.7001944,5.147679,5.521101,5.755692,5.8840036,5.9188647,5.952032,5.999893,6.0363646,6.0470552,6.0524216,6.0381756,6.0082083,5.975546,5.933859,5.9023724,5.889605,5.881896,5.8808746,5.8821073,5.8857665,5.8917704,5.8978157,5.90472,5.913431,5.9215765,5.928749,5.9360313,5.9414883,5.945182,5.9486294,5.9510875,5.952573,5.954106,5.955516,5.956686,5.958131,5.960227,5.962646,5.965031,5.968531,5.9744196,5.9819465,5.992783,6.0071898,6.021235,6.0392904,6.053447,6.0611553,6.0766244,6.0939713,6.0756984,6.0179615,5.8119946,5.4935813,5.202685,4.6679597,4.062671,3.6668816,3.5017812,3.4601521,3.4581366,3.4561121,3.4614177,3.4697695,3.4766111,3.4773307,3.47325,3.4701066,3.4692688,3.4708765,3.4734058,3.4764416,3.4799547,3.4830914,3.486333,3.4906225,3.4947596,3.4980206,3.5013409,3.5032654,3.5035763,3.5028338,3.5007024,3.498229,3.4955502,3.4927413,3.4906445,3.4890213,3.4872732,3.4857597,3.484565,3.4831443,3.4814165,3.4796436,3.4771929,3.474638,3.4730146,3.4721012,3.472272,3.4735365,3.4751909,3.4778714,3.4808927,3.4833941,3.486415,3.4893832,3.4916196,3.493876,3.4958754,3.497128,3.4979959,3.4982178,3.4976177,3.496634,3.4950147,3.4931643,3.4916236,3.4899387,3.488422,3.48729,3.4857435,3.4834285,3.4808068,3.4778738,3.473884,3.469921,3.4665809,3.4627376,3.4592335,3.4565291,3.4536219,3.450727,3.448339,3.4458323,3.4435802,3.4423108,3.441598,3.4420915,3.4440243,3.4464982,3.4501994,3.454499,3.4582124,3.4625273,3.4672966,3.4714422,3.4759405,3.4801676,3.482841,3.4847934,3.4857311,3.4850614,3.4835818,3.4811144,3.4785948,3.4770584,3.4764044,3.4779997,3.481462,3.486948,3.4955754,3.5036168,3.5090933,3.5114844,3.509942,3.507441,3.5000026,3.4971087,3.5060568,3.5366507,3.7207713,4.0572677,4.583859,5.324982,5.8864336,6.029725,6.144666,6.211896,6.2292457,6.1810455,6.1009855,6.051063,6.012546,5.986253,5.9706545,5.9549003,5.9400086,5.930028,5.9235015,5.9171233,5.912728,5.910343,5.90767,5.9044666,5.901103,5.897013,5.891555,5.8859735,5.8800325,5.872457,5.865241,5.859144,5.852217,5.8462343,5.8419733,5.837539,5.8333545,5.82996,5.8262205,5.821836,5.8178754,5.8142796,5.810313,5.807045,5.8045883,5.8019085,5.7995367,5.7977147,5.7956414,5.793691,5.7922974,5.790951,5.7896805,5.7887025,5.7877645,5.7866964,5.785773,5.78504,5.7844305,5.784153,5.784119,5.784275,5.7846546,5.785122,5.7859125,5.786992,5.787962,5.7887783,5.789419,5.7897167,5.7898865,5.789988,5.7899446,5.789795,5.7894,5.788807,5.7882333,5.787526,5.7867494,5.7860827,5.785426,5.7844534,5.783266,5.782115,5.7805443,5.778576,5.776696,5.7748103,5.772929,5.771379,5.7697315,5.767852,5.7661924,5.7647505,5.763054,5.761486,5.7602353,5.758813,5.757489,5.756508,5.7554398,5.75428,5.753252,5.752204,5.7508774,5.7495847,5.7484465,5.7470393,5.745677,5.7446017,5.7434034,5.7421694,5.7410774,5.7396894,5.7379675,5.736312,5.734593,5.732416,5.73028,5.728379,5.7260294,5.7236853,5.7217717,5.7195034,5.717119,5.715148,5.71303,5.7106953,5.708703,5.7069244,5.704919,5.7031703,5.701777,5.7002144,5.698735,5.697523,5.6961308,5.6946287
