20.935295,20.937807,20.936646,20.93332,20.928055,20.922443,20.919176,20.918083,20.916445,20.913319,20.909065,20.904938,20.901627,20.89959,20.89814,20.89993,20.90493,20.912289,20.921165,20.927946,20.932018,20.937653,20.941761,20.942535,20.94352,20.943733,20.943138,20.941881,20.939892,20.937992,20.936504,20.934452,20.932358,20.930576,20.929245,20.929249,20.930237,20.93263,20.939219,20.948177,20.957935,20.968855,20.978043,20.986362,20.996569,21.006292,21.014204,21.025055,21.036041,21.044205,21.053398,21.062157,21.068619,21.075548,21.082325,21.087486,21.091885,21.099298,21.108536,21.116844,21.131058,21.14991,21.167576,21.190136,21.216297,21.23962,21.266289,21.299595,21.331299,21.360126,21.39628,21.430092,21.45569,21.48442,21.51065,21.530155,21.552105,21.57349,21.58925,21.603268,21.619709,21.636246,21.651585,21.67643,21.708534,21.739933,21.783949,21.835981,21.882055,21.938404,22.003895,22.0621,22.121025,22.192984,22.26072,22.319208,22.389812,22.458267,22.51413,22.582111,22.65483,22.71662,22.787546,22.874832,22.959648,23.045078,23.159595,23.278992,23.387245,23.527248,23.671572,23.790731,23.927486,24.064423,24.171728,24.2794,24.391718,24.484055,24.563705,24.657394,24.744312,24.816284,24.90213,24.985096,25.051014,25.126911,25.205223,25.268784,25.334146,25.406315,25.470211,25.531044,25.601784,25.66655,25.720356,25.787243,25.856968,25.915634,25.983997,26.059528,26.124516,26.19017,26.263262,26.32684,26.38256,26.448849,26.5116,26.563751,26.626854,26.692112,26.746807,26.809345,26.881866,26.946136,27.00351,27.067225,27.12284,27.168972,27.221455,27.266706,27.29977,27.334953,27.366457,27.390327,27.41661,27.441477,27.459017,27.47475,27.489788,27.499182,27.503704,27.503426,27.499046,27.495,27.488705,27.483727,27.481941,27.475304,27.470833,27.47253,27.476725,27.49052,27.511353,27.53147,27.564093,27.605808,27.645454,27.697365,27.75642,27.807518,27.867058,27.938408,28.005337,28.07219,28.1573,28.245472,28.328299,28.437866,28.562454,28.677002,28.815739,28.97269,29.11175,29.268005,29.449707,29.603935,29.723272,29.867828,30.008957,30.128357,30.276081,30.421566,30.53487,30.664745,30.78901,30.872398,30.919914,30.954647,30.982933,31.010859,31.041117,31.08036,31.133884,31.192646,31.248644,31.29383,31.341576,31.385632,31.419186,31.46656,31.495768,31.494774,31.497835,31.430721,31.328745,31.26913,31.162521,30.850658,30.38985,29.852345,29.466297,29.389393,29.430653,30.027954,29.686172,27.532742,17.52613,8.079317,7.841597,7.589628,7.681478,7.7234077,7.770733,7.836035,7.8972692,7.9559717,8.023027,8.084259,8.133606,8.230087,8.384332,8.556936,8.774471,9.023041,9.235484,9.43765,9.599369,9.690568,9.7736,9.84351,9.884493,9.911528,9.943729,9.976088,10.003511,10.036987,10.070515,10.0956955,10.120837,10.152185,10.18439,10.217179,10.256584,10.290625,10.31562,10.340008,10.358595,10.371436,10.385713,10.400824,10.414175,10.429211,10.446743,10.461906,10.474886,10.488337,10.496736,10.499912,10.497839,10.484043,10.462953,10.428486,10.375791,10.320985,10.261228,10.189389,10.124718,10.064321,10.019535
21.036972,21.033463,21.026253,21.019602,21.012287,21.005678,21.002438,21.001705,21.00059,20.997873,20.9938,20.989468,20.985111,20.981495,20.977486,20.976133,20.978407,20.982788,20.987938,20.991333,20.992771,20.995295,20.996756,20.995804,20.995045,20.993616,20.991722,20.989565,20.987885,20.98734,20.987482,20.987217,20.98639,20.985245,20.986057,20.98875,20.99148,20.995695,21.003948,21.014164,21.025167,21.037556,21.048302,21.058453,21.071167,21.083523,21.093803,21.10778,21.122288,21.133617,21.146946,21.160797,21.172005,21.184078,21.196854,21.207344,21.21648,21.229221,21.242952,21.254616,21.272213,21.293747,21.31326,21.337597,21.365345,21.389908,21.4179,21.45267,21.485657,21.515614,21.553429,21.589481,21.61753,21.649971,21.680986,21.705013,21.732374,21.75988,21.78089,21.800167,21.822567,21.844215,21.863764,21.892982,21.92841,21.96199,22.008038,22.06166,22.108942,22.167011,22.234789,22.295193,22.356247,22.43077,22.500702,22.560703,22.63293,22.70292,22.760155,22.829948,22.904863,22.968662,23.041767,23.131323,23.217712,23.303928,23.418808,23.537502,23.64393,23.780434,23.92041,24.035927,24.1683,24.300959,24.405237,24.5103,24.620811,24.712454,24.792027,24.88522,24.97148,25.043232,25.129295,25.213253,25.280552,25.358345,25.438644,25.503578,25.570166,25.642921,25.706762,25.766806,25.84174,25.912394,25.967842,26.036598,26.107513,26.166447,26.235138,26.310978,26.376286,26.442465,26.5163,26.580755,26.637539,26.705462,26.77029,26.824562,26.890587,26.958748,27.015469,27.080193,27.154312,27.219143,27.276619,27.339886,27.39466,27.439749,27.491058,27.53539,27.567814,27.60287,27.634964,27.65972,27.687546,27.714478,27.734024,27.752281,27.770782,27.78395,27.792297,27.797539,27.799082,27.799847,27.799496,27.799679,27.801056,27.800003,27.799763,27.802235,27.806053,27.81867,27.838165,27.857029,27.888596,27.929995,27.969921,28.021843,28.08195,28.135214,28.197506,28.27235,28.342457,28.412235,28.500645,28.591515,28.676327,28.787313,28.911985,29.02576,29.163857,29.320341,29.4591,29.61747,29.786676,29.92326,30.04645,30.196095,30.340351,30.46304,30.615002,30.764935,30.88192,31.018978,31.141617,31.21476,31.26188,31.299358,31.330643,31.360134,31.402897,31.456642,31.513805,31.578274,31.640697,31.691181,31.746872,31.794262,31.820517,31.834072,31.85544,31.878014,31.893751,31.853437,31.78035,31.738876,31.626862,31.268173,30.751465,30.31186,30.108952,30.1605,30.198486,30.766872,30.409481,28.28949,17.960827,8.135372,7.8545146,7.5861206,7.6899066,7.7372375,7.7882376,7.8549595,7.915903,7.9752984,8.043333,8.105662,8.156582,8.253071,8.405071,8.574667,8.786536,9.024603,9.224913,9.411304,9.571729,9.672121,9.7448225,9.805494,9.846544,9.880413,9.917604,9.951067,9.977476,10.010178,10.04309,10.067819,10.0931835,10.118349,10.140453,10.167034,10.202228,10.234699,10.258747,10.282288,10.300304,10.3127775,10.326586,10.341223,10.35418,10.368766,10.385418,10.399205,10.410406,10.42074,10.424927,10.423698,10.415352,10.39432,10.36697,10.325277,10.265656,10.205847,10.142521,10.05641,9.977144,9.920994,9.881908
21.12725,21.115942,21.102495,21.09325,21.084103,21.07651,21.073038,21.072174,21.070946,21.067984,21.063507,21.058323,21.052559,21.04739,21.040895,21.036617,21.036499,21.038515,21.040611,21.04112,21.040277,21.040306,21.039894,21.037916,21.036057,21.0343,21.032993,21.032028,21.03281,21.034817,21.036163,21.037512,21.03878,21.03994,21.043232,21.048027,21.052317,21.05813,21.067776,21.078989,21.091007,21.104607,21.116692,21.128471,21.143478,21.15829,21.170784,21.187693,21.205536,21.219904,21.237154,21.255901,21.271717,21.28876,21.307281,21.322845,21.336563,21.354427,21.372505,21.38749,21.408419,21.432625,21.453995,21.480124,21.509502,21.535334,21.56461,21.60073,21.634811,21.665628,21.70467,21.742477,21.77258,21.808083,21.843172,21.871212,21.903318,21.93622,21.961906,21.985884,22.013653,22.039938,22.063347,22.096535,22.13485,22.170177,22.217556,22.27185,22.31947,22.378109,22.446793,22.50819,22.57022,22.646059,22.717285,22.778297,22.851875,22.923515,22.982414,23.054527,23.132156,23.198277,23.273815,23.3656,23.453318,23.540379,23.655079,23.772255,23.876575,24.009241,24.144365,24.255611,24.383049,24.511148,24.61243,24.71516,24.824093,24.915302,24.995646,25.089886,25.176779,25.248623,25.335056,25.419807,25.488068,25.567183,25.648823,25.714622,25.781979,25.854988,25.91854,25.97809,26.05262,26.125172,26.185667,26.26079,26.33617,26.396141,26.46492,26.540293,26.60546,26.671707,26.745846,26.810865,26.86848,26.937838,27.004553,27.06072,27.129684,27.200872,27.259619,27.32655,27.40216,27.46733,27.524668,27.587095,27.640606,27.684294,27.734112,27.777317,27.808956,27.843788,27.876421,27.90203,27.93137,27.960238,27.9816,28.002148,28.02377,28.040459,28.052559,28.063553,28.07161,28.077896,28.084625,28.09171,28.097878,28.101204,28.10508,28.110466,28.115929,28.12894,28.14758,28.165249,28.195229,28.235163,28.274054,28.326706,28.389044,28.444641,28.51005,28.588951,28.662788,28.736053,28.82781,28.92073,29.006584,29.118206,29.242496,29.355192,29.491932,29.647362,29.784979,29.937592,30.095802,30.223757,30.348629,30.50164,30.649221,30.775314,30.93185,31.086895,31.208359,31.352253,31.477825,31.548382,31.593414,31.631021,31.664467,31.694107,31.744991,31.80862,31.867916,31.935934,32.003563,32.05919,32.11152,32.144726,32.15721,32.175655,32.211994,32.247486,32.262775,32.243988,32.21016,32.21059,32.030754,31.573318,31.03493,30.783184,30.739246,30.830416,31.173605,31.655922,30.96135,28.92659,18.350811,8.188786,7.8663607,7.5826125,7.6975,7.7499137,7.804674,7.8729463,7.9335594,7.993554,8.062096,8.125187,8.178142,8.275201,8.424679,8.589908,8.796279,9.028217,9.223354,9.403512,9.5571995,9.651859,9.717926,9.7725315,9.8097315,9.840268,9.876358,9.911982,9.941824,9.978056,10.014366,10.041161,10.064976,10.087486,10.106152,10.124963,10.149763,10.175781,10.200322,10.223871,10.241554,10.25379,10.267401,10.281853,10.294606,10.308866,10.324786,10.337396,10.347043,10.354677,10.355257,10.350281,10.336666,10.309691,10.277313,10.2299,10.16515,10.101402,10.030169,9.93775,9.857782,9.804784,9.769804
21.216156,21.19645,21.177847,21.166119,21.155272,21.146816,21.143147,21.14209,21.140572,21.137087,21.131931,21.12556,21.118172,21.111418,21.102428,21.094944,21.091843,21.090424,21.089031,21.087292,21.085258,21.084146,21.083286,21.081593,21.08023,21.07993,21.080744,21.082722,21.086575,21.090939,21.09499,21.099874,21.104568,21.108631,21.114838,21.121975,21.128014,21.135563,21.146652,21.158854,21.171852,21.186657,21.20012,21.21362,21.23109,21.248613,21.26363,21.28381,21.30538,21.323196,21.344929,21.369232,21.390251,21.41291,21.437866,21.459068,21.477848,21.501343,21.524204,21.542877,21.567532,21.594723,21.618172,21.64621,21.67729,21.704456,21.734997,21.772335,21.80735,21.838942,21.879005,21.918407,21.9506,21.98927,22.028667,22.061,22.098167,22.136795,22.167435,22.196417,22.229868,22.261044,22.288567,22.325878,22.366999,22.403872,22.451958,22.505959,22.552994,22.61095,22.67902,22.740124,22.802006,22.877926,22.94954,23.011127,23.085886,23.159441,23.220499,23.295555,23.376484,23.445255,23.523447,23.617273,23.705841,23.79334,23.90727,24.02203,24.12298,24.250175,24.378742,24.484245,24.605341,24.727825,24.825548,24.925755,25.033329,25.124462,25.205654,25.301414,25.390005,25.463465,25.551117,25.636826,25.706165,25.786728,25.86972,25.936308,26.004356,26.077635,26.140882,26.199726,26.273048,26.345266,26.40712,26.483788,26.560854,26.622414,26.69266,26.769283,26.835533,26.903664,26.980774,27.049164,27.110247,27.184372,27.256207,27.317074,27.389908,27.463783,27.524529,27.593575,27.670498,27.73581,27.792786,27.85412,27.906181,27.94833,27.99654,28.038609,28.069561,28.104416,28.138027,28.164978,28.1964,28.2279,28.251701,28.275074,28.300465,28.321373,28.33797,28.355755,28.371632,28.384789,28.400473,28.416706,28.42961,28.439472,28.44909,28.458046,28.465714,28.47966,28.497889,28.514687,28.54372,28.583076,28.621807,28.675835,28.74098,28.799526,28.868874,28.953018,29.031803,29.109707,29.205666,29.300808,29.387455,29.499348,29.62273,29.733768,29.867912,30.022629,30.159742,30.293453,30.437096,30.56466,30.690678,30.846283,30.997257,31.127022,31.289066,31.450731,31.578146,31.730915,31.861172,31.930359,31.976967,32.017082,32.0524,32.081528,32.13891,32.210503,32.270546,32.340435,32.41257,32.473694,32.512775,32.53338,32.54776,32.576874,32.628014,32.672256,32.68181,32.69416,32.6902,32.67385,32.439484,31.981174,31.53043,31.399174,31.436861,31.574425,32.207993,32.633842,31.639343,29.660212,18.790852,8.256976,7.8830423,7.579858,7.706729,7.764479,7.8235946,7.893565,7.953375,8.013843,8.08205,8.145125,8.200674,8.2984295,8.444906,8.605096,8.806154,9.031738,9.220608,9.394398,9.540258,9.627527,9.687176,9.734629,9.765875,9.791842,9.82446,9.858736,9.88839,9.923849,9.959746,9.987078,10.012901,10.039927,10.062139,10.079698,10.097973,10.114773,10.131136,10.15007,10.167379,10.180288,10.194482,10.20928,10.221975,10.236065,10.251419,10.263013,10.271253,10.276459,10.273834,10.265558,10.247382,10.215416,10.178946,10.126846,10.058706,9.993679,9.920319,9.82819,9.751427,9.7027,9.671802
21.28519,21.259949,21.238625,21.225487,21.213799,21.205061,21.20142,21.200245,21.198399,21.194317,21.188469,21.180984,21.172253,21.164299,21.153202,21.142757,21.136868,21.132702,21.129059,21.126556,21.124788,21.124275,21.124615,21.124523,21.125286,21.127583,21.13081,21.135834,21.142838,21.149895,21.157581,21.16681,21.175076,21.181705,21.190453,21.199638,21.207237,21.216309,21.228636,21.241673,21.255487,21.27132,21.285992,21.300991,21.320637,21.340609,21.35796,21.381092,21.406013,21.42697,21.452734,21.481987,21.5076,21.535202,21.565796,21.591904,21.615076,21.64344,21.670452,21.692389,21.72036,21.750256,21.775593,21.805298,21.837841,21.866146,21.897655,21.935837,21.971458,22.00357,22.044247,22.084766,22.118652,22.159899,22.20287,22.238804,22.28019,22.323572,22.35831,22.39146,22.429611,22.46481,22.49574,22.536354,22.57953,22.61739,22.66542,22.718275,22.763992,22.820215,22.8863,22.945856,23.006458,23.081158,23.152147,23.213726,23.289185,23.364414,23.427557,23.505358,23.589237,23.660275,23.740604,23.835785,23.924582,24.011982,24.124859,24.237362,24.335361,24.457582,24.580124,24.680397,24.795992,24.9138,25.008667,25.107105,25.214073,25.305557,25.387535,25.484749,25.575218,25.650728,25.740437,25.82785,25.89851,25.980675,26.065098,26.13256,26.201542,26.275387,26.33857,26.397022,26.469423,26.540037,26.599812,26.67358,26.748943,26.81088,26.882233,26.960293,27.027693,27.097733,27.17808,27.250343,27.315475,27.395058,27.472569,27.538445,27.61615,27.694132,27.758066,27.830513,27.910273,27.97704,28.03458,28.095337,28.146137,28.187128,28.234211,28.27559,28.306192,28.341465,28.376385,28.404863,28.43845,28.472614,28.498825,28.524796,28.553476,28.57795,28.598333,28.621626,28.643837,28.662691,28.685932,28.710218,28.729439,28.746128,28.761826,28.774452,28.784767,28.80051,28.819353,28.83623,28.865572,28.905613,28.945166,29.000881,29.068722,29.130146,29.203312,29.292536,29.37608,29.458344,29.558483,29.656115,29.743858,29.856277,29.978935,30.08846,30.22107,30.371761,30.501812,30.617401,30.75143,30.882706,31.009134,31.166077,31.31956,31.452229,31.61919,31.787172,31.920353,32.081596,32.216774,32.285694,32.336388,32.38009,32.4162,32.444023,32.504677,32.580467,32.639572,32.7093,32.782326,32.84446,32.87285,32.892044,32.91981,32.959873,33.01679,33.060986,33.06787,33.112778,33.1252,33.057983,32.801586,32.420326,32.113907,32.02404,32.04914,32.1921,32.961052,33.430626,32.361073,30.36958,19.196507,8.325809,7.9019985,7.5793376,7.716479,7.778687,7.841719,7.9131145,7.9718227,8.032358,8.099456,8.1617,8.219297,8.317556,8.461401,8.617167,8.814058,9.033555,9.215223,9.382528,9.521486,9.602831,9.657397,9.698523,9.724126,9.746298,9.774525,9.804527,9.830602,9.861792,9.893774,9.919071,9.946442,9.97784,10.004589,10.026064,10.046274,10.060471,10.070402,10.083813,10.098079,10.109739,10.122562,10.1368475,10.1498375,10.163883,10.17893,10.189911,10.197235,10.200971,10.196512,10.18638,10.165611,10.1310425,10.092749,10.038919,9.970152,9.906136,9.835974,9.750557,9.680801,9.6361685,9.610636
21.33562,21.308313,21.28555,21.272144,21.260435,21.251926,21.248474,21.247255,21.24509,21.240463,21.234085,21.225782,21.216127,21.207375,21.194508,21.181507,21.173588,21.168741,21.164852,21.162601,21.161575,21.162228,21.16422,21.165962,21.169157,21.173672,21.178232,21.184818,21.194973,21.205875,21.21671,21.22919,21.23998,21.24849,21.259098,21.2698,21.27858,21.288807,21.302101,21.315807,21.330276,21.346954,21.362621,21.37881,21.40019,21.422127,21.44136,21.466833,21.494394,21.517841,21.546692,21.579697,21.608799,21.640106,21.674927,21.704739,21.731216,21.763258,21.793438,21.817907,21.848476,21.88052,21.907398,21.938442,21.97216,22.001362,22.03355,22.072319,22.108343,22.14074,22.181732,22.22298,22.258087,22.301155,22.346676,22.385233,22.42966,22.476475,22.514183,22.550377,22.59195,22.630054,22.663464,22.706387,22.750902,22.789318,22.836987,22.888569,22.93292,22.987295,23.051163,23.10888,23.167877,23.240957,23.310974,23.372267,23.448025,23.524445,23.589207,23.669037,23.755054,23.827717,23.909527,24.005556,24.094376,24.18148,24.293476,24.404663,24.501396,24.62065,24.739183,24.836014,24.948193,25.063213,25.156418,25.254051,25.360964,25.452908,25.535734,25.634098,25.725676,25.802036,25.89394,25.983864,26.056015,26.139816,26.225716,26.294243,26.364523,26.439213,26.502552,26.561237,26.633362,26.703133,26.761951,26.834274,26.907812,26.968067,27.038366,27.115856,27.182934,27.25265,27.333328,27.406778,27.47361,27.555683,27.635904,27.703987,27.787102,27.871851,27.940804,28.018732,28.103697,28.17389,28.23338,28.294281,28.343979,28.38417,28.43058,28.471628,28.50203,28.53788,28.574081,28.603846,28.63921,28.675468,28.70348,28.731346,28.76224,28.788948,28.811728,28.838312,28.864193,28.886358,28.914097,28.94342,28.966854,28.988544,29.009356,29.025703,29.039124,29.057472,29.077759,29.095455,29.125755,29.16673,29.207024,29.26428,29.334436,29.398197,29.474474,29.567654,29.65477,29.74012,29.84374,29.944094,30.033539,30.14716,30.269794,30.378479,30.512188,30.65383,30.767033,30.879293,31.013447,31.144428,31.271023,31.42874,31.58377,31.718372,31.888897,32.06164,32.199223,32.366673,32.50607,32.575783,32.62925,32.674854,32.71074,32.736725,32.798485,32.87601,32.933388,33.002186,33.072433,33.129723,33.1603,33.186424,33.22132,33.272114,33.32865,33.366478,33.37864,33.447823,33.4756,33.389984,33.11946,32.78189,32.568893,32.531563,32.525185,32.601364,33.40386,33.987816,32.997765,30.962353,19.523903,8.383255,7.919196,7.5803986,7.7253923,7.7910213,7.8570724,7.9295325,7.987243,8.047498,8.113429,8.174708,8.233242,8.331749,8.473722,8.626011,8.819551,9.033984,9.209612,9.371527,9.504788,9.581274,9.631583,9.668184,9.689991,9.709011,9.733519,9.760071,9.783526,9.812075,9.841118,9.863493,9.887212,9.914555,9.939482,9.962848,9.989564,10.011869,10.02843,10.04071,10.048264,10.054918,10.062741,10.074741,10.088394,10.102459,10.117412,10.128114,10.134905,10.137946,10.132755,10.121918,10.10001,10.064554,10.026095,9.973003,9.905088,9.841808,9.773606,9.6961975,9.636043,9.594418,9.576586
21.383099,21.355537,21.333149,21.320677,21.309948,21.302574,21.299892,21.298944,21.296734,21.29174,21.284956,21.276026,21.265953,21.257019,21.241718,21.226765,21.21879,21.214046,21.21077,21.20974,21.210417,21.213573,21.218094,21.221653,21.226414,21.233187,21.240713,21.250902,21.265415,21.28013,21.294378,21.31026,21.323572,21.33397,21.346458,21.358784,21.36893,21.380596,21.395199,21.409883,21.425396,21.443369,21.460411,21.478153,21.501709,21.526028,21.547508,21.575676,21.606201,21.632427,21.664673,21.701664,21.734364,21.76947,21.808537,21.84201,21.871765,21.907461,21.940884,21.968065,22.001507,22.036064,22.064821,22.097605,22.132921,22.16335,22.196426,22.235931,22.272501,22.305416,22.346846,22.388878,22.425352,22.470348,22.518435,22.559563,22.606888,22.656918,22.697414,22.736486,22.781288,22.822159,22.858028,22.903242,22.949097,22.988121,23.035458,23.085747,23.128677,23.18098,23.24223,23.297691,23.354738,23.425724,23.494337,23.55514,23.630947,23.708256,23.774357,23.855766,23.943172,24.016607,24.09889,24.194601,24.282421,24.36841,24.47773,24.586334,24.682755,24.800226,24.91516,25.007904,25.116264,25.228329,25.319847,25.416576,25.523232,25.61541,25.698915,25.798288,25.89093,25.968216,26.061752,26.153606,26.227299,26.31305,26.40073,26.47039,26.541931,26.618267,26.683018,26.742477,26.814754,26.88398,26.942099,27.013138,27.085087,27.144032,27.2132,27.289864,27.356674,27.427158,27.509052,27.583857,27.65257,27.737263,27.820112,27.890266,27.976242,28.063887,28.134943,28.215345,28.302616,28.374496,28.436012,28.500011,28.553158,28.596497,28.647058,28.692389,28.726547,28.764366,28.801392,28.832214,28.869078,28.90701,28.936321,28.965351,28.997643,29.02599,29.050783,29.079937,29.108694,29.133633,29.16518,29.199217,29.227112,29.254457,29.281612,29.303068,29.321182,29.344013,29.36736,29.38716,29.419693,29.4625,29.504086,29.563168,29.63569,29.701809,29.78112,29.878075,29.968533,30.05672,30.163754,30.267036,30.358477,30.473675,30.596779,30.705143,30.838556,30.970772,31.068779,31.177813,31.312038,31.442863,31.569576,31.72807,31.884718,32.021282,32.195576,32.37347,32.51583,32.689846,32.833775,32.904392,32.96019,33.0068,33.04137,33.064266,33.12548,33.20308,33.25735,33.323402,33.389492,33.44149,33.475243,33.50972,33.55111,33.602764,33.659485,33.69969,33.715385,33.804802,33.84812,33.751347,33.47972,33.190407,33.062363,33.08612,33.050217,33.053497,33.908703,34.635902,33.732132,31.617556,19.866665,8.431393,7.9374676,7.585524,7.737446,7.8055973,7.8746157,7.9483747,8.005163,8.0649185,8.12952,8.189657,8.248528,8.347691,8.488326,8.636666,8.826412,9.035379,9.204676,9.360798,9.487967,9.559324,9.605132,9.636836,9.654416,9.669926,9.690238,9.712843,9.733258,9.758554,9.784559,9.804601,9.825853,9.8494215,9.870975,9.89356,9.920177,9.943159,9.960876,9.97673,9.988663,9.998142,10.009247,10.022456,10.034493,10.044706,10.054553,10.061863,10.067968,10.070532,10.064894,10.053713,10.031894,9.996912,9.958931,9.906548,9.840094,9.778168,9.707441,9.634043,9.583739,9.550629,9.535335
21.420837,21.395351,21.375383,21.365213,21.356724,21.351696,21.35071,21.350842,21.349556,21.345123,21.338654,21.330318,21.320389,21.310944,21.294954,21.280483,21.274185,21.27097,21.269958,21.271263,21.273727,21.279322,21.286587,21.292622,21.300076,21.310429,21.321863,21.336575,21.355768,21.373993,21.391453,21.410395,21.425846,21.437822,21.451897,21.465672,21.477135,21.490303,21.506453,21.522423,21.539433,21.559296,21.578241,21.597961,21.624123,21.651161,21.675133,21.70626,21.73997,21.76912,21.80484,21.84568,21.881662,21.92015,21.962828,21.999266,22.03159,22.070122,22.106117,22.13556,22.17154,22.208527,22.239237,22.273956,22.311197,22.343163,22.377392,22.41798,22.455479,22.489319,22.531677,22.574936,22.613142,22.660494,22.711409,22.755102,22.805159,22.858025,22.900871,22.942358,22.989792,23.032944,23.070969,23.118309,23.165611,23.205502,23.253067,23.30285,23.345032,23.395927,23.455078,23.50856,23.563904,23.632957,23.700201,23.76053,23.836214,23.91391,23.98063,24.062408,24.149414,24.221804,24.302437,24.395473,24.480389,24.563608,24.668478,24.772789,24.86688,24.981573,25.093603,25.183744,25.289307,25.398582,25.487942,25.583197,25.688774,25.780365,25.863735,25.963211,26.056143,26.133747,26.228014,26.320908,26.395569,26.48265,26.571793,26.642662,26.71573,26.794388,26.86142,26.922546,26.996113,27.065845,27.124088,27.19474,27.265923,27.324219,27.392754,27.468815,27.535355,27.606508,27.6899,27.766544,27.837353,27.924519,28.009214,28.080315,28.166668,28.254158,28.325043,28.40555,28.493134,28.565525,28.628136,28.694515,28.750671,28.796814,28.85106,28.900133,28.937412,28.978552,29.018806,29.052395,29.092817,29.135328,29.169044,29.202675,29.239656,29.271,29.297062,29.32756,29.357807,29.384289,29.418112,29.455627,29.487411,29.520012,29.553661,29.580923,29.604797,29.633726,29.661808,29.685158,29.721367,29.766964,29.810282,29.871275,29.94569,30.013443,30.094868,30.194588,30.28766,30.378155,30.488129,30.594067,30.687408,30.804276,30.928352,31.037193,31.164196,31.286781,31.378426,31.485748,31.619629,31.749935,31.876307,32.034966,32.19258,32.33047,32.50792,32.690533,32.83741,33.01776,33.165535,33.236095,33.29383,33.34118,33.374397,33.39477,33.45497,33.531918,33.583454,33.646866,33.708298,33.754147,33.791344,33.83428,33.880783,33.927,33.982914,34.029884,34.05236,34.145138,34.19122,34.09933,33.86639,33.64015,33.56646,33.64686,33.574276,33.49111,34.39125,35.330933,34.57643,32.29807,20.170382,8.438266,7.9498634,7.596404,7.7523623,7.821412,7.8925247,7.967662,8.024138,8.083087,8.1462145,8.205284,8.26428,8.364229,8.503895,8.64855,8.834799,9.039149,9.203295,9.353839,9.475235,9.542135,9.583977,9.611315,9.625044,9.637292,9.653597,9.672318,9.689703,9.711689,9.734766,9.7528,9.772102,9.792839,9.811157,9.830454,9.853548,9.874176,9.890465,9.90881,9.925505,9.938289,9.953011,9.967756,9.9788265,9.9878235,9.996065,10.002109,10.007408,10.008984,10.002256,9.990009,9.96685,9.930494,9.89142,9.837959,9.771695,9.71149,9.643551,9.576447,9.533625,9.507473,9.492809
21.446102,21.42366,21.40683,21.399353,21.393536,21.39132,21.392525,21.394337,21.394863,21.391914,21.386484,21.379597,21.370216,21.360283,21.346018,21.33419,21.33005,21.328955,21.330734,21.33448,21.33833,21.345613,21.355276,21.364197,21.375608,21.390316,21.405193,21.423622,21.446508,21.467497,21.487436,21.50872,21.525787,21.538914,21.554203,21.569149,21.581684,21.596176,21.613815,21.631123,21.649754,21.671692,21.692677,21.714392,21.743065,21.772614,21.798828,21.83263,21.869175,21.900883,21.93959,21.983559,22.022058,22.063068,22.108295,22.14669,22.18061,22.220886,22.258507,22.289425,22.327236,22.366179,22.398577,22.435097,22.474255,22.507801,22.543306,22.585222,22.623945,22.658978,22.702705,22.747595,22.787697,22.837616,22.89138,22.937424,22.989891,23.045105,23.089788,23.133125,23.182549,23.227463,23.267216,23.316467,23.365368,23.40644,23.455013,23.505404,23.547852,23.598526,23.65682,23.709248,23.763674,23.831596,23.898003,23.958076,24.033653,24.11127,24.177841,24.258839,24.34395,24.413914,24.491348,24.58015,24.661022,24.740437,24.840467,24.939857,25.029243,25.139393,25.248592,25.337526,25.441345,25.548344,25.6355,25.728947,25.83269,25.922817,26.00518,26.103745,26.196089,26.273304,26.367538,26.460709,26.535624,26.623085,26.713043,26.785048,26.859756,26.940681,27.009903,27.073101,27.14874,27.21988,27.278975,27.350143,27.421436,27.479748,27.548393,27.624405,27.69077,27.761948,27.846483,27.925068,27.997728,28.08681,28.17252,28.243652,28.329449,28.415932,28.485977,28.565844,28.653248,28.725784,28.788315,28.854359,28.910145,28.956161,29.010433,29.059593,29.096722,29.140778,29.185707,29.223013,29.268154,29.317009,29.357126,29.397667,29.441813,29.47765,29.505342,29.53748,29.569347,29.597328,29.63287,29.672714,29.707136,29.74345,29.782043,29.814106,29.842987,29.877602,29.91044,29.937542,29.977642,30.026087,30.07104,30.1336,30.209122,30.277542,30.359873,30.46102,30.555717,30.647831,30.75985,30.8676,30.962246,31.080341,31.205395,31.315025,31.431795,31.54655,31.640392,31.746964,31.879658,32.00908,32.13463,32.292683,32.450325,32.588596,32.767906,32.953808,33.10404,33.289406,33.439507,33.508797,33.56802,33.616272,33.649017,33.66884,33.7289,33.805626,33.85618,33.918636,33.97674,34.01729,34.05663,34.10499,34.15419,34.196,34.250557,34.30278,34.336197,34.418457,34.454094,34.376877,34.20656,34.04754,33.999237,34.091995,33.986343,33.85975,34.763474,35.938583,35.383472,32.87673,20.37534,8.402826,7.95413,7.610649,7.7670403,7.8359365,7.9081235,7.9844685,8.041276,8.099384,8.161177,8.219412,8.278452,8.379248,8.518448,8.660269,8.843749,9.044945,9.20593,9.352172,9.469244,9.533199,9.572393,9.596805,9.607892,9.617852,9.631235,9.647023,9.662065,9.681498,9.702234,9.718603,9.736277,9.755615,9.772413,9.788406,9.808599,9.827583,9.842503,9.858979,9.87394,9.885639,9.899141,9.913401,9.925192,9.93708,9.949164,9.957276,9.961693,9.961634,9.953032,9.938887,9.912622,9.872856,9.83132,9.775692,9.708576,9.650127,9.591364,9.533329,9.494406,9.469894,9.456593
21.467106,21.448065,21.434616,21.429945,21.42693,21.427814,21.43163,21.435543,21.438564,21.437748,21.433754,21.427216,21.418715,21.410976,21.399197,21.39069,21.389454,21.38983,21.392975,21.39851,21.40495,21.415678,21.428978,21.441023,21.456078,21.474632,21.492733,21.514587,21.540922,21.564545,21.586826,21.610432,21.629196,21.643526,21.660212,21.67656,21.690302,21.706251,21.725555,21.744377,21.76479,21.788958,21.812065,21.835796,21.866951,21.898924,21.927284,21.963604,22.002796,22.036877,22.078388,22.125227,22.165949,22.2092,22.25669,22.296825,22.332123,22.374,22.413223,22.445599,22.48529,22.526325,22.560585,22.599194,22.640598,22.675968,22.712955,22.756464,22.796677,22.83313,22.87855,22.925331,22.96746,23.02009,23.076746,23.125074,23.179901,23.23742,23.283943,23.329134,23.38063,23.427448,23.469048,23.520494,23.571423,23.614098,23.664284,23.71601,23.759325,23.810371,23.868397,23.92023,23.974049,24.041126,24.106853,24.166676,24.242065,24.319263,24.385094,24.464676,24.547165,24.614021,24.687561,24.77145,24.847763,24.922853,25.017542,25.111816,25.196814,25.301548,25.405674,25.49086,25.591614,25.69691,25.783361,25.875538,25.97697,26.064651,26.14545,26.242512,26.333809,26.410408,26.504293,26.597542,26.67273,26.760601,26.851467,26.924713,27.00107,27.084343,27.155943,27.221413,27.299463,27.372368,27.432587,27.504543,27.576172,27.634636,27.703506,27.77958,27.845907,27.917406,28.002838,28.08257,28.156227,28.246548,28.333303,28.405125,28.49086,28.576403,28.645332,28.72432,28.811253,28.883713,28.946106,29.012115,29.068085,29.114485,29.169395,29.21912,29.256447,29.301239,29.347416,29.38601,29.433151,29.484655,29.527283,29.570263,29.618118,29.658812,29.692385,29.731153,29.769335,29.803047,29.842949,29.884953,29.920254,29.958786,30.001114,30.03732,30.070532,30.110245,30.147507,30.17823,30.22212,30.273346,30.319885,30.383808,30.46016,30.528992,30.611748,30.713705,30.809513,30.90284,31.016365,31.125433,31.22106,31.340044,31.465961,31.576548,31.686129,31.794403,31.888351,31.993977,32.125515,32.253788,32.37812,32.53503,32.692085,32.83013,33.010403,33.198593,33.351326,33.540787,33.69232,33.75973,33.819965,33.86878,33.901165,33.92163,33.981674,34.057755,34.10788,34.1698,34.225273,34.261513,34.302864,34.353394,34.401474,34.442467,34.49708,34.55366,34.60237,34.675484,34.69844,34.63392,34.5153,34.41925,34.40137,34.39488,34.27337,34.25042,35.075825,36.489807,36.202404,33.3851,20.506546,8.3471985,7.9575024,7.6289067,7.782462,7.8516464,7.9249563,8.002577,8.059882,8.117323,8.177837,8.234894,8.292858,8.395632,8.535984,8.674651,8.854721,9.052435,9.210661,9.353519,9.467378,9.529222,9.566612,9.58905,9.598293,9.606552,9.617647,9.6310425,9.644146,9.661448,9.680232,9.695217,9.711525,9.729366,9.744768,9.759572,9.776808,9.792381,9.805288,9.820173,9.834087,9.8449135,9.857399,9.870625,9.881586,9.892542,9.903671,9.910881,9.914109,9.91235,9.901987,9.886351,9.85849,9.817749,9.776047,9.721033,9.655822,9.599985,9.545041,9.49157,9.456137,9.434315,9.421205
21.485325,21.470673,21.461826,21.46093,21.461634,21.46627,21.472961,21.479218,21.484955,21.48655,21.484316,21.479942,21.474564,21.47028,21.4618,21.456282,21.457281,21.460186,21.466461,21.475163,21.484715,21.499422,21.516796,21.532259,21.551353,21.574219,21.595963,21.621685,21.651957,21.678677,21.703787,21.730394,21.751587,21.767769,21.786678,21.805214,21.820751,21.83884,21.860476,21.881327,21.90409,21.931103,21.956825,21.98296,22.016973,22.051666,22.082407,22.121525,22.16362,22.200287,22.24487,22.294798,22.337845,22.383442,22.433334,22.47535,22.512161,22.555862,22.597,22.631174,22.673317,22.717205,22.75404,22.795626,22.840221,22.878155,22.917366,22.96325,23.005642,23.0442,23.092175,23.14171,23.186558,23.24278,23.303104,23.354198,23.411983,23.472488,23.521446,23.569141,23.623638,23.673351,23.717693,23.77265,23.827093,23.872702,23.926231,23.981033,24.026508,24.07927,24.138264,24.190329,24.244236,24.31112,24.376568,24.436337,24.511585,24.588026,24.652504,24.729713,24.808186,24.870506,24.938524,25.015675,25.085854,25.155045,25.242603,25.330143,25.409338,25.506859,25.603977,25.683681,25.778904,25.879473,25.96267,26.051891,26.150555,26.23594,26.314236,26.408777,26.498417,26.574059,26.667301,26.760536,26.836067,26.924465,27.016485,27.091255,27.169537,27.25547,27.32972,27.397703,27.478336,27.553179,27.61481,27.687893,27.760107,27.81884,27.888023,27.964241,28.030611,28.102535,28.18898,28.269945,28.344685,28.43617,28.523642,28.595684,28.680992,28.76558,28.833633,28.911797,28.998241,29.07061,29.132866,29.198765,29.254723,29.301205,29.3562,29.406021,29.443455,29.488598,29.535404,29.574743,29.623415,29.677448,29.722792,29.768635,29.820295,29.8653,29.903723,29.948147,29.991623,30.02967,30.075298,30.124401,30.166277,30.210485,30.256945,30.29565,30.332386,30.376736,30.418407,30.452805,30.500607,30.554802,30.603127,30.668499,30.745611,30.814713,30.897722,31.000212,31.09684,31.191162,31.306,31.416216,31.512642,31.632519,31.758188,31.867197,31.971834,32.075996,32.16937,32.27379,32.403675,32.53016,32.652626,32.807533,32.963127,33.100147,33.280445,33.47012,33.624886,33.818413,33.971245,34.036293,34.097305,34.146767,34.179398,34.201683,34.26312,34.33986,34.39076,34.45292,34.507927,34.54355,34.58741,34.638443,34.683792,34.724113,34.77813,34.838337,34.903496,34.972454,34.988266,34.938972,34.86644,34.829838,34.845894,34.690685,34.59246,34.776047,35.434128,37.069553,37.09799,33.909595,20.606073,8.258876,7.9599447,7.65576,7.803563,7.872676,7.9472666,8.026463,8.084387,8.140951,8.2000265,8.25588,8.312729,8.417347,8.558752,8.6943245,8.870228,9.063707,9.219107,9.358753,9.469831,9.530067,9.566225,9.587393,9.595369,9.602316,9.611472,9.622677,9.633927,9.6491375,9.665943,9.679483,9.694338,9.710501,9.724303,9.737723,9.752365,9.764746,9.774897,9.786495,9.797333,9.8058605,9.816254,9.827574,9.836893,9.845874,9.854673,9.859726,9.860851,9.856137,9.842742,9.8246155,9.794282,9.752247,9.710554,9.656743,9.594519,9.542237,9.490971,9.442961,9.412567,9.393657,9.381624
21.497662,21.48754,21.483234,21.485685,21.489687,21.497742,21.50718,21.515713,21.524143,21.528358,21.5283,21.527687,21.526443,21.525068,21.519642,21.516846,21.52007,21.526323,21.536942,21.549496,21.56192,21.580128,21.600979,21.619335,21.641975,21.668669,21.693623,21.722713,21.75647,21.786015,21.813766,21.843456,21.867409,21.8858,21.90744,21.928665,21.946337,21.96696,21.99126,22.014334,22.039623,22.069572,22.097885,22.1263,22.16296,22.200092,22.232895,22.274452,22.319023,22.357819,22.404964,22.457428,22.502346,22.54987,22.601833,22.645573,22.683815,22.729372,22.772533,22.808628,22.853474,22.900562,22.94027,22.98527,23.033524,23.074383,23.11627,23.165049,23.210052,23.251083,23.302135,23.354826,23.402493,23.462387,23.526304,23.579971,23.640617,23.704123,23.755638,23.806019,23.863895,23.916988,23.964504,24.0237,24.08257,24.131905,24.189934,24.249062,24.29766,24.353283,24.414474,24.467752,24.522564,24.590103,24.655846,24.715763,24.79093,24.866432,24.929245,25.003696,25.077816,25.135435,25.197842,25.268288,25.332409,25.39571,25.476147,25.556927,25.630222,25.720585,25.810751,25.884895,25.973644,26.06764,26.145748,26.230593,26.325672,26.408611,26.484371,26.576313,26.6641,26.738554,26.830906,26.92395,26.999756,27.088638,27.18176,27.257963,27.337975,27.426266,27.502829,27.572918,27.65572,27.7323,27.795362,27.869736,27.942745,28.001867,28.071407,28.147781,28.214191,28.286388,28.373556,28.455435,28.530975,28.623169,28.710829,28.782604,28.86729,28.951195,29.018856,29.096558,29.182724,29.25506,29.317202,29.382965,29.4388,29.485205,29.540018,29.589722,29.627224,29.672642,29.719875,29.759634,29.80935,29.865402,29.913158,29.961683,30.016708,30.064741,30.105507,30.152905,30.199154,30.239079,30.289185,30.345741,30.395214,30.445755,30.497202,30.53912,30.579288,30.627026,30.67145,30.708542,30.759266,30.815756,30.865534,30.93198,31.009483,31.07856,31.161476,31.263931,31.360744,31.455524,31.57108,31.68195,31.778772,31.89915,32.023796,32.130016,32.23281,32.335655,32.427925,32.531082,32.65912,32.78354,32.903824,33.0562,33.209644,33.344986,33.52416,33.713955,33.869648,34.065014,34.219006,34.28389,34.34553,34.39576,34.429413,34.453712,34.517628,34.596565,34.649254,34.71202,34.76935,34.809853,34.856224,34.906773,34.94995,34.988564,35.04042,35.101814,35.176067,35.25196,35.275665,35.239635,35.190285,35.188377,35.2331,34.95599,34.89963,35.282684,35.80075,37.55107,37.766808,34.28232,20.647694,8.167102,7.9638286,7.6864915,7.8272505,7.8957195,7.971447,8.052282,8.11086,8.166241,8.22381,8.2787075,8.334875,8.439949,8.581228,8.714785,8.886997,9.076363,9.229061,9.366222,9.475568,9.535122,9.570951,9.591869,9.599427,9.605684,9.613558,9.623082,9.632803,9.646204,9.661196,9.673353,9.686789,9.701263,9.713394,9.725073,9.737631,9.747633,9.755049,9.762796,9.769608,9.775064,9.782354,9.790726,9.797676,9.804212,9.810083,9.812275,9.810601,9.80208,9.7849245,9.7638,9.730572,9.687126,9.64558,9.593325,9.534704,9.486622,9.439777,9.397543,9.371971,9.355568,9.345358
21.505737,21.499716,21.498821,21.50309,21.50895,21.519606,21.531784,21.54261,21.554008,21.561337,21.563993,21.566936,21.568563,21.568542,21.565308,21.566013,21.572956,21.582413,21.596634,21.612309,21.627195,21.648373,21.672073,21.692678,21.718117,21.747772,21.775127,21.806692,21.843006,21.874683,21.904457,21.93673,21.963192,21.983631,22.007885,22.031712,22.051422,22.074472,22.101295,22.126434,22.154053,22.186628,22.21716,22.247461,22.286304,22.325403,22.359764,22.403194,22.4496,22.489876,22.538815,22.593035,22.639236,22.688137,22.74169,22.78687,22.826345,22.873596,22.918674,22.956554,23.003956,23.054035,23.096394,23.144611,23.196346,23.240004,23.284515,23.336205,23.383842,23.427261,23.481358,23.537025,23.587078,23.65004,23.716852,23.772497,23.835377,23.901325,23.955025,24.00772,24.068596,24.124746,24.175121,24.23828,24.30133,24.354132,24.416504,24.479942,24.531715,24.590364,24.654127,24.709042,24.76507,24.833668,24.899998,24.9601,25.03519,25.109783,25.170996,25.24297,25.313406,25.367176,25.425098,25.490261,25.54963,25.60828,25.682999,25.75827,25.826721,25.911268,25.99581,26.065414,26.148819,26.23748,26.311459,26.392015,26.482426,26.561867,26.635963,26.726147,26.812319,26.885538,26.976845,27.069485,27.145374,27.23455,27.328514,27.40586,27.487223,27.577396,27.655815,27.727514,27.812122,27.890308,27.954727,28.030418,28.104357,28.163996,28.233942,28.310472,28.376875,28.449083,28.536472,28.61869,28.694431,28.78677,28.874413,28.946053,29.03037,29.113817,29.181171,29.258595,29.344622,29.416914,29.478878,29.544483,29.600304,29.64682,29.70187,29.75179,29.78936,29.83495,29.882435,29.922455,29.97271,30.029718,30.078598,30.12827,30.185665,30.23648,30.279251,30.329227,30.378046,30.42001,30.472202,30.53038,30.580986,30.634094,30.69162,30.740572,30.785557,30.83574,30.880754,30.919552,30.972128,31.03006,31.080753,31.147736,31.225199,31.293936,31.376356,31.478214,31.574657,31.66943,31.78516,31.896212,31.993113,32.113457,32.23746,32.3425,32.44454,32.546555,32.6378,32.739788,32.866127,32.98864,33.106876,33.25673,33.407898,33.541405,33.718864,33.907867,34.063614,34.25779,34.412743,34.480774,34.54311,34.594124,34.629143,34.654785,34.72104,34.80252,34.857086,34.920113,34.98091,35.029247,35.07733,35.127136,35.16976,35.205795,35.254433,35.314804,35.389755,35.479973,35.52237,35.495262,35.44948,35.45946,35.52428,35.181232,35.144764,35.63964,36.137413,37.904205,38.116707,34.46249,20.642746,8.097024,7.970331,7.714923,7.8491096,7.9166613,7.993201,8.075544,8.134815,8.188808,8.244829,8.29892,8.354675,8.45895,8.599129,8.731688,8.901295,9.087253,9.2374,9.372755,9.481224,9.540758,9.576836,9.598104,9.605709,9.611633,9.618629,9.62682,9.635246,9.647061,9.660398,9.671258,9.683352,9.696235,9.706787,9.716843,9.72716,9.734765,9.740017,9.745008,9.748883,9.751806,9.75565,9.76034,9.764503,9.76836,9.771147,9.770378,9.765858,9.753668,9.733091,9.709364,9.673817,9.629556,9.588591,9.538325,9.483688,9.440083,9.398406,9.360782,9.337799,9.323405,9.314655
21.522285,21.52021,21.52361,21.531345,21.540226,21.554054,21.56892,21.582031,21.596283,21.606531,21.611692,21.617586,21.622828,21.626427,21.627333,21.632874,21.64408,21.65747,21.676144,21.695652,21.713564,21.73828,21.76525,21.78838,21.8168,21.84944,21.879108,21.912914,21.951477,21.985033,22.016634,22.0514,22.080456,22.103115,22.130352,22.15728,22.17949,22.205498,22.235416,22.263083,22.293411,22.328901,22.36178,22.393997,22.434958,22.47587,22.51162,22.556654,22.604546,22.645937,22.696245,22.751797,22.798988,22.849049,22.904152,22.950905,22.991774,23.041063,23.088507,23.12857,23.179096,23.232826,23.278381,23.330475,23.386301,23.433165,23.48074,23.535797,23.586422,23.632511,23.689945,23.748726,23.801125,23.867016,23.936455,23.993773,24.058636,24.126934,24.18288,24.237978,24.302122,24.361721,24.415306,24.482931,24.55075,24.607563,24.674898,24.74317,24.798428,24.860374,24.926987,24.983757,25.041113,25.110733,25.177422,25.237339,25.312065,25.385262,25.44401,25.51283,25.579891,25.630905,25.684881,25.745277,25.800379,25.854694,25.92389,25.99368,26.057247,26.135834,26.21453,26.279413,26.357212,26.440042,26.509287,26.584862,26.66996,26.74521,26.816122,26.903147,26.987083,27.058971,27.149048,27.241154,27.31717,27.406734,27.501413,27.579527,27.661846,27.753513,27.833576,27.90683,27.993282,28.073149,28.138973,28.216,28.290823,28.350922,28.421104,28.497555,28.563696,28.635471,28.72242,28.804304,28.87963,28.971457,29.058622,29.129864,29.213707,29.296814,29.364067,29.441439,29.527554,29.6,29.661991,29.72769,29.783722,29.830528,29.885984,29.93635,29.974318,30.02044,30.068491,30.108994,30.159977,30.217966,30.267826,30.318523,30.37754,30.430447,30.475685,30.52834,30.579622,30.623775,30.678398,30.738796,30.791029,30.845951,30.905949,30.958023,31.007433,31.06616,31.118189,31.156776,31.210293,31.26982,31.321455,31.388931,31.466255,31.534502,31.616167,31.716982,31.812557,31.906773,32.022175,32.133118,32.229904,32.34973,32.474167,32.581078,32.68311,32.784157,32.874657,32.975624,33.10028,33.220764,33.336742,33.48369,33.632034,33.763138,33.93811,34.125404,34.280365,34.47342,34.63072,34.703625,34.766968,34.81942,34.85617,34.88089,34.949287,35.034576,35.091034,35.153584,35.218044,35.276066,35.33087,35.384373,35.42726,35.45916,35.50348,35.56185,35.630615,35.74746,35.82644,35.810284,35.751793,35.757828,35.845997,35.484276,35.471252,36.034523,36.560104,38.35739,38.506447,34.567463,20.57225,8.03704,7.988427,7.755248,7.881261,7.947921,8.025606,8.109905,8.170038,8.222294,8.2766,8.32984,8.384743,8.4877205,8.626738,8.758791,8.925606,9.107246,9.253861,9.387334,9.495422,9.555566,9.592557,9.614911,9.623083,9.62895,9.6352,9.641959,9.648895,9.658823,9.670147,9.67942,9.689859,9.700775,9.709379,9.717428,9.724951,9.729486,9.731886,9.733162,9.733044,9.732558,9.732267,9.732466,9.732962,9.733511,9.732325,9.727673,9.719622,9.703182,9.679012,9.652849,9.615504,9.571369,9.531985,9.48489,9.435255,9.396624,9.360115,9.327709,9.308335,9.29644,9.289362
21.540276,21.542164,21.549877,21.561203,21.573343,21.590439,21.607899,21.623219,21.640253,21.65344,21.661224,21.670387,21.67994,21.688011,21.693943,21.704954,21.720684,21.738384,21.761906,21.78558,21.806824,21.835312,21.86559,21.891144,21.92231,21.957476,21.988928,22.024326,22.06434,22.099098,22.131935,22.168592,22.19984,22.224506,22.254585,22.284618,22.309414,22.338577,22.371841,22.402214,22.435392,22.473845,22.509014,22.543047,22.585945,22.628433,22.665333,22.711634,22.760529,22.802525,22.853582,22.909832,22.957537,23.008312,23.06464,23.112816,23.15495,23.206203,23.255985,23.298199,23.351799,23.409143,23.457895,23.513838,23.57369,23.623703,23.674381,23.732872,23.786528,23.835327,23.896057,23.957714,24.012062,24.080242,24.151583,24.210026,24.276283,24.346443,24.40435,24.461569,24.528687,24.591469,24.647997,24.71976,24.792046,24.852648,24.92463,24.997387,25.055866,25.120857,25.190216,25.248878,25.307564,25.378178,25.445108,25.504679,25.578106,25.649128,25.705635,25.771933,25.836765,25.886293,25.93856,25.996592,26.049088,26.100658,26.165989,26.231697,26.291622,26.365772,26.440125,26.501505,26.575047,26.653229,26.718487,26.789654,26.869987,26.941336,27.008745,27.092102,27.173275,27.243343,27.33139,27.422012,27.497341,27.586239,27.680725,27.759136,27.841984,27.934864,28.016521,28.091461,28.179909,28.261547,28.328825,28.407341,28.483269,28.543968,28.61448,28.690826,28.756569,28.827557,28.91335,28.994041,29.068136,29.158518,29.244484,29.314907,29.398014,29.48079,29.548069,29.625582,29.712074,29.78498,29.847393,29.913723,29.97049,30.018036,30.074532,30.126001,30.164892,30.212126,30.261223,30.302448,30.354143,30.412712,30.462915,30.513847,30.573044,30.626472,30.672932,30.727383,30.780594,30.826347,30.882923,30.945415,30.999361,31.055727,31.116714,31.169903,31.221933,31.287111,31.346794,31.391243,31.44737,31.50697,31.559406,31.627102,31.70387,31.771206,31.851608,31.950571,32.044376,32.13718,32.2513,32.36142,32.45762,32.57666,32.701336,32.809795,32.915398,33.01877,33.10866,33.20929,33.332962,33.451954,33.56614,33.710556,33.85622,33.984917,34.156975,34.341637,34.494827,34.686165,34.846615,34.925922,34.99008,35.043533,35.08194,35.10637,35.173935,35.259197,35.317287,35.379417,35.44455,35.50641,35.57412,35.637962,35.681374,35.71186,35.753292,35.80728,35.86135,36.010353,36.1348,36.1248,36.041245,36.029297,36.135197,35.80071,35.805428,36.383614,37.01576,38.85329,38.868935,34.607704,20.46754,7.9899035,8.007213,7.798358,7.9212847,7.986341,8.065271,8.151679,8.21267,8.262667,8.314873,8.366883,8.419886,8.521242,8.658686,8.788803,8.95324,9.131128,9.273716,9.405437,9.513872,9.57551,9.61397,9.637918,9.647003,9.653042,9.658701,9.664028,9.669373,9.677174,9.686118,9.693441,9.701786,9.71022,9.716429,9.722052,9.726315,9.727392,9.726634,9.723846,9.719412,9.715271,9.710587,9.706212,9.703065,9.699818,9.694116,9.685362,9.67378,9.653542,9.626726,9.599239,9.561655,9.519299,9.48277,9.440081,9.396198,9.3627205,9.3316,9.304492,9.288637,9.279058,9.273463
21.553394,21.559055,21.570168,21.583797,21.598347,21.618055,21.63773,21.654907,21.674374,21.690287,21.700626,21.713396,21.727028,21.738522,21.748596,21.764275,21.783966,21.805443,21.833206,21.860518,21.884722,21.916492,21.949516,21.97697,22.010235,22.047174,22.07972,22.116005,22.1567,22.191984,22.225426,22.263193,22.295893,22.321983,22.354183,22.386654,22.41354,22.44537,22.48151,22.514208,22.549849,22.590836,22.627949,22.663536,22.708084,22.751904,22.789762,22.837088,22.886688,22.928986,22.980429,23.036987,23.084908,23.136063,23.193224,23.242455,23.2855,23.33819,23.389698,23.433516,23.489403,23.549458,23.600662,23.659527,23.722446,23.774902,23.828064,23.889347,23.945488,23.996527,24.059933,24.123798,24.179474,24.249117,24.32158,24.380661,24.447721,24.519093,24.578396,24.637133,24.706356,24.771355,24.829922,24.904562,24.979956,25.043217,25.118427,25.194315,25.255074,25.322208,25.393595,25.453758,25.513508,25.584946,25.652077,25.71136,25.783142,25.85213,25.907576,25.972813,26.036678,26.085499,26.137985,26.19595,26.24763,26.298275,26.36187,26.425499,26.483597,26.555622,26.627985,26.687782,26.759315,26.835108,26.89815,26.96664,27.043905,27.112638,27.177677,27.258194,27.336773,27.404774,27.490318,27.578724,27.65258,27.739738,27.83316,27.91153,27.994568,28.08841,28.171532,28.248123,28.338558,28.421991,28.490736,28.570911,28.64817,28.709637,28.780674,28.857098,28.922518,28.992714,29.077137,29.156286,29.228817,29.317324,29.401733,29.47115,29.553373,29.635757,29.703068,29.780764,29.867748,29.94128,30.004395,30.071733,30.129618,30.178246,30.236286,30.28933,30.32943,30.378073,30.428413,30.470415,30.522608,30.581253,30.631168,30.681534,30.739836,30.79247,30.838356,30.893188,30.947433,30.993902,31.051617,31.115643,31.171062,31.22903,31.29192,31.346706,31.399685,31.46482,31.527506,31.58289,31.644175,31.703526,31.756382,31.823961,31.899849,31.966013,32.04489,32.14163,32.23324,32.324215,32.436493,32.545273,32.64057,32.758926,32.88291,32.990437,33.102493,33.211487,33.300835,33.401787,33.52533,33.64367,33.756927,33.899803,34.04363,34.17061,34.340195,34.52224,34.673443,34.862354,35.025547,35.111423,35.176025,35.229496,35.269096,35.295635,35.359245,35.439285,35.49856,35.56085,35.62365,35.682053,35.76127,35.83761,35.884266,35.91765,35.958603,36.006973,36.044624,36.215363,36.373737,36.366364,36.262943,36.23378,36.347313,36.05316,36.065758,36.630547,37.40168,39.27653,39.149918,34.65346,20.401054,7.956129,8.017806,7.832296,7.9591722,8.022087,8.10211,8.190186,8.251639,8.299408,8.34942,8.399843,8.45044,8.550032,8.685364,8.812075,8.974625,9.15002,9.289133,9.419586,9.528749,9.592104,9.632146,9.657764,9.667793,9.673989,9.67914,9.683196,9.687105,9.692911,9.699525,9.704875,9.71106,9.716943,9.72075,9.724004,9.725229,9.723255,9.719818,9.713682,9.705773,9.698708,9.690443,9.682515,9.676655,9.669918,9.660206,9.648185,9.633928,9.6112,9.583185,9.555635,9.519192,9.479597,9.446325,9.408092,9.369529,9.340607,9.31443,9.291695,9.278259,9.270222,9.265586
21.570633,21.580452,21.595264,21.611313,21.628199,21.650215,21.671711,21.690443,21.71196,21.730255,21.742891,21.758879,21.77639,21.791367,21.805653,21.826105,21.849852,21.875212,21.907299,21.938301,21.965551,22.000645,22.036354,22.065603,22.100773,22.139149,22.17243,22.209238,22.250198,22.28563,22.319336,22.357826,22.391634,22.418858,22.45289,22.487602,22.516476,22.550856,22.589834,22.624897,22.663,22.706535,22.745625,22.782793,22.82906,22.87429,22.913181,22.961609,23.011982,23.0546,23.1064,23.163265,23.211437,23.262981,23.320978,23.371258,23.415184,23.469166,23.522205,23.567474,23.625416,23.687908,23.741291,23.80273,23.868355,23.922976,23.978392,24.042198,24.100561,24.153654,24.21948,24.285242,24.341951,24.412731,24.485996,24.545427,24.61298,24.68525,24.745676,24.805542,24.876331,24.942963,25.002974,25.079624,25.1572,25.22232,25.299818,25.37792,25.440275,25.50891,25.58178,25.6431,25.70372,25.775806,25.843002,25.901691,25.97339,26.042501,26.097672,26.162449,26.225794,26.274227,26.326138,26.383938,26.435856,26.486448,26.549421,26.612062,26.669296,26.740473,26.812195,26.87155,26.942444,27.017223,27.079071,27.145912,27.221018,27.28769,27.3507,27.428635,27.504692,27.57057,27.653595,27.739746,27.81203,27.897438,27.989529,28.067295,28.149895,28.244043,28.328209,28.406082,28.49879,28.58487,28.655857,28.73854,28.817656,28.879974,28.951647,29.028217,29.093315,29.162521,29.245222,29.322445,29.392982,29.479137,29.561666,29.629906,29.711067,29.793015,29.86045,29.938381,30.025974,30.100323,30.164364,30.233078,30.29249,30.34261,30.402643,30.457664,30.499313,30.549656,30.601406,30.644264,30.696896,30.755356,30.804604,30.853899,30.91058,30.961674,31.006386,31.060135,31.114185,31.161364,31.220318,31.285923,31.342678,31.402386,31.467476,31.52428,31.579102,31.646107,31.710533,31.767143,31.83672,31.903152,31.954233,32.021046,32.095947,32.16075,32.23784,32.332024,32.421154,32.50998,32.619995,32.727077,32.821247,32.9387,33.062187,33.16941,33.28907,33.404396,33.493088,33.594616,33.718384,33.83638,33.949085,34.090797,34.233074,34.358597,34.526,34.705566,34.85473,35.039516,35.2054,35.300064,35.365463,35.418922,35.45983,35.489136,35.5474,35.620186,35.680428,35.742546,35.804123,35.8611,35.935574,36.021942,36.08929,36.125248,36.16389,36.206352,36.22776,36.39847,36.574287,36.58632,36.48025,36.441727,36.559948,36.322617,36.341957,36.8719,37.784145,39.69028,39.429367,34.7694,20.398577,7.935055,8.032492,7.8678226,8.000515,8.061453,8.1428795,8.232115,8.293109,8.339149,8.386944,8.43538,8.484194,8.580374,8.712015,8.836376,8.995979,9.167579,9.303265,9.433507,9.543861,9.6086445,9.651254,9.680031,9.691852,9.697837,9.702125,9.704685,9.707032,9.710657,9.714718,9.717897,9.7217045,9.724809,9.726052,9.726821,9.72494,9.719942,9.713909,9.704624,9.693428,9.683508,9.672473,9.66144,9.652498,9.642221,9.628489,9.613237,9.596446,9.571589,9.542917,9.51585,9.481328,9.445207,9.415589,9.381877,9.348935,9.325047,9.303208,9.284216,9.272963,9.2662115,9.262209
21.59385,21.607742,21.626122,21.644457,21.663536,21.687706,21.710918,21.731152,21.754671,21.77533,21.790287,21.809612,21.831203,21.849888,21.868732,21.894419,21.922625,21.952164,21.988903,22.023891,22.054417,22.093012,22.13149,22.162556,22.199589,22.23928,22.273148,22.310272,22.35132,22.386818,22.420704,22.459845,22.494751,22.523167,22.559078,22.596111,22.627121,22.664242,22.706303,22.743961,22.78473,22.83103,22.872303,22.911322,22.95964,23.006603,23.046783,23.096605,23.14798,23.19109,23.243372,23.300686,23.349281,23.401379,23.460388,23.511827,23.556705,23.611965,23.66642,23.713009,23.772694,23.837221,23.892502,23.956158,24.024097,24.08059,24.138046,24.204182,24.26463,24.319672,24.387737,24.455194,24.512774,24.58444,24.65833,24.718113,24.786167,24.859383,24.920952,24.981926,25.054089,25.122019,25.183142,25.261127,25.340044,25.406366,25.485222,25.564583,25.627832,25.697311,25.771084,25.833174,25.894371,25.966793,26.033817,26.091797,26.163025,26.23193,26.286867,26.35158,26.415478,26.464905,26.517876,26.577171,26.630554,26.682343,26.746143,26.80917,26.866776,26.938648,27.011301,27.071527,27.143333,27.218634,27.28043,27.346725,27.420683,27.48595,27.547377,27.623062,27.696732,27.760471,27.840908,27.924627,27.995098,28.078457,28.168846,28.2457,28.327549,28.421707,28.506767,28.585932,28.680946,28.769709,28.842985,28.928394,29.00991,29.073809,29.146633,29.22356,29.288296,29.356438,29.437195,29.51221,29.580486,29.664074,29.744596,29.811573,29.891762,29.973473,30.04118,30.11951,30.207907,30.283249,30.34844,30.418812,30.48004,30.53193,30.594398,30.651844,30.695337,30.747614,30.80088,30.844585,30.897442,30.955257,31.003296,31.050873,31.105043,31.15369,31.196423,31.248055,31.300863,31.34785,31.407173,31.474138,31.532698,31.594868,31.66305,31.722473,31.77939,31.848465,31.914194,31.970654,32.04495,32.11851,32.1744,32.241142,32.313347,32.37648,32.451363,32.542526,32.6287,32.714874,32.822014,32.926846,33.01943,33.13565,33.25851,33.365368,33.493168,33.61611,33.705452,33.807823,33.931923,34.049828,34.162117,34.302876,34.4438,34.567978,34.733223,34.910126,35.056908,35.23633,35.406425,35.513817,35.58061,35.634346,35.677353,35.710716,35.761616,35.82453,35.886795,35.949802,36.011322,36.06791,36.1368,36.231453,36.31984,36.36786,36.4094,36.44638,36.46108,36.62683,36.809204,36.84088,36.738358,36.69241,36.80861,36.645287,36.66162,37.119225,38.172104,40.083176,39.685753,34.98557,20.496891,7.9368386,8.052729,7.905641,8.048422,8.106638,8.190178,8.280647,8.340342,8.384771,8.429854,8.475182,8.521294,8.612264,8.738384,8.859437,9.01482,9.181651,9.313503,9.442858,9.553785,9.619698,9.664837,9.696359,9.709921,9.716941,9.721394,9.72279,9.723412,9.724684,9.72596,9.726749,9.727903,9.727948,9.726437,9.7245865,9.719547,9.711578,9.7030525,9.690605,9.676434,9.6644125,9.650702,9.636234,9.623884,9.609848,9.591932,9.573425,9.554206,9.527588,9.49893,9.473211,9.441198,9.408946,9.383432,9.355698,9.329446,9.3105755,9.293173,9.278067,9.269146,9.263773,9.26049
21.625072,21.641853,21.662708,21.682625,21.703238,21.72898,21.753513,21.774918,21.800018,21.822556,21.83937,21.861408,21.886318,21.90801,21.93063,21.96067,21.992548,22.02545,22.065907,22.104063,22.137175,22.178467,22.219007,22.251385,22.289734,22.330301,22.364515,22.40181,22.442972,22.478668,22.512836,22.5527,22.588717,22.618319,22.655962,22.69508,22.728012,22.767555,22.81231,22.852222,22.8953,22.944016,22.98728,23.028091,23.078468,23.127235,23.16882,23.220161,23.272718,23.316515,23.369484,23.427486,23.476707,23.529556,23.589676,23.64225,23.688047,23.744423,23.799978,23.847538,23.908344,23.97411,24.030567,24.095572,24.16494,24.222643,24.281517,24.349361,24.411394,24.467926,24.537683,24.6064,24.664625,24.736885,24.811256,24.871445,24.940084,25.014278,25.07695,25.138979,25.212273,25.281116,25.34299,25.421627,25.501017,25.56778,25.646973,25.726536,25.789911,25.859514,25.933523,25.995907,26.057312,26.129715,26.196339,26.25365,26.323807,26.391783,26.446323,26.511047,26.576036,26.627243,26.682388,26.744072,26.799297,26.852776,26.918121,26.982304,27.040977,27.114372,27.188745,27.250473,27.323935,27.400574,27.46304,27.529575,27.60326,27.667862,27.728312,27.802448,27.874355,27.93645,28.014805,28.096428,28.165237,28.246706,28.335468,28.411385,28.492474,28.586514,28.672197,28.75235,28.848976,28.939545,29.014381,29.101833,29.18544,29.250965,29.325043,29.402517,29.46709,29.534435,29.613552,29.686638,29.753014,29.834515,29.913479,29.979507,30.059124,30.140884,30.20895,30.287766,30.37695,30.453197,30.519474,30.59142,30.654354,30.707886,30.772558,30.832108,30.87714,30.930946,30.98528,31.029465,31.08213,31.138905,31.185467,31.231148,31.282677,31.328781,31.369436,31.418858,31.470085,31.51623,31.575127,31.642847,31.703003,31.767353,31.838326,31.90013,31.95897,32.02999,32.09706,32.15418,32.228256,32.304653,32.367893,32.437798,32.509617,32.571373,32.644432,32.733086,32.816887,32.900864,33.0056,33.108513,33.199654,33.314735,33.43695,33.543423,33.67507,33.803986,33.897346,34.00058,34.124504,34.242287,34.354187,34.49424,34.634224,34.7574,34.92095,35.0956,35.240257,35.414757,35.58963,35.710342,35.779846,35.83486,35.88024,35.917915,35.96183,36.01518,36.07945,36.14406,36.20665,36.26378,36.33168,36.429165,36.52672,36.597557,36.650185,36.68315,36.701134,36.863018,37.047623,37.100464,36.997223,36.936634,37.046,36.95801,36.969177,37.339203,38.504444,40.268623,39.655838,35.20453,20.700245,7.969851,8.074382,7.9348135,8.091138,8.148396,8.234446,8.32648,8.385295,8.427712,8.469488,8.5111,8.553715,8.638731,8.758553,8.875355,9.025684,9.187828,9.316498,9.442926,9.552855,9.61981,9.666369,9.699362,9.714138,9.722631,9.727922,9.728935,9.728504,9.728159,9.727322,9.72619,9.72517,9.722741,9.71909,9.715267,9.707947,9.697929,9.687731,9.673273,9.657305,9.644048,9.6280985,9.610561,9.595348,9.578225,9.5569725,9.535993,9.515083,9.487607,9.459511,9.435074,9.405578,9.377293,9.355999,9.334171,9.313801,9.29874,9.285044,9.273279,9.266424,9.262323,9.259819
21.663849,21.682571,21.705048,21.725964,21.747585,21.774422,21.799915,21.822174,21.848427,21.872345,21.89053,21.914543,21.941849,21.965698,21.991074,22.024227,22.058647,22.09386,22.136824,22.177073,22.211882,22.254889,22.296654,22.329735,22.368778,22.409754,22.444077,22.481478,22.522839,22.558863,22.59346,22.63417,22.671318,22.70204,22.741276,22.782232,22.816814,22.858353,22.90527,22.94698,22.991894,23.042599,23.087563,23.129944,23.182215,23.23271,23.275671,23.328545,23.38235,23.42694,23.480751,23.539604,23.589579,23.643253,23.704487,23.758144,23.804823,23.862198,23.918648,23.966942,24.028534,24.09507,24.152203,24.217941,24.288124,24.346615,24.406487,24.475613,24.538876,24.596588,24.667698,24.737442,24.796217,24.868975,24.943785,25.004387,25.073618,25.14877,25.21249,25.275513,25.349838,25.419453,25.481937,25.561033,25.640633,25.707506,25.78669,25.866114,25.929342,25.998804,26.072838,26.135374,26.196896,26.269184,26.335365,26.392014,26.461262,26.528482,26.582634,26.647163,26.712736,26.765095,26.821602,26.884819,26.941284,26.99593,27.062359,27.12735,27.186758,27.261301,27.336998,27.399834,27.474514,27.552128,27.61507,27.681751,27.755196,27.819256,27.878906,27.951809,28.022324,28.083122,28.159777,28.23962,28.306963,28.3868,28.474129,28.549164,28.629581,28.723507,28.80963,28.89035,28.987957,29.0797,29.155598,29.24448,29.329435,29.395813,29.470743,29.548855,29.613613,29.680435,29.758211,29.829681,29.894543,29.97436,30.052109,30.117514,30.19677,30.278637,30.347054,30.42631,30.516157,30.593166,30.66042,30.733849,30.7984,30.853481,30.919931,30.980955,31.02701,31.081806,31.1367,31.18095,31.233143,31.28874,31.333864,31.377827,31.427101,31.471115,31.510088,31.557745,31.607773,31.653362,31.711998,31.780087,31.840977,31.906364,31.978914,32.042427,32.10316,32.176422,32.24512,32.303036,32.376915,32.45304,32.516884,32.594467,32.672325,32.73282,32.80422,32.8909,32.973392,33.056053,33.159367,33.26115,33.351456,33.465733,33.587433,33.69364,33.823353,33.955376,34.056404,34.160492,34.283585,34.40101,34.512527,34.652054,34.791405,34.913933,35.07624,35.249184,35.392246,35.562737,35.742004,35.87455,35.94732,36.004032,36.05143,36.092846,36.130917,36.176025,36.24155,36.307457,36.371105,36.42875,36.497147,36.592026,36.689426,36.78798,36.856586,36.88571,36.906334,37.06447,37.256065,37.341137,37.22637,37.13862,37.24496,37.22741,37.24258,37.536697,38.799904,40.210884,39.23629,35.342197,20.959291,8.014886,8.093376,7.955188,8.125969,8.184227,8.272509,8.366682,8.426096,8.4655,8.503294,8.541358,8.580507,8.65984,8.7735615,8.885977,9.030983,9.189064,9.315802,9.437386,9.545212,9.613897,9.661003,9.6952,9.711113,9.719725,9.725129,9.726201,9.725763,9.724796,9.722694,9.720208,9.7176075,9.713398,9.708269,9.703129,9.69434,9.683084,9.671928,9.656906,9.640155,9.625502,9.607721,9.587862,9.570487,9.551018,9.527298,9.504609,9.482658,9.455181,9.427795,9.403524,9.376381,9.352665,9.336084,9.318853,9.302616,9.290485,9.279673,9.270525,9.26529,9.262208,9.260387
21.721165,21.741848,21.765942,21.78785,21.810484,21.838451,21.864986,21.888182,21.915668,21.940998,21.960545,21.986515,22.016174,22.042126,22.07021,22.106419,22.1433,22.180706,22.225983,22.268131,22.304518,22.349041,22.391819,22.425463,22.465147,22.506521,22.540932,22.578522,22.620346,22.657032,22.692337,22.734215,22.772785,22.80486,22.845982,22.889034,22.925423,22.969156,23.01841,23.062023,23.108902,23.161732,23.208551,23.252728,23.307175,23.359655,23.404186,23.45882,23.514145,23.55979,23.61474,23.674812,23.725883,23.780746,23.843447,23.898468,23.946316,24.004932,24.06244,24.111622,24.174095,24.241371,24.299072,24.36547,24.436403,24.495605,24.55645,24.626904,24.691444,24.75024,24.822618,24.893341,24.952625,25.025856,25.10117,25.162334,25.232357,25.308662,25.373554,25.437725,25.513168,25.58357,25.646698,25.726141,25.805683,25.872395,25.951237,26.030128,26.09285,26.1619,26.235712,26.298195,26.35962,26.431568,26.497124,26.55297,26.621155,26.687532,26.74131,26.805773,26.872066,26.92564,26.983624,27.048508,27.10633,27.162266,27.229994,27.29606,27.35643,27.432358,27.50954,27.573563,27.649559,27.728271,27.791813,27.858772,27.932169,27.99592,28.055056,28.127052,28.196487,28.256306,28.331572,28.409859,28.47588,28.554237,28.640186,28.714312,28.794125,28.88791,28.9743,29.055325,29.153536,29.246078,29.322742,29.412806,29.499,29.566254,29.64191,29.720486,29.785336,29.851654,29.928288,29.998444,30.06213,30.140713,30.217665,30.282736,30.36197,30.44416,30.512959,30.592693,30.683077,30.760597,30.828619,30.903315,30.969223,31.02539,31.093521,31.15633,31.20377,31.259499,31.314579,31.358553,31.409931,31.464006,31.507471,31.54972,31.59686,31.638931,31.676342,31.722359,31.771194,31.816109,31.87437,31.9427,32.004204,32.07044,32.144226,32.20896,32.270798,32.34516,32.414757,32.473534,32.548286,32.624954,32.688934,32.767174,32.848415,32.91427,32.992683,33.08137,33.160435,33.24192,33.34429,33.445377,33.53504,33.648525,33.769386,33.874855,34.00202,34.13671,34.24514,34.349033,34.470123,34.58644,34.696915,34.835274,34.973526,35.095066,35.255905,35.426987,35.56826,35.736137,35.91455,36.050438,36.138687,36.206367,36.254906,36.299984,36.34027,36.38244,36.439606,36.50428,36.570778,36.62925,36.69835,36.790993,36.888626,37.013844,37.100403,37.129158,37.15289,37.303043,37.50374,37.637825,37.519028,37.386997,37.459755,37.539948,37.580765,37.782524,39.138508,40.077614,38.620274,35.33998,21.220709,8.143365,8.118777,7.952677,8.148022,8.226301,8.319643,8.414179,8.474067,8.510318,8.543526,8.576799,8.610745,8.682295,8.787861,8.89416,9.031509,9.1831875,9.306376,9.42198,9.525724,9.59408,9.641692,9.676592,9.693085,9.702438,9.708351,9.709468,9.70883,9.707209,9.70411,9.700743,9.697182,9.692068,9.686431,9.681166,9.672307,9.661007,9.649894,9.634563,9.616944,9.6011715,9.581766,9.559748,9.540356,9.518771,9.492948,9.468973,9.44667,9.418375,9.391043,9.368635,9.345343,9.326679,9.314358,9.301361,9.289154,9.280138,9.272318,9.265967,9.262574,9.260725,9.25986
21.793322,21.815733,21.841284,21.86412,21.887733,21.91686,21.944485,21.968643,21.997322,22.023909,22.04459,22.072117,22.103626,22.131252,22.161526,22.200157,22.238941,22.277998,22.324938,22.368397,22.405886,22.45142,22.494843,22.52884,22.569033,22.610813,22.645428,22.683468,22.726162,22.763893,22.800213,22.843538,22.883669,22.91713,22.960093,23.005093,23.043118,23.088821,23.140118,23.185356,23.233913,23.288588,23.337069,23.3829,23.439365,23.493673,23.539616,23.595873,23.652681,23.699446,23.755692,23.817225,23.869617,23.925877,23.990173,24.04659,24.09568,24.155605,24.214197,24.26428,24.32761,24.395493,24.453564,24.52044,24.591904,24.651625,24.713242,24.784801,24.850384,24.909966,24.983252,25.05468,25.114332,25.187952,25.263813,25.325665,25.396587,25.47408,25.5401,25.605412,25.681934,25.753054,25.81678,25.896461,25.975754,26.042057,26.120258,26.198318,26.260288,26.328655,26.401936,26.46407,26.52509,26.596401,26.661167,26.716164,26.783344,26.849047,26.90263,26.967216,27.034304,27.08902,27.148367,27.214779,27.273855,27.331005,27.40011,27.467377,27.52872,27.60592,27.684319,27.749191,27.826078,27.905527,27.969503,28.036701,28.110207,28.173954,28.232967,28.30465,28.373667,28.433125,28.507736,28.585114,28.650234,28.72755,28.812391,28.88565,28.964802,29.058105,29.14423,29.22504,29.323158,29.41578,29.49255,29.58311,29.670033,29.737858,29.81395,29.892796,29.95771,30.023754,30.09975,30.16925,30.232483,30.310728,30.387644,30.452906,30.532623,30.615395,30.684578,30.764708,30.85535,30.932987,31.001265,31.076471,31.14298,31.19958,31.26865,31.33261,31.380943,31.437206,31.492222,31.535763,31.586117,31.638561,31.68043,31.721176,31.766666,31.807426,31.843872,31.889122,31.93776,31.9829,32.041283,32.109715,32.171368,32.237915,32.31213,32.377182,32.439095,32.513344,32.582893,32.641945,32.717194,32.794327,32.858543,32.935413,33.01786,33.088573,33.173267,33.26887,33.352142,33.434364,33.536762,33.63772,33.72715,33.840103,33.959953,34.064224,34.18826,34.32419,34.438248,34.541214,34.65947,34.77366,34.8823,35.018753,35.15543,35.27568,35.434814,35.60398,35.743538,35.90981,36.084694,36.21923,36.328598,36.411575,36.46073,36.509182,36.55608,36.59883,36.643578,36.705997,36.7761,36.8355,36.905426,36.996284,37.093933,37.240425,37.342377,37.372093,37.39854,37.537437,37.74803,37.94036,37.83976,37.660526,37.660027,37.773964,37.850098,38.034203,39.447556,40.03074,38.17327,35.147503,21.370071,8.400926,8.155069,7.917597,8.14843,8.267641,8.369217,8.4622345,8.522638,8.55682,8.586154,8.614265,8.641965,8.70466,8.800691,8.899051,9.027304,9.170801,9.288537,9.398777,9.497175,9.561972,9.608777,9.644075,9.661524,9.67173,9.678431,9.6799965,9.679519,9.677874,9.674649,9.6712265,9.66766,9.662817,9.65777,9.653356,9.645776,9.635691,9.625471,9.610364,9.592226,9.575797,9.5553,9.531704,9.510801,9.487743,9.460683,9.436221,9.414152,9.38576,9.359258,9.339574,9.320229,9.305678,9.29631,9.286078,9.276674,9.27014,9.264743,9.26075,9.258986,9.258277,9.25837
21.862877,21.886654,21.913414,21.93709,21.961601,21.991838,22.0205,22.045528,22.075253,22.102848,22.124363,22.15295,22.185696,22.214466,22.246256,22.28653,22.326542,22.366636,22.414566,22.458755,22.496834,22.542906,22.58668,22.620903,22.661469,22.70366,22.738628,22.777328,22.821089,22.85996,22.897366,22.942099,22.983612,23.018234,23.06264,23.109098,23.14833,23.195475,23.24821,23.294544,23.34425,23.400202,23.449863,23.496872,23.554762,23.610344,23.657236,23.714638,23.772568,23.82022,23.87761,23.940495,23.994095,24.051609,24.11727,24.174835,24.224953,24.285995,24.345543,24.396389,24.460463,24.528849,24.587177,24.654377,24.726192,24.786243,24.84837,24.920643,24.986874,25.046898,25.120665,25.192463,25.252316,25.326221,25.402594,25.465088,25.5368,25.61528,25.682207,25.748444,25.825844,25.897545,25.961735,26.0416,26.120636,26.1865,26.264048,26.3413,26.40258,26.470217,26.542831,26.604477,26.664944,26.735514,26.799526,26.853811,26.920284,26.985645,27.039276,27.104147,27.172,27.227695,27.288162,27.355782,27.415852,27.474,27.544321,27.612637,27.67472,27.752796,27.83188,27.89711,27.974285,28.053913,28.118008,28.185295,28.258928,28.322823,28.381943,28.453747,28.52287,28.582426,28.657013,28.734093,28.798752,28.875488,28.95957,29.03209,29.110523,29.203003,29.288412,29.36864,29.466179,29.558327,29.634678,29.7251,29.812153,29.88012,29.95636,30.035343,30.10034,30.166355,30.242184,30.311565,30.37492,30.453484,30.530903,30.596706,30.677189,30.760641,30.830183,30.910587,31.001297,31.078833,31.14696,31.222004,31.288456,31.345093,31.414305,31.478401,31.52676,31.583118,31.638062,31.681284,31.730783,31.78196,31.822674,31.862362,31.906858,31.947052,31.9832,32.028564,32.077934,32.12415,32.183197,32.251778,32.3133,32.379715,32.453693,32.51843,32.579914,32.653618,32.722656,32.781265,32.855774,32.932713,32.99765,33.07638,33.159843,33.22992,33.313385,33.416534,33.51205,33.597935,33.70176,33.802776,33.8923,34.005024,34.124023,34.227062,34.34824,34.48385,34.600708,34.703407,34.819473,34.93105,35.037643,35.17198,35.306965,35.425903,35.583324,35.750713,35.888844,36.053505,36.2265,36.361702,36.486916,36.581314,36.631264,36.682632,36.733917,36.776634,36.81314,36.87431,36.947105,37.007195,37.07785,37.167473,37.26467,37.423897,37.535484,37.56614,37.5941,37.72265,37.94066,38.18001,38.11409,37.90339,37.817795,37.876823,37.979416,38.236862,39.672066,40.13633,38.09092,34.905132,21.429832,8.740278,8.199709,7.8657265,8.134589,8.297169,8.409771,8.502972,8.564032,8.597946,8.624786,8.64823,8.6702385,8.725105,8.812405,8.9028845,9.022715,9.158224,9.27,9.376464,9.4702215,9.530374,9.575106,9.610664,9.629675,9.640428,9.6479645,9.6504345,9.650635,9.649647,9.647013,9.644068,9.641025,9.636978,9.632843,9.629288,9.623122,9.61445,9.605132,9.590601,9.572474,9.555766,9.534657,9.510157,9.488467,9.464734,9.43735,9.413068,9.391311,9.364214,9.339817,9.322261,9.305485,9.29332,9.285627,9.276699,9.268667,9.263582,9.25967,9.257149,9.256392,9.256374,9.257055
21.943104,21.9682,21.996197,22.020813,22.046337,22.077808,22.107632,22.133678,22.164566,22.193218,22.215567,22.24516,22.278992,22.308739,22.341816,22.383446,22.424423,22.46527,22.513844,22.558441,22.596825,22.64309,22.686974,22.721329,22.762161,22.804783,22.840237,22.879814,22.924948,22.965244,23.003967,23.050339,23.093384,23.129238,23.175117,23.223003,23.26337,23.311825,23.365818,23.413086,23.463753,23.52075,23.571331,23.619263,23.678265,23.734833,23.782463,23.840801,23.899769,23.948376,24.00708,24.071556,24.126556,24.185505,24.2527,24.311539,24.362831,24.425169,24.485832,24.53759,24.602566,24.67161,24.730312,24.7979,24.87003,24.930313,24.992767,25.065464,25.132011,25.192152,25.266052,25.337994,25.39795,25.472122,25.549042,25.61221,25.68478,25.764297,25.83213,25.89925,25.977512,26.04977,26.114304,26.19421,26.272865,26.338165,26.414902,26.491138,26.551502,26.618279,26.690063,26.75103,26.810762,26.880487,26.943789,26.997494,27.06351,27.12886,27.182827,27.248388,27.317371,27.374231,27.435986,27.504976,27.56618,27.62547,27.697124,27.766556,27.82941,27.908314,27.987946,28.053368,28.130617,28.21024,28.27435,28.34173,28.415607,28.479832,28.539299,28.611607,28.681248,28.741238,28.816227,28.893415,28.957901,29.034348,29.117863,29.189709,29.267426,29.358845,29.443146,29.522465,29.618923,29.71006,29.785534,29.875233,29.961853,30.029575,30.105564,30.184444,30.249477,30.31551,30.39146,30.461124,30.524961,30.60434,30.68275,30.749485,30.831099,30.915503,30.985558,31.06635,31.157122,31.234468,31.302347,31.377012,31.443138,31.49964,31.56873,31.632725,31.681007,31.737183,31.791695,31.834362,31.883104,31.933414,31.973518,32.012863,32.057247,32.097534,32.133858,32.17944,32.22891,32.275005,32.33465,32.40422,32.466393,32.532234,32.605263,32.66932,32.729958,32.80262,32.870758,32.928673,33.002483,33.079185,33.144363,33.223698,33.30935,33.38247,33.467567,33.57222,33.671875,33.771492,33.88203,33.981255,34.071194,34.18387,34.301987,34.403763,34.522655,34.654976,34.76944,34.875587,34.992332,35.100105,35.204197,35.335884,35.46869,35.585907,35.741253,35.906555,36.042973,36.205784,36.377052,36.51346,36.65606,36.761826,36.811222,36.865677,36.921505,36.96398,36.991714,37.051445,37.12693,37.187614,37.258965,37.34823,37.44415,37.600166,37.71959,37.76255,37.790897,37.910084,38.129997,38.39708,38.37027,38.13872,37.96575,37.973408,38.107464,38.441673,39.910675,40.207092,37.953514,34.76842,21.709324,9.2592,8.266624,7.7894907,8.108997,8.311086,8.446127,8.549888,8.612467,8.648557,8.671938,8.687418,8.702026,8.748405,8.827272,8.910162,9.019432,9.144491,9.249448,9.3499975,9.4399,9.498333,9.540666,9.575039,9.594731,9.606871,9.615923,9.619524,9.62035,9.619984,9.618159,9.616116,9.613899,9.610814,9.607601,9.6049595,9.599838,9.592137,9.583711,9.570192,9.552761,9.536285,9.514321,9.489426,9.46855,9.445681,9.419657,9.396648,9.375395,9.349686,9.327535,9.312349,9.297925,9.287643,9.281272,9.273327,9.266299,9.262245,9.25925,9.257352,9.256729,9.256601,9.257183
22.046635,22.073092,22.102406,22.128128,22.1549,22.187925,22.219229,22.246605,22.279022,22.309034,22.332426,22.363142,22.39811,22.428846,22.463219,22.506065,22.547737,22.58905,22.637836,22.68239,22.720665,22.766674,22.810364,22.844734,22.885807,22.929003,22.965199,23.005997,23.05296,23.095095,23.135523,23.183884,23.228695,23.265968,23.31342,23.36274,23.404255,23.453953,23.509008,23.556938,23.608238,23.66579,23.716763,23.765062,23.824406,23.881216,23.929043,23.987734,24.047363,24.096794,24.15678,24.222977,24.279572,24.340176,24.409191,24.469612,24.522385,24.586475,24.648796,24.701988,24.768528,24.838821,24.898273,24.966572,25.039158,25.099586,25.162115,25.234726,25.301006,25.360706,25.434034,25.505497,25.565151,25.639256,25.716545,25.780313,25.853683,25.934183,26.00285,26.070738,26.149643,26.2222,26.286873,26.366535,26.444435,26.508806,26.584272,26.658993,26.718002,26.783356,26.853708,26.913551,26.972164,27.040714,27.103176,27.156345,27.222143,27.287914,27.342686,27.409508,27.480236,27.538765,27.602303,27.673141,27.735851,27.79662,27.869917,27.940617,28.004282,28.08387,28.163742,28.229046,28.305965,28.385258,28.449295,28.516815,28.591152,28.656012,28.716167,28.789492,28.860212,28.921124,28.997112,29.074995,29.139755,29.216331,29.299534,29.37075,29.4477,29.537788,29.620506,29.698246,29.79263,29.881683,29.955336,30.043186,30.128368,30.195175,30.270374,30.348808,30.413755,30.479927,30.556349,30.626791,30.69168,30.772598,30.852673,30.920849,31.004147,31.089912,31.160683,31.242083,31.333036,31.410172,31.477703,31.551718,31.617096,31.672935,31.741184,31.804401,31.852116,31.907646,31.961596,32.003906,32.052444,32.10276,32.1431,32.183006,32.228386,32.269733,32.30693,32.35334,32.40312,32.449005,32.50854,32.578243,32.640682,32.706512,32.77871,32.841415,32.90083,32.972065,33.039043,33.096107,33.169266,33.24595,33.311623,33.392105,33.48048,33.55705,33.64574,33.7529,33.855145,33.96286,34.083504,34.18872,34.278618,34.391026,34.508278,34.608673,34.725296,34.853462,34.9641,35.073906,35.1913,35.29454,35.39556,35.523937,35.653954,35.768944,35.92166,36.084396,36.21875,36.37931,36.549633,36.688095,36.841244,36.95938,37.01616,37.074142,37.134544,37.176674,37.195045,37.252274,37.32984,37.3915,37.46412,37.553856,37.648533,37.79837,37.92039,37.971207,37.998077,38.10917,38.323647,38.594154,38.609684,38.3717,38.11414,38.06636,38.237297,38.66417,40.16275,40.348507,37.989902,34.8964,22.330236,10.054241,8.384176,7.688997,8.060455,8.2801485,8.469454,8.612135,8.67356,8.714624,8.73476,8.740995,8.749582,8.784962,8.851389,8.925304,9.021994,9.133668,9.22875,9.320939,9.405273,9.4614315,9.502001,9.534908,9.554409,9.567823,9.579649,9.586418,9.589373,9.590778,9.590139,9.58885,9.587738,9.586031,9.584045,9.58249,9.578449,9.571585,9.563861,9.551008,9.534096,9.518019,9.496964,9.473308,9.453581,9.432262,9.4080925,9.386603,9.366297,9.342847,9.32359,9.310649,9.298538,9.289734,9.283836,9.2761545,9.269172,9.265087,9.261879,9.259634,9.258701,9.258381,9.258738
22.15147,22.179096,22.209637,22.236465,22.264523,22.299198,22.3321,22.360935,22.395084,22.42669,22.451298,22.483273,22.51944,22.55119,22.586807,22.6307,22.672838,22.714388,22.763088,22.807276,22.84514,22.890583,22.933884,22.968204,23.009449,23.053242,23.090263,23.132332,23.181145,23.22511,23.267246,23.317541,23.364014,23.402624,23.451458,23.501976,23.544458,23.595173,23.650967,23.699215,23.750732,23.808298,23.859089,23.90711,23.965958,24.022251,24.069706,24.128117,24.187904,24.237877,24.29884,24.366512,24.424553,24.48664,24.557384,24.61939,24.67366,24.739597,24.803757,24.858604,24.927029,24.998901,25.059341,25.128523,25.201595,25.262072,25.324375,25.396389,25.461872,25.52068,25.59287,25.663359,25.7224,25.796108,25.873495,25.937675,26.01161,26.092812,26.162064,26.230448,26.309614,26.382118,26.446674,26.525818,26.602755,26.666039,26.740063,26.81313,26.8707,26.934383,27.003056,27.061651,27.119114,27.186527,27.248291,27.30118,27.367132,27.433743,27.489681,27.558113,27.630863,27.691256,27.756716,27.829506,27.893745,27.955967,28.030785,28.102547,28.166828,28.246742,28.326475,28.39141,28.467709,28.546461,28.610355,28.67802,28.752882,28.818474,28.879452,28.953999,29.026014,29.088037,29.16532,29.244251,29.309618,29.38665,29.469799,29.540546,29.616821,29.705605,29.786636,29.86248,29.954252,30.040617,30.111961,30.197254,30.280329,30.345795,30.419882,30.497654,30.562412,30.628778,30.70587,30.777332,30.843517,30.926231,31.008137,31.077858,31.162922,31.250078,31.321587,31.40366,31.494892,31.57188,31.6391,31.712408,31.77687,31.831734,31.898668,31.96064,32.007454,32.062122,32.11567,32.158043,32.20705,32.258263,32.2996,32.340714,32.38781,32.430798,32.469265,32.51687,32.567204,32.613068,32.671913,32.740643,32.802532,32.868607,32.94055,33.00221,33.060524,33.130497,33.196503,33.252888,33.325653,33.40265,33.46911,33.551304,33.642136,33.721115,33.813965,33.925526,34.03032,34.13729,34.266705,34.38298,34.47326,34.585533,34.70195,34.80117,34.91588,35.040936,35.14891,35.261345,35.378754,35.47799,35.57618,35.701412,35.828674,35.94139,36.091385,36.251465,36.383705,36.541862,36.71194,36.8526,37.006645,37.136078,37.2078,37.26892,37.332497,37.374878,37.388187,37.44023,37.515827,37.579174,37.65358,37.744457,37.83873,37.98619,38.105385,38.154366,38.18068,38.287056,38.492355,38.750145,38.808914,38.57599,38.241707,38.149826,38.34626,38.82837,40.226,40.598755,38.511795,35.17818,23.18332,11.235483,8.584394,7.579708,8.011421,8.220419,8.475269,8.672487,8.733386,8.78201,8.801138,8.79999,8.805391,8.829556,8.881582,8.945953,9.031192,9.130543,9.215363,9.298805,9.376415,9.429195,9.468593,9.500593,9.519669,9.533448,9.547091,9.55674,9.562286,9.566055,9.567057,9.566635,9.566689,9.566286,9.5653515,9.564633,9.561417,9.555151,9.547836,9.535244,9.518638,9.503072,9.484133,9.462589,9.44375,9.423773,9.401281,9.381431,9.362705,9.342001,9.325476,9.3140745,9.303589,9.295526,9.289364,9.28152,9.274097,9.269396,9.265525,9.262722,9.261545,9.261176,9.261365
22.2436,22.27221,22.303883,22.331816,22.361118,22.397396,22.43188,22.462162,22.4981,22.531391,22.557316,22.590675,22.628132,22.660917,22.697733,22.742609,22.785189,22.826937,22.875544,22.919363,22.956764,23.001602,23.044508,23.078812,23.120161,23.164448,23.20223,23.24545,23.295914,23.3415,23.385155,23.43719,23.48515,23.524933,23.574932,23.626434,23.669708,23.72126,23.777618,23.826046,23.877617,23.935007,23.985435,24.032932,24.091015,24.146597,24.193535,24.251495,24.311293,24.361712,24.42351,24.492447,24.551733,24.615076,24.687302,24.75071,24.806309,24.873861,24.939627,24.995953,25.066029,25.139328,25.200722,25.27066,25.34409,25.404514,25.466427,25.53764,25.602158,25.659977,25.73095,25.80045,25.858904,25.932196,26.009613,26.074131,26.148493,26.230238,26.299934,26.368654,26.447914,26.520226,26.584538,26.663105,26.739136,26.801445,26.874195,26.945839,27.002207,27.064407,27.13161,27.189194,27.24576,27.312359,27.373753,27.42667,27.4931,27.560787,27.61803,27.688145,27.762852,27.824951,27.892174,27.966671,28.032187,28.095608,28.171602,28.244104,28.30874,28.38872,28.468132,28.532642,28.60829,28.68647,28.750147,28.81789,28.893179,28.959389,29.021118,29.096794,29.16999,29.233,29.311497,29.391468,29.457466,29.535004,29.618195,29.688564,29.764246,29.851822,29.931252,30.00531,30.094563,30.17833,30.247501,30.330269,30.4112,30.475327,30.548315,30.625431,30.689995,30.75655,30.834326,30.906784,30.974167,31.058481,31.141998,31.213062,31.29963,31.387968,31.460115,31.542767,31.634262,31.711164,31.77812,31.85081,31.914423,31.968418,32.03406,32.094772,32.140728,32.19464,32.247963,32.290607,32.34034,32.3927,32.435184,32.477604,32.52642,32.57099,32.61067,32.659344,32.71012,32.75589,32.814266,32.882084,32.943047,33.008507,33.080433,33.14225,33.19967,33.268616,33.33393,33.38978,33.4623,33.53966,33.606853,33.690567,33.78358,33.86469,33.96103,34.076004,34.182903,34.29112,34.426254,34.54905,34.641037,34.753685,34.86922,34.96752,35.080803,35.203495,35.309555,35.425507,35.54345,35.638794,35.73465,35.857246,35.98206,36.092644,36.23999,36.397423,36.527596,36.68327,36.853123,36.99579,37.14829,37.28738,37.373978,37.437553,37.502724,37.54666,37.562103,37.605507,37.673088,37.73889,37.815147,37.907555,38.002098,38.14861,38.26355,38.308784,38.338005,38.44253,38.641613,38.89157,39.00048,38.765144,38.33291,38.218147,38.431465,38.90197,39.963547,40.998466,39.70611,35.24814,23.918211,12.789044,8.848015,7.459382,7.9839067,8.17383,8.481016,8.723696,8.784215,8.842149,8.862757,8.855772,8.858502,8.87233,8.910578,8.965246,9.04117,9.131454,9.208273,9.28392,9.355158,9.404606,9.441994,9.473541,9.492973,9.506329,9.518444,9.52741,9.534311,9.54009,9.5436325,9.545248,9.546642,9.547146,9.546726,9.546384,9.543586,9.5377655,9.530886,9.51896,9.503271,9.488667,9.471079,9.450955,9.433152,9.414112,9.393578,9.376281,9.359861,9.341908,9.327469,9.317091,9.307211,9.29907,9.292536,9.284661,9.277208,9.272389,9.268724,9.2662735,9.265306,9.26485,9.264814
22.35233,22.382078,22.41512,22.444416,22.475273,22.513548,22.550026,22.582207,22.620571,22.656258,22.68411,22.719494,22.758862,22.793194,22.831718,22.878008,22.921284,22.96344,23.012085,23.055542,23.092377,23.136463,23.17887,23.213102,23.254475,23.299213,23.337803,23.38227,23.434532,23.481888,23.527258,23.581295,23.631012,23.672197,23.723598,23.776297,23.82058,23.873177,23.93026,23.97893,24.030575,24.087763,24.137728,24.184494,24.241512,24.29612,24.3424,24.399784,24.459568,24.510506,24.573307,24.643764,24.704508,24.7693,24.843254,24.908314,24.965519,25.034992,25.102654,25.160732,25.232811,25.307812,25.370304,25.44109,25.51489,25.575214,25.636518,25.706537,25.7697,25.826221,25.895615,25.963844,26.021564,26.09433,26.171753,26.236633,26.31144,26.39373,26.463848,26.532848,26.612059,26.68397,26.74781,26.825546,26.900421,26.961529,27.032715,27.102695,27.157719,27.218243,27.283812,27.340328,27.396027,27.461971,27.523285,27.576614,27.644049,27.713348,27.77235,27.844664,27.921835,27.986032,28.055317,28.131699,28.198524,28.263126,28.340143,28.413143,28.477922,28.557686,28.636547,28.700487,28.77531,28.852816,28.916283,28.984116,29.059872,29.126778,29.18935,29.266317,29.34093,29.405182,29.485199,29.56656,29.63353,29.711903,29.795334,29.865356,29.94038,30.026512,30.103989,30.175823,30.261967,30.342518,30.408943,30.488499,30.566654,30.628998,30.70048,30.776636,30.84085,30.90753,30.986061,31.059692,31.128416,31.214584,31.300016,31.37274,31.461063,31.550722,31.623562,31.706808,31.798561,31.875362,31.942,32.013958,32.07661,32.129623,32.193756,32.25299,32.298004,32.351173,32.404327,32.447292,32.4979,32.551773,32.59588,32.6401,32.691116,32.737583,32.77868,32.82858,32.879807,32.925377,32.983154,33.049973,33.109993,33.174496,33.246044,33.3082,33.36632,33.435154,33.499763,33.555412,33.628162,33.70629,33.774376,33.85986,33.955193,34.038322,34.136974,34.255417,34.365555,34.47506,34.61187,34.738686,34.83864,34.95336,35.06661,35.163948,35.275696,35.396103,35.50038,35.618664,35.73859,35.833164,35.926727,36.046307,36.16828,36.276417,36.420586,36.57467,36.70208,36.854767,37.0224,37.16455,37.3165,37.469254,37.574234,37.63954,37.705524,37.750694,37.76806,37.800007,37.85725,37.926132,38.004944,38.099503,38.194405,38.33936,38.450302,38.49436,38.533012,38.635468,38.8232,39.060013,39.262043,39.09476,38.60956,38.36702,38.49209,38.930885,39.64353,40.989357,40.448784,36.118774,26.31109,15.718607,9.406064,7.2875156,7.9763217,8.126556,8.431421,8.722443,8.841036,8.9145775,8.937532,8.92657,8.925234,8.934048,8.96286,9.0035305,9.066519,9.1455,9.213681,9.280525,9.343964,9.388936,9.424465,9.455446,9.475025,9.488333,9.500198,9.508479,9.514418,9.519791,9.523573,9.525726,9.527855,9.5289955,9.528799,9.528423,9.525536,9.519712,9.512948,9.501297,9.485798,9.471125,9.453216,9.433528,9.417054,9.399533,9.380926,9.365648,9.3517275,9.336422,9.324034,9.315258,9.306627,9.299073,9.292771,9.286519,9.280715,9.2764225,9.272682,9.269506,9.267531,9.266077,9.264958
22.456501,22.487484,22.522064,22.552914,22.585487,22.625938,22.664608,22.698887,22.740055,22.778618,22.808847,22.846767,22.888557,22.924839,22.965523,23.013662,23.057968,23.100872,23.149931,23.1933,23.229725,23.273247,23.315277,23.349478,23.390884,23.436012,23.47528,23.52082,23.574615,23.623478,23.670326,23.726109,23.77737,23.819798,23.872417,23.926172,23.97137,24.025003,24.082863,24.131836,24.183651,24.240742,24.290298,24.336317,24.392262,24.445919,24.491615,24.548504,24.608334,24.659811,24.723606,24.79551,24.857609,24.923708,24.999197,25.065748,25.12444,25.195648,25.265015,25.324703,25.398674,25.47535,25.538937,25.6106,25.684875,25.745216,25.806005,25.874933,25.936848,25.992239,26.060238,26.127377,26.184563,26.256992,26.334528,26.39978,26.474987,26.557678,26.628036,26.69714,26.776073,26.847383,26.910599,26.987423,27.061182,27.121162,27.190998,27.259651,27.31365,27.372822,27.437128,27.492926,27.548157,27.613966,27.675732,27.730007,27.799,27.87029,27.931215,28.005817,28.085339,28.151363,28.222351,28.300114,28.367744,28.43301,28.510456,28.58347,28.648048,28.727314,28.805511,28.868889,28.942913,29.019768,29.083025,29.150948,29.227098,29.294579,29.357937,29.436148,29.512157,29.577652,29.659256,29.74213,29.810211,29.889555,29.973366,30.043137,30.117523,30.20224,30.277834,30.3475,30.43066,30.508148,30.571968,30.648369,30.72377,30.784382,30.854355,30.929531,30.993366,31.060154,31.139387,31.214077,31.28395,31.371696,31.458736,31.53281,31.622444,31.712952,31.78616,31.869678,31.961452,32.038063,32.104343,32.175606,32.237396,32.289543,32.35232,32.410316,32.454636,32.507397,32.560715,32.604183,32.655815,32.71148,32.75756,32.803864,32.8573,32.905704,32.948204,32.9993,33.05094,33.09633,33.153603,33.21969,33.2791,33.342907,33.41414,33.476646,33.53591,33.60582,33.670998,33.72699,33.80047,33.879578,33.948513,34.035553,34.13268,34.217087,34.31652,34.437042,34.54978,34.660347,34.795876,34.923645,35.032116,35.15034,35.26243,35.358765,35.469276,35.58813,35.691177,35.80878,35.932297,36.03147,36.12333,36.240116,36.35949,36.465256,36.606155,36.75659,36.880882,37.030148,37.193916,37.333313,37.483887,37.650105,37.77342,37.84027,37.906055,37.95115,37.969852,37.988194,38.03366,38.1063,38.187935,38.284805,38.380196,38.52292,38.63243,38.680386,38.734085,38.82852,38.99686,39.22509,39.49579,39.439487,39.020184,38.558212,38.490646,38.898457,39.32718,40.707825,40.71344,37.11876,29.310669,19.306566,10.405533,7.2759514,7.9594307,8.090284,8.344738,8.675262,8.890458,8.979116,9.008308,9.002375,8.997365,9.004498,9.029272,9.0604105,9.1120205,9.179365,9.23883,9.297434,9.353613,9.393995,9.426697,9.45562,9.474205,9.487065,9.498938,9.50675,9.511236,9.515419,9.518419,9.520242,9.522299,9.523392,9.522989,9.522247,9.51876,9.512302,9.505047,9.492922,9.4768915,9.461607,9.442595,9.422106,9.405649,9.388667,9.370923,9.356787,9.344849,9.3319,9.321514,9.31431,9.307031,9.300497,9.29505,9.290219,9.285643,9.281725,9.277708,9.273619,9.270571,9.268203,9.266153
22.537039,22.569214,22.60532,22.637678,22.671848,22.714294,22.754951,22.791096,22.834827,22.876087,22.90857,22.948944,22.9931,23.031256,23.074059,23.1241,23.169558,23.213394,23.26318,23.306807,23.343124,23.38646,23.4284,23.462685,23.504234,23.54971,23.589472,23.63578,23.690632,23.740509,23.788345,23.845272,23.897514,23.940735,23.994087,24.048462,24.094229,24.148638,24.207153,24.256433,24.308512,24.365677,24.415024,24.460527,24.515732,24.568787,24.614166,24.67082,24.73082,24.782803,24.847427,24.92044,24.983526,25.050552,25.127083,25.194618,25.25432,25.326672,25.397144,25.457905,25.53321,25.611149,25.675613,25.748055,25.822868,25.883404,25.944008,26.012356,26.073576,26.128353,26.195583,26.262184,26.319239,26.3917,26.469517,26.535137,26.610672,26.693592,26.764004,26.833046,26.911566,26.982244,27.044865,27.120937,27.19388,27.25309,27.322136,27.390131,27.443666,27.502108,27.565784,27.62136,27.676584,27.742737,27.805292,27.860731,27.931408,28.00457,28.067116,28.14355,28.224712,28.29181,28.363705,28.44202,28.509792,28.575102,28.652393,28.725082,28.78928,28.868008,28.945663,29.008652,29.082115,29.158476,29.22153,29.289528,29.365936,29.433792,29.497765,29.576971,29.654099,29.720598,29.803507,29.887653,29.956644,30.036774,30.120903,30.190483,30.264328,30.347929,30.422089,30.490143,30.571123,30.646435,30.708443,30.782558,30.855968,30.91538,30.984322,31.05883,31.122437,31.189392,31.26921,31.344646,31.415268,31.503971,31.591885,31.666595,31.756704,31.847336,31.920446,32.003826,32.095352,32.171673,32.237595,32.308334,32.369522,32.421078,32.482975,32.540226,32.58423,32.637,32.69081,32.734985,32.78769,32.84508,32.893044,32.941242,32.996822,33.046917,33.0906,33.142693,33.19474,33.240063,33.29712,33.362892,33.422104,33.485878,33.55725,33.620018,33.679497,33.750847,33.81784,33.874523,33.948837,34.028755,34.098305,34.186363,34.284477,34.369415,34.46898,34.589893,34.703316,34.814575,34.94934,35.07685,35.188187,35.309883,35.423557,35.5189,35.628662,35.74675,35.849094,35.964027,36.09147,36.197968,36.288765,36.40342,36.520844,36.62468,36.762764,36.909935,37.03139,37.17725,37.337227,37.47374,37.621082,37.79541,37.932358,38.002647,38.06855,38.11229,38.131866,38.13815,38.173027,38.248405,38.33219,38.431015,38.526886,38.667255,38.777855,38.8325,38.900215,38.98221,39.128967,39.356564,39.626396,39.65696,39.38662,38.734436,38.46809,38.83947,39.075054,40.476753,40.818756,37.57676,31.440788,22.281042,11.704787,7.5531697,7.9092073,8.071693,8.273973,8.625418,8.917187,9.018751,9.060427,9.066924,9.060491,9.065128,9.087922,9.118307,9.164038,9.22214,9.273848,9.325998,9.376913,9.413691,9.442549,9.468067,9.484707,9.49637,9.507344,9.5148735,9.519438,9.523743,9.526919,9.52882,9.530495,9.531048,9.53022,9.5290985,9.524907,9.517565,9.509487,9.49649,9.479868,9.46435,9.444979,9.42341,9.405507,9.387639,9.369726,9.3562565,9.345478,9.334463,9.325829,9.31949,9.312918,9.307098,9.302465,9.2973175,9.292028,9.287773,9.283554,9.279383,9.27635,9.274034,9.2720585
22.617607,22.651493,22.689728,22.724117,22.760387,22.805344,22.848402,22.886786,22.933548,22.97796,23.013031,23.056282,23.103203,23.14355,23.188808,23.241177,23.28822,23.333408,23.384455,23.42883,23.465366,23.5089,23.551111,23.585747,23.627674,23.673655,23.713974,23.761059,23.816887,23.86764,23.91629,23.974121,24.02707,24.070744,24.124422,24.179073,24.22519,24.280205,24.339354,24.389042,24.441599,24.499187,24.548698,24.594046,24.648964,24.701843,24.747257,24.804111,24.864695,24.917507,24.983213,25.05743,25.121449,25.189287,25.266563,25.334671,25.394945,25.467766,25.538609,25.599827,25.675789,25.754402,25.819359,25.892296,25.967566,26.028368,26.088858,26.156834,26.217674,26.272217,26.339195,26.405802,26.463219,26.53621,26.614704,26.680939,26.756962,26.84013,26.910507,26.979328,27.057178,27.126953,27.188766,27.263893,27.336014,27.394627,27.463207,27.531025,27.584574,27.642834,27.706434,27.762217,27.817898,27.884937,27.948788,28.005833,28.078705,28.154083,28.218353,28.296524,28.37892,28.446579,28.518768,28.596811,28.663969,28.72868,28.805178,28.877136,28.9408,29.018972,29.09623,29.159008,29.23212,29.30819,29.371151,29.439268,29.51596,29.584225,29.64884,29.729141,29.807522,29.875103,29.95934,30.044708,30.114561,30.19539,30.279636,30.348818,30.422003,30.5044,30.57714,30.643713,30.722885,30.79654,30.857227,30.929737,31.001766,31.06035,31.128685,31.202948,31.26662,31.333998,31.414608,31.490833,31.562077,31.651314,31.739437,31.814121,31.903957,31.994064,32.06664,32.14935,32.240223,32.31609,32.38156,32.45181,32.51258,32.56376,32.625122,32.682003,32.72598,32.77919,32.83398,32.879265,32.93355,32.993114,33.04315,33.093422,33.15144,33.20362,33.248882,33.302303,33.35498,33.400444,33.457558,33.52342,33.58284,33.64706,33.719227,33.78289,33.843292,33.915604,33.98373,34.04222,34.117863,34.198425,34.268456,34.357265,34.45602,34.541176,34.640594,34.760757,34.873512,34.985428,35.11951,35.245388,35.355328,35.481617,35.600006,35.694107,35.803207,35.92077,36.02272,36.13565,36.26824,36.382904,36.47179,36.583664,36.698944,36.800583,36.935432,37.07869,37.196564,37.338093,37.49329,37.62583,37.768555,37.940315,38.08223,38.171555,38.24473,38.284424,38.304604,38.307076,38.33413,38.402115,38.486465,38.588287,38.68444,38.822006,38.933395,38.993813,39.070312,39.1519,39.284904,39.49305,39.72249,39.822594,39.734238,39.123535,38.667137,38.74118,38.80284,39.79972,40.295067,38.76306,34.336727,25.597004,14.130432,8.420078,7.748127,8.081133,8.225695,8.545431,8.866133,9.029497,9.117975,9.133743,9.127673,9.13246,9.154905,9.184,9.226453,9.278484,9.323536,9.368786,9.412952,9.444994,9.47008,9.492294,9.506878,9.517214,9.52709,9.533971,9.538141,9.542107,9.545023,9.546701,9.547976,9.547881,9.546316,9.544401,9.539133,9.530751,9.521851,9.508063,9.49098,9.475323,9.455956,9.4345875,9.416983,9.399673,9.382586,9.369916,9.359873,9.34955,9.341216,9.334805,9.327814,9.321411,9.316359,9.310686,9.30501,9.30065,9.296439,9.292434,9.289686,9.287719,9.286238
22.702835,22.739079,22.780241,22.817432,22.856693,22.904991,22.950943,22.99189,23.042095,23.090103,23.12817,23.174715,23.22464,23.267193,23.31478,23.369167,23.41755,23.464182,23.516878,23.562462,23.599556,23.643742,23.686644,23.721935,23.764608,23.811396,23.852444,23.900387,23.95713,24.00859,24.057869,24.116295,24.16958,24.213367,24.266972,24.321522,24.367691,24.423096,24.48282,24.532982,24.586191,24.644531,24.694588,24.740196,24.795383,24.848667,24.894651,24.952393,25.014217,25.068321,25.135551,25.211254,25.27629,25.344988,25.422905,25.491339,25.551865,25.62467,25.695337,25.756485,25.832544,25.911383,25.976551,26.049835,26.125624,26.186893,26.247595,26.315704,26.376724,26.431583,26.498999,26.566269,26.624569,26.698597,26.778046,26.844921,26.921415,27.004679,27.07479,27.143131,27.220049,27.28873,27.34956,27.423607,27.49492,27.553066,27.621504,27.68963,27.743645,27.80223,27.866272,27.922657,27.979158,28.047523,28.113081,28.172104,28.247543,28.32528,28.391193,28.47083,28.553913,28.621498,28.693214,28.770176,28.836082,28.899605,28.974754,29.045647,29.108604,29.186186,29.263159,29.32587,29.398726,29.474516,29.537348,29.605501,29.682404,29.751064,29.81636,29.89782,29.9775,30.046204,30.13176,30.218311,30.289,30.37045,30.454735,30.523476,30.59594,30.677155,30.74862,30.813948,30.891731,30.964252,31.024126,31.095629,31.166775,31.22483,31.29282,31.367058,31.430965,31.498898,31.580353,31.65728,31.728874,31.818142,31.9058,31.979774,32.06854,32.157433,32.229023,32.310593,32.40041,32.475586,32.540413,32.610085,32.670475,32.72137,32.78244,32.83932,32.883614,32.937717,32.99401,33.04085,33.09727,33.15953,33.212013,33.264618,33.325462,33.380173,33.427467,33.48266,33.53634,33.58226,33.63985,33.706223,33.76619,33.83116,33.90437,33.969048,34.030437,34.10344,34.17215,34.231857,34.308662,34.38987,34.46004,34.549175,34.6482,34.733364,34.83235,34.9512,35.062378,35.173313,35.30671,35.43158,35.538624,35.669907,35.794052,35.88672,35.995186,36.112198,36.21363,36.324745,36.460262,36.580734,36.67119,36.78184,36.893997,36.99301,37.1241,37.262863,37.376648,37.51301,37.662354,37.78985,37.927074,38.08988,38.231773,38.35058,38.435448,38.468727,38.488754,38.49341,38.513268,38.563316,38.64593,38.750946,38.84649,38.979813,39.09405,39.161934,39.23803,39.33061,39.463245,39.64119,39.831604,39.94371,39.93264,39.580444,39.03663,38.678932,38.650673,39.172707,39.802544,40.46969,37.999363,30.005424,18.505638,10.324493,7.5237784,8.143482,8.212976,8.463027,8.768547,9.013273,9.159365,9.181486,9.192628,9.201136,9.217392,9.244238,9.282177,9.328114,9.367691,9.406549,9.4443865,9.4722185,9.494394,9.514283,9.527542,9.537047,9.546196,9.552561,9.55633,9.559895,9.562415,9.563726,9.564506,9.563662,9.561269,9.558502,9.552191,9.542922,9.5334,9.519157,9.50205,9.486664,9.467905,9.447573,9.43105,9.414923,9.399007,9.387057,9.377394,9.367033,9.358139,9.350979,9.342772,9.335,9.32893,9.322422,9.316368,9.312096,9.308201,9.3048725,9.302992,9.301975,9.301772
