12.19743,12.157191,12.131082,12.102781,12.046743,11.968901,11.909412,11.849457,11.80863,11.786472,11.780443,11.843109,11.979276,12.145678,12.305196,12.437538,12.54368,12.623063,12.685848,12.73568,12.782721,12.833919,12.88188,12.908466,12.927689,12.951723,12.969468,12.965949,12.950535,12.946025,12.95134,12.957106,12.963818,12.965628,12.971378,12.991671,13.024531,13.057048,13.081494,13.062834,12.999351,12.9141865,12.826221,12.73202,12.620108,12.516466,12.428132,12.355719,12.3126,12.305208,12.356567,12.464348,12.598568,12.683541,12.668886,12.631878,12.632444,12.7521,13.790091,17.20524,20.584269,21.067898,21.010864,20.925337,20.783628,20.825666,20.505428,20.102333,19.770798,19.544632,19.390831,19.287643,19.208797,19.143496,19.08163,19.023642,18.973366,18.935375,18.908596,18.888,18.872011,18.855865,18.843945,18.836216,18.833138,18.834652,18.840965,18.853006,18.869896,18.888676,18.91074,18.936228,18.964727,18.99408,19.023682,19.053339,19.08066,19.105883,19.12922,19.149408,19.176865,19.210262,19.250103,19.295483,19.34922,19.406193,19.465393,19.526882,19.595284,19.668522,19.750145,19.842304,19.951607,20.082026,20.23002,20.388857,20.540255,20.673536,20.788284,20.878912,20.947577,20.991743,21.013489,21.023027,21.02831,21.032661,21.040607,21.057095,21.078415,21.099934,21.11375,21.117825,21.11121,21.098663,21.083939,21.071648,21.063255,21.062407,21.0696,21.082062,21.098444,21.117247,21.13574,21.153316,21.168955,21.183174,21.192268,21.195726,21.19526,21.192219,21.188354,21.18417,21.18002,21.176361,21.174454,21.17546,21.180916,21.190784,21.204002,21.21885,21.230053,21.23814,21.246098,21.254383,21.264065,21.272007,21.27526,21.27541,21.27174,21.26596,21.257908,21.245705,21.227825,21.206036,21.182194,21.156897,21.134378,21.116251,21.101011,21.08707,21.072866,21.058254,21.04486,21.033361,21.022182,21.003338,20.979275,20.952093,20.92359,20.89339,20.86159,20.834671,20.813969,20.800232,20.792221,20.78748,20.787521,20.791513,20.798016,20.802486,20.790916,20.767788,20.739368,20.708853,20.678759,20.64904,20.620586,20.59386,20.56912,20.546131,20.524132,20.503117,20.482235,20.461052,20.439758,20.417927,20.396088,20.374361,20.352468,20.330097,20.306778,20.280926,20.252949,20.223595,20.193666,20.163902,20.133785,20.102787,20.071127,20.039316,20.00741,19.975847,19.944439,19.913877,19.881718,19.849373,19.818726,19.790867,19.764149,19.733534,19.696545,19.658407,19.622723,19.59145,19.562946,19.531338,19.493736,19.448364,19.39796,19.349148,19.30616,19.269386,19.236149,19.205095,19.175694,19.145302,19.115717,19.087252,19.056873,19.024796,18.99173,18.962105,18.936867,18.91544,18.901253,18.890408,18.879059,18.86691,18.847816,18.822086,18.79575,18.775433,18.763073,18.744343,18.69199,18.606022,18.508045,18.435566,18.398308,18.37534,18.349968,18.30906,18.261396,18.21907,18.188805,18.166574,18.144234,18.1232,18.10823,18.100239,18.096947,18.095371,18.092949,18.09524,18.10469,18.10632,18.108547,18.11744,18.129421,18.130644,18.108202,18.082546,18.052166,18.021626,17.99927,17.984224,17.971388,17.958181,17.9418
12.403326,12.325168,12.266668,12.217537,12.173063,12.079807,11.958157,11.834558,11.729599,11.637619,11.587236,11.627884,11.743752,11.880143,11.997528,12.124804,12.244816,12.368164,12.478006,12.567656,12.643515,12.715189,12.782135,12.841316,12.89979,12.957567,13.009144,13.03817,13.053326,13.068676,13.0742445,13.075979,13.081266,13.089363,13.098057,13.11862,13.146517,13.174624,13.178391,13.130798,13.041763,12.93079,12.816507,12.700243,12.580738,12.485761,12.423433,12.385138,12.368969,12.371479,12.417294,12.515492,12.644748,12.7358465,12.722005,12.662699,12.665065,12.788961,13.493699,16.493355,20.078922,20.858437,20.844288,20.794912,20.649868,20.664085,20.55148,20.243479,19.929123,19.699936,19.5237,19.405746,19.314816,19.237171,19.162579,19.094887,19.038221,18.995604,18.964434,18.94125,18.921524,18.900381,18.883419,18.870937,18.86448,18.864525,18.87196,18.886427,18.908154,18.932495,18.959978,18.989977,19.021471,19.05297,19.083406,19.111427,19.134533,19.153887,19.170639,19.184616,19.206844,19.23576,19.271477,19.312353,19.360306,19.41043,19.461758,19.515896,19.579567,19.649572,19.727001,19.813938,19.913563,20.028133,20.15374,20.278286,20.38616,20.471699,20.535473,20.576466,20.600891,20.609165,20.598824,20.589876,20.58638,20.58596,20.590155,20.603163,20.62231,20.642763,20.655163,20.659138,20.65384,20.643225,20.632093,20.626554,20.624304,20.628452,20.64005,20.65678,20.676748,20.697807,20.71685,20.733727,20.74665,20.75679,20.763779,20.765701,20.764769,20.762548,20.760656,20.759445,20.759266,20.760544,20.763834,20.769909,20.779799,20.793484,20.809694,20.827625,20.846046,20.861073,20.874386,20.886272,20.896568,20.905506,20.91382,20.919025,20.91858,20.91504,20.908955,20.899624,20.886374,20.870445,20.852726,20.831642,20.811272,20.794235,20.779762,20.76668,20.753277,20.738647,20.723652,20.708775,20.692575,20.672829,20.650156,20.62425,20.596413,20.566143,20.533644,20.505077,20.481861,20.464525,20.45214,20.442944,20.437347,20.437,20.442692,20.443455,20.4296,20.407097,20.379395,20.349941,20.321213,20.294287,20.268818,20.245218,20.223637,20.203022,20.18145,20.160902,20.140438,20.119781,20.099335,20.078714,20.058144,20.0377,20.017284,19.99667,19.97548,19.950779,19.923851,19.895897,19.867435,19.839172,19.810852,19.781971,19.752342,19.722733,19.693089,19.663567,19.63437,19.603052,19.567081,19.532873,19.50364,19.477337,19.450644,19.41891,19.383133,19.347393,19.313297,19.282711,19.253216,19.221085,19.184692,19.143608,19.0985,19.053738,19.013199,18.977821,18.945175,18.91373,18.882994,18.854189,18.826866,18.800098,18.772078,18.743105,18.71321,18.685303,18.660698,18.641117,18.626982,18.61625,18.607573,18.601383,18.591135,18.573391,18.550133,18.529116,18.516682,18.50785,18.48537,18.436867,18.373436,18.31887,18.289927,18.271782,18.25065,18.213871,18.173714,18.139328,18.114162,18.094093,18.073177,18.052406,18.035414,18.02298,18.013596,18.005548,17.997978,17.996138,18.001503,17.996351,17.997536,18.005663,18.016167,18.01464,17.989895,17.961308,17.927673,17.892536,17.863935,17.841354,17.819996,17.797272,17.770489
11.19417,11.625728,11.809364,11.877625,11.970548,12.1468525,12.102631,11.981213,11.873747,11.73019,11.6386385,11.6373825,11.7097435,11.813772,11.890224,11.992636,12.074812,12.144611,12.205505,12.286394,12.395196,12.5282755,12.636475,12.7277155,12.808663,12.883916,12.947527,13.004923,13.060053,13.109859,13.142818,13.168751,13.197557,13.205343,13.207744,13.21463,13.231114,13.251203,13.262605,13.219086,13.093018,12.951349,12.805785,12.671375,12.556286,12.480269,12.450251,12.450179,12.461182,12.471552,12.505318,12.584464,12.700779,12.793966,12.790031,12.716952,12.714584,12.855475,13.412226,15.994562,19.558376,20.630642,20.639736,20.633114,20.521938,20.44983,20.461048,20.264202,19.98475,19.775497,19.61908,19.501568,19.394115,19.306713,19.225542,19.15334,19.09457,19.05368,19.025967,19.006073,18.9887,18.969543,18.951927,18.938099,18.931488,18.932701,18.942959,18.96127,18.987087,19.014572,19.044012,19.074469,19.104609,19.132566,19.157349,19.177483,19.190622,19.198027,19.20258,19.205027,19.216532,19.235113,19.260365,19.288486,19.321424,19.35558,19.39048,19.429398,19.47987,19.539158,19.605453,19.678402,19.759537,19.849545,19.944447,20.03471,20.105934,20.149675,20.172182,20.176815,20.170525,20.15635,20.133907,20.119534,20.111715,20.116749,20.130516,20.15085,20.17556,20.200548,20.216543,20.222485,20.224796,20.225254,20.222946,20.221619,20.222244,20.228966,20.242947,20.261845,20.283472,20.305298,20.324059,20.33976,20.350544,20.355995,20.359303,20.361103,20.360317,20.359264,20.359531,20.361395,20.365284,20.37155,20.380035,20.391031,20.404888,20.421604,20.440195,20.459925,20.479435,20.495485,20.50975,20.52243,20.533195,20.541832,20.548302,20.55386,20.557835,20.558662,20.555786,20.549194,20.539152,20.527086,20.513817,20.499271,20.483704,20.469341,20.45639,20.444805,20.433651,20.422153,20.41043,20.398403,20.383156,20.363064,20.34032,20.31453,20.286804,20.256405,20.223282,20.193268,20.167843,20.14748,20.13148,20.1188,20.109905,20.106441,20.10542,20.096886,20.080284,20.05895,20.032791,20.004835,19.97687,19.95063,19.926771,19.904636,19.884073,19.863922,19.84261,19.822395,19.803263,19.785553,19.767548,19.74834,19.729233,19.710281,19.691502,19.672737,19.65355,19.6311,19.606377,19.579254,19.551186,19.522995,19.494713,19.465939,19.436697,19.40781,19.379108,19.350765,19.323608,19.291946,19.25754,19.228203,19.200676,19.17466,19.147709,19.116636,19.081371,19.045712,19.0123,18.982826,18.95443,18.92403,18.890331,18.852541,18.810757,18.7687,18.72966,18.694643,18.662943,18.6333,18.60435,18.576744,18.55054,18.525206,18.499615,18.473904,18.447407,18.422123,18.398396,18.377632,18.361443,18.34936,18.341566,18.338528,18.334202,18.323391,18.305973,18.288464,18.27527,18.266949,18.257166,18.232769,18.196815,18.160257,18.136513,18.121342,18.101889,18.069027,18.034813,18.005745,17.983921,17.965584,17.946087,17.926334,17.908789,17.894024,17.881039,17.869328,17.859066,17.85473,17.85683,17.848597,17.847103,17.852203,17.859451,17.859241,17.836605,17.802864,17.765673,17.726349,17.692993,17.665436,17.638775,17.610382,17.577326
7.5781364,8.45434,9.269503,9.821861,10.257662,10.755951,11.337326,11.621472,11.686656,11.742161,11.71142,11.728713,11.833095,11.916571,11.9735775,12.017089,12.0484,12.086622,12.10709,12.124117,12.159015,12.233804,12.374189,12.522503,12.657691,12.771885,12.863018,12.939119,13.005451,13.06879,13.121195,13.166462,13.212542,13.241054,13.265505,13.279507,13.276256,13.289564,13.319977,13.307301,13.165224,12.986024,12.805772,12.6518135,12.550837,12.504572,12.510991,12.548438,12.582668,12.595547,12.612486,12.67019,12.771605,12.866673,12.881314,12.798168,12.771133,12.918808,13.430355,15.63194,19.078892,20.358456,20.396736,20.435501,20.347881,20.255802,20.281984,20.14328,19.917316,19.731928,19.594463,19.501019,19.415691,19.33181,19.245258,19.173386,19.11969,19.086739,19.067371,19.055347,19.044912,19.031612,19.019737,19.010963,19.009604,19.016232,19.032162,19.055454,19.084793,19.115295,19.146526,19.177223,19.20493,19.227367,19.244125,19.253967,19.254753,19.247131,19.234287,19.219353,19.214697,19.216959,19.22206,19.22917,19.236004,19.24514,19.256859,19.27509,19.303467,19.338018,19.383532,19.434547,19.490726,19.553785,19.615368,19.668037,19.704288,19.71989,19.716148,19.694696,19.665535,19.637241,19.61736,19.611261,19.615461,19.632885,19.659212,19.69083,19.72518,19.759485,19.788975,19.811348,19.827648,19.838623,19.84449,19.847256,19.84993,19.857763,19.872524,19.891962,19.913683,19.934929,19.952698,19.96703,19.976429,19.979456,19.977955,19.977219,19.977402,19.977947,19.980158,19.984663,19.992153,20.002785,20.015772,20.030922,20.047955,20.06668,20.08652,20.107002,20.127037,20.143555,20.158237,20.171238,20.18212,20.190647,20.196934,20.202015,20.205496,20.206673,20.205265,20.201084,20.194214,20.185627,20.175808,20.16523,20.153927,20.142765,20.131863,20.121471,20.111467,20.101927,20.093182,20.084877,20.074005,20.058514,20.040165,20.018572,19.992455,19.961689,19.928091,19.89718,19.870296,19.847824,19.829277,19.8144,19.80228,19.791805,19.781853,19.768871,19.75294,19.732979,19.708633,19.682377,19.65554,19.629639,19.60527,19.58209,19.56016,19.538872,19.518044,19.498234,19.479736,19.463104,19.4468,19.429646,19.412403,19.39476,19.376652,19.357952,19.338207,19.316204,19.292011,19.26527,19.237247,19.20866,19.179934,19.150879,19.122135,19.09414,19.06651,19.039623,19.014145,18.988441,18.9603,18.933657,18.909412,18.88573,18.85984,18.829624,18.795242,18.760216,18.726864,18.696842,18.668917,18.639671,18.608011,18.572845,18.533806,18.494114,18.456848,18.423416,18.39325,18.365173,18.337723,18.311428,18.286549,18.262873,18.239754,18.217163,18.19394,18.171247,18.148739,18.12754,18.109615,18.095259,18.085567,18.081505,18.077553,18.068579,18.054447,18.039673,18.028227,18.022781,18.015762,18.00077,17.980347,17.95747,17.941368,17.929323,17.911774,17.882904,17.853046,17.82723,17.807203,17.789803,17.771986,17.754587,17.738655,17.724411,17.71106,17.698738,17.687983,17.682129,17.68107,17.673012,17.667332,17.667622,17.668676,17.664892,17.647215,17.616562,17.579689,17.53635,17.498974,17.469059,17.440735,17.410686,17.37566
4.5850406,4.9787064,5.5205626,6.054811,6.611953,7.1721907,8.013426,9.054559,9.912975,10.631521,11.181017,11.521522,11.859304,12.101379,12.157121,12.191902,12.216354,12.128699,12.093554,12.108646,12.140226,12.151318,12.190031,12.259069,12.391676,12.558043,12.70754,12.818298,12.915114,13.0049305,13.074188,13.128714,13.179774,13.229088,13.273428,13.305464,13.318339,13.332714,13.349276,13.333183,13.2172165,13.021761,12.80839,12.634745,12.539677,12.525619,12.57029,12.643433,12.701773,12.722654,12.72526,12.757537,12.840437,12.93572,12.953346,12.885966,12.833519,12.983023,13.493351,15.333532,18.602379,20.034721,20.117622,20.195452,20.12406,20.022705,20.020203,19.912846,19.7305,19.570797,19.46125,19.384012,19.32322,19.265442,19.205177,19.153374,19.110142,19.091988,19.088146,19.091024,19.093641,19.090736,19.087173,19.084896,19.09087,19.10561,19.130821,19.162724,19.197712,19.223598,19.245874,19.258696,19.2647,19.264055,19.255009,19.23627,19.207523,19.170729,19.130299,19.089237,19.058395,19.036171,19.021835,19.013344,19.002111,18.977554,18.947128,18.926266,18.928284,18.938087,18.960072,18.990757,19.027607,19.070076,19.110806,19.14613,19.17494,19.194046,19.185513,19.161797,19.134657,19.11188,19.100294,19.106033,19.126617,19.158928,19.199135,19.243855,19.290823,19.337929,19.381165,19.418274,19.448341,19.47031,19.484238,19.492882,19.499556,19.509716,19.525043,19.543533,19.562958,19.583008,19.599379,19.611809,19.619293,19.621277,19.618206,19.614214,19.611055,19.611614,19.616085,19.622845,19.633354,19.647669,19.664463,19.683037,19.702517,19.722544,19.742859,19.763367,19.78328,19.799797,19.814648,19.827978,19.839235,19.848164,19.854967,19.860838,19.865734,19.869093,19.870615,19.869974,19.86698,19.862282,19.855955,19.848349,19.839575,19.830576,19.821419,19.8121,19.802437,19.792562,19.783033,19.773575,19.762821,19.750063,19.734882,19.716167,19.69291,19.664806,19.63313,19.602964,19.57586,19.552238,19.531483,19.513426,19.497303,19.48214,19.468971,19.456127,19.441025,19.422329,19.399784,19.375221,19.349678,19.324432,19.300081,19.276482,19.253773,19.231432,19.209332,19.188389,19.169037,19.151909,19.135986,19.120335,19.104492,19.08788,19.070417,19.052,19.03225,19.010056,18.985626,18.959494,18.9319,18.903461,18.874962,18.846525,18.81885,18.792313,18.766388,18.741386,18.717651,18.695686,18.673843,18.652157,18.631357,18.609543,18.58553,18.556883,18.524061,18.490566,18.457272,18.42694,18.398613,18.369514,18.338736,18.305222,18.268349,18.230835,18.195396,18.163528,18.134853,18.108276,18.082256,18.057262,18.033731,18.01173,17.990974,17.971228,17.950974,17.93077,17.90968,17.88849,17.869276,17.852715,17.8404,17.833702,17.828064,17.818745,17.80502,17.790255,17.77937,17.77398,17.769054,17.758749,17.744404,17.728249,17.715368,17.704657,17.688587,17.663227,17.637339,17.615112,17.598106,17.58483,17.570644,17.555496,17.5418,17.52945,17.51743,17.506092,17.495867,17.488907,17.4851,17.481867,17.470463,17.465715,17.460888,17.45066,17.429737,17.39975,17.364151,17.326607,17.2927,17.26235,17.234245,17.20473,17.1701
3.953166,3.9674597,3.9989727,4.0914707,4.2488756,4.417631,4.6770306,5.236068,5.8216066,6.557701,7.4969,8.389737,9.30213,10.432049,11.527627,12.116114,12.538819,12.341991,12.300556,12.240963,12.161229,12.203019,12.222958,12.241688,12.285765,12.340422,12.441908,12.601914,12.761133,12.891802,12.990824,13.067711,13.138368,13.199046,13.249688,13.282842,13.307262,13.319236,13.319256,13.29414,13.201511,13.020275,12.804795,12.617834,12.532951,12.545879,12.62937,12.733658,12.800278,12.815653,12.810169,12.821279,12.894283,12.981131,13.009611,12.962183,12.902002,13.042433,13.584066,15.181955,18.182125,19.6594,19.811058,19.911789,19.849535,19.728785,19.697,19.598915,19.423822,19.295631,19.213795,19.169647,19.13037,19.088167,19.051853,19.024956,19.008728,19.012735,19.025475,19.041592,19.054276,19.059532,19.067677,19.077827,19.090319,19.100512,19.110203,19.118555,19.125174,19.12483,19.126503,19.126968,19.127487,19.122929,19.108486,19.081924,19.043537,18.99436,18.939606,18.878208,18.820023,18.769817,18.729738,18.694227,18.662682,18.627748,18.585026,18.538979,18.518963,18.5097,18.512882,18.526299,18.545403,18.568932,18.592295,18.612997,18.627693,18.639164,18.649899,18.648863,18.635967,18.627972,18.628815,18.64502,18.674292,18.714931,18.76373,18.817333,18.873606,18.930874,18.985752,19.03526,19.07712,19.108974,19.130737,19.145546,19.156807,19.16983,19.185919,19.203419,19.2202,19.236326,19.249374,19.261303,19.270073,19.273046,19.270535,19.266514,19.262321,19.261162,19.26361,19.27188,19.285515,19.303133,19.323128,19.344471,19.365746,19.386517,19.406857,19.427002,19.44653,19.463017,19.478237,19.492306,19.50449,19.51442,19.522373,19.529638,19.536545,19.542574,19.547338,19.550312,19.551014,19.549747,19.546322,19.541082,19.534363,19.527084,19.51929,19.510826,19.501427,19.49131,19.481157,19.470772,19.45892,19.444843,19.428526,19.408993,19.386509,19.360508,19.330902,19.302256,19.275936,19.25235,19.230858,19.211342,19.193943,19.179192,19.16655,19.153767,19.13905,19.12141,19.100512,19.077644,19.053541,19.029266,19.005386,18.981907,18.958973,18.936127,18.91336,18.891682,18.8717,18.854212,18.838173,18.822525,18.806831,18.790403,18.773209,18.755192,18.736004,18.714611,18.69107,18.665516,18.638058,18.609364,18.580513,18.552025,18.52472,18.498955,18.47409,18.450417,18.4283,18.407686,18.388866,18.37101,18.35243,18.332056,18.309792,18.284458,18.256538,18.227364,18.196321,18.16801,18.13995,18.110405,18.079834,18.047699,18.0129,17.977669,17.944252,17.914112,17.886923,17.861738,17.837082,17.813408,17.791218,17.770786,17.752079,17.734795,17.717142,17.699299,17.679888,17.65939,17.639704,17.621624,17.606829,17.597107,17.58891,17.578331,17.56477,17.550503,17.538532,17.530052,17.524021,17.514545,17.502068,17.488106,17.477242,17.46885,17.4558,17.431862,17.408352,17.388195,17.372868,17.361778,17.351707,17.342617,17.332533,17.321402,17.310638,17.300415,17.290646,17.282639,17.276426,17.274164,17.267899,17.257301,17.247932,17.233574,17.208843,17.17514,17.1386,17.104359,17.078196,17.053009,17.026836,16.998802,16.96562
3.9740725,3.9761708,3.9743521,3.96615,3.950501,3.9301758,3.9181685,3.9252496,3.9514275,4.104156,4.3860626,4.70807,5.047614,5.7437334,6.8970766,8.395375,9.898556,11.356876,12.051241,12.566978,12.406974,12.425545,12.282888,12.305976,12.338082,12.355036,12.3990135,12.453914,12.518091,12.662078,12.826135,12.949821,13.055376,13.142134,13.210262,13.251808,13.271017,13.274496,13.262337,13.224498,13.148504,13.007963,12.787788,12.603857,12.542227,12.584698,12.699658,12.825745,12.891768,12.88555,12.852346,12.888725,12.935439,13.008453,13.057238,13.027004,12.969771,13.096517,13.663196,15.13949,17.77444,19.229353,19.472965,19.574486,19.515629,19.38629,19.30524,19.224575,19.043821,18.92683,18.851248,18.825481,18.808933,18.786942,18.768438,18.762085,18.76767,18.781307,18.791903,18.801178,18.810596,18.819845,18.835993,18.85514,18.873638,18.885805,18.897884,18.90532,18.90946,18.910583,18.90857,18.887558,18.86124,18.830364,18.794727,18.757793,18.713947,18.662678,18.605839,18.545359,18.484238,18.428898,18.379478,18.330473,18.28711,18.251778,18.221453,18.195389,18.173512,18.15281,18.145302,18.146008,18.150726,18.16444,18.180788,18.187757,18.183882,18.181355,18.180323,18.172981,18.160934,18.149952,18.160618,18.18435,18.220394,18.268013,18.323502,18.381481,18.444096,18.509464,18.574747,18.636229,18.690464,18.733875,18.765413,18.787857,18.804934,18.821697,18.839369,18.856987,18.872421,18.886068,18.897007,18.906773,18.913551,18.916924,18.917986,18.918217,18.919098,18.921295,18.926085,18.93467,18.9486,18.968788,18.992798,19.017685,19.041615,19.063633,19.08369,19.103168,19.12199,19.138245,19.153795,19.168674,19.181992,19.193222,19.20256,19.21126,19.220009,19.228458,19.236012,19.241993,19.245544,19.246693,19.245148,19.241238,19.235647,19.229313,19.222366,19.214512,19.205315,19.194944,19.184086,19.172588,19.1595,19.144243,19.1269,19.106846,19.084196,19.05875,19.030575,19.003601,18.97865,18.955944,18.934975,18.915926,18.898981,18.88427,18.871319,18.85823,18.84364,18.826813,18.807365,18.786098,18.763493,18.740406,18.717325,18.694393,18.671724,18.648918,18.625984,18.603952,18.58354,18.565632,18.549301,18.533472,18.517696,18.501255,18.484085,18.466198,18.447353,18.426643,18.403961,18.3792,18.352203,18.323605,18.294708,18.26628,18.239248,18.213936,18.189693,18.166815,18.145716,18.126352,18.108719,18.092175,18.075268,18.05668,18.036009,18.013008,17.988111,17.962208,17.935493,17.910442,17.886105,17.861856,17.835789,17.804184,17.77052,17.737484,17.706291,17.677902,17.652088,17.628147,17.604778,17.582325,17.561203,17.54184,17.524387,17.508656,17.492813,17.476814,17.45906,17.439762,17.42046,17.401745,17.385061,17.372417,17.361141,17.348171,17.333233,17.317968,17.304476,17.293701,17.285181,17.274384,17.261623,17.248547,17.238823,17.231533,17.221024,17.20199,17.183033,17.165035,17.148611,17.136,17.126024,17.118702,17.112045,17.105469,17.095211,17.085396,17.075993,17.067774,17.060865,17.057442,17.056007,17.05126,17.041058,17.024849,17.000278,16.967304,16.93119,16.896233,16.871235,16.852795,16.826958,16.798271,16.766592
3.9094296,3.9187722,3.9279666,3.9370909,3.9461513,3.9555287,3.9625592,3.9637394,3.9618616,3.9518209,3.933041,3.9100456,3.885826,3.9407601,4.1559196,4.6221275,5.1676083,6.46129,8.168433,9.946127,11.528916,12.292767,12.530145,12.448906,12.344382,12.344419,12.431051,12.460645,12.474044,12.536417,12.603017,12.724369,12.890509,13.027603,13.124365,13.184513,13.211511,13.214794,13.192762,13.142944,13.067073,12.975227,12.799409,12.619577,12.58404,12.659916,12.80784,12.957516,13.02099,12.988283,12.923792,12.934398,12.968826,13.027294,13.071787,13.068941,13.031956,13.125006,13.70381,15.084539,17.344902,18.789116,19.101446,19.201744,19.14347,19.012735,18.882648,18.805721,18.663536,18.545662,18.471687,18.439009,18.419159,18.406912,18.40007,18.40687,18.426025,18.45475,18.480476,18.500015,18.516418,18.531885,18.550545,18.562183,18.565716,18.564455,18.563229,18.557579,18.546558,18.529411,18.511662,18.49029,18.463554,18.43444,18.405302,18.376894,18.33968,18.289368,18.23191,18.173298,18.120142,18.07271,18.037945,18.006964,17.977509,17.951601,17.92883,17.916325,17.911287,17.90263,17.902174,17.904762,17.910686,17.923355,17.934597,17.94035,17.942564,17.931652,17.904215,17.859371,17.796618,17.734493,17.709782,17.699146,17.703316,17.722683,17.76595,17.84433,17.926216,18.01341,18.100521,18.184103,18.25938,18.320885,18.368526,18.404732,18.43298,18.45805,18.481108,18.502197,18.51937,18.534595,18.547161,18.557835,18.565557,18.569958,18.572178,18.57441,18.57732,18.584112,18.59505,18.608852,18.627747,18.651745,18.678242,18.70451,18.728615,18.749928,18.770428,18.789951,18.80881,18.825565,18.842148,18.858335,18.872904,18.885567,18.896767,18.907665,18.91872,18.928617,18.937578,18.945179,18.950071,18.952202,18.95124,18.947517,18.941994,18.93571,18.92903,18.921522,18.912394,18.901758,18.890297,18.877804,18.863644,18.847336,18.829044,18.808542,18.786053,18.761608,18.73526,18.710344,18.687204,18.665792,18.645695,18.627247,18.610699,18.595932,18.582468,18.568832,18.554077,18.537804,18.519533,18.499657,18.478468,18.45662,18.4345,18.41232,18.39016,18.367699,18.344978,18.322979,18.302406,18.284172,18.267475,18.251305,18.235233,18.218586,18.20126,18.183372,18.164822,18.144844,18.123219,18.099648,18.073666,18.04587,18.0176,17.989773,17.963196,17.938263,17.91434,17.891758,17.871101,17.852348,17.835537,17.82014,17.804749,17.787926,17.76916,17.74785,17.724483,17.700417,17.67627,17.65334,17.631748,17.611187,17.590677,17.568796,17.5444,17.514538,17.484346,17.456993,17.432222,17.409388,17.387215,17.365803,17.345339,17.32632,17.30914,17.293888,17.278868,17.264002,17.24762,17.229778,17.211504,17.19294,17.175045,17.159885,17.14545,17.129284,17.111485,17.093489,17.077326,17.064205,17.054466,17.044123,17.03289,17.02102,17.011822,17.004484,16.994709,16.97835,16.961239,16.944305,16.928673,16.916075,16.905994,16.896696,16.888454,16.88208,16.875631,16.865833,16.856543,16.849092,16.843456,16.841648,16.841423,16.84245,16.839973,16.830618,16.807743,16.777431,16.743912,16.710602,16.685055,16.667564,16.642094,16.612005,16.579414
3.8435698,3.8529048,3.8620877,3.8712022,3.8802567,3.889293,3.8983607,3.907413,3.91558,3.9297147,3.9500642,3.9716005,3.993678,4.005549,3.9977598,3.9614682,3.9351513,4.1123877,4.5756826,5.2509527,6.894658,9.031445,11.019602,12.18701,12.502079,12.541799,12.513218,12.47818,12.5521965,12.593298,12.595551,12.634873,12.666415,12.78793,12.940923,13.04336,13.089468,13.106254,13.087642,13.036803,12.959118,12.890287,12.79653,12.68141,12.67201,12.777506,12.9142475,13.016232,13.083797,13.12385,13.13552,13.142595,13.172607,13.221741,13.245319,13.183027,13.141592,13.223232,13.894664,15.1369915,17.029713,18.34346,18.673424,18.793583,18.739761,18.60999,18.474003,18.341152,18.216028,18.116173,18.044067,18.01094,18.000511,18.003603,18.00857,18.016958,18.02761,18.041658,18.059406,18.07848,18.096037,18.11072,18.123812,18.130896,18.13142,18.12498,18.115156,18.10091,18.081642,18.058304,18.035715,18.015388,17.993553,17.970078,17.946758,17.923248,17.89552,17.874477,17.861954,17.849392,17.842995,17.836538,17.829887,17.808681,17.783146,17.756866,17.734371,17.721992,17.725748,17.743114,17.76493,17.782751,17.794186,17.796196,17.790974,17.786629,17.786991,17.78674,17.777172,17.753235,17.702206,17.612135,17.537888,17.48404,17.451218,17.419422,17.413387,17.429136,17.452045,17.484562,17.54552,17.61995,17.70637,17.804165,17.889668,17.95731,18.011776,18.056541,18.09259,18.12241,18.14665,18.168545,18.187878,18.20537,18.22023,18.231274,18.239357,18.24772,18.256702,18.268349,18.283585,18.30225,18.325956,18.35318,18.382986,18.41211,18.437593,18.458881,18.477541,18.494602,18.510723,18.524689,18.538643,18.553358,18.56844,18.582241,18.594826,18.607273,18.619978,18.632343,18.643938,18.65401,18.66098,18.663712,18.662182,18.65768,18.651371,18.644478,18.637619,18.630308,18.62127,18.610512,18.598654,18.585415,18.570404,18.553284,18.53425,18.513529,18.491428,18.46822,18.4439,18.421274,18.400217,18.380428,18.361515,18.343891,18.327854,18.31306,18.299034,18.284756,18.269691,18.253761,18.236454,18.2178,18.197903,18.17725,18.156101,18.134686,18.113113,18.0911,18.068846,18.047222,18.026833,18.008503,17.99157,17.97511,17.958755,17.941933,17.924492,17.906609,17.888405,17.869263,17.848969,17.827011,17.802708,17.776505,17.749668,17.723087,17.697403,17.672997,17.649357,17.626852,17.606243,17.587593,17.571037,17.556276,17.542019,17.526781,17.509851,17.49044,17.468979,17.446789,17.42442,17.403255,17.383205,17.363934,17.345446,17.327646,17.309177,17.289032,17.269203,17.249933,17.228664,17.206684,17.185108,17.163807,17.14323,17.123579,17.105553,17.08974,17.074703,17.060389,17.045006,17.028534,17.011341,16.993204,16.974678,16.957502,16.94018,16.920692,16.899435,16.877907,16.85833,16.842434,16.83134,16.821394,16.811768,16.801558,16.793568,16.786762,16.77743,16.761284,16.74382,16.726067,16.709347,16.694798,16.682077,16.670893,16.661913,16.655655,16.649277,16.641804,16.63277,16.62649,16.622923,16.623747,16.62562,16.628353,16.630043,16.6281,16.616653,16.594742,16.56477,16.533548,16.50838,16.490274,16.465122,16.43528,16.403095
3.7799394,3.7892451,3.7984033,3.8074927,3.8165174,3.8255157,3.8345265,3.843521,3.851647,3.8656156,3.8856707,3.9066966,3.928276,3.9511545,3.9746773,3.998684,4.021341,4.0212493,3.9934645,4.006171,4.259302,4.838257,6.20652,8.474122,10.596171,11.9530115,12.562555,12.717886,12.667926,12.605026,12.651905,12.715361,12.714915,12.715854,12.705272,12.7422495,12.8489895,12.911055,12.922491,12.886916,12.817022,12.753736,12.714287,12.701407,12.728144,12.792177,12.869036,12.943321,13.013592,13.078783,13.126736,13.158903,13.181988,13.185068,13.160389,13.134813,13.192049,13.415941,13.914342,15.081384,16.881973,17.85944,18.211052,18.350203,18.307938,18.185547,18.059807,17.91809,17.773838,17.671803,17.60053,17.57093,17.566586,17.5761,17.588179,17.602907,17.618866,17.636192,17.651606,17.66494,17.67723,17.685501,17.689922,17.689468,17.682854,17.667522,17.647654,17.623987,17.595978,17.566114,17.536388,17.503838,17.469023,17.449856,17.457283,17.464363,17.462648,17.455673,17.451347,17.449566,17.444504,17.434402,17.422272,17.411964,17.402351,17.391682,17.38583,17.389854,17.407581,17.432014,17.454945,17.471306,17.480488,17.48597,17.491184,17.500511,17.513494,17.534092,17.534193,17.524815,17.50748,17.481224,17.459938,17.44638,17.40825,17.371475,17.352812,17.343113,17.344208,17.357586,17.387388,17.424778,17.460648,17.489214,17.505741,17.525537,17.543095,17.572966,17.618505,17.673113,17.719084,17.759811,17.79655,17.829338,17.856358,17.878536,17.89799,17.9174,17.936857,17.958279,17.982914,18.010357,18.041828,18.075182,18.109077,18.140522,18.167152,18.187944,18.203777,18.216635,18.228449,18.240387,18.252983,18.265877,18.278294,18.289232,18.298574,18.307686,18.319561,18.332426,18.344803,18.355766,18.363632,18.36771,18.368002,18.365349,18.360754,18.355183,18.349073,18.342503,18.334545,18.325022,18.313293,18.298992,18.28276,18.264517,18.244513,18.223381,18.201546,18.179373,18.15686,18.136341,18.117388,18.099056,18.081371,18.064568,18.0489,18.033897,18.01918,18.00412,17.988617,17.97288,17.956337,17.938778,17.92009,17.900637,17.880482,17.859875,17.838917,17.817425,17.79573,17.774673,17.754715,17.73648,17.719463,17.702839,17.68631,17.669376,17.65187,17.634018,17.616184,17.597914,17.579073,17.558971,17.536787,17.512703,17.487865,17.463032,17.438599,17.414913,17.39159,17.369118,17.348364,17.32949,17.31279,17.29829,17.28486,17.271032,17.255878,17.23839,17.218912,17.198647,17.178188,17.158855,17.140392,17.122458,17.104946,17.087543,17.070112,17.05329,17.037312,17.021519,17.004807,16.98809,16.972208,16.957447,16.939272,16.920837,16.903454,16.88733,16.871773,16.857685,16.843893,16.83083,16.818108,16.803516,16.784925,16.765697,16.745487,16.722776,16.69852,16.673864,16.651007,16.632095,16.618958,16.608326,16.599213,16.590057,16.582993,16.576458,16.567072,16.550606,16.532555,16.513798,16.495163,16.477821,16.461552,16.446999,16.435604,16.428032,16.422482,16.41948,16.411446,16.406078,16.404337,16.407555,16.411102,16.414759,16.417154,16.417828,16.412163,16.397858,16.376213,16.352375,16.332401,16.31541,16.292309,16.263779,16.232824
3.7179246,3.7271245,3.7361789,3.7451744,3.7541485,3.7630906,3.7720234,3.7809386,3.7890005,3.802782,3.8225212,3.8432112,3.8644452,3.886948,3.9100828,3.933577,3.9572742,3.9825082,4.0078316,4.0283976,4.019627,4.005702,4.157158,4.5982246,5.613632,7.544118,9.988754,11.745556,12.626471,12.829998,12.773218,12.69771,12.748792,12.829359,12.808359,12.755104,12.711441,12.680145,12.631287,12.595263,12.572077,12.533772,12.517878,12.534363,12.578888,12.636105,12.6988,12.7683525,12.834574,12.893037,12.938171,12.967083,12.97492,12.95046,12.897327,12.870937,12.92477,13.127384,13.765518,15.256754,16.709076,17.325962,17.704393,17.866924,17.848877,17.737446,17.621433,17.488876,17.34159,17.232897,17.15562,17.123165,17.117558,17.127071,17.138767,17.1548,17.173683,17.193752,17.208683,17.217728,17.223436,17.223799,17.218784,17.207577,17.186855,17.153831,17.11412,17.070694,17.027773,16.981243,16.941511,16.929455,16.915453,16.907333,16.907316,16.906666,16.903408,16.889122,16.868488,16.849178,16.832092,16.818619,16.804558,16.789627,16.774506,16.757748,16.744938,16.740585,16.74738,16.756344,16.76248,16.763565,16.761692,16.763893,16.772703,16.791142,16.816006,16.84494,16.87041,16.894722,16.920614,16.953365,16.992878,17.033386,17.069866,17.121601,17.18251,17.241722,17.286304,17.309122,17.326616,17.350574,17.370296,17.378311,17.377577,17.372955,17.37196,17.37296,17.367437,17.349651,17.33506,17.334675,17.343584,17.363882,17.407253,17.454128,17.495323,17.537207,17.5751,17.610844,17.649189,17.689732,17.732746,17.775015,17.815521,17.851643,17.881744,17.90483,17.92197,17.935398,17.946909,17.957108,17.968052,17.979351,17.989738,17.998293,18.004864,18.011806,18.020306,18.029896,18.040195,18.05037,18.058632,18.063736,18.0651,18.06302,18.058924,18.054043,18.048874,18.04356,18.03685,18.028503,18.018185,18.00595,17.991734,17.97535,17.957134,17.938103,17.918697,17.899378,17.880169,17.862877,17.846102,17.829403,17.812397,17.7951,17.779003,17.763432,17.747948,17.732002,17.715784,17.699966,17.684046,17.667576,17.650139,17.631783,17.612204,17.591692,17.57032,17.54905,17.5281,17.507816,17.488482,17.470533,17.453606,17.436943,17.420315,17.403275,17.385658,17.367754,17.350128,17.332508,17.314842,17.296349,17.276142,17.254154,17.231323,17.208265,17.185087,17.162119,17.13913,17.116692,17.095816,17.076712,17.059784,17.045443,17.032774,17.020367,17.006992,16.991463,16.973957,16.955627,16.937061,16.919418,16.902372,16.88556,16.868969,16.852428,16.835798,16.81962,16.804352,16.789501,16.77465,16.760311,16.746824,16.734314,16.721533,16.708958,16.696949,16.685898,16.672787,16.657207,16.642857,16.629944,16.617582,16.604378,16.589563,16.575039,16.561241,16.543137,16.51853,16.49209,16.467052,16.445461,16.429419,16.416103,16.405088,16.395115,16.38777,16.3807,16.3705,16.353043,16.334024,16.314426,16.294542,16.275127,16.255953,16.237938,16.223328,16.213257,16.206425,16.20311,16.19936,16.195278,16.195173,16.198273,16.20176,16.204376,16.20585,16.206478,16.201889,16.19093,16.174244,16.15478,16.142529,16.132605,16.1213,16.095074,16.064884
3.6577477,3.6667025,3.6755073,3.6842792,3.6931758,3.702039,3.7108788,3.7196984,3.727682,3.7412627,3.7606707,3.7810152,3.801898,3.8240144,3.8467457,3.8698277,3.8931093,3.9178815,3.9427862,3.9677038,3.992773,4.0164523,4.021791,4.0089345,4.0869985,4.3343143,5.1165323,7.1967974,10.097668,11.821417,12.666067,12.745078,12.719332,12.732668,12.708097,12.70458,12.727991,12.659978,12.534556,12.389204,12.259929,12.175365,12.148879,12.197796,12.252465,12.336666,12.45804,12.576608,12.6465435,12.662249,12.630886,12.627512,12.675466,12.717655,12.721762,12.724841,12.834058,13.207071,14.104212,15.366062,16.32499,16.818485,17.136425,17.235703,17.183971,17.109652,17.011524,16.885584,16.742298,16.65194,16.601841,16.580439,16.570984,16.571327,16.590689,16.606394,16.619972,16.63266,16.643166,16.652428,16.660904,16.663975,16.657871,16.64184,16.621838,16.603117,16.58137,16.557812,16.530159,16.500309,16.467144,16.417427,16.375706,16.341846,16.32148,16.299305,16.26566,16.22461,16.18041,16.137276,16.098904,16.051891,16.019732,15.9901285,15.963297,15.938972,15.918272,15.903864,15.9004,15.9019575,15.902779,15.90153,15.898502,15.89687,15.896502,15.899851,15.910996,15.926214,15.957036,15.996398,16.040981,16.094456,16.157877,16.231728,16.31955,16.417053,16.521112,16.628906,16.74567,16.870903,16.999172,17.12857,17.253166,17.371445,17.435205,17.440323,17.401394,17.350746,17.30149,17.257523,17.220037,17.18821,17.165257,17.148487,17.132034,17.115625,17.106506,17.084106,17.095913,17.15375,17.222862,17.292149,17.359598,17.420216,17.47263,17.517876,17.55535,17.58464,17.607292,17.625841,17.642033,17.65627,17.67081,17.685198,17.697783,17.707443,17.714565,17.720924,17.727654,17.73567,17.745268,17.75576,17.765438,17.772158,17.774538,17.77273,17.768263,17.762943,17.758224,17.75396,17.748016,17.739841,17.729298,17.716232,17.700977,17.684025,17.665672,17.647167,17.628971,17.611557,17.594574,17.579432,17.564587,17.54932,17.533726,17.51783,17.502956,17.488495,17.47399,17.458927,17.44376,17.429451,17.415459,17.40128,17.385935,17.369324,17.351316,17.332157,17.311623,17.289738,17.268026,17.247517,17.228302,17.210522,17.193674,17.176785,17.159771,17.14227,17.123978,17.105469,17.087666,17.070137,17.05293,17.035263,17.016323,16.995792,16.974514,16.952892,16.930786,16.908466,16.885859,16.863712,16.84297,16.82388,16.806923,16.792854,16.781002,16.77002,16.758389,16.744759,16.729134,16.712633,16.695831,16.679653,16.663862,16.648087,16.63249,16.617048,16.601597,16.586704,16.572838,16.559391,16.545935,16.532892,16.520432,16.508553,16.497028,16.48554,16.474297,16.464016,16.454063,16.444862,16.436497,16.42915,16.422241,16.412125,16.396637,16.383091,16.370998,16.357899,16.342617,16.325138,16.30722,16.28674,16.266685,16.248028,16.232077,16.218863,16.209507,16.200623,16.188526,16.169178,16.148838,16.128542,16.108086,16.087523,16.066406,16.045881,16.028784,16.016527,16.007421,16.00129,15.997535,15.995529,15.994494,15.998257,16.002048,16.004929,16.00394,16.00172,15.995841,15.985445,15.970598,15.95335,15.942953,15.94316,15.936497,15.9236355,15.896688
3.5990033,3.607791,3.6164317,3.6250505,3.6338463,3.6426075,3.6513362,3.660046,3.6679387,3.6813078,3.700388,3.7203279,3.7407477,3.7624295,3.7847376,3.8073928,3.8302445,3.8545547,3.878994,3.9034448,3.927813,3.9523964,3.977066,4.001284,4.017641,4.013958,4.052292,4.214814,5.23584,7.668349,10.690573,12.026461,12.580565,12.636445,12.733334,12.734508,12.7295,12.607029,12.503299,12.365901,12.254609,12.140278,12.027061,12.013311,12.087658,12.205237,12.357544,12.52301,12.654807,12.736438,12.768209,12.813096,12.8853855,12.939352,12.966252,13.005028,13.17634,13.613758,14.34565,15.154182,15.898044,16.527542,16.869726,16.89631,16.812048,16.749056,16.663322,16.555302,16.461348,16.40873,16.388603,16.390068,16.401546,16.412426,16.423561,16.435009,16.448822,16.462593,16.470978,16.47284,16.473879,16.476233,16.481945,16.479149,16.461864,16.43199,16.387554,16.317173,16.244026,16.166874,16.097988,16.008701,15.878475,15.775875,15.673214,15.590557,15.584263,15.600385,15.605772,15.584752,15.539524,15.479876,15.419099,15.358422,15.30022,15.223117,15.159532,15.1117525,15.081768,15.066408,15.0625305,15.065545,15.072945,15.087435,15.109486,15.1405735,15.155951,15.164413,15.170539,15.168676,15.160833,15.154479,15.156213,15.159269,15.187059,15.318598,15.539782,15.792654,16.004662,16.17247,16.352345,16.520288,16.65561,16.78714,16.911789,17.015781,17.100151,17.171936,17.227644,17.249475,17.221443,17.173105,17.103779,17.041725,16.983353,16.932407,16.899008,16.874414,16.866096,16.876839,16.881542,16.884556,16.91075,16.958336,17.03529,17.104408,17.160011,17.2052,17.239792,17.26978,17.295792,17.319283,17.343395,17.366089,17.38543,17.400482,17.411911,17.421722,17.431055,17.441078,17.45245,17.46481,17.476639,17.485424,17.489132,17.48778,17.483158,17.477531,17.47286,17.468842,17.463028,17.45457,17.443344,17.42934,17.413082,17.395573,17.37716,17.35915,17.341997,17.32613,17.310862,17.297379,17.283867,17.2687,17.252106,17.235054,17.21893,17.203259,17.188328,17.17363,17.159742,17.147503,17.135685,17.123543,17.110332,17.09573,17.07872,17.05951,17.039711,17.019516,16.999294,16.980366,16.962627,16.946098,16.930288,16.914356,16.898415,16.881996,16.86475,16.845802,16.826733,16.807924,16.79044,16.772701,16.75404,16.734089,16.713593,16.692793,16.671284,16.649338,16.62695,16.605059,16.584518,16.565567,16.548773,16.535217,16.524399,16.514996,16.505217,16.493515,16.479788,16.465141,16.450108,16.435371,16.42083,16.406128,16.391724,16.377712,16.363905,16.350792,16.338812,16.32726,16.31567,16.304317,16.293186,16.28223,16.271156,16.259743,16.248253,16.237629,16.227932,16.219965,16.213085,16.207405,16.20237,16.197073,16.190876,16.185667,16.181355,16.175255,16.16412,16.14959,16.133596,16.11578,16.097921,16.080343,16.064558,16.051418,16.042198,16.033356,16.021847,16.002953,15.980305,15.958723,15.937561,15.916037,15.893326,15.871079,15.852336,15.838247,15.82689,15.817604,15.81019,15.808043,15.809959,15.812884,15.816296,15.817753,15.816575,15.814449,15.807883,15.795679,15.780551,15.763668,15.753154,15.754562,15.750248,15.745418,15.728227
3.5420427,3.5508375,3.559508,3.5681329,3.5768,3.5854294,3.5940256,3.602607,3.610393,3.6235428,3.6423106,3.6617427,3.6815014,3.7026682,3.724525,3.7467322,3.7691345,3.7929583,3.8169065,3.84086,3.8647206,3.8887405,3.9126854,3.9365177,3.9608257,3.986347,4.008049,4.0089245,4.0676255,4.2221165,5.56209,7.825576,10.170357,11.597792,12.159624,12.689053,12.766545,12.731088,12.5924425,12.453178,12.27433,12.117266,12.001021,11.966198,12.028192,12.143293,12.27991,12.432217,12.567604,12.653629,12.698393,12.743767,12.811335,12.881026,12.897545,12.866505,12.864643,12.994211,13.460951,14.228223,14.940145,15.537412,15.861591,15.943005,15.926922,15.866793,15.818185,15.751356,15.657911,15.567001,15.452871,15.451752,15.492634,15.524511,15.539362,15.539707,15.532901,15.52861,15.521564,15.500547,15.400309,15.184633,14.855835,14.542528,14.30916,14.093458,13.912723,13.742506,13.492028,13.253641,12.996443,12.727667,12.423779,12.098384,11.845506,11.6830015,11.585755,11.521011,11.455269,11.381614,11.312932,11.245077,11.175257,11.099054,11.026468,10.9654875,10.922876,10.892241,10.8663025,10.853035,10.860541,10.897633,10.95939,11.014902,11.060289,11.121373,11.212923,11.320758,11.46375,11.661905,11.929522,12.254958,12.600971,13.086962,13.721132,14.321468,14.79328,14.988541,15.068127,15.151072,15.307638,15.491333,15.838761,16.096176,16.23143,16.33688,16.429966,16.501846,16.573828,16.65309,16.728859,16.802101,16.87061,16.924332,16.951878,16.94475,16.875854,16.807064,16.769493,16.761227,16.764275,16.770061,16.774866,16.776207,16.779009,16.761728,16.771889,16.77555,16.810886,16.843412,16.890495,16.941895,16.978992,17.014427,17.044466,17.068575,17.088295,17.106136,17.122496,17.13821,17.153858,17.169579,17.183903,17.194244,17.198345,17.196108,17.189846,17.182459,17.176495,17.17176,17.165905,17.157639,17.146568,17.132908,17.117111,17.100492,17.083351,17.066803,17.051281,17.037197,17.023724,17.011816,16.999535,16.984848,16.968113,16.95068,16.934122,16.918213,16.903402,16.88927,16.87644,16.865536,16.855131,16.844429,16.832817,16.819715,16.803814,16.785053,16.763659,16.741543,16.720016,16.701283,16.684217,16.667953,16.652233,16.636333,16.62054,16.604233,16.586905,16.568316,16.549587,16.530832,16.512886,16.494766,16.476635,16.458046,16.439095,16.419975,16.400066,16.379524,16.358438,16.337841,16.3186,16.301018,16.285137,16.272251,16.262524,16.254795,16.246944,16.237217,16.225285,16.212585,16.199474,16.18631,16.173077,16.159576,16.146563,16.134342,16.122614,16.111763,16.102167,16.093014,16.083765,16.0745,16.06493,16.0551,16.044834,16.033972,16.02274,16.012207,16.002499,15.994551,15.987949,15.982645,15.978008,15.973541,15.968897,15.965183,15.96224,15.959078,15.954856,15.948954,15.941914,15.933821,15.92692,15.912069,15.891858,15.875232,15.8634615,15.852237,15.838585,15.819263,15.800243,15.78406,15.769403,15.754708,15.739763,15.7191,15.698013,15.681555,15.667052,15.654128,15.643007,15.638208,15.640298,15.648762,15.654558,15.653631,15.649445,15.643913,15.635422,15.62385,15.6098,15.593571,15.5827675,15.580692,15.573259,15.567968,15.561228
3.4867964,3.4955347,3.5041819,3.5127583,3.521234,3.5296779,3.5381153,3.5465305,3.5541534,3.5670328,3.585426,3.6044128,3.6236749,3.64437,3.6657653,3.6875172,3.7094662,3.732695,3.7560287,3.7794523,3.802788,3.8262296,3.8495917,3.872833,3.896518,3.9210877,3.9458213,3.97104,3.992786,4.00233,4.086733,4.19646,4.955392,6.459379,7.8566275,9.269472,10.493578,11.50341,11.6754,11.885151,11.853425,11.576873,11.400211,11.233143,11.04719,10.936896,10.799674,10.694265,10.54499,10.338824,10.160364,10.024988,9.98545,10.026476,10.12281,10.180292,10.113375,9.97611,9.907442,10.016912,10.321739,10.788221,11.230098,11.451182,11.458485,11.289517,11.031038,10.631811,10.215822,9.809614,9.435856,9.16559,8.988646,8.891727,8.820372,8.732352,8.59786,8.4112015,8.205426,8.014045,7.838841,7.665582,7.4823065,7.299762,7.1264753,6.9626822,6.8178406,6.6974306,6.5960965,6.5148973,6.438095,6.3629274,6.2986007,6.2367964,6.185953,6.1484513,6.1220994,6.1039047,6.0898533,6.0776634,6.069722,6.0647087,6.061222,6.058383,6.056628,6.056996,6.0593257,6.061905,6.063711,6.065198,6.0683584,6.0751095,6.086335,6.100322,6.1168175,6.140023,6.1729813,6.216474,6.281451,6.3722076,6.4923286,6.637986,6.8159423,7.0836554,7.443904,7.8887978,8.447128,9.124365,9.922676,10.954695,12.077368,13.254018,14.318616,14.803,14.933191,15.0663395,15.257153,15.596646,15.830969,15.903315,15.986058,16.0833,16.182938,16.266022,16.348553,16.439556,16.533577,16.632587,16.73161,16.754848,16.74377,16.748367,16.749296,16.742826,16.724415,16.698437,16.67522,16.65368,16.631474,16.585453,16.547298,16.549438,16.581112,16.610174,16.641167,16.681408,16.716526,16.748156,16.77703,16.80384,16.828537,16.851606,16.871187,16.884556,16.889687,16.886175,16.87707,16.866209,16.857311,16.850487,16.84358,16.834995,16.824173,16.811447,16.79726,16.78294,16.768578,16.754879,16.74215,16.730835,16.720049,16.710497,16.700153,16.686684,16.6707,16.653654,16.637293,16.621487,16.606806,16.5929,16.580456,16.570059,16.560171,16.55004,16.539188,16.526947,16.511917,16.493717,16.472277,16.45014,16.428791,16.409756,16.392117,16.375532,16.360039,16.345112,16.331066,16.31638,16.299992,16.281424,16.262035,16.243275,16.225334,16.207243,16.18858,16.169277,16.150135,16.13137,16.111973,16.091888,16.071325,16.051783,16.033566,16.016914,16.00219,15.990992,15.983027,15.976941,15.970661,15.962561,15.9525795,15.94191,15.931065,15.920238,15.909578,15.899148,15.889709,15.881457,15.873737,15.866598,15.8604555,15.854523,15.848178,15.841555,15.834337,15.82691,15.819254,15.811119,15.802495,15.793855,15.785383,15.77822,15.772474,15.767954,15.763971,15.759933,15.7556,15.752279,15.749937,15.748032,15.74596,15.742613,15.737967,15.731512,15.724573,15.716395,15.707949,15.700805,15.696436,15.692215,15.680236,15.65601,15.63436,15.617212,15.602837,15.588688,15.573559,15.558115,15.545734,15.537626,15.531073,15.51874,15.504476,15.497427,15.498424,15.500409,15.499809,15.498812,15.4959545,15.487638,15.477581,15.466283,15.454556,15.440716,15.426589,15.413608,15.403481,15.399693,15.399332
3.4339037,3.4424558,3.4509647,3.4593837,3.4675734,3.475752,3.4839938,3.492188,3.4995584,3.5120888,3.5300105,3.5486722,3.56773,3.5880408,3.6089664,3.6302576,3.6517553,3.6742153,3.6967373,3.7195873,3.7423735,3.7652342,3.788013,3.8106623,3.8337564,3.857736,3.8818562,3.9060767,3.9306984,3.9557812,3.9791718,3.9985576,4.043144,4.1214776,4.2008305,4.723857,5.583808,6.722374,7.8611574,9.256262,9.895617,9.910238,9.585755,9.099651,8.540838,7.960515,7.5286255,7.2206893,6.996381,6.8196187,6.681209,6.602381,6.532386,6.463365,6.420215,6.391408,6.330982,6.2318707,6.122797,6.043799,6.0237494,6.0584626,6.1217623,6.169896,6.1754494,6.143407,6.084597,6.017373,5.9627295,5.9180875,5.878119,5.8422365,5.8072186,5.776063,5.7471504,5.7179127,5.6839323,5.6435347,5.599595,5.5560226,5.513953,5.4729724,5.433442,5.3965454,5.363654,5.333489,5.304283,5.2783995,5.2550116,5.234495,5.217552,5.2050314,5.195945,5.1894817,5.1848507,5.1816387,5.179974,5.180028,5.1815157,5.1837287,5.1879663,5.193267,5.198798,5.204112,5.2096195,5.2153425,5.2210484,5.2257366,5.2292414,5.232317,5.235595,5.2395515,5.2450314,5.2519474,5.263564,5.279928,5.298293,5.31854,5.3406105,5.364811,5.398591,5.4385996,5.4849305,5.541663,5.609457,5.6895733,5.7839217,5.9022064,6.0525255,6.271049,6.5999565,7.069325,7.7034616,8.540256,9.577324,10.870498,12.014402,13.117727,13.9850235,14.427389,14.786156,14.901473,14.938276,15.256239,15.570681,15.720934,15.827742,15.950893,16.073051,16.20417,16.339005,16.473446,16.598679,16.69437,16.725235,16.72076,16.697865,16.669022,16.61639,16.565496,16.533222,16.508142,16.448402,16.384312,16.304398,16.267673,16.284435,16.309635,16.357897,16.409199,16.451836,16.4902,16.521757,16.5433,16.553493,16.5513,16.540386,16.525814,16.51301,16.50277,16.49323,16.483126,16.471949,16.46027,16.448593,16.43798,16.428032,16.418787,16.410173,16.40273,16.395592,16.389267,16.381641,16.370213,16.355808,16.339989,16.324522,16.309338,16.294971,16.281292,16.269102,16.258902,16.249067,16.238867,16.228045,16.216158,16.201931,16.184591,16.164066,16.143236,16.123833,16.107355,16.092628,16.07874,16.065857,16.053833,16.042803,16.030964,16.016775,15.999556,15.980814,15.961399,15.943429,15.926147,15.908154,15.889641,15.871542,15.854067,15.836018,15.817259,15.797918,15.7789955,15.760992,15.744027,15.728321,15.716278,15.708953,15.70418,15.699468,15.693134,15.685226,15.676844,15.668444,15.659931,15.651589,15.643694,15.636995,15.631805,15.6272545,15.62328,15.620148,15.617247,15.613883,15.610154,15.605656,15.600797,15.595623,15.589959,15.583724,15.57774,15.572382,15.56865,15.566265,15.564931,15.563777,15.562199,15.560245,15.559499,15.560151,15.560927,15.561278,15.560077,15.556719,15.550385,15.542089,15.532059,15.521724,15.512926,15.507377,15.503319,15.498855,15.491745,15.486317,15.479988,15.466848,15.450288,15.433411,15.41678,15.403401,15.393993,15.385256,15.375045,15.363845,15.354843,15.349176,15.347073,15.344498,15.340429,15.334916,15.327652,15.318273,15.30765,15.296867,15.284264,15.271343,15.258866,15.248562,15.244171,15.23468
3.382741,3.391185,3.3995738,3.407838,3.415853,3.4238415,3.431849,3.4398184,3.4469924,3.4591684,3.4765491,3.4947977,3.5135517,3.5333872,3.5537562,3.5745149,3.5954862,3.6173258,3.6392198,3.66156,3.683818,3.705929,3.7279825,3.7500339,3.7725296,3.7958972,3.819403,3.8430104,3.8669834,3.8912697,3.9157367,3.9403844,3.965001,3.9896207,4.0144553,4.0447063,4.0787897,4.2104797,4.7597933,5.4376106,6.104315,6.475108,6.5338225,6.3316545,6.0206003,5.7712317,5.659374,5.582905,5.5177965,5.4776273,5.461977,5.456848,5.4465156,5.4337053,5.42929,5.433271,5.4308605,5.4100323,5.378091,5.3522797,5.3461485,5.361791,5.391556,5.4190874,5.4337397,5.43148,5.414345,5.393305,5.378582,5.372154,5.3670197,5.358021,5.3438525,5.328248,5.3118033,5.2953005,5.2769346,5.256181,5.2341948,5.2129126,5.192432,5.172482,5.153949,5.137355,5.123995,5.1121416,5.0998735,5.0859547,5.0712233,5.0582395,5.051209,5.04805,5.0474076,5.0491257,5.052637,5.0572596,5.0626135,5.0685887,5.0748577,5.0807004,5.08722,5.093524,5.0991025,5.103697,5.1081924,5.112981,5.118245,5.1244755,5.1312513,5.1387396,5.1471376,5.1555004,5.163223,5.1702538,5.177221,5.1852303,5.193844,5.202999,5.2131705,5.2254906,5.2395554,5.2547865,5.2724075,5.296126,5.323007,5.3531733,5.3870344,5.425344,5.469453,5.521263,5.5816746,5.6518183,5.730245,5.8302746,5.955557,6.1810017,6.520687,7.0083866,7.735668,8.574596,9.620029,10.773748,11.930095,12.8145075,13.558975,14.273256,14.731351,14.850225,15.22398,15.579399,15.748987,15.900587,16.041256,16.175425,16.29474,16.396584,16.480656,16.548218,16.557495,16.538517,16.521683,16.476963,16.436085,16.37054,16.281265,16.182236,16.087685,16.0299,15.955183,15.926743,15.985392,16.049229,16.102573,16.141827,16.16579,16.17268,16.166498,16.152874,16.138264,16.125134,16.11284,16.10125,16.090063,16.080124,16.072279,16.067055,16.063217,16.060038,16.056679,16.053759,16.050638,16.047707,16.042831,16.033573,16.02109,16.00694,15.992964,15.979076,15.965506,15.952579,15.941179,15.931491,15.92186,15.911411,15.900051,15.888069,15.874569,15.858374,15.839548,15.82123,15.805302,15.79344,15.78421,15.775782,15.76837,15.761877,15.756186,15.749154,15.738724,15.7238865,15.706683,15.688786,15.671309,15.653997,15.637482,15.620576,15.604401,15.589149,15.573445,15.55691,15.53982,15.522898,15.506521,15.490794,15.475944,15.464376,15.456825,15.452074,15.448244,15.443272,15.437213,15.431212,15.425769,15.420379,15.415129,15.410261,15.406473,15.404209,15.402601,15.401466,15.401003,15.400911,15.400477,15.399821,15.398487,15.3967705,15.394688,15.392231,15.389181,15.386255,15.383913,15.382856,15.382853,15.383545,15.383999,15.383734,15.383034,15.3836,15.385695,15.389074,15.392648,15.394787,15.39496,15.39172,15.385944,15.37692,15.365698,15.354099,15.345895,15.339613,15.333553,15.3259,15.320053,15.315626,15.310858,15.304241,15.29579,15.286589,15.278214,15.271521,15.265419,15.256903,15.24337,15.232355,15.225113,15.221352,15.2156925,15.206989,15.195927,15.183962,15.171841,15.160098,15.149531,15.138634,15.12859,15.119263,15.109949,15.0928955,15.074667
3.371468,3.3689249,3.367868,3.3696115,3.3711915,3.3745294,3.3827553,3.3903308,3.397307,3.4091377,3.4258914,3.4435937,3.4618719,3.4810963,3.5007868,3.5209072,3.541244,3.5626926,3.5842404,3.6061683,3.62793,3.6490493,3.6701794,3.691624,3.713511,3.7362375,3.7590966,3.782062,3.805326,3.8288531,3.85254,3.8763766,3.9003878,3.924584,3.9489884,3.97337,3.9976082,4.0201883,4.036083,4.134172,4.442288,4.742799,4.9450207,4.9901505,4.989016,5.0250506,5.0474234,5.048956,5.0485053,5.056774,5.0774183,5.1016126,5.1193104,5.1338873,5.1539063,5.1806774,5.203693,5.2152843,5.2186394,5.223515,5.236349,5.255738,5.277442,5.2954674,5.3052053,5.305826,5.2999873,5.293051,5.2925415,5.2986946,5.304695,5.3075237,5.3057714,5.300443,5.291893,5.281934,5.270032,5.2564373,5.2423806,5.229574,5.217591,5.2057505,5.19477,5.185443,5.178981,5.173175,5.166255,5.156902,5.1457844,5.13508,5.127261,5.12407,5.125037,5.128094,5.133218,5.1400385,5.144931,5.147273,5.149727,5.152211,5.1557508,5.160012,5.1648064,5.1697335,5.174934,5.180608,5.1870317,5.193675,5.2003746,5.206973,5.2132864,5.2192764,5.225375,5.2314405,5.23763,5.244507,5.251766,5.258827,5.265732,5.2730675,5.2809296,5.28916,5.2950964,5.302093,5.3093452,5.3163695,5.3226686,5.3284116,5.3345594,5.34136,5.348482,5.3566847,5.3666277,5.3784256,5.393182,5.413602,5.44153,5.4785366,5.5316257,5.6128216,5.7242384,5.9164376,6.219346,6.690791,7.462063,8.517802,9.889806,11.479826,13.1784115,14.3256035,14.481651,14.536531,15.2017565,15.505771,15.638511,15.755037,15.843107,15.920303,15.992363,16.05778,16.1106,16.158379,16.201954,16.213459,16.167522,16.109253,16.03135,15.953236,15.902943,15.860542,15.826197,15.785303,15.758179,15.741005,15.751559,15.746942,15.746155,15.741816,15.730162,15.717092,15.704428,15.693792,15.684569,15.678167,15.675879,15.677808,15.681847,15.686432,15.689578,15.691937,15.693082,15.693482,15.691092,15.683918,15.673599,15.661622,15.650028,15.63846,15.626748,15.615618,15.606074,15.598009,15.589514,15.579383,15.567667,15.555689,15.5431,15.528821,15.512759,15.498245,15.487223,15.481552,15.479549,15.478483,15.4784355,15.4792185,15.48013,15.478662,15.472351,15.459826,15.443851,15.42701,15.410811,15.39546,15.380287,15.365194,15.351423,15.338917,15.325821,15.311359,15.296358,15.281886,15.267862,15.254126,15.240786,15.230503,15.224481,15.221661,15.220436,15.21874,15.216566,15.214874,15.214012,15.212907,15.211038,15.208515,15.205909,15.204138,15.202553,15.201845,15.203047,15.205089,15.207085,15.209314,15.211275,15.212942,15.214267,15.215417,15.216147,15.217066,15.218492,15.220831,15.223776,15.226977,15.229435,15.230804,15.23207,15.235428,15.240074,15.245653,15.2509575,15.2543335,15.25486,15.250505,15.243183,15.233421,15.222321,15.212026,15.204892,15.197836,15.190424,15.181738,15.17391,15.168188,15.162727,15.155533,15.146397,15.136469,15.127174,15.119379,15.112066,15.10425,15.0963125,15.090055,15.085046,15.081413,15.075645,15.068273,15.059471,15.049288,15.03747,15.0243845,15.010769,14.995571,14.980795,14.966817,14.952441,14.936136,14.921022
3.3831544,3.3778725,3.3726816,3.3676605,3.3640506,3.3609486,3.356294,3.349526,3.3485882,3.360283,3.3761606,3.3931258,3.4107337,3.429356,3.4484968,3.4680305,3.4877567,3.5086784,3.5297155,3.5510545,3.5722132,3.592683,3.6131752,3.6340203,3.655305,3.677425,3.6996093,3.7218137,3.7443266,3.7671113,3.7900434,3.813109,3.8364172,3.859931,3.8836656,3.90738,3.930941,3.9543862,3.9779902,3.9975662,4.007715,4.092967,4.280733,4.4435306,4.585202,4.7024612,4.794882,4.8612328,4.907647,4.9492974,4.991933,5.031638,5.06384,5.09402,5.1298027,5.170112,5.197747,5.204736,5.203825,5.205018,5.211975,5.222176,5.233476,5.24365,5.251225,5.255964,5.258721,5.262306,5.2685637,5.278123,5.28454,5.2874517,5.2869434,5.2823234,5.2738867,5.264016,5.25366,5.243012,5.2326145,5.2229,5.212925,5.2017975,5.1903443,5.179284,5.1706557,5.162549,5.153715,5.143547,5.1332283,5.123875,5.115346,5.109991,5.1072907,5.1060123,5.1060677,5.1068482,5.1079006,5.109377,5.111172,5.113242,5.1167746,5.1212597,5.1261826,5.131203,5.13673,5.142865,5.149622,5.1564817,5.163381,5.1702394,5.1769567,5.183221,5.1892233,5.1950207,5.200963,5.207741,5.215022,5.2223434,5.229685,5.237342,5.245355,5.253828,5.2632837,5.2737465,5.285204,5.2976155,5.3109703,5.3253164,5.336587,5.340011,5.3422556,5.3392344,5.3253145,5.307671,5.2885003,5.2708597,5.256214,5.262763,5.27108,5.279221,5.2977905,5.3215337,5.3502855,5.3936214,5.467557,5.5651364,5.694347,5.9692163,6.527112,7.4828453,8.9208,10.623096,12.378483,13.516033,14.005169,13.989266,14.237362,14.692583,15.012475,15.221052,15.329151,15.426003,15.517014,15.616472,15.693904,15.763229,15.794325,15.775799,15.773424,15.745073,15.729021,15.739595,15.759852,15.748191,15.728951,15.683483,15.607399,15.519977,15.427068,15.333033,15.281862,15.2789,15.278087,15.283261,15.2952385,15.312887,15.330387,15.342541,15.346342,15.344532,15.340594,15.338489,15.33795,15.338299,15.343401,15.355478,15.37401,15.394411,15.411282,15.420403,15.422391,15.417527,15.401134,15.368156,15.3231125,15.27677,15.235143,15.21929,15.206558,15.1965065,15.191089,15.192059,15.197397,15.203669,15.211472,15.22072,15.226734,15.228355,15.224293,15.211418,15.1935425,15.174324,15.156227,15.139976,15.125213,15.111403,15.099884,15.090159,15.080055,15.068465,15.056089,15.043285,15.030409,15.018062,15.005888,14.996332,14.991295,14.990021,14.99124,14.992886,14.99482,14.99838,15.002979,15.006987,15.00943,15.010277,15.00993,15.009453,15.008888,15.008291,15.007917,15.010183,15.014627,15.019964,15.025549,15.030909,15.035835,15.040791,15.045668,15.051133,15.05714,15.0646305,15.072655,15.0806675,15.087492,15.09314,15.09803,15.103846,15.110731,15.118753,15.126245,15.131357,15.132896,15.128542,15.11883,15.1054535,15.090805,15.077417,15.068153,15.060394,15.053017,15.045168,15.039456,15.034957,15.030544,15.024189,15.01505,15.0043745,14.993998,14.98498,14.976555,14.96781,14.959124,14.95221,14.946564,14.942239,14.935425,14.926636,14.915792,14.903469,14.889829,14.875633,14.86228,14.848438,14.835903,14.825083,14.81456,14.802404,14.790411
3.3971677,3.3892145,3.3808098,3.3719945,3.3646717,3.359107,3.353418,3.3468313,3.339678,3.3376594,3.3416483,3.3516169,3.3637574,3.3794825,3.397719,3.416296,3.4351876,3.4554286,3.4757671,3.4963017,3.5167193,3.5369906,3.5572193,3.577474,3.5981607,3.619718,3.6411922,3.6624916,3.6842046,3.7062764,3.728489,3.7508245,3.7734454,3.7962844,3.8193517,3.8424044,3.8653092,3.88807,3.9107985,3.9331627,3.9542117,3.9662411,4.020153,4.1592016,4.3204308,4.4862137,4.641468,4.7679443,4.867055,4.9340706,4.9889135,5.031631,5.0642347,5.0820837,5.0933475,5.1066437,5.118206,5.1253715,5.1286783,5.131911,5.1364684,5.1424303,5.149023,5.154686,5.1594973,5.1633034,5.166457,5.170496,5.1765423,5.1842275,5.187331,5.187726,5.18565,5.180785,5.17301,5.1641665,5.154957,5.145469,5.137047,5.130522,5.123941,5.116089,5.1079535,5.100077,5.093315,5.0890393,5.085045,5.080832,5.0757113,5.0701265,5.0651293,5.061348,5.0593195,5.0585427,5.059022,5.0603695,5.062131,5.0643253,5.0667753,5.0694475,5.0734167,5.0782433,5.0833163,5.088236,5.0934,5.0990105,5.1050844,5.1111584,5.117179,5.1231065,5.128995,5.1346164,5.1401176,5.145466,5.1509542,5.157137,5.1638794,5.171006,5.178314,5.1857142,5.1933146,5.2012506,5.209839,5.219077,5.2288303,5.2389345,5.249303,5.2591286,5.2683926,5.2770505,5.284562,5.2910137,5.2966757,5.3028264,5.294069,5.28088,5.265836,5.238784,5.222746,5.2151556,5.209955,5.2158537,5.22369,5.228775,5.236987,5.2614613,5.2984304,5.352228,5.417119,5.4849806,5.571261,5.763259,6.1733327,6.8699427,7.893508,9.001954,10.36555,11.651094,12.641508,13.2445755,13.590889,13.765823,14.350913,14.807302,14.93021,15.057806,15.2001705,15.325565,15.44911,15.542988,15.59185,15.63068,15.667131,15.674179,15.672969,15.635168,15.563889,15.488834,15.383003,15.269777,15.185505,15.116756,15.066875,15.03678,15.045975,15.084766,15.12793,15.1648,15.189159,15.203447,15.210732,15.223524,15.230794,15.232599,15.237055,15.247715,15.264935,15.283976,15.301765,15.31583,15.326829,15.3368025,15.334503,15.313581,15.287551,15.267024,15.249819,15.2312565,15.21389,15.200844,15.194765,15.191538,15.185125,15.176718,15.170351,15.166664,15.163942,15.157072,15.139471,15.108733,15.069395,15.024983,14.983978,14.947479,14.918053,14.894184,14.8773155,14.8642845,14.85248,14.839411,14.824271,14.803787,14.779268,14.762066,14.752481,14.743378,14.737573,14.735115,14.735798,14.738074,14.742176,14.748174,14.756069,14.763948,14.76996,14.773773,14.775141,14.775374,14.775365,14.775753,14.777506,14.781223,14.788407,14.798517,14.808706,14.817965,14.826267,14.834793,14.844069,14.855198,14.867395,14.88019,14.892549,14.90443,14.914633,14.923491,14.931716,14.941081,14.951752,14.963777,14.974946,14.983068,14.986715,14.9833,14.9739,14.96088,14.946941,14.93458,14.926683,14.920337,14.914099,14.907219,14.902397,14.899943,14.898344,14.894863,14.888617,14.880448,14.871685,14.86363,14.855406,14.845917,14.836344,14.828802,14.822117,14.817263,14.810792,14.803055,14.792929,14.781452,14.768728,14.754612,14.739915,14.724913,14.71249,14.702912,14.694443,14.685062,14.676073
3.4145184,3.4035358,3.3920243,3.3804379,3.3695598,3.360015,3.3512192,3.343203,3.3351598,3.3329048,3.335824,3.3392634,3.3432565,3.3499715,3.3604243,3.370911,3.3847613,3.4036708,3.4227993,3.4423423,3.4621983,3.482173,3.502027,3.5216408,3.541679,3.5625875,3.5834174,3.6040823,3.6251411,3.6465478,3.6680655,3.6896887,3.711578,3.7336721,3.7560608,3.7784538,3.800705,3.8228073,3.8448095,3.8664393,3.8870711,3.9067898,3.9265075,3.9764028,4.109621,4.2883644,4.475557,4.6357975,4.763843,4.8738556,4.9593716,4.9983654,5.0146914,5.025775,5.039456,5.05164,5.0603004,5.0657988,5.069207,5.072826,5.076522,5.080634,5.0831184,5.0845613,5.085642,5.08582,5.085549,5.085724,5.087164,5.090149,5.0903435,5.089694,5.087115,5.082321,5.075387,5.067767,5.0605145,5.0542383,5.0483093,5.042884,5.037907,5.032881,5.028002,5.023529,5.0201287,5.016613,5.0135245,5.0106974,5.008138,5.005928,5.0043426,5.00364,5.004074,5.005205,5.0070467,5.00939,5.0119324,5.0147448,5.0177693,5.0208883,5.0250874,5.030102,5.0355687,5.0411234,5.0468664,5.0528545,5.0590143,5.0650396,5.07094,5.0763617,5.0814342,5.086439,5.0913677,5.0961514,5.1009808,5.1063495,5.1122475,5.1184616,5.1248064,5.1312666,5.137775,5.144474,5.1518297,5.1601934,5.1686764,5.177285,5.1866093,5.1966033,5.2058597,5.2139015,5.2208824,5.2261686,5.229536,5.231323,5.2323017,5.2331686,5.234497,5.2379427,5.242934,5.2382755,5.2330093,5.23005,5.2282176,5.220752,5.2146997,5.214503,5.2211742,5.2342434,5.25148,5.274622,5.308087,5.3498335,5.3934975,5.4336696,5.477517,5.5467987,5.7225976,6.00716,6.526882,7.287025,8.330012,9.76316,11.523508,13.073731,13.379591,13.752089,14.456539,14.711432,14.8418865,15.000256,15.135488,15.277963,15.382142,15.450256,15.479945,15.4737835,15.439551,15.372776,15.26981,15.200064,15.145426,15.094702,15.053661,15.043001,15.061718,15.10688,15.1693945,15.233443,15.281047,15.31441,15.33484,15.345383,15.347387,15.343458,15.341542,15.341423,15.35157,15.365654,15.387599,15.410428,15.432114,15.452576,15.464588,15.465031,15.451766,15.4305725,15.406292,15.37735,15.346585,15.319702,15.299903,15.291794,15.291809,15.294685,15.299536,15.304375,15.305735,15.297588,15.274145,15.232393,15.179219,15.122263,15.067402,15.017377,14.972855,14.932808,14.899979,14.873972,14.852634,14.83436,14.818966,14.806861,14.7962055,14.778387,14.749995,14.717974,14.679654,14.6395,14.602623,14.568325,14.540632,14.519104,14.506779,14.504889,14.506376,14.51023,14.510099,14.507814,14.504871,14.502851,14.503171,14.506814,14.512987,14.52161,14.532672,14.544281,14.554956,14.565933,14.578406,14.59384,14.610701,14.628142,14.644606,14.660296,14.6742,14.686968,14.699561,14.713627,14.72941,14.74659,14.762829,14.776073,14.784346,14.784922,14.779659,14.769968,14.759335,14.750472,14.7461605,14.743616,14.741284,14.738516,14.73793,14.74062,14.744698,14.74651,14.745303,14.741845,14.736687,14.730884,14.724389,14.716082,14.706617,14.69825,14.692395,14.689505,14.685663,14.680702,14.673192,14.6639385,14.651905,14.636429,14.619568,14.602725,14.589394,14.579987,14.572621,14.565523,14.559217
3.4273286,3.4174242,3.4047837,3.3897052,3.376495,3.3644574,3.3522358,3.3403387,3.3296216,3.3250399,3.3258603,3.328002,3.3319561,3.3381178,3.3424854,3.3461444,3.3540883,3.364764,3.376234,3.391218,3.4100459,3.4286568,3.4475045,3.4666235,3.4860525,3.5062318,3.526492,3.5468278,3.567402,3.5881982,3.6090517,3.6299925,3.6511087,3.67239,3.6940913,3.7158315,3.7374284,3.7588813,3.7802362,3.8012788,3.8215303,3.8416169,3.8586564,3.884285,3.9519317,4.106767,4.2933836,4.48001,4.6601152,4.8035326,4.889064,4.944192,4.972859,4.9889092,5.002527,5.010723,5.0150557,5.017324,5.019902,5.021289,5.0204663,5.0205727,5.0214214,5.022661,5.0238085,5.024691,5.025511,5.026575,5.0280204,5.0298367,5.0284595,5.0255394,5.0220222,5.0178304,5.0124874,5.0069838,5.001461,4.995574,4.989547,4.984149,4.9792814,4.974515,4.9700513,4.966099,4.9632597,4.960595,4.9589067,4.957794,4.957159,4.9569187,4.957222,4.9581385,4.9598083,4.961947,4.964733,4.96805,4.971654,4.975437,4.979252,4.9829855,4.9875064,4.992575,4.997921,5.003349,5.009019,5.0149336,5.020938,5.026632,5.0318894,5.036993,5.042074,5.047003,5.051888,5.0566316,5.061343,5.06653,5.0723596,5.078723,5.085395,5.092216,5.0990353,5.105933,5.113206,5.1208024,5.128341,5.135804,5.1432543,5.1504545,5.157156,5.1633434,5.169425,5.1748567,5.1792393,5.182148,5.1834135,5.184052,5.18456,5.1850643,5.186837,5.191192,5.1967573,5.2027984,5.209118,5.217006,5.2269635,5.2355537,5.237813,5.2414403,5.2370024,5.2221613,5.210206,5.204219,5.2011614,5.2032595,5.2080708,5.21483,5.218025,5.2248106,5.2328844,5.2509484,5.3053946,5.4443026,5.775543,6.587223,8.11409,10.339279,12.621458,13.238268,13.68862,14.367413,14.575845,14.651279,14.732397,14.84273,14.918351,14.967964,14.991449,15.010201,15.024071,15.011152,14.971169,14.947381,14.949468,14.973455,15.014677,15.068516,15.13534,15.204885,15.242541,15.270886,15.2916565,15.306307,15.31267,15.312907,15.310563,15.30875,15.310701,15.315212,15.31876,15.321913,15.327106,15.33472,15.343608,15.352255,15.357302,15.358682,15.35561,15.34514,15.330849,15.318839,15.312701,15.314606,15.314402,15.311558,15.312441,15.314842,15.316184,15.311853,15.297196,15.269433,15.2317295,15.187412,15.141909,15.099543,15.062973,15.02329,14.983366,14.949215,14.921274,14.897439,14.87673,14.85934,14.841844,14.82172,14.797274,14.768742,14.737397,14.705723,14.674999,14.645256,14.620969,14.603047,14.58989,14.577024,14.558683,14.53742,14.5130415,14.485613,14.454392,14.423723,14.396166,14.374041,14.356449,14.339641,14.338335,14.340038,14.337876,14.3377495,14.342968,14.354376,14.36821,14.382304,14.394454,14.404884,14.412931,14.419749,14.428364,14.440079,14.455496,14.472894,14.4918995,14.512427,14.529947,14.540846,14.54898,14.544277,14.536484,14.531533,14.53074,14.531979,14.53388,14.536678,14.544313,14.55358,14.562468,14.569454,14.5737705,14.575367,14.574347,14.5712595,14.566019,14.557753,14.547426,14.537593,14.530615,14.527424,14.524451,14.52218,14.51856,14.512459,14.502665,14.489254,14.473215,14.457062,14.444599,14.435689,14.428713,14.423123,14.419063
3.4259143,3.4196432,3.4108677,3.398685,3.3845015,3.3693657,3.3555732,3.3411095,3.3270133,3.318652,3.3158395,3.3150089,3.3170323,3.3222997,3.3291707,3.3344374,3.3387914,3.343965,3.3507135,3.3603878,3.3712158,3.3814692,3.3953328,3.4131904,3.4310608,3.4505682,3.4704533,3.4903188,3.510302,3.5304456,3.5506635,3.5709753,3.5914624,3.6121097,3.6332028,3.654339,3.6752424,3.6959891,3.716626,3.7370138,3.756837,3.7763567,3.7956438,3.809547,3.8437552,3.9289556,4.100616,4.330101,4.559161,4.740609,4.860033,4.9330606,4.958121,4.957579,4.968754,4.9757977,4.981779,4.9845514,4.986143,4.985896,4.9857397,4.9858685,4.9863973,4.987205,4.9876504,4.9876375,4.987623,4.987977,4.9888926,4.9903502,4.9888973,4.986404,4.983638,4.980502,4.976449,4.9721413,4.967637,4.9626646,4.9574013,4.952702,4.9486504,4.944906,4.941636,4.938906,4.937202,4.9356174,4.934818,4.934665,4.935054,4.9358606,4.9372168,4.9390883,4.941485,4.9441338,4.94724,4.950821,4.954712,4.9587746,4.9627934,4.9666243,4.971068,4.9759374,4.9810667,4.9863176,4.9918447,4.997617,5.0034275,5.008915,5.0143023,5.0196905,5.025021,5.029994,5.034928,5.0397096,5.04436,5.0493298,5.054832,5.060832,5.0671263,5.0734425,5.079504,5.0854025,5.0912657,5.097108,5.1025414,5.107673,5.1126084,5.1171856,5.121197,5.124611,5.12694,5.1278677,5.127583,5.126319,5.1240387,5.121289,5.119408,5.1184416,5.1187134,5.120838,5.123767,5.126895,5.1309633,5.136537,5.143325,5.151828,5.162098,5.1724143,5.1825023,5.1933317,5.204571,5.2073154,5.18967,5.1698103,5.150792,5.1303387,5.1053476,5.0865803,5.0743465,5.066346,5.0655975,5.07906,5.1035337,5.1261687,5.164729,5.3530264,6.0783696,7.792549,10.389479,12.485839,12.943964,13.357406,13.824845,14.128607,14.209286,14.242598,14.243978,14.260629,14.290121,14.338839,14.394803,14.462493,14.5339775,14.580018,14.619074,14.658316,14.702251,14.749163,14.797602,14.842226,14.878942,14.907117,14.921723,14.929734,14.933451,14.934879,14.93643,14.936905,14.932135,14.923416,14.917023,14.916414,14.92083,14.926685,14.9293995,14.927665,14.923369,14.916138,14.909795,14.908054,14.913088,14.926682,14.943537,14.951623,14.95709,14.958397,14.955669,14.947369,14.936554,14.924631,14.909403,14.892338,14.87747,14.865898,14.858473,14.846251,14.8347645,14.825548,14.816986,14.808442,14.800598,14.795961,14.79096,14.78256,14.775332,14.764849,14.744174,14.720245,14.696398,14.664078,14.636683,14.616848,14.602112,14.588073,14.576593,14.570481,14.555189,14.535379,14.513084,14.488437,14.4666,14.446754,14.427929,14.411182,14.3928585,14.372196,14.352091,14.337357,14.330921,14.333737,14.337252,14.339001,14.337299,14.332085,14.322941,14.312216,14.309376,14.313522,14.323942,14.340651,14.3552,14.362119,14.358972,14.345142,14.324926,14.303606,14.2853,14.273991,14.267644,14.263901,14.260569,14.263893,14.2856655,14.303821,14.314619,14.324425,14.333327,14.339643,14.342544,14.342096,14.338997,14.333406,14.324346,14.314708,14.308327,14.306584,14.3061695,14.30755,14.307859,14.305715,14.298964,14.287376,14.272314,14.256923,14.244801,14.23683,14.230724,14.225828,14.222419
3.4134269,3.410812,3.4058652,3.3988013,3.389471,3.3769684,3.3612127,3.3432002,3.325876,3.3145955,3.3075008,3.3024726,3.3018146,3.3055077,3.312017,3.3197427,3.3267193,3.33351,3.3404436,3.3464756,3.351232,3.3552399,3.3628323,3.3706565,3.3807259,3.397191,3.415308,3.4344282,3.454064,3.4736032,3.4932127,3.5129557,3.532962,3.5531602,3.5737119,3.5942779,3.6144576,3.6344543,3.6543245,3.6740067,3.6933367,3.7123976,3.7310185,3.7502227,3.7610426,3.8013105,3.9071364,4.1094112,4.367404,4.6326995,4.81719,4.938662,4.9796333,4.9776945,4.9650164,4.9565487,4.9644885,4.9666452,4.9665947,4.9659166,4.964506,4.963772,4.9636483,4.963873,4.9639425,4.963835,4.9639034,4.9641504,4.9650917,4.9666653,4.965599,4.9638195,4.9619346,4.9599686,4.957267,4.9542522,4.9508343,4.9468107,4.9423504,4.938372,4.9350967,4.932247,4.92998,4.9282484,4.927436,4.926627,4.9266095,4.9272375,4.928398,4.9298763,4.9317436,4.9339514,4.9365487,4.9392567,4.9423294,4.9458675,4.949745,4.953802,4.957797,4.9615483,4.965807,4.970389,4.9752197,4.9802113,4.985552,4.991177,4.99685,5.0021744,5.0073543,5.012527,5.0178423,5.0232506,5.0285425,5.033424,5.03806,5.0428586,5.0481305,5.0539107,5.059907,5.065751,5.0711145,5.0761313,5.0808635,5.0852757,5.089036,5.0922613,5.095027,5.097117,5.098526,5.0991116,5.0985966,5.096879,5.0943856,5.091341,5.08755,5.0832806,5.0787697,5.074729,5.071565,5.0693035,5.068117,5.068186,5.069685,5.0740385,5.080236,5.0887384,5.0992584,5.1092987,5.1173797,5.123686,5.1289015,5.1339655,5.140985,5.1476803,5.152768,5.1487904,5.1172647,5.0892973,5.064765,5.0398273,5.0158095,5.005746,4.999007,4.9891024,5.0048313,5.047001,5.0738554,5.06388,5.24613,6.0039806,7.6992536,9.771522,11.506927,12.14785,12.538001,12.932643,13.04608,13.147152,13.269099,13.408037,13.553883,13.682287,13.794073,13.893253,13.977247,14.034201,14.084049,14.129722,14.167385,14.197502,14.220504,14.240196,14.255323,14.266045,14.274732,14.281451,14.2882185,14.2950945,14.301289,14.303493,14.300512,14.3019085,14.3081,14.313738,14.315603,14.311607,14.304704,14.29525,14.286182,14.281109,14.289926,14.312975,14.345571,14.3753395,14.399522,14.415968,14.4232235,14.422878,14.413779,14.393019,14.363237,14.332245,14.310242,14.291616,14.273181,14.258337,14.248917,14.244747,14.245765,14.250298,14.256929,14.2667675,14.279289,14.296509,14.316732,14.337416,14.35445,14.364393,14.373049,14.386503,14.402938,14.420041,14.437408,14.45281,14.464571,14.4728985,14.480461,14.488954,14.486032,14.459857,14.43445,14.40825,14.381862,14.357487,14.334656,14.3141,14.300877,14.300581,14.30649,14.313248,14.319345,14.325839,14.328205,14.327131,14.322264,14.312977,14.306388,14.301559,14.299097,14.300417,14.303805,14.304763,14.300777,14.289213,14.272634,14.253314,14.229524,14.201454,14.178579,14.15727,14.137075,14.12557,14.113554,14.101696,14.092468,14.08591,14.083382,14.081068,14.075611,14.066366,14.056397,14.048139,14.037718,14.0281925,14.02188,14.021473,14.022587,14.025787,14.0278635,14.027515,14.023101,14.017236,14.00782,13.996902,13.988005,13.981676,13.9759,13.971121,13.968669
3.3841558,3.3859916,3.385938,3.384273,3.380606,3.3730147,3.3615274,3.346692,3.3290834,3.3141022,3.3016005,3.2916565,3.2880914,3.289757,3.2954154,3.3029885,3.3117437,3.3212166,3.3292313,3.3356504,3.3408678,3.3444471,3.3464713,3.3478003,3.351915,3.3592696,3.3671217,3.38158,3.3987737,3.4173632,3.4368107,3.4562364,3.4757428,3.4954343,3.5152955,3.5351298,3.5546887,3.5740871,3.5933626,3.612464,3.631248,3.6498163,3.668054,3.6863575,3.7055297,3.713293,3.7582102,3.8733816,4.0890446,4.3936243,4.6692195,4.8824253,4.993723,5.022732,4.992961,4.9604797,4.961708,4.9713645,4.9706516,4.9662457,4.961747,4.9592295,4.958318,4.9582705,4.9580736,4.9578667,4.9583073,4.9592333,4.9609656,4.9631886,4.9627485,4.9616427,4.96043,4.9592266,4.9572926,4.954981,4.952221,4.948819,4.944906,4.9413633,4.9384823,4.936052,4.934264,4.933025,4.932658,4.9322023,4.9324837,4.9333405,4.9346447,4.936166,4.9379864,4.9400644,4.9423943,4.944749,4.947404,4.9505215,4.9540052,4.957692,4.961358,4.964842,4.9688435,4.9731994,4.9778614,4.9827576,4.988063,4.993686,4.9993815,5.004752,5.0100155,5.0153255,5.0208054,5.0263004,5.031803,5.0370827,5.042058,5.047095,5.052426,5.058065,5.063776,5.069255,5.0741453,5.0785108,5.082392,5.085723,5.0883,5.0902176,5.091631,5.0924606,5.092413,5.091455,5.0892386,5.08564,5.081032,5.0755415,5.069131,5.0621357,5.055299,5.048706,5.0427256,5.03864,5.0363073,5.033498,5.0311737,5.0301185,5.0309753,5.034374,5.0399117,5.04666,5.0554347,5.0636134,5.0701723,5.075884,5.0810738,5.0851564,5.0866547,5.086301,5.088065,5.0901875,5.0947657,5.098819,5.0842443,5.054717,5.0320435,5.0185413,5.0079565,5.0016117,5.008315,5.028761,5.040394,5.020446,4.97313,5.0913744,5.6213627,6.7185917,8.067366,9.393673,10.198392,10.884926,11.476458,11.8907585,12.335783,12.618868,12.719814,12.777928,12.80916,12.832708,12.86179,12.8922415,12.909225,12.910706,12.908075,12.9012375,12.891817,12.892033,12.9079685,12.9343605,12.969221,13.006719,13.035473,13.051019,13.056406,13.051462,13.0310335,12.998365,12.96001,12.919079,12.884865,12.858679,12.836279,12.815207,12.7995405,12.809161,12.8492775,12.879056,12.900701,12.907886,12.894779,12.865801,12.826092,12.782349,12.740868,12.704594,12.673475,12.6497135,12.620104,12.591539,12.572569,12.572698,12.596012,12.640486,12.703178,12.788252,12.892361,13.011593,13.141787,13.277782,13.395822,13.492979,13.581273,13.658581,13.734277,13.77613,13.805426,13.827915,13.844797,13.859436,13.872381,13.889243,13.911398,13.939436,13.974133,14.01679,14.064081,14.108597,14.150385,14.186869,14.209326,14.227753,14.245092,14.262815,14.277365,14.286406,14.287091,14.285221,14.280063,14.266706,14.2688465,14.282013,14.300317,14.316334,14.330236,14.340799,14.34807,14.35009,14.344401,14.335589,14.314503,14.298802,14.285864,14.272957,14.255255,14.228959,14.200294,14.17168,14.143763,14.11764,14.095221,14.070714,14.043676,14.015598,13.987066,13.945294,13.907753,13.8771515,13.849705,13.831803,13.815711,13.802341,13.7886505,13.7711935,13.750673,13.739283,13.7292,13.720678,13.712941,13.705505,13.695816,13.685644,13.678418
3.3498993,3.3534746,3.3563654,3.3583858,3.3585734,3.3555365,3.3489337,3.3386269,3.324879,3.3128104,3.3025408,3.291024,3.2822976,3.279963,3.282849,3.288991,3.2968175,3.3059735,3.3143716,3.321455,3.327207,3.3318129,3.3356197,3.3390567,3.3416712,3.3441553,3.345098,3.3489,3.3551795,3.3671684,3.3831763,3.3998775,3.4190626,3.438834,3.4581883,3.4771752,3.4962072,3.5151408,3.5339704,3.552599,3.5707831,3.5888276,3.6067438,3.624611,3.6424553,3.6611567,3.6682255,3.7065194,3.8268538,4.060766,4.3825717,4.6833043,4.894741,5.0123253,5.022384,4.9979362,4.9665594,4.976861,4.985469,4.9833803,4.9749823,4.967416,4.963505,4.961798,4.9604044,4.959778,4.960274,4.9621267,4.9649744,4.967981,4.968119,4.967476,4.9666395,4.965763,4.9640646,4.961972,4.959532,4.9564877,4.9529095,4.949585,4.9468594,4.944604,4.943058,4.9420724,4.9419603,4.941721,4.9421844,4.943134,4.9444003,4.9457636,4.9473534,4.9491277,4.951078,4.95299,4.9551125,4.9576764,4.9606056,4.963759,4.9669533,4.9700723,4.9737673,4.9778786,4.9823623,4.9871426,4.992393,4.998029,5.003807,5.0093517,5.0148706,5.0204954,5.0263314,5.032141,5.0379047,5.0434,5.0485735,5.0537324,5.05908,5.0646553,5.0701976,5.0754976,5.0801272,5.0840425,5.087326,5.089964,5.09184,5.093049,5.093717,5.093725,5.0928364,5.0911393,5.0881596,5.0837317,5.0784655,5.0724344,5.0654697,5.057723,5.0492907,5.0408616,5.0329304,5.0262156,5.0209627,5.0164967,5.0131187,5.0108204,5.0095754,5.009453,5.0104494,5.0125513,5.015694,5.0203714,5.0256824,5.0317116,5.037562,5.0421333,5.0447655,5.0450926,5.0441127,5.043192,5.043871,5.0451612,5.049904,5.058053,5.0679846,5.0815406,5.0769515,5.0523887,5.0309477,5.0087404,4.977785,4.952323,4.94107,4.9346714,4.9154973,4.882121,4.895191,5.0710883,5.4710846,6.044259,6.756769,7.5335054,8.322529,8.960672,9.298413,9.483028,9.554423,9.55294,9.536293,9.52682,9.498601,9.450094,9.405677,9.352973,9.29496,9.262859,9.26606,9.302411,9.354286,9.394544,9.401072,9.3707905,9.313466,9.242309,9.163267,9.079994,9.00045,8.94116,8.90824,8.895653,8.895581,8.902001,8.911479,8.915122,8.906874,8.886878,8.85483,8.810953,8.756238,8.681384,8.591338,8.509406,8.446365,8.40554,8.383378,8.377463,8.384195,8.398158,8.418108,8.44533,8.482541,8.535157,8.6155815,8.74109,8.922653,9.1321125,9.361111,9.614201,9.879841,10.173305,10.45513,10.665228,10.847492,10.950098,11.016611,11.069452,11.116505,11.164108,11.2117605,11.276492,11.366157,11.481098,11.616756,11.780268,11.966282,12.151482,12.339936,12.521162,12.65361,12.768143,12.868898,12.953482,13.0145035,13.049893,13.069924,13.091991,13.136923,13.213711,13.318586,13.433381,13.527302,13.594543,13.661655,13.735634,13.800871,13.846998,13.883746,13.921453,13.965715,14.020851,14.0798435,14.137169,14.170715,14.194185,14.205701,14.211084,14.218742,14.224111,14.230505,14.217541,14.193834,14.172617,14.149736,14.114981,14.070955,14.020351,13.974356,13.937185,13.906332,13.883381,13.862225,13.838367,13.806059,13.765427,13.72592,13.6954565,13.667845,13.640104,13.608961,13.579118,13.557615
3.327346,3.3278892,3.3294153,3.3310618,3.3315942,3.3302624,3.3268194,3.320639,3.3110566,3.3031418,3.2967439,3.288845,3.2810483,3.2782931,3.277683,3.2802625,3.2854986,3.292529,3.2995858,3.3059213,3.311388,3.3161044,3.320561,3.3248198,3.328671,3.3325677,3.3358564,3.3380427,3.3401,3.342256,3.3475032,3.3552833,3.3690565,3.383257,3.4000201,3.4190757,3.438148,3.4569502,3.4753604,3.493434,3.511042,3.5285716,3.5461078,3.5635667,3.5809398,3.5983727,3.616674,3.624772,3.659557,3.7726212,3.9962332,4.3239036,4.629384,4.867237,4.98939,5.029954,5.0115833,4.9908953,4.9929857,4.9976683,4.994403,4.986612,4.9789686,4.9728756,4.9677577,4.9650717,4.964595,4.966279,4.969449,4.9728575,4.9732723,4.9726233,4.971752,4.970809,4.9689703,4.9667034,4.9642315,4.9612327,4.9577074,4.9543524,4.95157,4.9492893,4.94781,4.946933,4.947003,4.9469833,4.9476852,4.9488144,4.9501524,4.951462,4.952929,4.9545507,4.956305,4.9579644,4.959724,4.9618134,4.964201,4.966816,4.9695315,4.9722686,4.975651,4.9795384,4.983865,4.9885254,4.993694,4.9993243,5.0052195,5.0110493,5.017006,5.0231276,5.029401,5.0356135,5.0416913,5.0474563,5.052928,5.058366,5.0639305,5.069646,5.075228,5.0804796,5.084918,5.0884857,5.0913396,5.093523,5.095035,5.095974,5.096427,5.0962725,5.095269,5.093565,5.090811,5.086856,5.082244,5.076996,5.070918,5.064104,5.0567055,5.049188,5.04187,5.035337,5.0298643,5.0255346,5.021598,5.0175004,5.0134325,5.0097528,5.006463,5.003704,5.0015955,4.999997,4.9986424,4.9973154,4.9963837,4.9954443,4.993788,4.991479,4.98914,4.9880085,4.988942,4.989852,4.9935446,4.998749,5.004877,5.0115423,5.0219755,5.035441,5.0495653,5.055644,5.0286736,4.9946604,4.9595995,4.9196515,4.8949947,4.8905954,4.9042006,4.923064,4.9443703,4.9656954,4.9897776,5.038147,5.1453915,5.321085,5.539275,5.744117,5.9160824,6.0407634,6.1080666,6.1228204,6.1079645,6.0837154,6.0638013,6.056368,6.061234,6.0742283,6.08244,6.084594,6.0808535,6.0718346,6.058663,6.042348,6.0223713,6.0117044,6.007846,6.0059795,6.0080495,6.0134196,6.020909,6.0292187,6.0369463,6.043192,6.0475016,6.050355,6.0526533,6.0559607,6.061535,6.068771,6.0754156,6.080543,6.0847397,6.088745,6.0943885,6.1030316,6.113349,6.121788,6.126986,6.1282454,6.1261673,6.1216207,6.116438,6.1129007,6.1122494,6.116224,6.1286774,6.1555014,6.1912994,6.2327776,6.282939,6.338008,6.396302,6.458048,6.528013,6.602123,6.672856,6.743829,6.816393,6.888981,6.9625797,7.038991,7.123598,7.227127,7.35806,7.5188518,7.7084513,7.9309177,8.183852,8.439234,8.662363,8.868943,9.06105,9.226146,9.364796,9.47392,9.559338,9.651236,9.781667,9.957133,10.172402,10.392534,10.559608,10.712372,10.926113,11.154127,11.365386,11.551544,11.737701,11.950443,12.19697,12.445707,12.693082,12.920856,13.100561,13.263353,13.383834,13.467514,13.542515,13.592079,13.646279,13.707554,13.758173,13.799128,13.83008,13.847223,13.857086,13.858973,13.860219,13.863026,13.868708,13.880661,13.884547,13.890921,13.891493,13.880843,13.850312,13.816985,13.789533,13.763699,13.739273,13.721979,13.719322
3.3192458,3.319463,3.3184497,3.3165622,3.3147497,3.3129947,3.3108876,3.3076377,3.301304,3.2968862,3.2949116,3.2918532,3.2877588,3.2844071,3.2818792,3.2791548,3.2793226,3.2820096,3.2863932,3.2910223,3.2952342,3.2993178,3.3036008,3.308172,3.3128529,3.317498,3.3213472,3.324842,3.328529,3.333077,3.3378947,3.3428745,3.3463612,3.3479183,3.3555937,3.3692417,3.3832874,3.3985667,3.4159818,3.4340568,3.4514563,3.4686947,3.485932,3.503121,3.5203292,3.5375643,3.5547953,3.5725718,3.5827465,3.6155825,3.7077715,3.9146118,4.231961,4.568325,4.8220167,4.989618,5.0462985,5.041759,5.0118537,5.003,5.0069666,5.0046415,4.997059,4.988204,4.979141,4.9725437,4.9690046,4.9688654,4.97159,4.974844,4.975074,4.974422,4.9734993,4.972457,4.970519,4.9681225,4.9656878,4.9628468,4.959511,4.9562807,4.953579,4.9513702,4.9500084,4.949442,4.9499636,4.950412,4.9515696,4.9530573,4.954614,4.9559917,4.957447,4.959035,4.960745,4.9623213,4.963895,4.9656806,4.967675,4.9698462,4.97211,4.9744325,4.9774275,4.9809904,4.9850225,4.989403,4.9943085,4.999738,5.0055556,5.0115175,5.017782,5.024335,5.03107,5.0377283,5.044161,5.0501966,5.055958,5.061675,5.0674677,5.0733666,5.079091,5.0843782,5.0887213,5.0920715,5.0945787,5.096363,5.097537,5.0981884,5.0983644,5.097969,5.096751,5.0948544,5.0922318,5.088958,5.085266,5.0810394,5.0761566,5.070646,5.064604,5.0583324,5.052042,5.0462046,5.0409913,5.036411,5.03194,5.027569,5.023037,5.018044,5.0123944,5.0063176,5.000348,4.9945364,4.9887037,4.982749,4.9771767,4.9719152,4.9666176,4.9613724,4.9565573,4.9526176,4.9508166,4.9509544,4.9526987,4.956217,4.9615116,4.9682713,4.976755,4.9841976,4.9901733,4.995797,5.003977,5.0131717,5.0094776,4.974368,4.944516,4.919846,4.8973837,4.889516,4.8963413,4.9183855,4.95527,5.0034,5.0545797,5.1086197,5.1680956,5.2310596,5.294738,5.3573093,5.4173536,5.4755845,5.531232,5.5831738,5.630103,5.6729593,5.711012,5.742243,5.767765,5.7881756,5.8041863,5.816366,5.8259726,5.8331375,5.8383617,5.8411207,5.842922,5.8461514,5.852024,5.860811,5.8722305,5.8848505,5.8967957,5.9076996,5.917654,5.9272614,5.937125,5.9481153,5.960468,5.973176,5.9846926,5.993231,5.999066,6.003503,6.008062,6.0130234,6.017329,6.0187826,6.015671,6.0068526,5.9935126,5.9772987,5.960429,5.9447517,5.9315796,5.9217606,5.915633,5.913148,5.9151936,5.9222603,5.9326286,5.943529,5.952363,5.9575787,5.957177,5.9542313,5.9517665,5.951293,5.951454,5.9514575,5.951312,5.9526973,5.955755,5.9606075,5.96844,5.9798317,5.9948177,6.012664,6.0322113,6.0555444,6.0855875,6.114667,6.140297,6.171791,6.209083,6.25305,6.305151,6.364101,6.4266863,6.4928617,6.5660086,6.6599045,6.7952747,6.9675817,7.1537285,7.3507233,7.566252,7.804845,8.070181,8.381313,8.745579,9.083244,9.4144,9.726002,10.02489,10.297577,10.559861,10.801699,11.02302,11.188515,11.359156,11.582159,11.819181,12.052921,12.289786,12.491139,12.654989,12.788167,12.906115,13.038366,13.175085,13.279236,13.332207,13.354902,13.36665,13.387219,13.427221,13.463421,13.499701,13.532404,13.559088,13.585079,13.613951
3.3202252,3.3205194,3.3200254,3.319119,3.3177848,3.3161845,3.314412,3.3123767,3.3079844,3.305416,3.3049912,3.3034408,3.30027,3.2960706,3.290185,3.2835424,3.2786903,3.2759628,3.2767382,3.2787666,3.2817001,3.284698,3.2880845,3.2921638,3.2967322,3.3016033,3.305969,3.3102975,3.3150234,3.3205187,3.3265364,3.3327427,3.338484,3.342924,3.3455997,3.3479178,3.3511963,3.357709,3.3695605,3.384238,3.399068,3.4146378,3.4306705,3.4466033,3.4619594,3.4772866,3.493288,3.5101588,3.527067,3.5406084,3.573978,3.6374493,3.8333826,4.141177,4.500408,4.8022165,4.9888387,5.0647025,5.0444107,5.014269,5.0115986,5.020953,5.015758,5.0041847,4.989538,4.977074,4.970294,4.968975,4.970862,4.972736,4.9725695,4.97211,4.971111,4.969861,4.967992,4.9660683,4.9642363,4.962119,4.959516,4.9569306,4.954804,4.9531274,4.952279,4.952259,4.9533806,4.9544144,4.956099,4.9579716,4.959736,4.9611697,4.962616,4.9641857,4.9659004,4.9674606,4.9689417,4.970516,4.972179,4.973918,4.9756947,4.9775085,4.979938,4.982909,4.9863195,4.9900484,4.9942904,4.9991107,5.0044584,5.010169,5.0163765,5.022998,5.029826,5.036559,5.0431366,5.0493565,5.0552588,5.0610847,5.0669384,5.072878,5.078657,5.0839634,5.0882773,5.0915504,5.0939436,5.095639,5.096838,5.0975823,5.097805,5.097401,5.096086,5.0941696,5.0917635,5.089097,5.0863276,5.0832806,5.0798035,5.0758367,5.0714164,5.0667043,5.06178,5.057041,5.052681,5.048745,5.0447397,5.040482,5.0355716,5.02989,5.0235686,5.016532,5.008747,5.0003247,4.991271,4.981555,4.971946,4.9628353,4.9539957,4.9455776,4.9381113,4.9318213,4.9274626,4.9248247,4.9238715,4.924036,4.9256196,4.9294114,4.933989,4.938143,4.9440956,4.9512043,4.9566975,4.959024,4.9627585,4.9719505,4.9826164,4.9862175,4.9720774,4.96382,4.962915,4.970355,4.9839163,5.005301,5.037739,5.082965,5.1377544,5.1988306,5.263872,5.3278065,5.3889856,5.448636,5.5070066,5.563489,5.6166353,5.6649275,5.706153,5.7422943,5.7732496,5.799678,5.8216057,5.8390865,5.8522296,5.8615065,5.8683224,5.87428,5.8799887,5.886299,5.894128,5.903713,5.9149632,5.926757,5.937322,5.9470043,5.9561186,5.9654856,5.975676,5.987299,6.0004907,6.014406,6.0276814,6.0387115,6.0472126,6.0533986,6.0585012,6.062951,6.0657415,6.0654488,6.060109,6.048442,6.032406,6.0138173,5.99444,5.976074,5.9598536,5.946368,5.935684,5.927821,5.922611,5.9195333,5.9180493,5.916478,5.913328,5.9077387,5.899804,5.8918395,5.8845143,5.876875,5.8710775,5.866061,5.8614664,5.856707,5.852193,5.8489604,5.8467445,5.845995,5.846578,5.8477316,5.847729,5.844143,5.8369536,5.828619,5.8222256,5.818225,5.817321,5.8204746,5.826666,5.834729,5.8425403,5.8517485,5.8649597,5.878833,5.8957148,5.917592,5.943104,5.972768,6.003849,6.035216,6.064372,6.1033034,6.1591196,6.2260923,6.2997065,6.3926682,6.5137253,6.6535974,6.81712,7.0122113,7.243882,7.5006866,7.7538495,8.013403,8.29913,8.6125145,8.944857,9.287397,9.600058,9.883488,10.153267,10.453928,10.768158,11.014196,11.232666,11.395993,11.556351,11.753734,11.977866,12.133459,12.26693,12.398008,12.530846,12.672598,12.815224
3.3223603,3.3232584,3.3234267,3.3233304,3.3230653,3.3227067,3.3224146,3.3220868,3.3197908,3.3195448,3.3207545,3.3200352,3.3161464,3.3102872,3.302974,3.2928064,3.283634,3.2770903,3.2741818,3.2730422,3.2736635,3.2750807,3.2769072,3.27956,3.2828689,3.2868786,3.2909176,3.295464,3.300762,3.3069234,3.3135703,3.320601,3.3271563,3.332744,3.337257,3.3409312,3.3439345,3.3473616,3.3519435,3.3591185,3.368364,3.3798213,3.3928719,3.4066968,3.4203937,3.434381,3.4473767,3.4622202,3.4803815,3.4956326,3.4952273,3.5302508,3.6000867,3.7753668,4.088261,4.4730587,4.7839584,4.9797106,5.0318747,5.016167,5.0063896,5.0260773,5.035228,5.0251727,5.0053678,4.9841743,4.97146,4.968096,4.9688063,4.9710097,4.9708157,4.969821,4.9689426,4.9678464,4.966262,4.9648724,4.9637675,4.9625716,4.960984,4.959372,4.958083,4.9571095,4.956822,4.9573164,4.9589543,4.9604683,4.962548,4.96476,4.9667864,4.968357,4.969879,4.971506,4.9732933,4.9748745,4.9762926,4.9776816,4.9790354,4.980356,4.9816647,4.982999,4.984878,4.987261,4.99002,4.992999,4.996412,5.000392,5.0049887,5.0101075,5.015841,5.0220356,5.028403,5.0346174,5.0406113,5.0461807,5.051436,5.056604,5.0618896,5.067352,5.0727763,5.077818,5.0819745,5.085181,5.0877113,5.0897636,5.091488,5.0928726,5.0937333,5.093935,5.093176,5.091894,5.090251,5.088458,5.0866246,5.0847063,5.082539,5.0799856,5.0769863,5.073619,5.069886,5.066141,5.062604,5.059367,5.0560102,5.05229,5.047739,5.042096,5.0353584,5.0275326,5.018379,5.008011,4.996607,4.9844913,4.9726725,4.9614544,4.950719,4.9407744,4.932169,4.9243546,4.918538,4.9141736,4.9110203,4.9087524,4.9074736,4.9075766,4.9094653,4.9128556,4.9170556,4.920972,4.9246264,4.9274797,4.9307423,4.9343157,4.9377623,4.9442773,4.956143,4.970964,4.9883075,5.0064507,5.020005,5.0324574,5.0517797,5.0826244,5.123517,5.172101,5.227916,5.286751,5.347967,5.410214,5.4693775,5.527687,5.5835505,5.6337066,5.6750355,5.7121286,5.7449546,5.7734814,5.7984715,5.82022,5.8392134,5.85553,5.869043,5.880148,5.889793,5.898802,5.907496,5.915725,5.9238853,5.9314284,5.9380264,5.944026,5.9496784,5.9554124,5.9619346,5.9696684,5.9787006,5.9883566,5.9970684,6.004045,6.0093164,6.013258,6.015957,6.0173,6.0167546,6.0135303,6.007492,5.9987736,5.988514,5.9771423,5.964821,5.95401,5.944729,5.9361057,5.9289722,5.923061,5.9183373,5.9145017,5.9115677,5.9083204,5.9043393,5.8994646,5.8935513,5.888543,5.8838067,5.876155,5.869736,5.8639007,5.85861,5.8530073,5.846548,5.8403273,5.833867,5.827101,5.819972,5.8121996,5.8024197,5.789036,5.7728276,5.755521,5.735151,5.7174406,5.703229,5.692254,5.683176,5.675315,5.665967,5.6523085,5.636323,5.6210637,5.6074057,5.5959873,5.5860925,5.576581,5.567053,5.558399,5.5533915,5.5495577,5.546159,5.543165,5.539238,5.534866,5.5308475,5.529,5.529374,5.537897,5.5540795,5.5751996,5.602083,5.633568,5.666173,5.711975,5.7827687,5.904423,6.0702715,6.264144,6.478648,6.709518,6.9581227,7.19491,7.468793,7.765497,8.083845,8.404041,8.673384,8.867527,9.033997,9.205613,9.392964,9.602197,9.827021
3.320926,3.3228598,3.3241682,3.3252468,3.3260617,3.3265224,3.3268495,3.3274546,3.327104,3.3292587,3.3326669,3.3339696,3.331263,3.3248444,3.3161566,3.305554,3.293898,3.2835617,3.277644,3.2748098,3.2727432,3.271863,3.2716603,3.2719212,3.27311,3.275407,3.27819,3.2820423,3.287119,3.2932694,3.299852,3.3068743,3.313443,3.3197255,3.3251529,3.3294845,3.3324623,3.3350706,3.3379605,3.3428254,3.3492327,3.3574052,3.3678436,3.3806934,3.3961842,3.4133255,3.4276114,3.4409242,3.4588947,3.4748487,3.4708586,3.4739666,3.5057378,3.5836015,3.7445133,4.0475883,4.4257603,4.739318,4.914618,4.975623,4.9840584,5.0115137,5.040977,5.041602,5.0260553,5.0032463,4.982069,4.970832,4.9668303,4.969098,4.9692507,4.968421,4.9674854,4.9667654,4.966221,4.9660254,4.9663086,4.9666405,4.9666295,4.9665213,4.966528,4.966593,4.9670334,4.968054,4.970108,4.971935,4.9742203,4.976533,4.978537,4.979944,4.9812155,4.982554,4.984095,4.98559,4.987093,4.9884777,4.9897537,4.9909167,4.992016,4.993095,4.994597,4.9965253,4.998743,5.0010514,5.0036726,5.0067496,5.0104065,5.0145965,5.0193987,5.024633,5.02998,5.035102,5.0399036,5.0441914,5.048148,5.052028,5.056141,5.0605435,5.06507,5.0693846,5.073052,5.075982,5.0783815,5.080449,5.0823355,5.0839996,5.085291,5.0861015,5.0861692,5.085719,5.084931,5.0840206,5.0830984,5.0821667,5.0810504,5.07958,5.077651,5.0752907,5.0724955,5.069525,5.066656,5.064021,5.061268,5.058128,5.054143,5.049053,5.0427694,5.0352383,5.026183,5.015693,5.003912,4.991251,4.978998,4.9671373,4.9561625,4.9465203,4.938279,4.930502,4.9243174,4.9191685,4.914548,4.910184,4.9061475,4.9028015,4.900437,4.8987293,4.89717,4.896489,4.8968115,4.8980494,4.8978863,4.8976297,4.897832,4.9005036,4.905836,4.9140377,4.9237204,4.934268,4.9466405,4.9613867,4.9806576,5.005735,5.0369873,5.073841,5.115468,5.161127,5.211254,5.2651854,5.319704,5.374529,5.428132,5.479723,5.526581,5.569371,5.6076474,5.640386,5.666623,5.6896515,5.7100954,5.728363,5.744658,5.7589097,5.771929,5.784129,5.796598,5.8092475,5.8213873,5.8322434,5.841489,5.8497534,5.857519,5.8650155,5.872447,5.880724,5.8899546,5.8993187,5.907199,5.9131613,5.917551,5.920886,5.9232826,5.9244967,5.9239626,5.920933,5.915304,5.907111,5.8977337,5.8880696,5.8783703,5.869913,5.8627033,5.8553934,5.8493586,5.8441706,5.839471,5.835293,5.8311186,5.8270226,5.8227024,5.8173904,5.8103,5.8026304,5.795705,5.790787,5.7864532,5.7824335,5.7786455,5.7752194,5.772299,5.769258,5.765857,5.76207,5.757882,5.753234,5.7470484,5.737885,5.7266226,5.714135,5.6953535,5.6776304,5.6617928,5.647165,5.632966,5.6193275,5.604561,5.5857763,5.5658264,5.547146,5.5298166,5.5140786,5.4986515,5.4823713,5.464862,5.4468846,5.425782,5.405902,5.3863044,5.3655133,5.3437443,5.3215675,5.3008337,5.282789,5.2657776,5.2496095,5.234816,5.221137,5.2091327,5.198654,5.1901646,5.182274,5.175129,5.164509,5.1559944,5.149848,5.1532393,5.170348,5.191411,5.2243595,5.2667017,5.320693,5.3836675,5.44866,5.513883,5.5828924,5.6558332,5.735404,5.820676,5.9080334,6.0034113
