38.497276,38.572258,38.650566,38.73957,38.821358,38.88399,38.94328,38.9802,38.984974,38.973446,38.95768,38.938263,38.92272,38.9157,38.914654,38.917023,38.918552,38.92221,38.92891,38.94216,38.9618,38.994793,39.03566,39.07378,39.10878,39.154488,39.19493,39.218918,39.2397,39.260086,39.27021,39.266853,39.27015,39.273685,39.268578,39.24988,39.23085,39.22319,39.23539,39.261505,39.38309,39.58934,39.792336,39.963604,40.002934,39.77401,39.29933,38.646324,37.50879,36.141705,34.982533,34.14546,33.816597,33.76033,33.803207,33.881157,33.916397,33.906185,33.909092,34.08792,34.535683,35.171974,36.719574,38.23964,38.89215,39.5174,40.014595,40.247417,40.260445,40.22153,40.163834,40.129322,40.09597,40.0819,40.095882,40.12744,40.177002,40.245808,40.276596,40.239143,40.1241,39.86234,39.530655,39.256767,38.799953,38.530823,38.709988,39.31518,40.048866,40.69358,41.166477,41.531197,41.71981,41.72821,41.670357,41.58393,41.498215,41.453636,41.453316,41.47161,41.495598,41.51258,41.53341,41.55851,41.587303,41.618385,41.65944,41.70844,41.757927,41.80747,41.873955,41.960266,42.054432,42.1634,42.31066,42.470924,42.611633,42.777885,42.968376,43.146416,43.29296,43.468277,43.635292,43.75943,43.86431,43.944695,43.975746,43.970467,43.942505,43.899727,43.87395,43.878838,43.921196,44.0205,44.149498,44.285316,44.431908,44.553238,44.63398,44.68547,44.706455,44.709435,44.716255,44.718273,44.72208,44.73075,44.737972,44.755325,44.811707,44.91016,45.067966,45.325306,45.551464,45.63556,45.52133,44.95684,44.054348,43.12661,41.850433,40.34458,39.056664,38.38574,38.05323,38.062492,38.24559,38.608612,39.340088,40.468285,41.95685,43.20753,44.229523,45.074707,45.704338,46.11293,46.21196,46.153236,46.073383,46.042923,46.114082,46.239426,46.43885,46.68562,46.911255,47.11432,47.325165,47.504692,47.638657,47.769775,47.902016,48.020966,48.12359,48.23339,48.33115,48.395393,48.430893,48.439938,48.436615,48.447357,48.488266,48.57193,48.652588,48.685486,48.60891,48.33165,47.894638,47.39622,46.797985,46.28139,45.97432,45.781532,45.693596,45.72764,45.82045,45.93872,46.108704,46.3351,46.607758,47.01102,47.524384,48.02891,48.52021,48.997066,49.31875,49.475227,49.58396,49.649853,49.699635,49.757748,49.84498,49.945488,50.028767,50.092445,50.14332,50.172142,50.19008,50.225426,50.299324,50.413353,50.541557,50.71038,50.890747,51.033947,51.13709,51.255016,51.390965,51.53769,51.72738,51.99369,52.26625,52.47341,52.666237,52.80671,52.881897,52.92621,52.998863,53.123306,53.28907,53.498955,53.80806,54.18053,54.539574,54.975105,55.48718,55.98929,56.438316,56.990456,57.50651,57.89262,58.273277,58.727074,59.141426,59.4334,59.71916,59.961082,60.079002,60.081482,59.975334,59.69258,59.309196,58.92152,58.4272,57.927902,57.533653,57.178894,56.845215,56.598534,56.444664,56.31233,56.226196,56.18413,56.158257,56.137695,56.120483,56.104473,56.094944,56.073025,56.034966,55.99146,55.937332,55.873756,55.820923,55.78969,55.76883,55.763504,55.76764,55.775124,55.778885,55.78157,55.78666,55.78712
38.392735,38.468414,38.547302,38.63778,38.721977,38.787354,38.85087,38.89498,38.90844,38.9047,38.897694,38.88614,38.875828,38.872215,38.873043,38.875534,38.876495,38.87907,38.884544,38.89765,38.91857,38.953915,38.99869,39.040993,39.079166,39.12796,39.170906,39.19687,39.219948,39.24489,39.26101,39.262985,39.272472,39.282127,39.28173,39.266403,39.251877,39.250984,39.27127,39.304718,39.441914,39.667225,39.884148,40.06858,40.105423,39.850384,39.3334,38.641205,37.48476,36.11983,34.964283,34.14164,33.83326,33.793667,33.85076,33.937824,33.973785,33.958565,33.95204,34.12159,34.564743,35.19789,36.760773,38.282677,38.913338,39.564644,40.09021,40.335564,40.351624,40.309525,40.244316,40.204086,40.169712,40.156075,40.173546,40.210083,40.2624,40.333466,40.360634,40.312073,40.17907,39.895065,39.54592,39.26275,38.797012,38.553062,38.787994,39.4441,40.19145,40.8271,41.304367,41.669373,41.84926,41.842636,41.771355,41.674065,41.581337,41.53293,41.529663,41.546875,41.572792,41.593513,41.61952,41.649944,41.681656,41.71306,41.750282,41.791164,41.831184,41.871708,41.928017,42.00493,42.09182,42.193592,42.334663,42.491722,42.63182,42.800053,42.99376,43.174583,43.32376,43.50045,43.66884,43.79635,43.908016,44.00379,44.0588,44.079594,44.083725,44.07952,44.089397,44.12197,44.188957,44.306213,44.44541,44.58481,44.729248,44.84433,44.919144,44.965343,44.982155,44.98187,44.985195,44.98018,44.969444,44.95784,44.942444,44.930504,44.957443,45.03353,45.17341,45.421448,45.64666,45.731133,45.617973,45.0477,44.130882,43.18214,41.91763,40.40419,39.069244,38.387222,38.05877,38.08782,38.299973,38.699932,39.51214,40.677628,42.038925,43.21991,44.198967,44.99072,45.56774,45.935062,46.01873,45.962593,45.890587,45.868027,45.940277,46.06105,46.248554,46.47696,46.683846,46.869286,47.061317,47.22593,47.350945,47.47549,47.604248,47.722874,47.82659,47.93863,48.039806,48.10767,48.14624,48.162346,48.164894,48.17641,48.216663,48.300453,48.387363,48.43333,48.382126,48.14827,47.761642,47.309135,46.75708,46.27556,45.989357,45.812157,45.74096,45.792137,45.90026,46.037243,46.227554,46.467457,46.743587,47.137215,47.620148,48.080795,48.518578,48.93344,49.20822,49.342724,49.436752,49.499718,49.55541,49.62046,49.71649,49.82592,49.91648,49.987244,50.046436,50.081642,50.10119,50.130013,50.183784,50.261272,50.34352,50.450302,50.56182,50.64868,50.710884,50.78575,50.87986,50.987446,51.12845,51.32749,51.53549,51.700172,51.862965,51.99963,52.09419,52.165607,52.260384,52.385864,52.529198,52.69996,52.935604,53.207207,53.46412,53.773453,54.157494,54.568886,54.967445,55.45849,55.96068,56.38694,56.800957,57.309853,57.787506,58.13377,58.5058,58.83812,59.04509,59.150402,59.164146,59.01226,58.746853,58.460808,58.072468,57.664757,57.338852,57.045967,56.7729,56.57541,56.45641,56.35398,56.28653,56.24929,56.219055,56.18287,56.142166,56.103706,56.06971,56.02422,55.970024,55.91745,55.855278,55.78485,55.724586,55.683693,55.647896,55.621872,55.604687,55.59076,55.58571,55.592537,55.60257,55.59784
38.301685,38.378307,38.457737,38.5496,38.63606,38.70395,38.7713,38.822052,38.843594,38.84711,38.848335,38.844376,38.839386,38.83947,38.842648,38.845528,38.84572,38.846703,38.849648,38.860443,38.880173,38.914764,38.95987,39.003124,39.0418,39.091064,39.134583,39.161423,39.1859,39.21441,39.235634,39.24231,39.25721,39.272392,39.276596,39.264954,39.25538,39.26162,39.29022,39.33152,39.483612,39.726486,39.95645,40.153854,40.19214,39.92079,39.375854,38.65032,37.48934,36.14463,34.97831,34.157524,33.86263,33.834156,33.901413,33.995827,34.03404,34.017548,34.007828,34.175434,34.62116,35.26518,36.81434,38.314705,38.941216,39.608723,40.150417,40.402397,40.420128,40.375828,40.30513,40.2602,40.224255,40.21444,40.237167,40.2764,40.334,40.40544,40.425674,40.367058,40.217342,39.912773,39.547962,39.257156,38.78639,38.57264,38.861984,39.540855,40.305073,40.947803,41.423416,41.786095,41.956253,41.93521,41.851562,41.746006,41.649086,41.59855,41.59359,41.610497,41.638252,41.661995,41.69207,41.72671,41.76081,41.79255,41.827248,41.862602,41.896038,41.930176,41.97905,42.048363,42.128525,42.223206,42.356953,42.5085,42.645428,42.81237,43.005302,43.185696,43.336216,43.512352,43.679253,43.806557,43.920326,44.02281,44.08942,44.12332,44.143883,44.15918,44.186516,44.231995,44.31134,44.435104,44.573753,44.709076,44.84557,44.951305,45.0188,45.059784,45.073746,45.072598,45.075516,45.068535,45.051636,45.030304,45.00408,44.97811,44.991493,45.05817,45.19149,45.443043,45.675045,45.758232,45.655533,45.091972,44.170307,43.208694,41.9731,40.46593,39.08641,38.396523,38.073196,38.120102,38.357887,38.787445,39.68512,40.89715,42.121315,43.22963,44.173058,44.924004,45.461136,45.798485,45.872322,45.81929,45.753822,45.736847,45.80856,45.92412,46.100533,46.31304,46.50436,46.67572,46.853165,47.00651,47.124866,47.244675,47.371033,47.489544,47.59411,47.708202,47.812523,47.883896,47.926193,47.94818,47.957016,47.97286,48.014748,48.10051,48.193134,48.248856,48.217392,48.016872,47.669056,47.253193,46.73768,46.28344,46.012886,45.846703,45.786976,45.849792,45.96833,46.118706,46.32383,46.573112,46.850426,47.234997,47.693207,48.12004,48.5188,48.891293,49.137756,49.263233,49.35817,49.431248,49.500374,49.577217,49.68509,49.80511,49.90419,49.982727,50.051743,50.09736,50.12513,50.158524,50.21014,50.273636,50.332497,50.40535,50.479134,50.537323,50.58246,50.637615,50.71293,50.804947,50.926056,51.098373,51.281937,51.431873,51.583584,51.721127,51.827126,51.912193,52.016163,52.138084,52.265038,52.408924,52.600952,52.81799,53.021927,53.269024,53.57498,53.899204,54.207676,54.595146,55.036686,55.448097,55.813618,56.251488,56.71255,57.12733,57.611595,58.026497,58.27766,58.446587,58.54315,58.48854,58.313423,58.105415,57.799118,57.461815,57.187202,56.939796,56.709915,56.54605,56.44984,56.36609,56.30905,56.273087,56.23847,56.190754,56.134243,56.08152,56.032425,55.973564,55.911777,55.85626,55.79202,55.720284,55.657547,55.61178,55.566727,55.52854,55.49994,55.475197,55.454464,55.4506,55.461273,55.460457
38.204445,38.282925,38.363556,38.457077,38.545654,38.615784,38.686577,38.743526,38.773067,38.78421,38.79438,38.799324,38.801216,38.80644,38.81378,38.818558,38.818707,38.81846,38.81859,38.826077,38.843224,38.875206,38.918278,38.96013,38.997265,39.044617,39.08681,39.113495,39.138607,39.170265,39.19667,39.208412,39.22914,39.25035,39.25969,39.252247,39.24833,39.262505,39.300278,39.350716,39.519653,39.782738,40.02827,40.234375,40.280376,40.00525,39.43374,38.671356,37.512268,36.20024,35.01178,34.184254,33.8995,33.879753,33.955402,34.05628,34.09726,34.081238,34.071705,34.241302,34.697407,35.3793,36.88363,38.33472,38.981518,39.658173,40.20768,40.463604,40.481834,40.43541,40.36042,40.31228,40.27628,40.269073,40.298355,40.345207,40.40723,40.481014,40.49595,40.423904,40.252365,39.92325,39.540154,39.236374,38.765274,38.59796,38.954422,39.63492,40.423714,41.09046,41.556835,41.91368,42.07022,42.031326,41.933563,41.819397,41.718956,41.66703,41.661148,41.678345,41.70806,41.734566,41.76792,41.805542,41.840836,41.872078,41.903633,41.933517,41.961014,41.989433,42.031364,42.09281,42.1652,42.251213,42.374905,42.51783,42.649147,42.81228,43.00274,43.181885,43.332764,43.508366,43.6749,43.803238,43.91983,44.02858,44.104584,44.148403,44.18055,44.208908,44.247337,44.300476,44.386322,44.51163,44.64665,44.7757,44.90279,44.998566,45.058464,45.094276,45.105927,45.104973,45.108803,45.102592,45.084053,45.058525,45.027542,44.99521,45.00251,45.06543,45.1978,45.453205,45.69061,45.776016,45.686546,45.131035,44.204586,43.229206,42.033283,40.537716,39.10536,38.40867,38.093033,38.160313,38.426147,38.88732,39.886787,41.15515,42.209442,43.232162,44.140663,44.851624,45.350437,45.661003,45.728653,45.681328,45.62434,45.613586,45.68421,45.793762,45.95813,46.15406,46.329807,46.48774,46.65226,46.796623,46.91033,47.02706,47.151917,47.270058,47.374493,47.488827,47.594093,47.667217,47.712036,47.738396,47.7537,47.776154,47.821968,47.912476,48.012352,48.07723,48.067513,47.901203,47.591206,47.2122,46.73165,46.301735,46.04397,45.88571,45.834034,45.90561,46.032585,46.19512,46.414795,46.673767,46.952362,47.32814,47.762295,48.156578,48.518517,48.852158,49.074005,49.19318,49.29217,49.377487,49.460236,49.54798,49.665657,49.79441,49.901527,49.988323,50.06828,50.12535,50.161804,50.19991,50.248642,50.3024,50.3505,50.406322,50.458344,50.496635,50.52578,50.571075,50.640823,50.725636,50.8332,50.98224,51.141777,51.276443,51.421227,51.562355,51.678574,51.77539,51.887478,52.00701,52.121384,52.24561,52.406578,52.5856,52.753136,52.957672,53.20941,53.472256,53.718487,54.02275,54.368866,54.701004,55.02299,55.398365,55.80442,56.198853,56.678387,57.17691,57.542885,57.753246,57.92106,57.957108,57.867973,57.735054,57.507874,57.23821,57.012283,56.80735,56.617016,56.483387,56.40741,56.339935,56.292076,56.257744,56.220116,56.163578,56.095047,56.031837,55.971493,55.903397,55.83771,55.78221,55.718494,55.64776,55.584335,55.534977,55.481888,55.432617,55.393433,55.35824,55.32516,55.30921,55.311417,55.323845
38.096954,38.177807,38.26,38.3552,38.445587,38.51759,38.59115,38.653652,38.690918,38.709755,38.7294,38.744617,38.755234,38.767365,38.78119,38.78984,38.790977,38.790237,38.78777,38.791317,38.80464,38.83236,38.8712,38.90934,38.942802,38.98575,39.024605,39.050064,39.074913,39.109085,39.140434,39.15735,39.184093,39.211723,39.226803,39.224384,39.22721,39.250496,39.2986,39.359753,39.547417,39.833336,40.096825,40.29342,40.34913,40.092285,39.50364,38.70484,37.552147,36.2815,35.06031,34.216827,33.937145,33.922592,34.004173,34.110657,34.155838,34.14331,34.139397,34.317833,34.79212,35.527214,36.97135,38.35626,39.03071,39.70961,40.259323,40.51591,40.534454,40.48762,40.411385,40.36274,40.328358,40.326485,40.364952,40.42105,40.489773,40.567093,40.574554,40.484047,40.28334,39.92423,39.51731,39.18622,38.724617,38.628586,39.068085,39.740463,40.551994,41.247955,41.705963,42.05385,42.192093,42.132133,42.019123,41.895466,41.793198,41.74327,41.738068,41.756268,41.7868,41.81362,41.847595,41.885536,41.920334,41.95043,41.980064,42.00573,42.02771,42.051636,42.0879,42.141907,42.205902,42.28216,42.393276,42.52426,42.64712,42.803226,42.988365,43.16436,43.314056,43.48815,43.654198,43.783714,43.90263,44.015343,44.09623,44.144554,44.180595,44.211914,44.251614,44.304626,44.3888,44.509216,44.636883,44.757298,44.873714,44.959198,45.01136,45.041924,45.051414,45.051323,45.05715,45.054413,45.039345,45.0163,44.988083,44.958847,44.969444,45.03578,45.17317,45.43543,45.67923,45.768665,45.693184,45.14741,44.219673,43.23574,42.07585,40.59674,39.1297,38.430183,38.124893,38.2153,38.51125,39.02739,40.09584,41.3676,42.289017,43.234573,44.10469,44.780487,45.245907,45.536125,45.603157,45.56458,45.51765,45.512794,45.580643,45.682274,45.832825,46.011024,46.170933,46.315968,46.469086,46.606483,46.717125,46.83203,46.95582,47.07286,47.175735,47.28824,47.39193,47.464706,47.510647,47.540924,47.562653,47.59168,47.64357,47.74135,47.850098,47.924843,47.937256,47.804516,47.531227,47.18895,46.74182,46.333183,46.084667,45.93025,45.881874,45.95808,46.090736,46.26384,46.498272,46.768387,47.049706,47.418568,47.830803,48.194748,48.522793,48.821033,49.021347,49.136322,49.23945,49.33567,49.429615,49.524956,49.648186,49.781624,49.89428,49.988068,50.07898,50.149254,50.197174,50.244217,50.297153,50.349876,50.39537,50.44418,50.488358,50.522217,50.549995,50.596817,50.669388,50.75496,50.858444,50.996,51.141636,51.266846,51.40701,51.54934,51.670464,51.773033,51.888737,52.00631,52.11386,52.228508,52.376556,52.541874,52.69732,52.888092,53.11663,53.34159,53.53837,53.770233,54.015404,54.245472,54.490044,54.78853,55.128105,55.471138,55.90107,56.423096,56.866074,57.12783,57.351524,57.454865,57.43553,57.36439,57.20387,56.991737,56.806686,56.636948,56.47892,56.3694,56.308987,56.25431,56.214424,56.183025,56.145218,56.085457,56.011948,55.94444,55.87914,55.80838,55.74423,55.69261,55.63317,55.566635,55.50496,55.45408,55.395233,55.337067,55.289085,55.24494,55.2011,55.173058,55.164425,55.180534
37.999344,38.08217,38.165684,38.262005,38.353344,38.426292,38.50116,38.56711,38.609833,38.634415,38.661606,38.68582,38.70481,38.7239,38.745003,38.75878,38.76201,38.762108,38.758606,38.759445,38.76954,38.793472,38.828125,38.86223,38.891598,38.92952,38.96436,38.988,39.011833,39.04719,39.08191,39.102654,39.133965,39.16671,39.186714,39.18891,39.197998,39.22951,39.286667,39.3573,39.560455,39.865578,40.144676,40.32199,40.38186,40.150314,39.56184,38.737423,37.58828,36.349686,35.098167,34.236824,33.95677,33.94342,34.027565,34.137833,34.187714,34.18062,34.185867,34.377453,34.871162,35.65103,37.047195,38.37756,39.07203,39.748463,40.293915,40.549118,40.56877,40.523975,40.450043,40.403774,40.372463,40.378258,40.427025,40.49186,40.569107,40.64984,40.647884,40.537445,40.306145,39.917267,39.485657,39.120087,38.6732,38.655426,39.177544,39.84202,40.664825,41.381508,41.83789,42.175888,42.29499,42.215794,42.09054,41.95903,41.857796,41.813652,41.81025,41.829494,41.859745,41.885265,41.917633,41.953434,41.98594,42.013905,42.042015,42.06503,42.083313,42.10428,42.136776,42.18512,42.241985,42.309723,42.409035,42.5281,42.64206,42.790024,42.968613,43.14061,43.2884,43.460495,43.62585,43.756325,43.876926,43.991463,44.073425,44.121834,44.1557,44.182102,44.215546,44.26272,44.339554,44.45155,44.571148,44.68357,44.791122,44.868443,44.914307,44.940216,44.947315,44.94748,44.954926,44.95606,44.94673,44.92997,44.90889,44.888268,44.90743,44.98084,45.12525,45.39461,45.643444,45.735138,45.669456,45.133533,44.210396,43.227444,42.08045,40.615067,39.15237,38.455566,38.16051,38.27156,38.5928,39.17288,40.26113,41.48397,42.341293,43.23851,44.075203,44.724705,45.167534,45.44696,45.51803,45.488724,45.45089,45.450104,45.513855,45.607075,45.74454,45.907013,46.05351,46.188152,46.332764,46.465523,46.574394,46.68834,46.8112,46.926483,47.02677,47.13598,47.23621,47.30683,47.352463,47.384964,47.41084,47.44417,47.50215,47.6073,47.724796,47.809513,47.83943,47.733364,47.49041,47.178623,46.758705,46.366047,46.12265,45.9682,45.918602,45.995186,46.130337,46.311203,46.558674,46.84009,47.12581,47.491665,47.88848,48.229378,48.531075,48.801476,48.984406,49.095108,49.197662,49.297607,49.395607,49.492012,49.61402,49.745987,49.859486,49.956505,50.055035,50.136612,50.19572,50.253258,50.31561,50.373413,50.419647,50.46617,50.510178,50.54904,50.585266,50.63897,50.716408,50.80545,50.910076,51.044823,51.18489,51.30506,51.43944,51.57738,51.69658,51.798195,51.912483,52.028313,52.134506,52.24858,52.39894,52.57052,52.733772,52.93059,53.155777,53.362465,53.530552,53.718273,53.90158,54.0632,54.22959,54.4614,54.75258,55.05479,55.441494,55.924316,56.367546,56.68363,56.93911,57.07471,57.09578,57.061295,56.942295,56.767048,56.608044,56.460518,56.322662,56.22786,56.176537,56.130043,56.096684,56.069824,56.035107,55.978313,55.907246,55.841526,55.777325,55.70955,55.650673,55.604935,55.551743,55.49106,55.432686,55.382248,55.320686,55.25719,55.203583,55.153564,55.102192,55.065735,55.04926,55.05343
37.914333,37.998722,38.083324,38.180298,38.27189,38.345016,38.420036,38.487595,38.53366,38.562096,38.59474,38.62613,38.652317,38.67768,38.705917,38.72527,38.7313,38.733246,38.73017,38.729836,38.737976,38.759422,38.791084,38.82206,38.84802,38.881508,38.91256,38.93419,38.95656,38.992027,39.02864,39.051876,39.08617,39.122593,39.14649,39.152504,39.166912,39.20542,39.270027,39.34814,39.56265,39.881866,40.173283,40.343857,40.39939,40.176056,39.60276,38.762306,37.610172,36.389957,35.115616,34.239227,33.95618,33.941956,34.026455,34.138824,34.192883,34.19141,34.206406,34.411892,34.92298,35.734985,37.097824,38.391533,39.102478,39.775166,40.315308,40.569115,40.590683,40.54914,40.47889,40.436005,40.408443,40.421562,40.480785,40.55564,40.641808,40.72569,40.714195,40.584557,40.32428,39.907356,39.452934,39.05636,38.621166,38.675697,39.276817,39.932747,40.758717,41.489807,41.94848,42.27609,42.376236,42.280212,42.146,42.009155,41.911835,41.87596,41.873642,41.8928,41.92299,41.94891,41.980133,42.013405,42.042393,42.06662,42.090683,42.1113,42.1285,42.14689,42.176163,42.219734,42.2705,42.330765,42.41961,42.527905,42.6336,42.773674,42.945953,43.11438,43.26089,43.431435,43.59632,43.727848,43.85041,43.966797,44.04937,44.097137,44.12767,44.14737,44.17272,44.21271,44.28111,44.38448,44.496723,44.602448,44.702682,44.773106,44.81331,44.83445,44.838177,44.83728,44.845215,44.84913,44.845085,44.834824,44.821205,44.8096,44.837402,44.917427,45.067863,45.34252,45.593727,45.684517,45.62661,45.102055,44.1879,43.212624,42.057503,40.599228,39.16771,38.477345,38.191425,38.319473,38.66059,39.29018,40.39736,41.583664,42.379745,43.240547,44.053154,44.677315,45.10363,45.377045,45.453453,45.43263,45.402645,45.404686,45.46393,45.54905,45.674427,45.82283,45.957645,46.08355,46.221237,46.35038,46.4579,46.57112,46.69304,46.806267,46.903564,47.008858,47.104874,47.17268,47.217865,47.249756,47.27675,47.31357,47.376774,47.488533,47.614643,47.709984,47.753376,47.669064,47.452843,47.167294,46.77108,46.39209,46.152306,45.996586,45.9442,46.01951,46.155815,46.343098,46.602425,46.894783,47.185577,47.550713,47.93624,48.258675,48.53843,48.78544,48.953,49.058342,49.15631,49.254715,49.352024,49.44539,49.561913,49.68863,49.80009,49.897858,50.001305,50.091633,50.159824,50.226166,50.29682,50.360172,50.40912,50.457344,50.502464,50.542747,50.58062,50.640198,50.724113,50.816006,50.921104,51.052235,51.185646,51.299377,51.426125,51.556877,51.670998,51.768883,51.879173,51.992355,52.098213,52.21376,52.36936,52.550995,52.72573,52.924076,53.134094,53.319542,53.478012,53.647938,53.80318,53.93232,54.06558,54.25398,54.500824,54.7677,55.117855,55.56285,55.99592,56.345573,56.616753,56.769413,56.816025,56.80541,56.71457,56.565147,56.42463,56.292633,56.168633,56.083828,56.038757,55.998413,55.971184,55.94998,55.920166,55.869102,55.803474,55.741886,55.6809,55.61767,55.564713,55.524967,55.478004,55.42325,55.368614,55.31939,55.25655,55.189552,55.13196,55.07769,55.020725,54.977623,54.95421,54.941063
37.809242,37.89453,37.979744,38.076622,38.167473,38.239815,38.31374,38.381516,38.429756,38.461227,38.498924,38.537857,38.57228,38.605186,38.642693,38.67015,38.68113,38.68731,38.687218,38.687805,38.695362,38.71552,38.744965,38.773083,38.795654,38.8243,38.850876,38.869865,38.889954,38.9243,38.961525,38.986336,39.02278,39.062355,39.09012,39.100204,39.120506,39.166718,39.239235,39.324924,39.54958,39.881912,40.186333,40.352196,40.40418,40.189995,39.63662,38.78491,37.625443,36.41379,35.11949,34.227463,33.93803,33.921196,34.00525,34.120407,34.18078,34.187614,34.21627,34.440083,34.97051,35.81041,37.142082,38.402718,39.128906,39.794502,40.326363,40.578648,40.604416,40.56962,40.50712,40.471355,40.45132,40.475388,40.54882,40.63713,40.734108,40.820175,40.794464,40.63919,40.341824,39.888577,39.408806,38.98845,38.56026,38.69513,39.397057,40.03831,40.865303,41.61263,42.072067,42.385788,42.462868,42.347923,42.20545,42.06585,41.97312,41.944695,41.94802,41.970917,42.002632,42.029045,42.05847,42.08767,42.111305,42.13028,42.148376,42.164307,42.178757,42.19447,42.21994,42.257893,42.3019,42.35397,42.431133,42.52717,42.6233,42.75386,42.91851,43.08259,43.226933,43.39518,43.559166,43.69156,43.815754,43.93349,44.01572,44.061394,44.08619,44.095604,44.109062,44.13874,44.19531,44.28767,44.391727,44.49077,44.58455,44.64913,44.684265,44.700874,44.701134,44.69869,44.70643,44.712845,44.714294,44.711067,44.70559,44.704063,44.741386,44.828274,44.984283,45.26292,45.513176,45.597717,45.538498,45.03051,44.142128,43.181973,42.013138,40.567474,39.190422,38.50762,38.23175,38.380844,38.74552,39.418644,40.543205,41.694004,42.416725,43.23873,44.028603,44.62611,45.03663,45.30578,45.38907,45.37713,45.35447,45.35775,45.410343,45.485306,45.59649,45.72915,45.851307,45.967674,46.097893,46.223106,46.328968,46.44095,46.56116,46.67174,46.76593,46.866726,46.957375,47.02038,47.061172,47.090984,47.120636,47.163216,47.232265,47.35076,47.48581,47.592648,47.651314,47.59198,47.406513,47.1513,46.783012,46.41989,46.183342,46.024834,45.967087,46.038765,46.175014,46.369118,46.64276,46.949486,47.24833,47.61576,47.99184,48.295677,48.55066,48.77294,48.92311,49.018333,49.108414,49.19915,49.28792,49.372097,49.47705,49.593323,49.699074,49.7949,49.90143,50.000168,50.0782,50.154976,50.23643,50.307808,50.361317,50.412518,50.458664,50.499077,50.537334,50.598797,50.68473,50.777016,50.880756,51.00649,51.131325,51.236584,51.353218,51.473133,51.577797,51.66748,51.77027,51.87902,51.984318,52.102562,52.26709,52.464092,52.65554,52.866173,53.079002,53.259857,53.415604,53.574467,53.70867,53.812057,53.917355,54.06702,54.27153,54.502144,54.812294,55.214127,55.627235,55.99428,56.27444,56.439617,56.505367,56.514397,56.44834,56.322598,56.199097,56.081154,55.969177,55.892395,55.851852,55.816597,55.795822,55.781834,55.758797,55.71672,55.66017,55.60553,55.550446,55.49465,55.450146,55.41829,55.379692,55.333126,55.284317,55.238163,55.17634,55.10828,55.048965,54.993015,54.933155,54.883537,54.850765,54.82905
37.69148,37.775738,37.85997,37.95527,38.044178,38.11477,38.18651,38.253185,38.302288,38.335663,38.377174,38.422512,38.46438,38.50444,38.551247,38.58764,38.60498,38.617348,38.622818,38.62684,38.635757,38.656445,38.68521,38.711636,38.73172,38.756424,38.779068,38.795475,38.81311,38.84548,38.88198,38.90715,38.944412,38.98585,39.01647,39.02992,39.055603,39.108963,39.188572,39.2807,39.513306,39.854935,40.168,40.330795,40.37921,40.174393,39.648262,38.79561,37.628036,36.415215,35.106308,34.200493,33.903122,33.883255,33.96776,34.088367,34.158524,34.176514,34.221275,34.464104,35.01091,35.867622,37.17778,38.412666,39.141273,39.796036,40.317707,40.568405,40.600212,40.575394,40.52484,40.50005,40.49096,40.52853,40.61756,40.719757,40.8265,40.911407,40.86692,40.68228,40.34534,39.85549,39.348267,38.893776,38.48236,38.696365,39.48091,40.12223,40.95613,41.714878,42.171745,42.470985,42.527126,42.396873,42.249336,42.110615,42.02346,42.001633,42.013496,42.0428,42.077335,42.104523,42.132668,42.15827,42.17682,42.19059,42.20235,42.211746,42.221207,42.23387,42.254974,42.287273,42.325417,42.37076,42.438385,42.524162,42.611988,42.733795,42.8908,43.0497,43.190376,43.35505,43.51685,43.648598,43.772667,43.889847,43.970093,44.012424,44.03029,44.028137,44.0282,44.045624,44.0891,44.17006,44.26625,44.359596,44.449047,44.510624,44.543198,44.55758,44.556145,44.55281,44.56005,44.56799,44.573124,44.574734,44.575096,44.58104,44.62533,44.716797,44.875637,45.154335,45.39879,45.472054,45.404266,44.914963,44.062332,43.121017,41.941673,40.51776,39.208748,38.537453,38.274376,38.446465,38.83471,39.539635,40.6576,41.760994,42.435738,43.23139,44.002502,44.577442,44.976143,45.24344,45.333214,45.32808,45.309944,45.311874,45.35685,45.422165,45.52088,45.640457,45.752254,45.860405,45.983322,46.10366,46.206787,46.3166,46.43502,46.543808,46.63594,46.733803,46.82064,46.87992,46.917084,46.946716,46.979713,47.026485,47.100586,47.224747,47.366547,47.4815,47.553375,47.51661,47.359104,47.132294,46.790314,46.441643,46.206863,46.043808,45.978218,46.04372,46.178097,46.37777,46.665596,46.988,47.29718,47.67048,48.041576,48.330803,48.564056,48.76405,48.89712,48.98062,49.06166,49.142616,49.22062,49.294727,49.387566,49.49291,49.59221,49.685154,49.793137,49.898163,49.98407,50.06957,50.160397,50.239105,50.297134,50.35147,50.398514,50.438187,50.475555,50.534428,50.616364,50.70446,50.803116,50.921387,51.037548,51.13488,51.242218,51.35193,51.447342,51.5289,51.624496,51.728943,51.833252,51.95319,52.123695,52.331184,52.534668,52.761673,52.989006,53.177193,53.335754,53.492123,53.617737,53.709053,53.79906,53.92566,54.101685,54.304558,54.581135,54.945496,55.332016,55.689537,55.969707,56.141327,56.214863,56.234608,56.184578,56.075714,55.9647,55.856937,55.75307,55.68083,55.642094,55.609894,55.59459,55.587925,55.57242,55.54092,55.49536,55.44913,55.40126,55.35396,55.31839,55.294464,55.26455,55.22701,55.185528,55.144417,55.086803,55.02176,54.96476,54.91185,54.852196,54.80004,54.765038,54.74781
37.579494,37.66125,37.74316,37.83594,37.9225,37.991135,38.06067,38.126114,38.175705,38.2105,38.254868,38.304962,38.35241,38.39796,38.452034,38.49585,38.51906,38.5375,38.548946,38.55719,38.56833,38.590416,38.61947,38.645157,38.663704,38.68586,38.70581,38.720276,38.73603,38.76663,38.8021,38.827045,38.864376,38.906616,38.938904,38.954567,38.98443,39.043556,39.128815,39.225952,39.4651,39.81247,40.12832,40.28837,40.33213,40.135437,39.64114,38.794876,37.62271,36.4075,35.087044,34.16997,33.86608,33.844284,33.93092,34.059273,34.14102,34.17083,34.230698,34.489067,35.046974,35.91201,37.209297,38.42324,39.141235,39.784115,40.296204,40.545265,40.582912,40.5683,40.530434,40.51734,40.51937,40.56976,40.67227,40.78546,40.89894,40.979767,40.9159,40.704056,40.33282,39.81437,39.280197,38.77364,38.39453,38.677868,39.50272,40.166485,41.015404,41.777985,42.230297,42.517796,42.55947,42.420097,42.270508,42.13423,42.05327,42.03814,42.057106,42.0919,42.129166,42.157455,42.185585,42.209682,42.225235,42.2353,42.242104,42.245216,42.24902,42.258278,42.27495,42.302467,42.336456,42.37751,42.43925,42.518547,42.60077,42.716293,42.86696,43.02053,43.156723,43.31714,43.475723,43.60533,43.727615,43.842552,43.9199,43.95892,43.970825,43.959156,43.947823,43.95393,43.98609,44.057396,44.146862,44.235588,44.322266,44.38298,44.41528,44.429756,44.428764,44.425728,44.432823,44.44145,44.44802,44.451557,44.45452,44.464058,44.511703,44.604992,44.76407,45.039753,45.276146,45.33771,45.2623,44.78896,43.966633,43.04143,41.85984,40.462364,39.215034,38.558937,38.31099,38.50418,38.912254,39.641823,40.727646,41.76892,42.43621,43.2221,43.977768,44.53615,44.927124,45.19384,45.288208,45.287064,45.270718,45.269863,45.30812,45.366257,45.45645,45.56758,45.672626,45.774963,45.8915,46.006435,46.10605,46.21327,46.330605,46.439156,46.530506,46.62773,46.71365,46.7724,46.810703,46.843544,46.878937,46.925934,47.003437,47.131863,47.27764,47.396164,47.476944,47.45657,47.319748,47.114807,46.79301,46.45494,46.22049,46.052277,45.97838,46.037018,46.168564,46.37186,46.671196,47.00734,47.3265,47.70683,48.07632,48.355675,48.57342,48.755417,48.87404,48.94883,49.022728,49.09745,49.169914,49.238945,49.325005,49.423946,49.51954,49.61116,49.720528,49.82974,49.92051,50.01117,50.107338,50.190224,50.251034,50.30764,50.35566,50.394844,50.43091,50.486225,50.562073,50.643337,50.73462,50.84495,50.954235,51.04624,51.147583,51.25132,51.34191,51.41973,51.51184,51.613907,51.717056,51.836452,52.00621,52.213768,52.419098,52.65532,52.891006,53.08293,53.244545,53.40261,53.528313,53.617943,53.70367,53.82106,53.982315,54.168137,54.42199,54.75989,55.121155,55.455196,55.730827,55.905308,55.979607,56.003647,55.96253,55.8645,55.76196,55.661118,55.5624,55.49241,55.453934,55.42334,55.412003,55.411247,55.402298,55.380043,55.34414,55.305313,55.263577,55.223152,55.194588,55.17682,55.15385,55.124084,55.089653,55.054085,55.002213,54.9426,54.890396,54.843193,54.78498,54.73518,54.70833,54.700863
37.4467,37.525158,37.603764,37.693016,37.776382,37.842426,37.909348,37.973557,38.024086,38.061012,38.109367,38.165543,38.219727,38.27189,38.33439,38.386894,38.417313,38.443176,38.462173,38.476074,38.49047,38.51449,38.54389,38.568657,38.58529,38.604393,38.62108,38.63311,38.64648,38.674545,38.708008,38.731766,38.768005,38.809708,38.842472,38.85948,38.892838,38.957542,39.048603,39.151077,39.397415,39.748253,40.06117,40.21919,40.260647,40.076195,39.622513,38.7879,37.616653,36.403893,35.06722,34.1354,33.82384,33.799625,33.889366,34.02822,34.125175,34.169952,34.24807,34.52362,35.092392,35.96557,37.241768,38.42661,39.13289,39.76051,40.26005,40.506588,40.550987,40.548515,40.52644,40.52832,40.54434,40.61036,40.728287,40.853073,40.972435,41.045708,40.957413,40.714035,40.30506,39.75613,39.197067,38.646034,38.303642,38.651527,39.508442,40.200897,41.066917,41.830414,42.275864,42.550346,42.577705,42.430298,42.279476,42.146755,42.073246,42.065804,42.09204,42.133633,42.17527,42.205513,42.23468,42.258404,42.271683,42.27816,42.279457,42.275246,42.27221,42.276657,42.287617,42.30977,42.33972,42.376835,42.43348,42.507042,42.584038,42.69359,42.837784,42.985283,43.11564,43.270794,43.425297,43.55185,43.67124,43.783016,43.857025,43.89265,43.89878,43.877716,43.855156,43.850693,43.86918,43.9281,44.009945,44.09321,44.176956,44.237564,44.270775,44.286915,44.288055,44.286476,44.2938,44.303047,44.31018,44.314327,44.318672,44.330627,44.380646,44.475006,44.63356,44.904785,45.130592,45.17723,45.092308,44.63669,43.84938,42.944916,41.767273,40.404015,39.225838,38.590263,38.36132,38.578617,39.009888,39.776695,40.82531,41.78621,42.444305,43.21622,43.953964,44.49685,44.88114,45.147877,45.246307,45.24781,45.231163,45.225616,45.255352,45.303493,45.383,45.484703,45.583115,45.680275,45.792374,45.904015,46.001175,46.106712,46.223515,46.332336,46.423855,46.521477,46.608013,46.66771,46.707542,46.74343,46.78164,46.82988,46.90858,47.039566,47.18887,47.31051,47.39966,47.39586,47.28025,47.096626,46.797203,46.471306,46.235733,46.060642,45.97588,46.0252,46.152367,46.358425,46.66969,47.021034,47.351826,47.741554,48.11078,48.379143,48.57658,48.739594,48.84606,48.91355,48.981037,49.05056,49.118965,49.18432,49.265293,49.359375,49.45228,49.543335,49.65453,49.767967,49.86353,49.95929,50.060646,50.14756,50.211132,50.269875,50.31823,50.355698,50.38893,50.438393,50.505547,50.577827,50.65995,50.7608,50.862335,50.948814,51.044884,51.143856,51.23065,51.305412,51.39508,51.49518,51.59619,51.71234,51.877907,52.082718,52.28759,52.5183,52.75235,52.947647,53.11133,53.271885,53.4006,53.49244,53.57808,53.69128,53.84217,54.013905,54.247536,54.560223,54.89695,55.209496,55.473488,55.644577,55.719574,55.747265,55.714622,55.62712,55.532646,55.437943,55.342728,55.27291,55.232944,55.20215,55.19332,55.197716,55.19502,55.18204,55.156097,55.12499,55.08966,55.056313,55.034897,55.02352,55.00802,54.987415,54.962234,54.934555,54.891846,54.842636,54.799686,54.756958,54.707546,54.66971,54.653214,54.66083
37.29373,37.368374,37.442783,37.527534,37.6068,37.669514,37.73348,37.796577,37.848892,37.889393,37.943848,38.008408,38.07117,38.131607,38.203857,38.266113,38.304764,38.33898,38.366417,38.386574,38.40446,38.42994,38.458538,38.480957,38.494244,38.508698,38.52074,38.529335,38.53958,38.564194,38.594475,38.615776,38.649307,38.688515,38.719925,38.736748,38.77252,38.84285,38.940613,39.04943,39.302536,39.656265,39.967308,40.12681,40.16814,39.997704,39.590073,38.771873,37.60827,36.40403,35.048534,34.098812,33.77729,33.749245,33.842594,33.99489,34.111477,34.175438,34.276047,34.570984,35.14998,36.02993,37.276546,38.422966,39.113678,39.72142,40.204353,40.44644,40.49765,40.508232,40.504086,40.523666,40.556396,40.64058,40.77526,40.911415,41.034706,41.095573,40.97731,40.69891,40.25084,39.672707,39.09369,38.50746,38.209084,38.61772,39.495728,40.216347,41.098145,41.85988,42.29643,42.557163,42.570965,42.41671,42.26494,42.13568,42.069565,42.0698,42.10266,42.151215,42.197926,42.2306,42.261566,42.28592,42.297817,42.30124,42.296978,42.285076,42.274754,42.273605,42.278767,42.296432,42.32366,42.358334,42.411697,42.48108,42.553734,42.658123,42.795547,42.93589,43.05988,43.20878,43.357704,43.479576,43.59435,43.70145,43.77153,43.80401,43.805325,43.776287,43.74375,43.729637,43.73442,43.77943,43.85173,43.928772,44.009888,44.071884,44.10796,44.12821,44.13411,44.135757,44.144077,44.153763,44.160164,44.16317,44.167213,44.180206,44.23204,44.327515,44.48567,44.7519,44.96593,44.99641,44.900597,44.462593,43.712593,42.83268,41.670322,40.35731,39.261093,38.64992,38.44714,38.69844,39.1596,39.93216,40.92463,41.81379,42.46691,43.22235,43.940132,44.47059,44.850357,45.117867,45.218704,45.21982,45.19899,45.18314,45.199432,45.235542,45.304535,45.398567,45.49198,45.585236,45.69377,45.802498,45.897408,46.00151,46.1184,46.228653,46.321747,46.421585,46.510803,46.57313,46.615574,46.654907,46.69664,46.747368,46.82657,46.95818,47.109276,47.23358,47.330627,47.34298,47.24774,47.083244,46.80666,46.492474,46.252327,46.066776,45.96673,46.002712,46.12275,46.3295,46.65206,47.019608,47.36399,47.765526,48.134174,48.389603,48.570312,48.71743,48.813087,48.873913,48.936653,49.00306,49.06964,49.133804,49.212673,49.304573,49.396507,49.488197,49.6019,49.71967,49.81994,49.92076,50.0277,50.11876,50.18422,50.24417,50.292397,50.328064,50.358055,50.40052,50.45708,50.51834,50.58946,50.679073,50.77195,50.852913,50.94435,51.039383,51.122906,51.194893,51.282547,51.38127,51.480915,51.595306,51.759262,51.9542,52.138916,52.34829,52.572067,52.769165,52.933544,53.097267,53.232285,53.33094,53.42152,53.537148,53.684372,53.847214,54.06555,54.356544,54.669563,54.9597,55.202827,55.36254,55.43673,55.466156,55.440315,55.36199,55.27441,55.184555,55.090816,55.018646,54.9748,54.941307,54.932503,54.940018,54.942154,54.937225,54.92043,54.896584,54.86744,54.840904,54.82641,54.82139,54.813988,54.80449,54.79158,54.774994,54.746708,54.71283,54.68274,54.65063,54.617943,54.5987,54.59617,54.620163
37.1531,37.224724,37.295197,37.375496,37.45051,37.509636,37.570602,37.632607,37.686913,37.731567,37.792927,37.866528,37.938103,38.006832,38.088135,38.158947,38.204735,38.24598,38.28047,38.305756,38.326294,38.35231,38.379074,38.39825,38.40753,38.416924,38.424232,38.429512,38.437057,38.458595,38.48565,38.50406,38.53401,38.569397,38.59801,38.613274,38.650085,38.725132,38.829247,38.944523,39.202705,39.559593,39.873417,40.03871,40.08232,39.923447,39.553947,38.752525,37.601433,36.40912,35.036278,34.06885,33.73635,33.70323,33.79928,33.964607,34.101063,34.18477,34.30825,34.62189,35.21004,36.097893,37.311516,38.415672,39.09069,39.678223,40.143967,40.380318,40.436497,40.457535,40.468746,40.504227,40.55239,40.653038,40.802094,40.946907,41.071327,41.117584,40.97042,40.661507,40.18138,39.58188,38.994072,38.39418,38.14009,38.59262,39.47477,40.21354,41.10496,41.86338,42.291615,42.54084,42.544006,42.384422,42.231262,42.103706,42.042557,42.048492,42.086132,42.1401,42.191154,42.22622,42.259018,42.28413,42.29513,42.296513,42.2879,42.269936,42.25402,42.248558,42.24991,42.26529,42.291553,42.32542,42.37731,42.44412,42.513603,42.613953,42.745056,42.878452,42.99736,43.140446,43.283432,43.400024,43.509583,43.6116,43.678085,43.70848,43.70713,43.67353,43.63454,43.613403,43.608135,43.641636,43.70475,43.776146,43.855244,43.919395,43.959206,43.984688,43.996593,44.002472,44.01242,44.022537,44.02755,44.028557,44.031418,44.044685,44.098263,44.195427,44.35396,44.616127,44.820107,44.83731,44.73178,44.30666,43.58702,42.729996,41.590897,40.334694,39.318497,38.73436,38.561714,38.84919,39.33836,40.072155,41.000732,41.850037,42.497406,43.236084,43.936783,44.460087,44.838852,45.10893,45.211506,45.21038,45.18327,45.15416,45.155228,45.180416,45.241222,45.330307,45.420643,45.511192,45.616425,45.7219,45.814445,45.916977,46.03413,46.146347,46.24167,46.34459,46.437286,46.502686,46.547943,46.590336,46.635506,46.689373,46.76933,46.900078,47.051037,47.17761,47.28113,47.306618,47.227436,47.077103,46.81885,46.51277,46.265358,46.067623,45.95082,45.972187,46.08392,46.289433,46.620766,47.002613,47.360233,47.772285,48.140007,48.38521,48.55783,48.695114,48.781902,48.83704,48.896965,48.962402,49.029213,49.094276,49.173645,49.26569,49.35796,49.45083,49.566936,49.68833,49.792477,49.897713,50.009117,50.103104,50.16968,50.230522,50.279133,50.314125,50.34203,50.37905,50.426712,50.478466,50.54001,50.619705,50.704857,50.780937,50.868107,50.95925,51.03944,51.108654,51.194447,51.29312,51.393013,51.504646,51.66375,51.842037,51.997902,52.18456,52.39667,52.59253,52.756065,52.921833,53.062553,53.167965,53.264122,53.38412,53.531227,53.689377,53.897686,54.172226,54.464867,54.734016,54.95392,55.098904,55.17025,55.199272,55.177856,55.106514,55.02414,54.937958,54.84484,54.769764,54.72168,54.684704,54.67427,54.682716,54.68755,54.68792,54.677628,54.659164,54.634827,54.61364,54.604725,54.605045,54.605156,54.606865,54.606968,54.602547,54.590973,54.573547,54.55651,54.540268,54.526627,54.52517,54.53598,54.57075
37.02399,37.0934,37.16017,37.236122,37.306816,37.362183,37.41993,37.480553,37.536594,37.585243,37.65339,37.735855,37.815945,37.892616,37.982136,38.060333,38.112167,38.15909,38.199432,38.229095,38.25181,38.27809,38.302948,38.31897,38.324512,38.3295,38.332935,38.335693,38.3416,38.360947,38.385147,38.40069,38.42671,38.45752,38.482483,38.49547,38.53256,38.611305,38.72082,38.84262,39.105476,39.465508,39.78336,39.958622,40.00694,39.856796,39.517895,38.734116,37.60001,36.421227,35.029194,34.043118,33.699356,33.660316,33.75817,33.93568,34.091496,34.19484,34.34121,34.673172,35.270775,36.17044,37.349007,38.407574,39.067757,39.635773,40.084736,40.314735,40.37443,40.403645,40.427692,40.477066,40.539055,40.65438,40.81569,40.96708,41.09079,41.121376,40.947,40.611893,40.10489,39.48987,38.902912,38.308475,38.099792,38.579536,39.447906,40.20116,41.098984,41.85199,42.272488,42.512054,42.506706,42.3427,42.187744,42.060623,42.002617,42.012775,42.054394,42.1129,42.16796,42.20574,42.24038,42.265648,42.27531,42.275192,42.263084,42.240314,42.220295,42.21234,42.211506,42.22567,42.251556,42.285046,42.335976,42.400856,42.467842,42.564632,42.689346,42.81574,42.930557,43.068325,43.205414,43.316742,43.42105,43.51812,43.58153,43.610718,43.608376,43.572838,43.53009,43.503807,43.490807,43.51534,43.57126,43.63776,43.71508,43.781334,43.82489,43.85573,43.87394,43.88447,43.8965,43.90734,43.911007,43.90992,43.91155,43.924965,43.980278,44.079323,44.238373,44.496574,44.69117,44.69667,44.582287,44.16635,43.471344,42.635773,41.523132,40.323906,39.383408,38.836464,38.69745,39.01757,39.533455,40.208435,41.071777,41.89546,42.527885,43.248276,43.93546,44.454697,44.835304,45.110466,45.21618,45.213234,45.179863,45.138348,45.1259,45.141785,45.19486,45.27884,45.36603,45.45376,45.55558,45.65767,45.747627,45.848347,45.96543,46.07936,46.176826,46.282757,46.37884,46.447197,46.495125,46.540085,46.588364,46.645462,46.726067,46.8551,47.004898,47.13337,47.242153,47.278465,47.212532,47.07374,46.83016,46.52923,46.27339,46.062992,45.929314,45.93608,46.039444,46.24308,46.581932,46.977055,47.347984,47.76728,48.135426,48.377525,48.54499,48.674522,48.753735,48.803978,48.861465,48.92675,48.994934,49.06172,49.14253,49.2354,49.328133,49.4218,49.539608,49.663635,49.7707,49.88028,49.99324,50.086906,50.15512,50.2185,50.26912,50.304256,50.33103,50.364014,50.404896,50.44952,50.503815,50.57592,50.65476,50.72621,50.80874,50.895462,50.972157,51.03882,51.123024,51.22538,51.329,51.426674,51.557827,51.71055,51.855957,52.033382,52.238068,52.4293,52.59114,52.757553,52.901604,53.01104,53.110657,53.23294,53.378937,53.53273,53.732094,53.99137,54.263847,54.511017,54.708733,54.8387,54.904747,54.931503,54.91314,54.848083,54.77065,54.688408,54.596844,54.520287,54.46939,54.430023,54.418297,54.427307,54.434303,54.43876,54.43353,54.41941,54.399006,54.382057,54.37765,54.382607,54.389618,54.402122,54.41519,54.423233,54.428787,54.428314,54.42459,54.423954,54.42856,54.44329,54.465282,54.505486
36.876575,36.944706,37.007423,37.077095,37.140385,37.189003,37.240368,37.296783,37.35296,37.405018,37.480293,37.572647,37.662155,37.747253,37.845253,37.930798,37.988503,38.040977,38.087776,38.12326,38.149815,38.17845,38.203514,38.218193,38.221825,38.224487,38.226433,38.22905,38.235695,38.2548,38.276917,38.2894,38.31031,38.334534,38.353844,38.363014,38.39906,38.481094,38.596245,38.724174,38.99115,39.354523,39.677513,39.860107,39.91826,39.784187,39.471027,38.709785,37.59468,36.425457,35.02188,34.01676,33.655632,33.60754,33.70604,33.897774,34.078064,34.207123,34.38387,34.739334,35.353413,36.292656,37.415443,38.396584,39.0425,39.58793,40.017105,40.238632,40.30088,40.337986,40.375748,40.440758,40.51866,40.65068,40.824905,40.98166,41.101315,41.11084,40.904465,40.54103,40.007355,39.378708,38.80854,38.264725,38.123848,38.60693,39.4173,40.180225,41.08218,41.827927,42.24139,42.471775,42.457798,42.288193,42.129494,42.0006,41.944214,41.95831,42.004467,42.06888,42.129616,42.17135,42.20856,42.23419,42.242516,42.24117,42.2259,42.1989,42.175476,42.16534,42.164536,42.180016,42.206482,42.23947,42.288376,42.348812,42.4096,42.498077,42.61451,42.734703,42.84449,42.975758,43.105495,43.21006,43.307648,43.398407,43.458176,43.486374,43.484108,43.448586,43.404022,43.373905,43.354164,43.369846,43.417896,43.47851,43.55294,43.620556,43.667686,43.704163,43.729454,43.745552,43.760338,43.77227,43.774685,43.771576,43.77226,43.78666,43.8452,43.947716,44.108353,44.361496,44.544075,44.535797,44.411022,44.000454,43.327114,42.516846,41.441948,40.31646,39.467316,38.97133,38.881104,39.223396,39.721497,40.335274,41.13856,41.93113,42.5391,43.23705,43.912167,44.43136,44.820618,45.10943,45.22489,45.222992,45.18393,45.129776,45.102844,45.106743,45.149727,45.226635,45.309013,45.392235,45.488384,45.584625,45.66998,45.76726,45.88339,45.998787,46.09823,46.206932,46.3061,46.377045,46.427147,46.474277,46.524864,46.58407,46.665306,46.792946,46.942055,47.07304,47.188473,47.237427,47.186302,47.060196,46.83245,46.535843,46.268612,46.04231,45.88775,45.876564,45.96975,46.171005,46.51876,46.93,47.31771,47.747612,48.119198,48.360268,48.52298,48.643486,48.71295,48.756683,48.81004,48.874844,48.945137,49.01381,49.096382,49.19027,49.283394,49.3777,49.497093,49.623993,49.734207,49.84508,49.959778,50.05616,50.12734,50.194496,50.24874,50.28589,50.313072,50.34378,50.379356,50.41772,50.465443,50.529797,50.600834,50.665386,50.739254,50.81601,50.883976,50.943954,51.02755,51.12353,51.210915,51.294296,51.40732,51.54374,51.67897,51.845024,52.03918,52.223545,52.382126,52.54676,52.69027,52.79899,52.896904,53.01522,53.154034,53.298603,53.484077,53.72204,53.967392,54.185,54.36487,54.48246,54.538673,54.56249,54.547752,54.490242,54.41877,54.341568,54.252613,54.175312,54.122097,54.080757,54.067398,54.076015,54.084473,54.092285,54.091805,54.082355,54.06697,54.056046,54.05848,54.07054,54.087982,54.116417,54.148254,54.174232,54.203735,54.227173,54.24237,54.262184,54.28958,54.323353,54.357494,54.40345
36.739525,36.80773,36.867004,36.92962,36.983513,37.023235,37.065388,37.114086,37.166885,37.219257,37.298126,37.396667,37.49214,37.58211,37.68461,37.773758,37.834373,37.889748,37.94143,37.982883,38.014458,38.04794,38.07686,38.094162,38.100113,38.10553,38.111454,38.118942,38.131214,38.155144,38.179375,38.191826,38.209625,38.228966,38.24403,38.250023,38.28524,38.369446,38.488083,38.619965,38.888847,39.253387,39.5792,39.764328,39.83418,39.719246,39.423244,38.68444,37.58786,36.425365,35.019318,33.996765,33.61394,33.55454,33.65191,33.857445,34.063667,34.221085,34.431705,34.814827,35.446335,36.416718,37.48395,38.39168,39.02333,39.5478,39.958214,40.170547,40.233448,40.27619,40.325348,40.404167,40.496613,40.643482,40.82789,40.986824,41.098846,41.085365,40.84885,40.461727,39.909622,39.272743,38.733654,38.28524,38.2185,38.67323,39.390156,40.15387,41.05635,41.795265,42.204544,42.429173,42.4092,42.23446,42.070988,41.93843,41.881714,41.898743,41.949226,42.020134,42.08757,42.134026,42.174355,42.2009,42.20832,42.20587,42.189117,42.160393,42.135605,42.124477,42.125183,42.14239,42.168293,42.199074,42.243355,42.296715,42.34944,42.428215,42.53643,42.651245,42.755783,42.880573,43.0031,43.100952,43.191765,43.27602,43.33191,43.35908,43.35756,43.323635,43.279472,43.247833,43.22415,43.23329,43.274574,43.329605,43.4004,43.467896,43.517242,43.55806,43.589466,43.610863,43.628693,43.642242,43.644188,43.639874,43.64036,43.65644,43.71885,43.82534,43.987724,44.234283,44.403492,44.38244,44.24827,43.835014,43.171745,42.387123,41.353874,40.30168,39.537983,39.097004,39.06224,39.408176,39.837944,40.40824,41.171574,41.927174,42.50489,43.181847,43.850502,44.37475,44.780113,45.09221,45.226295,45.231506,45.191814,45.12935,45.09075,45.083717,45.116627,45.185528,45.261932,45.339455,45.428432,45.51729,45.59674,45.689465,45.803596,45.919434,46.019722,46.12969,46.230236,46.30224,46.353134,46.401154,46.45246,46.512016,46.593193,46.719696,46.86863,47.002018,47.123962,47.18481,47.147247,47.032955,46.817276,46.52305,46.246445,46.00496,45.830254,45.801884,45.88553,46.08482,46.44152,46.868694,47.272785,47.716408,48.09562,48.33805,48.497665,48.60981,48.66933,48.70627,48.75499,48.818985,48.891228,48.96148,49.045563,49.14014,49.233208,49.32759,49.448044,49.57673,49.688408,49.799057,49.915897,50.01638,50.090553,50.1614,50.219757,50.260193,50.28934,50.320103,50.352966,50.387077,50.429688,50.486397,50.548126,50.603683,50.66567,50.729137,50.786785,50.841064,50.92173,51.00573,51.073147,51.149235,51.255505,51.38195,51.504314,51.654324,51.833374,52.008224,52.16163,52.321465,52.459534,52.561478,52.651,52.757614,52.88231,53.01272,53.18049,53.39364,53.6084,53.79264,53.961033,54.070908,54.114365,54.132935,54.119728,54.068695,54.003166,53.931953,53.847633,53.772255,53.71931,53.67814,53.663998,53.671837,53.681103,53.691296,53.694763,53.689877,53.68026,53.676826,53.68799,53.709053,53.73934,53.786385,53.8395,53.885746,53.941418,53.99122,54.027435,54.067883,54.117332,54.16858,54.213047,54.262917
36.6299,36.69875,36.755566,36.812107,36.85737,36.88867,36.921482,36.961216,37.008232,37.057983,37.13607,37.235596,37.332256,37.422577,37.52475,37.613235,37.673508,37.728798,37.782936,37.829086,37.86529,37.904316,37.93906,37.961655,37.97287,37.984764,37.998596,38.014374,38.035637,38.06838,38.098896,38.115025,38.13321,38.151634,38.166077,38.17118,38.207233,38.292793,38.41223,38.54618,38.815094,39.178055,39.503067,39.688843,39.76748,39.66739,39.384235,38.663292,37.58403,36.43044,35.023094,33.984306,33.580635,33.510216,33.60562,33.82268,34.05193,34.23519,34.47686,34.88791,35.530952,36.49301,37.525406,38.396492,39.01261,39.52053,39.915894,40.120102,40.18238,40.228462,40.28556,40.37452,40.47809,40.635853,40.82673,40.985397,41.08882,41.054974,40.79467,40.391098,39.829643,39.189034,38.68193,38.33544,38.32762,38.741566,39.368927,40.128166,41.02913,41.763206,42.170677,42.392906,42.370106,42.192,42.024536,41.888306,41.830524,41.849575,41.903584,41.980316,42.054005,42.104897,42.1483,42.176174,42.18312,42.17946,42.162827,42.134674,42.11019,42.09923,42.100914,42.11767,42.14064,42.16738,42.20513,42.251015,42.297462,42.36995,42.471764,42.58094,42.680946,42.800377,42.91718,43.009747,43.095085,43.17383,43.22612,43.252007,43.251,43.218697,43.175606,43.143814,43.118404,43.123512,43.159927,43.210697,43.278122,43.344624,43.394955,43.438538,43.474392,43.500065,43.52073,43.5362,43.538437,43.533684,43.534477,43.552155,43.61764,43.727097,43.89025,44.129395,44.286076,44.2554,44.114418,43.69285,43.029274,42.26742,41.270004,40.27498,39.575516,39.18226,39.19606,39.536026,39.887344,40.432026,41.170227,41.888824,42.438072,43.09928,43.76643,44.297752,44.721207,45.05938,45.215878,45.23232,45.19718,45.13134,45.085007,45.071007,45.09616,45.15789,45.228653,45.300735,45.383064,45.465187,45.539253,45.62773,45.73957,45.854927,45.95497,46.06481,46.1652,46.236946,46.287617,46.335484,46.386604,46.4458,46.5261,46.651207,46.799816,46.934834,47.061714,47.131752,47.10479,47.0002,46.79107,46.497692,46.216778,45.96385,45.77346,45.73178,45.80822,46.006367,46.37075,46.811028,47.22786,47.685303,48.074024,48.319065,48.47736,48.583305,48.634842,48.666294,48.711597,48.77485,48.848297,48.919754,49.004936,49.099777,49.192368,49.28632,49.407314,49.536217,49.64714,49.759224,49.87825,49.980774,50.056633,50.129963,50.191483,50.23481,50.26615,50.29781,50.329376,50.36062,50.399055,50.448303,50.500374,50.546696,50.597084,50.649113,50.700127,50.754387,50.828262,50.905197,50.97067,51.046425,51.14514,51.256786,51.363808,51.495255,51.65706,51.821033,51.968468,52.122395,52.253296,52.346306,52.425034,52.517426,52.626247,52.741783,52.892498,53.08272,53.26947,53.422966,53.58143,53.68518,53.71684,53.727867,53.71305,53.666016,53.60546,53.540367,53.46214,53.39114,53.341057,53.302185,53.288742,53.296463,53.306572,53.31878,53.325645,53.32489,53.32083,53.32473,53.344414,53.37419,53.41658,53.480324,53.55198,53.61593,53.69387,53.766212,53.820515,53.877365,53.943817,54.008163,54.060013,54.110867
36.50455,36.57451,36.628857,36.67845,36.713432,36.73456,36.755283,36.7825,36.8199,36.86329,36.93594,37.031406,37.124687,37.210754,37.307755,37.391457,37.448456,37.501328,37.556725,37.60793,37.649944,37.69689,37.74115,37.773346,37.79442,37.81853,37.846786,37.877007,37.91339,37.961845,38.003273,38.02413,38.04569,38.066376,38.083054,38.091034,38.13116,38.21894,38.33824,38.475067,38.743652,39.10201,39.421658,39.60759,39.692474,39.606068,39.343338,38.639404,37.59231,36.470276,35.041218,33.971752,33.542572,33.457523,33.549458,33.780006,34.037624,34.25341,34.532516,34.98386,35.6506,36.603065,37.584625,38.40396,39.00287,39.490967,39.868195,40.06218,40.122826,40.171642,40.2368,40.336586,40.45235,40.62169,40.818497,40.97516,41.066967,41.008976,40.723167,40.304558,39.735962,39.09665,38.624184,38.375504,38.391136,38.763115,39.345024,40.098915,40.99394,41.721806,42.12854,42.351833,42.32728,42.144062,41.971786,41.830776,41.770924,41.79164,41.849525,41.93333,42.01504,42.071915,42.119843,42.150406,42.157944,42.153873,42.1369,42.10941,42.086266,42.076096,42.07813,42.093502,42.113335,42.135452,42.165726,42.20252,42.240524,42.30426,42.39772,42.500324,42.595367,42.709377,42.82063,42.90799,42.98762,43.060326,43.108208,43.131935,43.130722,43.0997,43.057777,43.026054,42.9993,43.00051,43.03172,43.07756,43.140686,43.205208,43.255756,43.301704,43.342148,43.37274,43.397038,43.415344,43.41874,43.41413,43.4156,43.435158,43.50373,43.615765,43.778435,44.00598,44.145912,44.104782,43.960625,43.520107,42.84007,42.110847,41.153564,40.210793,39.56868,39.234077,39.27723,39.599434,39.909843,40.415253,41.1158,41.801186,42.31435,42.960213,43.62967,44.17053,44.618492,44.992554,45.181503,45.21646,45.192383,45.126823,45.073868,45.054256,45.07158,45.125046,45.18903,45.254585,45.32921,45.403748,45.47171,45.55504,45.663467,45.777225,45.87609,45.984756,46.083908,46.15444,46.204025,46.2506,46.300133,46.357582,46.435806,46.558174,46.705185,46.84085,46.971844,47.050713,47.034683,46.940594,46.73999,46.448364,46.162323,45.8987,45.693394,45.638702,45.707947,45.904957,46.278023,46.733646,47.165985,47.641556,48.043175,48.29191,48.44963,48.549854,48.593365,48.618935,48.66046,48.722183,48.796097,48.868835,48.955055,49.049904,49.14155,49.234573,49.35414,49.48185,49.59243,49.70526,49.825462,49.929085,50.005867,50.080788,50.144722,50.190643,50.224358,50.2575,50.288467,50.317215,50.351387,50.391705,50.43129,50.4653,50.500893,50.539536,50.585827,50.648045,50.712055,50.782677,50.8571,50.9354,51.02661,51.120766,51.208466,51.316406,51.456657,51.607357,51.747627,51.894245,52.01552,52.095833,52.158634,52.23017,52.316048,52.41047,52.538086,52.69866,52.851116,52.96973,53.090458,53.170418,53.196884,53.20588,53.19388,53.15352,53.099857,53.042603,52.97263,52.908836,52.86481,52.833565,52.832012,52.85087,52.86399,52.877277,52.88501,52.88711,52.889812,52.90254,52.93194,52.97146,53.02726,53.1092,53.200905,53.284138,53.38578,53.48268,53.55732,53.631424,53.715446,53.793213,53.852562,53.903305
36.3626,36.43402,36.48703,36.5307,36.55582,36.566586,36.574024,36.585884,36.609478,36.641922,36.7029,36.7871,36.870354,36.945976,37.031395,37.10486,37.154587,37.201736,37.255722,37.310493,37.35787,37.413437,37.469368,37.51429,37.54889,37.58995,37.63842,37.689022,37.74655,37.818123,37.878937,37.913033,37.947197,37.979126,38.00466,38.019707,38.06719,38.158955,38.27845,38.416924,38.681335,39.029053,39.337418,39.521248,39.608673,39.53338,39.295227,38.60762,37.606308,36.537094,35.07706,33.96703,33.506374,33.403114,33.48974,33.734947,34.025326,34.279453,34.601692,35.109535,35.81166,36.725403,37.64292,38.40897,38.985664,39.450348,39.80623,39.98745,40.044525,40.094288,40.165436,40.273827,40.399876,40.57803,40.777092,40.928116,41.005188,40.922092,40.613815,40.18582,39.616734,38.9911,38.547813,38.344284,38.365425,38.72596,39.305374,40.05081,40.933266,41.652813,42.059326,42.275536,42.25364,42.077736,41.90117,41.755806,41.69357,41.71531,41.776646,41.867466,41.957756,42.021492,42.07502,42.10975,42.119385,42.116142,42.099754,42.07343,42.051895,42.042755,42.04525,42.058952,42.074944,42.091343,42.112366,42.1379,42.165367,42.217934,42.300835,42.395493,42.48484,42.593227,42.699287,42.781914,42.85612,42.922745,42.96557,42.9861,42.9838,42.95353,42.91284,42.881687,42.854584,42.85296,42.87955,42.920696,42.9791,43.0407,43.090565,43.138084,43.18271,43.218468,43.247063,43.269417,43.275467,43.272224,43.275238,43.297386,43.369064,43.48286,43.643444,43.8546,43.975666,43.929825,43.76954,43.29902,42.60347,41.90831,40.999413,40.106533,39.505615,39.22931,39.292305,39.592316,39.877632,40.33303,40.986763,41.640224,42.113964,42.74524,43.421642,43.97788,44.45701,44.877216,45.110504,45.174187,45.171112,45.11358,45.05809,45.035122,45.04477,45.088367,45.143757,45.201336,45.26714,45.33368,45.395573,45.473473,45.577343,45.68776,45.783844,45.889484,45.985527,46.053375,46.100838,46.14503,46.19181,46.246384,46.32155,46.440002,46.583992,46.718735,46.852043,46.93818,46.932426,46.84919,46.658913,46.37123,46.0818,45.810753,45.59378,45.528095,45.59097,45.78669,46.16799,46.639492,47.089394,47.585495,48.00145,48.254295,48.412785,48.50909,48.546158,48.56676,48.605133,48.665333,48.739155,48.812435,48.898666,48.99231,49.08178,49.17247,49.289253,49.414818,49.524445,49.63674,49.75624,49.858936,49.934875,50.009403,50.073746,50.12079,50.156204,50.19056,50.22074,50.246464,50.275414,50.304104,50.327816,50.347244,50.36819,50.399193,50.44796,50.518402,50.58715,50.66893,50.759857,50.843143,50.921364,50.98574,51.04126,51.110672,51.21546,51.34438,51.473408,51.610558,51.723015,51.792953,51.841507,51.89486,51.961082,52.037476,52.146385,52.28121,52.4019,52.487995,52.564606,52.606895,52.614132,52.611214,52.592598,52.55356,52.506035,52.4577,52.398544,52.344833,52.30918,52.2869,52.295704,52.325554,52.349564,52.377625,52.40231,52.418316,52.426506,52.4457,52.48355,52.531246,52.598316,52.69534,52.80365,52.90313,53.024292,53.142998,53.23723,53.326317,53.42546,53.51502,53.581276,53.633488
36.22159,36.294365,36.34776,36.38897,36.408485,36.4125,36.410095,36.408974,36.419235,36.439987,36.487297,36.557243,36.62767,36.69066,36.762333,36.823685,36.864594,36.904488,36.9545,37.00962,37.059475,37.120483,37.185116,37.240448,37.286568,37.342476,37.40943,37.479362,37.557068,37.653152,37.738583,37.793327,37.848152,37.899704,37.940308,37.965546,38.02256,38.11967,38.239727,38.377186,38.63246,38.965088,39.26023,39.439465,39.52752,39.4608,39.241814,38.570694,37.609573,36.586388,35.116802,33.97538,33.481148,33.359917,33.44066,33.698883,34.019615,34.309635,34.67621,35.23846,35.964886,36.81444,37.673656,38.402,38.954105,39.395706,39.73088,39.899467,39.95218,40.00122,40.07503,40.187637,40.31939,40.501144,40.69786,40.84069,40.903404,40.800457,40.47813,40.04814,39.48529,38.88198,38.459023,38.24975,38.278244,38.65625,39.24768,39.982395,40.8489,41.558594,41.964035,42.168884,42.153397,41.993782,41.815804,41.668602,41.60482,41.62671,41.689854,41.785103,41.881443,41.95052,42.008682,42.047474,42.059837,42.05819,42.04341,42.018524,41.99805,41.9896,41.99282,42.005318,42.01763,42.028587,42.040756,42.055527,42.072983,42.114563,42.18684,42.273453,42.357086,42.460194,42.561867,42.640762,42.71065,42.77226,42.810486,42.827614,42.823784,42.793808,42.75432,42.72422,42.697906,42.69525,42.7191,42.7572,42.812103,42.87118,42.920204,42.96872,43.016663,43.05693,43.089626,43.11638,43.125957,43.12494,43.129986,43.15498,43.22927,43.343834,43.501514,43.69627,43.800934,43.755444,43.56534,43.066776,42.37223,41.70163,40.844475,39.999023,39.42031,39.18376,39.261703,39.544353,39.804394,40.21273,40.8227,41.447838,41.890038,42.5087,43.193733,43.769646,44.279205,44.744637,45.023445,45.11908,45.141716,45.097954,45.04432,45.019943,45.022858,45.05622,45.10225,45.151627,45.20895,45.268547,45.325645,45.398983,45.498154,45.604137,45.696346,45.797604,45.889355,45.953903,45.999153,46.0412,46.085735,46.13794,46.210484,46.32528,46.465816,46.59852,46.732178,46.822807,46.824787,46.750618,46.570168,46.288013,45.998123,45.723694,45.49961,45.426285,45.48445,45.678864,46.06604,46.550144,47.015366,47.52852,47.956127,48.212624,48.373055,48.468082,48.5017,48.519386,48.555916,48.615097,48.688263,48.760704,48.845253,48.935974,49.021923,49.108932,49.222336,49.345337,49.45302,49.56355,49.680794,49.781048,49.854893,49.92751,49.990585,50.037395,50.07364,50.10856,50.137314,50.15918,50.18187,50.197395,50.204575,50.210537,50.221764,50.25627,50.318012,50.3961,50.48995,50.601326,50.708218,50.794785,50.850594,50.87017,50.87935,50.895035,50.950264,51.04847,51.162064,51.28904,51.398155,51.46743,51.512936,51.563328,51.626713,51.70005,51.806602,51.932487,52.03557,52.100433,52.147957,52.153526,52.12748,52.10221,52.066917,52.023125,51.980026,51.94026,51.89254,51.849365,51.821793,51.8061,51.81737,51.850685,51.88771,51.93701,51.986748,52.02212,52.037586,52.061268,52.103004,52.15455,52.22709,52.331512,52.448204,52.556297,52.687614,52.819916,52.928337,53.02689,53.13576,53.233467,53.304996,53.36069
36.06892,36.143204,36.198284,36.24058,36.259354,36.26083,36.252647,36.24205,36.241005,36.25078,36.284447,36.339706,36.396954,36.447266,36.505035,36.553894,36.585403,36.616997,36.660736,36.712936,36.76203,36.82434,36.893158,36.954865,37.008675,37.075386,37.157215,37.243813,37.339195,37.462574,37.57821,37.65649,37.737495,37.81559,37.877388,37.917637,37.98807,38.091522,38.21049,38.344406,38.58561,38.9003,39.183956,39.354664,39.445137,39.38984,39.180885,38.531925,37.589497,36.578587,35.149006,33.996902,33.46238,33.322674,33.397102,33.667774,34.01779,34.341705,34.76425,35.364456,36.076424,36.85495,37.671745,38.378464,38.903465,39.321156,39.63511,39.79106,39.839317,39.88667,39.96102,40.075043,40.209587,40.391533,40.582836,40.71579,40.76422,40.64495,40.31391,39.885986,39.332832,38.75286,38.355427,38.15971,38.200615,38.58158,39.165592,39.887802,40.737526,41.435112,41.83783,42.046494,42.038097,41.883938,41.708412,41.561897,41.497353,41.518562,41.58184,41.678802,41.778305,41.8506,41.911804,41.953705,41.96859,41.96866,41.95563,41.932312,41.91291,41.90501,41.908695,41.92002,41.929184,41.9356,41.94026,41.945618,41.954094,41.985428,42.047348,42.125862,42.20376,42.301807,42.3996,42.475372,42.541668,42.599022,42.633106,42.64691,42.641506,42.61193,42.57412,42.545815,42.521545,42.51967,42.542633,42.57938,42.63254,42.69038,42.739243,42.789112,42.840534,42.88543,42.92236,42.953815,42.96731,42.968742,42.975758,43.003376,43.07975,43.194416,43.348766,43.52874,43.617847,43.569775,43.34536,42.827217,42.147587,41.495277,40.696777,39.90531,39.341965,39.127518,39.2127,39.479103,39.710808,40.077835,40.649223,41.248207,41.66461,42.270233,42.964645,43.565254,44.10475,44.614132,44.937866,45.065907,45.11686,45.08973,45.039124,45.01282,45.008057,45.029747,45.06508,45.105446,45.15403,45.20687,45.25933,45.328053,45.42182,45.522137,45.60919,45.704506,45.7909,45.85209,45.89558,45.93663,45.980537,46.03186,46.10298,46.214893,46.35211,46.482525,46.615463,46.708946,46.717106,46.650696,46.47921,46.203224,45.914597,45.638123,45.408386,45.328587,45.38263,45.575905,45.96774,46.46208,46.940144,47.467857,47.90587,48.16646,48.33011,48.425797,48.457787,48.473667,48.508747,48.566467,48.637817,48.70787,48.788826,48.87455,48.95523,49.037285,49.14569,49.26461,49.36934,49.477295,49.59172,49.689262,49.760963,49.83156,49.89348,49.94043,49.978073,50.01404,50.041214,50.058292,50.072952,50.072624,50.06131,50.05362,50.058357,50.10526,50.192177,50.289852,50.420235,50.56874,50.69491,50.789658,50.81234,50.765182,50.710022,50.652412,50.646774,50.71328,50.81201,50.930283,51.040318,51.11589,51.16771,51.22522,51.29714,51.380054,51.498943,51.630028,51.725098,51.774254,51.79567,51.76698,51.710754,51.66535,51.61568,51.56951,51.533028,51.503746,51.469273,51.43797,51.41926,51.41107,51.42739,51.46357,51.502983,51.554237,51.605843,51.64658,51.686928,51.72307,51.76323,51.81548,51.88931,51.99571,52.115253,52.22711,52.362602,52.50386,52.62394,52.727913,52.84327,52.94749,53.02356,53.082245
35.85352,35.92888,35.987236,36.03461,36.05804,36.061867,36.05269,36.036842,36.027023,36.0269,36.047485,36.087975,36.131798,36.169518,36.213364,36.249313,36.270668,36.293076,36.32812,36.3739,36.419098,36.47857,36.547165,36.611343,36.668983,36.74225,36.83507,36.935493,37.046196,37.196075,37.34648,37.45813,37.575294,37.691334,37.784927,37.848667,37.939888,38.052746,38.169273,38.296318,38.515106,38.800854,39.064514,39.23022,39.324898,39.277733,39.077034,38.45935,37.54609,36.5554,35.188667,34.032352,33.450344,33.287857,33.354126,33.639,34.023247,34.38642,34.8809,35.533386,36.224285,36.888073,37.63932,38.318756,38.809822,39.198837,39.489014,39.632183,39.67688,39.723312,39.797745,39.911236,40.046104,40.224636,40.40621,40.52584,40.558384,40.4254,40.092667,39.674988,39.143112,38.596657,38.23125,38.05578,38.109615,38.488037,39.05728,39.758934,40.58235,41.26036,41.657307,41.878563,41.880573,41.729523,41.56127,41.418484,41.353638,41.37258,41.43345,41.528465,41.627632,41.70096,41.76358,41.807922,41.825653,41.828087,41.81748,41.79624,41.778088,41.770607,41.774227,41.78373,41.7893,41.7909,41.787476,41.782406,41.78062,41.799423,41.847656,41.91459,41.9836,42.07324,42.164284,42.234913,42.295795,42.34718,42.375694,42.38504,42.377266,42.34796,42.312397,42.286694,42.26581,42.266266,42.289577,42.325882,42.37802,42.43496,42.483692,42.534958,42.590134,42.64021,42.682014,42.719383,42.7384,42.743736,42.753796,42.785255,42.864357,42.978844,43.128918,43.29389,43.36285,43.299664,43.04988,42.52688,41.870094,41.239075,40.522404,39.801224,39.245895,39.051517,39.131912,39.37011,39.57372,39.892654,40.4118,40.975815,41.375633,41.96765,42.67171,43.304367,43.877625,44.43805,44.817047,44.987556,45.07157,45.067966,45.029373,45.007874,44.996864,45.003704,45.02447,45.053383,45.091335,45.136868,45.185158,45.249596,45.337914,45.43194,45.51297,45.60122,45.68132,45.73876,45.780502,45.82108,45.865257,45.91646,45.986763,46.09588,46.228397,46.353756,46.48462,46.57911,46.5912,46.531452,46.36844,46.099724,45.81436,45.536522,45.30123,45.214695,45.264343,45.456047,45.85165,46.355003,46.84488,47.382988,47.830124,48.098152,48.266487,48.36476,48.39705,48.41237,48.446663,48.50271,48.571007,48.63693,48.711628,48.789207,48.861824,48.93638,49.037033,49.149475,49.249542,49.35333,49.463234,49.556534,49.624893,49.692245,49.752003,49.798584,49.837605,49.87474,49.89961,49.909966,49.913475,49.892624,49.85897,49.83648,49.839565,49.913227,50.04458,50.178444,50.371674,50.583557,50.731453,50.76655,50.70858,50.568657,50.412613,50.26658,50.14268,50.093037,50.125,50.2116,50.337273,50.45447,50.55175,50.686516,50.836292,50.96582,51.122257,51.286358,51.400856,51.451935,51.459045,51.40017,51.313324,51.24703,51.181328,51.13234,51.10408,51.086853,51.06746,51.04949,51.040447,51.040222,51.06196,51.100983,51.141884,51.193466,51.243824,51.28418,51.33288,51.375237,51.415062,51.463425,51.53325,51.6352,51.751144,51.860844,51.99422,52.13674,52.261944,52.373207,52.49467,52.603317,52.683556,52.74565
35.605545,35.680855,35.743084,35.798428,35.83143,35.842823,35.839165,35.825592,35.813866,35.80932,35.82296,35.854687,35.89022,35.920372,35.95548,35.98263,35.9964,36.01151,36.03791,36.07544,36.114494,36.16751,36.231247,36.293,36.349026,36.42195,36.517693,36.62401,36.74209,36.909054,37.087852,37.232002,37.385452,37.541447,37.670025,37.7607,37.875935,37.99962,38.112904,38.230873,38.42359,38.67273,38.90625,39.078133,39.181484,39.13478,38.938263,38.355797,37.482635,36.52693,35.249363,34.09446,33.458214,33.274048,33.33152,33.627323,34.04869,34.468193,35.021355,35.692368,36.338844,36.90069,37.585266,38.22997,38.687714,39.051125,39.322903,39.45883,39.504032,39.552795,39.6287,39.74095,39.87401,40.046486,40.216316,40.322353,40.341568,40.20093,39.87477,39.47512,38.974915,38.46703,38.1326,37.977814,38.0418,38.41411,38.965183,39.63684,40.427444,41.083336,41.472664,41.705654,41.720474,41.57701,41.419575,41.28325,41.218826,41.234207,41.29026,41.3795,41.47439,41.54601,41.60787,41.653366,41.673676,41.678658,41.670666,41.65162,41.634556,41.627125,41.629845,41.63678,41.638603,41.635582,41.624557,41.609497,41.59758,41.603157,41.635788,41.688347,41.74554,41.823036,41.903606,41.966255,42.01945,42.062923,42.084587,42.088707,42.07776,42.048157,42.014633,41.991493,41.97422,41.97763,42.002056,42.038464,42.089954,42.145893,42.19397,42.245743,42.303436,42.357567,42.403458,42.44642,42.47154,42.481915,42.496056,42.532513,42.615044,42.729538,42.87552,43.028427,43.078865,42.996445,42.73648,42.223827,41.59353,40.984608,40.34964,39.700317,39.1547,38.970345,39.031273,39.23282,39.4104,39.68643,40.1509,40.677124,41.076744,41.65953,42.369534,43.031082,43.635254,44.243706,44.677746,44.89392,45.01326,45.034172,45.008926,44.99601,44.987602,44.98536,44.990826,45.007988,45.03567,45.075356,45.121426,45.18372,45.26889,45.358543,45.434967,45.516796,45.590935,45.64512,45.685684,45.726685,45.771973,45.82344,45.89291,45.998695,46.125572,46.244904,46.37185,46.46553,46.479958,46.42453,46.266815,46.003906,45.722668,45.443512,45.20308,45.110363,45.15584,45.34536,45.742657,46.25142,46.748543,47.290215,47.74256,48.018715,48.19171,48.293594,48.327824,48.343815,48.378128,48.432655,48.49745,48.55854,48.625954,48.69433,48.75806,48.824306,48.916157,49.02108,49.115685,49.214428,49.318886,49.407112,49.471443,49.53475,49.59153,49.63703,49.676834,49.714493,49.73608,49.738453,49.729286,49.68706,49.632233,49.597874,49.606167,49.71718,49.905922,50.094673,50.34112,50.56931,50.68704,50.6569,50.521317,50.280136,49.995884,49.681114,49.363693,49.168026,49.13057,49.188873,49.343384,49.521606,49.686867,49.930367,50.20815,50.447342,50.71176,50.960983,51.12224,51.201138,51.216652,51.143005,51.033142,50.949657,50.868916,50.815826,50.794144,50.786835,50.78012,50.773403,50.77233,50.778534,50.804535,50.845856,50.888187,50.940514,50.990135,51.02736,51.06499,51.100998,51.137848,51.179535,51.241222,51.333412,51.440098,51.542053,51.6671,51.80256,51.924988,52.04281,52.16825,52.278145,52.36075,52.425514
35.374344,35.448807,35.51427,35.577454,35.620872,35.64144,35.646313,35.63956,35.63108,35.626995,35.639633,35.66892,35.70172,35.729424,35.761143,35.784035,35.793434,35.803802,35.82341,35.853546,35.886604,35.93267,35.990295,36.04772,36.099663,36.168594,36.2621,36.368496,36.487686,36.66358,36.861122,37.02806,37.20987,37.398994,37.55745,37.671806,37.808563,37.94215,38.052452,38.161568,38.331154,38.544464,38.743767,38.931213,39.047363,38.995853,38.79949,38.24929,37.41581,36.49998,35.33026,34.17912,33.48389,33.282738,33.332138,33.633293,34.09221,34.58763,35.171055,35.800056,36.370678,36.89065,37.533596,38.141857,38.572197,38.917336,39.17874,39.313606,39.363018,39.41696,39.496254,39.60811,39.73909,39.90561,40.06495,40.159813,40.169537,40.025185,39.708233,39.327972,38.860943,38.388454,38.078426,37.93949,38.011223,38.37821,38.912323,39.549965,40.30898,40.94692,41.329372,41.56549,41.593227,41.46486,41.31806,41.188705,41.12519,41.137016,41.187862,41.270374,41.35971,41.428555,41.48874,41.534615,41.556973,41.564163,41.558453,41.541245,41.524933,41.51723,41.51857,41.522667,41.52087,41.51355,41.495804,41.47196,41.450974,41.444374,41.461945,41.49996,41.54476,41.608902,41.677345,41.730576,41.775146,41.810005,41.824566,41.823536,41.809135,41.778683,41.7465,41.72524,41.71074,41.71655,41.74195,41.77835,41.82905,41.88363,41.93046,41.981724,42.04036,42.09686,42.145485,42.192696,42.223206,42.238667,42.25713,42.298824,42.38504,42.49996,42.642838,42.786697,42.82501,42.732277,42.466904,41.96649,41.36209,40.772934,40.199154,39.610474,39.084297,38.89779,38.933613,39.100533,39.25154,39.496666,39.916862,40.410133,40.818962,41.397797,42.109833,42.790867,43.420425,44.06845,44.54914,44.806374,44.96128,45.001713,44.9814,44.973904,44.977325,44.97608,44.96847,44.975365,44.994568,45.03031,45.075745,45.137833,45.222248,45.30995,45.38389,45.460556,45.52951,45.58113,45.621178,45.663277,45.70996,45.76152,45.829475,45.93096,46.052353,46.167435,46.289368,46.382046,46.399723,46.347317,46.191994,45.93239,45.654552,45.373528,45.128265,45.030144,45.071827,45.258785,45.656303,46.167725,46.66814,47.210274,47.66497,47.94665,48.123154,48.228195,48.264473,48.28137,48.3159,48.36921,48.430977,48.487907,48.54914,48.609814,48.666107,48.72531,48.809536,48.90781,48.997498,49.091583,49.191025,49.274574,49.33516,49.394615,49.44839,49.492535,49.53254,49.569916,49.58763,49.582016,49.560818,49.49967,49.427597,49.385258,49.40197,49.549828,49.79493,50.048565,50.310234,50.465866,50.483818,50.463673,50.307358,49.977104,49.565823,48.983368,48.431946,48.147137,48.097122,48.157738,48.341217,48.565643,48.784332,49.097084,49.489803,49.88193,50.32122,50.693184,50.904144,51.02334,51.061058,50.984867,50.859604,50.762802,50.66899,50.61066,50.59248,50.591755,50.594017,50.59542,50.600117,50.61097,50.639984,50.682846,50.726135,50.7788,50.828747,50.864677,50.890736,50.913643,50.94124,50.977436,51.03108,51.113213,51.209946,51.303185,51.41829,51.544724,51.662308,51.78327,51.91024,52.01983,52.103153,52.16941
35.09298,35.165604,35.23407,35.30633,35.363068,35.396328,35.414238,35.41999,35.42032,35.421234,35.437656,35.469078,35.50292,35.53145,35.562626,35.5831,35.589092,35.59505,35.607132,35.628296,35.65377,35.690758,35.7397,35.79017,35.835293,35.896873,35.98352,36.084724,36.19967,36.37761,36.586964,36.771286,36.978123,37.198635,37.386658,37.525993,37.68423,37.826622,37.9324,38.030113,38.16905,38.34056,38.506,38.69048,38.828754,38.79796,38.594734,38.087967,37.304787,36.444,35.466423,34.31669,33.519634,33.30638,33.34586,33.65805,34.15303,34.699574,35.28445,35.856743,36.357094,36.84814,37.448387,38.013836,38.417877,38.74533,38.999268,39.13788,39.196083,39.25939,39.345207,39.458115,39.58695,39.747223,39.89609,39.98084,39.98459,39.843216,39.544777,39.19336,38.762802,38.341114,38.074684,37.9517,38.0308,38.392365,38.906265,39.490414,40.20407,40.819607,41.19259,41.421593,41.463898,41.36138,41.227463,41.106697,41.04387,41.0504,41.09365,41.166206,41.247097,41.311478,41.368946,41.415115,41.44025,41.450474,41.448364,41.43448,41.41997,41.41249,41.41262,41.413506,41.407368,41.394882,41.369087,41.3347,41.302803,41.281166,41.279686,41.29885,41.327232,41.373154,41.424885,41.46534,41.498497,41.52215,41.527794,41.520607,41.50181,41.469765,41.438347,41.418327,41.405937,41.413254,41.438473,41.47345,41.521496,41.57267,41.616394,41.66525,41.72291,41.78032,41.83077,41.881866,41.91847,41.940426,41.96476,42.01313,42.103653,42.218735,42.357407,42.490906,42.517223,42.416252,42.149555,41.668865,41.098114,40.5356,39.997227,39.466713,38.999702,38.803722,38.801334,38.92738,39.051624,39.26645,39.643135,40.10373,40.522423,41.094967,41.80262,42.496613,43.151707,43.83954,44.36871,44.672485,44.882942,44.955322,44.9382,44.933407,44.94152,44.940903,44.92802,44.92708,44.94073,44.976013,45.02404,45.08857,45.174316,45.261124,45.332703,45.406296,45.472397,45.52236,45.5616,45.60385,45.651005,45.702316,45.768963,45.866684,45.98207,46.090782,46.20575,46.29268,46.308727,46.259674,46.106922,45.85033,45.575302,45.291565,45.040855,44.937065,44.974747,45.158333,45.554665,46.06644,46.566734,47.105015,47.5587,47.844543,48.02379,48.131897,48.170578,48.18866,48.223396,48.27512,48.333206,48.38521,48.439186,48.4908,48.538254,48.58898,48.663727,48.753452,48.836693,48.92444,49.01716,49.09463,49.150352,49.20481,49.25474,49.297123,49.337177,49.374184,49.387516,49.372902,49.338203,49.25712,49.168564,49.120693,49.152176,49.354767,49.65647,49.912872,50.19857,50.322685,50.25477,50.24173,50.02147,49.48546,48.79261,47.97754,47.276375,46.930138,46.832542,46.91394,47.163246,47.450233,47.726337,48.116943,48.614212,49.126644,49.757946,50.31927,50.648354,50.829254,50.910614,50.845528,50.70957,50.599823,50.491077,50.424824,50.408318,50.412594,50.42308,50.43261,50.443047,50.458683,50.490776,50.53518,50.579407,50.636776,50.681904,50.701263,50.71553,50.73025,50.752403,50.782433,50.827477,50.898422,50.983524,51.0661,51.16877,51.28373,51.393555,51.509575,51.637993,51.75042,51.83196,51.898663
34.79528,34.86413,34.933743,35.013172,35.082172,35.12831,35.16089,35.182377,35.195618,35.205597,35.2303,35.26818,35.30645,35.33854,35.37172,35.39162,35.39533,35.397552,35.40239,35.414467,35.432026,35.45949,35.499035,35.541435,35.578316,35.629707,35.704063,35.792747,35.894875,36.06105,36.265327,36.451614,36.666634,36.90176,37.106503,37.262474,37.43345,37.579834,37.68097,37.76748,37.878124,38.011192,38.144035,38.306355,38.450554,38.447342,38.26548,37.824486,37.114212,36.326744,35.53141,34.41545,33.55637,33.333588,33.359566,33.696934,34.231987,34.7863,35.313305,35.81575,36.278255,36.739265,37.29133,37.809288,38.186295,38.496937,38.746723,38.8937,38.964756,39.04144,39.137146,39.25299,39.379925,39.535217,39.677044,39.75745,39.76503,39.642693,39.380577,39.072243,38.69761,38.339127,38.122055,38.027794,38.119247,38.465733,38.94391,39.472603,40.13459,40.71616,41.068558,41.282646,41.340836,41.270454,41.150787,41.03968,40.97726,40.976852,41.010147,41.06961,41.139305,41.197655,41.251534,41.29821,41.327324,41.342056,41.345695,41.33756,41.32669,41.32053,41.320045,41.317574,41.306572,41.288284,41.2537,41.208046,41.164513,41.12655,41.103863,41.10157,41.110992,41.135506,41.167633,41.19354,41.214195,41.22616,41.22312,41.21032,41.187374,41.153587,41.12219,41.10219,41.089943,41.096077,41.118248,41.148823,41.19069,41.235012,41.272804,41.316463,41.370453,41.426834,41.478134,41.53263,41.57605,41.606117,41.63807,41.694477,41.7894,41.90365,42.03636,42.15805,42.17334,42.067635,41.806892,41.350662,40.815582,40.28898,39.775,39.29207,38.889435,38.679893,38.636692,38.724052,38.8264,39.01792,39.359444,39.79191,40.21834,40.7779,41.46785,42.159557,42.829147,43.542877,44.109917,44.4576,44.726517,44.852932,44.863297,44.86258,44.870594,44.866364,44.85016,44.84653,44.86042,44.900497,44.95563,45.027847,45.121872,45.215103,45.290485,45.367355,45.435333,45.485596,45.524017,45.564804,45.609585,45.657867,45.720474,45.811493,45.91779,46.016907,46.121338,46.19776,46.2069,46.155983,46.00466,45.751663,45.478867,45.192905,44.93842,44.83103,44.86609,45.0465,45.439873,45.946808,46.43734,46.966618,47.4152,47.700047,47.879227,47.989113,48.030533,48.050644,48.08648,48.137527,48.192566,48.24003,48.286896,48.329147,48.367058,48.40824,48.471718,48.550674,48.62542,48.704605,48.788048,48.85707,48.906025,48.95336,48.997364,49.036274,49.074905,49.110435,49.119453,49.0972,49.051693,48.95655,48.859833,48.814655,48.871838,49.13398,49.482235,49.716797,49.97775,50.08824,50.02025,50.043995,49.647667,48.76127,47.751774,46.606888,45.75173,45.48031,45.53514,45.693687,45.99353,46.34476,46.672096,47.12307,47.694176,48.291767,49.064926,49.841747,50.361008,50.623203,50.774208,50.742523,50.60782,50.48954,50.365448,50.286148,50.26506,50.268036,50.280952,50.294895,50.309128,50.32826,50.362617,50.407913,50.453583,50.504936,50.538147,50.546844,50.555355,50.56687,50.585922,50.61074,50.648163,50.70843,50.781662,50.85272,50.941498,51.043015,51.142654,51.249115,51.375168,51.48916,51.569374,51.63664
34.54973,34.6137,34.68211,34.764313,34.84024,34.894714,34.93799,34.971916,34.996155,35.014557,35.04705,35.09098,35.13318,35.16818,35.202835,35.222084,35.22381,35.22275,35.221687,35.22656,35.237747,35.257763,35.289894,35.325645,35.355583,35.397232,35.45784,35.530903,35.615807,35.760445,35.945084,36.11825,36.3233,36.552353,36.755558,36.914177,37.086113,37.23122,37.328674,37.40734,37.500877,37.60842,37.714935,37.850266,37.97899,37.992397,37.860447,37.49456,36.86923,36.15856,35.456467,34.411804,33.573994,33.34049,33.354088,33.71995,34.28579,34.811203,35.25703,35.701103,36.15238,36.574055,37.075943,37.548916,37.898087,38.19198,38.437004,38.590824,38.672928,38.761253,38.86559,38.983814,39.10839,39.25995,39.398865,39.48121,39.501244,39.410393,39.19641,38.938644,38.632828,38.337227,38.16178,38.104416,38.211,38.53459,38.968056,39.456177,40.070457,40.609497,40.93373,41.135147,41.203873,41.155334,41.04901,40.94707,40.885246,40.878273,40.90187,40.9486,41.007362,41.059772,41.110252,41.15775,41.191376,41.211365,41.222046,41.22136,41.215782,41.21242,41.21283,41.208508,41.19409,41.17163,41.13073,41.076954,41.024944,40.974617,40.935246,40.91562,40.909615,40.91655,40.93286,40.94761,40.959213,40.963516,40.95564,40.940243,40.915695,40.881775,40.850784,40.830467,40.817184,40.82027,40.837566,40.86211,40.896046,40.932068,40.962975,41.000515,41.049873,41.10453,41.15636,41.21386,41.26395,41.30229,41.342125,41.40641,41.5051,41.61786,41.744286,41.855118,41.86207,41.755207,41.505577,41.072937,40.568424,40.079018,39.593285,39.145283,38.78123,38.56175,38.48826,38.547424,38.63678,38.81507,39.1352,39.547752,39.973816,40.514343,41.177147,41.851967,42.51931,43.23829,43.82391,44.20125,44.50934,44.693275,44.750717,44.76015,44.768963,44.759544,44.740818,44.73972,44.75894,44.807205,44.87155,44.95449,45.061844,45.167892,45.25322,45.33892,45.412872,45.465576,45.504013,45.542862,45.583397,45.626366,45.68239,45.76405,45.859318,45.947784,46.040535,46.105835,46.106743,46.049423,45.897835,45.649246,45.38019,45.09491,44.84039,44.732735,44.76738,44.945778,45.335243,45.833107,46.305992,46.823128,47.263645,47.542313,47.718296,47.827965,47.87159,47.893967,47.93151,47.982864,48.035995,48.080036,48.121117,48.15526,48.18447,48.216652,48.268967,48.336754,48.40238,48.47229,48.545547,48.605263,48.64682,48.68634,48.72348,48.75785,48.793884,48.82718,48.83316,48.806793,48.7563,48.656666,48.56196,48.52674,48.615097,48.91722,49.287872,49.519966,49.7102,49.80667,49.814392,49.874886,49.234913,47.958786,46.68839,45.188774,44.188416,44.09774,44.48993,44.800926,45.14196,45.53302,45.892765,46.369423,46.97294,47.61862,48.44747,49.38686,50.092747,50.430782,50.654655,50.666794,50.54357,50.423027,50.28721,50.193577,50.163418,50.160095,50.170036,50.184395,50.20027,50.221313,50.257042,50.301834,50.34594,50.380943,50.402405,50.41571,50.425537,50.437103,50.45438,50.476418,50.508972,50.561573,50.62558,50.687187,50.76422,50.85388,50.944206,51.04275,51.162975,51.275272,51.356667,51.425533
34.3265,34.385147,34.450905,34.533195,34.61253,34.672035,34.72267,34.765602,34.797928,34.822575,34.86025,34.907497,34.95124,34.986885,35.020508,35.037178,35.035946,35.030724,35.023376,35.02117,35.02623,35.03942,35.064484,35.093544,35.116875,35.14865,35.194393,35.249874,35.315125,35.432426,35.58808,35.73801,35.926075,36.13818,36.326218,36.476784,36.64498,36.787285,36.87934,36.951744,37.033234,37.120934,37.20445,37.317024,37.434692,37.464905,37.375275,37.086452,36.55951,35.936005,35.3031,34.35817,33.57672,33.32058,33.329338,33.710133,34.271584,34.734238,35.144257,35.554195,35.962685,36.3446,36.793526,37.21537,37.530403,37.802025,38.036133,38.19119,38.280273,38.3757,38.484467,38.60188,38.721344,38.86741,39.003883,39.090813,39.12845,39.078102,38.9244,38.729435,38.49639,38.27495,38.152676,38.12433,38.240913,38.54312,38.936504,39.38265,39.939064,40.427277,40.72616,40.927704,40.992134,40.937904,40.847675,40.756477,40.696304,40.68315,40.697113,40.730995,40.778538,40.82473,40.871796,40.92042,40.95925,40.985382,41.004913,41.014137,41.016293,41.01809,41.022064,41.018696,41.003563,40.980015,40.93686,40.879524,40.82334,40.765656,40.71502,40.68293,40.665596,40.659523,40.664665,40.672424,40.67905,40.680294,40.671967,40.6576,40.63482,40.603714,40.575104,40.555576,40.54195,40.542023,40.554115,40.57234,40.59794,40.625443,40.64956,40.68109,40.726055,40.779327,40.8321,40.893036,40.950405,40.99774,41.046165,41.118874,41.22154,41.332886,41.45338,41.55448,41.55534,41.450317,41.215256,40.811073,40.34085,39.886982,39.434654,39.02514,38.69655,38.468475,38.36451,38.39627,38.477386,38.6469,38.952255,39.3479,39.76564,40.282963,40.91112,41.555977,42.208534,42.921062,43.514297,43.90982,44.24469,44.466564,44.56002,44.594086,44.609665,44.60314,44.594,44.599678,44.628067,44.687347,44.76242,44.857315,44.979416,45.100014,45.197083,45.294273,45.377174,45.4346,45.474586,45.512558,45.549084,45.58638,45.635147,45.706623,45.790234,45.86774,45.94871,46.003143,45.996628,45.9348,45.780148,45.536774,45.278786,44.997746,44.74636,44.640816,44.676414,44.852974,45.23844,45.725433,46.17511,46.674355,47.101967,47.37119,47.541565,47.649155,47.693924,47.717957,47.75668,47.807785,47.858414,47.89852,47.93333,47.958782,47.978592,48.00102,48.041054,48.096306,48.15155,48.210903,48.27282,48.32247,48.35625,48.387745,48.4179,48.447624,48.480988,48.51219,48.516254,48.487976,48.435886,48.336876,48.249123,48.22693,48.351524,48.665237,49.02609,49.286476,49.415405,49.491882,49.55761,49.573452,48.691765,46.98012,45.25766,43.59046,42.595825,42.6522,43.32165,43.988846,44.538727,44.927032,45.301273,45.780193,46.386417,47.048607,47.915848,48.979855,49.830612,50.23214,50.526413,50.587437,50.480156,50.357746,50.21286,50.107235,50.067734,50.057808,50.064453,50.0791,50.096615,50.11956,50.159172,50.20294,50.229813,50.257217,50.279007,50.29295,50.303917,50.31678,50.33429,50.355232,50.384727,50.431507,50.48784,50.54121,50.607876,50.686935,50.7688,50.860023,50.97384,51.084087,51.167755,51.239048
34.091278,34.141895,34.201355,34.279366,34.357616,34.418053,34.471893,34.519363,34.55564,34.583015,34.621185,34.66632,34.70651,34.738014,34.765392,34.775223,34.768265,34.755875,34.7407,34.730663,34.727783,34.7324,34.748566,34.769188,34.78431,34.804184,34.832245,34.866714,34.90822,34.990997,35.106586,35.220264,35.369957,35.543404,35.700516,35.82936,35.98082,36.11385,36.2006,36.26632,36.336563,36.408333,36.475113,36.569084,36.67903,36.729744,36.686626,36.490543,36.088417,35.569023,34.975723,34.152573,33.47679,33.21925,33.229187,33.592285,34.128227,34.57595,34.943325,35.292717,35.640137,35.95782,36.334885,36.6908,36.956284,37.190136,37.397297,37.540497,37.62732,37.72016,37.82345,37.931175,38.037872,38.170876,38.301678,38.395866,38.45861,38.464806,38.394966,38.287632,38.152496,38.026245,37.970493,37.981453,38.110764,38.38513,38.725216,39.106148,39.572388,39.97818,40.228745,40.404964,40.458973,40.408554,40.336433,40.259262,40.203594,40.185356,40.189484,40.20957,40.244476,40.283157,40.3259,40.375607,40.420845,40.45507,40.48694,40.511223,40.5267,40.53885,40.55268,40.557373,40.548485,40.531162,40.495186,40.444614,40.393612,40.338966,40.28823,40.253716,40.23352,40.223778,40.226963,40.235806,40.24548,40.253025,40.25353,40.24807,40.235275,40.214912,40.194763,40.18027,40.17004,40.16958,40.177708,40.190178,40.207886,40.227276,40.24504,40.271034,40.312386,40.36538,40.42023,40.486618,40.554424,40.61423,40.674374,40.758858,40.867912,40.979004,41.094696,41.188473,41.18833,41.09233,40.882072,40.521103,40.099762,39.691345,39.275436,38.920555,38.658596,38.43589,38.300037,38.29966,38.379044,38.542717,38.85438,39.242134,39.596504,40.06826,40.654213,41.25203,41.865307,42.547005,43.12931,43.52968,43.880264,44.130653,44.25536,44.314957,44.34867,44.358124,44.365524,44.383766,44.426773,44.5009,44.5888,44.697533,44.83709,44.975967,45.08882,45.203117,45.301407,45.369076,45.414948,45.455624,45.489807,45.521423,45.561893,45.62124,45.691105,45.75605,45.823853,45.867176,45.85434,45.789673,45.635082,45.399788,45.156715,44.896927,44.65898,44.557365,44.596066,44.773003,45.14637,45.60843,46.02815,46.50074,46.906807,47.160446,47.32114,47.423958,47.468685,47.493744,47.53263,47.581886,47.62797,47.662018,47.687634,47.7008,47.707615,47.716736,47.74007,47.778248,47.819336,47.864414,47.911495,47.9486,47.973152,47.995647,48.018574,48.04392,48.07493,48.104935,48.10918,48.082165,48.033157,47.941788,47.868786,47.86621,48.03466,48.360508,48.692825,48.93136,49.021156,49.11577,49.22313,49.089622,47.969227,45.953007,43.924316,42.200745,41.373425,41.700726,42.617508,43.46077,44.087097,44.488583,44.865364,45.325478,45.905846,46.555748,47.429253,48.549698,49.493652,49.984116,50.339806,50.44127,50.363564,50.266113,50.12411,50.006485,49.959084,49.943775,49.948494,49.96516,49.986275,50.015633,50.049747,50.077785,50.094944,50.118332,50.140636,50.155598,50.168823,50.184807,50.204594,50.226044,50.25415,50.29651,50.34606,50.39182,50.448757,50.517796,50.59169,50.675964,50.783913,50.893036,50.98024,51.055893
33.88067,33.922523,33.973267,34.042007,34.112503,34.167667,34.218224,34.263268,34.297295,34.322468,34.35546,34.3925,34.423904,34.44684,34.464325,34.465736,34.45343,34.436363,34.416794,34.40177,34.392803,34.389664,34.396072,34.406647,34.413128,34.418682,34.42411,34.431473,34.44261,34.478317,34.540077,34.608776,34.709297,34.84083,34.972473,35.08634,35.219555,35.340508,35.42325,35.4804,35.53708,35.598076,35.66245,35.755817,35.866493,35.933678,35.932182,35.822105,35.52578,35.086456,34.525284,33.817986,33.260178,33.030838,33.045544,33.3617,33.849655,34.30854,34.66439,34.963585,35.236076,35.480583,35.777245,36.059517,36.267952,36.453205,36.621063,36.740692,36.814743,36.89383,36.98096,37.07095,37.159416,37.27366,37.39511,37.495132,37.580547,37.639694,37.64968,37.626488,37.585983,37.549507,37.555,37.604103,37.74337,37.987183,38.271038,38.578197,38.946083,39.26069,39.451836,39.58418,39.626297,39.5906,39.534935,39.47309,39.425716,39.40686,39.405365,39.416367,39.442028,39.474518,39.513535,39.56344,39.61332,39.654213,39.6972,39.73654,39.76689,39.792023,39.819927,39.838516,39.842155,39.83801,39.818344,39.784714,39.74835,39.70793,39.670006,39.64544,39.633175,39.631985,39.64479,39.663918,39.685196,39.708267,39.725964,39.73603,39.74018,39.737293,39.731087,39.72605,39.72385,39.727383,39.73555,39.745975,39.760258,39.77584,39.790485,39.81366,39.853813,39.908386,39.966606,40.04017,40.120483,40.194775,40.268585,40.365974,40.4823,40.594795,40.709152,40.80227,40.81005,40.731895,40.55584,40.248085,39.88398,39.526543,39.15096,38.84629,38.64573,38.458603,38.32051,38.30142,38.38194,38.55427,38.863968,39.218388,39.50281,39.926075,40.467216,41.01042,41.5665,42.194695,42.74404,43.131058,43.478676,43.739555,43.88227,43.958817,44.01442,44.046467,44.071766,44.10465,44.163246,44.251118,44.34944,44.468956,44.622265,44.776512,44.903713,45.035263,45.15117,45.232643,45.288666,45.337273,45.374245,45.404236,45.440147,45.491333,45.551388,45.607407,45.66648,45.704277,45.691116,45.6294,45.483406,45.262314,45.036827,44.807453,44.59409,44.503654,44.546844,44.72191,45.073586,45.501183,45.8916,46.33249,46.71004,46.943657,47.091476,47.187065,47.230385,47.25574,47.29396,47.340633,47.381783,47.40972,47.426376,47.42776,47.422142,47.418663,47.425884,47.44727,47.474297,47.50521,47.537804,47.563133,47.579437,47.59446,47.611973,47.634453,47.664093,47.69411,47.700504,47.67742,47.63501,47.555504,47.499947,47.517086,47.722244,48.05903,48.36103,48.548958,48.643143,48.771133,48.86296,48.54734,47.27728,45.19834,43.146935,41.470085,40.846607,41.43284,42.511948,43.313477,43.871674,44.305977,44.6831,45.120575,45.662384,46.27775,47.119507,48.21713,49.17739,49.73359,50.119644,50.243805,50.198578,50.13829,50.0141,49.895992,49.846527,49.83124,49.838814,49.86065,49.886913,49.917305,49.939045,49.951027,49.96864,49.99089,50.012695,50.029762,50.046516,50.067436,50.09163,50.11563,50.14489,50.185814,50.23159,50.272617,50.323357,50.38595,50.45472,50.53443,50.63925,50.74932,50.840935,50.92238
33.70493,33.739983,33.782516,33.839348,33.8973,33.942947,33.9862,34.02482,34.053402,34.074234,34.099983,34.12696,34.148056,34.161575,34.170113,34.16659,34.15394,34.140892,34.124977,34.110622,34.100723,34.09307,34.089943,34.089302,34.08782,34.076614,34.052895,34.02487,33.996918,33.96879,33.961662,33.982063,34.040474,34.148964,34.279434,34.40367,34.531754,34.64357,34.72271,34.76837,34.806557,34.858734,34.932632,35.044594,35.159904,35.23126,35.26413,35.223175,34.988407,34.58469,34.08049,33.473473,33.007603,32.814964,32.832962,33.101368,33.52723,33.95506,34.366146,34.67102,34.858402,35.04361,35.26455,35.47267,35.626358,35.762238,35.890583,35.9863,36.045307,36.108196,36.177437,36.249516,36.321045,36.417492,36.528522,36.630096,36.7287,36.82247,36.886337,36.920273,36.946434,36.97546,37.025703,37.099808,37.241302,37.45611,37.69223,37.938057,38.227413,38.469475,38.611397,38.709236,38.74033,38.714203,38.672836,38.625732,38.588844,38.573532,38.571335,38.579407,38.60092,38.629864,38.66672,38.71589,38.767227,38.811245,38.86088,38.910744,38.95292,38.989635,39.031,39.06374,39.08062,39.090958,39.08936,39.07466,39.055008,39.031708,39.010525,39.0002,38.99996,39.012306,39.0393,39.071854,39.1073,39.148117,39.18438,39.210587,39.232285,39.24742,39.255867,39.261383,39.26891,39.279,39.290253,39.30198,39.317154,39.333035,39.347404,39.369904,39.41047,39.46761,39.529778,39.611065,39.70426,39.79325,39.881233,39.990177,40.112213,40.226456,40.34214,40.4399,40.461464,40.405396,40.26647,40.011696,39.70264,39.394974,39.06658,38.78882,38.60304,38.47885,38.380272,38.363884,38.441463,38.643593,38.911377,39.178623,39.452965,39.8488,40.3444,40.836426,41.335587,41.90483,42.4114,42.775513,43.10769,43.366158,43.517387,43.60492,43.67563,43.725246,43.765984,43.811356,43.88246,43.980103,44.084793,44.21054,44.371685,44.535343,44.67217,44.81669,44.947433,45.04203,45.10923,45.168556,45.212616,45.24548,45.28192,45.331047,45.387417,45.439884,45.496384,45.535103,45.527428,45.474007,45.34296,45.14138,44.93514,44.72844,44.54364,44.473663,44.521164,44.688118,45.014275,45.410137,45.77659,46.186455,46.53399,46.747063,46.881348,46.96891,47.010197,47.035637,47.073265,47.11808,47.155766,47.17945,47.190056,47.18342,47.16918,47.15697,47.152428,47.161026,47.17711,47.196915,47.21811,47.23429,47.244423,47.25422,47.26821,47.288948,47.317806,47.348152,47.35691,47.337936,47.30207,47.23339,47.19201,47.223694,47.452534,47.79157,48.07372,48.245937,48.37162,48.5018,48.521915,48.08516,46.753082,44.71558,42.75152,41.153114,40.617664,41.301357,42.49592,43.280167,43.80231,44.263355,44.648598,45.076645,45.58815,46.165546,46.958435,48.013153,48.956696,49.518806,49.911575,50.052143,50.02975,49.98928,49.888744,49.785675,49.738503,49.727776,49.742126,49.77128,49.803066,49.820065,49.832268,49.846886,49.863106,49.884323,49.907013,49.926914,49.947998,49.974678,50.004227,50.031933,50.063915,50.10559,50.150085,50.188942,50.2367,50.29613,50.36237,50.43963,50.543427,50.655796,50.75225,50.839622
33.437336,33.456215,33.486557,33.533035,33.58276,33.62117,33.656628,33.686745,33.707596,33.72218,33.74071,33.76053,33.77542,33.78417,33.77826,33.74684,33.700577,33.64982,33.594418,33.54921,33.51885,33.496143,33.483467,33.474964,33.46375,33.43463,33.383408,33.324623,33.262745,33.196285,33.149338,33.13052,33.139717,33.191727,33.275032,33.36807,33.483112,33.596817,33.678505,33.721687,33.752674,33.792862,33.85546,33.98054,34.168316,34.329,34.39936,34.393692,34.20807,33.878365,33.48242,33.00982,32.652634,32.51182,32.537125,32.74443,33.0707,33.413727,33.76071,34.005226,34.123405,34.22825,34.352745,34.479027,34.583477,34.681732,34.766373,34.81328,34.827488,34.83661,34.852104,34.881744,34.918365,34.983154,35.083145,35.1976,35.32376,35.479443,35.642067,35.787415,35.94291,36.102245,36.24025,36.35177,36.505177,36.688286,36.865192,37.04429,37.248398,37.416,37.514122,37.58146,37.60418,37.588783,37.56261,37.53215,37.508614,37.49993,37.50019,37.508667,37.52843,37.554817,37.589317,37.63734,37.689857,37.736588,37.791565,37.849747,37.90108,37.946297,37.998154,38.044075,38.07527,38.10105,38.119667,38.12706,38.127342,38.126175,38.127712,38.1364,38.1511,38.17885,38.21993,38.264175,38.3106,38.36502,38.41685,38.458298,38.49717,38.53224,38.559563,38.580605,38.603607,38.626396,38.646347,38.66471,38.686398,38.708534,38.728745,38.75739,38.804634,38.86782,38.934803,39.02288,39.125427,39.22458,39.321926,39.44422,39.57978,39.703606,39.825912,39.933895,39.977528,39.9549,39.86815,39.682846,39.44523,39.207447,38.94625,38.715927,38.55761,38.459805,38.40558,38.42566,38.506695,38.6758,38.90165,39.141502,39.398026,39.75653,40.19406,40.6213,41.04783,41.53769,41.980663,42.305115,42.605774,42.849014,43.001595,43.096504,43.180588,43.248005,43.304955,43.36322,43.4466,43.552338,43.66066,43.788994,43.95301,44.121098,44.263634,44.41806,44.56296,44.67279,44.755135,44.83194,44.891556,44.935127,44.979942,45.035614,45.096275,45.151775,45.21334,45.262447,45.270836,45.236588,45.135284,44.969852,44.79654,44.620934,44.470875,44.424675,44.477753,44.634247,44.92941,45.284943,45.61525,45.97928,46.28331,46.467094,46.58194,46.657684,46.6959,46.72178,46.75957,46.80426,46.84108,46.863373,46.87192,46.861847,46.843025,46.82553,46.812492,46.81041,46.816437,46.82578,46.83589,46.84314,46.847446,46.8523,46.862976,46.882,46.90985,46.940323,46.95176,46.937767,46.909725,46.852394,46.823364,46.86566,47.10745,47.437115,47.704086,47.89878,48.03282,48.14353,48.116405,47.572025,46.203537,44.25149,42.42338,40.87317,40.407795,41.171055,42.37709,43.171547,43.72538,44.23291,44.64273,45.076233,45.56653,46.107693,46.8406,47.829266,48.72008,49.240067,49.630146,49.79383,49.795563,49.777035,49.700733,49.617947,49.584312,49.587135,49.618244,49.655457,49.679047,49.694298,49.707626,49.723263,49.73922,49.76078,49.78601,49.810596,49.83812,49.873425,49.91149,49.945694,49.98344,50.02901,50.074905,50.113655,50.160435,50.218094,50.28241,50.357246,50.459763,50.57389,50.67456,50.768547
