3.7225964,3.7830837,3.86439,3.936294,4.032209,4.101349,4.1690817,4.215209,4.2477856,4.2761183,4.2890463,4.3008204,4.305343,4.3081746,4.310765,4.313032,4.3169317,4.321,4.325529,4.330933,4.335031,4.3402076,4.3438888,4.347525,4.3508987,4.3535233,4.3568993,4.3593903,4.362582,4.365694,4.36821,4.371267,4.3733916,4.3759713,4.3782063,4.38031,4.3827553,4.3844223,4.3868923,4.389246,4.39174,4.395,4.3977,4.401599,4.404964,4.4088817,4.4132833,4.4167852,4.421604,4.425347,4.4297037,4.433919,4.437414,4.4418817,4.445146,4.449253,4.452732,4.455615,4.4585323,4.4602838,4.462098,4.4629765,4.4635305,4.463276,4.4625683,4.461316,4.45997,4.4583235,4.45601,4.454011,4.450387,4.446682,4.4412613,4.4340086,4.427246,4.4166822,4.4076557,4.395611,4.38353,4.372613,4.358757,4.3484874,4.3348227,4.3232937,4.3128467,4.301115,4.2923613,4.281231,4.273038,4.2649565,4.2575226,4.252247,4.246827,4.2441964,4.24225,4.242859,4.244575,4.249333,4.2546906,4.2630725,4.2728205,4.2816186,4.293251,4.302063,4.314082,4.324813,4.3349185,4.3461523,4.3540344,4.36357,4.3701944,4.3765373,4.382001,4.3854723,4.389205,4.39136,4.393651,4.3955383,4.3969398,4.3985434,4.3995695,4.4007053,4.401554,4.4021835,4.402803,4.403165,4.4035707,4.4038115,4.4039755,4.404008,4.4039345,4.403796,4.4036574,4.403537,4.403455,4.4034414,4.40337,4.4032283,4.4029503,4.4023914,4.4018035,4.4007196,4.3996596,4.3981447,4.396116,4.3941245,4.3905344,4.387134,4.381787,4.375683,4.3694057,4.360668,4.3536034,4.3438973,4.33552,4.326747,4.3173227,4.310699,4.30167,4.294941,4.2885637,4.284482,4.282656,4.2826605,4.2845774,4.288536,4.294921,4.3011494,4.311097,4.3196907,4.331851,4.3449125,4.3577123,4.3766327,4.3926554,4.417332,4.4418364,4.468503,4.5010805,4.526188,4.5603485,4.5873938,4.6170197,4.6459475,4.6671925,4.691474,4.706581,4.7227526,4.734791,4.7431197,4.751429,4.756132,4.761307,4.76476,4.767496,4.7699394,4.771247,4.7723665,4.772606,4.7725873,4.771924,4.7711363,4.76955,4.7677965,4.765657,4.763098,4.7610445,4.7584143,4.7565103,4.754307,4.7522435,4.750598,4.7485456,4.747079,4.7452765,4.7437377,4.742468,4.741017,4.740015,4.7386293,4.7372904,4.735834,4.7338314,4.7321706,4.7297115,4.727543,4.7251644,4.7225194,4.7204704,4.717655,4.715423,4.7126784,4.7097692,4.7073274,4.704118,4.701748,4.6988554,4.696286,4.6940966,4.691545,4.6897945,4.687558,4.685707,4.6839657,4.681988,4.6805534,4.678648,4.6771164,4.675478,4.6736727,4.6722856,4.6703863,4.668892,4.66714,4.6653414,4.663887,4.66197,4.660537,4.658724,4.65699,4.6554976,4.6536355,4.652281,4.650593,4.6492033,4.6479254,4.6465883,4.6457195,4.644617,4.643784,4.642953,4.642071,4.6413975,4.6404986,4.639792,4.638955,4.638049,4.637304,4.636203,4.6352873,4.634204,4.6331496,4.6322246,4.6309557,4.629949,4.628495,4.6270676,4.6257157,4.624074,4.622858,4.621347,4.620186,4.6189537,4.617799,4.617112,4.616309,4.61581,4.6153564,4.615053,4.6148825,4.6146803,4.6145277,4.6143084,4.6139765,4.613613,4.612909,4.612221,4.6111994,4.610074
3.7106209,3.767815,3.84654,3.9168649,4.0130734,4.084238,4.155068,4.2044654,4.2391806,4.2698307,4.2842383,4.297453,4.302718,4.306036,4.3088727,4.3111677,4.315009,4.31894,4.3233356,4.3285823,4.332567,4.3376007,4.341174,4.3446865,4.3479185,4.350421,4.3536186,4.355962,4.358967,4.3619003,4.364277,4.3671803,4.3692107,4.371684,4.3738403,4.3758783,4.3782496,4.3798647,4.3822613,4.384551,4.386979,4.3901725,4.392829,4.3966866,4.4000387,4.40396,4.408392,4.41193,4.4167976,4.420577,4.4249725,4.4292164,4.4327273,4.4372163,4.4405003,4.444661,4.4482436,4.451253,4.4544024,4.456371,4.4585085,4.4596925,4.4605436,4.4606037,4.4601135,4.4590797,4.457849,4.456299,4.4541035,4.4522166,4.4488606,4.445488,4.440638,4.434231,4.4282846,4.418969,4.4109817,4.4003234,4.3894367,4.379363,4.3663154,4.3565083,4.343585,4.3324656,4.321659,4.309767,4.301508,4.2904186,4.281719,4.272726,4.2642965,4.2586293,4.252175,4.248314,4.24477,4.243455,4.2435007,4.2458725,4.24934,4.255266,4.2633696,4.271755,4.2834034,4.2923536,4.3037033,4.3136334,4.32365,4.3351912,4.3434153,4.3535275,4.360735,4.3677254,4.3739214,4.3779435,4.3823705,4.3850136,4.3878193,4.390123,4.391803,4.393681,4.394847,4.3961134,4.397026,4.397695,4.398342,4.398714,4.3991404,4.3994074,4.399603,4.399685,4.399652,4.399574,4.3994837,4.399405,4.3993425,4.39933,4.3992066,4.3989725,4.3985453,4.3977346,4.3968973,4.395379,4.3939133,4.391844,4.3892107,4.386676,4.38242,4.378563,4.372697,4.3662653,4.35977,4.3509846,4.3440075,4.334593,4.3267126,4.3189154,4.310028,4.302869,4.2944975,4.289311,4.284637,4.2825356,4.282304,4.2843924,4.2878356,4.2935905,4.3015327,4.3089685,4.3200827,4.3292837,4.3426743,4.357106,4.3710575,4.3917303,4.4094048,4.4349375,4.4588776,4.484174,4.5149817,4.5392275,4.571312,4.5960083,4.6229258,4.6488905,4.667837,4.689463,4.702936,4.7175016,4.7286005,4.7364664,4.744546,4.74928,4.7545824,4.7582173,4.7610703,4.763545,4.7647967,4.7657623,4.7657804,4.7654924,4.764495,4.763461,4.761589,4.759656,4.757368,4.754732,4.7526593,4.7500405,4.748172,4.7460194,4.744029,4.7424507,4.74051,4.7391443,4.737497,4.73615,4.73508,4.733921,4.7331586,4.732107,4.731071,4.729907,4.728226,4.7267933,4.724626,4.72268,4.720542,4.718151,4.716298,4.7137375,4.711693,4.709152,4.706415,4.704092,4.701005,4.6987023,4.6958814,4.6933594,4.6912084,4.6886997,4.6869783,4.684778,4.68295,4.681225,4.679249,4.677806,4.675887,4.6743407,4.6726856,4.670864,4.669467,4.667555,4.666053,4.6642885,4.6624784,4.6610165,4.6590934,4.657659,4.6558547,4.6541452,4.6526804,4.6508665,4.649557,4.6479335,4.6466074,4.6453934,4.644132,4.643319,4.6422877,4.641509,4.640735,4.6399107,4.6392794,4.6384263,4.637748,4.63694,4.636053,4.635315,4.6342125,4.6332865,4.6321783,4.63109,4.6301355,4.6288276,4.6277933,4.6263204,4.6248927,4.623551,4.6219378,4.6207514,4.6192856,4.61817,4.616987,4.615896,4.6152616,4.61454,4.6141176,4.6137624,4.6135826,4.6135187,4.613468,4.613434,4.6133595,4.6131625,4.6129093,4.612339,4.6117435,4.6108265,4.6097813
3.6957622,3.7483974,3.8231995,3.8911061,3.9867916,4.059724,4.1347733,4.189069,4.2266107,4.260333,4.27678,4.2920027,4.2983437,4.302389,4.305628,4.3079977,4.311805,4.3155746,4.319805,4.3248415,4.3286686,4.333494,4.3369064,4.340233,4.343253,4.3455772,4.3485193,4.3506575,4.353409,4.3561077,4.358306,4.361018,4.362935,4.365282,4.3673453,4.369304,4.371581,4.3731275,4.3754177,4.3776073,4.3799286,4.3830113,4.3855934,4.3893747,4.392694,4.3966045,4.40106,4.404633,4.4095454,4.413354,4.417776,4.4220257,4.4255257,4.4299974,4.433276,4.437463,4.4411364,4.444271,4.447674,4.449891,4.452404,4.4539585,4.455186,4.455677,4.455498,4.454826,4.4538364,4.4525323,4.4506197,4.4489703,4.446065,4.443178,4.4391003,4.433774,4.428853,4.4211054,4.4144287,4.4054766,4.3961363,4.387336,4.375577,4.3665175,4.3543987,4.3437138,4.3331914,4.3213553,4.312989,4.3018436,4.2929897,4.2833757,4.2738643,4.2672644,4.259454,4.254375,4.2489443,4.245187,4.2430563,4.242327,4.24335,4.2462444,4.2518206,4.2582464,4.2684813,4.2771297,4.288542,4.2988305,4.3088217,4.3204594,4.3289375,4.339633,4.347536,4.355325,4.362474,4.3672333,4.3726034,4.3759193,4.37943,4.3823004,4.3843594,4.3865957,4.38793,4.389344,4.390312,4.3910103,4.3916597,4.3920164,4.3924384,4.3927174,4.392935,4.3930635,4.393078,4.393072,4.3930464,4.393029,4.3930044,4.3930054,4.3928337,4.392493,4.3918905,4.3907623,4.389602,4.387514,4.3855124,4.3827114,4.379289,4.37605,4.370965,4.3665657,4.360113,4.3533754,4.3467364,4.338135,4.33152,4.322563,4.3150644,4.307517,4.299299,4.2929783,4.286477,4.2833424,4.2810407,4.2816033,4.2835226,4.288413,4.293866,4.301691,4.3112526,4.319906,4.3325458,4.342897,4.3577833,4.373806,4.3898454,4.4122066,4.4302335,4.4559174,4.4794407,4.5041256,4.533027,4.555003,4.58331,4.604512,4.6277485,4.650015,4.6661434,4.684587,4.696148,4.708829,4.718816,4.726116,4.7338786,4.7386007,4.7439747,4.7477446,4.750679,4.7531304,4.7542753,4.7550116,4.754732,4.754094,4.7526703,4.7513247,4.7491016,4.7469654,4.7445154,4.7418256,4.7397685,4.737219,4.7354374,4.7333994,4.731551,4.730103,4.7283525,4.7271433,4.725724,4.724645,4.723845,4.72309,4.722663,4.722091,4.7214966,4.7207613,4.719562,4.718472,4.716748,4.715144,4.7133775,4.711381,4.7098303,4.7076626,4.705904,4.703681,4.7012157,4.699086,4.6962066,4.694029,4.691346,4.6889296,4.686865,4.68445,4.682792,4.680667,4.6788836,4.677183,4.675206,4.673748,4.6717916,4.6702023,4.6685014,4.66663,4.6651945,4.663235,4.661699,4.6598926,4.658042,4.6565466,4.6545906,4.653142,4.6513376,4.6496563,4.6482286,4.646488,4.6452484,4.6437273,4.642506,4.6413927,4.6402493,4.6395216,4.6385956,4.637895,4.6371994,4.6364536,4.6358767,4.635088,4.63445,4.633686,4.6328316,4.6321144,4.6310225,4.630092,4.6289644,4.627842,4.626856,4.625508,4.6244464,4.6229544,4.6215305,4.620205,4.6186295,4.6174793,4.616066,4.615,4.6138706,4.6128464,4.6122656,4.6116323,4.6112967,4.611063,4.6110425,4.6111174,4.611274,4.611409,4.61154,4.61154,4.611451,4.6110783,4.6106195,4.6098547,4.608922
3.6852717,3.7340596,3.805076,3.8704777,3.9645486,4.0378075,4.116065,4.1746435,4.21441,4.250656,4.268913,4.28598,4.2934103,4.298238,4.3019867,4.304514,4.3083897,4.3120704,4.3161974,4.321072,4.324767,4.32942,4.332697,4.335868,4.3387127,4.3408914,4.343629,4.345606,4.348159,4.3506794,4.352742,4.3553123,4.3571444,4.3593955,4.3613853,4.363277,4.3654647,4.3669395,4.369117,4.3711934,4.3733945,4.376343,4.378831,4.3825035,4.3857574,4.389617,4.3940477,4.3976116,4.4025116,4.4063034,4.410696,4.4148965,4.4183407,4.4227343,4.4259562,4.4300976,4.4337797,4.4369535,4.440487,4.4428506,4.4456005,4.4474087,4.4489126,4.449754,4.449847,4.449525,4.4488053,4.4477954,4.4462137,4.444824,4.4423437,4.439867,4.4363976,4.43188,4.4277096,4.421127,4.4154387,4.4077787,4.3996973,4.3920593,4.381589,4.3733387,4.361996,4.351794,4.341977,4.330475,4.321835,4.3107357,4.3020887,4.2924714,4.2824717,4.2751102,4.2664146,4.260684,4.254099,4.248684,4.2449837,4.241921,4.24104,4.2415767,4.2447996,4.2487717,4.256774,4.264547,4.2759132,4.28675,4.2965584,4.3079414,4.316372,4.3271303,4.335232,4.343342,4.3509808,4.3561583,4.3621025,4.365856,4.3698277,4.3730745,4.3753858,4.3778515,4.379282,4.380768,4.3817387,4.3824234,4.383029,4.383338,4.383714,4.383972,4.384179,4.384329,4.3843784,4.3844404,4.384487,4.384547,4.384596,4.3846445,4.38449,4.3841133,4.3834333,4.3821316,4.380783,4.3783526,4.3760266,4.3727913,4.368928,4.3653073,4.359852,4.355274,4.3487263,4.342112,4.335698,4.3276176,4.321539,4.313245,4.306226,4.298772,4.2915106,4.2868967,4.282669,4.28132,4.281081,4.2838016,4.287422,4.294408,4.30126,4.3103876,4.320877,4.3302364,4.3439827,4.355339,4.371331,4.3883634,4.405828,4.428768,4.446117,4.4710937,4.49395,4.518117,4.545106,4.5644183,4.5889583,4.6071267,4.62735,4.6468415,4.660926,4.6771564,4.6874638,4.698907,4.7081814,4.7151184,4.7226677,4.7273645,4.7327394,4.7365437,4.73949,4.7418814,4.742924,4.743476,4.742983,4.742104,4.7403994,4.7388554,4.736432,4.7342067,4.7317095,4.729065,4.7270913,4.7246847,4.7230334,4.7211423,4.7194414,4.7181096,4.716529,4.715465,4.7142615,4.7134447,4.712921,4.712571,4.712476,4.7123594,4.7121754,4.7118425,4.7110996,4.7103386,4.709034,4.7077503,4.706328,4.704692,4.703416,4.701604,4.700107,4.6981797,4.6959796,4.694051,4.6914024,4.689378,4.6868753,4.6846085,4.682667,4.68039,4.678823,4.6768017,4.675082,4.6734204,4.6714525,4.669983,4.667987,4.6663437,4.664585,4.6626406,4.6611457,4.659108,4.6575108,4.6556334,4.6537113,4.6521587,4.65014,4.648656,4.646825,4.6451497,4.643742,4.6420546,4.6408706,4.6394377,4.6383085,4.6372824,4.636241,4.635584,4.634746,4.6341085,4.6334743,4.6327877,4.632253,4.6315174,4.6309156,4.630192,4.629372,4.6286783,4.6276064,4.6266813,4.6255507,4.6244144,4.623414,4.6220474,4.620974,4.6194763,4.618062,4.6167526,4.615207,4.6140814,4.6126976,4.611657,4.6105537,4.60956,4.609,4.608407,4.60812,4.6079597,4.6080503,4.608227,4.6085443,4.6088214,4.609126,4.6092987,4.609358,4.6091633,4.6088257,4.608197,4.6073637
3.6755908,3.7205858,3.7875602,3.8500223,3.9418347,4.014941,4.096012,4.15865,4.200433,4.2391977,4.259453,4.2786245,4.28741,4.2932625,4.2977715,4.300605,4.3047,4.308377,4.3124704,4.317237,4.3208303,4.3253517,4.3285255,4.331579,4.3342896,4.3363523,4.3389244,4.340768,4.343151,4.3455095,4.3474503,4.349885,4.351634,4.3537884,4.3556986,4.3575163,4.359602,4.360993,4.3630424,4.364993,4.367059,4.369851,4.372224,4.3757553,4.3789124,4.3826804,4.387035,4.3905487,4.3953776,4.399111,4.4034243,4.407531,4.410883,4.4151516,4.4182816,4.422329,4.42597,4.429134,4.4327364,4.435202,4.438133,4.440153,4.4418955,4.4430547,4.443405,4.4434156,4.4429665,4.4422836,4.441077,4.4399767,4.437916,4.4358034,4.4328594,4.4290214,4.4254704,4.41988,4.415061,4.408597,4.401744,4.3952208,4.3861523,4.378932,4.3688,4.3594112,4.3501296,4.3391566,4.3309946,4.3201394,4.3114433,4.3020134,4.29198,4.284321,4.2748823,4.2683253,4.260824,4.254137,4.2490687,4.2439775,4.241457,4.2398376,4.2409177,4.242957,4.248654,4.2548456,4.264472,4.274372,4.2838826,4.2952633,4.303724,4.314085,4.321641,4.329416,4.3368883,4.3420277,4.3480296,4.3519106,4.3560457,4.3594723,4.361919,4.364514,4.366002,4.367526,4.3684845,4.369143,4.369686,4.369935,4.370244,4.370459,4.3706417,4.370809,4.3709016,4.3710585,4.371214,4.3713913,4.371567,4.371706,4.3716345,4.3712835,4.3706045,4.3692484,4.367831,4.3652706,4.362829,4.359494,4.3556333,4.3520722,4.3468714,4.342607,4.336642,4.3306894,4.324895,4.317423,4.3116336,4.3041515,4.298239,4.2921753,4.286845,4.2838435,4.281778,4.282124,4.283806,4.2885256,4.2937994,4.3025093,4.310296,4.3205004,4.331973,4.3422303,4.357141,4.369361,4.386877,4.4048567,4.421818,4.4444547,4.4623528,4.4869857,4.5084248,4.530341,4.553932,4.570454,4.591328,4.606722,4.6240196,4.6408224,4.6529927,4.667216,4.6764364,4.6868157,4.695508,4.7021694,4.7095795,4.714282,4.719681,4.7235246,4.726486,4.728835,4.729802,4.730222,4.729582,4.7285414,4.7266684,4.7250195,4.722522,4.7203093,4.717873,4.715377,4.7135534,4.7113857,4.709931,4.708223,4.706632,4.705327,4.7038317,4.7028875,4.701904,4.701421,4.701296,4.7014914,4.7017984,4.702154,4.70235,4.702422,4.702139,4.701705,4.7008114,4.699833,4.6987276,4.6974173,4.6963882,4.694908,4.6936636,4.692027,4.6901097,4.688406,4.6860404,4.684214,4.681955,4.6798983,4.678132,4.676054,4.6746197,4.6727486,4.6711226,4.669528,4.667594,4.666128,4.6641035,4.6624064,4.660582,4.6585464,4.656975,4.6548305,4.6531477,4.651166,4.6491404,4.6475077,4.645397,4.6438565,4.6419716,4.640275,4.638867,4.6372075,4.636059,4.6346903,4.6336336,4.6326785,4.631719,4.6311197,4.630351,4.6297636,4.6291814,4.6285458,4.6280484,4.6273584,4.6267896,4.6261024,4.6253147,4.6246414,4.623588,4.6226707,4.6215425,4.6204023,4.6193976,4.6180296,4.6169577,4.6154704,4.6140757,4.6127906,4.6112766,4.610176,4.608817,4.60779,4.6067023,4.6057234,4.6051717,4.604599,4.604341,4.604231,4.6044054,4.604664,4.6051207,4.6055236,4.6059885,4.6063247,4.6065216,4.6064935,4.606269,4.6057715,4.6050367
3.6674023,3.7083287,3.7704883,3.8291788,3.9173985,3.9892726,4.072278,4.138788,4.1829295,4.224713,4.247249,4.268976,4.2795568,4.2868166,4.292453,4.2957935,4.300315,4.3040895,4.30824,4.3129625,4.3164916,4.3209305,4.3240414,4.3270273,4.3296556,4.331641,4.3340993,4.3358474,4.338104,4.340336,4.3421755,4.344493,4.346162,4.3482165,4.350028,4.351745,4.3536844,4.3549504,4.3568068,4.3585663,4.360429,4.362978,4.3651676,4.3684616,4.371443,4.3750267,4.379203,4.3825874,4.3872375,4.3908305,4.394973,4.398897,4.402085,4.4061384,4.4091105,4.4129744,4.416485,4.4195547,4.4231167,4.425602,4.4286046,4.43075,4.4326487,4.43405,4.4346094,4.434921,4.4347105,4.434229,4.4332185,4.4322643,4.430505,4.428728,4.4262857,4.4231367,4.4202275,4.415678,4.411772,4.4064856,4.4008503,4.395487,4.3880196,4.3820715,4.3735924,4.365502,4.3572426,4.3473377,4.3400106,4.3298535,4.3214555,4.3125734,4.303012,4.2955885,4.2860374,4.279084,4.271286,4.263979,4.25809,4.2513995,4.24732,4.243539,4.242275,4.242214,4.2449684,4.248791,4.2553215,4.2628765,4.2708406,4.280851,4.2883725,4.2974596,4.304057,4.310994,4.317817,4.322585,4.3282223,4.3319206,4.3358583,4.3391294,4.3414607,4.343917,4.3453074,4.3467007,4.3475246,4.3480587,4.3484344,4.3485537,4.348715,4.348838,4.348959,4.3491364,4.349288,4.3495884,4.349925,4.3503113,4.350749,4.351095,4.3512897,4.351137,4.350681,4.3495646,4.3483467,4.3460975,4.343928,4.340928,4.3374515,4.3342323,4.329714,4.3261433,4.3213224,4.316682,4.3122015,4.3064528,4.301966,4.296566,4.2927685,4.2892027,4.2867355,4.2857523,4.2862883,4.2885675,4.2924275,4.299087,4.3056355,4.315633,4.3241167,4.335205,4.347492,4.3584867,4.374091,4.386614,4.4045095,4.422382,4.438547,4.4601593,4.477577,4.5003834,4.5191154,4.5375576,4.5569324,4.570507,4.5878124,4.6007185,4.6152697,4.629609,4.6401157,4.652668,4.661044,4.6705914,4.678837,4.6852846,4.6925774,4.69727,4.7026625,4.70652,4.7094927,4.711832,4.7127714,4.713148,4.712468,4.7113843,4.709495,4.707857,4.705445,4.703367,4.7011204,4.6988945,4.697316,4.695459,4.6942134,4.6926956,4.691244,4.6900377,4.6887197,4.687955,4.6872663,4.687187,4.687516,4.6883793,4.6892257,4.690267,4.6910253,4.6916237,4.69191,4.6918807,4.6914797,4.6908464,4.690086,4.689109,4.688325,4.687167,4.686167,4.684823,4.6832123,4.6817684,4.6797523,4.678194,4.676278,4.674539,4.6730433,4.671277,4.6700544,4.6684275,4.6669664,4.665499,4.6636515,4.662218,4.6601887,4.6584406,4.6565447,4.6543946,4.652719,4.6504235,4.648615,4.646477,4.6442895,4.6425314,4.6402645,4.6386156,4.6366153,4.634843,4.633388,4.6317043,4.630556,4.629209,4.6281924,4.6272798,4.6263704,4.6258044,4.625075,4.6245155,4.6239624,4.6233606,4.6228914,4.622242,4.6217065,4.621061,4.6203127,4.619671,4.6186533,4.6177597,4.6166573,4.6155405,4.6145544,4.6132126,4.612162,4.6107044,4.609338,4.608081,4.6065955,4.605513,4.6041665,4.6031394,4.602051,4.6010623,4.6004934,4.599905,4.599642,4.599538,4.5997496,4.6000543,4.600611,4.601117,4.601721,4.602209,4.602543,4.6026826,4.602577,4.6022215,4.601597
3.6621156,3.6997783,3.7579725,3.813541,3.8985562,3.9690614,4.053097,4.12245,4.168703,4.2130847,4.237397,4.2611847,4.2732472,4.281673,4.288254,4.2920265,4.296918,4.3007956,4.3050156,4.3097343,4.313237,4.317648,4.320742,4.323715,4.326325,4.328289,4.3307104,4.332424,4.3346295,4.3368034,4.3385935,4.340845,4.342464,4.3444433,4.3461676,4.3477926,4.349587,4.350728,4.3523884,4.3539543,4.355612,4.357916,4.3599205,4.3629746,4.365774,4.36917,4.373164,4.3764124,4.3808804,4.3843336,4.3883095,4.392064,4.395102,4.398963,4.401798,4.4054966,4.408882,4.411854,4.415346,4.4178123,4.4208193,4.423009,4.4249735,4.426488,4.427149,4.427629,4.4275208,4.4269447,4.4257517,4.4246664,4.4229536,4.4214087,4.419364,4.4168434,4.4145536,4.410969,4.4078703,4.4034815,4.398707,4.394221,4.387989,4.383033,4.3759003,4.369005,4.361974,4.3531666,4.3463326,4.3369436,4.3291783,4.3208194,4.311764,4.3047814,4.2956676,4.2889194,4.2813745,4.2740355,4.267961,4.2602367,4.254801,4.2491693,4.2458353,4.243863,4.244015,4.2458124,4.249687,4.2549133,4.260589,4.2681913,4.2741284,4.2819643,4.2882175,4.294756,4.3013372,4.305996,4.311491,4.3150644,4.318781,4.321759,4.3238316,4.325966,4.327135,4.3282614,4.328853,4.329198,4.3293533,4.329321,4.3293138,4.329336,4.3293877,4.32956,4.3297534,4.33017,4.330664,4.3312387,4.3319364,4.3325024,4.3330154,4.333137,4.3330226,4.332317,4.331452,4.329754,4.328038,4.325441,4.322192,4.3190393,4.3147717,4.311555,4.307407,4.3037825,4.300496,4.2968984,4.294466,4.2916985,4.29005,4.288682,4.2885933,4.289336,4.292185,4.2962365,4.30214,4.3103323,4.3174324,4.328153,4.3372345,4.349024,4.3618393,4.3732004,4.388874,4.401141,4.4178104,4.434575,4.451334,4.47243,4.4879827,4.507963,4.52394,4.5396304,4.556039,4.567536,4.5824203,4.5937085,4.6064134,4.6191125,4.6285543,4.6400614,4.6479273,4.656963,4.664932,4.671241,4.678456,4.6831408,4.6885366,4.6924267,4.695445,4.6978364,4.6988034,4.699217,4.6985664,4.697507,4.6956596,4.694063,4.6917496,4.689794,4.6877036,4.685691,4.684314,4.682636,4.6814547,4.679983,4.6786194,4.677574,4.676486,4.6758966,4.6754627,4.6756825,4.676299,4.6776752,4.6790137,4.6807575,4.6821194,4.683196,4.6839705,4.6842966,4.684329,4.683999,4.6835423,4.682854,4.682282,4.6813903,4.6805825,4.6794677,4.678091,4.676845,4.675098,4.6737485,4.6721106,4.670638,4.6693735,4.667878,4.6668425,4.6654377,4.664131,4.662788,4.661031,4.6596365,4.65762,4.655841,4.653897,4.651657,4.6498985,4.6474733,4.6455526,4.643278,4.6409435,4.6390657,4.6366434,4.6348834,4.632759,4.6308966,4.6293793,4.627644,4.6264787,4.625126,4.6241236,4.62323,4.622346,4.621795,4.6210833,4.620536,4.6199956,4.6194143,4.618964,4.618348,4.6178446,4.617236,4.61653,4.6159215,4.6149473,4.614083,4.6130137,4.611924,4.61096,4.609643,4.6086073,4.607169,4.605815,4.604569,4.6030912,4.602012,4.600663,4.5996294,4.5985355,4.597531,4.596942,4.5963264,4.596047,4.5959306,4.596153,4.5964785,4.5970955,4.5976734,4.5983753,4.598979,4.5994186,4.5996995,4.599697,4.5994616,4.5989323
3.6566644,3.69062,3.743786,3.7949643,3.8751323,3.9431424,4.026734,4.098451,4.147795,4.19593,4.222468,4.2491016,4.263406,4.273649,4.281797,4.28634,4.29194,4.2960777,4.300488,4.305258,4.3087454,4.313126,4.3161864,4.3191166,4.3216553,4.3235455,4.3258514,4.327466,4.3295417,4.3315854,4.333271,4.3354006,4.336937,4.338809,4.340424,4.341939,4.343566,4.3445644,4.3460054,4.347352,4.348773,4.3507853,4.352563,4.3553085,4.357861,4.3609834,4.364684,4.3677025,4.371855,4.375058,4.3787365,4.382187,4.384964,4.388487,4.3910713,4.394457,4.3975716,4.4003143,4.4035807,4.405918,4.408802,4.410961,4.4129467,4.414588,4.415395,4.4161215,4.4162617,4.4160085,4.4151287,4.4142,4.412755,4.411482,4.409831,4.4078436,4.4060307,4.4033403,4.4011064,4.397836,4.39423,4.3908367,4.3861666,4.382489,4.377144,4.3718996,4.366556,4.359518,4.3537946,4.3457828,4.3389654,4.331436,4.323154,4.3168306,4.3083286,4.3018064,4.2943335,4.286831,4.280627,4.272419,4.266345,4.2594085,4.2542434,4.2505193,4.247924,4.247351,4.24795,4.2500954,4.2527328,4.256793,4.2601657,4.2649937,4.269146,4.2734365,4.277908,4.2811933,4.2851496,4.287806,4.290638,4.2930384,4.2947874,4.296633,4.297664,4.298647,4.299115,4.299324,4.299268,4.299055,4.2988453,4.29875,4.298735,4.2989655,4.299285,4.299982,4.300821,4.3018017,4.303,4.303955,4.304949,4.3054075,4.305642,4.305311,4.3047657,4.3036175,4.3024387,4.3006954,4.298624,4.296648,4.294298,4.2927694,4.291113,4.290123,4.2894297,4.2893186,4.289671,4.2904825,4.29171,4.2932987,4.2963004,4.2992563,4.3045435,4.31005,4.3174543,4.326809,4.334619,4.34618,4.355815,4.3681083,4.381143,4.3926253,4.407975,4.4196534,4.4353905,4.450943,4.466601,4.4851418,4.4978695,4.5137672,4.5260663,4.53819,4.5510254,4.5601854,4.572398,4.5819197,4.5924754,4.603224,4.6114225,4.621715,4.6289864,4.637391,4.644936,4.650957,4.6578693,4.662362,4.667515,4.6712227,4.6741114,4.6764135,4.6773543,4.6777945,4.6772423,4.676317,4.674699,4.673306,4.6713324,4.6697083,4.668007,4.6664495,4.6654425,4.6642547,4.663446,4.66243,4.6615434,4.6609154,4.6603518,4.6601334,4.660177,4.6608524,4.6618657,4.6638246,4.6656637,4.6681604,4.670228,4.6719675,4.6734333,4.674222,4.6747637,4.674727,4.6745133,4.673986,4.6735044,4.6727204,4.671999,4.67103,4.6698895,4.6688924,4.6675525,4.666561,4.665412,4.6644225,4.6635675,4.6625514,4.6618433,4.660824,4.659784,4.658657,4.657068,4.655754,4.6537766,4.651963,4.6499577,4.6475964,4.6457186,4.643116,4.6410413,4.6385818,4.6360507,4.634013,4.6313877,4.6294823,4.6271915,4.6251955,4.623574,4.6217337,4.6205063,4.6190844,4.6180363,4.6171036,4.6161737,4.615588,4.614829,4.614245,4.6136703,4.6130657,4.612606,4.6119914,4.611501,4.610914,4.610244,4.60967,4.6087537,4.6079407,4.606943,4.6059337,4.605042,4.6038237,4.602865,4.6015234,4.600248,4.5990677,4.5976496,4.5966024,4.595274,4.5942335,4.593128,4.592082,4.591443,4.5907536,4.590411,4.590221,4.5903788,4.590666,4.591264,4.591854,4.5925856,4.5932508,4.5937586,4.594142,4.594222,4.5940924,4.5936584
3.6537876,3.6855254,3.7352228,3.7830381,3.8592625,3.9249692,4.006875,4.0792203,4.13097,4.182046,4.210141,4.2389402,4.2550716,4.266839,4.276357,4.281606,4.2878785,4.2922964,4.2969127,4.301756,4.3052435,4.309603,4.3126235,4.3154955,4.317939,4.319733,4.3218956,4.323392,4.3253174,4.3272185,4.3287954,4.3308034,4.332265,4.33405,4.335591,4.3370333,4.3385596,4.3394747,4.34079,4.3420095,4.3432913,4.3451214,4.346753,4.349288,4.351659,4.3545685,4.358023,4.360841,4.364707,4.3676844,4.3710876,4.374261,4.3768034,4.380018,4.382374,4.385461,4.3883057,4.39081,4.393815,4.3959846,4.3986897,4.4007654,4.4027224,4.404444,4.4053707,4.4062996,4.4067097,4.4070234,4.4067926,4.406247,4.405182,4.4040976,4.4026566,4.40085,4.399143,4.396815,4.395038,4.3925147,4.3897705,4.3871193,4.383518,4.3807335,4.3766623,4.372634,4.368514,4.3629565,4.3583746,4.3516126,4.3455524,4.3387356,4.3310866,4.325259,4.3171825,4.31076,4.30313,4.2953997,4.289147,4.281193,4.275485,4.2684736,4.2627134,4.2583275,4.2543297,4.2523484,4.250867,4.250892,4.2514315,4.252779,4.2540255,4.255718,4.257128,4.258523,4.2601337,4.2614903,4.2632957,4.264701,4.2664247,4.2682385,4.2697473,4.2714615,4.2724934,4.273512,4.274017,4.274208,4.2740536,4.2737246,4.2733793,4.2732077,4.273163,4.2734795,4.273939,4.27493,4.2761145,4.2775025,4.2791767,4.2804866,4.281875,4.2825646,4.2829924,4.2828317,4.2824306,4.281584,4.280778,4.279931,4.2794,4.279111,4.2793484,4.27995,4.281274,4.2831078,4.284998,4.2877874,4.2901077,4.2934675,4.296706,4.300352,4.30542,4.3098345,4.3163705,4.3222713,4.329878,4.3394585,4.3477936,4.359888,4.3697443,4.3820953,4.394943,4.406234,4.4210553,4.4321527,4.4477444,4.462591,4.47598,4.4913063,4.5018587,4.514732,4.524496,4.534195,4.5447507,4.552522,4.5631533,4.571616,4.5808134,4.5902953,4.597696,4.6071978,4.614065,4.622016,4.629187,4.634906,4.6414356,4.6456466,4.6504297,4.65383,4.656476,4.6585846,4.659451,4.6598845,4.65944,4.65868,4.6573515,4.6562147,4.65464,4.6533837,4.6520996,4.6510057,4.650346,4.649706,4.6493835,4.6489887,4.6487103,4.648527,4.6484976,4.648647,4.6491446,4.6502066,4.6515403,4.6538773,4.655987,4.658918,4.661439,4.6636934,4.6657085,4.6668363,4.6677055,4.6678023,4.667646,4.6670647,4.666504,4.6656084,4.664816,4.6638293,4.6628013,4.661972,4.660966,4.6602955,4.6595926,4.659049,4.658568,4.657988,4.65758,4.6569057,4.6561036,4.6551743,4.6537437,4.6525106,4.6505837,4.648753,4.646709,4.644261,4.642297,4.6395655,4.6373825,4.6347895,4.63212,4.6299734,4.6272078,4.6252027,4.622794,4.620695,4.6189866,4.6170425,4.615742,4.6142263,4.613094,4.6120834,4.611061,4.610407,4.6095586,4.6089087,4.6082706,4.6076097,4.6071167,4.606469,4.6059656,4.6053705,4.60471,4.6041527,4.6032763,4.6025085,4.601582,4.6006613,4.5998535,4.598756,4.5978956,4.596678,4.5955033,4.59441,4.593074,4.5920715,4.590776,4.589734,4.5886173,4.5875254,4.586833,4.5860605,4.585641,4.585351,4.585402,4.5856094,4.586117,4.58665,4.587325,4.5879602,4.588456,4.5888453,4.5889425,4.588845,4.5884533
3.6505728,3.6795197,3.724741,3.7682776,3.839408,3.9020455,3.981427,4.0541587,4.108694,4.163555,4.1939526,4.2256556,4.244122,4.2578716,4.2691584,4.2753034,4.282428,4.287196,4.2920685,4.296997,4.300479,4.304796,4.307749,4.310526,4.312815,4.3144565,4.3163958,4.317711,4.319415,4.3211126,4.3225327,4.324377,4.3257446,4.3274226,4.3288794,4.330246,4.3316736,4.332509,4.333701,4.334798,4.3359423,4.337586,4.339061,4.3413606,4.343517,4.3461633,4.3493004,4.3518543,4.355346,4.3580217,4.361064,4.3638754,4.3661156,4.36894,4.371005,4.373719,4.3762264,4.3784285,4.3811064,4.3830686,4.3855534,4.3875284,4.389449,4.391266,4.3923373,4.3935328,4.3942423,4.3949604,4.3952804,4.3952274,4.3947687,4.394103,4.3931475,4.391822,4.390519,4.388736,4.3873925,4.3855934,4.3837447,4.3819885,4.379674,4.3779263,4.375329,4.372697,4.369993,4.366128,4.362815,4.357641,4.3527155,4.347004,4.340215,4.3348327,4.3272476,4.3211,4.3136406,4.3058805,4.299527,4.291397,4.2855377,4.2784095,4.272195,4.2669244,4.261403,4.2581196,4.2547593,4.2526364,4.250508,4.2482963,4.24685,4.2448435,4.2431846,4.241352,4.239601,4.2384896,4.2373633,4.236889,4.2368274,4.237423,4.238201,4.239225,4.239908,4.2405806,4.2408495,4.2408266,4.2403817,4.239818,4.239197,4.23885,4.238695,4.239049,4.2396364,4.2409406,4.242527,4.244401,4.2467012,4.2485094,4.250571,4.2517977,4.252853,4.2534685,4.2537613,4.2540784,4.2543783,4.2553144,4.2570934,4.2590485,4.2624927,4.2656374,4.270356,4.275326,4.2801194,4.2863564,4.2911863,4.297715,4.303184,4.308493,4.314956,4.320368,4.328211,4.335057,4.3435326,4.3538227,4.3626847,4.375342,4.385502,4.3981314,4.4108777,4.4217796,4.4358225,4.4461875,4.460374,4.473172,4.484044,4.4959526,4.5039515,4.513871,4.521494,4.529055,4.537342,4.543481,4.551903,4.558677,4.5661626,4.5741863,4.5806437,4.5891247,4.595386,4.6026664,4.6092863,4.6145678,4.620572,4.6244183,4.62873,4.6317453,4.634082,4.6359386,4.6367035,4.6371193,4.6368074,4.636256,4.6353073,4.634514,4.6334805,4.6327276,4.632015,4.631563,4.631404,4.631454,4.631673,4.631921,4.6322594,4.6325593,4.633135,4.6337223,4.634794,4.636421,4.638274,4.6413198,4.6439934,4.6477137,4.650934,4.6538715,4.6565456,4.6580687,4.659269,4.6594305,4.6592245,4.658433,4.657661,4.6564856,4.655514,4.6544294,4.6535068,4.6528764,4.652299,4.6520586,4.6519547,4.652013,4.652026,4.6520224,4.652007,4.6517906,4.651311,4.6506567,4.649463,4.648362,4.6465454,4.6447396,4.642697,4.640194,4.6381626,4.6353245,4.6330442,4.630328,4.627525,4.625269,4.6223626,4.6202536,4.6177187,4.615503,4.6136923,4.611618,4.610219,4.608568,4.6073165,4.6061907,4.605033,4.6042757,4.603302,4.6025605,4.6018353,4.601098,4.600557,4.599863,4.59934,4.5987287,4.598073,4.5975304,4.596697,4.59598,4.5951357,4.5943213,4.5936127,4.5926633,4.591923,4.5908566,4.5898094,4.5888243,4.587587,4.5866394,4.585381,4.584333,4.5831995,4.582045,4.5812798,4.580394,4.5798683,4.5794415,4.579339,4.579427,4.5797877,4.580222,4.5807905,4.5813503,4.5818005,4.582161,4.5822554,4.5821795,4.5818324
3.6480978,3.6748471,3.716228,3.7560143,3.8224483,3.8820264,3.9584355,4.0306525,4.0869427,4.1449327,4.177738,4.2121267,4.232631,4.248181,4.26108,4.26803,4.2759113,4.280972,4.286049,4.291016,4.294459,4.2986946,4.301552,4.304203,4.306308,4.307772,4.3094563,4.310568,4.3120213,4.313481,4.3147106,4.3163414,4.3175716,4.319079,4.320388,4.321618,4.3228717,4.323573,4.3245783,4.325506,4.326476,4.3279085,4.3292193,4.3312874,4.3332415,4.3356395,4.338477,4.340783,4.3439207,4.3463116,4.3490105,4.351483,4.353447,4.355921,4.357731,4.3601203,4.362336,4.364276,4.366667,4.3684444,4.3707314,4.3726134,4.374494,4.376388,4.3775845,4.3790293,4.380003,4.380972,4.3816977,4.382102,4.3822727,4.3820963,4.381721,4.380994,4.380216,4.3790245,4.378052,4.376833,4.375685,4.3746696,4.373389,4.372447,4.3709917,4.3694477,4.3678513,4.365348,4.3630724,4.3593297,4.355543,4.3509912,4.345152,4.340247,4.3332396,4.3274803,4.320416,4.3128586,4.3065376,4.2982464,4.292156,4.285042,4.278765,4.2730875,4.2668743,4.2630334,4.258711,4.2553053,4.251531,4.2469287,4.243543,4.23884,4.234898,4.230657,4.2262707,4.223118,4.2194757,4.2172976,4.215534,4.2148447,4.2147837,4.2149963,4.215268,4.2155185,4.2155123,4.2152724,4.214569,4.213814,4.212961,4.212468,4.2122226,4.2125993,4.2132826,4.214823,4.21672,4.218972,4.2217784,4.2239976,4.2266507,4.2283936,4.230096,4.231579,4.2326784,4.2343307,4.235854,4.238538,4.242341,4.2461567,4.2521453,4.257248,4.2644625,4.271637,4.278489,4.2870216,4.29341,4.3017755,4.3083887,4.3144283,4.3214016,4.3271575,4.3357687,4.343409,4.3526936,4.363595,4.372738,4.3856087,4.395812,4.4084444,4.420822,4.4310703,4.4440503,4.4535108,4.465641,4.4759617,4.484659,4.493965,4.5000925,4.508028,4.514347,4.520576,4.527291,4.5321503,4.5387526,4.5440917,4.5502596,4.55711,4.562689,4.5700254,4.575458,4.581896,4.587818,4.5925236,4.597844,4.601222,4.604956,4.607506,4.60946,4.6109767,4.611577,4.6118894,4.6116295,4.611204,4.610528,4.609992,4.609376,4.6090183,4.6087565,4.608822,4.6090794,4.609682,4.6103168,4.611048,4.6118584,4.6125436,4.6136403,4.614638,4.616292,4.61858,4.621091,4.625139,4.628666,4.6335945,4.6379166,4.641925,4.6457396,4.648038,4.650057,4.6506443,4.6507497,4.650049,4.6492505,4.6479487,4.646838,4.6456757,4.6448097,4.6443076,4.644047,4.644142,4.6445217,4.6450763,4.6454983,4.6459846,4.6463165,4.6465125,4.646338,4.645951,4.6449995,4.644039,4.6423545,4.6405983,4.638586,4.6360683,4.634005,4.6311083,4.628771,4.6259804,4.623092,4.620768,4.6177692,4.615588,4.612965,4.610656,4.6087594,4.6065598,4.6050577,4.603262,4.6018696,4.6006107,4.5992904,4.5984125,4.5972886,4.5964403,4.5956097,4.594775,4.5941677,4.593403,4.5928392,4.5921874,4.591511,4.5909605,4.590143,4.5894585,4.588672,4.5879397,4.587311,4.5864816,4.585841,4.584903,4.5839615,4.583067,4.58191,4.581004,4.579769,4.5787067,4.5775433,4.576312,4.5754614,4.574439,4.5737867,4.5731916,4.5728917,4.5728164,4.57296,4.5732327,4.5736084,4.574004,4.5743313,4.574571,4.574603,4.5744805,4.574129
3.6456606,3.670638,3.708799,3.7454233,3.8077455,3.864517,3.9381938,4.009583,4.0666227,4.1269617,4.1621623,4.1989026,4.2210617,4.238146,4.252426,4.260065,4.2685776,4.273868,4.2790947,4.2840586,4.28744,4.291568,4.294316,4.2968335,4.2987556,4.3000484,4.301485,4.302396,4.303597,4.3048058,4.305827,4.307201,4.3082514,4.3095217,4.3106046,4.3116193,4.3125877,4.3130674,4.3137674,4.314428,4.3151283,4.3162603,4.317354,4.319143,4.32088,4.323027,4.3255816,4.327656,4.3304677,4.3325987,4.3349833,4.3371525,4.338873,4.3410463,4.3426437,4.344766,4.3467503,4.348486,4.350655,4.352288,4.354418,4.356225,4.358074,4.360036,4.3613405,4.363003,4.3642225,4.365485,4.3665943,4.3673267,4.367985,4.3682203,4.3683624,4.368211,4.367938,4.367437,4.3669987,4.366475,4.366023,4.365654,4.3652334,4.364952,4.364435,4.363787,4.3631067,4.3617516,4.360369,4.3578596,4.3550816,4.3515906,4.346794,4.342643,4.3363714,4.33095,4.324155,4.3167534,4.310605,4.3024263,4.296318,4.2890024,4.282523,4.2769165,4.27065,4.2666035,4.2614594,4.2571383,4.2531,4.247774,4.2433224,4.2369003,4.2313485,4.225527,4.219473,4.215063,4.2098727,4.206627,4.203697,4.202054,4.2013574,4.2010236,4.201087,4.2011027,4.2009487,4.2005963,4.1997585,4.198898,4.1979246,4.1973686,4.1971025,4.197544,4.198324,4.2000656,4.202203,4.204742,4.207913,4.2104187,4.2134585,4.2155175,4.217599,4.219629,4.2212825,4.223859,4.2262144,4.2299566,4.2349167,4.239798,4.247306,4.25363,4.2624226,4.271007,4.2793016,4.28898,4.295699,4.3041353,4.310726,4.3173943,4.3252435,4.3315372,4.3407907,4.34887,4.3586674,4.3699884,4.3793926,4.392341,4.4023757,4.414609,4.4262524,4.4357333,4.44744,4.455773,4.4659834,4.4742584,4.4811344,4.4885225,4.4935055,4.499716,4.5045,4.509241,4.5143347,4.5179787,4.5232797,4.5278406,4.5331817,4.53907,4.5437465,4.549717,4.5540504,4.559486,4.5646186,4.5686426,4.5731497,4.5759735,4.5790386,4.5810585,4.5825763,4.583689,4.584074,4.584194,4.583889,4.583475,4.5829067,4.5824876,4.5820756,4.581926,4.581911,4.582282,4.5827956,4.5837708,4.584715,4.58584,4.5871,4.5881844,4.589843,4.591288,4.5935807,4.5965986,4.5998297,4.604999,4.6094975,4.615939,4.621764,4.6272736,4.6327934,4.6363125,4.6397476,4.641232,4.642141,4.6419873,4.641467,4.6403394,4.639229,4.638082,4.6372538,4.6368113,4.6367188,4.6370077,4.6376915,4.638583,4.639291,4.640148,4.640763,4.64131,4.641409,4.641265,4.6405354,4.639702,4.6381316,4.6364155,4.634426,4.6318903,4.629794,4.626843,4.6244545,4.6215987,4.61864,4.6162596,4.6131845,4.610944,4.608247,4.6058607,4.6038876,4.601574,4.599977,4.598042,4.596513,4.5951242,4.5936446,4.5926447,4.5913706,4.5904107,4.589467,4.588523,4.587841,4.5869894,4.5863714,4.5856633,4.5849485,4.584376,4.5835524,4.5828834,4.5821304,4.5814514,4.5808764,4.58013,4.5795603,4.578708,4.577837,4.5770054,4.5759,4.575018,4.5737896,4.5727024,4.571502,4.570184,4.5692434,4.5680766,4.5672855,4.566509,4.565988,4.56573,4.56562,4.565696,4.565834,4.566016,4.5661745,4.5662417,4.5661764,4.565962,4.565571
3.6426783,3.6660705,3.7008991,3.7339783,3.7914028,3.8445988,3.914555,3.9842315,4.0413103,4.1038065,4.141799,4.1811485,4.2051115,4.2239,4.239704,4.248088,4.257228,4.2626705,4.267949,4.2727766,4.2759886,4.2798862,4.282447,4.284754,4.286428,4.2875023,4.2886324,4.289299,4.290182,4.29105,4.291775,4.2927427,4.2934766,4.2943125,4.2949557,4.295544,4.2959585,4.2960157,4.296157,4.296357,4.296606,4.297286,4.298079,4.2995114,4.301003,4.3028708,4.3051286,4.306967,4.309447,4.311313,4.3133764,4.3152366,4.3167124,4.3185844,4.319971,4.3218303,4.323588,4.325125,4.327076,4.3285656,4.3305435,4.332282,4.334108,4.3361607,4.3375998,4.339536,4.3410654,4.342705,4.344295,4.3454247,4.3466883,4.3474483,4.3482533,4.3488417,4.3492155,4.3496037,4.3498487,4.3501816,4.350528,4.3508663,4.3513384,4.3517227,4.352141,4.3523726,4.352583,4.352357,4.3518653,4.3506145,4.3489065,4.3465805,4.3430405,4.3398657,4.3346996,4.329957,4.3238907,4.3171134,4.3114643,4.303811,4.2979894,4.290842,4.2844877,4.2792215,4.273215,4.2691727,4.26374,4.259103,4.25517,4.249893,4.245292,4.2384777,4.2323036,4.225403,4.217925,4.2124557,4.2059617,4.20183,4.1979675,4.1956406,4.194547,4.193955,4.19401,4.1940994,4.1941233,4.193944,4.1932964,4.1925426,4.1916776,4.191202,4.1910286,4.191596,4.1924763,4.1943655,4.196636,4.1993265,4.202637,4.20522,4.208319,4.2103987,4.2125,4.2146864,4.2165833,4.2196913,4.222599,4.2270684,4.2328854,4.2386265,4.247218,4.2542887,4.263921,4.2730107,4.2816067,4.291234,4.2976513,4.3056555,4.3120384,4.319017,4.3274117,4.3340464,4.3436027,4.3517685,4.3615885,4.372702,4.381834,4.394121,4.4034185,4.4145937,4.424982,4.4333987,4.4434137,4.450257,4.4583387,4.464592,4.4697313,4.475269,4.479083,4.483597,4.486922,4.4902897,4.493944,4.496563,4.5005426,4.504065,4.5081635,4.512531,4.5158625,4.519908,4.522746,4.526737,4.5306873,4.5337114,4.5370307,4.5390515,4.5411625,4.542428,4.543312,4.543805,4.543832,4.543588,4.5431023,4.5425653,4.541955,4.541544,4.5411863,4.541122,4.541212,4.5417447,4.542407,4.543636,4.544812,4.5462203,4.5477467,4.5489874,4.5509696,4.552771,4.5557036,4.559696,4.564024,4.5710955,4.577328,4.586175,4.5943174,4.602297,4.6108403,4.6166525,4.6229715,4.6265087,4.6293693,4.630755,4.631133,4.6307755,4.6299257,4.6290064,4.628256,4.627842,4.627841,4.628256,4.6291485,4.6302834,4.631196,4.632355,4.6332264,4.6341,4.6344643,4.6345615,4.6340523,4.63334,4.631872,4.6301813,4.628199,4.6256294,4.6234903,4.62048,4.618042,4.6151266,4.6121054,4.609678,4.606539,4.60425,4.601491,4.5990295,4.5969763,4.59453,4.5928144,4.590703,4.588993,4.58743,4.5857353,4.5845747,4.5830984,4.5819855,4.580887,4.5797863,4.5789914,4.5780034,4.5772924,4.576484,4.5756874,4.5750594,4.574195,4.5735207,4.5727787,4.572139,4.5716066,4.5709352,4.5704327,4.569667,4.5688677,4.5680985,4.5670424,4.5661774,4.564941,4.5638075,4.562537,4.561083,4.560005,4.5586224,4.5576267,4.5565853,4.5557423,4.555213,4.554719,4.554489,4.55425,4.55408,4.553953,4.553706,4.5534496,4.5530376,4.5525303
3.6405902,3.663143,3.6958156,3.726337,3.7800882,3.8305058,3.8974452,3.9655118,4.0223007,4.0861354,4.1261277,4.167271,4.192454,4.212442,4.22932,4.2382164,4.2477455,4.253219,4.2584505,4.2630825,4.266102,4.2697535,4.272131,4.274239,4.2757015,4.276598,4.2774916,4.277977,4.2786202,4.2792234,4.2797117,4.2803373,4.280792,4.2812366,4.281476,4.281669,4.281575,4.281247,4.2808895,4.2806916,4.2805557,4.2808733,4.2814484,4.282632,4.283959,4.285637,4.2876964,4.28938,4.29165,4.293352,4.295219,4.2968907,4.2982197,4.2999063,4.301158,4.30285,4.3044605,4.305868,4.307678,4.3090773,4.3109627,4.3126698,4.3144937,4.316633,4.3181877,4.3203535,4.322134,4.3240743,4.32606,4.3275275,4.3292933,4.330479,4.331813,4.332978,4.333852,4.3349,4.3356357,4.336586,4.3374968,4.3383303,4.339402,4.340218,4.341243,4.3420353,4.3428,4.343274,4.343335,4.342869,4.341836,4.3402624,4.3375664,4.3350444,4.3307724,4.3267307,4.321521,4.31552,4.3103876,4.303314,4.2978697,4.2912235,4.285266,4.2802563,4.274412,4.2703915,4.265218,4.2608376,4.256798,4.251729,4.2476983,4.2417145,4.2359757,4.228633,4.2201867,4.214017,4.2066755,4.2020063,4.197679,4.1951427,4.194016,4.1934853,4.193654,4.1940246,4.1944404,4.194625,4.194374,4.193846,4.1932135,4.1928787,4.192834,4.193515,4.1944575,4.1964054,4.1986923,4.201393,4.2046366,4.207115,4.2099924,4.2118382,4.213634,4.215583,4.21739,4.2205324,4.223586,4.2283545,4.234658,4.240987,4.2501388,4.2574224,4.267124,4.275866,4.2836733,4.2924614,4.298528,4.3064814,4.313072,4.3200397,4.3283987,4.335063,4.3445787,4.352595,4.362059,4.3725243,4.381022,4.39231,4.4007506,4.4108715,4.4202423,4.4279,4.436714,4.442479,4.449233,4.4543304,4.458485,4.462801,4.465661,4.469102,4.4717045,4.4744205,4.477442,4.4796653,4.4827046,4.4851484,4.487941,4.4908047,4.492958,4.4954348,4.497119,4.499934,4.502899,4.50511,4.507471,4.50885,4.5102053,4.510874,4.511248,4.5112267,4.5109463,4.510372,4.509694,4.508998,4.5082884,4.5078464,4.507489,4.5074615,4.5075917,4.5082045,4.5089498,4.5103393,4.511665,4.5132217,4.514785,4.515902,4.517873,4.5198298,4.5231805,4.528003,4.53335,4.5422297,4.5501156,4.5608997,4.5707526,4.580727,4.5918474,4.599676,4.608654,4.6141844,4.6189327,4.6218247,4.623084,4.623495,4.622919,4.62222,4.621518,4.6210995,4.6211343,4.6216226,4.622634,4.623906,4.624929,4.6262617,4.6272907,4.6283617,4.628887,4.6291304,4.628751,4.628107,4.626689,4.625,4.6230073,4.6204042,4.618232,4.61518,4.612715,4.6097674,4.606715,4.6042633,4.6010966,4.5987883,4.5959997,4.5934935,4.5913897,4.588849,4.5870457,4.584797,4.582946,4.581241,4.579376,4.5780907,4.576455,4.5752187,4.5739975,4.572771,4.5718822,4.570778,4.5699844,4.569085,4.5682096,4.567527,4.566618,4.5659304,4.5651865,4.564567,4.564062,4.563443,4.56299,4.562289,4.5615454,4.5608253,4.559803,4.558947,4.5576963,4.5565176,4.5551796,4.5536003,4.552404,4.550835,4.5496674,4.5484047,4.547294,4.546541,4.545727,4.5452385,4.5446787,4.544203,4.5438232,4.54329,4.5428505,4.542245,4.5416117
3.6363573,3.6578112,3.687871,3.7155805,3.764997,3.8118887,3.874856,3.9405642,3.9968152,4.061426,4.102755,4.1460476,4.173253,4.1945505,4.212476,4.2218895,4.2317734,4.237217,4.2423415,4.246728,4.249531,4.2529483,4.255189,4.2571745,4.258523,4.2593203,4.260058,4.260396,4.260801,4.2610645,4.261218,4.2613006,4.261278,4.261035,4.2605505,4.26003,4.2590685,4.258129,4.2570496,4.256336,4.2557344,4.2555504,4.255721,4.2564983,4.2576275,4.259154,4.2611217,4.262748,4.264886,4.2664404,4.2680993,4.2695446,4.27069,4.272184,4.273328,4.274893,4.2763968,4.2777042,4.279381,4.280673,4.2824306,4.284051,4.285804,4.287939,4.2895393,4.291849,4.293829,4.296027,4.2983747,4.300159,4.3024054,4.3040075,4.3058634,4.3076105,4.3089914,4.310734,4.312004,4.3136334,4.3151855,4.316587,4.318373,4.3197203,4.3213673,4.322658,4.323924,4.3250647,4.3256826,4.326053,4.3258047,4.325163,4.323619,4.322042,4.31912,4.316181,4.312314,4.3076344,4.3035064,4.297634,4.2929935,4.2872133,4.281849,4.2772384,4.271743,4.2679048,4.263085,4.2590065,4.2550564,4.250201,4.2464895,4.2410316,4.235689,4.2284603,4.2198915,4.213556,4.2059817,4.201153,4.1967235,4.194268,4.1933055,4.1932535,4.1939664,4.195077,4.19614,4.196662,4.1969037,4.196844,4.1967697,4.196847,4.1971316,4.198017,4.198996,4.2008257,4.2028484,4.205204,4.2079678,4.2100415,4.2124567,4.214032,4.215728,4.217396,4.218572,4.2211065,4.223937,4.2285624,4.2348742,4.2412434,4.250392,4.257611,4.2671595,4.2755413,4.282692,4.290724,4.296378,4.303993,4.310421,4.317114,4.3250513,4.3313437,4.340222,4.3475738,4.356109,4.3652806,4.3725996,4.3821325,4.3891177,4.3974013,4.4049406,4.411087,4.417986,4.422359,4.427529,4.431384,4.434468,4.437473,4.43931,4.441616,4.4434385,4.445384,4.4475904,4.4492517,4.451291,4.452669,4.4539585,4.4549594,4.4555473,4.4564238,4.4572325,4.458682,4.460247,4.4613724,4.4624243,4.462899,4.4631624,4.462944,4.462566,4.4617786,4.4610333,4.4599633,4.4589977,4.458109,4.4571133,4.45635,4.4554586,4.4549155,4.4544597,4.454418,4.4546537,4.4553957,4.456248,4.4572124,4.458148,4.458713,4.4599533,4.4613886,4.464303,4.469323,4.475219,4.486036,4.4961715,4.511216,4.525706,4.5399237,4.556107,4.5678425,4.581686,4.590808,4.5994625,4.605997,4.6096725,4.612558,4.6132417,4.613681,4.6134844,4.613208,4.6131916,4.613521,4.614275,4.615283,4.616132,4.6173263,4.6183033,4.6193476,4.619898,4.6201878,4.6198606,4.619242,4.6178308,4.6161184,4.614084,4.6114106,4.609175,4.6060467,4.603529,4.600519,4.597408,4.5949135,4.591696,4.5893526,4.5865183,4.583952,4.581783,4.579128,4.577219,4.57481,4.5727954,4.5709305,4.5688667,4.5674314,4.565604,4.5642214,4.5628495,4.561464,4.560456,4.5591946,4.5582848,4.557255,4.556255,4.555477,4.554468,4.5537267,4.552927,4.5522766,4.551755,4.551136,4.550695,4.55002,4.549306,4.5486155,4.547616,4.5467663,4.5455027,4.544283,4.542878,4.5411663,4.539835,4.5380583,4.5366955,4.535186,4.533764,4.5327377,4.5315185,4.530697,4.529722,4.5288467,4.5281367,4.527235,4.5265646,4.5257187,4.5249357
3.632008,3.6526957,3.6810207,3.7070644,3.7536354,3.7980022,3.857998,3.9217305,3.9773855,4.0418186,4.083226,4.127925,4.1568856,4.178958,4.1974,4.2070847,4.217111,4.222473,4.227475,4.231677,4.2343416,4.237648,4.2398686,4.241873,4.243266,4.244094,4.244833,4.2451286,4.2454033,4.2454023,4.245269,4.2448416,4.244352,4.2434263,4.242219,4.241006,4.2391677,4.2375746,4.2356777,4.234356,4.233235,4.232547,4.2323384,4.23281,4.233881,4.2354455,4.2375607,4.2393227,4.241563,4.2431254,4.244744,4.246107,4.2471824,4.2486243,4.2497625,4.251335,4.2528543,4.2541704,4.255825,4.257078,4.25877,4.2603207,4.261998,4.264065,4.26563,4.267931,4.2699437,4.2722063,4.27467,4.2765636,4.278993,4.280766,4.2828465,4.28486,4.286479,4.2885537,4.290085,4.2920413,4.2939024,4.295579,4.2977242,4.29935,4.3012667,4.302745,4.30421,4.305669,4.3065863,4.3074636,4.3077483,4.307769,4.3071213,4.3063183,4.304555,4.302602,4.2999363,4.2965,4.2933826,4.2887535,4.2849593,4.280031,4.275233,4.2710295,4.2659683,4.26243,4.2579517,4.254118,4.2504234,4.2457185,4.2419834,4.2365246,4.2313204,4.2246294,4.216743,4.2108,4.2036552,4.199086,4.194942,4.192816,4.1921506,4.1927347,4.1940928,4.195915,4.197502,4.1982565,4.19895,4.199403,4.1999664,4.200534,4.2011986,4.2022924,4.2032747,4.2048845,4.2065067,4.2083507,4.2104588,4.212015,4.2139025,4.215233,4.216939,4.218384,4.218863,4.220575,4.22293,4.227072,4.232958,4.2388725,4.247513,4.25443,4.263644,4.2717676,4.2786736,4.286358,4.2917137,4.2988377,4.3047733,4.310979,4.318224,4.3238792,4.331784,4.33825,4.345702,4.3535414,4.3596997,4.367568,4.373208,4.379787,4.385589,4.3902,4.395364,4.3986654,4.4026875,4.4057417,4.4081383,4.4103518,4.4115977,4.413256,4.4146214,4.416065,4.4176807,4.4188843,4.4203305,4.4211783,4.421614,4.421507,4.421113,4.421212,4.421769,4.4223595,4.422861,4.423201,4.4232817,4.423068,4.4224806,4.42155,4.4205647,4.419139,4.4179907,4.4164724,4.4152126,4.4141116,4.4127226,4.411504,4.4098263,4.408506,4.407158,4.406082,4.405491,4.40512,4.405118,4.4050484,4.404974,4.4047747,4.40486,4.405319,4.4071007,4.4114876,4.4170685,4.4287376,4.4403434,4.459249,4.4784975,4.497012,4.518527,4.534519,4.553603,4.5666018,4.5795894,4.5903573,4.5969763,4.603041,4.605496,4.6075664,4.6081553,4.608123,4.60799,4.607977,4.608176,4.608551,4.608867,4.609538,4.6102457,4.6110363,4.6114836,4.6117253,4.611371,4.610723,4.6092606,4.6074934,4.605392,4.6026344,4.600329,4.5971146,4.5945373,4.5914564,4.5882807,4.5857406,4.58247,4.5800924,4.5772133,4.5745997,4.572383,4.5696487,4.5676694,4.565157,4.563039,4.5610743,4.5588837,4.5573483,4.555396,4.5539136,4.5524387,4.5509386,4.549843,4.5484614,4.5474567,4.5463176,4.545206,4.544336,4.5432186,4.5424056,4.541523,4.540805,4.54023,4.539556,4.539083,4.5383797,4.537655,4.5369606,4.5359592,4.5351076,4.533839,4.532603,4.5311637,4.529375,4.5279646,4.526046,4.524539,4.522835,4.521165,4.519927,4.5183964,4.5173216,4.516032,4.5148554,4.513895,4.512713,4.5118666,4.5108385,4.509945
3.6270165,3.6469162,3.673298,3.6973982,3.7406688,3.7821233,3.8386884,3.9001138,3.9549704,4.0193233,4.0611324,4.1074,4.138173,4.1611776,4.1802897,4.190303,4.200489,4.2057257,4.2105393,4.2144866,4.2169795,4.220156,4.2223625,4.224391,4.225858,4.2267575,4.227558,4.227852,4.2280107,4.227708,4.227228,4.226161,4.225072,4.223316,4.221258,4.21933,4.216242,4.2134337,4.209464,4.206191,4.203366,4.2013855,4.200658,4.2008567,4.2020836,4.2039285,4.2065163,4.2086887,4.211404,4.213256,4.215165,4.216751,4.218012,4.2196054,4.2207947,4.222471,4.224105,4.225527,4.2272997,4.2286263,4.230401,4.2320094,4.23374,4.2358565,4.2374587,4.2397566,4.2417316,4.2439637,4.2464113,4.2483034,4.2507734,4.2526174,4.2548323,4.2570343,4.258836,4.2611036,4.262732,4.264757,4.2666187,4.2682724,4.270384,4.271987,4.274067,4.2758703,4.2776995,4.2797637,4.281229,4.283024,4.2841935,4.2851405,4.2856045,4.2857237,4.2853446,4.2845726,4.2833405,4.281382,4.279456,4.276267,4.27344,4.2696104,4.265695,4.2622185,4.25796,4.2549486,4.2510147,4.2475195,4.244154,4.2396846,4.2360263,4.2304163,4.2250166,4.2184954,4.210919,4.2051525,4.198208,4.1937866,4.1898756,4.1881437,4.187938,4.189127,4.1908846,4.192786,4.1945,4.1958437,4.197426,4.198535,4.199855,4.2009573,4.2020555,4.2034206,4.2044554,4.205926,4.2072167,4.2086325,4.2100997,4.2110887,4.2122374,4.213039,4.214176,4.2153373,4.215974,4.217422,4.219201,4.2228746,4.228424,4.234087,4.242402,4.2490625,4.2578316,4.2655387,4.2722144,4.279533,4.2845097,4.2909403,4.296112,4.3014717,4.3076296,4.3124104,4.319064,4.3244615,4.330634,4.336981,4.341877,4.34797,4.3521967,4.3570404,4.360918,4.3636036,4.3664007,4.3681107,4.37018,4.3716736,4.3727827,4.3736877,4.374113,4.374794,4.3754444,4.3761883,4.376942,4.3773994,4.3778863,4.3780785,4.378039,4.3776135,4.377039,4.3765545,4.3763933,4.3760595,4.375592,4.3751664,4.3742943,4.3734035,4.371978,4.3703146,4.368677,4.36649,4.364806,4.3625984,4.3607454,4.3589964,4.356848,4.355082,4.3525815,4.3505144,4.348281,4.3461595,4.3447146,4.3431606,4.3422194,4.3409944,4.3396845,4.3384175,4.3370094,4.3363047,4.3367176,4.3401747,4.3450994,4.356951,4.3693814,4.390469,4.413425,4.437087,4.46669,4.48976,4.5174775,4.53658,4.5555267,4.571704,4.5821667,4.5924106,4.597204,4.6013756,4.602884,4.6030474,4.602584,4.601987,4.6013002,4.6005287,4.599512,4.5990186,4.59937,4.5999317,4.6004553,4.600846,4.600622,4.599975,4.5984135,4.596491,4.5942464,4.591329,4.5888977,4.5855227,4.58283,4.5796247,4.5763435,4.5737305,4.5703826,4.567958,4.5650244,4.562355,4.5600834,4.557262,4.555205,4.5525804,4.5503483,4.54827,4.5459375,4.5442934,4.542198,4.540598,4.538992,4.537339,4.536124,4.534579,4.5334444,4.532158,4.530903,4.5299225,4.528675,4.5277786,4.526799,4.5260005,4.52536,4.524618,4.5241055,4.523365,4.522625,4.521924,4.520919,4.5200634,4.5187864,4.51753,4.516052,4.5141754,4.512685,4.5105524,4.508764,4.5066032,4.504392,4.5027657,4.500748,4.4993277,4.4976206,4.4960594,4.4947863,4.493222,4.4921074,4.490797,4.4897003
3.6213613,3.640673,3.665439,3.6878233,3.728198,3.7671027,3.8206007,3.8797717,3.933474,3.9975448,4.0398884,4.087373,4.1195035,4.143365,4.163168,4.173521,4.183916,4.189101,4.193818,4.197584,4.1999207,4.202989,4.2052064,4.207343,4.208916,4.2098293,4.2105417,4.2106714,4.2105007,4.209666,4.2086496,4.206721,4.2048826,4.201987,4.1987405,4.1958284,4.1911654,4.186878,4.1808524,4.1759195,4.1716623,4.1688333,4.168006,4.168495,4.170306,4.172844,4.1762495,4.1790576,4.182482,4.1847534,4.1870804,4.188986,4.190511,4.1923914,4.193756,4.195688,4.197568,4.1992207,4.201232,4.202694,4.2046127,4.2062993,4.2080927,4.210253,4.2118797,4.214156,4.2160673,4.218211,4.2205515,4.2223597,4.224743,4.2265453,4.2287455,4.230957,4.2327824,4.234997,4.2365136,4.23832,4.239887,4.2412457,4.242962,4.2442636,4.2461667,4.248011,4.249913,4.2522216,4.25395,4.2562637,4.2580185,4.259652,4.261079,4.2620573,4.263045,4.263484,4.263712,4.263216,4.2624116,4.2605963,4.2587237,4.25603,4.2530813,4.2504168,4.247064,4.244647,4.2413673,4.238306,4.2353325,4.2311683,4.2276516,4.2219152,4.2162485,4.209694,4.2021236,4.196307,4.1892357,4.184693,4.180707,4.179055,4.1790247,4.1805773,4.182678,4.1847687,4.186839,4.188936,4.191613,4.193529,4.1957765,4.197537,4.1991754,4.2008867,4.201994,4.203312,4.204221,4.2051425,4.205859,4.206178,4.2064514,4.206613,4.2070193,4.2077684,4.2084627,4.209879,4.2115192,4.21517,4.220808,4.2266035,4.234996,4.2416162,4.2501264,4.2574816,4.2639675,4.2708874,4.2754126,4.2810388,4.2853317,4.289709,4.2946396,4.29846,4.303745,4.3079863,4.3127894,4.3175507,4.3211155,4.3252716,4.327922,4.3308883,4.332901,4.3339186,4.334755,4.335182,4.3356686,4.3359404,4.33609,4.336117,4.3360596,4.336104,4.3362474,4.3364944,4.3366566,4.336622,4.3364897,4.3363085,4.3361597,4.3358335,4.335435,4.334606,4.3337564,4.33274,4.331622,4.3306594,4.3291235,4.327763,4.325758,4.3235774,4.3214664,4.318696,4.316584,4.3138,4.311414,4.309045,4.306199,4.3039756,4.3008056,4.298141,4.29519,4.292199,4.2900352,4.2874584,4.2856817,4.283414,4.2808857,4.278487,4.2753935,4.273294,4.27184,4.2735076,4.2767887,4.2870216,4.298595,4.319047,4.3430033,4.369451,4.4051247,4.4341764,4.4706526,4.497158,4.523402,4.5464215,4.561611,4.577289,4.5854273,4.5928173,4.596155,4.5971017,4.596794,4.5957775,4.594289,4.5922403,4.5896835,4.5876665,4.587358,4.5873756,4.5877833,4.58819,4.5879993,4.5872974,4.5856028,4.5835314,4.581148,4.5780807,4.575532,4.572009,4.569209,4.565876,4.562472,4.559763,4.556304,4.5538054,4.550785,4.5480347,4.545687,4.5427623,4.540623,4.5378876,4.535554,4.533381,4.5309353,4.529207,4.527003,4.525316,4.5236254,4.521882,4.5205984,4.5189533,4.5177336,4.51634,4.5149584,4.5138674,4.5124807,4.511488,4.5104,4.5095186,4.5088177,4.5080156,4.507468,4.506691,4.5059304,4.505215,4.5042,4.5033417,4.5020533,4.500776,4.499266,4.497325,4.4957857,4.493436,4.49135,4.4887958,4.486146,4.4842052,4.481793,4.480089,4.4780383,4.4761596,4.474622,4.4727426,4.4714146,4.4698906,4.4686575
3.6162152,3.635136,3.6587517,3.6797874,3.7180324,3.75515,3.80646,3.86387,3.9163513,3.9800844,4.0230527,4.0713477,4.104265,4.1287003,4.1490393,4.159705,4.170342,4.1755967,4.1804533,4.184237,4.186441,4.189394,4.1916,4.1939135,4.195595,4.1964016,4.1968145,4.1966004,4.195926,4.1944714,4.192906,4.190193,4.1877165,4.183563,4.178894,4.1747904,4.1685495,4.162957,4.1560516,4.151039,4.146719,4.1441755,4.143756,4.14498,4.147506,4.1508083,4.1549473,4.1582685,4.162197,4.1647058,4.167222,4.1692295,4.170837,4.172925,4.174525,4.176744,4.178885,4.1807804,4.1830053,4.184557,4.1865225,4.188178,4.1899147,4.192005,4.193594,4.195865,4.197796,4.199933,4.2022557,4.2040524,4.206426,4.2082243,4.210413,4.2125955,4.21439,4.2165065,4.217904,4.219514,4.2208366,4.2219567,4.2233405,4.2243814,4.2259274,4.2274523,4.2290335,4.2310057,4.232514,4.2345915,4.2363143,4.238186,4.240281,4.24196,4.24414,4.2456694,4.2471747,4.2478437,4.247799,4.24695,4.245796,4.243933,4.2416716,4.2395663,4.236825,4.234803,4.2320642,4.2294273,4.226768,4.2228703,4.219512,4.2138815,4.2081976,4.201598,4.1938496,4.1878157,4.180358,4.1754675,4.171148,4.169265,4.1690397,4.170838,4.1735125,4.1764846,4.1793966,4.1818843,4.185278,4.1879683,4.1911087,4.19352,4.1956825,4.1977158,4.198874,4.200001,4.200493,4.200879,4.2008395,4.2004995,4.200105,4.199937,4.2001987,4.2005258,4.200224,4.2011805,4.2031946,4.2072334,4.213338,4.219563,4.2283797,4.235202,4.2438126,4.251045,4.2573204,4.2637925,4.2678843,4.272866,4.276536,4.280226,4.284297,4.2874346,4.29169,4.295006,4.298689,4.3020525,4.304405,4.306592,4.307523,4.3084607,4.3088636,4.3089395,4.3089075,4.3088636,4.308895,4.3089695,4.309035,4.309069,4.309059,4.3090653,4.3091035,4.309202,4.30929,4.3093195,4.309226,4.309003,4.308673,4.3080225,4.3073373,4.306063,4.3048325,4.3033648,4.3018146,4.3005056,4.298562,4.2969265,4.294593,4.2921367,4.2897778,4.286723,4.284416,4.2814007,4.2788343,4.276289,4.2731876,4.270731,4.267176,4.264137,4.260746,4.257221,4.254616,4.2514076,4.249107,4.2461777,4.2428064,4.2395964,4.2351484,4.231826,4.2285557,4.228232,4.229595,4.237508,4.2474713,4.2661667,4.2892923,4.315282,4.352272,4.3834143,4.425621,4.4587545,4.4916077,4.520815,4.539795,4.5603695,4.5720167,4.5829287,4.5885973,4.5907416,4.591129,4.59008,4.58825,4.585387,4.581872,4.578658,4.5775676,4.5767837,4.5767517,4.576876,4.5764775,4.575635,4.5738277,4.57172,4.5692816,4.5661616,4.5635777,4.5600257,4.557212,4.553837,4.5503635,4.5475845,4.5440297,4.5414596,4.5383472,4.5355053,4.533077,4.5300446,4.5278234,4.524981,4.5225573,4.5203075,4.5177746,4.5159817,4.5136933,4.5119534,4.5102344,4.5084887,4.5072126,4.5055757,4.5043526,4.5029383,4.5014963,4.500325,4.498829,4.497759,4.4965925,4.4956675,4.4949527,4.49415,4.4936094,4.492838,4.492084,4.4913716,4.490366,4.48952,4.488223,4.4869165,4.4853745,4.483384,4.4818177,4.4792542,4.4769087,4.474229,4.471506,4.4694843,4.4669137,4.465052,4.4628077,4.460735,4.4590235,4.456979,4.4555774,4.4540224,4.452833
3.6094408,3.628049,3.6505318,3.670168,3.70608,3.74116,3.78996,3.8452253,3.8960185,3.959228,4.003024,4.0517673,4.085182,4.110755,4.1322184,4.1432824,4.15436,4.15975,4.164422,4.1679163,4.170004,4.172935,4.1752214,4.177665,4.179343,4.1800003,4.179943,4.1791496,4.177577,4.1749487,4.1722794,4.168006,4.1643047,4.158594,4.1524806,4.1469345,4.1392026,4.132737,4.1254797,4.1208916,4.117106,4.115598,4.1161594,4.1188784,4.12269,4.1273117,4.132662,4.136829,4.141573,4.1444483,4.1472535,4.1494036,4.151129,4.1534805,4.155368,4.157979,4.1604853,4.1626873,4.16517,4.166821,4.168873,4.1705465,4.172285,4.174348,4.1759043,4.1781363,4.180031,4.1821,4.184311,4.1860023,4.18822,4.189886,4.1919093,4.1938896,4.1955004,4.1973076,4.1984205,4.1996164,4.2004843,4.2011786,4.2020106,4.202639,4.203602,4.204589,4.205628,4.206992,4.2080708,4.209639,4.211108,4.2129545,4.2154016,4.217517,4.220529,4.222894,4.2254786,4.2273445,4.2282734,4.228687,4.228451,4.2276764,4.2262793,4.224787,4.222702,4.221119,4.2189956,4.216874,4.2146444,4.2111816,4.208124,4.202778,4.1971626,4.190485,4.182373,4.1759386,4.1677303,4.1620784,4.156742,4.1537733,4.1526403,4.1538353,4.1566067,4.160636,4.1652374,4.169133,4.1739826,4.1774526,4.181738,4.1850863,4.188006,4.190518,4.191758,4.192623,4.1925344,4.192169,4.1911764,4.1901665,4.188652,4.187455,4.186441,4.1858673,4.1852264,4.186785,4.1899757,4.1952653,4.2024927,4.2095976,4.219256,4.226495,4.235387,4.2425222,4.2485466,4.2544394,4.257969,4.262148,4.26507,4.267968,4.270977,4.273194,4.2761073,4.2782583,4.280518,4.2822285,4.2831955,4.2835054,4.283019,4.282263,4.2813525,4.2806673,4.2799873,4.279643,4.2794323,4.2794943,4.2796392,4.2798595,4.280012,4.280161,4.280263,4.2803936,4.2805853,4.28078,4.280896,4.2807913,4.2804666,4.279685,4.278847,4.2773476,4.2759333,4.274227,4.272437,4.270935,4.268759,4.266963,4.2644234,4.2618017,4.2593164,4.2561436,4.253768,4.250682,4.248068,4.2454777,4.242275,4.2397056,4.235924,4.232633,4.2289333,4.2250113,4.222069,4.218385,4.2156825,4.2122264,4.208027,4.2039366,4.1977787,4.1927557,4.186816,4.1831627,4.1810474,4.1840897,4.1902256,4.2041893,4.223874,4.2468605,4.2825003,4.3139224,4.35993,4.3992844,4.440486,4.4796634,4.506035,4.5344963,4.5505695,4.566414,4.575774,4.580346,4.582531,4.581848,4.579866,4.576171,4.571953,4.567463,4.565165,4.5632358,4.5626106,4.5623703,4.561759,4.560808,4.5589395,4.556837,4.554365,4.551175,4.5485163,4.544842,4.54191,4.5383654,4.534687,4.5317364,4.5279636,4.525241,4.521947,4.5189486,4.51639,4.5132084,4.5108867,4.5079336,4.5054436,4.503149,4.5005946,4.498801,4.49653,4.4948273,4.4931717,4.491514,4.4903083,4.4887323,4.487523,4.4860916,4.48456,4.4832735,4.481601,4.4803896,4.4790673,4.478018,4.4772162,4.476321,4.4757185,4.474869,4.4740496,4.4732757,4.4722157,4.4713435,4.4700303,4.4687295,4.467202,4.4652357,4.4636793,4.461175,4.4589143,4.4563627,4.453743,4.4517455,4.4491744,4.4472923,4.445011,4.4428787,4.4411,4.4389825,4.437543,4.4359455,4.434739
3.604557,3.6230567,3.6449337,3.663788,3.6982517,3.7319763,3.779108,3.8328905,3.8824384,3.945229,3.9896011,4.0382605,4.071721,4.0984573,4.121077,4.132416,4.143893,4.1493874,4.1535892,4.1565866,4.1586275,4.1616387,4.1640596,4.1665,4.168063,4.168633,4.168228,4.1669655,4.1646137,4.160902,4.1571684,4.15137,4.146487,4.1397743,4.13301,4.1265717,4.1182413,4.1117916,4.1047277,4.1005917,4.0974426,4.096986,4.098491,4.1025887,4.107541,4.113316,4.1197157,4.124631,4.130098,4.1333027,4.1363745,4.1386614,4.140505,4.1430426,4.1451025,4.147996,4.150773,4.153179,4.155826,4.1575375,4.1596813,4.1614304,4.16325,4.1653595,4.1669154,4.169095,4.170901,4.1728673,4.174921,4.1764603,4.1784487,4.179921,4.181716,4.183441,4.184824,4.186287,4.1871104,4.1878977,4.188342,4.188649,4.189003,4.189292,4.1897945,4.190374,4.1910057,4.191912,4.1926637,4.1938515,4.1950846,4.196732,4.1990747,4.201154,4.204218,4.206735,4.209656,4.212167,4.2138367,4.2152166,4.215654,4.215701,4.21493,4.213813,4.2121186,4.210813,4.2090654,4.2072773,4.205375,4.2022905,4.1995144,4.1944494,4.188921,4.182185,4.1737595,4.1669884,4.1581144,4.1517344,4.145278,4.140995,4.1387815,4.138864,4.1411667,4.1457734,4.1519623,4.1576166,4.16395,4.167776,4.1728497,4.1769266,4.180436,4.1833334,4.184648,4.1853228,4.1848025,4.1838713,4.1822395,4.180917,4.1783934,4.175953,4.173089,4.171596,4.171629,4.1746016,4.179061,4.185726,4.194067,4.2019773,4.2123804,4.219985,4.229128,4.2362037,4.2420697,4.2475643,4.250698,4.254321,4.256728,4.2591095,4.2613635,4.2628613,4.264777,4.266103,4.2673473,4.26799,4.268111,4.267643,4.2668295,4.265646,4.2643776,4.2633905,4.262442,4.2619886,4.2616887,4.2617583,4.261956,4.262286,4.262533,4.262823,4.263058,4.263323,4.263653,4.263932,4.264204,4.2642546,4.2641134,4.2635107,4.262788,4.261409,4.2600603,4.2584124,4.256653,4.2551727,4.253009,4.251212,4.2486467,4.246007,4.2435436,4.2404265,4.2381067,4.2350926,4.2325354,4.2299886,4.226827,4.224287,4.2205086,4.217182,4.2134175,4.209387,4.2063427,4.202525,4.1997023,4.1960707,4.1914344,4.186811,4.1794357,4.1731076,4.1650543,4.1585407,4.1532845,4.1516323,4.1539097,4.162944,4.1787868,4.1984034,4.2315426,4.261918,4.308222,4.3501496,4.397114,4.44489,4.4785237,4.513757,4.532752,4.5522356,4.56459,4.5714636,4.5755067,4.5753307,4.573388,4.5692186,4.5648518,4.5596476,4.5563774,4.5536103,4.5526094,4.55217,4.5514984,4.5505466,4.548703,4.546629,4.5441537,4.5408974,4.53815,4.5343056,4.5311995,4.5274296,4.523509,4.5203705,4.516371,4.5134954,4.5100274,4.5068893,4.5042233,4.500931,4.498542,4.495533,4.4930334,4.4907465,4.488244,4.486515,4.4843473,4.4827485,4.481208,4.4796677,4.478544,4.4770346,4.475834,4.4743824,4.4727707,4.4713874,4.4695597,4.468215,4.466735,4.465538,4.464613,4.463569,4.462863,4.4618835,4.4609575,4.460087,4.458934,4.458008,4.456681,4.4554214,4.4539504,4.4520664,4.450547,4.448352,4.4464836,4.444207,4.4417534,4.439835,4.4373837,4.43561,4.4334455,4.4313993,4.42968,4.4275956,4.4261503,4.4244895,4.4231825
3.5978606,3.6161652,3.637416,3.6554985,3.6885715,3.7210164,3.7665925,3.8190289,3.8674357,3.9300015,3.975153,4.024714,4.059051,4.0865316,4.110114,4.1222267,4.1346526,4.140941,4.146123,4.150173,4.1529226,4.156575,4.159207,4.1618195,4.162942,4.162731,4.1606216,4.1575837,4.1528883,4.146554,4.140329,4.132061,4.126009,4.1181927,4.1108823,4.1038713,4.0954657,4.0894294,4.0831695,4.080073,4.07814,4.0794654,4.0825224,4.088791,4.0954847,4.1032114,4.1109457,4.1161785,4.1217213,4.124796,4.1278353,4.1301136,4.1319485,4.1344366,4.136426,4.1392083,4.1418753,4.144187,4.1467733,4.1484847,4.1506267,4.152375,4.154183,4.1562743,4.1578207,4.159951,4.161693,4.163595,4.1655855,4.167081,4.1690154,4.170448,4.172181,4.1738415,4.17517,4.17661,4.177459,4.1783314,4.1788673,4.1792393,4.1795263,4.179653,4.1799216,4.180247,4.180599,4.1811438,4.181611,4.1824493,4.1834145,4.184729,4.1867647,4.1886735,4.191552,4.1939816,4.1968718,4.199588,4.2015915,4.203596,4.204612,4.205443,4.205465,4.205059,4.2041044,4.2032146,4.2019677,4.2005577,4.1990128,4.196311,4.1938086,4.188966,4.183444,4.176611,4.1677256,4.160409,4.1504364,4.142853,4.13464,4.128206,4.124131,4.122098,4.1231756,4.1268325,4.1332827,4.1399584,4.148593,4.154636,4.1611557,4.1656613,4.169886,4.173276,4.1746626,4.1750374,4.173952,4.1727066,4.1698594,4.166639,4.162059,4.158621,4.1553473,4.154733,4.156181,4.1615486,4.16807,4.1771374,4.1874413,4.196684,4.208333,4.2165914,4.2262797,4.23345,4.239249,4.2443876,4.2471266,4.2501707,4.2520485,4.253932,4.2555494,4.256487,4.257598,4.258253,4.258724,4.2586,4.2581406,4.2571154,4.2560444,4.2545695,4.2531104,4.251995,4.2509847,4.250557,4.250326,4.2505264,4.25089,4.2514296,4.2518196,4.2522554,4.2525644,4.25288,4.253208,4.253459,4.2536163,4.2535224,4.2532177,4.252494,4.2517366,4.2503757,4.2490873,4.2475204,4.245882,4.244525,4.242566,4.2409525,4.2386665,4.2362766,4.233979,4.231001,4.228748,4.225836,4.2233543,4.220852,4.217703,4.2151556,4.211379,4.2080626,4.204315,4.200291,4.1972456,4.193366,4.190459,4.1867485,4.1820655,4.177573,4.1697726,4.1625857,4.1526747,4.1432686,4.134883,4.1282687,4.1263065,4.1287556,4.1382227,4.1515446,4.178443,4.2049775,4.2481866,4.290396,4.3408337,4.3960238,4.4367547,4.4809427,4.5060244,4.531452,4.5481076,4.5578003,4.564687,4.566059,4.5649376,4.5606766,4.556411,4.5510545,4.547475,4.5441,4.542466,4.541545,4.5404716,4.5393233,4.537242,4.534999,4.5323324,4.5288477,4.525916,4.5217686,4.5183907,4.5143085,4.5100875,4.5067267,4.5024614,4.4994073,4.495732,4.492426,4.489625,4.48619,4.483712,4.48061,4.478059,4.4757366,4.4732237,4.4715047,4.4693546,4.467766,4.466216,4.464631,4.463455,4.461842,4.4605355,4.4589586,4.4572153,4.4557347,4.4537773,4.4523335,4.4507256,4.4493895,4.448327,4.447095,4.4462442,4.4450746,4.4439716,4.4429293,4.441575,4.4405055,4.4390087,4.437635,4.4360633,4.434099,4.432521,4.430367,4.428629,4.4265256,4.424284,4.422535,4.4202843,4.4186406,4.416624,4.414691,4.4130507,4.41103,4.409605,4.407936,4.4065895
3.5917954,3.6099353,3.6308846,3.648628,3.6810555,3.7128863,3.757727,3.8095684,3.8574924,3.9201126,3.9658265,4.0167723,4.0525227,4.0805426,4.104847,4.1177793,4.1312237,4.1385174,4.1452627,4.151028,4.1548195,4.1593122,4.162109,4.164811,4.1653,4.1641035,4.160076,4.155136,4.14782,4.1385775,4.1296625,4.1188483,4.111709,4.1030703,4.09571,4.088746,4.080963,4.075737,4.070774,4.0690403,4.0685625,4.0717707,4.0763855,4.084573,4.0925665,4.1015825,4.1099205,4.1150055,4.1201754,4.122916,4.125748,4.1279173,4.1296587,4.131955,4.1337404,4.136207,4.1385674,4.1406355,4.1430373,4.144701,4.146773,4.148467,4.1502085,4.1522527,4.1537933,4.1559057,4.157631,4.159522,4.161528,4.1630564,4.165056,4.1665506,4.1683383,4.17007,4.1714654,4.1730933,4.17416,4.1754026,4.1763477,4.177087,4.1777077,4.1779737,4.1783996,4.178804,4.179201,4.1797357,4.180168,4.180918,4.1817427,4.1827936,4.184476,4.186128,4.1886244,4.190737,4.1932435,4.1956606,4.1974926,4.1995077,4.2007113,4.201874,4.202383,4.202534,4.202195,4.2016478,4.2007904,4.199663,4.198393,4.196007,4.1937456,4.189163,4.183753,4.176985,4.1677847,4.1599665,4.1489186,4.1401396,4.130289,4.121746,4.115719,4.1112747,4.110737,4.1123524,4.1176853,4.1241646,4.1344647,4.142995,4.151128,4.156114,4.160934,4.1646833,4.1661186,4.166253,4.164666,4.1630163,4.158746,4.1533523,4.147048,4.1434774,4.1412897,4.1428776,4.146105,4.1541014,4.162737,4.17418,4.186368,4.196954,4.209773,4.2185426,4.2285833,4.2357173,4.241413,4.2462783,4.2487564,4.2514496,4.253049,4.254688,4.256096,4.2569118,4.2578344,4.2583375,4.2586794,4.2585034,4.258054,4.2570906,4.2561026,4.2547665,4.2534704,4.2524867,4.2516212,4.25128,4.2511334,4.251384,4.2517977,4.252367,4.252755,4.2531395,4.253344,4.2535267,4.2536364,4.2536926,4.2535095,4.2530994,4.252456,4.2514763,4.2506027,4.249212,4.2479906,4.246518,4.245031,4.243821,4.2421103,4.2407207,4.238779,4.236704,4.234621,4.2318277,4.2296653,4.226884,4.2245045,4.222083,4.219012,4.21651,4.212849,4.209675,4.206112,4.2023134,4.1994486,4.195767,4.192998,4.1895304,4.185322,4.1815186,4.1743217,4.167265,4.1569967,4.14645,4.1368103,4.1272297,4.122129,4.1189713,4.1221776,4.128912,4.1480274,4.1688566,4.2059164,4.245244,4.294717,4.352827,4.3979406,4.4492135,4.4802475,4.5114446,4.5323954,4.5447083,4.5544415,4.557597,4.5578165,4.5540338,4.550123,4.5451975,4.5420074,4.5385456,4.536374,4.5348797,4.5331097,4.531491,4.5289183,4.5263867,4.523419,4.5196376,4.5164886,4.5120144,4.508363,4.5039825,4.4994893,4.4959297,4.4914284,4.488213,4.48435,4.4808903,4.4779644,4.4743967,4.471836,4.4686365,4.466016,4.4636364,4.461069,4.4593163,4.457114,4.4554644,4.4538245,4.4521,4.4508,4.449006,4.4475527,4.44582,4.4439526,4.442404,4.4403725,4.43888,4.4372067,4.4357843,4.4346266,4.4332457,4.43227,4.430928,4.4296503,4.4284286,4.4268446,4.425601,4.4238634,4.4222913,4.4205303,4.4183903,4.416704,4.4143896,4.412551,4.41047,4.4083724,4.4067736,4.404691,4.40314,4.401231,4.3993797,4.3977985,4.3958273,4.3944206,4.392771,4.3914294
3.5849094,3.6029177,3.62365,3.6411684,3.6730318,3.7042508,3.7483573,3.7996395,3.8472075,3.909866,3.9559786,4.0082765,4.0459146,4.0758715,4.1017475,4.1150646,4.129167,4.1370335,4.144312,4.150841,4.155449,4.160569,4.1633935,4.1657076,4.165446,4.16368,4.1589375,4.153324,4.1439285,4.1318502,4.1206493,4.1068296,4.0975094,4.087702,4.080511,4.0736146,4.0665646,4.062297,4.0589857,4.0590253,4.0604024,4.0658693,4.072304,4.082258,4.09085,4.0993524,4.1068735,4.1119156,4.1171684,4.1200294,4.122888,4.1250296,4.1267548,4.129032,4.1308126,4.133292,4.1356754,4.137762,4.140165,4.1418104,4.143855,4.145527,4.147253,4.1492968,4.1508503,4.152974,4.1546974,4.15656,4.1585073,4.15998,4.1618986,4.163325,4.1650276,4.1666765,4.168005,4.1695833,4.1706467,4.171894,4.17292,4.173791,4.1747355,4.1753464,4.176176,4.1768994,4.1775923,4.1784377,4.179097,4.179992,4.180787,4.181754,4.183216,4.1846304,4.186795,4.1886578,4.1909113,4.193162,4.194906,4.196925,4.1982164,4.1995335,4.200239,4.200531,4.2004843,4.200247,4.199787,4.1990433,4.1981688,4.1963387,4.194544,4.1907187,4.18591,4.1796083,4.1702356,4.161783,4.1494703,4.1393833,4.12801,4.117426,4.109272,4.102144,4.0998034,4.0994453,4.1036186,4.109519,4.120338,4.1300898,4.1405,4.147502,4.1531086,4.1571302,4.158621,4.158629,4.1563864,4.1529255,4.1465244,4.139916,4.1330156,4.1299286,4.1288853,4.132581,4.137819,4.148858,4.159915,4.17349,4.1872616,4.1995277,4.2135773,4.222497,4.2321997,4.238597,4.243743,4.248029,4.250146,4.252477,4.253877,4.2552867,4.2565703,4.257408,4.258375,4.2589345,4.259353,4.2593327,4.2590647,4.258395,4.257659,4.256631,4.2555656,4.254717,4.253846,4.253373,4.2529593,4.252839,4.2528667,4.2529335,4.252954,4.2528577,4.252656,4.252409,4.2520075,4.2516537,4.2510405,4.2504005,4.24957,4.248481,4.247527,4.2461457,4.2450128,4.2436085,4.2421646,4.2409716,4.2392783,4.2379026,4.235955,4.23392,4.231968,4.2293863,4.2273912,4.2248073,4.222601,4.220388,4.2176075,4.21535,4.21207,4.2092466,4.206091,4.202773,4.200293,4.197196,4.1949444,4.192217,4.188817,4.185649,4.1793003,4.1728864,4.163541,4.1534395,4.1441593,4.132027,4.122714,4.113606,4.1107264,4.111006,4.1215386,4.135151,4.1646013,4.2002397,4.247554,4.308303,4.358974,4.416757,4.452053,4.4894648,4.5162377,4.532305,4.5452366,4.549608,4.551342,4.548405,4.5447826,4.5401587,4.537309,4.5339603,4.5314445,4.529256,4.5263376,4.5237293,4.5204487,4.5177784,4.514614,4.5106335,4.5073013,4.5025067,4.4985547,4.4938345,4.489005,4.4851856,4.480369,4.476939,4.4728255,4.4691606,4.4660716,4.4623313,4.4596663,4.4563518,4.4536614,4.451233,4.448633,4.446868,4.4446526,4.442993,4.4413385,4.4395847,4.438257,4.436398,4.434872,4.4330482,4.431073,4.429433,4.427279,4.4256954,4.423919,4.4224005,4.421158,4.4196515,4.4185705,4.4170704,4.415622,4.414219,4.4124007,4.410982,4.4090176,4.4072757,4.4053593,4.40309,4.401329,4.398941,4.3970766,4.395004,4.392954,4.3914046,4.3893814,4.387866,4.385995,4.3841577,4.3825703,4.380562,4.3791113,4.3773956,4.3759904
3.5766695,3.5945358,3.615152,3.632594,3.664152,3.6949844,3.7385604,3.7895,3.8370545,3.8998594,3.9461665,3.9998033,4.039337,4.0709267,4.098382,4.1125026,4.127734,4.136467,4.1444263,4.1516657,4.1569157,4.1625824,4.165475,4.1674356,4.16636,4.163882,4.1579866,4.1513243,4.1405153,4.126526,4.113214,4.0964665,4.0850077,4.0741806,4.0674343,4.0609827,4.055148,4.0521708,4.050834,4.052748,4.0559855,4.0633383,4.0710554,4.081894,4.090432,4.098326,4.105295,4.110493,4.116051,4.119151,4.1221147,4.124255,4.1259856,4.128292,4.130115,4.1326756,4.135145,4.137304,4.1397514,4.1413937,4.143427,4.1450806,4.146798,4.148845,4.1504097,4.152546,4.1542683,4.156106,4.1579895,4.1593966,4.16121,4.162545,4.1641407,4.165684,4.1669235,4.1684074,4.169417,4.170598,4.1716313,4.1725645,4.1737776,4.174719,4.1759505,4.1770153,4.1780376,4.179255,4.180189,4.181368,4.1823177,4.1834564,4.1849785,4.1863356,4.1883583,4.1900654,4.192133,4.1941853,4.1957674,4.197606,4.1987896,4.2000117,4.2006884,4.2009583,4.2010384,4.2010098,4.200838,4.200408,4.199873,4.1985693,4.19724,4.1941557,4.1899924,4.1843214,4.175268,4.1668196,4.153835,4.142665,4.1298866,4.117259,4.1070237,4.0970535,4.092627,4.0900555,4.092701,4.0975056,4.107871,4.117934,4.12991,4.138686,4.1449633,4.149246,4.1508093,4.1506925,4.1478825,4.142896,4.135028,4.1279364,4.1213274,4.119301,4.119901,4.126069,4.1336355,4.147786,4.1610746,4.1768703,4.192079,4.2052956,4.219826,4.228626,4.237851,4.2435513,4.24813,4.2518344,4.253602,4.2556167,4.256882,4.2581406,4.259393,4.260314,4.261429,4.2621374,4.2627306,4.262951,4.2629223,4.2625885,4.2621093,4.2613726,4.26049,4.2597213,4.258754,4.25807,4.257286,4.256706,4.2562656,4.255744,4.2553415,4.2547154,4.2540913,4.2534103,4.2525234,4.251796,4.250822,4.250025,4.2490883,4.2479563,4.2469616,4.245591,4.2445116,4.2431498,4.2417173,4.240506,4.2387686,4.2373505,4.2353144,4.2332315,4.231319,4.2288656,4.227003,4.2245703,4.222503,4.2204666,4.2179437,4.2159023,4.212943,4.210407,4.207576,4.2046356,4.2024565,4.1998415,4.1980305,4.1959167,4.193163,4.1904097,4.184918,4.179408,4.171461,4.1625767,4.1544247,4.141654,4.130286,4.1166496,4.1079607,4.1022053,4.104166,4.110336,4.13062,4.160293,4.202737,4.263112,4.317032,4.3799763,4.4196873,4.46266,4.4947386,4.5145884,4.5311165,4.537183,4.5407486,4.5387917,4.53563,4.531231,4.528428,4.5250406,4.52221,4.51943,4.5154495,4.511862,4.5075397,4.5042276,4.5004177,4.495841,4.4920893,4.486837,4.482603,4.4775105,4.4722977,4.468176,4.462983,4.4592915,4.454867,4.4509406,4.447644,4.443682,4.440879,4.4374065,4.4346085,4.4320917,4.4294076,4.427585,4.4252954,4.423577,4.4218616,4.42004,4.4186597,4.416707,4.4150877,4.413148,4.4110374,4.4092817,4.4069777,4.4052863,4.4033947,4.401779,4.4004574,4.398838,4.397663,4.396017,4.3944054,4.392826,4.3907795,4.389189,4.387005,4.3851013,4.3830476,4.3806667,4.3788414,4.3763885,4.374488,4.3723755,4.3702917,4.3687167,4.366665,4.3651304,4.363235,4.3613653,4.359743,4.3576794,4.356182,4.3544126,4.352969
3.5702212,3.5879555,3.6084895,3.625895,3.657335,3.6880186,3.7313,3.7820897,3.8298209,3.892809,3.9391665,3.9937475,4.034315,4.0658736,4.0938816,4.1092024,4.125907,4.1357775,4.1448236,4.1528687,4.1583977,4.1644154,4.167488,4.1695347,4.167926,4.1645737,4.156727,4.1482697,4.137267,4.123246,4.108387,4.0897975,4.0773897,4.0661035,4.059717,4.053773,4.0490637,4.047195,4.0473137,4.0503783,4.05466,4.062686,4.070553,4.0810423,4.089135,4.0975385,4.1053095,4.110859,4.116706,4.119896,4.1229305,4.125085,4.1268277,4.1291494,4.1309857,4.133549,4.136017,4.1381774,4.1406364,4.142295,4.144332,4.1459765,4.147681,4.1497135,4.151273,4.1533966,4.1551037,4.1569257,4.158785,4.1601663,4.161938,4.1632376,4.1647882,4.1662884,4.1674914,4.1689453,4.169947,4.1711493,4.172229,4.1731997,4.17447,4.17546,4.1767635,4.1778975,4.1789894,4.1802893,4.1812754,4.1826277,4.1838083,4.1852503,4.1870694,4.1885962,4.190736,4.192437,4.1944256,4.1963015,4.197711,4.199298,4.2002897,4.2013144,4.2019153,4.2022343,4.202413,4.20245,4.2023697,4.2020464,4.201637,4.2005405,4.1994066,4.1965275,4.192569,4.187283,4.178957,4.17138,4.1587486,4.1471205,4.1333494,4.1191983,4.1076965,4.0958824,4.089997,4.0859027,4.087427,4.091356,4.101093,4.111027,4.1229753,4.1319265,4.138465,4.1429863,4.144621,4.144328,4.1412706,4.1363373,4.1285877,4.1214285,4.1152563,4.1140656,4.115988,4.1239834,4.1332035,4.1492243,4.163659,4.1813107,4.19757,4.210307,4.224169,4.232762,4.241892,4.247578,4.2520046,4.255473,4.257055,4.2588797,4.260045,4.261237,4.262454,4.2633543,4.2644615,4.2651815,4.265794,4.2660556,4.2660728,4.2658033,4.2653685,4.2646666,4.263774,4.262972,4.261901,4.2611017,4.2601547,4.25941,4.2588205,4.2581244,4.257598,4.2568207,4.256083,4.25529,4.254294,4.2534933,4.252437,4.2515917,4.250618,4.2494736,4.2484837,4.2471066,4.246013,4.244668,4.243265,4.2420673,4.2403474,4.238942,4.2369285,4.234848,4.232893,4.2304125,4.2285647,4.226145,4.224085,4.2220583,4.219537,4.217488,4.214516,4.2119656,4.209115,4.2061505,4.203949,4.201311,4.199488,4.1973524,4.194609,4.1918364,4.1866655,4.1816645,4.1743145,4.166052,4.1584463,4.14693,4.1370306,4.121418,4.108366,4.098897,4.095907,4.0980396,4.111845,4.1361046,4.1740546,4.232259,4.286004,4.351817,4.3955493,4.4406824,4.4743867,4.4963665,4.5160465,4.524556,4.5299983,4.5287924,4.526152,4.521764,4.5185738,4.5147753,4.5116167,4.508621,4.5042505,4.500252,4.494937,4.4905396,4.485706,4.480202,4.475856,4.4701552,4.4658117,4.4604797,4.455012,4.450687,4.4452333,4.441352,4.436695,4.4325686,4.429115,4.424982,4.4220695,4.4184637,4.4155626,4.412959,4.410181,4.4082932,4.4059134,4.4041204,4.402331,4.400425,4.398982,4.3969193,4.395195,4.3931303,4.3908925,4.389041,4.3866196,4.384848,4.382867,4.381174,4.3797874,4.378081,4.376836,4.375086,4.373362,4.3716664,4.369471,4.3677683,4.365438,4.363433,4.361314,4.3588924,4.3570414,4.354555,4.3526306,4.350483,4.3483562,4.3467445,4.3446417,4.34307,4.3411293,4.339223,4.3375754,4.3354864,4.3339744,4.3321924,4.3307495
3.5613527,3.5789626,3.5995066,3.616982,3.648481,3.6791596,3.722249,3.7729642,3.821011,3.8841987,3.9304743,3.9854126,4.026656,4.0587535,4.088132,4.105076,4.1234035,4.1342936,4.144481,4.153489,4.1594806,4.165937,4.169138,4.17115,4.1690083,4.1650085,4.1555004,4.1452494,4.1322494,4.116698,4.1010337,4.081698,4.0688753,4.0575185,4.0518217,4.0471406,4.0441327,4.0433884,4.04491,4.048991,4.0542016,4.0627584,4.0705986,4.0812182,4.0896215,4.09877,4.1073275,4.1132336,4.119358,4.122616,4.125677,4.1277742,4.1294584,4.1316977,4.1334724,4.135952,4.138345,4.1404476,4.1428494,4.1444764,4.1464686,4.1480794,4.1497545,4.1517696,4.153328,4.1554513,4.157158,4.1589813,4.1608343,4.1622057,4.163949,4.1652184,4.166745,4.16823,4.169419,4.1708736,4.171892,4.173128,4.17426,4.1752853,4.1766386,4.1776986,4.1791124,4.1803603,4.18157,4.1830235,4.1841254,4.185706,4.1871305,4.188865,4.190983,4.1927023,4.195017,4.1967793,4.19879,4.200617,4.2019625,4.2034473,4.204359,4.205309,4.2058973,4.2062674,4.206519,4.2065954,4.206564,4.206307,4.205993,4.205103,4.2041864,4.2015905,4.197883,4.1929216,4.184992,4.1777763,4.1652613,4.1533904,4.1392546,4.124052,4.111197,4.0968485,4.0886335,4.0821524,4.0819206,4.0845785,4.093275,4.1027994,4.1142836,4.123099,4.1298246,4.1345882,4.136284,4.1359353,4.1327662,4.127719,4.120226,4.113565,4.108515,4.108662,4.1125727,4.123215,4.1349225,4.153426,4.1690187,4.187808,4.2046394,4.2176557,4.2316847,4.2403283,4.249459,4.2550106,4.259197,4.262327,4.263668,4.2652636,4.266326,4.2674584,4.268652,4.269535,4.27063,4.271346,4.271949,4.272195,4.2721987,4.2718906,4.2714043,4.27061,4.2695723,4.268622,4.2673054,4.2662897,4.2650623,4.264062,4.2632475,4.2623014,4.261607,4.260629,4.2597475,4.2588162,4.257694,4.256814,4.2556705,4.254778,4.2537713,4.2526255,4.2516565,4.2502713,4.2491446,4.2477665,4.246349,4.245164,4.2434597,4.2420597,4.240066,4.2379913,4.2360115,4.233477,4.2315817,4.2291503,4.227124,4.2251463,4.22268,4.220665,4.217721,4.2151737,4.2123075,4.2092857,4.2070193,4.2042685,4.202345,4.2000895,4.197276,4.194457,4.189499,4.1848545,4.177931,4.1700315,4.1624966,4.1518116,4.1432056,4.129023,4.1153584,4.101958,4.0921135,4.0888324,4.0943265,4.111334,4.141485,4.193969,4.245329,4.312784,4.3614197,4.4135914,4.453149,4.476798,4.4969316,4.50492,4.5094867,4.507707,4.5056562,4.5015206,4.497843,4.4937096,4.4903936,4.4872093,4.482743,4.478843,4.4728723,4.4674473,4.4617453,4.4554615,4.450645,4.4443417,4.4395556,4.433726,4.4277887,4.4230967,4.417204,4.413027,4.408024,4.4036055,4.399908,4.395506,4.3924217,4.3886185,4.3855534,4.382778,4.3797503,4.3776455,4.374932,4.3728194,4.3706675,4.368338,4.3665547,4.3641443,4.36224,4.3599873,4.357606,4.3556557,4.3531313,4.3513002,4.3492546,4.347507,4.3460703,4.3442917,4.342989,4.3411536,4.3393393,4.3375463,4.335228,4.3334336,4.331002,4.328896,4.326584,4.3239284,4.3219295,4.3192463,4.317172,4.3148737,4.3126125,4.3109007,4.308693,4.3070655,4.3050747,4.3031588,4.3015184,4.299484,4.2980423,4.296405,4.2951584
3.5545805,3.5721297,3.5927598,3.6103702,3.6420608,3.6728702,3.7159681,3.7667217,3.8150415,3.8783367,3.9244537,3.9790006,4.0202417,4.0532227,4.084035,4.102045,4.121231,4.132497,4.143264,4.1528835,4.1592956,4.1660604,4.1692686,4.17113,4.168719,4.1646194,4.1546736,4.1436806,4.128047,4.1102977,4.094881,4.0762033,4.063734,4.0527296,4.0476465,4.044212,4.0425005,4.0422974,4.044443,4.048913,4.0544987,4.0632677,4.0710354,4.082281,4.091584,4.101276,4.110138,4.1162167,4.1224675,4.1257424,4.128778,4.130783,4.132374,4.1344833,4.1361628,4.1385236,4.1408157,4.1428356,4.1451464,4.1467094,4.148632,4.150199,4.15184,4.153839,4.1553984,4.1575294,4.159248,4.161086,4.1629534,4.1643324,4.1660757,4.167339,4.1688743,4.1703763,4.1715775,4.1730614,4.17411,4.175374,4.1765366,4.1776047,4.1790323,4.1801577,4.181676,4.183033,4.184359,4.1859694,4.1872015,4.1889496,4.1905003,4.19236,4.194606,4.1964307,4.198872,4.200721,4.202834,4.2047596,4.2061787,4.207762,4.2087474,4.2097845,4.2104306,4.210824,4.211088,4.2111697,4.211135,4.21089,4.2106123,4.209846,4.209076,4.2067266,4.203209,4.1983604,4.19027,4.1826715,4.1698914,4.1580353,4.1442137,4.1289086,4.1153803,4.099247,4.089142,4.0807314,4.0790734,4.0807724,4.0886016,4.0976715,4.108528,4.116987,4.123726,4.128606,4.1303205,4.1300707,4.1269894,4.1217504,4.1145163,4.1086144,4.104722,4.1059556,4.1114197,4.1240573,4.1376767,4.1579027,4.1740694,4.1928277,4.2096305,4.223611,4.2385726,4.247467,4.256646,4.2619705,4.265931,4.2687807,4.2699366,4.271366,4.2723665,4.273464,4.2746468,4.275523,4.2766056,4.2773075,4.277882,4.2780714,4.2780175,4.2776017,4.277008,4.2760563,4.2748265,4.2736993,4.272127,4.2709064,4.2694206,4.268198,4.2671866,4.2660284,4.265197,4.264058,4.2630663,4.2620306,4.260816,4.259881,4.2586813,4.257763,4.2567425,4.255604,4.2546577,4.2532706,4.2521157,4.250678,4.2492113,4.2480254,4.24632,4.244911,4.242917,4.240845,4.238877,4.236309,4.2343435,4.2318954,4.2299147,4.228001,4.225621,4.223665,4.220789,4.218274,4.215423,4.212365,4.210039,4.2071657,4.205121,4.2027273,4.19981,4.1969466,4.191967,4.1873274,4.1804276,4.172436,4.164483,4.1536217,4.1452055,4.1345696,4.1240034,4.108787,4.0941143,4.0868735,4.0866838,4.098539,4.121762,4.168029,4.216094,4.2830696,4.334785,4.3947663,4.441017,4.465085,4.4828873,4.4877567,4.489269,4.485904,4.484028,4.480183,4.4762883,4.4721236,4.468892,4.4656334,4.461357,4.4579277,4.4519787,4.446197,4.4402924,4.433839,4.428951,4.422255,4.416968,4.410685,4.40434,4.399323,4.39305,4.388623,4.3833356,4.3786755,4.3747673,4.370126,4.3668838,4.3628993,4.359673,4.3567133,4.3533907,4.3510194,4.3479004,4.3454037,4.3428164,4.339978,4.337783,4.3349814,4.332904,4.330482,4.327996,4.32598,4.323404,4.32156,4.3195086,4.317769,4.31634,4.3145685,4.313267,4.311429,4.309602,4.3077884,4.305437,4.3036184,4.301178,4.2990284,4.296525,4.2936077,4.291443,4.2885385,4.2863016,4.283845,4.281453,4.279647,4.2773504,4.2756844,4.273673,4.2717824,4.2701797,4.268254,4.2669353,4.265523,4.2645655
3.5453799,3.5627713,3.583451,3.6012254,3.6331577,3.6641405,3.707345,3.758247,3.8069162,3.8703923,3.9163902,3.970644,4.0119286,4.0457973,4.077623,4.09601,4.1159945,4.1280913,4.139678,4.150096,4.1570225,4.1642027,4.1674643,4.1691856,4.16632,4.161707,4.1512794,4.1399775,4.1229596,4.1037216,4.087508,4.069067,4.0576463,4.0472517,4.0424924,4.0395465,4.038597,4.039052,4.0420203,4.0471573,4.0534286,4.0628967,4.0710964,4.0831156,4.0931425,4.1035614,4.1130157,4.1194315,4.1259503,4.129294,4.132354,4.1343117,4.135862,4.1379085,4.139536,4.1418285,4.1440563,4.146022,4.148259,4.149763,4.1516,4.153094,4.1546645,4.156595,4.1581125,4.1602025,4.161905,4.1637316,4.1656046,4.166996,4.1687603,4.17004,4.171588,4.1731005,4.1743126,4.1758204,4.176893,4.1781864,4.179386,4.180495,4.1819963,4.1831903,4.184825,4.1863194,4.1877947,4.189616,4.1910286,4.1930304,4.194793,4.19687,4.19933,4.2013083,4.20391,4.205842,4.2080326,4.2099895,4.2114134,4.2129827,4.2139454,4.21496,4.2155895,4.215963,4.2162285,4.2163324,4.2163477,4.2161975,4.2160535,4.215556,4.215058,4.2130966,4.2098784,4.205328,4.1972017,4.1892543,4.1759367,4.1635714,4.1488037,4.1328106,4.119529,4.102681,4.091175,4.081172,4.078171,4.079009,4.085949,4.0944405,4.1040163,4.111429,4.1180015,4.123008,4.1247816,4.1246195,4.121824,4.1174383,4.1113214,4.1060953,4.103183,4.1053143,4.112187,4.1264167,4.141285,4.162388,4.1787424,4.198885,4.2173448,4.2324095,4.2479215,4.256623,4.2655373,4.2705173,4.2741823,4.276657,4.277521,4.2786603,4.2795105,4.2804937,4.281603,4.2824383,4.2834916,4.2841883,4.284751,4.284918,4.2848415,4.284358,4.2836804,4.282591,4.2811685,4.279854,4.2779922,4.2765284,4.2747297,4.273223,4.2719574,4.2705197,4.2695055,4.268158,4.267031,4.2658763,4.2645683,4.263583,4.2623386,4.261407,4.2603836,4.25926,4.258333,4.256963,4.255809,4.2543564,4.252846,4.2516007,4.249818,4.248358,4.2463093,4.2442203,4.2422676,4.2397366,4.2378016,4.2353783,4.233407,4.2314987,4.2291265,4.2271757,4.224354,4.221907,4.2191057,4.2160378,4.213663,4.210646,4.2084274,4.2057805,4.2025824,4.1994963,4.194261,4.189458,4.1823874,4.1741986,4.165956,4.1547146,4.146026,4.1353197,4.1250653,4.1114225,4.095478,4.0840864,4.078165,4.084513,4.099306,4.1371737,4.1802254,4.2461677,4.301278,4.3654513,4.4152174,4.44051,4.4575434,4.460309,4.459486,4.45414,4.450617,4.4464693,4.443718,4.4401617,4.4369664,4.4336767,4.4292207,4.4256134,4.4194183,4.4134483,4.407406,4.400864,4.3959436,4.3891187,4.383671,4.377262,4.370713,4.365428,4.3587217,4.3539267,4.348175,4.343067,4.3387794,4.333659,4.330063,4.3255777,4.3218646,4.318429,4.314472,4.311575,4.307887,4.305041,4.302148,4.2990093,4.296587,4.2933693,4.290888,4.2880116,4.2850876,4.2827435,4.279854,4.2778807,4.2757998,4.2741985,4.2729597,4.2714596,4.270355,4.268711,4.266962,4.265145,4.262702,4.2607775,4.2582,4.2559776,4.253513,4.2506704,4.2485247,4.2457037,4.2435627,4.2411747,4.2388115,4.2370048,4.234684,4.2329893,4.2309575,4.229083,4.2275133,4.2257147,4.224554,4.2234173,4.222803
3.5364423,3.553597,3.574233,3.592123,3.6242647,3.655425,3.6988065,3.7498894,3.7988086,3.8623571,3.9081988,3.9621787,4.0034256,4.037904,4.0700693,4.088111,4.1084814,4.1214,4.1336517,4.1447163,4.15207,4.159629,4.1629853,4.1646605,4.161457,4.156361,4.1456547,4.1344185,4.1173916,4.097865,4.0807705,4.0625477,4.0524273,4.042738,4.038093,4.0351267,4.034428,4.0353737,4.038973,4.044693,4.0515804,4.061964,4.071047,4.083987,4.0945263,4.1054363,4.115305,4.1220527,4.12885,4.132276,4.135393,4.1373525,4.1389093,4.1409483,4.142559,4.14482,4.147008,4.1489367,4.1511154,4.152566,4.1543245,4.15574,4.1572285,4.159067,4.1605186,4.1625376,4.1641994,4.1659956,4.167863,4.169266,4.1710644,4.1723785,4.173951,4.1754847,4.1767178,4.178253,4.179349,4.1806726,4.181905,4.1830435,4.184599,4.1858435,4.187573,4.189187,4.190798,4.1928225,4.1944075,4.1966586,4.1986303,4.2009234,4.203594,4.2057204,4.208478,4.2104936,4.21276,4.2147503,4.216181,4.2177343,4.2186713,4.2196646,4.2202888,4.2206626,4.2209783,4.221157,4.221306,4.221338,4.221408,4.22126,4.221082,4.219545,4.216637,4.212409,4.2042828,4.1960573,4.1820393,4.1688404,4.1526146,4.135642,4.1226463,4.105878,4.0940475,4.083486,4.0798078,4.080166,4.086211,4.093805,4.1019974,4.108373,4.1146297,4.119644,4.1214843,4.1214476,4.119069,4.115925,4.111289,4.106859,4.104727,4.107286,4.11488,4.1296945,4.144703,4.166054,4.1828213,4.2049894,4.225686,4.241748,4.2576227,4.2660527,4.274523,4.2789936,4.282299,4.284356,4.284898,4.2856774,4.286296,4.28707,4.287995,4.2887044,4.289629,4.290253,4.2907352,4.290826,4.290694,4.2901144,4.2893405,4.2881055,4.286497,4.2850075,4.2828827,4.281203,4.2791214,4.2773566,4.2758574,4.2741613,4.272975,4.271435,4.2701874,4.2689323,4.267555,4.266541,4.265277,4.264348,4.263336,4.2622347,4.2613244,4.259981,4.258848,4.257413,4.255877,4.2545643,4.252697,4.2511873,4.249094,4.2470016,4.245077,4.242634,4.240793,4.2384434,4.236495,4.2345934,4.232217,4.230261,4.2274647,4.225052,4.222266,4.2191525,4.216709,4.2134843,4.2110085,4.2079754,4.2042894,4.2007723,4.19495,4.1897054,4.1821427,4.1735682,4.1650763,4.153344,4.144134,4.131547,4.120287,4.10971,4.0955076,4.082217,4.073004,4.0753136,4.083511,4.113365,4.1502895,4.2123423,4.2676334,4.331373,4.3810186,4.4064684,4.4226975,4.4240723,4.421954,4.4152737,4.40983,4.404557,4.40219,4.398572,4.3951716,4.3919373,4.387368,4.3834,4.3772564,4.3716865,4.365988,4.3598075,4.35513,4.3486423,4.343445,4.337271,4.3308067,4.3254824,4.318593,4.313575,4.307515,4.302072,4.2974987,4.291996,4.2881026,4.2831707,4.2790155,4.2751656,4.27068,4.267355,4.26322,4.2601347,4.2570925,4.2538643,4.25139,4.247935,4.2451496,4.2419434,4.238722,4.2361784,4.233126,4.2311144,4.229092,4.2276945,4.226698,4.2255425,4.2246943,4.223345,4.2217975,4.2201176,4.2177877,4.2159243,4.213437,4.211366,4.2092543,4.2068734,4.2050285,4.202629,4.2008123,4.1987276,4.1965933,4.194929,4.192747,4.191124,4.189185,4.1874237,4.1859674,4.18439,4.183447,4.1826367,4.1823807
3.5284133,3.5453155,3.5658445,3.5837922,3.6160765,3.6473713,3.6908865,3.7420297,3.7909496,3.8543785,3.9000506,3.9536872,3.994809,4.0297976,4.062213,4.079877,4.1004734,4.1140084,4.1267395,4.138283,4.145965,4.1538386,4.1573124,4.1590195,4.155671,4.150378,4.1392765,4.127715,4.1108255,4.09156,4.0742345,4.0564413,4.047252,4.0381446,4.033764,4.031151,4.030943,4.0322914,4.0363703,4.0424595,4.0495715,4.0606837,4.070842,4.084964,4.0961223,4.1071987,4.117094,4.124121,4.1311054,4.1345196,4.1376266,4.139567,4.141135,4.1431646,4.1447463,4.1469603,4.14909,4.1509657,4.153077,4.154481,4.1561737,4.15753,4.158953,4.1607165,4.162115,4.1640673,4.1656866,4.1674447,4.1692953,4.1707,4.1725135,4.17385,4.175452,4.177019,4.178278,4.1798487,4.1809697,4.1823215,4.1835804,4.184743,4.1863375,4.187619,4.189419,4.191124,4.1928425,4.1950316,4.1967587,4.199211,4.2013526,4.2038255,4.2066736,4.2089252,4.2118254,4.213928,4.2162857,4.2183485,4.2198305,4.2214375,4.2224083,4.223457,4.2241564,4.2246056,4.225063,4.225377,4.225734,4.2259965,4.2263126,4.2265215,4.2266507,4.2255096,4.2228775,4.2188993,4.2107916,4.202428,4.1877856,4.1737814,4.1566467,4.1386666,4.124681,4.107464,4.0959387,4.0854936,4.0816064,4.081563,4.086319,4.0924273,4.099601,4.105672,4.1116095,4.116495,4.1183853,4.118532,4.1165485,4.1141143,4.1107354,4.107599,4.1064873,4.109304,4.1172767,4.1322336,4.146947,4.169024,4.1872196,4.211128,4.2332745,4.2501483,4.2665634,4.2750945,4.28312,4.2868614,4.289749,4.2913723,4.2915998,4.292,4.2923417,4.292844,4.2934895,4.293997,4.2946773,4.2951355,4.295438,4.2953606,4.295108,4.294361,4.293455,4.292042,4.2902384,4.288575,4.2862086,4.284337,4.282008,4.2800207,4.2783213,4.2764025,4.275065,4.273354,4.2719984,4.270654,4.269218,4.2681785,4.2668996,4.2659774,4.2649817,4.263909,4.263023,4.2617087,4.260592,4.2591705,4.257638,4.2563205,4.2544518,4.2529497,4.250887,4.248843,4.2469616,4.244589,4.242814,4.240558,4.2386894,4.236862,4.2345448,4.232622,4.2297955,4.227296,4.2244024,4.2211237,4.218541,4.215,4.212173,4.208664,4.204401,4.200365,4.1938105,4.187998,4.179829,4.1708536,4.162117,4.1501846,4.140869,4.127902,4.1164894,4.1066523,4.0931053,4.0799675,4.068675,4.067281,4.070896,4.093979,4.124281,4.1791887,4.2310314,4.294792,4.345402,4.3692026,4.382407,4.381301,4.3780518,4.371399,4.3659987,4.3590593,4.3539996,4.348218,4.344124,4.341009,4.336831,4.3328805,4.3273454,4.3226423,4.317727,4.3122854,4.3080835,4.302155,4.2972965,4.291342,4.2849708,4.2797394,4.272908,4.267885,4.261788,4.256262,4.251606,4.245962,4.241942,4.236828,4.232505,4.2285156,4.2238526,4.2203865,4.215955,4.212578,4.2093115,4.205891,4.203281,4.1997137,4.1969213,4.193793,4.190793,4.1885147,4.1857843,4.1839714,4.1821337,4.180853,4.1799407,4.178894,4.178136,4.176962,4.175664,4.1742783,4.1724024,4.170922,4.168994,4.167437,4.1658773,4.16414,4.1628046,4.1609755,4.1595078,4.15779,4.1559715,4.1545324,4.152617,4.1511793,4.149473,4.1479607,4.146738,4.145503,4.144841,4.1444163,4.1445417
