27.25914,27.234444,27.201912,27.161171,27.113432,27.037037,26.948177,26.87143,26.768566,26.657051,26.567238,26.473503,26.375761,26.29402,26.218147,26.12096,26.013725,25.904257,25.743458,25.554382,25.38095,25.156681,24.90242,24.684227,24.459679,24.229153,24.041172,23.862494,23.657955,23.477314,23.328651,23.16269,23.016966,22.907797,22.798134,22.710022,22.655994,22.616177,22.586044,22.55827,22.523293,22.440495,22.306213,22.150452,21.949728,21.629253,21.22498,20.721336,20.228918,19.897423,19.58459,19.311775,19.135504,19.003769,18.863312,18.746025,18.660725,18.556595,18.446522,18.350128,18.23207,18.101673,17.991722,17.881409,17.738338,17.582054,17.408005,17.212208,17.046183,16.915749,16.783415,16.684296,16.626461,16.57357,16.534916,16.511812,16.489017,16.461498,16.433762,16.407255,16.373108,16.34129,16.317993,16.296349,16.283058,16.278006,16.275295,16.274765,16.27396,16.271095,16.26259,16.247677,16.228647,16.198986,16.164665,16.134632,16.098742,16.065092,16.041958,16.020626,16.003653,15.9939165,15.987241,15.981962,15.97893,15.977151,15.976519,15.978439,15.981563,16.006332,16.049446,16.090519,16.132378,16.179768,16.220646,16.25665,16.285192,16.304157,16.322514,16.372717,16.43768,16.486618,16.540483,16.593962,16.636871,16.683956,16.728758,16.759514,16.786201,16.80804,16.819357,16.825956,16.82956,16.827381,16.821575,16.787243,16.746096,16.719128,16.686817,16.604603,16.493378,16.396646,16.26685,16.121084,15.981232,15.77956,15.576174,15.434187,15.235933,15.051539,14.9521885,14.931348,14.827461,14.644147,14.486583,14.289055,14.1032505,13.956925,13.844141,13.750504,13.657099,13.688801,13.4508705,12.639893,10.627118,8.101514,6.4268126,5.877537,5.718787,5.826197,5.864198,5.895602,5.8933663,5.862499,5.831791,5.6378803,5.9421997,6.2428923,19.982914,35.530506,33.453278,32.464012,32.766792,32.58258,31.919949,31.17503,30.816326,30.608982,30.798672,31.170567,31.271652,31.166721,30.937405,30.76019,30.542652,30.335415,30.176792,30.05048,29.936771,29.81873,29.652866,29.344614,28.984375,28.65747,28.310871,28.021427,27.776733,27.505615,27.169415,26.792671,26.394382,26.00997,25.72189,25.455053,25.183735,24.966904,24.79209,24.614857,24.478958,24.382145,24.270542,24.166985,24.088402,24.000675,23.912537,23.843283,23.776176,23.705204,23.64724,23.600065,23.547768,23.5009,23.462181,23.418497,23.376736,23.343866,23.313046,23.286154,23.26732,23.252357,23.233438,23.216331,23.206718,23.196445,23.18882,23.185284,23.175774,23.16113,23.146456,23.12432,23.093327,23.059439,23.01154,22.959892,22.921364,22.891006,22.857462,22.82409,22.793007,22.753525,22.710632,22.675034,22.635994,22.594639,22.560472,22.528223,22.489502,22.45377,22.423979,22.392078,22.364979,22.344563,22.32412,22.309956,22.30333,22.294222,22.285645,22.280182,22.275986,22.271656,22.267414,22.26296,22.257118,22.252548,22.250753,22.24827,22.238512,22.223057,22.206413,22.186253,22.167854,22.150751,22.131817,22.11623,22.104752,22.092102,22.081593,22.074657,22.066872,22.06176,22.060926,22.06236,22.066742,22.070835,22.072338,22.069328
27.324623,27.301529,27.27082,27.233528,27.189522,27.11844,27.03437,26.960358,26.860645,26.752468,26.665607,26.574833,26.479069,26.397802,26.321903,26.223713,26.115381,26.006014,25.844568,25.652452,25.474384,25.231834,24.960068,24.737194,24.507912,24.276901,24.092922,23.92109,23.72543,23.550121,23.401686,23.229313,23.072899,22.955019,22.835571,22.736553,22.671513,22.611069,22.558651,22.514668,22.460812,22.362732,22.23619,22.12069,21.90761,21.564558,21.179491,20.692883,20.20087,19.853241,19.530403,19.248558,19.061457,18.908398,18.749306,18.618832,18.518335,18.39986,18.278557,18.173752,18.046253,17.902893,17.778402,17.652496,17.476187,17.29022,17.119,16.938416,16.79287,16.680197,16.564524,16.47487,16.419403,16.36782,16.329748,16.307594,16.286186,16.260689,16.234898,16.210085,16.176662,16.143711,16.118317,16.092354,16.072224,16.06012,16.04959,16.040318,16.032026,16.022036,16.006063,15.984542,15.958773,15.921776,15.881357,15.846712,15.807558,15.778248,15.76512,15.749884,15.734858,15.723625,15.7151785,15.706823,15.700686,15.696519,15.694487,15.699295,15.70902,15.744953,15.800559,15.850566,15.902459,15.959784,16.01039,16.05998,16.117716,16.172836,16.224468,16.285297,16.343307,16.38949,16.440504,16.491821,16.533152,16.574263,16.614952,16.645374,16.67134,16.688877,16.692448,16.690498,16.688047,16.676363,16.655117,16.599575,16.525864,16.465288,16.402678,16.301527,16.183918,16.074507,15.936318,15.80667,15.70982,15.56797,15.376513,15.182646,14.989109,14.815248,14.701685,14.64838,14.52517,14.315475,14.0649185,13.744541,13.489534,13.360259,13.282584,13.207776,13.109681,13.410018,13.207544,12.180481,10.476702,8.198299,6.523738,5.916518,5.7342663,5.8475227,5.8752685,5.9045835,5.905312,5.8771133,5.861573,5.7000184,5.9416084,5.6574507,19.549152,35.755234,33.744957,32.72706,32.967155,32.767216,32.090298,31.349705,31.003094,30.723932,30.876942,31.27942,31.387192,31.279228,31.04137,30.858973,30.63734,30.425512,30.260532,30.1297,30.013206,29.891644,29.708187,29.382145,29.01359,28.681286,28.328787,28.036007,27.79531,27.49545,27.13341,26.766216,26.379105,26.00579,25.724392,25.470705,25.196684,24.967422,24.799778,24.630589,24.499146,24.404766,24.295109,24.193249,24.116535,24.030869,23.945034,23.877857,23.813034,23.74457,23.68869,23.64339,23.592964,23.547424,23.509464,23.46846,23.4273,23.391212,23.355488,23.32463,23.304592,23.288143,23.26902,23.25246,23.242308,23.23144,23.222933,23.218088,23.206738,23.190342,23.17466,23.152044,23.121605,23.089128,23.043497,22.994776,22.95866,22.929937,22.897934,22.865923,22.836159,22.798046,22.756706,22.72263,22.685265,22.645569,22.612612,22.581398,22.543777,22.509136,22.481346,22.445057,22.410458,22.385834,22.360691,22.340712,22.32831,22.314003,22.302158,22.296202,22.292368,22.290066,22.288742,22.286592,22.285255,22.285833,22.287682,22.29057,22.291628,22.28873,22.278833,22.261524,22.243599,22.227898,22.210058,22.19506,22.184195,22.171995,22.161499,22.15427,22.145962,22.140179,22.13879,22.139673,22.14333,22.146704,22.14758,22.143898
27.385464,27.36242,27.333649,27.301182,27.262556,27.198902,27.121025,27.050013,26.952951,26.846401,26.760365,26.670387,26.574816,26.49319,26.41677,26.318459,26.211393,26.104713,25.950178,25.76004,25.573631,25.324837,25.04494,24.812508,24.577229,24.343163,24.15862,23.986458,23.795124,23.6253,23.478168,23.303362,23.142208,23.02087,22.894579,22.789228,22.721027,22.655159,22.591108,22.533665,22.47089,22.361301,22.224434,22.104164,21.868797,21.512712,21.142056,20.668358,20.173925,19.808674,19.472055,19.171864,18.96415,18.787125,18.604462,18.456142,18.339954,18.205845,18.073608,17.963009,17.82919,17.673248,17.531145,17.381897,17.182814,16.984772,16.811256,16.621254,16.462742,16.342056,16.21769,16.124853,16.072617,16.025648,15.992594,15.97374,15.955477,15.933783,15.911716,15.890475,15.860598,15.829435,15.804148,15.77622,15.750881,15.732334,15.713802,15.694536,15.677137,15.658144,15.632738,15.608553,15.590672,15.564574,15.535051,15.509363,15.479837,15.457703,15.448,15.434795,15.425666,15.423096,15.420588,15.418047,15.417156,15.41819,15.424551,15.440702,15.462299,15.499132,15.547939,15.591773,15.637996,15.68837,15.733016,15.778243,15.840006,15.902259,15.9552,16.003649,16.039131,16.065594,16.091705,16.111324,16.122335,16.132832,16.144003,16.152409,16.157852,16.150843,16.131165,16.109201,16.085829,16.055859,16.020542,15.960334,15.898466,15.855494,15.796835,15.682108,15.541268,15.41523,15.246253,15.069942,14.918797,14.720221,14.477852,14.2449665,14.032869,13.854914,13.733292,13.634651,13.462402,13.216747,12.918659,12.570297,12.340952,12.27495,12.314775,12.389525,12.41585,12.857578,12.706055,11.685654,10.2752,8.240515,6.608059,5.956893,5.7554235,5.8737755,5.8954763,5.9183617,5.91752,5.894183,5.8968496,5.7751083,5.9628453,5.10569,19.12521,35.968105,34.076145,33.021843,33.162956,32.947468,32.255993,31.512146,31.16807,30.865788,31.0145,31.431002,31.514736,31.38987,31.150148,30.963985,30.740772,30.529705,30.365831,30.230145,30.107208,29.980722,29.779697,29.434998,29.056133,28.71682,28.357067,28.060678,27.825665,27.487598,27.094265,26.74633,26.372606,26.010273,25.735275,25.48339,25.205997,24.974289,24.813873,24.652565,24.525478,24.432434,24.32494,24.22548,24.150623,24.067282,23.984116,23.919277,23.856937,23.791203,23.737616,23.694363,23.64592,23.602232,23.56667,23.522861,23.475395,23.43428,23.395046,23.362402,23.341877,23.32471,23.3064,23.291557,23.282251,23.271515,23.26218,23.256138,23.243149,23.225872,23.210608,23.18925,23.16151,23.132238,23.090046,23.044945,23.011435,22.984528,22.954037,22.923111,22.89434,22.857046,22.816555,22.783413,22.747227,22.70876,22.676878,22.647377,22.61141,22.576279,22.545103,22.50409,22.465145,22.437815,22.408615,22.382198,22.362753,22.341595,22.323702,22.314114,22.307644,22.30379,22.302578,22.301361,22.301697,22.30472,22.309113,22.317091,22.32861,22.338078,22.339647,22.332306,22.320276,22.308605,22.295303,22.283148,22.272224,22.259926,22.24899,22.24105,22.231798,22.225239,22.223495,22.223907,22.22684,22.22945,22.229717,22.225386
27.43451,27.411945,27.385523,27.35643,27.321228,27.26169,27.187119,27.11806,27.021997,26.914642,26.82689,26.73559,26.638805,26.556473,26.479996,26.383173,26.27938,26.17729,26.029758,25.836796,25.633099,25.380527,25.096321,24.850399,24.600105,24.341312,24.12996,23.935131,23.724909,23.54412,23.388956,23.202827,23.027447,22.891922,22.745502,22.623384,22.550186,22.494425,22.449966,22.412775,22.376848,22.287575,22.144321,21.988562,21.747673,21.404745,21.037151,20.56921,20.078049,19.70974,19.35892,19.033394,18.800339,18.604666,18.394299,18.21777,18.081408,17.926575,17.78184,17.66826,17.535217,17.381367,17.239319,17.08518,16.900152,16.727592,16.567696,16.371529,16.189953,16.047848,15.900253,15.793619,15.7399845,15.695638,15.666616,15.64951,15.633088,15.613258,15.592306,15.571413,15.540478,15.5067215,15.47852,15.446043,15.414752,15.390521,15.364092,15.335415,15.309968,15.282367,15.249117,15.226194,15.222434,15.215892,15.206595,15.1981735,15.185886,15.168956,15.152153,15.133596,15.124612,15.126669,15.125128,15.121498,15.11849,15.118053,15.123247,15.137156,15.155245,15.17264,15.193692,15.215891,15.23929,15.265049,15.2877445,15.310408,15.34072,15.367345,15.38269,15.403261,15.419047,15.4243965,15.423511,15.407648,15.383073,15.353931,15.31769,15.283787,15.2519,15.205763,15.155098,15.110027,15.057238,15.006504,14.966221,14.913167,14.88447,14.882305,14.845419,14.715393,14.535355,14.387136,14.178412,13.925926,13.665411,13.341634,13.0352955,12.818964,12.588404,12.398655,12.283627,12.176274,11.987556,11.749878,11.512048,11.272919,11.1447315,11.12102,11.256822,11.528566,11.784873,12.220163,12.099199,11.258073,10.07015,8.226326,6.6589246,5.986861,5.7743616,5.897045,5.9212675,5.937422,5.9328256,5.9164505,5.931772,5.846036,6.002947,4.710402,18.813995,36.143845,34.400513,33.31498,33.342876,33.110214,32.404236,31.652235,31.30375,31.013355,31.176983,31.591793,31.637993,31.491272,31.253643,31.06528,30.842106,30.635376,30.478363,30.339033,30.206367,30.071507,29.858105,29.497955,29.106823,28.760012,28.39288,28.092278,27.860039,27.492779,27.075108,26.73949,26.375406,26.022526,25.752426,25.48919,25.208454,24.98616,24.831541,24.676155,24.552502,24.459917,24.354404,24.257414,24.18414,24.103,24.022339,23.959572,23.899298,23.835798,23.784107,23.742565,23.696085,23.653557,23.6185,23.567013,23.510435,23.466442,23.428085,23.397655,23.378023,23.361801,23.344109,23.329338,23.319912,23.308884,23.299093,23.292538,23.278843,23.261856,23.248096,23.22913,23.205235,23.179861,23.141115,23.099089,23.067514,23.042088,23.012814,22.982714,22.95465,22.918083,22.87827,22.845692,22.810198,22.77249,22.741158,22.712128,22.675976,22.638252,22.600676,22.557938,22.520271,22.492405,22.460884,22.430305,22.406574,22.380623,22.356504,22.34096,22.329185,22.319645,22.31433,22.310787,22.309204,22.312393,22.318798,22.33123,22.347834,22.361416,22.37242,22.377232,22.37463,22.36895,22.36264,22.355362,22.34539,22.333992,22.32381,22.316538,22.307928,22.301659,22.299814,22.300156,22.302807,22.305048,22.305069,22.300442
27.481216,27.458479,27.432217,27.403374,27.368313,27.308094,27.231644,27.160175,27.060694,26.949474,26.858742,26.7664,26.669338,26.587112,26.512367,26.418385,26.318855,26.225437,26.075068,25.857735,25.617077,25.327492,25.02576,24.780785,24.498482,24.161386,23.859985,23.59822,23.315453,23.07412,22.876385,22.621876,22.363255,22.153631,21.931385,21.746717,21.639591,21.580467,21.6038,21.673473,21.730366,21.729815,21.652931,21.558887,21.354488,21.031813,20.69237,20.279064,19.834332,19.475128,19.097374,18.736565,18.479996,18.259483,18.017956,17.799744,17.607864,17.40187,17.224722,17.096085,16.9625,16.829601,16.718239,16.60004,16.466526,16.347012,16.235306,16.097954,15.968364,15.863761,15.750437,15.659422,15.604371,15.55936,15.52442,15.498877,15.477471,15.451151,15.421094,15.388491,15.338388,15.284091,15.240464,15.191565,15.1484165,15.118217,15.078981,15.037518,15.004213,14.966704,14.927801,14.9008465,14.884373,14.868294,14.857836,14.853281,14.848516,14.839899,14.827852,14.812396,14.794414,14.777811,14.75807,14.728282,14.696226,14.667832,14.637148,14.61296,14.597395,14.583023,14.575352,14.574217,14.574059,14.574696,14.573956,14.570229,14.562475,14.552982,14.544603,14.534648,14.520731,14.504034,14.479365,14.443521,14.404894,14.35392,14.279858,14.203407,14.132818,14.045708,13.961458,13.890049,13.795879,13.705305,13.641551,13.551712,13.448904,13.35823,13.245319,13.07379,12.887119,12.713945,12.498439,12.283796,12.094353,11.873703,11.673388,11.530054,11.343917,11.161482,11.036161,10.924156,10.782017,10.645721,10.543064,10.421427,10.339734,10.303349,10.559364,11.054901,11.505072,11.951696,11.6739645,10.714569,9.797875,8.198517,6.6835155,6.0096664,5.793575,5.916909,5.9423466,5.959215,5.958404,5.9486046,5.9677505,5.9022713,6.0363264,4.440053,18.56367,36.23224,34.743004,33.642174,33.515686,33.270416,32.55495,31.792274,31.429499,31.15954,31.343021,31.75136,31.761116,31.592144,31.355175,31.165112,30.941994,30.73824,30.585722,30.4471,30.306206,30.15835,29.937748,29.565662,29.160831,28.806816,28.432518,28.126951,27.894993,27.50226,27.063927,26.738132,26.381226,26.036137,25.770754,25.496506,25.212784,24.999681,24.84998,24.699526,24.5788,24.486765,24.382975,24.288082,24.21622,24.137089,24.058659,23.997673,23.939156,23.877586,23.82758,23.787453,23.744305,23.701225,23.657856,23.601315,23.543991,23.501242,23.463516,23.433422,23.41389,23.397806,23.38005,23.364954,23.354969,23.34354,23.333942,23.32806,23.315367,23.299492,23.286633,23.269203,23.247854,23.225273,23.18938,23.15026,23.120895,23.097317,23.069859,23.04132,23.014694,22.979511,22.940695,22.908653,22.873583,22.837236,22.806557,22.773357,22.731064,22.690037,22.65437,22.612946,22.575138,22.546356,22.512737,22.478935,22.452156,22.423115,22.395458,22.37668,22.361797,22.348686,22.34,22.333244,22.328588,22.329792,22.335232,22.347694,22.365177,22.379757,22.391838,22.40007,22.402771,22.403091,22.402924,22.401213,22.397346,22.391376,22.386297,22.384228,22.380621,22.375408,22.371006,22.37064,22.37305,22.375237,22.375202,22.3704
27.545872,27.522953,27.49525,27.463404,27.424381,27.357328,27.272118,27.19221,27.082561,26.962185,26.865902,26.771812,26.676342,26.59801,26.530682,26.453133,26.366392,26.271807,26.097054,25.842936,25.575739,25.257965,24.86182,24.469936,24.054857,23.5879,23.195782,22.88121,22.562391,22.297411,22.070244,21.794825,21.52618,21.309488,21.041744,20.793541,20.640089,20.539228,20.539196,20.62101,20.723383,20.83776,20.884602,20.857307,20.696377,20.388252,20.055544,19.668644,19.24125,18.877502,18.505896,18.130123,17.838688,17.586288,17.299831,17.043766,16.835,16.60299,16.413155,16.294924,16.188972,16.108177,16.054615,16.004757,15.937317,15.864558,15.798678,15.714075,15.628637,15.555183,15.469787,15.392368,15.338392,15.292923,15.25882,15.236964,15.219427,15.195752,15.164125,15.126272,15.062691,14.988259,14.924556,14.850168,14.78102,14.731072,14.673485,14.61324,14.563515,14.510034,14.455666,14.4189205,14.396901,14.380007,14.370439,14.363657,14.352671,14.332221,14.306857,14.277051,14.237851,14.197493,14.153999,14.090858,14.02215,13.960438,13.872124,13.783606,13.720257,13.65641,13.604298,13.569094,13.526353,13.479224,13.436827,13.39056,13.327866,13.2667265,13.218624,13.161802,13.102274,13.04825,12.979689,12.901047,12.831069,12.74906,12.646418,12.551502,12.468437,12.376748,12.293278,12.218252,12.130241,12.052601,11.999403,11.924236,11.824565,11.725325,11.613432,11.470522,11.329182,11.1917515,11.026056,10.858538,10.701576,10.503632,10.306986,10.157029,9.98161,9.818116,9.710997,9.622019,9.5432625,9.502487,9.502289,9.523676,9.585686,9.66947,9.906642,10.412895,11.0103245,11.502602,11.156472,10.144495,9.518425,8.156924,6.6861525,6.0291824,5.8181887,5.9404755,5.967356,5.984849,5.990141,5.9912305,6.0127363,5.9652386,6.0772133,4.1761856,18.363377,36.381523,35.003746,33.909897,33.722786,33.4486,32.73799,31.97099,31.575802,31.31992,31.51258,31.905766,31.896334,31.71429,31.474867,31.283386,31.06065,30.858494,30.707077,30.574575,30.42895,30.264065,30.035805,29.64847,29.225178,28.8639,28.48413,28.16917,27.919695,27.50533,27.058155,26.741245,26.390354,26.053736,25.795616,25.509079,25.2217,25.018738,24.874443,24.727911,24.609272,24.519205,24.418343,24.3265,24.256844,24.180473,24.10493,24.04617,23.989744,23.930374,23.882233,23.844166,23.80172,23.754932,23.703327,23.644299,23.588772,23.547388,23.510464,23.480494,23.460556,23.443735,23.425407,23.410137,23.400024,23.388268,23.378054,23.37138,23.358715,23.343773,23.332123,23.316692,23.298828,23.280165,23.248363,23.213104,23.186321,23.164856,23.13945,23.112617,23.08746,23.053665,23.016453,22.985971,22.951994,22.912159,22.875252,22.838825,22.794207,22.752773,22.718632,22.678146,22.640186,22.610748,22.575708,22.539827,22.511147,22.480267,22.450352,22.429161,22.411541,22.39463,22.382069,22.372036,22.363342,22.36037,22.362242,22.371616,22.387556,22.402199,22.414955,22.42555,22.43156,22.435497,22.438236,22.438635,22.437435,22.43444,22.432888,22.434637,22.439064,22.446533,22.453455,22.45736,22.460287,22.461641,22.461834,22.457087
27.631168,27.606367,27.573908,27.53484,27.487501,27.408337,27.309551,27.21753,27.094044,26.961449,26.85751,26.759663,26.66846,26.599743,26.544384,26.47478,26.384342,26.279408,26.067112,25.763214,25.462738,25.040104,24.47176,23.914158,23.35373,22.767742,22.317295,22.001566,21.7151,21.485863,21.272278,21.01667,20.765957,20.559029,20.271626,19.98086,19.78402,19.616497,19.505444,19.481308,19.52076,19.630695,19.716152,19.709309,19.584,19.312145,19.001198,18.642195,18.23246,17.873137,17.53093,17.155083,16.823982,16.526636,16.177553,15.878079,15.665651,15.429222,15.245594,15.144939,15.066139,15.026654,15.016834,15.020023,15.010473,14.985786,14.966993,14.937174,14.899331,14.861687,14.812319,14.762299,14.72485,14.686331,14.657631,14.643576,14.630879,14.6095295,14.575947,14.533167,14.456632,14.360658,14.273037,14.165308,14.058533,13.977704,13.890169,13.801039,13.729862,13.661606,13.590633,13.540884,13.5142,13.492857,13.476048,13.458799,13.430605,13.387434,13.341051,13.286255,13.21663,13.146479,13.069639,12.960718,12.843643,12.73752,12.586085,12.433575,12.323017,12.210781,12.121283,12.064621,11.999294,11.930714,11.871733,11.809948,11.727571,11.645817,11.578304,11.49601,11.409355,11.332327,11.237328,11.132353,11.044119,10.954788,10.859937,10.782259,10.715612,10.647299,10.588751,10.534251,10.485216,10.45242,10.432102,10.406619,10.371552,10.332432,10.28315,10.2122135,10.136188,10.062266,9.964359,9.8399935,9.698007,9.499279,9.285897,9.119439,8.95807,8.8317,8.762339,8.711014,8.680181,8.684529,8.715862,8.804756,8.965045,9.158598,9.350558,9.739301,10.287158,10.834184,10.600985,9.706753,9.3102255,8.107789,6.666876,6.042654,5.8435016,5.9622235,5.9912868,6.009568,6.0215917,6.0348215,6.05795,6.02349,6.1184354,3.971137,18.263245,36.58813,35.16758,34.08316,33.918022,33.607452,32.91381,32.15136,31.717236,31.459858,31.649925,32.030987,32.020912,31.835377,31.590607,31.39733,31.173977,30.97153,30.818932,30.695385,30.547974,30.365585,30.130688,29.728209,29.286179,28.920094,28.538158,28.210129,27.925919,27.497282,27.055637,26.745258,26.399689,26.068378,25.813889,25.522284,25.235939,25.041393,24.902199,24.758404,24.64095,24.553484,24.45597,24.36744,24.300234,24.226723,24.153986,24.097252,24.04261,23.984985,23.938393,23.903263,23.856035,23.801329,23.747242,23.689026,23.635948,23.5956,23.559387,23.529778,23.509943,23.492992,23.474426,23.458876,23.44844,23.436129,23.424759,23.416412,23.400686,23.383791,23.372746,23.35921,23.34534,23.331278,23.304222,23.274494,23.251722,23.231968,23.208021,23.182356,23.15826,23.126118,23.089176,23.057037,23.021032,22.976025,22.933678,22.89683,22.853853,22.81429,22.7808,22.740828,22.703064,22.67361,22.638594,22.602798,22.574219,22.543459,22.513199,22.490986,22.471752,22.45179,22.435719,22.42292,22.410389,22.403091,22.401184,22.405952,22.41829,22.431606,22.444359,22.45626,22.463827,22.468918,22.47174,22.471136,22.468817,22.465355,22.46453,22.467787,22.478188,22.500916,22.525558,22.539612,22.548018,22.550632,22.551035,22.546196
27.722952,27.694077,27.654331,27.60615,27.549364,27.457874,27.346596,27.244072,27.10924,26.966282,26.854916,26.751919,26.66618,26.609505,26.565193,26.478735,26.356031,26.241077,25.998365,25.639221,25.280502,24.648594,23.898436,23.314154,22.699837,22.056107,21.577806,21.299759,21.078266,20.906923,20.737974,20.490047,20.200294,19.940937,19.621986,19.305717,19.076359,18.852062,18.633083,18.48003,18.391033,18.338215,18.309486,18.27442,18.173643,17.971897,17.72747,17.435518,17.08106,16.752682,16.428068,16.044302,15.67919,15.327941,14.9092245,14.552862,14.304623,14.056582,13.876237,13.771689,13.688287,13.64587,13.63772,13.645927,13.674435,13.710882,13.748042,13.789675,13.820169,13.836954,13.845938,13.844357,13.83828,13.81454,13.787887,13.771827,13.754587,13.724237,13.678856,13.62307,13.525893,13.404264,13.291977,13.150467,13.007584,12.898246,12.773098,12.649872,12.561106,12.4862,12.408688,12.348457,12.307832,12.265715,12.228266,12.196716,12.153052,12.097021,12.041462,11.969116,11.870426,11.7661295,11.648325,11.483575,11.309046,11.1478615,10.945875,10.753379,10.60746,10.464867,10.361982,10.309091,10.264154,10.228357,10.20071,10.17099,10.1259575,10.074799,10.028994,9.962683,9.88619,9.818924,9.739521,9.653317,9.582687,9.524689,9.469366,9.42252,9.375748,9.32206,9.277748,9.246008,9.219816,9.208431,9.207611,9.211414,9.216108,9.215125,9.204796,9.176321,9.135298,9.090233,9.022617,8.938853,8.8526945,8.738184,8.616142,8.517929,8.41933,8.340975,8.299622,8.273807,8.26289,8.273415,8.303272,8.351725,8.449558,8.589706,8.863843,9.229109,9.553084,10.1255045,10.097102,9.421047,9.1747,8.059891,6.64314,6.0527906,5.864934,5.978561,6.010419,6.0305586,6.048403,6.0707626,6.095406,6.069867,6.153197,3.8331475,18.223139,36.787056,35.321384,34.227135,34.06816,33.730003,33.052338,32.2973,31.834381,31.5666,31.753613,32.134438,32.125053,31.936214,31.686031,31.490206,31.26469,31.061325,30.908712,30.79206,30.642189,30.445013,30.20549,29.791534,29.334854,28.966703,28.584423,28.243416,27.923004,27.483984,27.051636,26.746147,26.40638,26.076015,25.818195,25.530807,25.251753,25.063194,24.928295,24.78702,24.670685,24.585041,24.49012,24.40424,24.338953,24.267677,24.197006,24.141611,24.088074,24.031418,23.985811,23.953825,23.89846,23.834177,23.78307,23.726706,23.674816,23.635479,23.599802,23.571003,23.552368,23.536922,23.518997,23.502804,23.491291,23.478016,23.465727,23.45639,23.435265,23.413418,23.401937,23.389664,23.379368,23.369509,23.346659,23.323462,23.306068,23.287394,23.26411,23.238964,23.215523,23.185373,23.146498,23.107857,23.065449,23.018696,22.979362,22.943718,22.902065,22.863665,22.83105,22.791916,22.754782,22.725758,22.691738,22.65737,22.630066,22.600483,22.570887,22.54849,22.528614,22.506699,22.487938,22.472763,22.45735,22.44757,22.44411,22.445412,22.453861,22.46483,22.476385,22.488838,22.497934,22.504168,22.507458,22.50629,22.502907,22.498268,22.497253,22.501501,22.512838,22.541359,22.575796,22.601402,22.620335,22.62761,22.627956,22.622627
27.815147,27.773731,27.717442,27.651962,27.57809,27.464462,27.332954,27.215755,27.078953,26.948387,26.853117,26.775055,26.70196,26.63641,26.578136,26.454512,26.289225,26.144863,25.931442,25.527332,24.964718,24.251282,23.414024,22.67799,21.975887,21.373493,21.020554,20.825216,20.667336,20.52974,20.390203,20.163258,19.877445,19.613106,19.25166,18.806076,18.407745,18.039055,17.675789,17.408644,17.221355,17.081839,17.01545,16.98323,16.911465,16.77705,16.614798,16.356274,15.981013,15.606037,15.212746,14.752299,14.338657,13.967609,13.538631,13.172668,12.906178,12.634033,12.414568,12.261899,12.129282,12.032053,11.975876,11.944212,11.930807,11.930979,11.939082,11.935691,11.918684,11.900505,11.871213,11.834282,11.801015,11.757973,11.717661,11.692835,11.671816,11.643766,11.607368,11.564387,11.492336,11.403482,11.321167,11.219798,11.122209,11.05234,10.980862,10.919988,10.883347,10.857737,10.836903,10.82318,10.814236,10.799681,10.778766,10.756623,10.719387,10.665404,10.609985,10.538782,10.441939,10.338393,10.218958,10.042481,9.85203,9.681868,9.46347,9.257704,9.109666,8.97014,8.875898,8.833132,8.808437,8.79642,8.7874565,8.776057,8.7550125,8.729849,8.709021,8.678905,8.64259,8.608743,8.566828,8.518811,8.477625,8.441189,8.39933,8.359777,8.323824,8.284065,8.254255,8.236515,8.226213,8.230036,8.241672,8.262052,8.2876,8.306623,8.319082,8.319005,8.304693,8.283381,8.245555,8.19539,8.143845,8.073446,8.006471,7.9632125,7.917364,7.8800173,7.8598413,7.8478317,7.843667,7.8558064,7.88596,7.9517994,8.05224,8.149492,8.480562,8.849876,9.047119,9.5012665,9.578723,9.169806,8.99395,7.952214,6.6168146,6.0754642,5.9083652,6.0155635,6.040869,6.064869,6.0893316,6.1128035,6.1377144,6.1222153,6.1934156,3.7269711,18.041798,36.69108,35.41549,34.398,34.20751,33.848907,33.195953,32.454086,31.9621,31.678425,31.861015,32.24562,32.236095,32.042263,31.785173,31.585537,31.35539,31.152393,31.006584,30.893068,30.735392,30.523937,30.28158,29.858496,29.389141,29.02214,28.64154,28.285448,27.92239,27.469662,27.046898,26.747398,26.414434,26.084244,25.821402,25.54169,25.272778,25.090137,24.95881,24.82071,24.706831,24.623257,24.53123,24.448303,24.385174,24.31633,24.247807,24.193748,24.141083,24.086796,24.040888,23.99876,23.936462,23.87164,23.82203,23.767239,23.716547,23.67788,23.645039,23.619047,23.601555,23.587036,23.56966,23.553885,23.544182,23.526669,23.50681,23.492697,23.47068,23.44994,23.438473,23.427242,23.419035,23.41143,23.390785,23.369465,23.354149,23.3394,23.3198,23.2957,23.270874,23.236233,23.193592,23.154772,23.112185,23.066395,23.028687,22.994423,22.954576,22.917793,22.88612,22.848927,22.81409,22.786745,22.754812,22.722921,22.697895,22.670841,22.64339,22.6218,22.601654,22.577946,22.55651,22.538958,22.520798,22.50851,22.503162,22.502392,22.508383,22.517113,22.527225,22.539112,22.548454,22.555296,22.55865,22.556854,22.552723,22.547539,22.547157,22.553095,22.567312,22.600954,22.64119,22.672827,22.700344,22.715004,22.718498,22.713528
27.891018,27.832113,27.755291,27.674322,27.592999,27.47507,27.34404,27.229424,27.101461,26.982302,26.893738,26.810825,26.71099,26.608496,26.507057,26.391304,26.257488,26.100277,25.80761,25.234406,24.464046,23.519564,22.577084,21.896896,21.252163,20.81615,20.67017,20.612074,20.560764,20.466076,20.329023,20.091976,19.740814,19.360779,18.862888,18.241673,17.67418,17.159126,16.670626,16.315758,16.048504,15.773682,15.558607,15.41271,15.24317,15.0639,14.897548,14.599988,14.181616,13.784651,13.368593,12.894384,12.485488,12.137487,11.746195,11.412313,11.160322,10.895006,10.670698,10.508179,10.356194,10.232334,10.150188,10.08103,10.0150585,9.963432,9.925226,9.867327,9.805687,9.759516,9.702843,9.64457,9.596968,9.549856,9.5074005,9.4782715,9.456396,9.439541,9.42704,9.412731,9.389673,9.360821,9.332912,9.299543,9.270894,9.25453,9.244526,9.24398,9.250708,9.261231,9.284672,9.31448,9.344129,9.364582,9.365717,9.356815,9.3311825,9.283863,9.231381,9.165011,9.076998,8.986044,8.884154,8.736494,8.58153,8.447327,8.28557,8.14248,8.044104,7.9510956,7.8869514,7.8558235,7.837777,7.8266478,7.8189335,7.8169518,7.8127975,7.807648,7.8054,7.8023796,7.795399,7.7849007,7.7701044,7.7502975,7.7315187,7.713984,7.690999,7.668145,7.6491847,7.6283655,7.6124487,7.602474,7.596635,7.599389,7.6072984,7.621416,7.6411324,7.6587343,7.6753187,7.6889114,7.6946964,7.6957283,7.690282,7.675635,7.655772,7.6242743,7.5974946,7.5873566,7.5754213,7.5650034,7.5589247,7.5558624,7.5602684,7.582111,7.622608,7.719309,7.828819,7.882841,8.162842,8.516071,8.7363205,9.066296,9.179974,8.979841,8.79333,7.802939,6.5852385,6.1061687,5.963973,6.0626726,6.0827026,6.108922,6.136488,6.1583486,6.1830254,6.1745677,6.2374916,3.6807766,17.893715,36.558403,35.492935,34.557373,34.326378,33.942097,33.314137,32.58482,32.061325,31.792938,31.978504,32.342857,32.33212,32.134453,31.87088,31.667873,31.433357,31.231936,31.095413,30.984684,30.818281,30.592628,30.34372,29.914505,29.441078,29.078709,28.7033,28.332045,27.920027,27.452192,27.039711,26.744375,26.4216,26.09436,25.82576,25.556469,25.299902,25.123302,24.995066,24.860641,24.750206,24.668846,24.579847,24.499947,24.438997,24.372461,24.305744,24.252563,24.200684,24.146309,24.096134,24.0402,23.972767,23.911346,23.862896,23.809204,23.760532,23.724731,23.694723,23.670874,23.654383,23.64082,23.624676,23.608646,23.595291,23.573845,23.55106,23.534735,23.513672,23.494822,23.483555,23.472918,23.465483,23.458536,23.438494,23.416676,23.400896,23.387814,23.369514,23.344995,23.318352,23.27975,23.235008,23.197868,23.157322,23.113697,23.077549,23.0451,23.007544,22.973114,22.943747,22.909386,22.877338,22.85227,22.823387,22.79525,22.773699,22.75048,22.726639,22.707092,22.687824,22.663647,22.64061,22.621403,22.600752,22.585655,22.577995,22.575434,22.579878,22.587343,22.597042,22.60913,22.618984,22.62658,22.630037,22.627407,22.621986,22.616108,22.61639,22.623905,22.641449,22.67927,22.722813,22.757948,22.789337,22.808018,22.81768,22.814863
27.94466,27.876627,27.791904,27.709965,27.636906,27.534853,27.421137,27.31953,27.192806,27.057177,26.943634,26.816746,26.67143,26.535347,26.371674,26.253273,26.120914,25.862417,25.306534,24.502457,23.70929,22.560587,21.559105,21.086079,20.593033,20.298773,20.252022,20.26608,20.270847,20.185123,20.012634,19.715443,19.237686,18.678444,18.02634,17.299603,16.675314,16.083748,15.527769,15.122473,14.792766,14.366975,13.956652,13.645172,13.320194,13.028782,12.786708,12.433717,12.022097,11.680849,11.340307,10.958099,10.623041,10.3316145,10.005449,9.730246,9.524021,9.30962,9.139257,9.027254,8.914934,8.8268795,8.772009,8.705403,8.634235,8.578053,8.531853,8.478994,8.437027,8.412718,8.384413,8.356253,8.332844,8.309431,8.283168,8.2602825,8.242413,8.237027,8.244058,8.251265,8.26105,8.269758,8.275337,8.27982,8.283451,8.286769,8.288548,8.289347,8.290489,8.291549,8.305952,8.333587,8.368271,8.39189,8.393717,8.385422,8.3622055,8.318619,8.269567,8.20669,8.125256,8.046297,7.9645934,7.8622665,7.766138,7.6829405,7.6096735,7.560364,7.5247126,7.4856176,7.450853,7.4264145,7.401636,7.3757086,7.3584976,7.3571315,7.3592095,7.3610106,7.3623056,7.360422,7.352412,7.340966,7.3281026,7.313369,7.301693,7.2993793,7.3035603,7.3084793,7.3098564,7.3071566,7.301237,7.2955937,7.287774,7.2811785,7.278141,7.276932,7.281023,7.2893233,7.301893,7.3206463,7.340081,7.3590775,7.380164,7.3952155,7.402711,7.407915,7.4090834,7.408263,7.408785,7.4100275,7.4126053,7.418435,7.438075,7.477482,7.5343504,7.6436434,7.7445536,7.7727537,7.9275455,8.234573,8.566921,8.860203,8.975771,8.853132,8.627737,7.6709123,6.5544043,6.13431,6.013215,6.103354,6.1244664,6.1500664,6.176714,6.1986685,6.223303,6.217516,6.2771974,3.6850123,17.858742,36.534534,35.56449,34.667725,34.414528,34.0061,33.3932,32.664894,32.110092,31.90245,32.101902,32.41191,32.39915,32.20066,31.932674,31.728062,31.49167,31.292385,31.162827,31.054523,30.881863,30.645067,30.3854,29.951378,29.48088,29.124126,28.75282,28.367605,27.91394,27.434273,27.03061,26.736916,26.42585,26.104387,25.83114,25.571476,25.326426,25.155827,25.03056,24.899902,24.793045,24.713852,24.627586,24.550247,24.491081,24.426296,24.360687,24.307747,24.256735,24.197897,24.139538,24.076628,24.006977,23.947601,23.900196,23.847675,23.80186,23.770184,23.741573,23.718174,23.702408,23.690084,23.67429,23.655788,23.635191,23.613163,23.594906,23.580818,23.560495,23.541534,23.530499,23.520012,23.512512,23.505299,23.484978,23.462406,23.445177,23.429968,23.409006,23.38239,23.35468,23.316113,23.271984,23.235184,23.19565,23.153587,23.119072,23.088501,23.053415,23.021713,22.9954,22.963772,22.933903,22.910824,22.884964,22.860704,22.842695,22.823254,22.80304,22.785862,22.768196,22.744787,22.721392,22.701454,22.678879,22.661068,22.651031,22.646149,22.649141,22.656374,22.666832,22.680422,22.69167,22.700405,22.704475,22.701427,22.694881,22.688408,22.689262,22.698103,22.718128,22.75897,22.804848,22.842995,22.873934,22.890995,22.905209,22.905567
28.003942,27.951572,27.893936,27.837845,27.783518,27.685226,27.558167,27.440746,27.284758,27.104538,26.952099,26.853348,26.831652,26.807358,26.596764,26.224808,25.672424,24.90289,23.864567,22.974598,22.492304,21.893147,21.18201,20.522785,19.989304,19.588411,19.359184,19.182499,18.970955,18.723433,18.457726,18.046597,17.492435,16.919315,16.278584,15.568682,14.934244,14.254169,13.604648,13.143911,12.726309,12.282129,11.921636,11.646992,11.350988,11.066835,10.816926,10.518652,10.207991,9.960909,9.711063,9.440651,9.213215,9.01697,8.807907,8.636641,8.504028,8.366851,8.258672,8.188289,8.125145,8.0823555,8.057703,8.018863,7.973144,7.934632,7.9013014,7.863822,7.832988,7.8118806,7.7887764,7.767825,7.751853,7.7366447,7.7229686,7.7136154,7.7074375,7.708617,7.7161527,7.7242575,7.732259,7.7383924,7.7434506,7.7485995,7.7530093,7.7563024,7.760412,7.7642546,7.7656384,7.762229,7.759227,7.7562094,7.7499065,7.7365265,7.7172422,7.698215,7.6704164,7.6345415,7.6004515,7.5601473,7.513034,7.471242,7.4307957,7.383758,7.3417225,7.3059034,7.271617,7.2450514,7.224374,7.2001915,7.1762304,7.1574802,7.136864,7.114678,7.0974803,7.085025,7.075046,7.069545,7.066095,7.062686,7.0596747,7.0570536,7.0541663,7.055723,7.0620794,7.0715303,7.083379,7.0925074,7.09858,7.101403,7.1000967,7.0975547,7.0925756,7.0892663,7.0901814,7.09304,7.1010714,7.1125326,7.1288137,7.152306,7.1764975,7.2001176,7.2276325,7.2496777,7.263424,7.2766566,7.2865515,7.2932367,7.302954,7.3139358,7.324129,7.337289,7.3645577,7.4091034,7.4682226,7.5771484,7.677085,7.7098937,7.803011,8.081788,8.471288,8.731234,8.830919,8.741014,8.495915,7.5676165,6.523075,6.1595984,6.0599585,6.1420193,6.1630507,6.1885843,6.2151785,6.2370863,6.2616715,6.2581244,6.315072,3.7025318,17.794743,36.4321,35.59762,34.76028,34.494408,34.08647,33.478416,32.73064,32.143223,32.031616,32.252632,32.480007,32.465096,32.267406,31.994926,31.789217,31.551624,31.35481,31.232079,31.120975,30.940903,30.698492,30.427734,29.985989,29.515724,29.164288,28.790565,28.387398,27.90173,27.413845,27.018232,26.726639,26.429708,26.113903,25.832752,25.582687,25.350403,25.187084,25.065708,24.93977,24.837193,24.76062,24.677235,24.602291,24.544697,24.481379,24.416424,24.363415,24.3149,24.247616,24.176138,24.112549,24.043447,23.984756,23.937866,23.888355,23.846004,23.815928,23.789017,23.76699,23.752235,23.743084,23.722996,23.697346,23.678997,23.659164,23.642181,23.629211,23.610344,23.592524,23.581913,23.571434,23.563307,23.555138,23.533789,23.50967,23.490658,23.473671,23.450394,23.42164,23.39244,23.35276,23.308308,23.27178,23.233097,23.192486,23.159603,23.130985,23.099222,23.070873,23.046598,23.017475,22.990185,22.969297,22.946552,22.926052,22.911324,22.89529,22.878319,22.863266,22.84708,22.824375,22.800627,22.779945,22.75572,22.735455,22.723003,22.714687,22.715134,22.721893,22.73273,22.747545,22.760191,22.770252,22.775732,22.77386,22.768314,22.762447,22.76479,22.776348,22.798328,22.840757,22.887985,22.928349,22.959467,22.974512,22.986082,22.990013
28.102516,28.050476,27.98272,27.914936,27.855885,27.83123,27.815865,27.77401,27.606544,27.342667,27.093468,26.719845,26.200996,25.689987,25.14656,24.726414,24.155815,22.886555,21.485521,20.49916,20.026928,19.576525,19.031546,18.420296,17.867207,17.353712,16.97495,16.644032,16.276464,15.915234,15.557251,15.063807,14.499778,13.985867,13.40148,12.796229,12.297724,11.767538,11.240789,10.843812,10.485476,10.133759,9.875344,9.683668,9.473845,9.272011,9.097166,8.909727,8.728991,8.588403,8.440895,8.280878,8.147085,8.028588,7.915782,7.83523,7.774013,7.7121925,7.6659145,7.637804,7.6152873,7.601756,7.5936427,7.578606,7.558796,7.5402203,7.5235267,7.501142,7.4782524,7.4591403,7.4382834,7.4192724,7.404786,7.3906384,7.3791256,7.3724546,7.3677826,7.3664227,7.3683915,7.371587,7.374131,7.375542,7.376856,7.3779025,7.3786373,7.379037,7.3776646,7.37234,7.3637857,7.3514957,7.3337507,7.313162,7.2895107,7.2621465,7.237274,7.217477,7.193407,7.1682034,7.1474648,7.1249743,7.1019697,7.084306,7.069373,7.054558,7.0429306,7.0337753,7.0214214,7.0080123,6.996515,6.982091,6.9663763,6.9531355,6.937806,6.9207344,6.905835,6.889673,6.8757906,6.868221,6.863026,6.8593626,6.8589606,6.860544,6.86291,6.8703213,6.8813906,6.8953896,6.910762,6.92215,6.9312606,6.9385185,6.9420304,6.9437647,6.94421,6.945978,6.950415,6.957343,6.969288,6.9835577,7.002206,7.0281773,7.054698,7.080569,7.1112576,7.137335,7.155451,7.1747193,7.1919556,7.205511,7.2230844,7.242575,7.2597504,7.279604,7.312675,7.3600073,7.420728,7.5207853,7.6140265,7.6586113,7.7078075,7.954239,8.368661,8.617592,8.71427,8.6393,8.382342,7.479864,6.4960537,6.1912694,6.114236,6.1879244,6.208841,6.234288,6.2608185,6.2826695,6.3071933,6.304884,6.3602505,3.7423863,17.756062,36.34076,35.622845,34.838005,34.563225,34.157436,33.565735,32.79811,32.16406,32.19149,32.447933,32.562294,32.54541,32.3511,32.075054,31.869263,31.632416,31.439274,31.322758,31.207983,31.018969,30.769089,30.483547,30.031208,29.56012,29.21447,28.822914,28.389896,27.8895,27.398312,27.008842,26.722149,26.424816,26.111097,25.837875,25.600029,25.38061,25.225391,25.109055,24.989117,24.89186,24.818727,24.738903,24.666775,24.61102,24.54929,24.485313,24.431873,24.379292,24.302448,24.222527,24.158913,24.09069,24.033562,23.988977,23.944115,23.906183,23.877983,23.852985,23.833218,23.819336,23.804153,23.778786,23.752735,23.73683,23.719336,23.704021,23.692577,23.675655,23.659252,23.649006,23.638199,23.628777,23.61895,23.595898,23.56958,23.548365,23.529324,23.503407,23.47226,23.441433,23.400494,23.355568,23.319191,23.281235,23.24268,23.212543,23.186762,23.158487,23.133211,23.111248,23.08501,23.060667,23.042246,23.022976,23.006454,22.994993,22.982243,22.968313,22.955273,22.940609,22.918911,22.895247,22.87418,22.848701,22.826294,22.811596,22.800451,22.798264,22.80367,22.815022,22.831354,22.845465,22.856812,22.863789,22.863344,22.859047,22.854916,22.85939,22.872993,22.897583,22.94072,22.986923,23.030344,23.06145,23.072662,23.080675,23.084532
28.26693,28.204695,28.162048,28.108604,27.982952,27.821152,27.590214,27.303375,26.804688,26.17715,25.619057,24.737392,23.537317,22.468838,21.600073,21.167465,20.796495,19.61351,18.401127,17.523159,16.954302,16.367546,15.833602,15.402833,14.875765,14.329901,13.917949,13.5504265,13.153731,12.781418,12.413578,11.950285,11.479914,11.089361,10.631969,10.203739,9.908319,9.638358,9.355661,9.114323,8.916166,8.712402,8.554537,8.440641,8.317669,8.211102,8.13135,8.040869,7.951696,7.8814793,7.8049593,7.7160387,7.636821,7.563552,7.4995975,7.462654,7.43981,7.4180202,7.404402,7.3984995,7.391312,7.3832793,7.376031,7.369632,7.3619027,7.353926,7.3466263,7.3325124,7.3147554,7.2992525,7.2813044,7.2631445,7.2479076,7.2316284,7.215275,7.2026644,7.191552,7.182465,7.1775484,7.174551,7.1722445,7.170231,7.167804,7.1635613,7.158314,7.153495,7.143037,7.1252027,7.106015,7.0868664,7.0646067,7.0454197,7.030137,7.0130386,6.9977202,6.985675,6.970858,6.954941,6.941469,6.926612,6.911123,6.8991785,6.8893003,6.880072,6.8735666,6.8688293,6.863786,6.858613,6.853527,6.846055,6.8366947,6.8280544,6.8173213,6.80447,6.7930183,6.781472,6.7719755,6.7671204,6.763799,6.7614813,6.7611613,6.7619953,6.7642555,6.7683897,6.7736263,6.7843485,6.7987204,6.811189,6.822011,6.832203,6.839302,6.8445773,6.8497515,6.855156,6.860872,6.8693733,6.88271,6.8978996,6.9171505,6.943931,6.9716005,6.99883,7.031947,7.061714,7.084154,7.109578,7.1337776,7.1531615,7.1771975,7.203265,7.2255325,7.250046,7.2870984,7.3365345,7.399881,7.488474,7.5710344,7.6249475,7.656891,7.8674507,8.253647,8.523945,8.646334,8.566659,8.26606,7.3862314,6.481161,6.2250004,6.1659374,6.232588,6.2534037,6.2787676,6.305234,6.327028,6.35149,6.348912,6.4044657,3.800349,17.759148,36.289337,35.64055,34.885475,34.604763,34.20253,33.634808,32.85536,32.177483,32.346024,32.642723,32.64995,32.63253,32.44321,32.165424,31.960613,31.726696,31.537384,31.423862,31.302269,31.102808,30.845783,30.544819,30.080292,29.60609,29.26329,28.847654,28.385042,27.885405,27.394625,27.008148,26.727345,26.41844,26.103283,25.847958,25.621647,25.412079,25.263496,25.152515,25.038784,24.946846,24.877377,24.801208,24.73188,24.677933,24.617619,24.555038,24.501167,24.437542,24.35242,24.27206,24.20851,24.14122,24.086956,24.047127,24.007208,23.97306,23.946928,23.923958,23.903717,23.886497,23.863838,23.836876,23.815168,23.800364,23.784246,23.770407,23.760212,23.74467,23.72897,23.718502,23.706661,23.695246,23.683292,23.658127,23.629406,23.606092,23.585247,23.557081,23.524006,23.491987,23.45005,23.405426,23.37048,23.334187,23.298203,23.27084,23.24781,23.222357,23.199451,23.17977,23.15625,23.134384,23.11779,23.100739,23.086739,23.077496,23.066687,23.054392,23.04242,23.028706,23.008,22.985012,22.964287,22.938747,22.915607,22.899864,22.887892,22.884562,22.888802,22.900196,22.917389,22.93244,22.944267,22.951809,22.952011,22.948318,22.945889,22.951944,22.965952,22.99247,23.035206,23.078651,23.12337,23.154697,23.16372,23.168915,23.169346
28.476639,28.418404,28.517658,28.586792,28.358805,27.703583,26.66581,25.588058,24.295485,22.95646,21.857079,20.519611,19.16721,18.196625,17.348217,16.630747,16.15158,15.704639,15.185881,14.718294,14.365946,13.92748,13.43564,12.999118,12.498247,11.978491,11.578041,11.219755,10.819375,10.467027,10.176378,9.831807,9.511403,9.266402,9.005061,8.770197,8.603199,8.44661,8.299393,8.1893,8.097953,8.004535,7.9284062,7.866749,7.7954183,7.7302594,7.6814194,7.6258955,7.570344,7.526264,7.4801245,7.430029,7.389353,7.3566723,7.325472,7.304611,7.29222,7.2794876,7.2695494,7.2630115,7.256187,7.249353,7.243723,7.2388353,7.2334013,7.2277813,7.2216268,7.2120886,7.201174,7.191558,7.1792564,7.1652584,7.1525373,7.1375394,7.120783,7.106705,7.0934296,7.0804653,7.070897,7.0633526,7.0548973,7.046067,7.0373526,7.0248446,7.0095305,6.995449,6.977578,6.9561744,6.937072,6.917946,6.8966894,6.8791294,6.865169,6.851586,6.840985,6.832763,6.822732,6.812123,6.803274,6.793723,6.784077,6.777062,6.771802,6.7683353,6.767291,6.7670364,6.7670813,6.766572,6.765178,6.7624073,6.757966,6.7531986,6.7465973,6.738065,6.730053,6.7219276,6.713356,6.7076893,6.705118,6.7033396,6.7031717,6.7039723,6.706215,6.7101984,6.7146597,6.720702,6.7306337,6.7416906,6.7523775,6.7632284,6.771458,6.7778454,6.7845764,6.791701,6.798852,6.8089056,6.823571,6.8396463,6.860056,6.888114,6.916897,6.9450912,6.980477,7.0135603,7.039257,7.0689487,7.0982113,7.122362,7.152272,7.183929,7.209805,7.237385,7.2777767,7.3298745,7.3961,7.477232,7.5513616,7.609045,7.639717,7.813885,8.139899,8.447728,8.612368,8.514292,8.118128,7.261011,6.473798,6.2555285,6.2089777,6.269993,6.2907543,6.3160577,6.342464,6.364209,6.3886175,6.3849716,6.4416704,3.8612664,17.77891,36.255646,35.652664,34.914227,34.628437,34.23368,33.684834,32.89879,32.19366,32.472225,32.803078,32.73279,32.716362,32.531662,32.253105,32.049515,31.81913,31.632744,31.519243,31.38667,31.17582,30.914774,30.600674,30.124077,29.644787,29.300888,28.86999,28.389965,27.889704,27.398277,27.013474,26.736725,26.420704,26.10434,25.859861,25.64196,25.439518,25.295551,25.18945,25.08129,24.993969,24.927776,24.854866,24.787981,24.735567,24.676329,24.61538,24.561672,24.485977,24.39383,24.3158,24.252838,24.186722,24.135765,24.101744,24.065794,24.033916,24.009544,23.988844,23.963717,23.937687,23.917297,23.893581,23.87286,23.858845,23.843464,23.830189,23.820473,23.805256,23.789257,23.77795,23.764534,23.750816,23.736698,23.709429,23.678528,23.653503,23.631275,23.601473,23.567104,23.534393,23.491734,23.448486,23.41683,23.383636,23.350296,23.324589,23.303314,23.280075,23.259365,23.241663,23.220394,23.200245,23.18454,23.167904,23.154598,23.146503,23.136293,23.124258,23.11242,23.098988,23.078995,23.056942,23.037035,23.012405,22.98981,22.974129,22.962687,22.959871,22.964172,22.974842,22.991814,23.007215,23.0187,23.025803,23.025745,23.021973,23.020126,23.026562,23.04011,23.066986,23.1088,23.149963,23.192772,23.22488,23.235569,23.238422,23.235767
29.055286,28.923363,28.340069,27.383007,26.27495,24.660803,22.853199,21.22871,19.620388,18.312006,17.414026,16.445076,15.447937,14.654205,13.986538,13.329455,12.875298,12.629666,12.335804,12.038828,11.788702,11.457497,11.080105,10.7543545,10.397747,10.010434,9.686947,9.3894415,9.06275,8.803032,8.625502,8.432537,8.2736845,8.165766,8.052974,7.952286,7.878474,7.80703,7.7410784,7.693074,7.6510563,7.605283,7.5642934,7.5283685,7.4846764,7.4425507,7.4098663,7.3726416,7.335372,7.306119,7.276262,7.2459164,7.223284,7.206649,7.1901655,7.1782346,7.1708345,7.162991,7.1562166,7.1510963,7.1458626,7.1406612,7.1363072,7.1320353,7.1263433,7.119838,7.112714,7.1024394,7.0910544,7.080909,7.067304,7.0518484,7.0382175,7.02141,7.002146,6.985751,6.9701376,6.9545293,6.9426546,6.9331255,6.9223585,6.9111824,6.90028,6.8849454,6.8662786,6.8491983,6.829089,6.8079824,6.791453,6.7754827,6.7584653,6.7448826,6.7343163,6.724038,6.7163258,6.7107954,6.7045355,6.6982837,6.6931868,6.688119,6.683802,6.6816225,6.6811924,6.6828203,6.6859727,6.689369,6.693658,6.69718,6.6990848,6.700121,6.699339,6.697298,6.6935177,6.6879463,6.682233,6.675933,6.6681323,6.661524,6.656891,6.6535873,6.6526136,6.6528063,6.6543016,6.6577578,6.6619253,6.6668506,6.6751685,6.6845903,6.6932187,6.702312,6.7097416,6.715805,6.7225947,6.730233,6.7380013,6.748917,6.7643156,6.7807903,6.8017254,6.831892,6.8639507,6.8952074,6.9353495,6.97367,7.0033884,7.0426154,7.0800653,7.105625,7.132308,7.165971,7.2006254,7.232563,7.2769194,7.3308935,7.3956165,7.470619,7.539714,7.599025,7.6338277,7.778456,8.045801,8.388431,8.587365,8.466536,7.995716,7.163896,6.4780636,6.2931814,6.2576804,6.3137264,6.3344336,6.3596687,6.3860035,6.40769,6.4320364,6.42671,6.4852495,3.9309916,17.83999,36.295467,35.726517,34.97132,34.659122,34.286053,33.750145,32.961517,32.249886,32.607803,32.960335,32.83278,32.813553,32.62822,32.346954,32.14419,31.917444,31.7345,31.621555,31.472336,31.245857,30.982391,30.65495,30.167255,29.684513,29.339092,28.89396,28.398317,27.897903,27.406298,27.024143,26.752926,26.427896,26.108776,25.876064,25.667112,25.472195,25.333527,25.234596,25.132664,25.049135,24.985981,24.9166,24.852676,24.802118,24.747734,24.682768,24.61702,24.537132,24.444286,24.36742,24.304878,24.243092,24.198498,24.169022,24.136837,24.10832,24.086857,24.058558,24.026928,24.002151,23.983807,23.962286,23.94271,23.929379,23.91447,23.901285,23.891403,23.876354,23.8601,23.847795,23.832207,23.81562,23.799011,23.769028,23.734837,23.707119,23.683126,23.651804,23.617327,23.58582,23.545822,23.505417,23.475372,23.444315,23.413424,23.389835,23.370632,23.349749,23.331139,23.315271,23.296059,23.277634,23.263107,23.247665,23.23487,23.226597,23.216526,23.204494,23.192612,23.179466,23.160553,23.140163,23.121878,23.099274,23.078709,23.06466,23.0548,23.05311,23.057789,23.067783,23.083693,23.098099,23.108177,23.1137,23.112541,23.108181,23.106289,23.112919,23.126366,23.15186,23.191034,23.229101,23.265448,23.296207,23.311005,23.315979,23.31274
28.319828,27.534908,25.894163,23.887503,22.071918,20.060421,18.302668,16.89118,15.516225,14.507256,13.926641,13.386919,12.8082075,12.280949,11.860088,11.433832,11.100057,10.85298,10.575182,10.316267,10.103128,9.826838,9.54336,9.329368,9.115807,8.879131,8.665765,8.463876,8.247954,8.088649,7.992014,7.8962436,7.826227,7.783018,7.7329187,7.6848264,7.6481442,7.610687,7.570587,7.5362034,7.5047393,7.4678974,7.43402,7.4056516,7.371603,7.337899,7.3102393,7.278613,7.2468863,7.222139,7.197016,7.171999,7.153303,7.138114,7.1237373,7.113559,7.106311,7.098654,7.0920877,7.0871763,7.081868,7.0761495,7.070834,7.0644054,7.0554094,7.0456953,7.035924,7.022583,7.008253,6.9954977,6.9787517,6.960374,6.9446683,6.9256,6.904215,6.8863316,6.869471,6.8528113,6.8402896,6.8302817,6.8192043,6.808175,6.79775,6.783379,6.766508,6.751564,6.73425,6.7168317,6.7039614,6.6920805,6.6800413,6.670834,6.6638384,6.6565323,6.6507745,6.6468544,6.642518,6.6383495,6.6350937,6.632197,6.630562,6.6308947,6.6329136,6.6370573,6.642246,6.647435,6.6539507,6.659549,6.6629705,6.665572,6.666393,6.6658006,6.663808,6.65987,6.655128,6.6496634,6.6426344,6.63589,6.6298714,6.6249256,6.6223345,6.6211634,6.6211147,6.6233864,6.627041,6.631895,6.639283,6.6468296,6.6532793,6.6604695,6.6670046,6.672718,6.6796074,6.687544,6.6953745,6.7061048,6.7210174,6.73709,6.7583437,6.7894893,6.8230367,6.856313,6.8985467,6.941723,6.980635,7.0306273,7.076108,7.104814,7.1315517,7.161508,7.1933165,7.2324553,7.284482,7.339617,7.398842,7.470496,7.5393143,7.5984516,7.6348696,7.7607255,7.991265,8.345062,8.564686,8.441214,7.922633,7.1134043,6.50136,6.336543,6.3072624,6.3602357,6.380883,6.406042,6.4322977,6.4539213,6.478199,6.470689,6.5316467,4.010986,17.911312,36.343094,35.821114,35.03859,34.681118,34.328285,33.782738,32.999763,32.323223,32.689667,33.040985,32.910614,32.88608,32.69362,32.40825,32.206284,31.9847,31.806152,31.692524,31.525875,31.286434,31.026157,30.691093,30.200228,29.720755,29.376175,28.91803,28.407879,27.909475,27.419653,27.038237,26.766808,26.436192,26.118565,25.896975,25.696917,25.509666,25.375954,25.282053,25.183592,25.103699,25.047602,24.98288,24.92166,24.873589,24.817375,24.743355,24.667408,24.587713,24.496956,24.421566,24.361511,24.306744,24.269583,24.243065,24.216106,24.188402,24.161385,24.126251,24.092926,24.072422,24.05608,24.036335,24.017876,24.005035,23.989914,23.976158,23.966076,23.95037,23.93311,23.919825,23.902672,23.883625,23.864403,23.831839,23.794603,23.764399,23.738693,23.706053,23.67154,23.640987,23.603361,23.56532,23.536339,23.507017,23.478474,23.45714,23.44004,23.421486,23.404888,23.390747,23.373518,23.356894,23.343746,23.329914,23.317806,23.30912,23.298923,23.286844,23.275196,23.262741,23.24578,23.22829,23.212915,23.194256,23.177704,23.16671,23.159546,23.159721,23.165234,23.175213,23.189331,23.200829,23.20785,23.210022,23.206436,23.200647,23.197563,23.203472,23.216389,23.238323,23.27269,23.306786,23.336098,23.36158,23.37535,23.380835,23.376884
25.756424,24.080252,21.872555,19.790165,18.09614,16.568363,15.541463,14.816417,13.888346,13.024548,12.453251,11.904338,11.4365835,11.122534,10.8494005,10.575319,10.353168,10.170696,9.93948,9.707503,9.519293,9.263971,9.008941,8.832237,8.667582,8.503631,8.365858,8.237286,8.096289,7.9821663,7.8988476,7.811467,7.740221,7.689468,7.6366034,7.589163,7.5539074,7.518341,7.4818926,7.45221,7.4261827,7.395866,7.3677425,7.3439703,7.3153133,7.286791,7.2632895,7.236302,7.208729,7.1868,7.164752,7.142915,7.1265373,7.1129565,7.0993996,7.0891085,7.0815907,7.073196,7.0654106,7.0592375,7.0521708,7.043936,7.03596,7.0262055,7.0136743,7.001361,6.9894304,6.9744473,6.9592857,6.945917,6.9287014,6.909774,6.8933573,6.874008,6.8526278,6.834837,6.8181734,6.8016005,6.788952,6.7786746,6.7673664,6.756607,6.7469625,6.734066,6.7198515,6.708,6.6945567,6.6807528,6.670156,6.660541,6.651238,6.644546,6.639584,6.634594,6.6306686,6.627833,6.6241813,6.620418,6.6175623,6.6149554,6.613568,6.614064,6.6160545,6.6203527,6.62582,6.6311436,6.6379538,6.6436596,6.646802,6.6491084,6.650037,6.6500254,6.6491218,6.646097,6.6418037,6.637147,6.631112,6.6253414,6.620447,6.6153297,6.611365,6.608839,6.6073275,6.6081886,6.6107783,6.6146054,6.6203976,6.6263504,6.6319094,6.638627,6.6452684,6.6513405,6.658969,6.667414,6.6751237,6.6850796,6.698914,6.714303,6.735671,6.76593,6.7977653,6.829958,6.8699436,6.915537,6.9652615,7.0221615,7.0728416,7.107913,7.1431065,7.1691065,7.1879396,7.2325764,7.2925596,7.3495064,7.403992,7.475075,7.5458183,7.6039753,7.6369076,7.755934,7.9787574,8.318836,8.541153,8.4331455,7.896946,7.106095,6.535226,6.3768544,6.3489876,6.4008465,6.4214344,6.446522,6.4727063,6.4942727,6.51849,6.50904,6.5721426,4.084054,17.962757,36.35921,35.89353,35.09148,34.686485,34.34298,33.76853,32.995335,32.379494,32.695457,33.02636,32.93615,32.905125,32.701668,32.412014,32.21115,31.995834,31.820686,31.702084,31.526478,31.285744,31.034122,30.699356,30.215244,29.746998,29.407585,28.938396,28.414425,27.920212,27.434084,27.050407,26.77096,26.440666,26.130661,25.917908,25.7253,25.545116,25.415329,25.320982,25.222092,25.145605,25.097977,25.038284,24.979109,24.932636,24.86785,24.78609,24.71025,24.630657,24.540993,24.468168,24.413029,24.36488,24.332813,24.308325,24.284859,24.253685,24.215767,24.18135,24.151909,24.13253,24.117615,24.099365,24.081825,24.069252,24.053608,24.039108,24.028934,24.012077,23.993458,23.979519,23.961838,23.941357,23.92009,23.88586,23.846897,23.815289,23.788383,23.754707,23.719534,23.6885,23.65076,23.613445,23.585709,23.557953,23.531397,23.51186,23.496403,23.479687,23.464733,23.452003,23.436502,23.421515,23.409618,23.397194,23.386078,23.377708,23.367477,23.355505,23.344482,23.333076,23.31847,23.304255,23.292149,23.278086,23.266087,23.258282,23.253925,23.256079,23.26258,23.273005,23.285175,23.29301,23.29643,23.294737,23.288387,23.28099,23.276327,23.280968,23.292896,23.310982,23.340174,23.370182,23.395557,23.414288,23.421198,23.423046,23.417091
21.624023,19.868286,18.147917,16.8643,15.786402,14.654987,13.7447605,13.082178,12.403105,11.848223,11.4746275,11.095404,10.74979,10.499424,10.269746,10.031057,9.827423,9.644606,9.415608,9.203663,9.051943,8.8647785,8.680485,8.543557,8.404949,8.263578,8.148109,8.042391,7.9281645,7.8355513,7.7656426,7.6928406,7.6351895,7.5959406,7.555051,7.518222,7.4904838,7.462203,7.432884,7.408517,7.386408,7.3594303,7.3335466,7.31157,7.2850475,7.2588,7.2373905,7.213827,7.1906557,7.1725044,7.153795,7.1344366,7.119213,7.106747,7.0926995,7.080458,7.071096,7.0603113,7.049924,7.041503,7.03171,7.020546,7.010289,6.998784,6.9843125,6.970231,6.956931,6.940385,6.924169,6.910484,6.8934097,6.8751726,6.8595886,6.841896,6.821929,6.8046656,6.788789,6.773067,6.7610445,6.751137,6.74047,6.730521,6.721592,6.709655,6.696702,6.6861367,6.6742954,6.6624374,6.653617,6.645816,6.6386023,6.633712,6.6302137,6.626781,6.624235,6.6225576,6.6201463,6.617368,6.615073,6.6129484,6.612032,6.612982,6.615708,6.6198254,6.6241617,6.628381,6.6337824,6.637947,6.6396427,6.6410627,6.6416616,6.641572,6.640629,6.638501,6.635792,6.6326017,6.628291,6.6239767,6.620248,6.615526,6.6111746,6.608197,6.605976,6.605769,6.607247,6.6097994,6.6139965,6.618485,6.6227436,6.6281605,6.633827,6.639187,6.6458817,6.6534967,6.6607103,6.6699944,6.6837363,6.69948,6.7199206,6.74929,6.7798796,6.808091,6.845758,6.8922267,6.9440413,7.0045037,7.060464,7.1010284,7.1431217,7.1762896,7.198593,7.2357435,7.294922,7.3586555,7.4144077,7.4869695,7.557539,7.612544,7.646492,7.768134,7.9908476,8.316059,8.518467,8.402153,7.8789005,7.1181602,6.572506,6.416994,6.3893843,6.4406543,6.461179,6.4862003,6.5123177,6.5338287,6.557985,6.5469275,6.6117845,4.145785,18.03033,36.42215,35.980843,35.13778,34.683712,34.356007,33.74549,32.978985,32.431374,32.67551,32.972725,32.92791,32.885376,32.66604,32.37043,32.170723,31.965572,31.790318,31.650772,31.478828,31.25504,31.015774,30.68551,30.215252,29.766033,29.43657,28.957268,28.418495,27.930336,27.44923,27.061459,26.769396,26.442379,26.143772,25.939499,25.753204,25.581161,25.456394,25.355602,25.254856,25.181444,25.134678,25.080254,25.02408,24.974228,24.90874,24.827177,24.751427,24.671988,24.583813,24.514933,24.467613,24.424541,24.395334,24.376656,24.344898,24.30455,24.268894,24.235678,24.207623,24.18945,24.175835,24.15888,24.14201,24.129333,24.113934,24.099152,24.087498,24.069752,24.050735,24.036453,24.017479,23.995255,23.97256,23.937016,23.896439,23.863426,23.83554,23.800903,23.765162,23.733934,23.696512,23.66011,23.63343,23.607002,23.582113,23.564068,23.549927,23.534622,23.52092,23.509329,23.495268,23.481716,23.47097,23.459759,23.449692,23.441954,23.431618,23.419548,23.409027,23.39868,23.3863,23.375088,23.365965,23.35625,23.348833,23.34449,23.343037,23.347435,23.35525,23.365314,23.374723,23.378769,23.378931,23.373816,23.365124,23.35659,23.35084,23.354538,23.365585,23.381159,23.405806,23.431076,23.452427,23.466803,23.470116,23.468994,23.461967
17.256222,16.071198,15.045351,14.340799,13.71417,12.9859295,12.340647,11.857321,11.415778,11.078198,10.838434,10.58379,10.31254,10.079336,9.8562355,9.628979,9.443262,9.274336,9.071088,8.889232,8.760147,8.614555,8.472929,8.36067,8.239773,8.113974,8.013119,7.9227943,7.82759,7.752085,7.6953793,7.6371555,7.5911283,7.5590844,7.5253363,7.4938097,7.469035,7.4432383,7.416008,7.3930426,7.3716483,7.3455915,7.320709,7.2995214,7.2738776,7.2498217,7.2319183,7.2121964,7.1925077,7.1764755,7.1590767,7.14017,7.124648,7.1115885,7.0964146,7.08264,7.0716643,7.0586686,7.0458193,7.035305,7.023138,7.0092897,6.9966617,6.982912,6.9659486,6.9498034,6.934987,6.9168453,6.8995523,6.885417,6.868211,6.8503485,6.835374,6.8187637,6.800826,6.7859125,6.7724466,6.759515,6.7498145,6.741704,6.7326193,6.7238145,6.715851,6.705291,6.6939363,6.684758,6.674553,6.6647224,6.657873,6.6521845,6.6475525,6.6450467,6.6436186,6.6426415,6.641758,6.6405015,6.638426,6.635406,6.632416,6.6294165,6.6271353,6.62652,6.6274185,6.629222,6.6313286,6.6335287,6.6365013,6.63888,6.6398726,6.6408405,6.641362,6.6413736,6.640641,6.639373,6.637909,6.6358566,6.63284,6.629572,6.62657,6.6226206,6.6188097,6.616082,6.613902,6.6132774,6.614051,6.615656,6.618575,6.621829,6.624913,6.6289043,6.63321,6.637409,6.642615,6.648729,6.6547766,6.6631737,6.675948,6.690344,6.7079234,6.733321,6.760584,6.786457,6.822665,6.869721,6.923583,6.987321,7.0482273,7.0941944,7.144074,7.1888185,7.219913,7.248857,7.304529,7.3738756,7.4331794,7.508255,7.5782175,7.628909,7.67959,7.820109,8.044128,8.349599,8.524873,8.397636,7.894128,7.1597204,6.626113,6.465624,6.435394,6.4872084,6.507677,6.53261,6.5586286,6.5800667,6.604149,6.591604,6.658049,4.213725,18.094934,36.477276,36.08005,35.193398,34.67586,34.36175,33.72283,32.963608,32.468597,32.604523,32.84858,32.856136,32.796688,32.5576,32.25716,32.06436,31.855776,31.671473,31.52752,31.372944,31.17896,30.962124,30.642113,30.196184,29.778965,29.468899,28.977905,28.418423,27.940327,27.468033,27.075356,26.765247,26.44322,26.160202,25.96641,25.788364,25.624237,25.502827,25.39568,25.292412,25.220066,25.171265,25.119263,25.065947,25.01535,24.951263,24.871376,24.796638,24.719097,24.63673,24.5752,24.532928,24.495834,24.466797,24.439587,24.39992,24.357006,24.324173,24.292377,24.265596,24.248621,24.236269,24.220871,24.205208,24.193165,24.1776,24.161999,24.149563,24.13192,24.113152,24.09856,24.079058,24.056131,24.032822,23.996675,23.955074,23.920979,23.892368,23.85707,23.821003,23.789738,23.752796,23.717304,23.691471,23.666042,23.642277,23.625118,23.611631,23.59695,23.583828,23.572874,23.559689,23.547134,23.537296,23.526989,23.517723,23.510546,23.500475,23.488773,23.478985,23.469841,23.45963,23.451138,23.444641,23.438694,23.435291,23.434093,23.435608,23.441856,23.450012,23.45893,23.465546,23.466257,23.462734,23.45472,23.445065,23.436535,23.431194,23.435234,23.44611,23.46046,23.48105,23.501047,23.518604,23.529457,23.530132,23.526718,23.51852
14.432249,13.906908,13.328987,12.788811,12.319184,11.867157,11.534811,11.29116,11.008245,10.731806,10.513428,10.282316,10.029816,9.809849,9.598136,9.386169,9.220476,9.076414,8.908615,8.753163,8.630114,8.4903755,8.355918,8.252911,8.145271,8.035529,7.9485235,7.8717093,7.792077,7.729669,7.682702,7.6344557,7.594635,7.564527,7.5326157,7.501897,7.4770885,7.4509287,7.4229813,7.399333,7.3773003,7.351221,7.3270197,7.306607,7.2819815,7.2597933,7.244425,7.2266903,7.2079678,7.19196,7.174308,7.154801,7.1384487,7.124072,7.10785,7.0933504,7.081439,7.06705,7.0526104,7.040771,7.0271516,7.0116863,6.9975986,6.98228,6.963722,6.94632,6.9302588,6.910982,6.893016,6.8785067,6.861041,6.8432055,6.82846,6.8121886,6.795947,6.7836933,6.77283,6.7629576,6.7558994,6.7499685,6.7427945,6.735318,6.7284365,6.71939,6.709723,6.7019453,6.693318,6.6851315,6.6796002,6.675176,6.6719694,6.6707,6.6702957,6.6704903,6.6701727,6.6686583,6.6661453,6.662346,6.6584706,6.654404,6.650493,6.6479616,6.6464186,6.6457834,6.646101,6.646677,6.647749,6.6490273,6.650075,6.651018,6.651648,6.651893,6.6515837,6.65086,6.6498675,6.648287,6.645786,6.642905,6.6400976,6.6367917,6.6337433,6.6314535,6.6295834,6.6289053,6.629324,6.630335,6.6323175,6.6345677,6.6366653,6.6393275,6.642252,6.645236,6.6489716,6.653507,6.6581383,6.6654735,6.676524,6.688467,6.702896,6.7237167,6.747377,6.7727404,6.808202,6.855009,6.9099174,6.976037,7.0410137,7.0914893,7.1481543,7.2034636,7.2439923,7.2749863,7.32592,7.3903656,7.4534545,7.531213,7.6011457,7.649066,7.729501,7.900549,8.12579,8.410523,8.5612335,8.427439,7.938815,7.21908,6.685936,6.513629,6.478338,6.5317144,6.552147,6.576988,6.6028957,6.624256,6.6482687,6.634311,6.702266,4.278113,18.157337,36.5353,36.191048,35.251495,34.656532,34.35693,33.69494,32.936295,32.474,32.499046,32.685543,32.736847,32.65982,32.403954,32.100822,31.91297,31.688675,31.495209,31.370995,31.241657,31.078497,30.887207,30.580854,30.164633,29.785385,29.500956,29.000412,28.41935,27.953337,27.486635,27.086838,26.762642,26.446428,26.17855,25.995115,25.826084,25.666885,25.54514,25.435743,25.330395,25.256351,25.205105,25.151402,25.098728,25.050526,24.988338,24.910633,24.838495,24.765135,24.690613,24.636173,24.595837,24.558414,24.523449,24.484262,24.442766,24.403625,24.371796,24.3416,24.316582,24.300943,24.289803,24.275675,24.260904,24.249382,24.2333,24.216991,24.204847,24.187645,24.169182,24.154596,24.135624,24.113306,24.090305,24.054424,24.012661,23.978123,23.949251,23.913847,23.877918,23.846886,23.81057,23.775826,23.750477,23.725489,23.702026,23.68492,23.671223,23.65618,23.64278,23.631748,23.618599,23.606266,23.596767,23.586731,23.577612,23.570503,23.560719,23.549484,23.54029,23.532015,23.523243,23.516472,23.511597,23.507984,23.507107,23.507942,23.511686,23.519127,23.527042,23.53493,23.53992,23.53902,23.533455,23.524345,23.515123,23.507584,23.503223,23.507938,23.51913,23.533463,23.551888,23.568293,23.582653,23.590923,23.590286,23.585915,23.576859
13.060904,12.655972,12.262583,11.966486,11.704899,11.417072,11.166437,10.970242,10.7454815,10.506511,10.29384,10.047901,9.801342,9.618759,9.450224,9.263838,9.100111,8.960857,8.798451,8.6491785,8.532766,8.401382,8.276987,8.1834545,8.086906,7.989725,7.9133315,7.8462734,7.77717,7.7220716,7.6783457,7.6320977,7.5938263,7.5660553,7.5361114,7.507365,7.484486,7.460491,7.4345818,7.412238,7.391222,7.3658705,7.3423777,7.3231735,7.3004427,7.278928,7.2622366,7.2430296,7.2231426,7.2067947,7.1895733,7.170479,7.154032,7.1393695,7.122411,7.106866,7.093935,7.07823,7.062438,7.0495253,7.034584,7.0181017,7.003704,6.9885836,6.9706345,6.953537,6.936775,6.91685,6.8986435,6.8841257,6.8668356,6.849436,6.8352175,6.819768,6.80459,6.7933154,6.7835436,6.7749953,6.769185,6.764401,6.7587886,6.7528257,6.747034,6.7392645,6.730936,6.72431,6.7169313,6.709655,6.704333,6.6996045,6.6954846,6.6929293,6.6911483,6.689328,6.6875725,6.6859026,6.683231,6.6796646,6.67632,6.6727047,6.6691866,6.6668987,6.665575,6.6649036,6.6648903,6.6650543,6.665595,6.6663465,6.6669674,6.6675515,6.667981,6.6681786,6.6679306,6.667418,6.666704,6.665428,6.6633186,6.660798,6.6582775,6.655202,6.6522245,6.649891,6.647829,6.6467004,6.6465435,6.646784,6.6476746,6.6488047,6.649802,6.651112,6.652766,6.654704,6.6571994,6.660473,6.664026,6.6702485,6.6798472,6.6902704,6.7032757,6.7225113,6.744714,6.7686,6.8026466,6.847987,6.900709,6.967796,7.036704,7.0912757,7.1530867,7.215596,7.263862,7.308647,7.3535414,7.400628,7.4673195,7.547991,7.618553,7.6655946,7.775545,7.9771795,8.205664,8.470961,8.60053,8.463447,7.9850874,7.2746797,6.739564,6.5544806,6.5138416,6.568942,6.5893517,6.6141224,6.6399417,6.661242,6.685201,6.669681,6.73936,4.3334146,18.233994,36.628452,36.310947,35.299168,34.62429,34.346043,33.65013,32.881832,32.457214,32.39549,32.534237,32.61869,32.527527,32.26059,31.955242,31.762989,31.524952,31.332066,31.233921,31.127544,30.987982,30.817268,30.523716,30.135084,29.7907,29.532299,29.026031,28.426691,27.9719,27.502808,27.092781,26.763542,26.453537,26.19759,26.022682,25.86171,25.704689,25.58027,25.471878,25.365238,25.288546,25.23638,25.179459,25.12495,25.078474,25.017773,24.943155,24.875227,24.807148,24.73801,24.686922,24.650444,24.602314,24.554981,24.519571,24.480282,24.442358,24.411564,24.38358,24.36107,24.347088,24.337276,24.323795,24.308758,24.29644,24.280045,24.264048,24.252335,24.23473,24.215961,24.201855,24.183632,24.162163,24.139748,24.104395,24.062813,24.028175,23.999325,23.964128,23.928589,23.897951,23.862276,23.828148,23.803116,23.77829,23.754782,23.737434,23.723227,23.707489,23.693508,23.682106,23.66864,23.656162,23.646631,23.636465,23.627071,23.619652,23.609692,23.598412,23.589375,23.581482,23.573475,23.567732,23.563885,23.561863,23.562767,23.565022,23.570282,23.578873,23.587257,23.595093,23.599579,23.598343,23.5933,23.58461,23.575768,23.569065,23.564392,23.568453,23.579727,23.594105,23.612019,23.62713,23.63836,23.64421,23.64304,23.63835,23.62907
12.200159,11.935104,11.66464,11.456068,11.2739105,11.057801,10.84494,10.659243,10.446619,10.225977,10.037233,9.828489,9.619618,9.459855,9.3089905,9.134996,8.97776,8.844877,8.690845,8.551435,8.444805,8.325168,8.212601,8.1282015,8.041351,7.9551587,7.888335,7.8293943,7.7683473,7.7199135,7.6824207,7.6430454,7.6106706,7.5872507,7.559963,7.532777,7.511339,7.488777,7.4639792,7.442174,7.4213066,7.397304,7.3757763,7.3577785,7.3364716,7.3159685,7.2996283,7.2807646,7.261167,7.2450542,7.228118,7.209034,7.192219,7.177019,7.1591063,7.142392,7.128371,7.1112957,7.0941496,7.0802016,7.0641103,7.046624,7.0316234,7.016058,6.9978533,6.980912,6.964876,6.945753,6.928156,6.9140806,6.8974047,6.8808765,6.8676133,6.853393,6.8395987,6.829414,6.8205824,6.8128195,6.8075037,6.8031254,6.798024,6.7926016,6.7873096,6.780014,6.7719545,6.765369,6.757864,6.750204,6.744401,6.7391806,6.7344007,6.7312245,6.728961,6.7266397,6.7247066,6.72324,6.7208776,6.717745,6.7148066,6.711614,6.708473,6.7063675,6.705055,6.7040586,6.703448,6.702983,6.702689,6.7026253,6.702632,6.702655,6.7026815,6.7026567,6.702281,6.701764,6.701144,6.700017,6.6981483,6.695899,6.693638,6.6908326,6.6880035,6.685683,6.683467,6.681864,6.681053,6.680395,6.6799674,6.6797028,6.6793084,6.67883,6.67874,6.679225,6.679941,6.681474,6.683665,6.688156,6.695855,6.704671,6.7157955,6.7329407,6.7534256,6.7758284,6.8085823,6.8519278,6.900823,6.9680247,7.040146,7.097646,7.1646852,7.234787,7.290646,7.3456106,7.3968506,7.4410954,7.495989,7.570648,7.649242,7.71295,7.8514357,8.072057,8.297001,8.537079,8.642967,8.50404,8.041489,7.345298,6.808568,6.607111,6.5595074,6.6167107,6.637022,6.6616335,6.6872716,6.7084317,6.7322445,6.7145624,6.786452,4.4077597,18.310658,36.731865,36.58002,35.45278,34.589935,34.360237,33.630188,32.84231,32.450424,32.299606,32.38239,32.488018,32.37514,32.097282,31.787989,31.570854,31.325357,31.150951,31.081285,31.001303,30.879356,30.717583,30.447079,30.098976,29.791214,29.546013,29.039577,28.437828,27.995638,27.512665,27.085695,26.762365,26.461779,26.218071,26.052544,25.90016,25.746643,25.620483,25.511358,25.400772,25.318874,25.26348,25.203892,25.148493,25.102562,25.044178,24.97336,24.909458,24.848167,24.787865,24.738735,24.688057,24.63133,24.58458,24.551153,24.514774,24.480227,24.452131,24.426525,24.405949,24.39321,24.384424,24.371075,24.355616,24.34349,24.327232,24.310791,24.297985,24.27939,24.260353,24.246727,24.229403,24.20911,24.187641,24.153156,24.112152,24.07774,24.049116,24.014496,23.97979,23.949924,23.91531,23.882088,23.857462,23.832726,23.808876,23.79088,23.775696,23.758678,23.743584,23.731358,23.717041,23.703873,23.693861,23.682966,23.672623,23.664322,23.653584,23.64171,23.632458,23.624619,23.617054,23.612093,23.609104,23.608475,23.61098,23.614521,23.62122,23.630941,23.639835,23.647825,23.65234,23.651352,23.647022,23.639439,23.631977,23.62683,23.62398,23.628012,23.637087,23.650845,23.668396,23.682564,23.691792,23.695538,23.693153,23.687828,23.678072
11.888588,11.696132,11.467329,11.253637,11.06488,10.846676,10.634586,10.4464035,10.228563,10.015207,9.848841,9.677352,9.49925,9.348629,9.20099,9.032337,8.8835335,8.75845,8.614372,8.485192,8.387275,8.278103,8.175597,8.098516,8.019596,7.9422703,7.883181,7.8311586,7.7775555,7.735994,7.7054596,7.6731033,7.64611,7.6264033,7.602498,7.5778875,7.558136,7.53689,7.513205,7.4923,7.472309,7.4496346,7.4292855,7.411803,7.390982,7.37103,7.355336,7.3371396,7.3180237,7.302063,7.2850046,7.2654715,7.248034,7.2321405,7.2132044,7.1953835,7.180401,7.1621923,7.144027,7.1293745,7.112621,7.0946026,7.0792556,7.0633683,7.04492,7.028138,7.012985,6.994771,6.9777765,6.9640927,6.9479074,6.932041,6.9195046,6.906209,6.8934555,6.884101,6.8760185,6.8688774,6.8639073,6.859766,6.85485,6.8495665,6.844434,6.8371696,6.8288116,6.8216963,6.8133564,6.8045473,6.797694,6.79153,6.785761,6.781878,6.779203,6.7766914,6.774837,6.773509,6.771488,6.7688284,6.766294,6.763574,6.76082,6.75885,6.757513,6.7562027,6.7550507,6.7540026,6.7528973,6.7520003,6.7513595,6.750772,6.7503176,6.749982,6.7493577,6.7486753,6.7479954,6.746881,6.745099,6.7429996,6.740922,6.7383184,6.735585,6.733224,6.730797,6.728669,6.7271786,6.725621,6.723922,6.722349,6.720667,6.71854,6.716838,6.7159576,6.7151794,6.7153463,6.716444,6.719166,6.724655,6.7315187,6.740405,6.755152,6.7736664,6.7942095,6.82537,6.86519,6.9067698,6.970234,7.042721,7.1018124,7.171336,7.245539,7.305957,7.3660283,7.4267254,7.4763117,7.520755,7.5895925,7.6757097,7.7563,7.9119096,8.137493,8.353558,8.576359,8.668977,8.53144,8.082972,7.4080105,6.880825,6.6644936,6.610156,6.669139,6.6892996,6.7136946,6.739093,6.7600613,6.7836637,6.7631073,6.837901,4.501898,18.366764,36.803947,36.988842,35.705116,34.5054,34.294,33.554974,32.781937,32.423214,32.230682,32.278175,32.38421,32.250008,31.959316,31.64122,31.394615,31.15604,31.011124,30.957434,30.89803,30.786064,30.623423,30.377934,30.07342,29.800114,29.558514,29.058275,28.467373,28.036415,27.533249,27.085226,26.770882,26.478565,26.243849,26.085285,25.940874,25.790928,25.66281,25.5519,25.43592,25.347366,25.287338,25.22488,25.168922,25.12331,25.06672,25.000824,24.943012,24.888168,24.82927,24.774082,24.71098,24.65263,24.612642,24.58139,24.548138,24.516945,24.491442,24.467827,24.4487,24.436836,24.428392,24.415422,24.400345,24.38844,24.371742,24.354004,24.33953,24.31975,24.300516,24.287395,24.271015,24.252037,24.231707,24.198322,24.158228,24.124367,24.096191,24.062435,24.028843,23.999943,23.966532,23.934227,23.909908,23.885092,23.860622,23.841679,23.825218,23.806616,23.790134,23.7768,23.761276,23.74705,23.736223,23.724213,23.712473,23.702904,23.690987,23.678087,23.668228,23.660046,23.652431,23.647781,23.645237,23.645494,23.649075,23.653467,23.661144,23.671642,23.680891,23.689083,23.693974,23.693707,23.69043,23.684505,23.678993,23.675747,23.675484,23.680548,23.688328,23.699865,23.715557,23.729168,23.737755,23.739971,23.735947,23.730152,23.720472
11.757378,11.567289,11.3457365,11.139698,10.948086,10.722919,10.51126,10.33667,10.130312,9.926481,9.767284,9.596455,9.41888,9.271999,9.129059,8.966879,8.825168,8.707726,8.572807,8.45133,8.358257,8.255186,8.15906,8.087254,8.014816,7.9447165,7.89186,7.846325,7.8007345,7.7660623,7.740399,7.711606,7.6865444,7.6683865,7.6477365,7.6265783,7.608849,7.5891714,7.567028,7.5475965,7.529375,7.507308,7.486435,7.468717,7.4476852,7.4275684,7.4117374,7.3933463,7.3739443,7.3576612,7.340164,7.3200083,7.301922,7.285388,7.265609,7.246963,7.23131,7.212377,7.1936626,7.178711,7.161781,7.1437874,7.1285973,7.1129646,7.094846,7.0782747,7.0631175,7.0448446,7.027788,7.0140686,6.997862,6.982031,6.96958,6.9564743,6.9440603,6.935112,6.9275866,6.9211707,6.916854,6.913249,6.9088707,6.9039545,6.899025,6.891898,6.883436,6.8760214,6.867141,6.8574014,6.8495054,6.842186,6.8350496,6.830023,6.8264685,6.8231177,6.8207474,6.819196,6.817144,6.8147583,6.8126173,6.810358,6.80797,6.806126,6.804841,6.8034134,6.801978,6.800597,6.7989798,6.7975173,6.796419,6.795389,6.794568,6.793981,6.7931333,6.792274,6.7915053,6.790368,6.788618,6.7866,6.784625,6.782114,6.7793593,6.776867,6.774152,6.771492,6.769392,6.7670856,6.7644224,6.7619324,6.759389,6.756247,6.753604,6.7519073,6.75041,6.7499743,6.750498,6.752038,6.755644,6.7605658,6.767408,6.7798004,6.7961445,6.814541,6.8436704,6.879344,6.9130516,6.9695005,7.038364,7.096863,7.1652474,7.239153,7.300331,7.3613367,7.4250216,7.4785337,7.526291,7.595954,7.682102,7.7651305,7.923472,8.14579,8.35275,8.571552,8.66304,8.52809,8.091338,7.4439363,6.9384346,6.7136903,6.654952,6.714793,6.734809,6.7590003,6.7841735,6.8049626,6.828367,6.8046665,6.882716,4.6016083,18.388107,36.80062,37.378735,35.95112,34.372177,34.124294,33.410088,32.698994,32.373188,32.20145,32.246475,32.33433,32.18579,31.880672,31.551048,31.29063,31.06665,30.943521,30.889835,30.84018,30.7329,30.567017,30.338566,30.067375,29.82178,29.582113,29.090927,28.512863,28.087593,27.56857,27.103266,26.791386,26.502388,26.271912,26.116486,25.977884,25.83015,25.699577,25.587248,25.466984,25.372967,25.308971,25.24345,25.186783,25.14212,25.086683,25.025711,24.97456,24.923996,24.856956,24.789768,24.729782,24.676003,24.639622,24.611132,24.580238,24.550674,24.526297,24.5039,24.485851,24.474606,24.466143,24.454044,24.439983,24.42757,24.409578,24.390335,24.374777,24.35413,24.33472,24.322,24.306309,24.288322,24.26889,24.236416,24.197147,24.16383,24.13609,24.103088,24.070393,24.042234,24.009682,23.977943,23.953701,23.928665,23.90356,23.883778,23.866245,23.84639,23.828835,23.814602,23.79808,23.782967,23.771454,23.758541,23.745657,23.73501,23.722126,23.708317,23.69783,23.689194,23.681328,23.67671,23.674313,23.675055,23.67926,23.684082,23.692232,23.703024,23.712332,23.720503,23.725601,23.72594,23.72367,23.719181,23.715229,23.713476,23.71481,23.721352,23.730263,23.739178,23.751724,23.76444,23.772738,23.774035,23.768835,23.76292,23.75386
11.627754,11.452303,11.238701,11.034329,10.851198,10.629223,10.416902,10.244104,10.040396,9.841412,9.687925,9.52055,9.346519,9.203741,9.065405,8.909996,8.775204,8.663193,8.535683,8.421373,8.333301,8.236349,8.146883,8.0808525,8.014691,7.952427,7.907243,7.869385,7.8322186,7.803564,7.7808094,7.7561545,7.7351127,7.719556,7.7017617,7.683258,7.667509,7.6499033,7.6293297,7.61051,7.592492,7.5703874,7.549346,7.531485,7.510312,7.4900575,7.4740896,7.4554806,7.435755,7.4191227,7.401185,7.3804054,7.3616705,7.344504,7.323926,7.304541,7.2883067,7.2687855,7.2497106,7.2346597,7.217805,7.2001476,7.18538,7.1701994,7.1525326,7.1362514,7.121273,7.1030693,7.085954,7.07214,7.0557895,7.039812,7.02727,7.0141277,7.001788,6.9929876,6.9856405,6.979494,6.975497,6.9722605,6.9682827,6.9636645,6.958926,6.951913,6.943287,6.9354835,6.9259214,6.915059,6.9059258,6.8972282,6.8884306,6.8819733,6.8772964,6.8728447,6.869751,6.8678317,6.8656063,6.863412,6.861662,6.859948,6.858225,6.8568707,6.8558674,6.85439,6.8526793,6.8511496,6.849186,6.847269,6.8458,6.8443875,6.84321,6.842345,6.8412256,6.8401012,6.839158,6.83794,6.8362226,6.8343163,6.8324523,6.829995,6.82714,6.824435,6.8213143,6.81798,6.8151455,6.8119907,6.8082333,6.8047104,6.801218,6.797242,6.7940187,6.7918086,6.7894726,6.788045,6.7877407,6.7882433,6.790616,6.7943087,6.799494,6.8086605,6.821392,6.837249,6.863533,6.8963456,6.927809,6.9746284,7.030451,7.0797567,7.144318,7.217201,7.277289,7.336178,7.401475,7.461059,7.518248,7.5872726,7.667267,7.7508917,7.905017,8.118183,8.315807,8.532342,8.617034,8.477648,8.073125,7.472797,6.995307,6.764512,6.7020226,6.7623134,6.782146,6.80609,6.830995,6.8515716,6.8747444,6.847436,6.9292326,4.720847,18.373074,36.69822,37.728195,36.17189,34.195587,33.908684,33.239384,32.610817,32.32353,32.217285,32.27568,32.321022,32.155125,31.831669,31.491749,31.234943,31.015953,30.896574,30.844173,30.80292,30.696262,30.522053,30.30783,30.068249,29.849476,29.610495,29.132301,28.569065,28.139648,27.607765,27.130814,26.81725,26.528423,26.300253,26.147556,26.01512,25.868656,25.734146,25.62122,25.497868,25.399231,25.331732,25.26286,25.205097,25.161692,25.111275,25.054895,25.005203,24.960152,24.886585,24.807926,24.752716,24.70393,24.670345,24.643925,24.615383,24.58784,24.564793,24.543472,24.525986,24.514973,24.507376,24.495752,24.481255,24.467827,24.448486,24.427864,24.411077,24.389332,24.369434,24.356789,24.341335,24.32387,24.305038,24.273178,24.23449,24.201542,24.174028,24.141504,24.10938,24.081654,24.049564,24.01802,23.993645,23.968212,23.942463,23.92199,23.903576,23.882767,23.86448,23.849674,23.83252,23.816833,23.804855,23.791359,23.777699,23.766287,23.752705,23.738262,23.727352,23.718409,23.710445,23.706032,23.703949,23.705334,23.710234,23.715487,23.723991,23.73481,23.74387,23.751677,23.75661,23.757233,23.755634,23.752172,23.749355,23.748692,23.751251,23.75862,23.767776,23.777027,23.787418,23.79626,23.802578,23.803606,23.799065,23.79278,23.78359
11.547455,11.372334,11.156668,10.952142,10.772166,10.55112,10.337739,10.164356,9.963388,9.76878,9.618227,9.452267,9.279776,9.139689,9.00582,8.857618,8.730572,8.625298,8.505491,8.398834,8.317717,8.228731,8.147606,8.088747,8.031208,7.978532,7.9411497,7.9100733,7.8799276,7.8565493,7.837225,7.8167844,7.7995024,7.7864447,7.771074,7.7545013,7.740018,7.7235994,7.703697,7.684864,7.6665134,7.6439915,7.6225853,7.604372,7.5827417,7.5619984,7.5456133,7.526517,7.5062246,7.4890594,7.4705105,7.4489765,7.429528,7.4116793,7.3903027,7.37024,7.3535156,7.333566,7.314329,7.2993503,7.282795,7.2657266,7.2515864,7.237058,7.2200193,7.2041206,7.1893573,7.1711903,7.153903,7.1398597,7.1231737,7.106823,7.0939884,7.080576,7.0680485,7.0591793,7.0518312,7.0457826,7.0419617,7.038923,7.035312,7.0310974,7.0266504,7.01989,7.011239,7.003134,6.9929695,6.980998,6.9705887,6.9605083,6.949934,6.941784,6.935646,6.929576,6.92517,6.922366,6.9194207,6.917037,6.915535,6.914312,6.9133797,6.912772,6.912381,6.911345,6.909743,6.908137,6.9060497,6.9039297,6.9022017,6.9004474,6.898844,6.8975873,6.8960466,6.8944807,6.893227,6.89184,6.8901043,6.8882914,6.886505,6.8840237,6.880955,6.877939,6.8742723,6.8700857,6.8663573,6.8621416,6.8573084,6.8530006,6.8488083,6.844016,6.8400707,6.837332,6.8342314,6.831911,6.8308206,6.830357,6.8315315,6.833992,6.8375707,6.844096,6.8535323,6.8656225,6.8866887,6.914803,6.9437304,6.9831696,7.0294013,7.071535,7.1284127,7.194709,7.251067,7.3077393,7.373426,7.4356174,7.496478,7.568241,7.640678,7.704522,7.841193,8.038196,8.220707,8.416694,8.487388,8.356142,8.002217,7.4738836,7.044562,6.8202505,6.758502,6.817402,6.8370104,6.8606443,6.885214,6.905526,6.9284163,6.8934426,6.9836874,4.944276,18.302399,36.289528,37.806946,36.276257,33.997757,33.57697,33.058567,32.60281,32.29666,32.29869,32.38002,32.33944,32.156616,31.816044,31.462753,31.208221,30.989891,30.870535,30.819544,30.777187,30.667,30.491238,30.289825,30.083586,29.896517,29.656137,29.197937,28.655846,28.21207,27.669065,27.184317,26.863472,26.569613,26.341236,26.19039,26.049671,25.900908,25.77165,25.659248,25.53386,25.43148,25.360355,25.289917,25.233337,25.192108,25.14498,25.091555,25.042435,24.993614,24.915184,24.835335,24.784805,24.74052,24.709583,24.68503,24.658657,24.632917,24.610924,24.590256,24.572865,24.5618,24.555119,24.543575,24.528017,24.513405,24.492725,24.470892,24.453062,24.43039,24.410027,24.397339,24.381895,24.364666,24.346214,24.314789,24.276583,24.24398,24.216671,24.184507,24.152748,24.12523,24.093275,24.061558,24.036743,24.010643,23.98407,23.962877,23.94366,23.922073,23.903255,23.888037,23.870422,23.85432,23.842022,23.828201,23.814123,23.802269,23.788334,23.773544,23.762358,23.753174,23.74513,23.740902,23.739124,23.74112,23.74662,23.752165,23.760778,23.771309,23.77985,23.787022,23.791534,23.792261,23.79118,23.788475,23.786469,23.786606,23.790024,23.797892,23.807098,23.816849,23.826437,23.833212,23.837822,23.838104,23.833578,23.826473,23.816746
11.500016,11.316156,11.095077,10.891021,10.708323,10.486303,10.274023,10.101805,9.90465,9.712935,9.562061,9.396309,9.225023,9.087497,8.958189,8.817008,8.697441,8.599084,8.487062,8.388315,8.314743,8.2347145,8.162897,8.111633,8.062532,8.017923,7.9860106,7.95918,7.933129,7.913274,7.897522,7.8802185,7.8650246,7.853451,7.8394365,7.8236737,7.8094234,7.79294,7.7726545,7.753336,7.734475,7.71131,7.689268,7.6704803,7.6480904,7.6265535,7.60952,7.5897293,7.5687284,7.55097,7.5317945,7.5095787,7.4895525,7.471176,7.4492216,7.4287195,7.411716,7.391606,7.3724623,7.357732,7.3416576,7.325318,7.311881,7.2980757,7.2817206,7.266225,7.2516737,7.233508,7.2159843,7.2016435,7.184535,7.167714,7.1544986,7.1406994,7.127824,7.1187363,7.111267,7.1051974,7.101448,7.098498,7.0951767,7.0913773,7.087287,7.080962,7.072591,7.064498,7.05414,7.0416126,7.0304556,7.019492,7.00762,6.9980674,6.9906073,6.98293,6.9770555,6.9731455,6.9691887,6.966282,6.964753,6.9637566,6.9634237,6.9635344,6.963893,6.9637084,6.962678,6.96126,6.9593363,6.9572554,6.955452,6.9534445,6.9513855,6.9496484,6.9475565,6.9453726,6.943638,6.9418945,6.939925,6.938017,6.93615,6.9334645,6.930028,6.9265914,6.9222584,6.9171824,6.9126263,6.907456,6.901702,6.8967752,6.8921127,6.8866115,6.881934,6.8786836,6.8750143,6.872081,6.8703895,6.869115,6.869191,6.8705335,6.8728075,6.8778377,6.8852572,6.8938646,6.909565,6.9321938,6.956932,6.9920874,7.0344596,7.0732603,7.121995,7.1796436,7.2314987,7.286457,7.351452,7.4123,7.4695387,7.542157,7.608033,7.649477,7.7585235,7.92949,8.094074,8.259294,8.315342,8.202209,7.8988953,7.4447956,7.0721054,6.8695183,6.814606,6.8699756,6.8893437,6.9126787,6.9369354,6.956993,6.979603,6.9333735,7.036294,5.231266,18.263233,35.779892,37.62788,36.241364,33.850708,33.25999,32.906826,32.63392,32.292187,32.429348,32.531773,32.37036,32.17081,31.82027,31.457363,31.200905,30.982351,30.864525,30.815464,30.762085,30.645416,30.478134,30.29235,30.115408,29.953564,29.709898,29.274595,28.756962,28.29618,27.744837,27.254684,26.923191,26.621408,26.386024,26.228142,26.07283,25.922163,25.803171,25.692558,25.567179,25.463686,25.391247,25.321936,25.267939,25.228455,25.181705,25.129414,25.081009,25.021797,24.941128,24.868698,24.820522,24.778385,24.749039,24.725594,24.700256,24.675076,24.653164,24.632019,24.614428,24.603714,24.597149,24.585066,24.568527,24.553112,24.531693,24.509354,24.491158,24.468208,24.44772,24.43499,24.419392,24.40203,24.383564,24.35225,24.314266,24.281893,24.254728,24.222763,24.191143,24.163647,24.131556,24.099398,24.073997,24.047157,24.019773,23.997948,23.978138,23.956055,23.936934,23.921474,23.903599,23.887304,23.874905,23.86111,23.84711,23.83528,23.821457,23.80666,23.795303,23.785862,23.777542,23.773174,23.7714,23.77362,23.779377,23.784985,23.79348,23.803627,23.811703,23.818344,23.822569,23.823452,23.82283,23.820675,23.819159,23.819746,23.82357,23.831585,23.84071,23.85034,23.860128,23.867254,23.871307,23.870842,23.865765,23.85809,23.847813
11.435053,11.250124,11.031094,10.828585,10.646132,10.426318,10.217855,10.049288,9.855057,9.663067,9.509512,9.344027,9.175905,9.042965,8.919079,8.785123,8.672337,8.579138,8.475076,8.384769,8.317366,8.246014,8.183822,8.14007,8.096614,8.056482,8.027849,8.004279,7.981346,7.9640455,7.9510837,7.9358463,7.9217033,7.910885,7.8975277,7.882076,7.8678164,7.8511314,7.8304024,7.8105626,7.7911816,7.767253,7.744398,7.724922,7.7016773,7.6792836,7.661562,7.6410265,7.6193147,7.601018,7.581321,7.558591,7.5381746,7.519477,7.49718,7.4764376,7.4593096,7.439212,7.4203215,7.405966,7.3904905,7.3749647,7.362276,7.3492146,7.3335443,7.3184414,7.3040924,7.2859173,7.268159,7.2535305,7.2360134,7.2187357,7.205145,7.1909494,7.1777,7.168356,7.1607065,7.1545477,7.150856,7.1480837,7.145001,7.1414948,7.1377287,7.1319227,7.1240406,7.116198,7.1059756,7.093434,7.082097,7.070656,7.057934,7.047393,7.03897,7.030117,7.0231466,7.0183907,7.013648,7.0102425,7.0085287,7.00755,7.0075655,7.0082164,7.009226,7.0098906,7.009615,7.0087852,7.0071735,7.0051355,7.0033817,7.001194,6.9986906,6.9964523,6.993764,6.990864,6.988508,6.986206,6.98374,6.9815025,6.979378,6.9763193,6.972376,6.968403,6.963275,6.9573355,6.9521384,6.9463434,6.939684,6.9338484,6.928566,6.9225082,6.917408,6.913782,6.909641,6.906148,6.903906,6.901877,6.901078,6.9016466,6.9029846,6.906703,6.912547,6.919316,6.9320154,6.950451,6.9704027,7.000002,7.0364275,7.0698915,7.11333,7.1663303,7.21511,7.267414,7.331237,7.391451,7.4465914,7.5112624,7.569993,7.61387,7.692939,7.826566,7.975372,8.121219,8.16991,8.069591,7.8028336,7.40657,7.083806,6.9098387,6.864897,6.915787,6.9349003,6.957987,6.9820085,7.001854,7.0242023,6.9664435,7.0823717,5.4902825,18.330105,35.49642,37.490654,36.198875,33.774944,33.07926,32.779564,32.59411,32.26915,32.570053,32.695812,32.39456,32.172844,31.816484,31.452452,31.197174,30.980738,30.86533,30.818298,30.751377,30.627419,30.471642,30.309074,30.156628,30.006367,29.758781,29.344927,28.851454,28.37909,27.820297,27.323248,26.981527,26.673351,26.422886,26.244719,26.087027,25.940353,25.825056,25.716911,25.5933,25.491219,25.420925,25.353882,25.301132,25.26168,25.215471,25.16444,25.116522,25.050968,24.968632,24.900269,24.853298,24.811708,24.782482,24.759388,24.733908,24.707996,24.685198,24.662315,24.644579,24.635275,24.627922,24.61481,24.597757,24.58199,24.56047,24.538326,24.520372,24.497707,24.477428,24.46476,24.44894,24.431181,24.412397,24.380917,24.34291,24.310616,24.283493,24.251595,24.220005,24.192493,24.160198,24.127575,24.101633,24.074177,24.046124,24.02378,24.00352,23.981075,23.961754,23.946127,23.92808,23.911726,23.899387,23.88584,23.872204,23.860676,23.847187,23.832512,23.820951,23.81112,23.802197,23.797277,23.795132,23.79715,23.802858,23.808397,23.816746,23.826693,23.834595,23.841047,23.84536,23.846657,23.84661,23.845055,23.843975,23.844885,23.848923,23.856915,23.865875,23.875305,23.884838,23.89177,23.895794,23.89555,23.890823,23.883543,23.872969
11.351801,11.168402,10.94825,10.741552,10.556135,10.336088,10.132078,9.970683,9.781144,9.592253,9.441739,9.28039,9.1182785,8.991907,8.875499,8.751218,8.6478815,8.563141,8.469342,8.389351,8.33089,8.269508,8.216162,8.17834,8.140526,8.105257,8.079874,8.05901,8.038541,8.023031,8.011556,7.998128,7.98515,7.9744744,7.961148,7.945403,7.930682,7.9133797,7.8918414,7.871253,7.851189,7.8264246,7.802764,7.782604,7.758497,7.7352295,7.716799,7.6955156,7.673109,7.6543045,7.634119,7.610972,7.5902977,7.571403,7.548904,7.5280447,7.51089,7.4909196,7.4723806,7.4584627,7.4436817,7.4290886,7.417244,7.4050035,7.3900795,7.37541,7.361289,7.3431396,7.32518,7.3102894,7.2924757,7.2748814,7.2610064,7.246478,7.2328515,7.2231827,7.215187,7.2088227,7.205185,7.2025967,7.1999245,7.197014,7.1938477,7.1888895,7.1819673,7.174919,7.1655655,7.153783,7.1428423,7.1315556,7.1186132,7.107541,7.098568,7.0886846,7.080445,7.074605,7.068773,7.064515,7.062316,7.061124,7.061369,7.0625296,7.0640993,7.065544,7.066023,7.065807,7.0647397,7.0629015,7.0610523,7.0585213,7.0553436,7.05236,7.048792,7.044868,7.0416546,7.038635,7.035385,7.0324574,7.0297565,7.0259256,7.0212646,7.016827,7.010929,7.0039744,6.9978437,6.9911075,6.9832954,6.976376,6.9701424,6.9631147,6.957236,6.9529696,6.9480686,6.9438043,6.9409018,6.938143,6.935711,6.9340615,6.9332514,6.934403,6.937866,6.9425898,6.9524856,6.9668674,6.9816875,7.0047226,7.03459,7.063135,7.101486,7.149668,7.1948757,7.244062,7.3054986,7.3638687,7.4163914,7.476665,7.529725,7.569563,7.6168213,7.7127733,7.843552,7.968836,8.00557,7.91453,7.6994514,7.370327,7.0973654,6.957965,6.9253287,6.9708004,6.9895864,7.0123835,7.03614,7.0557375,7.077771,7.001992,7.138447,5.873776,18.465261,35.083935,37.08792,35.914963,33.564583,32.788662,32.51024,32.49609,32.3873,32.728428,32.774746,32.381523,32.14932,31.797293,31.439468,31.190731,30.981606,30.871805,30.828018,30.749207,30.617422,30.47118,30.336393,30.212645,30.07386,29.81849,29.429398,28.966936,28.483734,27.91836,27.41414,27.060562,26.743229,26.472813,26.269474,26.107628,25.964066,25.852024,25.746857,25.625408,25.525732,25.460117,25.395245,25.342667,25.303528,25.25782,25.208687,25.162292,25.089872,25.005632,24.941723,24.895906,24.855404,24.826653,24.803257,24.776882,24.74966,24.72575,24.701874,24.683949,24.674934,24.666529,24.65222,24.634506,24.618366,24.596714,24.574738,24.557056,24.534641,24.51439,24.501505,24.48511,24.466473,24.446947,24.414967,24.376686,24.344372,24.317299,24.285507,24.254013,24.22652,24.194054,24.160976,24.134495,24.106403,24.07771,24.054935,24.034355,24.011715,23.992346,23.976704,23.958633,23.942348,23.930187,23.917044,23.904028,23.89308,23.880156,23.865751,23.854008,23.8437,23.834015,23.828354,23.825665,23.827261,23.83273,23.838108,23.846176,23.85587,23.863678,23.870079,23.87474,23.87672,23.877457,23.876667,23.876106,23.8774,23.88166,23.889635,23.89847,23.907696,23.916943,23.923649,23.927597,23.927498,23.923038,23.915997,23.905586
11.244955,11.057625,10.832298,10.623063,10.4402275,10.226924,10.03186,9.878252,9.695587,9.513576,9.3700485,9.216212,9.062767,8.944508,8.836771,8.722925,8.629722,8.554806,8.472974,8.40456,8.355603,8.303188,8.25668,8.22323,8.190161,8.159175,8.136518,8.11755,8.098587,8.083733,8.072197,8.058847,8.045703,8.034414,8.020279,8.003513,7.9878435,7.9694996,7.94678,7.925145,7.90405,7.878145,7.8535166,7.8325686,7.8075533,7.783438,7.7643466,7.742328,7.7192926,7.7001066,7.6795797,7.6561465,7.6353197,7.616378,7.5939064,7.573223,7.556357,7.5369663,7.5193,7.5062647,7.49251,7.478962,7.4679065,7.45643,7.442198,7.427951,7.4140844,7.396061,7.378072,7.3631,7.345198,7.327506,7.313533,7.2988443,7.284979,7.275058,7.26676,7.260084,7.256298,7.253727,7.251338,7.2490444,7.2466245,7.242751,7.237191,7.2314053,7.2235637,7.213353,7.2035723,7.193282,7.1811514,7.1702003,7.160613,7.1495137,7.1398296,7.1328135,7.125866,7.120963,7.118602,7.117099,7.1172123,7.118536,7.120451,7.122511,7.123655,7.1239944,7.123498,7.121857,7.119788,7.116768,7.1127253,7.108807,7.1041417,7.098941,7.0946465,7.0907083,7.086403,7.0825806,7.079259,7.0746727,7.0692673,7.06423,7.0575285,7.0494895,7.0422716,7.0343904,7.025283,7.017229,7.009987,7.0016413,6.9944773,6.989208,6.9831424,6.977682,6.9737225,6.9695835,6.9653053,6.9618,6.9589844,6.9577093,6.9588337,6.96128,6.968231,6.9791646,6.9903383,7.0082397,7.0326853,7.0570674,7.0903664,7.132519,7.1723123,7.216463,7.2729387,7.3279505,7.3785176,7.438326,7.489168,7.5232964,7.5544267,7.6243286,7.7300134,7.8330774,7.861083,7.7834272,7.6163883,7.3472834,7.117872,7.0090284,6.987261,7.027913,7.0463796,7.0688615,7.0923142,7.111636,7.133334,7.0318065,7.197818,6.363099,18.807152,34.83192,36.562355,35.471863,33.337765,32.541824,32.294098,32.442726,32.550346,32.797367,32.72859,32.340546,32.109806,31.76749,31.42265,31.18584,30.988567,30.88653,30.846424,30.760527,30.622192,30.48095,30.37571,30.272316,30.13311,29.878641,29.519108,29.087446,28.59724,28.028543,27.518927,27.154224,26.826038,26.534887,26.30756,26.139078,25.995213,25.884357,25.780987,25.663485,25.56818,25.505596,25.441702,25.38887,25.350084,25.305206,25.2562,25.208683,25.132925,25.04931,24.989464,24.945156,24.905746,24.877094,24.852987,24.825409,24.796724,24.771715,24.748478,24.730902,24.720966,24.711464,24.696026,24.677628,24.661093,24.639122,24.617012,24.59936,24.57685,24.556171,24.542618,24.525194,24.505173,24.484459,24.451597,24.412743,24.380325,24.353354,24.32185,24.290726,24.26353,24.23121,24.198023,24.171288,24.142868,24.113865,24.090944,24.070328,24.047775,24.02856,24.013039,23.995031,23.978851,23.966904,23.954151,23.941755,23.931421,23.919022,23.904812,23.892803,23.881918,23.871292,23.864668,23.861233,23.862104,23.867035,23.872059,23.879696,23.889177,23.897102,23.903786,23.909264,23.912357,23.914196,23.914558,23.914848,23.916769,23.921478,23.929638,23.938538,23.947624,23.956556,23.96297,23.966732,23.96658,23.96218,23.955177,23.944992
11.133744,10.936833,10.706802,10.502235,10.329825,10.130995,9.947618,9.7991905,9.623785,9.44948,9.312141,9.165684,9.020708,8.909965,8.809833,8.704573,8.619435,8.552422,8.481391,8.423248,8.381359,8.3351345,8.293446,8.263611,8.233986,8.206049,8.185381,8.167763,8.149656,8.134761,8.122555,8.107765,8.093086,8.080922,8.065591,8.047508,8.030759,8.011287,7.987352,7.9646473,7.9424396,7.9153295,7.8897085,7.8679485,7.8420796,7.81726,7.797662,7.775049,7.751567,7.732192,7.7115183,7.6879444,7.6670403,7.6481533,7.625884,7.6056066,7.589266,7.5707774,7.55433,7.542453,7.529888,7.517358,7.5069456,7.4960895,7.482422,7.4685454,7.4549294,7.4371176,7.4192667,7.4044037,7.3865676,7.3689013,7.354948,7.3402176,7.326227,7.3161488,7.307681,7.3006625,7.296522,7.29376,7.29134,7.289376,7.2875366,7.2846127,7.280347,7.2758036,7.269475,7.260993,7.252649,7.2436733,7.232769,7.2221556,7.211746,7.199368,7.188385,7.18039,7.1726027,7.1675053,7.1654673,7.1638637,7.163789,7.1650743,7.167136,7.169602,7.171243,7.171997,7.1718674,7.1702876,7.1680074,7.1644926,7.159622,7.154845,7.149175,7.142783,7.137455,7.1326084,7.1273108,7.122749,7.119028,7.1140223,7.108036,7.102262,7.094752,7.085741,7.077567,7.0685987,7.0582304,7.049103,7.0410147,7.031377,7.022824,7.016485,7.009157,7.002308,6.997026,6.990924,6.9851875,6.981246,6.9775457,6.975045,6.974663,6.975045,6.9791164,6.987418,6.996944,7.0122576,7.0332522,7.0542083,7.0826645,7.1183186,7.1519756,7.1901965,7.2407246,7.2920885,7.341548,7.4017415,7.452673,7.4848623,7.5179667,7.576124,7.654522,7.736991,7.7636557,7.704843,7.5675683,7.339718,7.1437597,7.0540786,7.0389338,7.0765233,7.094756,7.116948,7.140094,7.1591578,7.180559,7.049651,7.24956,6.863094,19.354279,34.93637,36.177185,35.108284,33.262886,32.481293,32.27605,32.48086,32.626724,32.752563,32.62679,32.303677,32.07811,31.743084,31.41189,31.187836,31.002296,30.907053,30.86966,30.78088,30.639252,30.500885,30.419437,30.321278,30.169346,29.927725,29.597008,29.187622,28.695423,28.1271,27.61486,27.242046,26.904198,26.597233,26.353367,26.176964,26.029259,25.917433,25.814066,25.701414,25.611073,25.547653,25.483507,25.430822,25.392183,25.3485,25.297089,25.244669,25.17009,25.090015,25.033161,24.990543,24.951712,24.92254,24.897896,24.8695,24.839975,24.814512,24.792873,24.776052,24.764938,24.754602,24.738361,24.719425,24.702534,24.680101,24.657555,24.639635,24.616682,24.59525,24.58081,24.562244,24.540775,24.518814,24.485,24.445492,24.412941,24.386127,24.35505,24.324505,24.297838,24.265953,24.23299,24.206305,24.177887,24.148903,24.126078,24.105629,24.08334,24.064373,24.049019,24.03109,24.014969,24.00317,23.990643,23.978615,23.968655,23.956509,23.942284,23.929935,23.91848,23.906944,23.899376,23.895176,23.895212,23.89944,23.90398,23.911114,23.920425,23.928589,23.935755,23.942268,23.94662,23.949692,23.95143,23.95284,23.955597,23.961002,23.969578,23.978722,23.987774,23.996399,24.002466,24.005928,24.005516,24.000967,23.993885,23.983597
