5.361888,5.356075,5.341815,5.3345566,5.328128,5.3262057,5.325286,5.329571,5.3375216,5.345559,5.3490887,5.352708,5.355213,5.35742,5.3593674,5.3601656,5.361019,5.3616357,5.3623867,5.3632517,5.363813,5.364667,5.3652887,5.365627,5.3654995,5.365176,5.3640966,5.362648,5.3605385,5.3582067,5.3566036,5.3550653,5.3543377,5.35345,5.352743,5.352229,5.3516655,5.3513064,5.3507805,5.3502836,5.3498564,5.349374,5.3490424,5.3487005,5.348464,5.348197,5.3478413,5.3475294,5.34714,5.346921,5.3468766,5.3470783,5.347353,5.347685,5.347885,5.348153,5.348033,5.347434,5.3466196,5.3460827,5.345401,5.344846,5.344508,5.3439045,5.343267,5.34235,5.3415127,5.340716,5.339938,5.339479,5.338838,5.338342,5.3379264,5.337499,5.3371043,5.3366203,5.3362675,5.3358116,5.3353233,5.334896,5.3344107,5.334102,5.3337526,5.333291,5.3326225,5.331816,5.331316,5.330704,5.330125,5.3294163,5.32845,5.3276825,5.3265967,5.3256674,5.324666,5.323535,5.322651,5.3213997,5.3203726,5.319155,5.3177032,5.3162966,5.3144674,5.313151,5.31147,5.309801,5.308275,5.306222,5.3046255,5.3025646,5.300992,5.2998476,5.2989397,5.298467,5.298083,5.2980304,5.298066,5.2983828,5.298772,5.2994227,5.300046,5.3008604,5.3018036,5.302555,5.3036747,5.3046203,5.3057804,5.3069754,5.308028,5.3096066,5.310957,5.3129663,5.3150826,5.317238,5.3200207,5.3221636,5.3248787,5.3270197,5.329262,5.33167,5.3334312,5.335794,5.3376484,5.339821,5.342136,5.3440013,5.3465376,5.348502,5.351041,5.3535895,5.3557453,5.3585324,5.3606024,5.363202,5.3654537,5.367489,5.3699503,5.3717794,5.3743305,5.376569,5.3789244,5.381632,5.3836784,5.3863773,5.388499,5.391021,5.393837,5.396242,5.398875,5.4004393,5.402602,5.404588,5.4060187,5.407603,5.408617,5.40989,5.4109917,5.411992,5.413228,5.4141455,5.4153843,5.4164534,5.417536,5.41885,5.4198904,5.421485,5.4228554,5.4242034,5.425623,5.4268074,5.428392,5.429604,5.431106,5.4326596,5.43396,5.435795,5.4372735,5.4392223,5.441004,5.442459,5.444292,5.445716,5.4476624,5.449417,5.451187,5.4534073,5.4551864,5.457674,5.4597607,5.4620743,5.464608,5.46657,5.469278,5.471422,5.4740367,5.476756,5.4790316,5.482051,5.4843264,5.48714,5.4896665,5.4918513,5.4944196,5.4962206,5.4984818,5.5002775,5.501935,5.5037055,5.5049458,5.506516,5.5076866,5.508916,5.5101967,5.5111723,5.512454,5.5134187,5.514534,5.5156717,5.516612,5.5178947,5.518902,5.520193,5.521454,5.522582,5.5239463,5.524902,5.526037,5.5269065,5.527692,5.528571,5.5292115,5.5301313,5.5309973,5.532061,5.53344,5.5345936,5.536198,5.5375032,5.539093,5.5407543,5.5420647,5.5437603,5.545006,5.5466285,5.5480323,5.54906,5.5499983,5.550456,5.5506635,5.5498037,5.547927,5.544258,5.540742,5.5365524,5.535613,5.5398326,5.5496426,5.559067,5.5693426,5.5768356,5.5900445,5.610113,5.632327,5.652729,5.656581,5.6393642,5.569154,5.4901514,5.243021,4.95652,4.6708784,4.5559907,4.5811954,4.8115306,5.0944204,5.3809633,5.529865,5.5994883,5.6185656,5.6348333,5.6349773,5.620719,5.6131387,5.60835,5.607593,5.5950885,5.5777073,5.563946,5.557601,5.5561733,5.558524
5.3579626,5.3573713,5.3466434,5.3383207,5.3328457,5.3328867,5.331673,5.3350964,5.3433495,5.351101,5.3538404,5.3565774,5.3583965,5.3601823,5.3622413,5.363577,5.364866,5.3657017,5.3665495,5.367441,5.367996,5.3687973,5.3693314,5.369588,5.3693495,5.368925,5.3677807,5.366318,5.364135,5.361717,5.3600607,5.3584785,5.3577366,5.3568225,5.3560953,5.355567,5.35499,5.3546233,5.354086,5.3535776,5.35314,5.3526425,5.3522973,5.351919,5.3516493,5.351377,5.3510175,5.3506985,5.3502426,5.3499174,5.3497243,5.349761,5.349921,5.3501596,5.350337,5.3505983,5.3505096,5.3499584,5.3491907,5.348672,5.3480034,5.347443,5.347092,5.3464537,5.3457785,5.3448105,5.3439283,5.3430815,5.342277,5.3418236,5.34122,5.340773,5.340404,5.340004,5.3396115,5.339079,5.33865,5.3380938,5.3375063,5.337014,5.3364806,5.336168,5.3358808,5.335535,5.3349714,5.334293,5.3338785,5.3333035,5.332715,5.332039,5.3310804,5.3302784,5.3291326,5.3281446,5.327089,5.325909,5.324997,5.323687,5.322609,5.3214025,5.31995,5.3184857,5.316548,5.315125,5.3132076,5.311326,5.309741,5.3076677,5.3060694,5.303938,5.3022766,5.301079,5.3001375,5.299656,5.2992716,5.2992363,5.2993,5.299673,5.300119,5.3008604,5.3015637,5.3024683,5.3034954,5.3043065,5.3054934,5.3064814,5.307687,5.3089104,5.309981,5.311573,5.3129272,5.314946,5.3170815,5.3192635,5.3221073,5.324314,5.327136,5.329382,5.3317347,5.3342547,5.336091,5.3385344,5.340434,5.3426414,5.3449636,5.346822,5.3493257,5.35125,5.35373,5.35621,5.358302,5.361006,5.3630157,5.3655415,5.367731,5.3697104,5.372098,5.373866,5.376337,5.3785133,5.380809,5.3834724,5.385505,5.388191,5.390297,5.392768,5.3954935,5.3977013,5.400746,5.403118,5.406151,5.4087896,5.410511,5.4122944,5.4133806,5.4148006,5.4160347,5.417115,5.418445,5.419441,5.4207783,5.421917,5.423058,5.4243956,5.4254274,5.4269266,5.4282303,5.429761,5.4315166,5.43295,5.4348702,5.4363413,5.4381456,5.4399996,5.44156,5.443716,5.445421,5.4477205,5.4497576,5.4512615,5.4531536,5.4546742,5.4567623,5.4586535,5.4605737,5.4629254,5.464763,5.4672947,5.4693837,5.4716783,5.474185,5.476138,5.4788284,5.480956,5.483551,5.4862547,5.4885216,5.4915457,5.493837,5.49668,5.499243,5.501462,5.504076,5.5059137,5.5082245,5.510067,5.511773,5.513607,5.514898,5.516537,5.5177646,5.5190544,5.5203996,5.5214243,5.5227666,5.5237756,5.5249357,5.526107,5.5270643,5.5283594,5.5293703,5.530665,5.531933,5.5330725,5.534468,5.5354595,5.536643,5.537553,5.538371,5.539272,5.539918,5.5408287,5.5416737,5.5427136,5.5440636,5.5451946,5.546776,5.5480685,5.549659,5.5513377,5.5526648,5.5544014,5.555697,5.557425,5.5589046,5.559925,5.560791,5.5611653,5.561282,5.560267,5.5580983,5.554022,5.5502176,5.5455832,5.5442443,5.548052,5.557492,5.5666695,5.577124,5.584928,5.5972233,5.6168804,5.64026,5.6618686,5.6661997,5.6498084,5.5794954,5.499737,5.2485313,4.956791,4.662837,4.541815,4.565423,4.798295,5.0850897,5.380787,5.5377426,5.608288,5.6267996,5.6448083,5.645274,5.6301603,5.6234856,5.619532,5.61823,5.6054726,5.5883703,5.575066,5.569211,5.568037,5.5707397
5.3552203,5.3598256,5.352316,5.3423033,5.3362613,5.337344,5.3388205,5.34384,5.3506594,5.3571672,5.3596444,5.361225,5.361885,5.3631783,5.3650746,5.366558,5.368003,5.3690157,5.370055,5.3711066,5.371712,5.3725104,5.3729916,5.3732176,5.3729305,5.372452,5.371258,5.36977,5.3675365,5.3650627,5.363369,5.3617597,5.3610125,5.3600836,5.3593464,5.3588147,5.358243,5.357884,5.357361,5.356867,5.3564425,5.3559546,5.355613,5.355214,5.3549194,5.3546543,5.354287,5.3539367,5.3534346,5.353063,5.3527975,5.352729,5.352788,5.3529367,5.353085,5.3533373,5.3532763,5.352767,5.352038,5.3515296,5.3508487,5.350251,5.349859,5.349163,5.3484445,5.347412,5.34647,5.3455577,5.344697,5.3442216,5.343616,5.34319,5.342847,5.342453,5.3420463,5.341447,5.34093,5.3402576,5.3395624,5.338998,5.3384123,5.3380947,5.3378735,5.3376465,5.337199,5.336626,5.3362513,5.335688,5.335096,5.33447,5.3335333,5.3327,5.331529,5.330525,5.329426,5.3282075,5.3272896,5.3259563,5.324854,5.3236465,5.3221807,5.3206773,5.318658,5.317153,5.3151007,5.3130727,5.3113394,5.3092256,5.3077183,5.305518,5.3037148,5.3024397,5.3014803,5.301036,5.300679,5.300662,5.3007603,5.3011966,5.301706,5.3025427,5.3033285,5.304329,5.305442,5.3063097,5.307559,5.308583,5.309824,5.3110666,5.3121448,5.313738,5.3150897,5.317109,5.319255,5.32146,5.3243637,5.326633,5.329564,5.3319187,5.3343897,5.3370323,5.338949,5.341485,5.343438,5.3456926,5.348035,5.3498945,5.352377,5.354268,5.3566957,5.359106,5.3611336,5.3637495,5.365694,5.368143,5.3702655,5.372181,5.3744793,5.376176,5.3785458,5.380636,5.382844,5.3854303,5.3874187,5.3900814,5.3922005,5.394699,5.397473,5.3997107,5.402876,5.4053974,5.408538,5.4114532,5.413646,5.416198,5.41792,5.4202023,5.421986,5.4231052,5.4243517,5.4253426,5.4267063,5.427898,5.4291134,5.4305143,5.4315653,5.43305,5.4343157,5.435824,5.437559,5.438968,5.440867,5.4423304,5.4441314,5.4459953,5.4475718,5.4497538,5.451482,5.4538374,5.4560966,5.458025,5.460541,5.4625235,5.4652605,5.4677267,5.4703045,5.4730062,5.474702,5.4771137,5.4791393,5.481354,5.483803,5.4857473,5.488409,5.4905024,5.49306,5.495735,5.4979835,5.5009995,5.503296,5.5061545,5.5087433,5.5109844,5.51363,5.5154924,5.5178366,5.5197144,5.5214615,5.5233545,5.5246964,5.5264063,5.527692,5.529047,5.530462,5.531537,5.53295,5.534009,5.5352163,5.53642,5.5373993,5.5387144,5.539734,5.5410385,5.5423183,5.5434737,5.5449066,5.5459375,5.547179,5.5481424,5.5490074,5.5499487,5.5506163,5.5515404,5.5523853,5.5534205,5.554759,5.5558777,5.5574493,5.5587387,5.560319,5.5620103,5.563362,5.565218,5.566656,5.5684643,5.5699515,5.570979,5.571779,5.572051,5.572107,5.5709763,5.5685062,5.563996,5.559887,5.554793,5.5530624,5.556493,5.565675,5.5747795,5.5853295,5.5932245,5.6047964,5.6241827,5.6484895,5.671054,5.6757717,5.6600657,5.589794,5.5098715,5.2549267,4.957775,4.656497,4.530509,4.5527587,4.787893,5.07821,5.3819065,5.545838,5.617282,5.6352525,5.6544905,5.6554193,5.639883,5.6330633,5.629311,5.6285415,5.6161666,5.599115,5.586255,5.5809364,5.5800915,5.5831037
5.354113,5.364538,5.3605237,5.348884,5.3418117,5.34324,5.3469357,5.3532076,5.358252,5.363617,5.366272,5.3667808,5.365999,5.366394,5.3675656,5.3688087,5.370052,5.3710947,5.3722744,5.3735843,5.3743925,5.3754735,5.3761806,5.376589,5.376429,5.3759995,5.3748636,5.3734097,5.3712015,5.3687315,5.367029,5.365408,5.3646526,5.363703,5.3629465,5.362408,5.361845,5.3615065,5.3610187,5.360564,5.360172,5.3597183,5.359399,5.35901,5.3587055,5.358425,5.358021,5.3576283,5.35709,5.356699,5.356393,5.3562636,5.3562603,5.3563495,5.3564777,5.3567295,5.3567,5.3562384,5.3555517,5.355055,5.3543687,5.3537397,5.353312,5.3525577,5.351792,5.350687,5.3496695,5.348672,5.3477173,5.3471785,5.346511,5.3460555,5.3456964,5.345275,5.3448296,5.3441343,5.3435116,5.3427057,5.341894,5.341256,5.3406262,5.340318,5.340167,5.340051,5.3397026,5.3392115,5.3388596,5.3383055,5.3377056,5.3370886,5.336152,5.3353043,5.334141,5.3331537,5.3320503,5.33082,5.329897,5.3285503,5.3274307,5.326206,5.324731,5.3232365,5.321175,5.3195953,5.3174477,5.315301,5.313416,5.311223,5.30976,5.307623,5.3058505,5.3045173,5.3034697,5.302973,5.302617,5.3026533,5.302803,5.303319,5.3039055,5.304862,5.305751,5.3068676,5.3080864,5.309024,5.3103466,5.311411,5.3126936,5.3139577,5.3150473,5.316645,5.317995,5.3200173,5.322179,5.3244095,5.3273773,5.3297157,5.3327627,5.335236,5.337832,5.3406067,5.342613,5.345257,5.3472795,5.3496017,5.351987,5.353867,5.3563485,5.358216,5.360593,5.3629255,5.364873,5.3673787,5.369238,5.3715897,5.373627,5.375461,5.37765,5.379255,5.3814936,5.383465,5.3855453,5.3880043,5.3899117,5.3925047,5.3946047,5.397095,5.39989,5.4021673,5.40532,5.4077826,5.4108043,5.4138045,5.4163494,5.4195538,5.421849,5.4248624,5.4272346,5.4287243,5.430394,5.431734,5.433446,5.434808,5.4361143,5.437544,5.4386053,5.4400806,5.441307,5.442732,5.4443426,5.445649,5.447423,5.448803,5.4505157,5.452309,5.453832,5.455953,5.457642,5.459961,5.4623575,5.4646573,5.467732,5.4701223,5.4734287,5.476411,5.4795375,5.482737,5.4846625,5.4874096,5.489704,5.492214,5.4948196,5.4967294,5.4993362,5.5013895,5.503902,5.506543,5.5087743,5.5117874,5.514096,5.5169754,5.519589,5.5218515,5.5245237,5.526404,5.5287743,5.5306807,5.532464,5.5344114,5.535801,5.537573,5.538908,5.5403104,5.5417686,5.5428705,5.5443153,5.5454006,5.546652,5.547901,5.548913,5.5502644,5.5513067,5.552636,5.553945,5.5551295,5.5566173,5.5577006,5.559018,5.5600543,5.5609865,5.5619965,5.562707,5.5636787,5.5645494,5.565607,5.5669613,5.5680876,5.569671,5.5709767,5.57259,5.5743423,5.575756,5.5777426,5.5793037,5.581178,5.582673,5.5837135,5.584508,5.5847607,5.5847554,5.5834565,5.580682,5.575721,5.5712714,5.5656776,5.5635166,5.5663967,5.5754795,5.585112,5.5958366,5.603382,5.614023,5.632776,5.65732,5.6807723,5.686466,5.671731,5.601806,5.522378,5.2639904,4.961154,4.653181,4.5230618,4.54431,4.781069,5.073611,5.384568,5.5554285,5.627445,5.6446533,5.6651053,5.6667786,5.6511035,5.6435885,5.639783,5.6403646,5.628751,5.611452,5.599061,5.5943823,5.5938554,5.5971203
5.354412,5.3692727,5.36794,5.3554482,5.3478327,5.3491793,5.3523407,5.3579397,5.362496,5.3678493,5.3708677,5.370945,5.3692045,5.3686876,5.369005,5.369916,5.3708344,5.3717732,5.372924,5.374399,5.3754463,5.376963,5.378075,5.3787594,5.378791,5.37845,5.3774185,5.3760295,5.373887,5.371458,5.369773,5.3681517,5.3673825,5.3664074,5.365625,5.365072,5.364511,5.364189,5.363736,5.3633213,5.362959,5.3625374,5.3622413,5.361886,5.361591,5.361267,5.3608046,5.360383,5.359819,5.359414,5.359079,5.3589263,5.3589196,5.359002,5.359125,5.359381,5.3593764,5.3589506,5.358298,5.3578153,5.3571424,5.356515,5.356082,5.3553004,5.3545017,5.353348,5.3522763,5.351214,5.350176,5.3495708,5.3488293,5.3483286,5.3479357,5.3474774,5.346995,5.3462214,5.3455186,5.3446183,5.343726,5.343038,5.342388,5.3420963,5.342001,5.3419533,5.3416386,5.3411794,5.340848,5.3403215,5.339726,5.3390675,5.3380966,5.337252,5.3361044,5.3351398,5.3340673,5.3328505,5.331913,5.330544,5.3294096,5.328172,5.3267007,5.3252387,5.323164,5.321529,5.319315,5.3171015,5.315158,5.3128695,5.311321,5.309371,5.3078356,5.3064623,5.3052344,5.3045664,5.3041787,5.3043175,5.304527,5.3051147,5.3057613,5.3068132,5.307785,5.3089952,5.3103,5.3112955,5.312678,5.313775,5.3150907,5.316375,5.3174763,5.3190804,5.320431,5.322459,5.3246355,5.3268847,5.329898,5.332285,5.3354135,5.337967,5.340647,5.343511,5.345581,5.348302,5.3503776,5.352755,5.3551807,5.3570848,5.3595743,5.3614283,5.363771,5.3660426,5.367926,5.3703394,5.3721285,5.374399,5.3763714,5.3781424,5.380247,5.3817844,5.3839216,5.385798,5.3877745,5.390128,5.391966,5.3944926,5.3965635,5.399033,5.401826,5.404111,5.407281,5.409762,5.4128203,5.415859,5.4184246,5.4216604,5.423988,5.426986,5.42959,5.431758,5.4344177,5.436468,5.438821,5.440409,5.4417353,5.4430523,5.444049,5.445463,5.446662,5.448056,5.4496326,5.450906,5.4526415,5.4539967,5.4556875,5.457465,5.4589787,5.46109,5.4627743,5.4650917,5.4674892,5.469778,5.4728546,5.4752607,5.4785905,5.4816136,5.484708,5.4882936,5.4909143,5.4945126,5.4974155,5.5006046,5.5035625,5.5053673,5.507847,5.509835,5.5122576,5.514827,5.517024,5.520036,5.5223722,5.525279,5.527919,5.5302024,5.532896,5.534789,5.5371785,5.5391045,5.5409117,5.54289,5.544303,5.5461044,5.547457,5.548868,5.550317,5.5514035,5.552818,5.5538816,5.5551567,5.5564556,5.557497,5.5588856,5.5599537,5.561317,5.562658,5.5638695,5.5654035,5.5665293,5.5679083,5.5690017,5.5699897,5.5710616,5.5718145,5.572836,5.5737405,5.57483,5.57621,5.5773516,5.578952,5.5802774,5.5819607,5.583809,5.5853004,5.5873423,5.588909,5.5908155,5.5923405,5.593382,5.594227,5.5945597,5.594483,5.592985,5.590012,5.584756,5.58006,5.574115,5.5716376,5.5739765,5.5831146,5.5936403,5.604596,5.611562,5.6213617,5.6393147,5.663366,5.6874714,5.6945453,5.6808305,5.6113095,5.5325174,5.271701,4.9645596,4.652275,4.51985,4.5405965,4.778015,5.071214,5.386902,5.5627656,5.634956,5.6515017,5.672945,5.6753454,5.6596828,5.651438,5.6474857,5.6493893,5.6384497,5.6208,5.6087523,5.6045704,5.60421,5.607602
5.357239,5.3760386,5.3768215,5.3647714,5.3573513,5.358317,5.3599825,5.3638144,5.3674564,5.3724875,5.3758154,5.3756495,5.373102,5.371528,5.3705096,5.3705664,5.3707314,5.371475,5.3727694,5.3746843,5.3761196,5.3782253,5.3798776,5.3810997,5.381611,5.3815184,5.380805,5.379624,5.377619,5.375223,5.3735228,5.371864,5.3710566,5.3700304,5.3692055,5.36863,5.368055,5.3677325,5.3672843,5.3668823,5.366533,5.366126,5.365838,5.3654838,5.3651733,5.3648114,5.3642936,5.3638325,5.363224,5.362792,5.362428,5.3622556,5.3622403,5.3623238,5.3624606,5.3627577,5.3628144,5.362448,5.361857,5.361403,5.360776,5.360181,5.359763,5.3589807,5.3581696,5.356985,5.355864,5.3547316,5.353589,5.3528967,5.352049,5.351474,5.3510056,5.350475,5.349942,5.349081,5.3482943,5.3472967,5.346329,5.345598,5.344944,5.344684,5.3446293,5.344632,5.3443666,5.343974,5.3436966,5.343149,5.34247,5.341717,5.3406925,5.3398733,5.338763,5.3378344,5.3368015,5.3355966,5.334638,5.333224,5.3320436,5.3307295,5.329259,5.3279343,5.3258924,5.324154,5.321864,5.3195906,5.317593,5.3152294,5.313618,5.3117695,5.3104334,5.309243,5.3080835,5.307333,5.306798,5.306815,5.30698,5.3076262,5.3083744,5.3095655,5.310648,5.3119893,5.3134174,5.3145022,5.315982,5.317139,5.318514,5.3198404,5.3209763,5.3226194,5.323996,5.326058,5.328268,5.330553,5.3336263,5.336071,5.3392887,5.3419275,5.344692,5.347648,5.3497844,5.3525915,5.3547316,5.3571815,5.359668,5.361614,5.3641286,5.3659763,5.3682804,5.370475,5.372273,5.3745623,5.376256,5.3784165,5.3803,5.381995,5.3840046,5.3854666,5.387489,5.3892536,5.3911037,5.393317,5.395056,5.397474,5.3994827,5.40189,5.4046345,5.406888,5.410025,5.412491,5.4155445,5.41859,5.421154,5.424409,5.4267683,5.429778,5.432543,5.435131,5.438388,5.4408464,5.443757,5.4458275,5.4476433,5.4495025,5.4509153,5.4526205,5.4538326,5.4551992,5.4566917,5.4579086,5.459588,5.460919,5.4626074,5.4644027,5.465927,5.4680476,5.469738,5.4720635,5.4744635,5.4767437,5.47982,5.482237,5.4855833,5.488635,5.4917154,5.495531,5.498559,5.5026493,5.505912,5.5094786,5.5128317,5.5149503,5.517823,5.5200973,5.5229177,5.525814,5.52818,5.531256,5.5335402,5.5364094,5.539023,5.541297,5.543996,5.545903,5.548313,5.550262,5.552098,5.554118,5.555567,5.557418,5.5588074,5.56025,5.5617223,5.5628204,5.564252,5.5653305,5.566627,5.567951,5.5690145,5.5704293,5.571516,5.5728903,5.574256,5.5755196,5.5771356,5.578328,5.579796,5.580969,5.5820317,5.583186,5.583995,5.585084,5.586036,5.587173,5.5885944,5.589757,5.5914145,5.5928025,5.5945487,5.5964594,5.5980053,5.6000953,5.6016827,5.6036377,5.605214,5.6062775,5.6072054,5.607647,5.6075525,5.6058965,5.602729,5.5971546,5.592185,5.5858507,5.583003,5.584648,5.5937557,5.605215,5.6167336,5.6234536,5.6321893,5.648873,5.672165,5.6966953,5.7050896,5.692528,5.623665,5.5456314,5.2827654,4.971767,4.6546917,4.519121,4.539173,4.7771406,5.0708237,5.3919764,5.5736413,5.6452074,5.6605377,5.683668,5.687081,5.6713843,5.663499,5.6600986,5.6626415,5.6518126,5.6337643,5.6220417,5.618394,5.618185,5.6216774
5.3604445,5.3804636,5.3818345,5.371585,5.3652387,5.3658304,5.3661366,5.368247,5.3709755,5.375433,5.3787603,5.3785124,5.3756447,5.3734703,5.3713894,5.370528,5.369942,5.3705263,5.3720503,5.37442,5.376166,5.378678,5.380705,5.3824196,5.3834414,5.3836393,5.383294,5.38235,5.380492,5.3781176,5.376383,5.3746643,5.373809,5.3727264,5.3718553,5.3712544,5.3706493,5.370305,5.3698273,5.369402,5.3690386,5.368615,5.3683133,5.367925,5.367581,5.3672047,5.366665,5.3661776,5.365532,5.365073,5.3646946,5.3645167,5.3644934,5.3645897,5.3647547,5.3651047,5.3652267,5.3649116,5.364373,5.363949,5.363371,5.3628206,5.3624306,5.361674,5.3608785,5.3596997,5.3585596,5.3573885,5.3561745,5.3554173,5.3544884,5.3538504,5.3533106,5.352716,5.35215,5.351241,5.350417,5.349377,5.348383,5.347645,5.3470078,5.346779,5.3467283,5.3467345,5.346513,5.346179,5.3459406,5.3453283,5.34453,5.34369,5.342634,5.3418493,5.340781,5.339882,5.338873,5.3376656,5.3366866,5.3352222,5.333986,5.332573,5.331087,5.3299036,5.327924,5.3261175,5.323786,5.3214874,5.319467,5.317093,5.315484,5.313605,5.312329,5.311447,5.3105745,5.309882,5.3091965,5.308966,5.3090124,5.3096557,5.3104725,5.3117604,5.3129177,5.3143454,5.3158536,5.3169947,5.3185415,5.3197455,5.3211737,5.322548,5.3237267,5.3254266,5.3268466,5.328961,5.3312135,5.333537,5.3366575,5.339139,5.34241,5.3450923,5.3478985,5.350897,5.3530655,5.355919,5.3581,5.3605986,5.3631334,5.365118,5.3676605,5.3695097,5.371793,5.373932,5.3756685,5.3778687,5.379491,5.381571,5.3833914,5.3850393,5.3869944,5.3884153,5.3903713,5.3920684,5.39384,5.395954,5.3976164,5.399944,5.401887,5.4042206,5.4068937,5.409089,5.412156,5.4145727,5.417575,5.4205856,5.423129,5.426385,5.4287643,5.431814,5.4345884,5.4371176,5.440262,5.4426155,5.4456854,5.448193,5.4506454,5.45333,5.4553576,5.4575315,5.458832,5.460247,5.4617233,5.4629498,5.4646487,5.4660015,5.467723,5.469555,5.4711065,5.473255,5.4749594,5.4772987,5.479707,5.4819927,5.485075,5.4874964,5.4908543,5.493915,5.497017,5.5007873,5.5037155,5.5076785,5.5108614,5.514308,5.517865,5.5205,5.5240173,5.5267344,5.530165,5.533571,5.5362153,5.53943,5.5416746,5.5445385,5.5471497,5.549423,5.5521235,5.554034,5.5564513,5.5584145,5.5602674,5.5623198,5.5637975,5.565691,5.5671167,5.5685983,5.570115,5.571248,5.572736,5.573859,5.5751696,5.5764914,5.5775642,5.57899,5.580083,5.5814524,5.5828276,5.584134,5.5858154,5.587057,5.588589,5.589818,5.590934,5.592146,5.592994,5.594131,5.5951176,5.59629,5.597745,5.5989237,5.600639,5.6020875,5.603853,5.6057606,5.6073074,5.609415,5.6110287,5.6130247,5.614648,5.615746,5.6167483,5.617268,5.617234,5.615563,5.612317,5.606578,5.6014595,5.5949097,5.591836,5.5930176,5.6019964,5.6138544,5.6258955,5.6328187,5.6408815,5.6565747,5.679286,5.703801,5.712734,5.700831,5.632513,5.554945,5.29148,4.979105,4.659241,4.5212946,4.5407944,4.7789803,5.07286,5.3973613,5.5825195,5.6530895,5.667329,5.6918516,5.6959734,5.6802387,5.6736665,5.671238,5.6733084,5.6619406,5.643706,5.6321335,5.6287694,5.6286173,5.6321244
5.3602014,5.380063,5.3828726,5.376951,5.373743,5.374698,5.37533,5.3766427,5.3779116,5.3810334,5.3838387,5.382246,5.378152,5.375675,5.37276,5.37081,5.36956,5.370135,5.3718424,5.374576,5.376583,5.379479,5.3818846,5.384038,5.3856277,5.3863063,5.3864317,5.3857193,5.384136,5.381895,5.3801312,5.3783226,5.3773723,5.3761663,5.375176,5.374486,5.37379,5.373392,5.372862,5.3723993,5.3720016,5.371528,5.371182,5.370737,5.370349,5.3699393,5.3693743,5.3688755,5.3681993,5.3677096,5.367302,5.367121,5.3671203,5.3672724,5.3674974,5.3679166,5.368105,5.367841,5.3673553,5.3669586,5.366428,5.365923,5.36557,5.3648577,5.3640947,5.362935,5.3617783,5.3605633,5.3592587,5.3584175,5.357375,5.3566575,5.3560658,5.3554363,5.3548393,5.353897,5.353056,5.3520064,5.351021,5.350293,5.3497114,5.3495493,5.3494782,5.3494716,5.3493843,5.349076,5.3487015,5.3479385,5.3470497,5.346198,5.3451853,5.344445,5.3434305,5.342559,5.3415623,5.3403144,5.3392615,5.3377056,5.336403,5.3348823,5.333317,5.3321,5.330234,5.3286095,5.3262625,5.323835,5.321739,5.319328,5.3177366,5.3158894,5.3147554,5.3142433,5.313717,5.3131084,5.312508,5.3122787,5.3122096,5.3127127,5.313471,5.314794,5.316044,5.317482,5.31894,5.320015,5.321508,5.322706,5.324196,5.3256874,5.326968,5.3288193,5.3303633,5.3325953,5.334923,5.3373165,5.3405123,5.343046,5.3463783,5.349101,5.3519425,5.354972,5.3571615,5.3600492,5.3622656,5.3648086,5.3673925,5.369416,5.3719893,5.373838,5.3760943,5.378168,5.3798323,5.3819265,5.3834686,5.3854585,5.3872156,5.388815,5.3907194,5.392106,5.394003,5.3956347,5.3973274,5.3993416,5.400924,5.403146,5.405006,5.407242,5.4098043,5.411908,5.414853,5.417181,5.420079,5.4230056,5.4254875,5.428699,5.4310684,5.4341135,5.436894,5.439428,5.442582,5.444941,5.448101,5.4507713,5.4534454,5.4564047,5.4585996,5.461179,5.4629493,5.464925,5.467042,5.468787,5.4710507,5.472696,5.47451,5.47627,5.4778147,5.47995,5.4816403,5.4839597,5.4863415,5.488599,5.491641,5.49403,5.497349,5.5003834,5.5034733,5.5072265,5.510133,5.514068,5.517241,5.5206747,5.5243254,5.5271363,5.530886,5.5337706,5.5373697,5.541031,5.5439816,5.547758,5.5505238,5.554085,5.557227,5.5597787,5.562537,5.564321,5.5666275,5.568515,5.5702915,5.572319,5.573838,5.5757813,5.5772486,5.5787783,5.580346,5.5815163,5.583063,5.584239,5.5856047,5.5869875,5.588119,5.5896206,5.5907683,5.5922046,5.5936203,5.594933,5.596609,5.597844,5.5993977,5.6006737,5.6018496,5.6031346,5.6040297,5.6052184,5.6062374,5.6074433,5.608931,5.610137,5.6118526,5.6132803,5.6150475,5.61697,5.6185284,5.6206627,5.622307,5.6243544,5.6260424,5.6271977,5.6282854,5.628877,5.6290164,5.627471,5.6242046,5.6183352,5.6130886,5.606339,5.6030326,5.6038117,5.612459,5.6242647,5.636303,5.643204,5.650941,5.666133,5.688346,5.7129154,5.722434,5.7111797,5.643422,5.5664597,5.3025,4.9887304,4.6657066,4.5249605,4.543729,4.782386,5.076999,5.4050894,5.59375,5.663823,5.6770673,5.7023544,5.706918,5.6913757,5.6865764,5.685257,5.6862917,5.674151,5.655982,5.6446686,5.6416025,5.64147,5.6449413
5.3556814,5.3750424,5.3803234,5.3799577,5.3806334,5.382044,5.383978,5.3855124,5.385771,5.387348,5.388994,5.386084,5.3811016,5.3784046,5.374851,5.3720512,5.3703737,5.370989,5.3727207,5.375511,5.3775387,5.380518,5.3830967,5.3855553,5.3876247,5.3887296,5.389266,5.3887606,5.3874764,5.385432,5.3837004,5.3818293,5.380762,5.3794165,5.378282,5.37748,5.376665,5.3762,5.3756046,5.3750954,5.37465,5.3741097,5.373707,5.3731985,5.372769,5.372326,5.3717475,5.371255,5.370577,5.37008,5.369659,5.3694897,5.369525,5.3697367,5.3700123,5.370473,5.3706913,5.37045,5.3699827,5.3695955,5.369083,5.3686013,5.3682723,5.3675966,5.366865,5.3657236,5.3645506,5.363295,5.3619137,5.360997,5.3598824,5.3591313,5.3585343,5.357918,5.357326,5.356409,5.355604,5.354606,5.3536854,5.3530154,5.352502,5.352378,5.352288,5.3522377,5.3521795,5.351795,5.3512573,5.350382,5.349489,5.3487024,5.347789,5.3471065,5.346156,5.3453155,5.34433,5.343033,5.341901,5.3402276,5.3388224,5.337158,5.335428,5.334035,5.332183,5.3307447,5.3284626,5.3260555,5.3240347,5.3217564,5.320284,5.31857,5.3175993,5.317365,5.317154,5.316716,5.3163466,5.3162403,5.316139,5.316476,5.3170686,5.31826,5.3194704,5.3208323,5.322185,5.323144,5.324518,5.325666,5.327161,5.328719,5.3300657,5.3320036,5.3336096,5.335977,5.338449,5.340953,5.3442564,5.346858,5.3502564,5.353008,5.355867,5.3589,5.361087,5.3639803,5.366206,5.3687706,5.3713827,5.373434,5.376027,5.3778763,5.380108,5.3821287,5.3837366,5.385751,5.387232,5.389161,5.3908815,5.3924565,5.3943443,5.3957253,5.397602,5.3992023,5.400853,5.4028006,5.4043245,5.406456,5.408231,5.4103565,5.412779,5.4147606,5.4175315,5.4197216,5.4224515,5.4252234,5.4275846,5.4306707,5.432971,5.43594,5.43867,5.441169,5.4443016,5.446659,5.449785,5.452402,5.455006,5.457881,5.45998,5.462796,5.4650497,5.467626,5.470461,5.472767,5.475684,5.477722,5.4798193,5.4817185,5.4833994,5.4856825,5.4874616,5.489874,5.492308,5.494597,5.4976606,5.500058,5.503378,5.5063934,5.5094395,5.5131316,5.515993,5.5198812,5.5230265,5.526451,5.53008,5.5328436,5.5365524,5.5394244,5.5429373,5.5466466,5.5498037,5.554117,5.557451,5.5617213,5.5654364,5.5683575,5.5713735,5.5732274,5.5756636,5.577669,5.5795794,5.5816936,5.583208,5.5851636,5.586652,5.5882096,5.589823,5.591035,5.5926485,5.5938864,5.5953417,5.5968304,5.598052,5.5996733,5.60091,5.602459,5.6039433,5.6052675,5.606929,5.6081476,5.609695,5.610979,5.6121726,5.6134768,5.614379,5.6155844,5.6166196,5.617841,5.619341,5.6205635,5.6222444,5.6236124,5.625346,5.627253,5.6287966,5.63093,5.63259,5.6346803,5.6364512,5.637704,5.6389484,5.639674,5.640063,5.63873,5.6355567,5.629697,5.6244144,5.617578,5.6141233,5.6146564,5.622898,5.6342874,5.6461153,5.6530714,5.6607046,5.675643,5.6974797,5.722005,5.731851,5.7210054,5.6535506,5.5767837,5.3123918,4.9977756,4.6723523,4.5293627,4.5473804,4.786837,5.082995,5.4138765,5.604657,5.674609,5.687231,5.712727,5.7173796,5.7020836,5.699396,5.6992264,5.6985574,5.685446,5.6677246,5.6566963,5.653801,5.6536455,5.6570024
5.35015,5.3704004,5.3789415,5.3835135,5.386883,5.387699,5.390193,5.3920956,5.392355,5.392711,5.3927603,5.389882,5.385316,5.3818502,5.3772855,5.37392,5.371893,5.3724637,5.3741207,5.3767977,5.3787045,5.381549,5.3841524,5.3869457,5.3894486,5.3907638,5.391589,5.3913083,5.3902636,5.3884068,5.3867884,5.384907,5.383717,5.3822575,5.3810124,5.380119,5.3792033,5.378679,5.3780203,5.377466,5.376976,5.376381,5.375935,5.3753786,5.374921,5.374456,5.37387,5.373381,5.3727207,5.372244,5.3718395,5.371688,5.371743,5.3719735,5.3722553,5.372719,5.3729334,5.372694,5.372222,5.371826,5.3713017,5.370811,5.3704786,5.3698034,5.3690777,5.3679247,5.3667226,5.3654213,5.3639708,5.362991,5.361871,5.361171,5.3606014,5.3600235,5.3594713,5.358621,5.357876,5.356947,5.356105,5.3555255,5.355055,5.354905,5.3548574,5.3547688,5.3544645,5.3538656,5.353303,5.3524494,5.351636,5.3509293,5.350116,5.3495054,5.348646,5.347867,5.3469343,5.3456497,5.3445053,5.342738,5.3412,5.339349,5.3374076,5.3358464,5.3337965,5.332254,5.3300896,5.3279943,5.326289,5.324336,5.323021,5.3214436,5.3205442,5.320381,5.320389,5.3202486,5.3200645,5.319971,5.3199577,5.320239,5.320632,5.321519,5.322512,5.3238497,5.325264,5.32621,5.3275514,5.328663,5.33009,5.3315697,5.332865,5.334673,5.336131,5.3386316,5.3413944,5.3440785,5.347535,5.350211,5.353685,5.356468,5.359344,5.362375,5.3645535,5.3674407,5.369667,5.372239,5.3748674,5.376936,5.3795414,5.3813887,5.3836007,5.3855824,5.38715,5.3891096,5.3905497,5.392441,5.394144,5.3957095,5.397599,5.398986,5.4008627,5.4024525,5.404079,5.4059796,5.407461,5.4095154,5.411213,5.4132376,5.4155216,5.417376,5.41996,5.421997,5.4245386,5.4271293,5.429343,5.432268,5.434469,5.4373274,5.4399853,5.4424305,5.4455214,5.447857,5.4509697,5.453595,5.4562187,5.4591417,5.4612885,5.464193,5.4665375,5.46922,5.4721704,5.4745417,5.4776554,5.479958,5.4825926,5.4851093,5.487208,5.4899545,5.4920244,5.4947586,5.4974236,5.49989,5.503146,5.505682,5.5091476,5.5122046,5.515174,5.5187216,5.521489,5.525255,5.5283127,5.531652,5.5352106,5.5379314,5.5416007,5.5444603,5.5480137,5.5517983,5.555011,5.5593867,5.5627604,5.567011,5.5708046,5.573967,5.5775447,5.579967,5.5830984,5.5856752,5.5882225,5.5906534,5.592001,5.593811,5.5952187,5.5966887,5.5982428,5.5994396,5.601042,5.6022873,5.6038227,5.6054335,5.606744,5.6084805,5.6098003,5.6114473,5.6130104,5.6143928,5.6161175,5.6173763,5.6189356,5.6201897,5.6213408,5.6225805,5.6234303,5.624616,5.62567,5.626899,5.628404,5.62963,5.631307,5.63266,5.6343403,5.636175,5.637665,5.6397514,5.6414003,5.6435127,5.645379,5.646753,5.6482553,5.6492357,5.649844,5.648633,5.645585,5.6398067,5.634535,5.6276655,5.624105,5.624421,5.632366,5.6434946,5.6554813,5.6627684,5.669923,5.6841707,5.705727,5.7302103,5.740253,5.7297297,5.662385,5.5854073,5.320256,5.0047626,4.677393,4.5327244,4.5500593,4.7904906,5.088576,5.4219246,5.6141777,5.683876,5.6960554,5.722037,5.7268534,5.7116513,5.7109585,5.711777,5.709201,5.695137,5.6780725,5.667336,5.6645427,5.6643896,5.667615
5.339657,5.3629246,5.376383,5.3850784,5.3914433,5.392771,5.3963537,5.3989105,5.399416,5.398937,5.3976965,5.3948717,5.390747,5.386851,5.381794,5.378246,5.3760457,5.3764296,5.3777733,5.379919,5.3813486,5.3837137,5.386138,5.3890343,5.3917646,5.393176,5.3942027,5.3941216,5.3932524,5.391552,5.390069,5.388249,5.3870115,5.38547,5.3841195,5.3831515,5.3821573,5.3815875,5.380886,5.3803015,5.379777,5.3791327,5.3786473,5.378048,5.377568,5.37709,5.3765116,5.3760414,5.3754234,5.374993,5.37463,5.374513,5.37459,5.3748274,5.3750935,5.3755236,5.3756924,5.3754168,5.374891,5.3744507,5.373906,5.373419,5.373086,5.372415,5.3716965,5.37053,5.369298,5.3679605,5.3664694,5.3654623,5.3643436,5.363676,5.363136,5.3626175,5.362131,5.361397,5.3607616,5.35997,5.359271,5.358832,5.3584023,5.3581724,5.3580637,5.357887,5.357417,5.356725,5.3562098,5.3554482,5.354743,5.354128,5.353403,5.3528485,5.3520346,5.351259,5.3503084,5.348942,5.347704,5.3457417,5.343999,5.3418894,5.339684,5.3379164,5.3356524,5.3340178,5.332029,5.330368,5.3291025,5.327765,5.3269196,5.325903,5.3253756,5.325408,5.3255796,5.325581,5.3255115,5.3254614,5.325547,5.325835,5.3261356,5.3267565,5.327449,5.328471,5.3296413,5.330475,5.3316975,5.3327312,5.3340583,5.3354626,5.336719,5.3384786,5.339896,5.3423786,5.3451695,5.347901,5.3514805,5.354295,5.357884,5.3607063,5.363603,5.366628,5.3687925,5.3716617,5.373876,5.37644,5.379069,5.3811426,5.383749,5.3855877,5.3877754,5.38972,5.3912535,5.3931713,5.3945837,5.3964553,5.398161,5.3997397,5.401658,5.4030724,5.4049783,5.4065785,5.408202,5.410073,5.411516,5.413495,5.4151006,5.4169974,5.419098,5.4207854,5.423117,5.424943,5.4272227,5.4295597,5.4315667,5.4342575,5.4363117,5.439005,5.441552,5.443917,5.4469395,5.4492407,5.452328,5.4549637,5.4576178,5.460615,5.4628415,5.465834,5.4682326,5.470971,5.4739695,5.4763556,5.4795847,5.4820776,5.4851427,5.4881706,5.490616,5.493746,5.4960575,5.499055,5.5018997,5.5045004,5.507887,5.510503,5.514061,5.517177,5.5201855,5.523788,5.5266094,5.530486,5.5336714,5.5371776,5.5409746,5.5439157,5.547915,5.5510225,5.554699,5.558486,5.561704,5.5660295,5.5693235,5.573414,5.577142,5.580407,5.584343,5.5871625,5.590767,5.593734,5.5966773,5.599471,5.6009955,5.6030545,5.6046724,5.6063776,5.6082144,5.6096478,5.611596,5.613098,5.614769,5.6164427,5.617845,5.6197124,5.621132,5.6228886,5.6245394,5.625989,5.6277933,5.6291103,5.6307,5.631937,5.6330543,5.6342406,5.635049,5.6361876,5.637207,5.6383934,5.6398506,5.641037,5.642673,5.643999,5.645625,5.6474013,5.6488523,5.650914,5.65257,5.654731,5.656728,5.658272,5.660073,5.6613197,5.66222,5.661233,5.6584234,5.652828,5.647606,5.64075,5.637103,5.6371927,5.6448092,5.6556387,5.6677704,5.6754446,5.682516,5.696176,5.7168975,5.7409,5.751097,5.7408667,5.673327,5.59534,5.328642,5.0120044,4.6826105,4.536405,4.5528812,4.795102,5.096734,5.432932,5.626053,5.695763,5.7076693,5.7338614,5.73845,5.723176,5.7250485,5.7274485,5.7228885,5.7078485,5.691516,5.681058,5.6783047,5.6781235,5.6811385
5.3297787,5.356419,5.3739057,5.384122,5.392641,5.395547,5.4002695,5.4032507,5.4037814,5.403146,5.4016914,5.3985596,5.394312,5.39062,5.385877,5.3825245,5.380377,5.3805504,5.381544,5.3830776,5.3839655,5.385827,5.388018,5.3907576,5.3934326,5.394843,5.3959293,5.3959303,5.395101,5.393449,5.3920364,5.390313,5.3891373,5.387576,5.3861628,5.385168,5.3841496,5.383568,5.38286,5.3822722,5.3817387,5.381073,5.3805656,5.3799467,5.3794584,5.37898,5.3784194,5.3779707,5.3773947,5.377003,5.3766794,5.376593,5.3766875,5.3769245,5.377172,5.3775635,5.3776774,5.3773556,5.376758,5.3762608,5.375706,5.375248,5.3749275,5.3742723,5.373566,5.3723946,5.3711452,5.3697977,5.3683147,5.3673334,5.3662024,5.3655033,5.364968,5.3644896,5.364052,5.363408,5.3628683,5.362205,5.361642,5.361328,5.3609295,5.3606167,5.360343,5.360061,5.3596697,5.359102,5.358654,5.357976,5.3573318,5.3567667,5.3560762,5.3555346,5.354698,5.3538623,5.352826,5.3513145,5.3499346,5.347769,5.3458605,5.3435574,5.341176,5.339272,5.336931,5.3353243,5.3334455,5.3320236,5.3310156,5.33021,5.329897,5.3296084,5.32963,5.329982,5.33022,5.330081,5.3299856,5.3300047,5.3301125,5.3304424,5.330826,5.3314056,5.331906,5.332443,5.3331213,5.333779,5.3348565,5.335827,5.337111,5.338527,5.3398037,5.3416834,5.343254,5.3455553,5.348028,5.350623,5.3542347,5.3572016,5.360897,5.3637424,5.366658,5.3696823,5.3718367,5.3746896,5.3768916,5.3794413,5.382059,5.384129,5.386727,5.388556,5.390726,5.3926535,5.39417,5.3960724,5.397479,5.399352,5.4010744,5.4026756,5.4046307,5.4060745,5.408016,5.4096375,5.411275,5.4131384,5.414567,5.416501,5.4180465,5.41985,5.421814,5.4233794,5.4255223,5.4271884,5.4292703,5.4314146,5.4332647,5.4357767,5.4377165,5.440282,5.4427433,5.445046,5.448017,5.4502907,5.4533596,5.456004,5.4586873,5.461747,5.4640336,5.4671206,5.4696035,5.4724364,5.4755335,5.4779944,5.4813027,5.4838386,5.486929,5.4899654,5.492428,5.4955764,5.4978957,5.5008974,5.503729,5.5063095,5.5096436,5.5122013,5.515708,5.518861,5.522031,5.5259056,5.5289373,5.5331507,5.536661,5.540553,5.544836,5.548197,5.552801,5.556335,5.5601325,5.563819,5.56701,5.5712748,5.574507,5.5785193,5.5821686,5.585365,5.589176,5.591873,5.595319,5.5981617,5.600907,5.6038747,5.605915,5.6085815,5.6106544,5.6128674,5.6152515,5.6170964,5.619635,5.6215525,5.623333,5.624939,5.6263723,5.628298,5.6297693,5.631571,5.6332436,5.634698,5.6365275,5.637884,5.6395073,5.6407604,5.6418915,5.643088,5.6439056,5.645001,5.6459465,5.6470594,5.648435,5.64956,5.6511316,5.652425,5.6540313,5.655814,5.6572785,5.6593695,5.6610556,5.663272,5.6653657,5.667037,5.6689982,5.670352,5.6714697,5.6707163,5.6681223,5.662693,5.6575203,5.650696,5.647006,5.6469555,5.654351,5.664982,5.6770835,5.684932,5.6924906,5.7060814,5.725747,5.7490396,5.7593236,5.749254,5.681385,5.602232,5.334038,5.016499,4.685808,4.5387907,4.5547028,4.798645,5.103569,5.4416723,5.634797,5.7047567,5.716646,5.7426925,5.7467623,5.7312565,5.73503,5.7388973,5.733339,5.717785,5.701823,5.691495,5.6887317,5.688507,5.6913447
5.3176827,5.3501053,5.3715153,5.3798046,5.389367,5.39544,5.402312,5.4067135,5.4080305,5.4082575,5.407297,5.403986,5.3997765,5.397273,5.3937383,5.390786,5.3887224,5.3884077,5.388673,5.389108,5.3891435,5.3902063,5.3919535,5.3941436,5.396384,5.3976345,5.398606,5.398596,5.397738,5.3960857,5.3946934,5.3930044,5.3918614,5.390351,5.3889856,5.3880167,5.387042,5.386503,5.3858542,5.38531,5.384802,5.384142,5.383624,5.382992,5.3824997,5.3820267,5.3814917,5.381075,5.380556,5.3802214,5.379956,5.3799133,5.3800306,5.380264,5.3804774,5.380793,5.380804,5.3803883,5.379722,5.3792152,5.3786345,5.378158,5.3778267,5.377183,5.376504,5.375372,5.374152,5.3728127,5.371319,5.3703218,5.3691626,5.3684483,5.367928,5.367516,5.3671474,5.3666525,5.3662653,5.365836,5.3653874,5.3649654,5.3644514,5.364106,5.3638096,5.3635635,5.3632627,5.362811,5.3624296,5.3618355,5.3612385,5.360696,5.3599677,5.3593626,5.358382,5.3573675,5.356105,5.354293,5.3526573,5.3501496,5.347989,5.3454256,5.3428535,5.3408127,5.3384852,5.3370485,5.3355427,5.334714,5.334302,5.3345423,5.3351955,5.335722,5.3359885,5.3362255,5.3362827,5.336152,5.33614,5.3362727,5.336459,5.3368654,5.337329,5.3378944,5.3382616,5.338525,5.3387995,5.33912,5.3396683,5.340209,5.341177,5.342555,5.3439703,5.346042,5.3477135,5.350027,5.3523984,5.3548574,5.3582764,5.3610907,5.3647914,5.3677588,5.370699,5.3737097,5.375848,5.3786736,5.38085,5.3833694,5.385957,5.3880053,5.3905697,5.392369,5.394498,5.3963814,5.397865,5.3997355,5.401129,5.402998,5.404734,5.406357,5.408348,5.409824,5.4118023,5.413443,5.4150896,5.416937,5.4183393,5.420205,5.421664,5.4233446,5.4251366,5.426545,5.4284573,5.4299355,5.4317865,5.433716,5.4353943,5.4377184,5.439542,5.4419794,5.4443555,5.446597,5.44952,5.451771,5.4548297,5.4574957,5.4602213,5.4633656,5.4657335,5.4689436,5.471532,5.4744782,5.477687,5.4802275,5.4836254,5.4862146,5.4893584,5.49244,5.494944,5.498143,5.500498,5.5035377,5.506391,5.5089817,5.512305,5.514839,5.518317,5.521468,5.5246887,5.5286508,5.531746,5.5360727,5.539706,5.5437565,5.5482626,5.551824,5.556737,5.5605555,5.564795,5.5689926,5.5725937,5.577384,5.580988,5.585393,5.589193,5.5922956,5.595915,5.598488,5.601775,5.604491,5.6070776,5.6100593,5.6122932,5.6152086,5.617498,5.619974,5.622671,5.624761,5.627634,5.6298285,5.6320086,5.6340466,5.635804,5.6381536,5.639947,5.6422,5.644319,5.6462107,5.6482882,5.6495743,5.651164,5.652393,5.6535006,5.654669,5.655469,5.6565065,5.657387,5.6584535,5.659784,5.660872,5.6623917,5.6636405,5.6651883,5.6669025,5.668293,5.6703606,5.6720896,5.674379,5.676606,5.6784406,5.6806345,5.682166,5.683605,5.683182,5.680896,5.675688,5.6705513,5.6637983,5.660117,5.659951,5.66708,5.677397,5.6895704,5.6977324,5.705234,5.718259,5.737028,5.75978,5.7701783,5.760308,5.6917953,5.6106586,5.3402596,5.021693,4.6896143,4.541546,4.555905,4.8013363,5.1104245,5.4519506,5.646337,5.7170515,5.7285757,5.753605,5.757182,5.7422194,5.748168,5.7535934,5.747158,5.7311306,5.7154827,5.7052293,5.702388,5.702055,5.704645
5.3104467,5.346561,5.3687487,5.3729744,5.382181,5.39149,5.400742,5.4072704,5.4101067,5.4119415,5.411834,5.408746,5.4048676,5.4037476,5.4017086,5.3994055,5.3975053,5.396667,5.39629,5.395725,5.394948,5.395191,5.39639,5.397846,5.3994412,5.4004188,5.401119,5.40098,5.400009,5.3982897,5.3968506,5.3951263,5.3939867,5.3925676,5.391333,5.390439,5.3895674,5.3891134,5.388567,5.3880997,5.387642,5.3870125,5.3864975,5.385865,5.385371,5.384905,5.384391,5.383997,5.383524,5.383233,5.3830166,5.383012,5.3831453,5.383367,5.383545,5.3837824,5.3836956,5.383197,5.3824925,5.3820095,5.381402,5.380885,5.380535,5.379902,5.379252,5.3781786,5.3770094,5.3756914,5.37418,5.3731437,5.3719583,5.3712482,5.370749,5.3703976,5.3700943,5.369728,5.369462,5.3691845,5.368743,5.3681116,5.367462,5.3671618,5.3669796,5.366872,5.366646,5.3662567,5.3659067,5.365343,5.3647404,5.3641624,5.3633184,5.3625813,5.3613796,5.3601418,5.358614,5.3565063,5.3546543,5.3518934,5.3495836,5.346912,5.344336,5.342316,5.3401947,5.339054,5.338058,5.3379006,5.3381653,5.339285,5.3405714,5.3413954,5.341463,5.341308,5.3411026,5.341077,5.3411837,5.3414135,5.341688,5.3421783,5.3427057,5.343319,5.343692,5.344003,5.3441586,5.344202,5.344206,5.3442574,5.3448324,5.346104,5.3476315,5.349824,5.351506,5.3539467,5.3563976,5.3587713,5.3618994,5.364383,5.3679376,5.3709683,5.3739095,5.3769107,5.379036,5.3818393,5.3839903,5.3864822,5.3890343,5.3910522,5.3935704,5.3953304,5.3974094,5.399247,5.400694,5.402532,5.40391,5.4057713,5.407512,5.4091434,5.411154,5.41265,5.414649,5.4162993,5.417949,5.4197807,5.4211607,5.4229727,5.424363,5.425954,5.427625,5.428926,5.430687,5.4320455,5.433756,5.435561,5.4371467,5.439376,5.441147,5.4435267,5.445869,5.4480877,5.4509964,5.4532433,5.456311,5.4590044,5.4617686,5.464982,5.467414,5.4707136,5.4733753,5.476395,5.4796677,5.482251,5.4856915,5.4883027,5.4914694,5.4945717,5.4970956,5.500327,5.502711,5.505788,5.5086765,5.5112963,5.5146484,5.5171995,5.520683,5.523808,5.526972,5.5308375,5.5338497,5.538061,5.5415983,5.5455503,5.549964,5.5534534,5.558292,5.5621386,5.5668283,5.571721,5.575839,5.5813007,5.585392,5.5903287,5.594395,5.5974874,5.6010256,5.603566,5.6068163,5.6095047,5.6120806,5.6150093,5.6171584,5.6199875,5.622228,5.624659,5.6273327,5.62942,5.632271,5.6345005,5.637095,5.6397247,5.641864,5.644701,5.6468596,5.6496387,5.6522894,5.654711,5.657125,5.6583824,5.659995,5.6612453,5.66237,5.6635537,5.664364,5.6654224,5.66632,5.667398,5.668731,5.66982,5.671321,5.6725388,5.674027,5.6756506,5.6769404,5.6789503,5.680702,5.6830454,5.685382,5.6873417,5.6897287,5.6914177,5.6931305,5.6929836,5.690953,5.685912,5.680786,5.6740417,5.670305,5.669906,5.676836,5.6871305,5.699562,5.707965,5.7149324,5.727146,5.7454605,5.7680545,5.7786264,5.7689013,5.699705,5.6167173,5.3443947,5.0250645,4.6921654,4.543317,4.5556917,4.8016295,5.1139555,5.458948,5.6553345,5.7270365,5.7381053,5.7618046,5.7651505,5.7511635,5.7583914,5.7646856,5.758049,5.741885,5.7262993,5.7160015,5.713032,5.7125683,5.714957
5.307847,5.341604,5.3601093,5.3614626,5.370974,5.3835998,5.396432,5.4067183,5.4122667,5.416054,5.41626,5.414179,5.411312,5.410722,5.410087,5.4094,5.407896,5.4064183,5.405837,5.404457,5.40258,5.401582,5.4018836,5.4024343,5.4032774,5.4039,5.404224,5.403884,5.4027324,5.4009094,5.399418,5.397672,5.3965545,5.395215,5.3941054,5.3933163,5.3925905,5.3922505,5.391838,5.3914666,5.3910766,5.390484,5.389968,5.38933,5.3888283,5.3883615,5.3878584,5.387479,5.3870444,5.3868,5.3866396,5.386676,5.386825,5.387021,5.387142,5.387291,5.3871193,5.3865814,5.3858347,5.3853226,5.3847,5.3841906,5.383853,5.383251,5.382635,5.3815947,5.3804407,5.3791246,5.377599,5.3765416,5.375338,5.374631,5.374154,5.3738804,5.3736753,5.3734665,5.373301,5.372879,5.3722744,5.371689,5.3711443,5.370933,5.370863,5.37085,5.370696,5.370363,5.3700304,5.369468,5.3688197,5.368161,5.367132,5.366202,5.364703,5.3631945,5.361367,5.358983,5.356962,5.354076,5.3517666,5.3491926,5.346859,5.3450713,5.3434,5.34272,5.3425303,5.3433905,5.3448763,5.3465385,5.3473463,5.347602,5.3472567,5.3470345,5.3468943,5.346914,5.347099,5.3474083,5.3477674,5.3483596,5.348974,5.3496647,5.3500586,5.3503704,5.3504367,5.3503485,5.3500986,5.349904,5.350115,5.3510847,5.3524647,5.3546267,5.3563776,5.358811,5.3611927,5.3635097,5.3664823,5.368787,5.3719854,5.3747244,5.3776293,5.380678,5.3827906,5.3855762,5.3877115,5.3901777,5.392691,5.394674,5.3971357,5.3988485,5.4008665,5.402647,5.40405,5.4058466,5.4072056,5.409053,5.4107957,5.4124336,5.414463,5.4159784,5.4179993,5.419662,5.4213176,5.4231358,5.424496,5.4262543,5.42758,5.429083,5.4306393,5.431841,5.4334655,5.43472,5.436311,5.438018,5.4395323,5.441697,5.443438,5.4457884,5.448119,5.450333,5.453247,5.455501,5.4585934,5.461323,5.4641356,5.467426,5.469927,5.47332,5.476052,5.4791374,5.4824595,5.4850707,5.4885345,5.491152,5.494321,5.497427,5.499957,5.503208,5.5056143,5.50873,5.5116615,5.5143223,5.517718,5.5202966,5.523807,5.5269413,5.530102,5.533943,5.5369253,5.5410953,5.5446033,5.5485277,5.5529327,5.5564256,5.5612845,5.5651684,5.5699744,5.575012,5.579226,5.584776,5.588911,5.5939293,5.598182,5.601592,5.6055226,5.608304,5.611864,5.614825,5.6176805,5.620988,5.6234713,5.6266026,5.628948,5.6313868,5.6340127,5.636092,5.6389246,5.6411533,5.643842,5.646641,5.6489286,5.651969,5.654278,5.6572266,5.66004,5.662576,5.665353,5.667057,5.6691403,5.670723,5.6721344,5.6736083,5.674614,5.6759844,5.6770973,5.678196,5.6794424,5.6804805,5.681904,5.683049,5.6844263,5.6859393,5.6871643,5.689101,5.6908135,5.693198,5.6956663,5.697767,5.700369,5.7022314,5.7042494,5.704404,5.702645,5.697777,5.692665,5.6857834,5.681671,5.68023,5.686794,5.6979933,5.7111845,5.7196712,5.726048,5.737235,5.754677,5.7771664,5.7883673,5.7786865,5.7085247,5.623758,5.349349,5.028886,4.69501,4.5452204,4.554866,4.801112,5.1173124,5.4666014,5.6655993,5.7385616,5.74933,5.7718706,5.7751045,5.7620616,5.770277,5.777293,5.7707615,5.754574,5.7388926,5.7284718,5.7253356,5.7247086,5.726877
5.307973,5.335841,5.3492436,5.3492813,5.359602,5.374913,5.391122,5.405654,5.415059,5.4213967,5.421652,5.4208713,5.419256,5.4189615,5.419371,5.420086,5.4191847,5.417465,5.416794,5.414752,5.411974,5.409646,5.4087887,5.4083405,5.408352,5.408534,5.4083533,5.407709,5.4062815,5.4042854,5.4027023,5.4009056,5.3998036,5.398517,5.397517,5.3968444,5.3962836,5.3960676,5.395797,5.395523,5.3951974,5.39463,5.3940983,5.3934326,5.3929033,5.392416,5.3919134,5.391551,5.391148,5.390936,5.390811,5.390869,5.3910236,5.3911924,5.391266,5.391342,5.3911085,5.390554,5.3897667,5.3892064,5.388564,5.388072,5.3877587,5.387205,5.386631,5.385629,5.3844914,5.3831882,5.3816676,5.3806095,5.3794093,5.3787193,5.37829,5.3780985,5.3779845,5.3778076,5.3775854,5.3769865,5.376305,5.375886,5.375559,5.375471,5.375524,5.375587,5.375493,5.3751802,5.3748255,5.374196,5.3734226,5.3726006,5.371275,5.3700585,5.368182,5.366391,5.3642864,5.361783,5.3597965,5.3571634,5.355235,5.3532553,5.3517294,5.3506627,5.3500214,5.350131,5.3506923,5.3519096,5.353594,5.354743,5.354624,5.3539877,5.3531938,5.3529105,5.352803,5.3527613,5.352911,5.3532453,5.353672,5.3544087,5.3551683,5.3560686,5.35663,5.357115,5.357354,5.357417,5.357361,5.3572817,5.357432,5.358138,5.359192,5.3610287,5.3626432,5.3648167,5.3669596,5.3691263,5.371926,5.374095,5.3768997,5.3792567,5.382021,5.385054,5.3871665,5.3899546,5.392091,5.394543,5.397023,5.3989687,5.401366,5.403022,5.4049654,5.4066763,5.408025,5.409768,5.4110994,5.412923,5.414657,5.416293,5.418331,5.4198604,5.4218984,5.4235716,5.4252334,5.4270425,5.4283857,5.4301014,5.4313745,5.432809,5.4342813,5.435416,5.4369535,5.4381456,5.4396715,5.4413376,5.442831,5.444991,5.446745,5.449116,5.4514785,5.453726,5.456684,5.45897,5.462114,5.464897,5.4677706,5.471139,5.4737043,5.477175,5.4799557,5.483079,5.486411,5.489016,5.49245,5.4950304,5.498152,5.501212,5.503713,5.5069475,5.5093565,5.5124946,5.5154705,5.51818,5.5216403,5.5242662,5.527835,5.5310087,5.5341945,5.5380416,5.5410147,5.545166,5.5486555,5.5525637,5.5569644,5.560466,5.565343,5.5692353,5.5739913,5.578925,5.5830455,5.588428,5.592416,5.597305,5.6016254,5.6053295,5.6096563,5.6126785,5.6165533,5.6197915,5.622933,5.6266155,5.6294155,5.632906,5.635479,5.638114,5.640935,5.6431837,5.6462803,5.648719,5.651561,5.65442,5.6567154,5.659771,5.6621017,5.665042,5.66784,5.670312,5.6733284,5.6754775,5.6780086,5.6799045,5.6815805,5.68332,5.6844997,5.686141,5.6874657,5.688689,5.690027,5.6911464,5.6926723,5.6938972,5.695401,5.6970263,5.698306,5.70024,5.7019105,5.7043495,5.70696,5.7092075,5.71204,5.714099,5.7164264,5.7168646,5.715359,5.7106323,5.705532,5.6981153,5.6931696,5.690611,5.6970525,5.70951,5.723606,5.732046,5.737703,5.747694,5.7641344,5.7862535,5.7978773,5.7886643,5.71801,5.6313424,5.3545284,5.0326786,4.6978025,4.5470247,4.553322,4.799598,5.120038,5.47425,5.6764073,5.750842,5.7615013,5.7831917,5.7862816,5.773834,5.7826004,5.7901616,5.7840157,5.768072,5.7523575,5.7417765,5.738382,5.737567,5.739526
5.304923,5.328702,5.3403463,5.340789,5.352344,5.369214,5.387172,5.40463,5.4178324,5.426653,5.4267907,5.426794,5.4260564,5.426396,5.42735,5.428283,5.428092,5.426839,5.425845,5.4231625,5.4199805,5.41672,5.4148865,5.413661,5.4130197,5.412839,5.4122257,5.4113073,5.4096255,5.4074583,5.4057794,5.4039183,5.402815,5.4015446,5.400606,5.4000106,5.399563,5.3994346,5.3992634,5.3990545,5.3987675,5.398204,5.397648,5.396941,5.396372,5.3958483,5.395343,5.395013,5.394641,5.394439,5.3943114,5.3943567,5.3945007,5.39466,5.3947277,5.3947797,5.394515,5.3939447,5.3931265,5.392535,5.391861,5.391359,5.391054,5.3905344,5.39,5.389044,5.3879404,5.386664,5.385164,5.3841143,5.382927,5.382258,5.3818855,5.3817725,5.38175,5.381433,5.3809605,5.380398,5.379901,5.3795853,5.3793926,5.379401,5.379553,5.379675,5.379627,5.3793144,5.3789206,5.3782015,5.377282,5.3762727,5.374637,5.3731346,5.370902,5.3688707,5.366544,5.3640203,5.362174,5.359948,5.358531,5.357272,5.3567896,5.3567667,5.357706,5.3590193,5.3601055,5.360606,5.3607526,5.360469,5.359994,5.3590603,5.3581758,5.3577137,5.35741,5.3572397,5.357274,5.357585,5.3580484,5.358926,5.3598404,5.3609905,5.361768,5.3624554,5.362919,5.3632007,5.3634934,5.363702,5.3641167,5.36481,5.3655744,5.3669357,5.3681946,5.3699837,5.3718596,5.373803,5.3763995,5.378457,5.3810987,5.3833146,5.385894,5.388813,5.3909454,5.393757,5.395905,5.3983593,5.40082,5.4027376,5.4050846,5.4066906,5.4085703,5.4102187,5.411516,5.413208,5.4145107,5.416304,5.4180236,5.4196486,5.421685,5.4232197,5.4252634,5.42694,5.428604,5.4304037,5.431732,5.4334154,5.4346533,5.436041,5.437462,5.4385567,5.4400454,5.441205,5.4427023,5.4443574,5.445853,5.4480333,5.4498115,5.4522223,5.45463,5.4569235,5.459937,5.462261,5.465462,5.4682984,5.4712257,5.474655,5.4772673,5.480791,5.4835978,5.486735,5.490052,5.492633,5.4960117,5.498535,5.5015864,5.5045824,5.507037,5.510234,5.5126324,5.5157757,5.5187826,5.521532,5.525053,5.527728,5.5313573,5.5345755,5.537797,5.5416656,5.5446424,5.548789,5.5522685,5.5561676,5.560568,5.564076,5.568967,5.572874,5.5776424,5.5825777,5.586691,5.592046,5.595999,5.6008406,5.605113,5.6087713,5.613055,5.6160545,5.6199083,5.6231394,5.626278,5.6299562,5.6327324,5.6363664,5.6392303,5.6422987,5.6456943,5.6483784,5.652153,5.655137,5.6584234,5.6614304,5.6636353,5.666568,5.6688504,5.671805,5.674658,5.677161,5.6802015,5.682355,5.684889,5.686779,5.688442,5.690153,5.691305,5.692881,5.6942115,5.69566,5.6973686,5.69876,5.70065,5.70217,5.7041473,5.706156,5.7075586,5.7094774,5.7110434,5.713514,5.7162557,5.7186174,5.721654,5.723899,5.726472,5.72711,5.72577,5.7211685,5.7161646,5.7079573,5.701972,5.698989,5.705783,5.719104,5.73372,5.741971,5.7469206,5.7559505,5.7717905,5.793311,5.8047147,5.79642,5.726132,5.6378574,5.358879,5.035778,4.7000456,4.54851,4.55211,4.798527,5.1225824,5.480735,5.685257,5.760784,5.7714076,5.792632,5.795454,5.783113,5.7922277,5.800252,5.7943735,5.778763,5.763248,5.7525744,5.74891,5.747946,5.749745
5.3097305,5.3291435,5.338287,5.338806,5.3509884,5.3688483,5.388088,5.407865,5.4239655,5.435233,5.436023,5.436696,5.436305,5.43705,5.438137,5.4388742,5.43865,5.437396,5.436247,5.43346,5.430361,5.4263315,5.4233603,5.42131,5.4199204,5.419259,5.418062,5.4167557,5.414712,5.4122906,5.4104652,5.408497,5.4073787,5.406109,5.4052267,5.404713,5.404383,5.404339,5.404258,5.4040947,5.403825,5.4032316,5.402626,5.40184,5.401205,5.400648,5.400133,5.399806,5.3994446,5.3992605,5.399165,5.399234,5.3993783,5.399517,5.3995504,5.3995404,5.399208,5.398593,5.397726,5.397107,5.396409,5.395912,5.3956337,5.3951774,5.3947062,5.3938284,5.392786,5.3915653,5.3901196,5.389102,5.387963,5.3873463,5.3871117,5.387021,5.38683,5.3863416,5.385821,5.385389,5.385112,5.384923,5.3848796,5.384987,5.3852205,5.385371,5.3853393,5.384979,5.3845024,5.383628,5.382508,5.38127,5.379293,5.3774843,5.3749447,5.3728027,5.3704586,5.368308,5.366995,5.3658257,5.3655305,5.366033,5.3672,5.3680973,5.369415,5.370412,5.370946,5.3704624,5.36934,5.3677874,5.366769,5.3652105,5.363894,5.362975,5.3622713,5.3619165,5.361785,5.3620625,5.36255,5.3636007,5.364711,5.366268,5.3675213,5.3689957,5.370427,5.371479,5.372698,5.3734875,5.3743215,5.3749733,5.37545,5.376219,5.3769484,5.378111,5.379487,5.3809986,5.3831763,5.3849816,5.38737,5.3894215,5.3917165,5.394437,5.3965716,5.399399,5.4015636,5.4040256,5.4064713,5.4083605,5.4106474,5.4121914,5.413991,5.415564,5.416801,5.418432,5.4197025,5.421463,5.4231677,5.4247837,5.4268255,5.4283743,5.4304376,5.4321284,5.4338083,5.4356117,5.4369345,5.4385934,5.439801,5.4411516,5.4425325,5.4435997,5.4450583,5.4462037,5.4476943,5.4493637,5.450882,5.4531083,5.4549303,5.457406,5.4598856,5.462249,5.465348,5.4677324,5.471016,5.4739246,5.476923,5.4804277,5.483095,5.486672,5.4895,5.4926395,5.495921,5.498456,5.501746,5.5041857,5.5071344,5.5100384,5.512427,5.5155654,5.517944,5.521085,5.524122,5.5269127,5.5305014,5.5332317,5.536933,5.540207,5.543475,5.5473757,5.550362,5.554514,5.557992,5.5618906,5.566297,5.5698204,5.5747366,5.578664,5.5834513,5.5883937,5.5925045,5.5978394,5.601765,5.606571,5.6108017,5.6144104,5.6186523,5.6216383,5.6254883,5.628729,5.6318765,5.6355596,5.63832,5.6420584,5.64513,5.6485105,5.652314,5.6553,5.659513,5.662861,5.666591,5.670079,5.6727104,5.6761456,5.6787305,5.6817923,5.684574,5.687066,5.6900835,5.692214,5.6947184,5.696582,5.6982193,5.6999016,5.7010307,5.7025633,5.7039027,5.7055163,5.707491,5.709078,5.711228,5.712956,5.7152114,5.7175884,5.719343,5.721849,5.7239003,5.726573,5.729338,5.7318573,5.7351294,5.7375603,5.7404137,5.7413054,5.7402616,5.735631,5.7302885,5.7212,5.714383,5.711143,5.718048,5.731514,5.7466526,5.75534,5.759939,5.7677855,5.7822313,5.8024874,5.81357,5.8065643,5.7367115,5.645795,5.3638535,5.0395584,4.702877,4.5502434,4.5502033,4.7963214,5.1244335,5.4880133,5.696486,5.773753,5.784622,5.805646,5.80801,5.795345,5.8048687,5.8135934,5.8080616,5.7929134,5.777707,5.767028,5.763079,5.7618423,5.7633877
5.3204556,5.337573,5.3444905,5.344406,5.3561487,5.3740196,5.3935494,5.413862,5.4302645,5.442568,5.444483,5.4453983,5.444663,5.445325,5.446118,5.44648,5.445469,5.443644,5.4426017,5.4402885,5.437646,5.433391,5.429731,5.4272375,5.425395,5.42439,5.422766,5.4211674,5.4188485,5.4162273,5.4142857,5.41223,5.4110928,5.409813,5.4089575,5.40849,5.4082212,5.408219,5.4081726,5.408016,5.407735,5.407099,5.4064455,5.4055843,5.404894,5.4043264,5.4038,5.4034424,5.4030676,5.4028997,5.4028606,5.4029818,5.40314,5.4032545,5.4032393,5.4031563,5.402749,5.4020844,5.4011784,5.4005475,5.3998485,5.3993735,5.399128,5.3987317,5.3983145,5.397504,5.396517,5.39535,5.393961,5.3929806,5.3918996,5.391338,5.3912396,5.391099,5.3905735,5.390004,5.3896933,5.3893933,5.3892217,5.3891153,5.3891587,5.3893147,5.389572,5.389704,5.3896503,5.38922,5.3886647,5.387657,5.3863955,5.3850183,5.382862,5.3809,5.378275,5.3762197,5.374076,5.372492,5.371819,5.371775,5.3725867,5.374871,5.3773026,5.378414,5.378606,5.3778906,5.3771267,5.376066,5.374857,5.3730226,5.371517,5.3692827,5.367376,5.3659763,5.364897,5.3643913,5.364128,5.3643837,5.3648796,5.3660574,5.367317,5.369231,5.370962,5.373383,5.3759995,5.3779564,5.3801627,5.3814955,5.3826466,5.383231,5.383587,5.383995,5.3843374,5.384983,5.3858943,5.3870034,5.388768,5.3903065,5.392459,5.3943834,5.396456,5.399008,5.401122,5.403942,5.4061174,5.4085865,5.411026,5.4129,5.415148,5.416651,5.418399,5.4199214,5.421121,5.422716,5.4239683,5.4257116,5.427411,5.429027,5.431082,5.4326487,5.4347353,5.4364476,5.4381495,5.43997,5.4413,5.4429574,5.444155,5.445495,5.446867,5.4479294,5.449388,5.4505396,5.4520445,5.453739,5.4552846,5.457553,5.4594107,5.4619393,5.4644737,5.4668913,5.470057,5.472489,5.475836,5.478797,5.4818454,5.485402,5.4881043,5.4917135,5.4945498,5.497683,5.500932,5.5034294,5.506652,5.5090284,5.511902,5.51474,5.5170803,5.5201774,5.522538,5.5256734,5.5287247,5.531537,5.535163,5.537924,5.5416656,5.5449724,5.54827,5.552194,5.555188,5.559348,5.5628324,5.566736,5.571154,5.5746937,5.5796323,5.5835752,5.588379,5.5933313,5.5974436,5.602772,5.606689,5.6114907,5.6157265,5.6193476,5.62362,5.6266403,5.6305423,5.6338363,5.637032,5.640769,5.643568,5.647337,5.6504087,5.653777,5.657547,5.6605034,5.6646175,5.667905,5.6717997,5.675832,5.679189,5.683498,5.6865873,5.689809,5.6924458,5.6949005,5.697899,5.700039,5.7025456,5.7044106,5.7060556,5.707756,5.708905,5.710478,5.7118483,5.7134614,5.715417,5.7169876,5.7191143,5.7208223,5.7229595,5.7254524,5.727585,5.730955,5.7338257,5.7367787,5.739465,5.7421045,5.7455225,5.7480373,5.7510633,5.752137,5.751365,5.7465644,5.7406187,5.7310853,5.724145,5.7208853,5.7275343,5.740361,5.755777,5.765319,5.7701283,5.77719,5.790146,5.809165,5.8200626,5.813954,5.7442503,5.651022,5.3668723,5.0420656,4.704829,4.551317,4.5485697,4.7940984,5.124605,5.4923134,5.70431,5.783091,5.794351,5.815492,5.817475,5.804305,5.8141155,5.823413,5.818115,5.80329,5.788314,5.7776833,5.77357,5.7721086,5.7734585
5.3439474,5.359778,5.3629527,5.3603415,5.3700323,5.387406,5.407179,5.4267774,5.440221,5.4519506,5.4559526,5.457382,5.4561577,5.456315,5.4563503,5.4561405,5.4543,5.4518447,5.4504886,5.44814,5.4456778,5.4412537,5.4372253,5.434517,5.4323683,5.431036,5.428959,5.4270163,5.424387,5.42155,5.41949,5.4173527,5.416209,5.4149303,5.4141083,5.413683,5.413464,5.4134884,5.413472,5.413328,5.4130597,5.4123783,5.411643,5.410681,5.409918,5.4093113,5.408755,5.408364,5.4079933,5.4078608,5.4078493,5.4079847,5.408142,5.408229,5.4081697,5.408018,5.407544,5.4068403,5.4059105,5.4052806,5.4045973,5.4041624,5.403965,5.403652,5.4033117,5.402597,5.4016905,5.4006004,5.3992977,5.3983784,5.397444,5.396975,5.3967123,5.3963575,5.395766,5.3952546,5.395089,5.39493,5.39488,5.394856,5.39497,5.395149,5.3953867,5.3954434,5.395304,5.394733,5.3940554,5.392869,5.391456,5.389968,5.387731,5.385715,5.383231,5.381548,5.379974,5.3795433,5.3800898,5.382226,5.3847227,5.387038,5.3881826,5.3880787,5.3871303,5.3859806,5.384671,5.383109,5.381377,5.378851,5.3768272,5.373602,5.370705,5.3686647,5.3665676,5.3649473,5.3637037,5.3637,5.364276,5.3663406,5.3687806,5.3720827,5.3747606,5.3783627,5.3824,5.3857374,5.3895683,5.3918943,5.393945,5.39489,5.3953304,5.395425,5.3952885,5.3950186,5.395009,5.395522,5.3966913,5.3978004,5.399535,5.4012184,5.4029512,5.4052463,5.407298,5.4100723,5.412236,5.414686,5.4170914,5.4189157,5.421091,5.4225388,5.424219,5.425688,5.4268494,5.428415,5.429658,5.431401,5.433117,5.4347544,5.436857,5.438472,5.4406314,5.4424124,5.4441843,5.4460773,5.4474525,5.4491587,5.450382,5.451747,5.453141,5.4542236,5.4557123,5.45689,5.4584312,5.460169,5.461752,5.4640727,5.465971,5.468559,5.4711523,5.4736266,5.476863,5.479347,5.48277,5.4857974,5.4889097,5.492531,5.49528,5.4989367,5.5017924,5.5049314,5.5081606,5.51063,5.5138016,5.5161276,5.518939,5.521719,5.5240183,5.5270767,5.529421,5.5325437,5.5355973,5.5384183,5.542058,5.544829,5.548583,5.551899,5.5552044,5.5591283,5.562116,5.566272,5.5697565,5.5736613,5.5780907,5.581646,5.58661,5.5905724,5.595396,5.6003585,5.6044726,5.6097956,5.6137037,5.6185,5.6227465,5.6263895,5.630712,5.6337824,5.637759,5.641122,5.644383,5.648184,5.6510215,5.6548343,5.6579313,5.6613235,5.665105,5.668062,5.6721506,5.6754193,5.6793723,5.6835966,5.6871843,5.6918755,5.695307,5.69911,5.702372,5.705402,5.7087135,5.7107472,5.713172,5.7149615,5.7165346,5.7182007,5.719368,5.720978,5.7223864,5.724024,5.7259936,5.727571,5.729705,5.731415,5.7334886,5.736066,5.738456,5.742291,5.7456007,5.7494354,5.7528725,5.755692,5.759174,5.7617188,5.7650294,5.7663565,5.765601,5.760394,5.753833,5.7440276,5.7371974,5.7340255,5.740354,5.7523584,5.7679024,5.7783046,5.7836256,5.7900405,5.801222,5.8184395,5.8286624,5.8232994,5.7534904,5.6571336,5.36992,5.0442486,4.7062263,4.5515356,4.544896,4.789672,5.123811,5.497134,5.713744,5.794875,5.8069086,5.8280554,5.829952,5.816684,5.826583,5.8360443,5.830776,5.816567,5.8022757,5.790352,5.7850227,5.784605,5.7866917
5.370763,5.3877325,5.3893757,5.3837605,5.3903365,5.405959,5.4240913,5.440975,5.4501762,5.4600563,5.4655657,5.4675674,5.4662066,5.465717,5.464829,5.464007,5.4615445,5.4586496,5.456815,5.454132,5.45163,5.4472084,5.4432325,5.4405804,5.438381,5.436904,5.434537,5.4323177,5.4294634,5.4264774,5.424345,5.42217,5.4210377,5.4197783,5.4189844,5.418582,5.418376,5.418399,5.418379,5.418229,5.417967,5.4172525,5.416456,5.4154058,5.4145694,5.4139094,5.413307,5.4128847,5.412509,5.412393,5.4123726,5.412488,5.412631,5.412693,5.4126096,5.4124203,5.411918,5.411206,5.410287,5.409682,5.4090395,5.40866,5.408516,5.4082904,5.408025,5.407407,5.406582,5.405571,5.404359,5.403509,5.402679,5.4022284,5.401675,5.4011164,5.400674,5.4003215,5.4002333,5.400178,5.400209,5.4002285,5.4003534,5.4005084,5.400672,5.400609,5.400343,5.3996115,5.3988256,5.397504,5.396026,5.3945456,5.3924327,5.390554,5.3884716,5.3873696,5.3866186,5.3874416,5.3892164,5.3926754,5.395598,5.396574,5.395634,5.3943157,5.392935,5.392254,5.390877,5.3887854,5.386332,5.382921,5.380361,5.376296,5.372692,5.3703256,5.3674603,5.364771,5.362663,5.3625193,5.3633337,5.366303,5.36977,5.3742533,5.377689,5.3820653,5.3871574,5.391756,5.397182,5.4005666,5.4037185,5.4052877,5.4059978,5.4059935,5.405524,5.4045563,5.4037704,5.403698,5.404267,5.4049783,5.4062953,5.4077206,5.4091635,5.4111853,5.4130597,5.415691,5.4178085,5.420171,5.422495,5.4242735,5.4263854,5.4277844,5.4294147,5.430852,5.4319983,5.433566,5.434826,5.4365997,5.4383626,5.440052,5.442239,5.4439297,5.4462037,5.4480915,5.449975,5.4519873,5.4534464,5.4552517,5.456541,5.4579725,5.4594316,5.4605656,5.46212,5.4633465,5.4649477,5.4667406,5.4683666,5.4707375,5.4726696,5.4753027,5.4779387,5.4804525,5.483739,5.4862614,5.489744,5.4928274,5.4959927,5.499674,5.502467,5.5061774,5.5090694,5.5122404,5.5154924,5.5179777,5.5211635,5.5234966,5.526314,5.5290947,5.531394,5.534452,5.5367956,5.5399113,5.5429506,5.5457563,5.5493636,5.5521016,5.555809,5.55908,5.5623436,5.5662203,5.569174,5.573294,5.5767603,5.5806503,5.5850754,5.5886345,5.5936074,5.5975795,5.6024113,5.607373,5.6114836,5.6167965,5.6206975,5.625491,5.6297517,5.63342,5.6377974,5.6409216,5.6449738,5.6484036,5.6517286,5.655588,5.658457,5.6622996,5.665409,5.668809,5.6725826,5.675525,5.679592,5.6828327,5.6867123,5.6907997,5.6942024,5.6987934,5.7023067,5.7066803,5.710742,5.7144184,5.7181473,5.7201695,5.722621,5.724427,5.7260437,5.7277546,5.7289433,5.7305803,5.7320065,5.733658,5.735629,5.7372007,5.739318,5.7410107,5.7430687,5.7456603,5.748097,5.7519236,5.7552366,5.759881,5.7642555,5.767361,5.770959,5.7735023,5.7769003,5.7782526,5.777342,5.7718897,5.7651424,5.7554874,5.748987,5.746044,5.7520905,5.7632785,5.7787027,5.7896905,5.795705,5.8019,5.811673,5.827059,5.836214,5.8312507,5.761365,5.6624923,5.3724484,5.0455217,4.7067056,4.5510893,4.5409603,4.7847385,5.121609,5.5000243,5.721262,5.8047886,5.817675,5.838803,5.8408556,5.827778,5.837676,5.846959,5.8414516,5.827366,5.8133287,5.799802,5.793281,5.794159,5.79744
5.3923144,5.4130554,5.4187975,5.411637,5.4150715,5.4271936,5.4399257,5.452034,5.459399,5.468017,5.4733715,5.4761944,5.475649,5.4747243,5.472975,5.471504,5.468517,5.4653454,5.4631968,5.460308,5.4577994,5.4533224,5.4492836,5.446572,5.4442916,5.4427576,5.4401546,5.4376583,5.4345927,5.431475,5.429281,5.427082,5.425969,5.42474,5.4239793,5.423598,5.423403,5.42342,5.423373,5.4231873,5.4229,5.422165,5.4213614,5.420233,5.419299,5.418581,5.4179316,5.417477,5.4170666,5.416931,5.416901,5.4170065,5.4171352,5.4171715,5.4170647,5.416847,5.4163303,5.4156218,5.4147325,5.4141636,5.4135756,5.4132605,5.413177,5.4130507,5.412877,5.4123735,5.411643,5.410724,5.409619,5.408867,5.4079747,5.407359,5.4067,5.4061365,5.405779,5.4055433,5.4055405,5.4055877,5.40569,5.4057393,5.405856,5.405968,5.4060383,5.4058423,5.40544,5.4045577,5.4036827,5.4022665,5.4007845,5.3993845,5.3975077,5.39586,5.3942957,5.393862,5.3940806,5.396228,5.399487,5.4019337,5.402223,5.402137,5.4016,5.4013653,5.4009986,5.4005356,5.3984985,5.3950787,5.391529,5.3867,5.3831015,5.3783655,5.3747697,5.372635,5.3699026,5.367008,5.365017,5.365275,5.366765,5.3699985,5.372977,5.377164,5.380703,5.385276,5.391182,5.396999,5.4040775,5.408619,5.412941,5.4151473,5.416077,5.4159555,5.4151945,5.414098,5.413076,5.412233,5.4120007,5.4124193,5.413363,5.414531,5.4157805,5.417485,5.4189415,5.421316,5.4234304,5.4256144,5.4277973,5.429597,5.431688,5.4330235,5.4346056,5.436023,5.437166,5.438754,5.4400444,5.4418693,5.443698,5.445458,5.447755,5.449539,5.4519525,5.453969,5.4559846,5.4581394,5.4596987,5.461625,5.462998,5.464514,5.466053,5.4672513,5.4688873,5.470172,5.4718456,5.4737024,5.4753766,5.4778013,5.4797683,5.482445,5.4851217,5.487672,5.491007,5.493568,5.4971085,5.5002456,5.5034647,5.507209,5.5100546,5.513832,5.516776,5.5200033,5.5233135,5.5258455,5.529093,5.5314703,5.534336,5.5371566,5.5394874,5.542576,5.544933,5.548053,5.551075,5.553857,5.5574102,5.560093,5.563719,5.5669146,5.5701056,5.573902,5.576799,5.5808573,5.58429,5.58815,5.592558,5.5961103,5.601082,5.605057,5.6098843,5.6148357,5.6189327,5.6242247,5.6281085,5.6328926,5.6371627,5.640853,5.6452804,5.6484547,5.6525826,5.6560836,5.6594744,5.663393,5.666293,5.670164,5.6732817,5.6766815,5.680439,5.683362,5.687396,5.690605,5.694449,5.6984997,5.7018676,5.7064376,5.709962,5.7144537,5.718659,5.722335,5.7263117,5.728744,5.731637,5.733815,5.7359056,5.7379265,5.7390957,5.740645,5.74196,5.743559,5.7455063,5.7470694,5.7491302,5.7507696,5.752877,5.7555494,5.758003,5.761858,5.7652082,5.7699404,5.774624,5.778345,5.782467,5.785099,5.788124,5.7889996,5.7880516,5.782899,5.7765446,5.7672696,5.760976,5.758353,5.764208,5.774596,5.7898145,5.801251,5.8078175,5.8137913,5.822401,5.8357754,5.8434076,5.839077,5.7697206,5.668872,5.375919,5.0470715,4.707322,4.5510025,4.5376368,4.77989,5.1182775,5.5019393,5.7287855,5.814678,5.8282475,5.8494925,5.851596,5.838512,5.848665,5.857996,5.8522215,5.8372374,5.822231,5.8081474,5.801613,5.802524,5.8067226
5.4202075,5.4427986,5.4523425,5.4427814,5.4420776,5.4501276,5.4571877,5.4645305,5.4702177,5.476943,5.481114,5.484292,5.484704,5.483716,5.481433,5.4793625,5.4761,5.472908,5.4705324,5.4675503,5.4651747,5.460745,5.456653,5.453833,5.451447,5.4499116,5.4470615,5.444228,5.4409285,5.4376802,5.4354315,5.4332285,5.432159,5.4309864,5.4302826,5.4299345,5.4297576,5.4297695,5.4296837,5.4294395,5.429096,5.4283175,5.4275093,5.4263115,5.4252806,5.42447,5.4237294,5.423227,5.4227276,5.422514,5.422432,5.4225016,5.4226027,5.4226065,5.4224796,5.422248,5.4217467,5.4210706,5.4202557,5.41976,5.4192743,5.419066,5.4190893,5.419083,5.4189854,5.4185863,5.4179454,5.417118,5.4161034,5.4154234,5.4144163,5.4136143,5.4129567,5.412505,5.4122467,5.412141,5.4122305,5.4123855,5.412552,5.4126153,5.41269,5.4127297,5.4126716,5.412314,5.411744,5.4107065,5.40977,5.4083166,5.4069223,5.4057198,5.404272,5.4030337,5.4021964,5.402515,5.4038663,5.406508,5.409402,5.4097743,5.4077635,5.407305,5.407842,5.4088316,5.40896,5.4079094,5.404991,5.400552,5.396264,5.390473,5.386121,5.381016,5.3776712,5.375865,5.374157,5.37249,5.3717685,5.372614,5.374276,5.3769355,5.3789883,5.382429,5.3858433,5.390527,5.3968997,5.403167,5.41107,5.4163675,5.4215083,5.4243355,5.4257054,5.4258623,5.4251184,5.4241333,5.4230967,5.4219894,5.421324,5.421419,5.421995,5.42291,5.4239407,5.4253016,5.426364,5.428285,5.4301167,5.4320145,5.4340134,5.4357414,5.437784,5.439108,5.440667,5.4420834,5.4432483,5.4449,5.446258,5.4481897,5.450141,5.452028,5.454506,5.456442,5.459075,5.461289,5.4635086,5.4658833,5.467602,5.4697247,5.4712353,5.472894,5.474571,5.475878,5.4776525,5.4790363,5.48083,5.482792,5.484544,5.487052,5.489069,5.491806,5.4945326,5.4971256,5.500518,5.503124,5.506732,5.5099335,5.513216,5.517048,5.5199685,5.523855,5.5268974,5.530242,5.533696,5.536349,5.539766,5.5422754,5.545292,5.5482435,5.550672,5.553855,5.556258,5.5594,5.5623903,5.5651217,5.5685606,5.571127,5.574581,5.5776114,5.580641,5.58426,5.5870295,5.590947,5.5942936,5.598072,5.602421,5.605939,5.6108756,5.614828,5.6196256,5.624543,5.6286097,5.633863,5.637721,5.642487,5.6467657,5.6504803,5.6549683,5.658203,5.662425,5.6660156,5.6694903,5.6734886,5.6764317,5.680342,5.6834717,5.6868715,5.690607,5.6935067,5.697502,5.700678,5.7044783,5.7084956,5.711849,5.716417,5.7199473,5.72441,5.7285423,5.732052,5.73612,5.738883,5.7421117,5.74457,5.746983,5.7493353,5.750688,5.7525206,5.754044,5.7557545,5.7577,5.759202,5.761203,5.762819,5.764945,5.7676086,5.769986,5.773752,5.7770505,5.781597,5.786296,5.7904663,5.79502,5.797751,5.800423,5.8008966,5.8000417,5.7954483,5.789749,5.781078,5.775055,5.772725,5.7783546,5.787985,5.80297,5.8148518,5.8224354,5.828491,5.835615,5.8467836,5.8529625,5.849104,5.7802296,5.6779127,5.381671,5.0497265,4.70867,4.5518,4.535042,4.7751913,5.114315,5.5036964,5.7373843,5.826354,5.840852,5.862001,5.864038,5.850994,5.8616295,5.8709984,5.8645854,5.847871,5.831174,5.816782,5.8107405,5.8114705,5.8163214
5.4448175,5.465559,5.474972,5.462411,5.4582725,5.464207,5.4694586,5.475084,5.479006,5.483736,5.486817,5.4895935,5.490322,5.4896665,5.4873824,5.4849396,5.481668,5.4786296,5.476135,5.473198,5.4710884,5.466764,5.46259,5.4596553,5.4571657,5.455636,5.452574,5.4494486,5.445958,5.4426117,5.440323,5.4381237,5.4370966,5.43598,5.435331,5.4350176,5.434866,5.4348803,5.4347754,5.434485,5.4340878,5.4332557,5.4324245,5.4311934,5.430113,5.4292097,5.428371,5.4278255,5.42723,5.4269247,5.426779,5.4268093,5.426886,5.4268637,5.4267254,5.4264913,5.426017,5.4253798,5.4246407,5.424219,5.4238353,5.4237375,5.4238815,5.4239683,5.423885,5.423525,5.422925,5.422138,5.4211526,5.4204817,5.4194207,5.4185605,5.417954,5.41761,5.417426,5.4174156,5.417572,5.417805,5.4180126,5.4180784,5.4181085,5.418084,5.417921,5.4174385,5.4167366,5.4155912,5.414627,5.4131813,5.4118977,5.4108987,5.409853,5.4089975,5.4087763,5.409646,5.4119544,5.414079,5.414585,5.4135923,5.4119997,5.412237,5.4133034,5.4141884,5.4132338,5.4108167,5.4072113,5.4027715,5.398572,5.392867,5.3884907,5.383183,5.379657,5.3776016,5.3769293,5.3772697,5.3782134,5.379386,5.3802733,5.3818283,5.383514,5.3867397,5.3902335,5.395341,5.401933,5.4077673,5.4154234,5.4208684,5.426288,5.4296083,5.4315844,5.432358,5.4318924,5.4309616,5.4299116,5.429265,5.4287615,5.4284897,5.4287596,5.4294977,5.4302855,5.4314013,5.432353,5.4338093,5.4351206,5.436783,5.4386873,5.4402676,5.4422684,5.443671,5.4452515,5.4466815,5.447877,5.4495974,5.451026,5.4530644,5.4551363,5.4571424,5.459791,5.4618654,5.4646983,5.4670916,5.469493,5.472067,5.4739285,5.4762297,5.477867,5.4796576,5.481462,5.482869,5.484773,5.4862514,5.4881554,5.4902134,5.4920382,5.494624,5.496687,5.4994783,5.502246,5.5048757,5.508313,5.510953,5.514614,5.517868,5.5212,5.525104,5.5280905,5.5320787,5.5352154,5.538679,5.542283,5.5450664,5.548665,5.5513163,5.5544996,5.557597,5.560133,5.56342,5.5658736,5.5690417,5.5719986,5.5746784,5.577998,5.5804486,5.5837255,5.586585,5.589446,5.5928802,5.5955186,5.599288,5.602542,5.606234,5.6105165,5.6139956,5.618888,5.6228104,5.6275716,5.632453,5.6364875,5.6417055,5.645542,5.6502895,5.6545715,5.6583023,5.662837,5.66612,5.6704144,5.6740737,5.677616,5.681679,5.6846585,5.6886044,5.6917467,5.6951504,5.6988754,5.7017574,5.705728,5.7088833,5.7126513,5.716649,5.720003,5.7246227,5.728223,5.73271,5.7368245,5.7403274,5.744338,5.74702,5.750141,5.7525005,5.754735,5.757201,5.758937,5.7614565,5.7635584,5.7655377,5.7674665,5.7688155,5.770748,5.772399,5.77447,5.777026,5.779305,5.7829514,5.7861757,5.790651,5.795301,5.7994184,5.803966,5.8067436,5.80945,5.8100104,5.809324,5.8051014,5.7997875,5.7915697,5.785803,5.7835894,5.789006,5.7981873,5.8130136,5.825198,5.8339005,5.840273,5.846012,5.8557034,5.861293,5.857538,5.78868,5.685637,5.387047,5.052455,4.7103043,4.5530977,4.533932,4.7725677,5.112179,5.5055137,5.744026,5.8355055,5.8508244,5.8716383,5.8735294,5.860607,5.8716326,5.880933,5.8738074,5.8557262,5.837881,5.8231707,5.817437,5.818325,5.823324
5.4823914,5.4963017,5.5009604,5.4853373,5.477104,5.480055,5.4826994,5.4862194,5.4884453,5.4913597,5.4934807,5.4958115,5.496684,5.4961166,5.4940004,5.4916983,5.488747,5.485984,5.4835124,5.480638,5.478673,5.4747057,5.470811,5.467786,5.465084,5.463488,5.460186,5.456793,5.453103,5.449653,5.447336,5.445169,5.444211,5.443181,5.442612,5.4423485,5.442232,5.442254,5.442128,5.4417834,5.4413214,5.4403987,5.439498,5.4382076,5.4370823,5.436081,5.435114,5.434482,5.4337597,5.433344,5.433051,5.432958,5.4329867,5.432923,5.4327717,5.432546,5.432126,5.431561,5.4309473,5.4306393,5.430375,5.430367,5.430578,5.4307494,5.4307337,5.4304667,5.429947,5.429258,5.428314,5.427599,5.4265127,5.4256744,5.425145,5.424923,5.4248314,5.424939,5.4251795,5.4255104,5.4257727,5.4258404,5.425824,5.4257336,5.4254746,5.424882,5.42406,5.422843,5.4218926,5.420514,5.419392,5.4186335,5.4180307,5.4176073,5.4179745,5.419079,5.421146,5.4216986,5.4197226,5.4177194,5.4169483,5.417123,5.417884,5.4187155,5.4172044,5.414049,5.410285,5.4060736,5.401821,5.39647,5.3927116,5.3888593,5.3872457,5.387254,5.3889837,5.390972,5.393257,5.39475,5.3957376,5.3968997,5.3981047,5.400461,5.403136,5.407496,5.4130116,5.4174843,5.423568,5.4280953,5.432481,5.4353857,5.4375734,5.4390182,5.439192,5.438369,5.4372344,5.4371557,5.4372416,5.437137,5.437504,5.438193,5.4388924,5.4398966,5.4408245,5.44201,5.442946,5.4442577,5.445769,5.446953,5.4486203,5.4499326,5.451432,5.452876,5.454124,5.4559693,5.4575224,5.4597435,5.46201,5.464204,5.4671006,5.469367,5.4724817,5.475128,5.477792,5.480655,5.48273,5.4852934,5.487117,5.489106,5.491104,5.4926605,5.494761,5.4963856,5.4984612,5.5006685,5.5026083,5.505315,5.5074515,5.5103273,5.51316,5.515846,5.5193505,5.5220423,5.5257816,5.5291104,5.5325174,5.5365286,5.539611,5.543751,5.5470333,5.5506783,5.5545135,5.557497,5.5613766,5.564247,5.567688,5.571012,5.5737133,5.577161,5.5796933,5.5829062,5.5858264,5.588438,5.5915995,5.5938888,5.596916,5.599528,5.6021366,5.6052837,5.607714,5.6112394,5.614332,5.617866,5.622017,5.625415,5.6302123,5.634074,5.6387634,5.6435823,5.6475706,5.6527443,5.65656,5.661294,5.6655917,5.6693583,5.673966,5.677321,5.6817236,5.6854897,5.6891375,5.693308,5.696354,5.7003717,5.70355,5.706978,5.7107053,5.71358,5.717533,5.7206726,5.7244244,5.728429,5.7318106,5.736473,5.7401047,5.7445993,5.7486935,5.752179,5.7561235,5.7587237,5.7617383,5.7640047,5.7661047,5.768606,5.770542,5.773389,5.7758226,5.778181,5.7805405,5.7822285,5.784464,5.786195,5.7881756,5.790496,5.7926006,5.7959833,5.798992,5.803236,5.8077145,5.8117027,5.8161693,5.8189425,5.8216724,5.822351,5.8218646,5.8180466,5.8131313,5.8054457,5.7999763,5.7976885,5.8027897,5.81164,5.8266845,5.839608,5.8499384,5.856737,5.860616,5.8685503,5.873644,5.86981,5.8007565,5.697218,5.3953543,5.0564356,4.712615,4.555205,4.533229,4.7691803,5.107787,5.5063467,5.752455,5.8477516,5.864375,5.884763,5.886425,5.873644,5.885455,5.8948526,5.8866625,5.866433,5.846759,5.831649,5.8265085,5.827629,5.8328857
5.512106,5.518489,5.516591,5.4992785,5.4884057,5.4891686,5.4897904,5.4919214,5.4934244,5.4957466,5.497651,5.4997144,5.500433,5.4996977,5.497857,5.496129,5.493657,5.4911485,5.488841,5.4860334,5.484028,5.4804916,5.477096,5.474061,5.4711566,5.469451,5.466015,5.4625306,5.458748,5.4552526,5.452942,5.450823,5.4499283,5.4489717,5.4484663,5.448239,5.4481506,5.448181,5.4480443,5.447664,5.4471607,5.4461594,5.44518,5.4438367,5.442685,5.4416313,5.4405794,5.439871,5.4390593,5.438567,5.4381275,5.437895,5.4378633,5.4377522,5.4375916,5.437378,5.4370127,5.436514,5.4360104,5.435793,5.435606,5.43563,5.4358296,5.436042,5.436113,5.4359455,5.4355063,5.434917,5.4340053,5.4332237,5.4321566,5.431402,5.430936,5.430785,5.4307566,5.4309435,5.4312406,5.4316387,5.431942,5.4320145,5.431982,5.431864,5.431576,5.430958,5.430098,5.4288883,5.42799,5.4266996,5.4256935,5.425071,5.42467,5.424444,5.4249396,5.4257445,5.426504,5.425353,5.422245,5.4200687,5.4199276,5.419385,5.419318,5.420211,5.4190536,5.4162903,5.4131117,5.4094925,5.4055495,5.400979,5.398146,5.3964195,5.397395,5.4001865,5.4040933,5.406572,5.409148,5.4107084,5.412492,5.414163,5.415139,5.416705,5.41838,5.4214654,5.425437,5.4286394,5.4327707,5.4356537,5.4380026,5.4394746,5.4410353,5.4425297,5.4432297,5.4424148,5.4411654,5.441457,5.4422703,5.442811,5.443678,5.4445186,5.4453783,5.4464946,5.4474964,5.4487486,5.4496593,5.450718,5.451791,5.452586,5.4538465,5.454956,5.4563193,5.457764,5.45905,5.460993,5.4626417,5.4649973,5.4674034,5.4697304,5.4727993,5.4751997,5.478505,5.4813223,5.484162,5.4872236,5.4894457,5.4922037,5.494173,5.49632,5.4984717,5.5001464,5.502404,5.5041466,5.5063605,5.508691,5.5107236,5.5135293,5.5157256,5.518672,5.521559,5.5242896,5.527849,5.5305834,5.5343866,5.537776,5.541245,5.5453434,5.548502,5.5527654,5.5561666,5.5599604,5.563984,5.567131,5.5712404,5.574291,5.5779448,5.581454,5.5842915,5.5878725,5.590473,5.593731,5.596635,5.5992064,5.60226,5.604436,5.6072826,5.609706,5.6121187,5.615031,5.6172876,5.6206,5.6235447,5.6269264,5.630946,5.6342554,5.6389503,5.6427484,5.6473618,5.6521206,5.656069,5.661209,5.6650133,5.6697426,5.67406,5.677859,5.6825285,5.6859407,5.6904306,5.694286,5.6980233,5.70229,5.7054014,5.7094903,5.712712,5.7161746,5.71992,5.722801,5.726756,5.729893,5.733652,5.7376776,5.741094,5.745764,5.7493725,5.753853,5.7579327,5.7613974,5.765306,5.7678747,5.7708483,5.7730827,5.775173,5.777623,5.7794805,5.782139,5.7844887,5.7871146,5.790061,5.7923284,5.795019,5.796822,5.7987356,5.8008447,5.802799,5.8059616,5.80879,5.8128195,5.817118,5.8209715,5.8253155,5.8280296,5.830738,5.831481,5.831106,5.827503,5.8227873,5.8154154,5.8101234,5.8076453,5.812519,5.8213043,5.83688,5.8506627,5.8622284,5.8692827,5.8718405,5.878681,5.883611,5.8794723,5.810047,5.706547,5.402197,5.059466,4.7143087,4.5569925,4.533234,4.7666507,5.1032205,5.5054064,5.757865,5.856558,5.8745203,5.8945694,5.896017,5.883339,5.8959746,5.905637,5.896607,5.8745375,5.8532305,5.8377595,5.833147,5.834487,5.840058
5.539791,5.542136,5.5343275,5.513324,5.4988136,5.497781,5.4964695,5.49714,5.4975505,5.4997473,5.502391,5.5040064,5.5041065,5.503518,5.5022936,5.5012255,5.4993143,5.497121,5.495081,5.4924736,5.490518,5.4875827,5.4848137,5.481782,5.4786286,5.4767685,5.473214,5.469702,5.465871,5.4623756,5.4601097,5.458081,5.4572716,5.4564133,5.455984,5.455802,5.455745,5.455781,5.4556313,5.4552107,5.4546604,5.4535785,5.452527,5.4510956,5.4498763,5.44876,5.4476514,5.4469137,5.446003,5.445389,5.4448237,5.444433,5.4442444,5.4439936,5.4437923,5.443583,5.4432893,5.4428678,5.442478,5.4423494,5.442273,5.4423923,5.442664,5.44298,5.4431467,5.443102,5.4427576,5.4422503,5.441375,5.440568,5.4395304,5.438843,5.438448,5.4383807,5.438415,5.438694,5.4390707,5.439599,5.44001,5.4401293,5.440097,5.4399443,5.4396257,5.4389954,5.438135,5.436984,5.436171,5.4350243,5.4341516,5.433673,5.4332676,5.432928,5.4326954,5.432435,5.4318624,5.4294577,5.4257364,5.4229813,5.42258,5.4217253,5.421576,5.422512,5.4219418,5.420065,5.418332,5.417714,5.418764,5.4187512,5.4172363,5.416151,5.4166403,5.4187064,5.422964,5.4270697,5.4301653,5.4312325,5.4329996,5.435255,5.43711,5.440177,5.443077,5.4468656,5.4509583,5.454668,5.45621,5.454688,5.4516373,5.448513,5.447156,5.4469037,5.447584,5.4463367,5.4449883,5.445759,5.4475694,5.4489813,5.450719,5.452056,5.4534335,5.4548845,5.4559584,5.457252,5.4581366,5.459102,5.460024,5.460706,5.4617705,5.4627094,5.463943,5.465323,5.466564,5.4684696,5.4700985,5.472386,5.4747324,5.4770412,5.480171,5.4826756,5.4860744,5.4889402,5.4918213,5.4949074,5.497119,5.5000052,5.502169,5.504487,5.5068073,5.5086126,5.5110426,5.512914,5.5152793,5.5177417,5.519876,5.522792,5.525058,5.528084,5.5310388,5.533833,5.5374784,5.5402827,5.544178,5.5476484,5.5511985,5.555407,5.5586615,5.5630703,5.5666075,5.5705733,5.574814,5.578148,5.582521,5.585778,5.589675,5.5934005,5.5964007,5.6001453,5.6028337,5.6061664,5.6090784,5.6116343,5.614603,5.616677,5.619351,5.621584,5.6237907,5.626443,5.628495,5.631546,5.6342936,5.6374702,5.6412945,5.6444683,5.649,5.6526856,5.657175,5.6618385,5.6657243,5.670809,5.67459,5.679308,5.683648,5.687479,5.6922197,5.6957016,5.7003007,5.7042694,5.708124,5.7125225,5.715723,5.719917,5.7232056,5.7267275,5.7305117,5.733409,5.737377,5.7405176,5.744267,5.7482843,5.751711,5.756374,5.7599573,5.764409,5.7684574,5.7718916,5.7757645,5.778309,5.7812543,5.78347,5.7855506,5.7879915,5.7898426,5.7924643,5.794813,5.797591,5.800749,5.8031473,5.8059273,5.8077316,5.8096447,5.8117123,5.8135533,5.816864,5.8200083,5.8241415,5.8282733,5.831811,5.835843,5.8384523,5.8410397,5.8417587,5.8414364,5.8380203,5.8335123,5.8264275,5.8213253,5.818888,5.82367,5.8322015,5.848631,5.863801,5.876459,5.8834877,5.8848343,5.8906403,5.8953114,5.8902,5.819827,5.7166867,5.409492,5.0619383,4.715438,4.55859,4.5326133,4.7626534,5.0964794,5.502008,5.761475,5.8656836,5.8865886,5.9059467,5.9068465,5.89423,5.9082165,5.9188094,5.9093657,5.8849115,5.860818,5.8441734,5.839913,5.841781,5.848256
5.5553226,5.556333,5.5448685,5.521057,5.504332,5.502677,5.5002146,5.500224,5.500687,5.5033894,5.5065527,5.5076056,5.507002,5.506583,5.505952,5.5054674,5.5040846,5.502241,5.5005426,5.4982424,5.496415,5.4939957,5.491744,5.4888783,5.4856615,5.4836607,5.480077,5.4766517,5.4728746,5.4694605,5.467288,5.4653797,5.464654,5.4638863,5.46352,5.463371,5.463333,5.4633684,5.463209,5.462762,5.4621763,5.4610357,5.459936,5.458425,5.4571342,5.4559603,5.45481,5.4540668,5.453082,5.452365,5.4517107,5.451189,5.450844,5.450443,5.450186,5.4499645,5.4497323,5.4493914,5.449115,5.449067,5.449107,5.4493446,5.4497223,5.450165,5.4504232,5.4505057,5.450254,5.449788,5.44894,5.4481616,5.447172,5.446533,5.4461923,5.446203,5.4463196,5.446691,5.447117,5.44765,5.4480457,5.448161,5.4481907,5.448138,5.4479856,5.447515,5.4467497,5.445699,5.4449587,5.4438286,5.4428425,5.442188,5.441318,5.4404955,5.4391203,5.437559,5.4354076,5.4319158,5.4281945,5.424999,5.4240866,5.423579,5.424323,5.425755,5.4267225,5.426691,5.4272566,5.4294252,5.4339976,5.4368553,5.4359226,5.435184,5.434964,5.4350667,5.4380484,5.44277,5.445596,5.4458656,5.44697,5.4491878,5.451596,5.456045,5.4603257,5.464778,5.4697065,5.475196,5.477319,5.474631,5.469016,5.4619555,5.4562716,5.4521585,5.4515777,5.4490576,5.4474955,5.448672,5.451641,5.454177,5.457055,5.459073,5.4611664,5.4631147,5.464334,5.4657583,5.466695,5.467718,5.468698,5.4694605,5.4705334,5.471406,5.472595,5.4739385,5.4751463,5.477003,5.4785905,5.480774,5.4830017,5.485215,5.4882555,5.490716,5.4939966,5.496725,5.4994564,5.50241,5.5045547,5.507459,5.509715,5.5121136,5.5145226,5.5164003,5.5189257,5.5208664,5.5233107,5.525842,5.5280304,5.531007,5.533307,5.536373,5.5393558,5.5421724,5.5458465,5.5486736,5.5526266,5.55617,5.5597963,5.564106,5.5674434,5.571971,5.575615,5.5797095,5.5841107,5.5875845,5.5921545,5.5955696,5.5996523,5.603551,5.6066856,5.6105776,5.6133556,5.616789,5.619766,5.6223726,5.6253624,5.627427,5.630058,5.6322107,5.6343174,5.6368055,5.638712,5.641554,5.644124,5.6471033,5.65072,5.65374,5.6580772,5.6616254,5.665964,5.670506,5.6743097,5.6793146,5.683055,5.6877394,5.6920733,5.6959095,5.7006826,5.7042036,5.7088766,5.712931,5.71688,5.7213917,5.7246737,5.7289696,5.7323275,5.735914,5.739744,5.7426643,5.746654,5.7498007,5.753539,5.7575197,5.7609015,5.765516,5.7690706,5.7734785,5.7774878,5.7808914,5.7847433,5.7872834,5.790232,5.7924604,5.7945538,5.7970114,5.7988763,5.801509,5.8038607,5.8066535,5.8097563,5.812029,5.8146935,5.8164625,5.8184013,5.8205028,5.82227,5.825752,5.829234,5.833766,5.838125,5.841626,5.845476,5.847909,5.850297,5.850893,5.8505106,5.8471203,5.842692,5.8357067,5.8306894,5.8283453,5.833164,5.841489,5.85914,5.876071,5.889485,5.896158,5.8965826,5.901636,5.9061003,5.8997126,5.828227,5.7258873,5.4163327,5.064129,4.7167253,4.5607195,4.532714,4.7591696,5.0898404,5.4969883,5.762018,5.8727393,5.897805,5.916239,5.9168777,5.9048314,5.9201603,5.931141,5.920412,5.893692,5.8677845,5.8500643,5.8458943,5.8483143,5.8558626
5.562187,5.5616336,5.5487976,5.5243373,5.507306,5.505684,5.5021772,5.5021524,5.5047235,5.5082273,5.510358,5.510817,5.5099287,5.50939,5.508956,5.508849,5.5078998,5.506427,5.5050497,5.5030575,5.501397,5.499235,5.4972343,5.494725,5.4917107,5.4896154,5.4860334,5.482697,5.479006,5.475699,5.473625,5.4718323,5.4711766,5.470482,5.4701586,5.4700303,5.4700003,5.4700327,5.469867,5.4694037,5.468795,5.467616,5.466482,5.4649286,5.4635925,5.462345,5.461121,5.460345,5.459311,5.458543,5.457801,5.457179,5.456771,5.4562836,5.455965,5.4556956,5.4554887,5.4552345,5.455081,5.455118,5.455264,5.4555902,5.4560375,5.4565682,5.456895,5.4570847,5.456911,5.456457,5.455636,5.454917,5.453986,5.4533815,5.4530506,5.453164,5.4534845,5.4540544,5.454521,5.454814,5.4549036,5.454888,5.4550486,5.455311,5.455614,5.4555264,5.4549227,5.453975,5.453285,5.451957,5.45052,5.449277,5.447633,5.4462585,5.444248,5.442016,5.438237,5.4332952,5.4292693,5.4257817,5.4248686,5.425126,5.4273214,5.429881,5.4333887,5.435968,5.4398937,5.4424496,5.4425955,5.440706,5.4382396,5.4403305,5.4447865,5.446436,5.449769,5.454297,5.4569283,5.456806,5.4571333,5.4573793,5.457427,5.4589825,5.461201,5.462223,5.465949,5.473068,5.481935,5.486841,5.48565,5.477393,5.466772,5.4575777,5.455391,5.451239,5.4493127,5.450862,5.455105,5.4589396,5.4628773,5.465318,5.467925,5.470277,5.471693,5.4732876,5.4742756,5.475321,5.4762926,5.4770575,5.478159,5.4790735,5.4803205,5.481737,5.4830203,5.484971,5.4866223,5.4888926,5.491152,5.4933453,5.4962234,5.4984694,5.5014586,5.503941,5.5064116,5.509251,5.5114903,5.5144076,5.5166063,5.5189924,5.5214133,5.523305,5.5258484,5.5277996,5.5302544,5.532798,5.5350027,5.5379953,5.540304,5.5433702,5.5463324,5.549115,5.5527267,5.5554905,5.5594497,5.5630665,5.5667753,5.5711923,5.5746098,5.579255,5.5829983,5.5871983,5.5917134,5.5952744,5.59997,5.603487,5.6076937,5.6117115,5.6149426,5.61895,5.621805,5.6253376,5.628405,5.631092,5.6341667,5.6362805,5.6389527,5.6411076,5.6431913,5.6456013,5.647418,5.650119,5.6525536,5.655376,5.6588154,5.6616983,5.6658607,5.669286,5.6734867,5.6779156,5.6816406,5.6865673,5.6902666,5.694909,5.6992235,5.703049,5.7078276,5.711361,5.716074,5.7201853,5.7241955,5.7287893,5.732136,5.736512,5.7399282,5.743566,5.7474337,5.750375,5.754382,5.757531,5.7612705,5.7652025,5.768484,5.773017,5.7765617,5.780941,5.7849236,5.788305,5.7921443,5.79469,5.7976527,5.799902,5.8020153,5.804496,5.8063765,5.809021,5.811379,5.814193,5.817313,5.819588,5.822248,5.8240013,5.825903,5.8279157,5.8295774,5.8328023,5.8360777,5.8411493,5.846296,5.85017,5.8540554,5.8562226,5.8583837,5.858836,5.858344,5.85488,5.8504086,5.8437014,5.839031,5.836697,5.8413157,5.849251,5.8681393,5.886978,5.9010143,5.907164,5.9066653,5.9109993,5.915315,5.907904,5.835601,5.7341037,5.4226837,5.0665703,4.7185574,4.5633717,4.533472,4.7570095,5.0855417,5.4930024,5.7613325,5.878193,5.9076366,5.9250946,5.926012,5.9151354,5.931444,5.9415474,5.9277873,5.899235,5.873764,5.8558455,5.8516445,5.8543863,5.8626857
5.567379,5.5636797,5.549033,5.526519,5.5109158,5.509591,5.50667,5.507349,5.5107813,5.5140553,5.5150366,5.514808,5.51369,5.5130997,5.512853,5.513029,5.5124717,5.5113926,5.510372,5.508763,5.507345,5.505427,5.5036316,5.5015583,5.4988585,5.4967155,5.4932632,5.490155,5.486658,5.4835377,5.4816155,5.479974,5.479389,5.47876,5.478462,5.4783373,5.478299,5.47832,5.4781475,5.4776735,5.477044,5.475832,5.474672,5.4730883,5.4717236,5.470435,5.4691496,5.4683185,5.4672365,5.4664383,5.465624,5.4649286,5.4644837,5.4639635,5.4636364,5.4633904,5.463256,5.46309,5.4630632,5.4631987,5.46348,5.463948,5.4645305,5.465241,5.465706,5.466076,5.466013,5.465572,5.464768,5.4641113,5.4632435,5.4626846,5.462468,5.462611,5.4628325,5.463237,5.4635587,5.4636555,5.463587,5.4634633,5.46373,5.4642553,5.4649496,5.4652047,5.464799,5.4639044,5.46313,5.4615035,5.4595423,5.4576025,5.454982,5.4528484,5.4500513,5.446964,5.4406266,5.4338074,5.430127,5.4272985,5.4270897,5.428688,5.432642,5.436449,5.442791,5.448106,5.4519205,5.4523478,5.4506116,5.448862,5.448635,5.449519,5.4505506,5.4498425,5.4495726,5.4504576,5.4512863,5.4518824,5.452747,5.454037,5.455224,5.4567595,5.4580717,5.4593406,5.463977,5.4714775,5.4826183,5.4908285,5.4974117,5.494828,5.483164,5.469182,5.4621935,5.454915,5.452544,5.454137,5.4593887,5.4643755,5.469604,5.472902,5.47624,5.4791756,5.4809494,5.4828854,5.4840174,5.485162,5.486168,5.4869533,5.488115,5.4891024,5.490441,5.491963,5.4933476,5.49543,5.4971743,5.499572,5.5019045,5.504117,5.506892,5.5089793,5.5117474,5.5140395,5.516325,5.519018,5.521205,5.5239882,5.526047,5.528332,5.5306826,5.532528,5.53501,5.5369134,5.5393004,5.541773,5.543923,5.5468416,5.5490904,5.552077,5.5549574,5.5576534,5.5611525,5.5638313,5.567739,5.5713615,5.575079,5.579516,5.5829496,5.587582,5.591296,5.595484,5.6000276,5.6036453,5.6084275,5.6120157,5.616314,5.620434,5.623754,5.6278887,5.6308455,5.6345367,5.637786,5.640654,5.643968,5.646264,5.649164,5.6514797,5.6536903,5.6561623,5.6579776,5.660617,5.6629496,5.6656322,5.668885,5.671612,5.675559,5.6788187,5.682828,5.6870813,5.6906734,5.695442,5.699034,5.7035513,5.7077637,5.711505,5.716195,5.719674,5.7243433,5.728448,5.7324657,5.737093,5.7404766,5.7449045,5.7483616,5.752036,5.7559304,5.7588835,5.7628984,5.766045,5.7697773,5.7736616,5.776862,5.7812877,5.7847595,5.789044,5.79296,5.7963104,5.800151,5.80272,5.805724,5.8080196,5.810178,5.8127046,5.8146105,5.817287,5.8196526,5.8224163,5.8255043,5.827812,5.830516,5.832297,5.8342104,5.8361936,5.837816,5.8408446,5.8439193,5.8492117,5.855114,5.8601475,5.864752,5.866714,5.868691,5.8689394,5.868266,5.8646545,5.8601856,5.85256,5.8468213,5.8441863,5.8494425,5.8583536,5.8791857,5.8997335,5.9147377,5.920612,5.919019,5.9224524,5.9265795,5.91829,5.8454742,5.745236,5.4318876,5.0713234,4.7228317,4.5687547,4.5370655,4.7557178,5.0787153,5.486809,5.7613525,5.885416,5.919637,5.9361196,5.938134,5.9293423,5.946302,5.9545126,5.9368973,5.9063053,5.881763,5.8639565,5.8598204,5.8627434,5.871743
5.5711565,5.5641804,5.5475006,5.528041,5.5143237,5.5131283,5.5121756,5.5138216,5.5157585,5.517692,5.5183764,5.517711,5.51643,5.5159607,5.5159,5.516174,5.5157986,5.5149345,5.5141296,5.512781,5.5115466,5.5098,5.5081296,5.5063095,5.503813,5.5016756,5.498401,5.495536,5.4922266,5.4892645,5.487466,5.485935,5.485391,5.4847927,5.4844933,5.484358,5.4843016,5.48431,5.484131,5.483654,5.483014,5.481786,5.4806128,5.4790177,5.4776497,5.4763784,5.4750805,5.474201,5.4730887,5.4722843,5.471445,5.470726,5.4702663,5.46977,5.4694977,5.469343,5.4693,5.4691715,5.469204,5.4693975,5.469776,5.4703717,5.471098,5.472002,5.472615,5.473158,5.473192,5.4727635,5.47196,5.471331,5.4705048,5.4699984,5.469985,5.4700766,5.469885,5.4697824,5.4698257,5.4699373,5.470022,5.4698944,5.470167,5.4707184,5.471453,5.4717693,5.4714804,5.4705563,5.4696054,5.4677896,5.465601,5.463334,5.460137,5.4574585,5.454091,5.4503036,5.441658,5.4334364,5.430643,5.429133,5.429941,5.4326096,5.4374533,5.4416857,5.4496794,5.456673,5.456071,5.452901,5.45506,5.461539,5.4683228,5.464182,5.4537926,5.4481716,5.444204,5.4424925,5.4437685,5.4476643,5.451667,5.4572096,5.4625874,5.465359,5.4649124,5.46778,5.473035,5.4783306,5.4831944,5.485653,5.497949,5.5051503,5.4970884,5.481187,5.4685163,5.4582763,5.45576,5.457095,5.462615,5.4680457,5.474161,5.4783177,5.4822354,5.485634,5.4877357,5.4900002,5.491292,5.4925594,5.493622,5.494437,5.495638,5.496658,5.498045,5.4996243,5.5010614,5.503215,5.505014,5.507476,5.509858,5.512109,5.514925,5.5170436,5.5198374,5.522134,5.5244513,5.5270443,5.5290127,5.531577,5.5335217,5.53569,5.537942,5.5397177,5.5421095,5.543945,5.546238,5.548608,5.550669,5.5534673,5.555624,5.5584993,5.5612864,5.5638986,5.567318,5.569955,5.5737963,5.5773544,5.581008,5.585371,5.5887566,5.593252,5.596821,5.6008854,5.6053753,5.6090155,5.6138315,5.617446,5.6217794,5.625949,5.629321,5.633539,5.636573,5.6404,5.643822,5.6468678,5.6504345,5.652935,5.656104,5.658633,5.661029,5.663644,5.6655254,5.6681952,5.6704936,5.6731153,5.6762576,5.678885,5.682683,5.6858163,5.689676,5.693778,5.6972513,5.701865,5.7053423,5.709719,5.713807,5.7174397,5.7220044,5.7254,5.7299776,5.734027,5.738006,5.742612,5.7459908,5.7504206,5.7538853,5.7575674,5.761464,5.764414,5.768423,5.7715626,5.775279,5.7791433,5.782344,5.7866964,5.790057,5.794218,5.7980537,5.8013773,5.8052273,5.807823,5.810872,5.8132143,5.8154182,5.81799,5.81992,5.822632,5.8250017,5.827674,5.8306985,5.8330517,5.8358245,5.8376617,5.8396416,5.8416886,5.84336,5.846443,5.84954,5.8545303,5.8606124,5.8669815,5.8725963,5.8744755,5.876389,5.8764896,5.8756676,5.8719473,5.867581,5.85822,5.850406,5.8473253,5.853819,5.8646574,5.8871326,5.9082475,5.924189,5.9302783,5.9279203,5.9306626,5.934628,5.9260426,5.853258,5.754004,5.439449,5.07592,4.727099,4.573714,4.5411644,4.755225,5.0717707,5.4809823,5.7623253,5.8912077,5.928158,5.944157,5.9474382,5.940503,5.957552,5.9640913,5.9441404,5.912182,5.888015,5.870392,5.866454,5.8693686,5.8787155
5.578945,5.565585,5.544933,5.5297318,5.5194354,5.519146,5.519215,5.520893,5.522044,5.522901,5.5229077,5.5219045,5.5206614,5.52024,5.520269,5.520609,5.520397,5.519759,5.519193,5.518154,5.517147,5.515688,5.5142217,5.5125446,5.510165,5.5080853,5.5051575,5.502717,5.499693,5.4969387,5.4953146,5.493931,5.493433,5.4928656,5.4925604,5.4924107,5.4923315,5.492324,5.49214,5.4916606,5.491008,5.489759,5.488571,5.4869614,5.485593,5.4843464,5.483042,5.4821086,5.4809723,5.4801817,5.4793377,5.4786205,5.478167,5.477726,5.477537,5.4775195,5.477645,5.4776554,5.477869,5.4781985,5.478753,5.47952,5.480397,5.4815297,5.4823437,5.4830666,5.4831963,5.482896,5.4821258,5.4814224,5.4804487,5.47976,5.4794736,5.479254,5.4788494,5.4785347,5.4784994,5.4786816,5.4789286,5.47892,5.4791756,5.479597,5.480402,5.480867,5.4806595,5.4796734,5.478554,5.476454,5.473851,5.471018,5.466978,5.4636683,5.4585967,5.4530725,5.4432,5.434796,5.432727,5.431862,5.433152,5.437667,5.4454403,5.4536166,5.4589124,5.4586105,5.460982,5.464681,5.4705544,5.468564,5.458973,5.457199,5.451577,5.431074,5.3798885,5.323861,5.2656746,5.2356925,5.2150564,5.225028,5.2519083,5.3126407,5.3746233,5.437752,5.4763703,5.480238,5.483141,5.4879217,5.501299,5.510989,5.510084,5.496832,5.479927,5.466363,5.4619308,5.462162,5.466611,5.4709826,5.4781632,5.4846296,5.4899387,5.4942484,5.4967146,5.499386,5.5009136,5.502375,5.5035477,5.504428,5.505703,5.506776,5.508237,5.5098925,5.5113955,5.51364,5.5155096,5.5180545,5.520503,5.5228148,5.525691,5.5278473,5.530655,5.532933,5.535244,5.537764,5.5396137,5.5420566,5.543935,5.5460386,5.5482364,5.549976,5.552308,5.5540843,5.5562882,5.558552,5.56052,5.5631876,5.565241,5.5679827,5.570655,5.5731745,5.5764794,5.5790315,5.5826855,5.5860343,5.589493,5.5935984,5.5967464,5.601042,5.604533,5.6084995,5.6128635,5.616365,5.62104,5.62459,5.628885,5.6330857,5.636512,5.6408615,5.6440334,5.6480703,5.6517463,5.6550536,5.6590004,5.661813,5.665408,5.6682916,5.671007,5.6738963,5.6759243,5.6787004,5.680996,5.6835713,5.6865883,5.6890907,5.6926904,5.695647,5.6992874,5.703154,5.7064295,5.7107725,5.7140393,5.7181554,5.722004,5.725423,5.7297363,5.732959,5.737339,5.741257,5.7451277,5.7496524,5.7529926,5.757393,5.7608542,5.764532,5.7684283,5.7713747,5.775379,5.778515,5.782221,5.786069,5.789259,5.7935705,5.7968793,5.800993,5.8047967,5.808098,5.8119497,5.814572,5.817664,5.8200507,5.8222923,5.8248816,5.826805,5.8295107,5.831868,5.8345113,5.8374815,5.8397684,5.8425274,5.844425,5.8465304,5.8487606,5.850586,5.8538775,5.8571258,5.8621497,5.868449,5.8753395,5.8820963,5.8851023,5.887444,5.8872695,5.8863387,5.882429,5.878001,5.8666625,5.8565636,5.8526993,5.8606033,5.874107,5.89904,5.9210835,5.9377003,5.943592,5.9405003,5.9426594,5.946515,5.9371085,5.863984,5.7662983,5.450471,5.083154,4.7358823,4.5855675,4.552243,4.7601957,5.0683174,5.478903,5.7685075,5.9014783,5.9403296,5.9561334,5.9605846,5.9551315,5.972058,5.9768543,5.9546003,5.921271,5.897415,5.879757,5.8758516,5.8787704,5.8887362
