37.78822,37.897133,38.067635,38.31514,38.67,39.099106,39.378994,39.636505,39.86824,40.071774,40.270233,40.496414,40.731686,40.961517,41.148994,41.258747,41.29339,41.227432,41.089005,40.948044,40.840916,40.800667,40.81286,40.833443,40.846497,40.85559,40.87073,40.913013,40.959984,41.009853,41.10269,41.250877,41.471092,41.725414,41.955242,42.14016,42.285896,42.40017,42.49688,42.59436,42.699856,42.810165,42.88999,42.9401,42.960625,42.95533,42.951714,42.91353,42.80797,42.636353,42.429157,42.248627,42.162567,42.19788,42.309555,42.460945,42.67906,42.989857,43.432213,44.03695,44.659332,45.18141,45.50483,45.64128,45.64711,45.53711,45.33766,45.03907,44.671806,44.27123,43.834267,43.33705,42.783367,42.226524,41.634964,40.980247,40.533516,40.247795,40.094273,40.056137,40.075367,40.109695,40.17341,40.266705,40.39145,40.538734,40.672356,40.826233,41.013275,41.26306,41.527496,41.666927,41.661964,41.538483,41.284523,41.02629,41.001762,41.147144,41.307022,41.311214,41.17318,40.991596,40.85665,40.81475,40.797043,40.702362,40.47914,40.219837,40.01835,39.932518,39.980278,40.123264,40.322105,40.521618,40.65985,40.727432,40.749863,40.77601,40.842697,40.929733,40.989548,40.97049,40.85494,40.691353,40.561527,40.5648,40.757393,41.134575,41.617516,42.12781,42.52066,42.70211,42.74484,42.740753,42.771282,42.872803,43.036488,43.26091,43.574284,43.971077,44.400707,44.71026,44.96561,45.206745,45.449585,45.77862,46.14325,46.44439,46.613255,46.599365,46.402245,46.10568,45.687767,45.243187,44.797825,44.545994,44.64911,45.01851,45.402,45.88024,46.343742,46.695206,46.971508,47.351837,47.90251,48.590893,49.314068,49.91249,50.260635,50.329727,50.19819,49.89669,49.514496,49.212677,49.135826,49.336674,49.657627,49.74723,49.276543,48.265106,46.652462,45.691948,45.898167,47.21968,48.658195,49.501503,49.992435,50.14658,50.10435,49.997456,49.858555,49.703896,49.620785,49.693016,49.939507,50.29431,50.624046,50.886307,51.189285,51.247055,50.963654,49.743393,47.02629,42.005104,36.89663,34.802887,34.19543,34.17602,34.763355,37.01499,42.439598,49.0767,53.68011,54.272114,54.456554,54.50489,54.344704,54.15988,54.24301,54.285316,54.172062,53.982697,53.761803,53.55973,53.382477,53.203926,53.01026,52.767124,52.434532,51.990116,51.4389,50.88746,50.434383,50.157784,50.072563,50.105156,50.17241,50.197956,50.166687,50.103554,50.04182,50.005764,49.993042,49.990936,49.999588,50.002117,50.008392,50.020992,50.037556,50.06317,50.14786,50.361206,50.752655,51.255054,51.66481,51.753433,51.383533,50.863926,50.422203,50.611946,51.48591,53.104095,54.95415,56.29518,56.611794,56.604065,56.28118,56.030884,55.975285,56.168663,56.560223,56.98906,57.29819,57.420525,57.460342,57.54029,57.693672,57.92795,58.176315,58.368843,58.472656,58.557285,58.71281,59.0048,59.261166,59.311073,58.974716,57.923546,56.363415,54.829853,53.97507,53.87607,54.417454,55.586037,56.988625,58.08409,58.553642,58.525017,58.209747,57.799866,57.43991,57.207348,57.131668,57.114365,57.092125,57.035427,56.970207,56.907604,56.85163,56.803543
37.834976,37.949894,38.1265,38.382763,38.743095,39.152718,39.42958,39.691895,39.9234,40.125984,40.32766,40.56167,40.8078,41.057053,41.261024,41.377975,41.413727,41.34431,41.203102,41.05596,40.940346,40.891037,40.89747,40.91378,40.920883,40.92887,40.946167,40.995064,41.043022,41.090683,41.179653,41.32366,41.540295,41.793125,42.021183,42.20391,42.3469,42.4602,42.556866,42.655136,42.759663,42.869247,42.949608,43.00237,43.02755,43.0252,43.021805,42.976486,42.85694,42.669823,42.45105,42.267487,42.187263,42.231613,42.35292,42.51535,42.74904,43.081886,43.54825,44.176056,44.81185,45.333763,45.665386,45.81191,45.836082,45.74718,45.56242,45.278572,44.916435,44.503937,44.047413,43.531548,42.963814,42.393295,41.844414,41.15136,40.67167,40.34474,40.156303,40.098827,40.106598,40.14377,40.212215,40.305904,40.4281,40.57572,40.7071,40.887497,41.12451,41.422295,41.680794,41.892838,41.93695,41.810135,41.600212,41.3295,41.275818,41.404526,41.530792,41.475563,41.277054,41.060287,40.899788,40.839314,40.806435,40.690308,40.439537,40.16015,39.94233,39.85099,39.90342,40.055687,40.264908,40.47329,40.618355,40.6912,40.71798,40.748432,40.818222,40.90911,40.973778,40.961357,40.854942,40.701866,40.584873,40.60546,40.81977,41.220345,41.721527,42.25048,42.6214,42.75937,42.79178,42.792004,42.82939,42.951572,43.147373,43.42305,43.79705,44.241524,44.620266,44.881287,45.098297,45.30185,45.539925,45.862144,46.222145,46.53106,46.73191,46.77124,46.629105,46.353127,45.97943,45.508453,44.979866,44.68789,44.79443,45.22682,45.637306,46.120834,46.581863,46.927864,47.234436,47.679337,48.274902,49.003822,49.721695,50.285164,50.60039,50.65728,50.509132,50.18212,49.74083,49.36123,49.221333,49.383945,49.701157,49.815903,49.372124,48.381416,46.775047,45.829338,45.943962,47.14524,48.59438,49.52011,50.03119,50.21677,50.18493,50.06784,49.915985,49.75035,49.665478,49.74797,50.01825,50.396996,50.746902,51.020103,51.327354,51.41617,51.149162,50.016182,47.375076,42.20197,36.8212,34.624905,33.99614,33.98372,34.575275,36.898773,42.424866,49.291508,53.865208,54.431152,54.639496,54.67356,54.619743,54.4468,54.528122,54.578197,54.472538,54.30757,54.129585,53.955193,53.774338,53.55257,53.27793,52.948265,52.529602,52.010483,51.415794,50.850452,50.404495,50.14652,50.078407,50.123524,50.199875,50.231445,50.206917,50.152725,50.101067,50.074665,50.068237,50.066067,50.0704,50.06881,50.07437,50.093887,50.117233,50.13909,50.20457,50.38342,50.741646,51.22972,51.655247,51.78353,51.450523,50.90426,50.556988,50.73268,51.559563,53.234398,55.16642,56.363216,56.68893,56.664024,56.339077,56.092213,56.046818,56.267662,56.729073,57.241894,57.58687,57.713844,57.767975,57.835842,57.964108,58.15427,58.338535,58.447456,58.452995,58.432312,58.537807,58.90654,59.293095,59.38755,59.122635,58.196198,56.624275,54.94567,53.968136,53.82414,54.362286,55.590996,57.10859,58.29389,58.754246,58.686417,58.333954,57.879044,57.50786,57.28075,57.23471,57.25744,57.278954,57.250504,57.20552,57.161144,57.127045,57.11084
37.88015,38.000114,38.17762,38.435825,38.796967,39.18453,39.46407,39.730995,39.966904,40.176796,40.3862,40.625336,40.883095,41.147396,41.362015,41.482285,41.518578,41.450184,41.31259,41.164402,41.04198,40.9813,40.977654,40.99032,40.997437,41.004974,41.0231,41.071037,41.11989,41.169296,41.25885,41.403503,41.621613,41.877937,42.109135,42.293907,42.436695,42.548775,42.642857,42.73844,42.839195,42.945976,43.024952,43.078094,43.104755,43.103443,43.099735,43.048584,42.91717,42.715866,42.485367,42.29734,42.220566,42.27138,42.399693,42.57123,42.81836,43.171192,43.659164,44.306564,44.95388,45.47637,45.81943,45.98178,46.030716,45.96788,45.80168,45.52677,45.16732,44.741646,44.258842,43.717827,43.133324,42.55182,42.025383,41.31633,40.81179,40.45681,40.23864,40.162003,40.151756,40.177013,40.246326,40.345474,40.47046,40.615993,40.7421,40.919044,41.1799,41.495888,41.793884,42.064323,42.171394,42.082672,41.870415,41.609486,41.555214,41.66185,41.75267,41.636192,41.383347,41.139614,40.961693,40.88685,40.83529,40.684364,40.40239,40.093742,39.859566,39.76597,39.825394,39.98552,40.198395,40.40657,40.552277,40.630707,40.668316,40.711735,40.791523,40.889404,40.959087,40.952644,40.855644,40.71428,40.611454,40.648304,40.8795,41.294872,41.807365,42.338814,42.68207,42.794067,42.834732,42.837006,42.893414,43.042786,43.27202,43.60705,44.04627,44.486008,44.791542,45.001076,45.187477,45.390015,45.622997,45.936005,46.28622,46.599857,46.834633,46.935516,46.860992,46.624123,46.2818,45.792603,45.22528,44.902035,45.011963,45.486248,45.929047,46.41124,46.88159,47.206085,47.550537,48.052345,48.70272,49.447838,50.14469,50.661385,50.939133,50.983265,50.818283,50.45975,49.955376,49.498524,49.299915,49.43196,49.74803,49.894096,49.478394,48.50284,46.889084,45.97258,45.972206,47.040306,48.47947,49.50741,50.038933,50.25967,50.24279,50.121246,49.95849,49.783936,49.698162,49.789635,50.082664,50.484608,50.858387,51.150925,51.46841,51.569977,51.25778,50.295628,47.77684,42.415844,36.763855,34.461037,33.787216,33.7918,34.393238,36.7984,42.443314,49.519394,54.033096,54.577843,54.819542,54.84346,54.827812,54.693462,54.74959,54.78311,54.681107,54.517853,54.337425,54.159267,53.980236,53.746143,53.437588,53.045486,52.57286,52.00866,51.393326,50.826523,50.3892,50.143753,50.08425,50.13504,50.21613,50.251045,50.230713,50.182076,50.136833,50.118294,50.11977,50.120853,50.124084,50.121353,50.127953,50.1543,50.183914,50.201916,50.250496,50.400192,50.732906,51.214554,51.660267,51.827408,51.523113,50.946068,50.611023,50.736588,51.584244,53.326942,55.345917,56.433487,56.75944,56.7124,56.386078,56.10083,56.08364,56.336754,56.86228,57.4507,57.863617,58.033035,58.10016,58.164516,58.27499,58.423553,58.52996,58.518013,58.364174,58.160088,58.15411,58.56113,59.13822,59.410324,59.22358,58.397354,56.904,55.107983,54.009224,53.807972,54.326508,55.581863,57.17977,58.415024,58.887604,58.770737,58.345085,57.804512,57.388332,57.14817,57.12373,57.192154,57.278564,57.305775,57.30871,57.302624,57.30183,57.32563
37.90383,38.030983,38.207455,38.465546,38.827858,39.200447,39.477287,39.748684,39.99186,40.20926,40.423546,40.66681,40.93238,41.205208,41.42501,41.54872,41.5904,41.532425,41.408585,41.26697,41.142174,41.070793,41.05561,41.062386,41.06804,41.076164,41.09491,41.14472,41.197533,41.2528,41.348488,41.49981,41.72576,41.99158,42.231644,42.42315,42.568684,42.67995,42.769844,42.85975,42.954407,43.05643,43.131767,43.182076,43.205482,43.2008,43.192955,43.13342,42.988716,42.771805,42.52803,42.33349,42.2575,42.31229,42.44466,42.62243,42.879387,43.248146,43.75364,44.416523,45.07319,45.59903,45.958733,46.14611,46.23065,46.20388,46.064106,45.80119,45.435493,44.99353,44.477882,43.89956,43.288223,42.690598,42.137367,41.415054,40.89145,40.52471,40.29363,40.20244,40.175446,40.183533,40.249214,40.35397,40.483635,40.626125,40.746925,40.905533,41.154434,41.505066,41.836914,42.14244,42.312458,42.27697,42.06842,41.822197,41.786743,41.88841,41.943245,41.7743,41.472015,41.208153,41.02367,40.941883,40.878902,40.697548,40.381035,40.043022,39.7939,39.698578,39.762817,39.925667,40.13318,40.33085,40.469505,40.550774,40.602192,40.663933,40.75872,40.86628,40.941986,40.94265,40.857162,40.730476,40.643993,40.69639,40.93931,41.360527,41.87879,42.391968,42.71521,42.82375,42.87185,42.89086,42.976994,43.158077,43.423264,43.816113,44.272785,44.64763,44.89779,45.097916,45.275127,45.47029,45.703583,46.005775,46.342846,46.656868,46.92258,47.08613,47.08631,46.904823,46.56681,46.090378,45.566505,45.23478,45.379158,45.85617,46.346992,46.865517,47.284702,47.562363,47.934135,48.481926,49.17141,49.917244,50.574036,51.028633,51.26617,51.294052,51.110313,50.71044,50.138588,49.605698,49.35128,49.456955,49.77352,49.94052,49.55185,48.60047,46.959957,46.05479,45.97986,46.93009,48.3547,49.471577,50.02954,50.289703,50.2912,50.16806,49.99464,49.810127,49.721592,49.819595,50.1322,50.55168,50.94776,51.26158,51.58492,51.671673,51.332264,50.602142,48.197983,42.65844,36.766834,34.341858,33.617012,33.633118,34.25611,36.738422,42.525314,49.783165,54.20569,54.720695,55.00317,55.025204,54.997917,54.86272,54.88655,54.893127,54.795357,54.636887,54.461494,54.275574,54.069885,53.813923,53.500526,53.083755,52.57788,51.99336,51.37559,50.817192,50.389904,50.153427,50.097538,50.150623,50.234924,50.272568,50.255795,50.21113,50.17076,50.15882,50.167038,50.170963,50.173183,50.169647,50.17731,50.20877,50.242317,50.254818,50.287556,50.412636,50.7255,51.201912,51.661575,51.863213,51.58345,50.977062,50.59749,50.712723,51.59269,53.398888,55.46843,56.48889,56.820545,56.759228,56.456657,56.138916,56.144287,56.44655,57.01921,57.63076,58.062668,58.2799,58.38702,58.468994,58.570953,58.679474,58.731583,58.600983,58.292946,57.87398,57.73745,58.157448,58.862213,59.363464,59.308258,58.60859,57.221245,55.367004,54.139355,53.841255,54.33854,55.60853,57.236084,58.4546,58.94976,58.79349,58.273354,57.64039,57.155396,56.87142,56.833252,56.91967,57.063484,57.158115,57.228874,57.28147,57.323112,57.38257
37.903923,38.03825,38.21913,38.477448,38.843285,39.201668,39.474773,39.750618,39.99955,40.2213,40.438347,40.68271,40.949245,41.22177,41.440567,41.567802,41.619785,41.580887,41.479702,41.352448,41.23079,41.152733,41.127716,41.12909,41.13379,41.142944,41.164383,41.218224,41.278057,41.34305,41.449966,41.61332,41.852432,42.132095,42.38479,42.585636,42.73562,42.84632,42.931496,43.014626,43.102806,43.19958,43.26958,43.313522,43.328316,43.31501,43.297966,43.226395,43.065857,42.831367,42.572945,42.37023,42.29241,42.34854,42.481895,42.662945,42.925842,43.3067,43.826263,44.50141,45.166306,45.69877,46.078747,46.298084,46.425705,46.445705,46.34557,46.102333,45.727432,45.26172,44.711597,44.086227,43.437984,42.817978,42.20585,41.43861,40.902832,40.53853,40.314224,40.211624,40.170128,40.163612,40.22078,40.323975,40.4548,40.594074,40.704834,40.850113,41.063484,41.40864,41.81541,42.143795,42.366035,42.368294,42.139503,41.957756,41.97142,42.066833,42.078293,41.87864,41.53109,41.252884,41.069675,40.989304,40.925037,40.724594,40.378105,40.015327,39.753265,39.65497,39.719482,39.878223,40.07118,40.248573,40.37213,40.451622,40.516537,40.598557,40.711014,40.829903,40.91311,40.923218,40.852932,40.745796,40.679527,40.74804,40.998726,41.41707,41.928936,42.416443,42.727364,42.84663,42.902916,42.959908,43.08247,43.296604,43.60159,43.996437,44.4234,44.740604,44.98218,45.179573,45.354546,45.54464,45.781525,46.07242,46.39534,46.706276,46.99849,47.22211,47.299862,47.182243,46.864166,46.434566,45.959263,45.68782,45.89637,46.377235,47.00787,47.46514,47.751686,48.00402,48.38318,48.958218,49.67015,50.39995,50.996895,51.379707,51.574364,51.58311,51.380066,50.9343,50.292397,49.685917,49.378494,49.45912,49.773575,49.946995,49.582,48.64524,46.982006,46.0599,45.97042,46.824432,48.2402,49.42983,50.018387,50.315292,50.33584,50.212265,50.026783,49.8295,49.734882,49.835426,50.16124,50.58969,51.00241,51.33476,51.661774,51.740692,51.433914,50.91874,48.610893,42.960945,36.87049,34.283344,33.501717,33.523438,34.17765,36.739162,42.6976,50.09839,54.36015,54.869316,55.186493,55.208076,55.15873,54.98631,54.977417,54.957428,54.85157,54.698006,54.525635,54.335567,54.111942,53.827297,53.485554,53.087234,52.561943,51.970474,51.361732,50.818855,50.404716,50.17783,50.12559,50.181297,50.268982,50.309402,50.296078,50.255066,50.219086,50.21187,50.22297,50.225327,50.22281,50.215878,50.223064,50.2572,50.292336,50.29888,50.316956,50.421913,50.71805,51.184753,51.64641,51.87278,51.611244,50.98891,50.566963,50.658577,51.569794,53.429897,55.493507,56.4936,56.83662,56.766212,56.48021,56.190468,56.220474,56.569527,57.175148,57.760105,58.152283,58.389057,58.521164,58.623714,58.722458,58.8049,58.829437,58.668213,58.24678,57.66515,57.413536,57.79914,58.573402,59.232285,59.32403,58.760765,57.500816,55.7016,54.37496,53.962677,54.433655,55.695183,57.27923,58.43154,58.90179,58.70752,58.083736,57.391808,56.837944,56.500076,56.4209,56.494736,56.66958,56.82422,56.96112,57.07417,57.162365,57.247253
37.901436,38.04354,38.231983,38.492775,38.860683,39.19786,39.4639,39.74166,39.98812,40.208168,40.42466,40.66315,40.92089,41.182484,41.39294,41.52298,41.58927,41.576294,41.50573,41.401134,41.29103,41.21486,41.186363,41.186195,41.192173,41.203728,41.229164,41.28814,41.356342,41.43255,41.552925,41.73108,41.986053,42.281578,42.548218,42.758713,42.913048,43.0231,43.104404,43.18235,43.267,43.36125,43.426754,43.462555,43.464764,43.438976,43.40909,43.32335,43.14588,42.893204,42.619675,42.406773,42.323677,42.377144,42.507835,42.689415,42.956604,43.348465,43.88185,44.569252,45.24254,45.78244,46.177418,46.42235,46.585667,46.650852,46.596848,46.387245,46.014362,45.526768,44.94052,44.26667,43.581406,42.940617,42.212955,41.434227,40.896145,40.54622,40.329445,40.216583,40.15768,40.130997,40.172745,40.267365,40.39687,40.528732,40.625443,40.75686,40.950096,41.259953,41.69451,42.081207,42.336197,42.35665,42.18031,42.08056,42.152378,42.22517,42.181297,41.958183,41.56907,41.26213,41.077866,41.00574,40.94838,40.744156,40.382904,40.004574,39.73238,39.628674,39.687428,39.835564,40.007477,40.15858,40.26118,40.333286,40.406975,40.50538,40.63275,40.7613,40.852844,40.876476,40.828476,40.75,40.711796,40.800415,41.05764,41.466995,41.96382,42.422592,42.725033,42.864456,42.947056,43.047348,43.209656,43.45221,43.748188,44.107002,44.507687,44.80439,45.03897,45.236023,45.41639,45.612553,45.85105,46.13185,46.438934,46.74199,47.05327,47.328827,47.48092,47.432747,47.14772,46.78852,46.32077,46.16174,46.473816,47.109947,47.73288,48.08597,48.303303,48.522575,48.881897,49.457912,50.16939,50.85925,51.384914,51.703545,51.857224,51.85003,51.62753,51.134605,50.42018,49.74124,49.382774,49.437813,49.744762,49.919804,49.573135,48.60595,46.963898,46.03946,45.932602,46.71849,48.12567,49.38059,49.99772,50.326897,50.364796,50.2398,50.0391,49.826477,49.722347,49.820053,50.149467,50.57808,50.997696,51.34172,51.686874,51.781082,51.516716,51.17325,48.97666,43.335743,37.075176,34.28,33.44039,33.4657,34.15358,36.811386,42.97731,50.44241,54.471195,55.03161,55.36206,55.37631,55.339943,55.12353,55.072792,55.01855,54.90146,54.758667,54.59205,54.39165,54.14798,53.841408,53.476265,53.082275,52.56028,51.968395,51.375084,50.85308,50.456505,50.241936,50.194695,50.252365,50.340282,50.379356,50.36635,50.32713,50.29418,50.288597,50.296707,50.289444,50.27375,50.25576,50.256714,50.289795,50.32685,50.33261,50.343872,50.437492,50.719845,51.169365,51.61821,51.853554,51.599392,50.9728,50.50277,50.55816,51.49034,53.37388,55.403046,56.41349,56.777885,56.711243,56.426712,56.239548,56.297512,56.701263,57.30311,57.8229,58.202923,58.43209,58.547203,58.638042,58.732544,58.808163,58.805786,58.654366,58.242928,57.59487,57.254,57.55787,58.283722,58.989433,59.159546,58.722748,57.6193,55.980698,54.666042,54.185257,54.63258,55.822002,57.254776,58.29344,58.635925,58.389153,57.725296,57.041115,56.470688,56.106888,55.981697,56.01678,56.18255,56.366585,56.548805,56.70283,56.818043,56.9078
37.911163,38.060844,38.25685,38.523636,38.885864,39.195683,39.45645,39.728363,39.965927,40.181034,40.39174,40.617584,40.857704,41.099182,41.294975,41.425404,41.505993,41.519676,41.48153,41.403885,41.311954,41.24681,41.222942,41.227303,41.2381,41.254074,41.284306,41.348297,41.424065,41.50988,41.641647,41.83197,42.09932,42.40645,42.68171,42.896328,43.05055,43.15702,43.234787,43.30974,43.395298,43.49112,43.555622,43.58454,43.574684,43.53767,43.496708,43.40001,43.209988,42.94377,42.65921,42.43748,42.34826,42.397182,42.524017,42.70598,42.979477,43.385254,43.936535,44.640625,45.325554,45.8733,46.2754,46.534874,46.72197,46.823288,46.81015,46.64436,46.293274,45.800327,45.18594,44.473167,43.75944,43.102882,42.290215,41.513084,40.96988,40.61772,40.39273,40.25838,40.17038,40.113625,40.13287,40.2174,40.343872,40.467075,40.549973,40.669167,40.85671,41.156708,41.562946,41.995514,42.283096,42.353935,42.275124,42.256134,42.35927,42.37188,42.293995,42.03917,41.605255,41.25152,41.061996,40.999977,40.95138,40.751972,40.389137,40.00224,39.722336,39.61188,39.661568,39.796124,39.94485,40.06803,40.14683,40.206806,40.28282,40.390953,40.527794,40.662514,40.76218,40.802513,40.782635,40.740505,40.737083,40.849777,41.113907,41.511284,41.988487,42.41957,42.716427,42.8823,43.010918,43.157394,43.353065,43.581978,43.83838,44.18341,44.556034,44.840225,45.071144,45.270134,45.45908,45.665573,45.908394,46.18174,46.473923,46.767048,47.090454,47.40673,47.62314,47.642128,47.401894,47.085136,46.66182,46.610657,47.12226,47.79921,48.35012,48.709694,48.895344,49.061237,49.377823,49.930374,50.617252,51.251884,51.71297,51.975273,52.096176,52.08069,51.84292,51.30638,50.525684,49.780968,49.375767,49.40558,49.70085,49.876003,49.54243,48.530296,46.927475,46.01535,45.87861,46.627857,48.024986,49.32891,49.969177,50.32634,50.380066,50.25446,50.038635,49.810654,49.694103,49.78163,50.101376,50.519173,50.933083,51.281815,51.65998,51.77748,51.54754,51.31762,49.291718,43.762447,37.324924,34.305473,33.41146,33.436813,34.1743,36.93332,43.356808,50.829483,54.53601,55.18255,55.50546,55.514366,55.529533,55.26152,55.166714,55.07762,54.944748,54.807762,54.65683,54.47116,54.21437,53.88371,53.49785,53.082836,52.58435,51.991592,51.41191,50.91066,50.53333,50.33312,50.292885,50.35221,50.436905,50.46994,50.45343,50.413982,50.383057,50.377934,50.38055,50.35979,50.325768,50.290596,50.28025,50.309624,50.35157,50.365635,50.381783,50.473976,50.741344,51.162613,51.58551,51.800922,51.54763,50.926434,50.413353,50.434437,51.363518,53.22385,55.21016,56.23928,56.629585,56.58073,56.31569,56.20729,56.332306,56.751854,57.305534,57.79972,58.17786,58.385452,58.479736,58.556404,58.64177,58.708458,58.690884,58.514038,58.194794,57.54609,57.16414,57.3389,57.910522,58.56433,58.74533,58.422554,57.483444,56.02925,54.862797,54.40393,54.81852,55.86335,57.06733,57.924034,58.104294,57.81601,57.194527,56.576126,56.072403,55.727577,55.57342,55.562515,55.690407,55.871307,56.069843,56.24227,56.36103,56.43648
37.94789,38.103157,38.304405,38.575203,38.92637,39.200195,39.455376,39.716164,39.94513,40.15429,40.357338,40.567913,40.78608,41.00244,41.178642,41.30449,41.393818,41.42769,41.416306,41.363228,41.29092,41.241882,41.229057,41.243755,41.26342,41.286488,41.322495,41.391937,41.4749,41.5691,41.709312,41.906876,42.179302,42.4889,42.76245,42.971474,43.11802,43.216545,43.290382,43.364555,43.45495,43.555733,43.62271,43.648327,43.630672,43.58722,43.540836,43.440586,43.246532,42.975166,42.687042,42.461197,42.36809,42.413338,42.537746,42.722664,43.0075,43.433403,44.00995,44.73809,45.439133,45.99256,46.392128,46.653656,46.854187,46.9829,47.006363,46.88379,46.572838,46.097847,45.477554,44.748528,44.026173,43.361435,42.706,41.868263,41.275803,40.85999,40.580593,40.401176,40.262894,40.159714,40.149437,40.224686,40.350525,40.473125,40.54999,40.665054,40.85379,41.164146,41.591175,42.0459,42.38259,42.5281,42.52144,42.545395,42.583298,42.54973,42.43153,42.15345,41.676086,41.25888,41.05405,40.995186,40.944542,40.74196,40.381065,39.98681,39.70249,39.589725,39.635895,39.76297,39.894672,39.995132,40.052048,40.098297,40.171097,40.281723,40.42102,40.556488,40.66136,40.71773,40.72696,40.723587,40.757797,40.89692,41.16942,41.554474,42.009144,42.415726,42.708775,42.90269,43.077454,43.271126,43.48295,43.685246,43.92503,44.251976,44.593575,44.86418,45.09144,45.293716,45.49256,45.71124,45.961243,46.23139,46.513195,46.798904,47.131332,47.478638,47.745827,47.81993,47.622078,47.32779,46.98443,47.097267,47.660374,48.31154,48.9312,49.29574,49.431545,49.5371,49.803955,50.324753,50.975967,51.56225,51.96904,52.18562,52.288208,52.276733,52.034286,51.464195,50.630844,49.830185,49.38331,49.388367,49.668674,49.84256,49.518997,48.479126,46.911118,46.014572,45.83512,46.57716,47.96028,49.288216,49.948727,50.3292,50.399307,50.277977,50.052757,49.81352,49.68377,49.754353,50.050655,50.443916,50.838802,51.186005,51.604637,51.74427,51.53762,51.405357,49.55065,44.15719,37.584198,34.334846,33.394966,33.41599,34.220367,37.068768,43.832558,51.268173,54.587837,55.308937,55.614567,55.639397,55.71604,55.391052,55.251724,55.12951,54.979836,54.837456,54.69188,54.517715,54.28161,53.96654,53.55752,53.107506,52.63133,52.037666,51.462723,50.9732,50.61184,50.42572,50.39392,50.455193,50.53386,50.55616,50.531097,50.488304,50.45791,50.45315,50.45198,50.421047,50.372765,50.323944,50.30638,50.33709,50.392612,50.4288,50.464104,50.563538,50.808483,51.176796,51.552444,51.730972,51.472664,50.87563,50.352966,50.345833,51.2338,53.023052,54.95981,55.991066,56.404617,56.380627,56.140747,56.069046,56.255608,56.669315,57.213852,57.716156,58.07664,58.262554,58.336136,58.396725,58.46701,58.518906,58.483803,58.28724,58.019676,57.376488,56.971153,57.00174,57.3629,57.861984,58.063072,57.783417,56.95807,55.774876,54.818855,54.456398,54.82632,55.70099,56.65043,57.275932,57.342983,57.020393,56.490833,56.002525,55.625877,55.34523,55.193817,55.15178,55.233395,55.389114,55.577652,55.74803,55.85974,55.917446
38.022232,38.179665,38.37977,38.656563,38.974464,39.212112,39.461655,39.713425,39.935173,40.139046,40.334305,40.529194,40.723675,40.91241,41.065742,41.182076,41.27366,41.31958,41.3269,41.29306,41.23904,41.20777,41.21013,41.24009,41.271877,41.304142,41.345673,41.420086,41.509308,41.611397,41.757507,41.957306,42.226868,42.528584,42.78988,42.98432,43.11686,43.204422,43.27371,43.347748,43.44325,43.5486,43.61922,43.645123,43.62582,43.58252,43.538193,43.44323,43.254623,42.987587,42.70415,42.479927,42.386513,42.4299,42.554222,42.745052,43.04612,43.49774,44.10524,44.862476,45.581856,46.136566,46.524277,46.774544,46.978474,47.125153,47.181683,47.104305,46.84086,46.411526,45.82484,45.11171,44.40661,43.750694,43.1994,42.55565,41.91577,41.390564,40.973984,40.672485,40.44688,40.27191,40.224533,40.295235,40.435413,40.576084,40.658733,40.77918,40.97332,41.306763,41.78679,42.278286,42.675995,42.806725,42.822227,42.832703,42.834953,42.78053,42.60559,42.30622,41.81053,41.325638,41.091995,41.028824,40.967873,40.74858,40.37693,39.96981,39.68165,39.57125,39.6213,39.748966,39.870926,39.954277,39.991577,40.022797,40.087555,40.194336,40.329895,40.461536,40.568764,40.639343,40.67636,40.71037,40.781155,40.94581,41.226295,41.59929,42.02932,42.41892,42.71061,42.931053,43.1459,43.378494,43.60019,43.795414,44.021782,44.322487,44.626595,44.880867,45.10386,45.308136,45.515633,45.74672,46.005966,46.2778,46.555077,46.837593,47.177513,47.54689,47.849895,47.963562,47.79943,47.52852,47.28305,47.505905,48.037766,48.746742,49.40046,49.740623,49.83351,49.881935,50.105347,50.599842,51.22513,51.772255,52.13598,52.323936,52.424465,52.430527,52.196636,51.607445,50.73762,49.893906,49.409744,49.389954,49.652374,49.822823,49.505455,48.4533,46.91418,46.029076,45.805134,46.567093,47.918747,49.254684,49.936493,50.337837,50.42661,50.31634,50.090546,49.84536,49.701202,49.747852,50.008713,50.368126,50.73569,51.07862,51.542274,51.701527,51.511192,51.47576,49.774933,44.54203,37.875072,34.38071,33.398468,33.409393,34.275864,37.183617,44.408195,51.73517,54.69072,55.376472,55.69415,55.810432,55.895844,55.514534,55.331543,55.178406,55.013756,54.86712,54.71836,54.537254,54.308655,54.000237,53.596703,53.14885,52.669575,52.101337,51.518776,51.032738,50.67722,50.50078,50.475082,50.533226,50.60528,50.622192,50.595688,50.551544,50.523857,50.52937,50.534836,50.50558,50.453865,50.398052,50.378098,50.414696,50.48946,50.542084,50.586006,50.681656,50.891464,51.20012,51.5148,51.650272,51.387512,50.82012,50.321354,50.29598,51.11715,52.798824,54.666023,55.681103,56.11095,56.112144,55.899323,55.851795,56.064022,56.488045,57.05076,57.551033,57.901695,58.074356,58.13375,58.17824,58.227036,58.255157,58.195683,57.986977,57.68859,57.06555,56.634068,56.53907,56.696075,56.97406,57.09566,56.83693,56.16207,55.257027,54.53067,54.27159,54.59559,55.310055,56.037117,56.469517,56.44945,56.14737,55.75463,55.42612,55.184498,54.986504,54.859432,54.801582,54.84124,54.96197,55.12523,55.279854,55.37797,55.418846
38.137947,38.292755,38.495445,38.758232,39.008705,39.23226,39.48027,39.72697,39.945152,40.146828,40.336952,40.518433,40.69068,40.85228,40.98137,41.083958,41.17095,41.219513,41.235817,41.213074,41.17244,41.15659,41.174805,41.22233,41.268475,41.311462,41.359795,41.44109,41.538944,41.65226,41.805202,42.005043,42.265656,42.55053,42.790558,42.96353,43.078255,43.153587,43.217663,43.290596,43.38805,43.4946,43.56678,43.593513,43.575813,43.536964,43.499138,43.414772,43.23873,42.984627,42.71427,42.49848,42.40898,42.452312,42.577423,42.77456,43.091366,43.567726,44.204628,44.988956,45.72386,46.277153,46.651783,46.88967,47.091778,47.249405,47.33436,47.305206,47.100067,46.733208,46.210552,45.56594,44.901726,44.274395,43.724594,43.224983,42.70546,42.136906,41.596928,41.065056,40.659264,40.386307,40.298138,40.382385,40.570038,40.765224,40.88024,41.019363,41.2417,41.60476,42.128212,42.640987,42.984848,43.07647,43.079,43.07819,43.091545,43.02961,42.821514,42.483692,42.015617,41.520653,41.244473,41.166107,41.105057,40.851635,40.44299,40.007565,39.707596,39.598175,39.655323,39.787224,39.901184,39.966236,39.9802,39.991455,40.042656,40.14158,40.271706,40.400097,40.510895,40.595024,40.65599,40.719955,40.818634,41.00093,41.285053,41.646927,42.058167,42.436985,42.733986,42.980595,43.229652,43.49433,43.724983,43.91756,44.13479,44.402916,44.66494,44.900894,45.11609,45.317997,45.530937,45.774124,46.045662,46.325897,46.606335,46.89148,47.23886,47.622837,47.948883,48.08969,47.95393,47.70767,47.564293,47.81378,48.369846,49.105797,49.735672,50.03505,50.087845,50.096104,50.296265,50.77983,51.39321,51.90485,52.231384,52.396957,52.50095,52.531338,52.31806,51.7281,50.839043,49.974335,49.455723,49.41088,49.653038,49.81417,49.49614,48.431976,46.911354,46.03304,45.777107,46.55751,47.867504,49.21366,49.917183,50.33972,50.449753,50.358677,50.14246,49.895493,49.733192,49.746353,49.95845,50.277863,50.614246,50.956684,51.471664,51.656227,51.484398,51.529408,49.977535,44.941692,38.189156,34.437355,33.40561,33.398903,34.289215,37.259586,44.83239,52.194508,54.79593,55.46469,55.711197,55.976162,56.083344,55.641068,55.41845,55.23896,55.060905,54.9094,54.75621,54.566216,54.32235,53.995262,53.588455,53.137177,52.661926,52.150528,51.563385,51.0559,50.69213,50.514847,50.493736,50.55742,50.636974,50.661964,50.647636,50.622692,50.620438,50.658108,50.698765,50.704918,50.678738,50.627228,50.594948,50.594894,50.641174,50.69648,50.753906,50.82051,50.966232,51.187393,51.418564,51.496002,51.238697,50.720573,50.26673,50.237724,50.983917,52.527443,54.316235,55.29617,55.73277,55.755272,55.566605,55.532948,55.745872,56.20044,56.76584,57.27179,57.62628,57.80059,57.85637,57.886837,57.910282,57.90838,57.820442,57.614807,57.20462,56.603226,56.16564,56.00054,56.028896,56.146595,56.159027,55.91223,55.36744,54.663017,54.110924,53.921177,54.19542,54.771484,55.35497,55.687294,55.653893,55.438057,55.17701,54.970215,54.826775,54.694847,54.596024,54.535133,54.544983,54.633034,54.76822,54.903385,54.98804,55.015923
38.289803,38.427223,38.608265,38.83566,39.043945,39.264748,39.512394,39.75746,39.975155,40.17733,40.36547,40.537064,40.69068,40.828114,40.933647,41.02008,41.09765,41.143036,41.162766,41.147217,41.117912,41.11566,41.14947,41.214157,41.274147,41.326202,41.380116,41.46827,41.576466,41.70513,41.868504,42.07069,42.32274,42.589333,42.80706,42.958824,43.057167,43.12245,43.18133,43.251694,43.345818,43.447975,43.516876,43.54201,43.525208,43.49031,43.45762,43.38258,43.219444,42.981205,42.72768,42.524117,42.440495,42.48358,42.607594,42.807774,43.134716,43.62819,44.284176,45.082626,45.818306,46.362225,46.722527,46.950546,47.14811,47.31184,47.420586,47.437767,47.301594,47.014748,46.57314,46.034748,45.453697,44.879066,44.359173,43.854927,43.376274,42.865456,42.3087,41.606148,40.944546,40.520332,40.39268,40.507706,40.77426,41.053497,41.24405,41.42478,41.674767,42.068863,42.590866,43.062416,43.28089,43.33522,43.30385,43.295387,43.31766,43.272495,43.068962,42.706127,42.29395,41.868607,41.587013,41.519936,41.424473,41.10048,40.606308,40.115196,39.78704,39.67257,39.737804,39.87631,39.98226,40.02478,40.009396,39.99492,40.029205,40.12001,40.247383,40.37664,40.494205,40.59197,40.673218,40.759483,40.87712,41.069145,41.35266,41.705387,42.107994,42.484226,42.793,43.064278,43.34381,43.607567,43.81559,44.020752,44.239334,44.475475,44.712563,44.934963,45.139584,45.335663,45.551186,45.805313,46.090416,46.383354,46.67216,46.963684,47.31734,47.70897,48.048042,48.20846,48.101128,47.890385,47.803696,48.0865,48.67122,49.39209,49.974968,50.22248,50.225853,50.211952,50.4087,50.89422,51.50178,51.991943,52.286125,52.433342,52.54238,52.599648,52.41604,51.84182,50.95015,50.075047,49.527393,49.456215,49.67457,49.819916,49.49547,48.422405,46.912468,46.037117,45.770496,46.55187,47.829514,49.18532,49.91237,50.358566,50.493816,50.42805,50.227962,49.980568,49.796974,49.772247,49.93189,50.21241,50.518806,50.86634,51.427452,51.639122,51.485626,51.59838,50.178482,45.35371,38.542732,34.523167,33.4273,33.395947,34.269836,37.304375,45.104958,52.668938,54.966232,55.634003,55.794292,56.060177,56.341007,55.81138,55.55387,55.34754,55.14965,54.98413,54.81786,54.612667,54.35544,54.015972,53.597527,53.130257,52.64397,52.149803,51.619247,51.077362,50.69423,50.511505,50.501205,50.57679,50.65767,50.707176,50.71783,50.715263,50.727806,50.76693,50.80433,50.819023,50.813423,50.781464,50.759357,50.750084,50.769394,50.80409,50.849937,50.91439,51.01699,51.14232,51.268837,51.291893,51.055984,50.60842,50.20868,50.174217,50.829124,52.212463,53.88109,54.85803,55.300964,55.344193,55.176132,55.144382,55.321922,55.79985,56.424797,56.936253,57.311417,57.49984,57.55962,57.57818,57.57673,57.545773,57.44094,57.16455,56.696526,56.123116,55.70932,55.52813,55.506496,55.5539,55.516487,55.267128,54.79124,54.20263,53.739532,53.577095,53.80136,54.279015,54.780365,55.091164,55.116837,54.99643,54.82694,54.687088,54.585926,54.48272,54.39727,54.333344,54.322456,54.384747,54.498642,54.62011,54.697716,54.718292
38.42341,38.54037,38.706493,38.90467,39.0897,39.30767,39.555237,39.79997,40.01764,40.220383,40.407005,40.570328,40.707916,40.82386,40.907288,40.977165,41.044292,41.086254,41.110977,41.106182,41.09253,41.10759,41.159096,41.240265,41.31143,41.367012,41.421394,41.511795,41.627792,41.771988,41.94771,42.155373,42.402863,42.655067,42.85489,42.989708,43.075073,43.13229,43.184875,43.249794,43.335403,43.42861,43.489914,43.51123,43.494072,43.461266,43.43043,43.361057,43.208565,42.986633,42.751274,42.561417,42.484,42.525307,42.64469,42.84262,43.17079,43.668827,44.326782,45.119328,45.838455,46.360214,46.704002,46.921574,47.114113,47.28147,47.40971,47.46862,47.40354,47.209923,46.87091,46.439606,45.965195,45.474884,45.003845,44.52016,44.02664,43.498657,42.909134,42.220417,41.37891,40.741005,40.557995,40.71199,41.076553,41.48349,41.751976,41.971146,42.22598,42.562878,42.99588,43.406467,43.53773,43.533165,43.45733,43.44352,43.49065,43.489983,43.32998,42.98165,42.58882,42.265564,42.08346,42.04216,41.98432,41.54904,40.894184,40.309517,39.92462,39.78939,39.856724,39.99853,40.091164,40.101562,40.047882,40.002617,40.02153,40.111298,40.246376,40.38707,40.519104,40.633614,40.733948,40.837753,40.968292,41.164787,41.445145,41.791656,42.19863,42.580856,42.90533,43.204605,43.48426,43.694435,43.893974,44.105972,44.32306,44.546192,44.771927,44.981712,45.17424,45.36127,45.576164,45.83869,46.13569,46.442368,46.742435,47.043297,47.403343,47.79882,48.145435,48.32323,48.248955,48.08519,48.037373,48.34632,48.952003,49.64792,50.173435,50.35912,50.306473,50.28063,50.48263,50.97356,51.576576,52.053543,52.324554,52.45907,52.57601,52.66155,52.51239,51.963146,51.08044,50.195427,49.621857,49.521828,49.71309,49.838753,49.50625,48.44233,46.940422,46.068066,45.823036,46.582695,47.843033,49.191082,49.943825,50.413002,50.575787,50.535656,50.35302,50.103207,49.896194,49.83394,49.94771,50.191475,50.480286,50.837814,51.427986,51.657345,51.515274,51.697315,50.40063,45.84977,39.0161,34.65248,33.47538,33.409805,34.247993,37.33442,45.30828,53.080833,55.210045,55.848267,55.962955,56.105232,56.560783,56.029366,55.730587,55.49328,55.262714,55.067047,54.873894,54.64586,54.375393,54.029575,53.60939,53.135757,52.630596,52.114143,51.608864,51.126423,50.71637,50.530777,50.498398,50.551468,50.610733,50.66028,50.690327,50.711323,50.73923,50.78816,50.83302,50.8598,50.8697,50.84928,50.831093,50.812523,50.810684,50.81453,50.830086,50.878624,50.97667,51.0803,51.139713,51.11181,50.90904,50.533203,50.173973,50.11377,50.648796,51.85209,53.3946,54.405666,54.855457,54.922092,54.772102,54.731777,54.8796,55.34058,56.026066,56.608486,57.008194,57.21633,57.282196,57.28811,57.26308,57.207657,57.08245,56.74465,56.28952,55.748283,55.365158,55.195965,55.172874,55.20864,55.164673,54.9275,54.485138,53.94444,53.51507,53.352707,53.532013,53.945656,54.4066,54.73207,54.83037,54.78828,54.67063,54.550735,54.4438,54.332,54.239197,54.16561,54.140476,54.18837,54.294952,54.415657,54.496193,54.515007
38.552162,38.659264,38.81888,38.969944,39.1449,39.359657,39.60737,39.85148,40.06835,40.27057,40.455406,40.61167,40.73667,40.83529,40.900257,40.955704,41.01368,41.05451,41.08763,41.09784,41.103764,41.13878,41.208855,41.304688,41.383545,41.43662,41.485992,41.573395,41.69365,41.851665,42.040382,42.255985,42.503197,42.746315,42.933403,43.05578,43.131363,43.18172,43.227753,43.28628,43.35897,43.438274,43.491886,43.50985,43.49091,43.458305,43.425583,43.356987,43.210304,43.001884,42.7834,42.60711,42.53633,42.575233,42.68763,42.878334,43.198704,43.68808,44.330585,45.097015,45.783123,46.270195,46.59159,46.796913,46.984127,47.153988,47.297775,47.391277,47.391335,47.290596,47.063774,46.745766,46.372646,45.979134,45.58499,45.176003,44.724327,44.16992,43.496895,42.77176,41.910347,41.09014,40.812317,41.005737,41.52359,42.040604,42.460434,42.714333,42.862938,43.113884,43.48427,43.78816,43.8383,43.72721,43.59308,43.57234,43.65284,43.717278,43.63044,43.3416,42.979065,42.715405,42.60827,42.599983,42.53591,42.163155,41.322536,40.568634,40.099567,39.936687,40.012276,40.166317,40.249252,40.22432,40.125374,40.044308,40.047745,40.140583,40.28923,40.446167,40.594273,40.72386,40.838776,40.95402,41.09144,41.288292,41.564476,41.908653,42.33383,42.72959,43.078835,43.378048,43.593212,43.789948,43.994682,44.209198,44.42347,44.644352,44.864292,45.064476,45.24706,45.430023,45.644447,45.908447,46.21479,46.533535,46.84485,47.15526,47.51951,47.91369,48.261272,48.45263,48.412872,48.299103,48.298615,48.610443,49.22695,49.888866,50.345825,50.471428,50.366142,50.339066,50.552193,51.047913,51.6417,52.100624,52.360435,52.48651,52.612743,52.72619,52.61349,52.094627,51.23074,50.332336,49.734344,49.60113,49.760826,49.863976,49.524815,48.494026,47.00141,46.13166,45.933655,46.65889,47.9187,49.235874,50.016335,50.509533,50.69886,50.683464,50.515892,50.265137,50.03866,49.945934,50.026684,50.243477,50.51424,50.877647,51.464817,51.691795,51.54489,51.797153,50.631454,46.273308,39.458595,34.818153,33.528744,33.424057,34.227592,37.3419,45.411766,53.402405,55.46347,56.056602,56.138054,56.16468,56.629612,56.271294,55.923534,55.656036,55.386417,55.152306,54.92893,54.68019,54.40138,54.053986,53.629593,53.144413,52.61523,52.06847,51.541595,51.08725,50.712376,50.51287,50.45992,50.48278,50.548737,50.606487,50.651947,50.69243,50.74109,50.81444,50.887047,50.943443,50.978363,50.97145,50.950775,50.913002,50.882324,50.852375,50.833702,50.84504,50.909233,51.00241,51.095016,51.090252,50.927586,50.597958,50.243786,50.13668,50.533546,51.55707,52.95522,53.97601,54.478012,54.57146,54.441666,54.418644,54.550667,54.99447,55.719345,56.374424,56.801846,57.02556,57.089966,57.079063,57.029945,56.951912,56.818398,56.489635,56.06865,55.54741,55.180336,55.028366,55.025352,55.08114,55.0552,54.840416,54.415882,53.885735,53.45878,53.283775,53.429344,53.805206,54.2501,54.596382,54.74733,54.75137,54.650482,54.517086,54.379524,54.239876,54.12754,54.04016,54.003853,54.045525,54.155533,54.2866,54.37946,54.402164
38.68254,38.789898,38.90934,39.037304,39.209263,39.421154,39.667534,39.90883,40.122505,40.322075,40.504272,40.654976,40.771828,40.858784,40.910965,40.956573,41.009136,41.05339,41.099,41.12771,41.154648,41.20859,41.295044,41.401466,41.483604,41.528458,41.567745,41.646942,41.767586,41.936493,42.137173,42.36131,42.610695,42.84901,43.028435,43.142715,43.21205,43.25777,43.29885,43.34865,43.40635,43.47208,43.516106,43.53299,43.51464,43.48212,43.44502,43.37132,43.222897,43.021282,42.815464,42.651848,42.590385,42.630928,42.740093,42.92536,43.23687,43.713623,44.332348,45.06215,45.706444,46.152916,46.45027,46.644585,46.828716,47.002422,47.159096,47.2782,47.328682,47.304607,47.176464,46.965515,46.6908,46.387703,46.084343,45.770195,45.39926,44.889473,44.15745,43.328377,42.452156,41.537743,41.134087,41.40642,41.975983,42.562878,43.14109,43.506332,43.69906,43.924194,44.201992,44.30345,44.255116,44.02306,43.79061,43.74301,43.850517,43.989403,43.99672,43.80692,43.53231,43.33902,43.299217,43.34587,43.255074,42.84536,41.80327,40.82086,40.252098,40.077995,40.19669,40.399017,40.504562,40.450893,40.306778,40.182144,40.162834,40.251984,40.406662,40.570183,40.72309,40.856308,40.975548,41.094067,41.232872,41.42797,41.70146,42.05643,42.499504,42.921265,43.280632,43.513626,43.712486,43.912895,44.121735,44.338066,44.55428,44.777027,44.9965,45.194756,45.37699,45.56343,45.77793,46.043816,46.357147,46.684216,47.002422,47.316273,47.676598,48.059982,48.398823,48.595886,48.586464,48.519405,48.561977,48.88623,49.486916,50.10459,50.49304,50.55649,50.424652,50.407562,50.6356,51.133118,51.713356,52.149307,52.396435,52.52196,52.65509,52.793373,52.716827,52.232273,51.398674,50.480392,49.85933,49.686092,49.805138,49.8822,49.53849,48.56289,47.08934,46.222267,46.076084,46.781433,48.046722,49.309715,50.120285,50.634926,50.85002,50.857224,50.69902,50.456512,50.221336,50.11383,50.181793,50.38607,50.63383,50.98989,51.524574,51.729702,51.563644,51.847473,50.825626,46.625355,39.856575,35.041206,33.60698,33.45114,34.213913,37.32313,45.422676,53.624573,55.690178,56.216713,56.271,56.22616,56.615948,56.463055,56.08293,55.796234,55.49414,55.22966,54.989906,54.741295,54.475655,54.14162,53.711857,53.20112,52.628647,52.03808,51.480766,51.017807,50.67424,50.48104,50.42817,50.459877,50.538387,50.60444,50.65573,50.703194,50.763824,50.856834,50.957207,51.047245,51.112457,51.124794,51.10534,51.053223,50.99694,50.93722,50.89031,50.871716,50.905678,50.971695,51.082016,51.155952,51.072144,50.870888,50.516373,50.30898,50.56778,51.428703,52.65743,53.67341,54.205666,54.331345,54.218895,54.21965,54.422844,54.888992,55.63211,56.272556,56.740326,56.969597,57.018,56.978836,56.898556,56.795,56.64022,56.39924,55.989494,55.512978,55.131084,54.97872,54.988266,55.06668,55.062088,54.871315,54.47099,53.942764,53.509422,53.320732,53.442116,53.79323,54.224537,54.574955,54.74469,54.761642,54.657864,54.507446,54.34698,54.18692,54.057564,53.95551,53.906647,53.942856,54.05906,54.205048,54.315674,54.347603
38.785248,38.876614,38.9805,39.105858,39.27603,39.486473,39.728462,39.963676,40.171238,40.365826,40.544094,40.689636,40.80099,40.880302,40.92418,40.964104,41.01483,41.06585,41.125927,41.173096,41.21879,41.287582,41.386086,41.500534,41.585644,41.62407,41.655853,41.728016,41.84904,42.026688,42.236633,42.466377,42.715706,42.948868,43.12164,43.229332,43.295002,43.33819,43.37802,43.422462,43.47144,43.52674,43.56231,43.577408,43.563713,43.533302,43.49131,43.40827,43.251503,43.05065,42.853966,42.702904,42.654644,42.7024,42.814377,42.999466,43.306755,43.77522,44.372864,45.067863,45.668785,46.075623,46.350746,46.53505,46.71645,46.893013,47.057487,47.191193,47.272957,47.301178,47.245255,47.117958,46.92778,46.705185,46.48905,46.269432,45.98723,45.55307,44.83526,43.911255,42.926468,41.974197,41.513214,41.812134,42.449013,43.194946,43.811825,44.23948,44.542526,44.80569,45.003048,45.01677,44.856316,44.552773,44.220825,44.13868,44.25744,44.469734,44.590393,44.509407,44.346207,44.275684,44.35761,44.414898,44.228584,43.65166,42.34092,41.092606,40.426758,40.268845,40.469933,40.79989,40.956345,40.85733,40.64028,40.46418,40.407413,40.477528,40.621643,40.774117,40.914513,41.036766,41.14915,41.262917,41.397987,41.588753,41.859303,42.229584,42.69232,43.132812,43.447758,43.65463,43.860313,44.065968,44.2811,44.49755,44.720787,44.948544,45.172886,45.377403,45.565414,45.751194,45.972214,46.248463,46.56617,46.898132,47.219643,47.53231,47.881966,48.246113,48.566475,48.759636,48.772423,48.743774,48.818275,49.145485,49.70761,50.260315,50.59329,50.605705,50.479324,50.49072,50.74358,51.243896,51.8079,52.21989,52.450768,52.57303,52.71118,52.869133,52.82451,52.37451,51.56983,50.649853,50.001156,49.783783,49.85909,49.908405,49.5602,48.649727,47.19557,46.32576,46.222908,46.914772,48.185623,49.3833,50.22392,50.761585,51.000057,51.02643,50.877655,50.644043,50.417725,50.30965,50.377502,50.5667,50.792564,51.122368,51.56834,51.749916,51.564133,51.822914,50.89305,46.899467,40.272423,35.328728,33.72206,33.496918,34.21581,37.30697,45.36233,53.70787,55.814125,56.255814,56.280643,56.178658,56.49511,56.5388,56.147224,55.86346,55.551674,55.279457,55.045807,54.817154,54.57476,54.253998,53.80288,53.244568,52.612556,51.97249,51.39715,50.942757,50.633877,50.4815,50.468216,50.53395,50.63427,50.704094,50.74827,50.789467,50.849274,50.95073,51.072525,51.193913,51.292923,51.336792,51.335457,51.291058,51.227516,51.14806,51.079155,51.03119,51.03876,51.075947,51.165962,51.25396,51.25662,51.121902,50.86316,50.59214,50.70375,51.467094,52.511856,53.494286,54.030388,54.18941,54.088722,54.09412,54.33777,54.86847,55.614815,56.295418,56.79306,57.01693,57.036304,56.962776,56.849617,56.72142,56.546844,56.30999,55.99421,55.564186,55.176018,55.00423,55.013763,55.10497,55.117172,54.942146,54.56556,54.05692,53.616745,53.417507,53.521503,53.853,54.26571,54.60153,54.75925,54.765137,54.6553,54.5027,54.346592,54.189507,54.05568,53.94236,53.877377,53.903572,54.021416,54.179985,54.308674,54.35256
38.850037,38.940903,39.047142,39.173817,39.34256,39.553005,39.787247,40.013462,40.21294,40.40114,40.574837,40.715225,40.822594,40.89679,40.935883,40.97348,41.02438,41.082382,41.153297,41.21196,41.267365,41.34149,41.44506,41.56662,41.659447,41.701485,41.736908,41.811234,41.939083,42.12815,42.346718,42.579014,42.824142,43.0486,43.212845,43.314476,43.378517,43.42325,43.467793,43.51596,43.562874,43.61152,43.64145,43.655655,43.64682,43.620583,43.57319,43.477325,43.306004,43.099358,42.907356,42.767677,42.73522,42.795044,42.91629,43.108063,43.41829,43.886135,44.470818,45.137123,45.693535,46.071175,46.32515,46.498344,46.674767,46.850204,47.01546,47.152008,47.24671,47.30352,47.29313,47.223385,47.096176,46.93821,46.800373,46.67491,46.49379,46.149906,45.45936,44.48947,43.40579,42.41511,41.8832,42.182644,42.977356,43.81537,44.52855,45.083885,45.492966,45.81998,46.018387,45.96364,45.67592,45.2523,44.892082,44.784866,44.89937,45.10923,45.27026,45.291252,45.2636,45.31198,45.396915,45.406242,45.107437,44.424583,43.00595,41.430046,40.687542,40.590515,40.970585,41.504974,41.739113,41.578667,41.235596,40.973682,40.852055,40.87223,40.97404,41.085243,41.187027,41.278484,41.370247,41.469837,41.594925,41.777237,42.04223,42.42704,42.910625,43.35196,43.597176,43.819004,44.033195,44.24944,44.472115,44.69729,44.924694,45.15835,45.393173,45.611176,45.813,46.00939,46.239086,46.5212,46.841473,47.175858,47.49789,47.805244,48.138443,48.476486,48.769756,48.94871,48.97254,48.969444,49.061806,49.3751,49.880943,50.3556,50.62675,50.624504,50.53263,50.59502,50.88729,51.39602,51.942898,52.32938,52.53875,52.648346,52.788246,52.95823,52.93718,52.51702,51.73307,50.82283,50.151054,49.8927,49.927803,49.949654,49.597263,48.763527,47.30851,46.430145,46.347,47.012924,48.28688,49.427837,50.295822,50.860275,51.12178,51.165756,51.028328,50.804474,50.596172,50.496113,50.56849,50.735523,50.938213,51.221813,51.567173,51.74521,51.55905,51.721878,50.818596,47.07472,40.63972,35.606194,33.858917,33.560913,34.251076,37.32384,45.284348,53.691795,55.84871,56.200905,56.193535,56.034073,56.27221,56.484894,56.14341,55.877644,55.580643,55.32493,55.117928,54.92128,54.70069,54.377525,53.878944,53.247154,52.540077,51.850502,51.270844,50.84789,50.601494,50.5244,50.598843,50.724693,50.828064,50.923317,50.989563,51.00905,51.054047,51.155212,51.294983,51.450325,51.593582,51.689323,51.731743,51.721493,51.661873,51.552406,51.436783,51.334152,51.297993,51.29218,51.343338,51.403275,51.38816,51.26028,51.035904,50.8381,50.886333,51.46568,52.44651,53.33479,53.904938,54.09864,54.006596,54.013504,54.27312,54.851105,55.656693,56.39691,56.92337,57.13788,57.12301,57.015182,56.870956,56.71923,56.524082,56.26301,55.96988,55.607483,55.275333,55.08655,55.077667,55.16372,55.1821,55.025665,54.670753,54.187233,53.75654,53.54856,53.637985,53.952156,54.336746,54.638123,54.77558,54.76574,54.657265,54.52362,54.401115,54.27224,54.14787,54.02632,53.93923,53.945793,54.05509,54.218193,54.36094,54.41752
38.90277,38.996986,39.10839,39.23848,39.407097,39.61738,39.839584,40.052746,40.24143,40.421642,40.59053,40.726475,40.831673,40.90348,40.94143,40.979675,41.032227,41.09574,41.17255,41.235237,41.2913,41.361893,41.46374,41.591316,41.696808,41.75388,41.805294,41.89159,42.032024,42.233063,42.457233,42.686993,42.922462,43.13435,43.288666,43.38553,43.449936,43.49967,43.55333,43.611546,43.663086,43.70955,43.738728,43.75538,43.75354,43.73465,43.682114,43.5709,43.38044,43.163437,42.97341,42.84498,42.830246,42.9056,43.040916,43.245453,43.565567,44.040894,44.620506,45.264343,45.780045,46.13391,46.367905,46.5299,46.69999,46.870575,47.02939,47.15754,47.248936,47.313988,47.32595,47.28953,47.201477,47.08589,47.004715,46.956,46.87429,46.634605,45.987175,44.989403,43.861042,42.829834,42.242393,42.558506,43.44375,44.38781,45.249092,45.969696,46.510357,46.914772,47.1384,47.042645,46.652473,46.09371,45.651497,45.520058,45.65346,45.923073,46.14577,46.24676,46.297676,46.40944,46.53672,46.52556,46.082527,45.170197,43.727234,41.79233,40.99672,41.003635,41.635105,42.193,42.515095,42.540585,42.101498,41.630676,41.43757,41.38315,41.41715,41.463585,41.507286,41.55482,41.618378,41.70021,41.813732,41.985817,42.242874,42.63642,43.125336,43.517776,43.759464,43.99556,44.230614,44.464417,44.69491,44.920517,45.150745,45.39199,45.640194,45.876114,46.09599,46.30661,46.54338,46.82604,47.14441,47.478844,47.801918,48.105854,48.423393,48.734306,48.996212,49.153667,49.179447,49.190952,49.289356,49.575363,50.01155,50.403664,50.620327,50.62715,50.593475,50.72455,51.06595,51.58525,52.11312,52.471977,52.656536,52.752323,52.891117,53.06404,53.055798,52.657814,51.893456,50.999096,50.312813,50.02236,50.023163,50.01844,49.659294,48.88964,47.432713,46.522446,46.430473,47.082882,48.34412,49.458763,50.355686,50.94879,51.234077,51.294167,51.169243,50.957478,50.76194,50.675144,50.738655,50.878635,51.04701,51.27289,51.516705,51.690727,51.50187,51.557198,50.66941,47.212524,40.970016,35.854927,33.997032,33.623066,34.284454,37.32746,45.18303,53.633236,55.835815,56.096897,56.06087,55.86284,56.037323,56.294365,56.114174,55.869164,55.605537,55.380604,55.202118,55.02539,54.800446,54.440624,53.866222,53.14223,52.35855,51.62818,51.05725,50.68335,50.52359,50.538574,50.592896,50.66422,50.78837,50.918835,51.041145,51.13923,51.224876,51.32219,51.4516,51.581512,51.707474,51.806847,51.863945,51.90177,51.92844,51.95234,51.983284,51.895073,51.76044,51.648773,51.618484,51.61062,51.532265,51.345497,51.06994,50.894714,50.959106,51.44671,52.336815,53.20954,53.83879,54.063522,53.9748,53.9834,54.259563,54.88181,55.75668,56.555588,57.107582,57.309093,57.261147,57.124878,56.956715,56.783653,56.564095,56.27327,55.95098,55.625893,55.34122,55.19767,55.193233,55.261044,55.27246,55.12199,54.78515,54.331726,53.920315,53.70768,53.78717,54.086422,54.43653,54.70914,54.81552,54.801613,54.70568,54.606556,54.535835,54.450256,54.342957,54.213287,54.09918,54.078472,54.170918,54.33187,54.479588,54.539238
38.953644,39.050728,39.168514,39.302494,39.478447,39.68054,39.886707,40.083416,40.259323,40.43102,40.595856,40.729088,40.83413,40.905983,40.945152,40.985367,41.03999,41.10701,41.185806,41.247547,41.29904,41.36206,41.459564,41.594204,41.71685,41.797398,41.872864,41.976402,42.12964,42.337856,42.559772,42.777687,42.994747,43.188793,43.331837,43.425797,43.492508,43.547615,43.60998,43.67605,43.736008,43.7859,43.81797,43.841713,43.853645,43.844784,43.78746,43.65949,43.447887,43.21936,43.031216,42.91465,42.91796,43.00878,43.1575,43.374344,43.70469,44.18787,44.76338,45.382854,45.864902,46.1926,46.405838,46.556713,46.720436,46.884995,47.03473,47.15087,47.234043,47.300793,47.327362,47.314507,47.2529,47.162262,47.1137,47.11492,47.115753,46.980484,46.404324,45.425804,44.25379,43.19449,42.650528,42.956177,43.869003,44.915916,45.940155,46.781597,47.42866,47.91668,48.170357,48.027035,47.57174,46.95677,46.463943,46.343052,46.534325,46.891426,47.20452,47.382298,47.481247,47.67044,47.839478,47.739,47.08434,45.87622,44.39171,42.126762,41.286583,41.447746,42.199093,42.78616,43.254032,43.226913,42.96916,42.446503,42.0466,41.907204,41.87296,41.851177,41.83464,41.83911,41.878185,41.946793,42.05253,42.214497,42.458897,42.847202,43.325493,43.67073,43.93151,44.194244,44.450897,44.69152,44.92263,45.14772,45.378967,45.626106,45.886654,46.139854,46.37617,46.597103,46.834145,47.10962,47.42041,47.753,48.08099,48.39222,48.706062,48.999313,49.234913,49.371468,49.396564,49.417,49.51345,49.76095,50.11622,50.420906,50.58785,50.614952,50.65229,50.860184,51.253113,51.780247,52.284885,52.612286,52.769775,52.8594,52.994194,53.162323,53.157978,52.77748,52.037834,51.163715,50.48313,50.17868,50.151337,50.12882,49.757217,48.989563,47.576023,46.61316,46.47464,47.112713,48.371513,49.510536,50.44176,51.06726,51.379646,51.45687,51.352882,51.15686,50.971405,50.888916,50.9225,51.02166,51.143257,51.290962,51.465202,51.59572,51.36653,51.35956,50.541187,47.233147,41.160854,36.086685,34.122227,33.67753,34.29735,37.292587,44.97409,53.43479,55.773155,55.96199,55.915012,55.701817,55.83426,56.05789,56.005753,55.81547,55.58928,55.387325,55.21907,55.02666,54.749287,54.305195,53.627472,52.811813,51.97223,51.22889,50.69041,50.38655,50.322258,50.367905,50.407955,50.535095,50.71695,50.910652,51.026283,51.051353,51.06585,51.083138,51.135784,51.228218,51.335205,51.444595,51.523457,51.604473,51.640797,51.619865,51.694134,51.844727,52.045174,52.14456,52.039482,51.883404,51.699783,51.422062,51.069866,50.83882,50.9192,51.37817,52.230835,53.16264,53.68198,54.03836,54.009483,54.011494,54.300777,54.96147,55.90216,56.743958,57.311268,57.512188,57.43432,57.28566,57.10665,56.915356,56.662918,56.32887,55.96542,55.615875,55.372208,55.279266,55.29767,55.37048,55.375763,55.231537,54.899452,54.46826,54.08011,53.88078,53.95951,54.23886,54.56849,54.809883,54.888,54.862015,54.800007,54.74434,54.727978,54.6867,54.59661,54.456863,54.314114,54.26502,54.34041,54.491684,54.633965,54.695465
39.00624,39.110313,39.235405,39.38009,39.560158,39.751564,39.93882,40.11679,40.2788,40.442444,40.605232,40.73844,40.84558,40.919586,40.961693,41.004593,41.06092,41.128666,41.20559,41.26278,41.306705,41.36102,41.453194,41.593147,41.731865,41.835888,41.934967,42.054703,42.216835,42.426086,42.63978,42.84225,43.04047,43.220585,43.358624,43.457153,43.53058,43.592224,43.65996,43.7295,43.79249,43.84416,43.88228,43.916924,43.943413,43.94416,43.879612,43.7313,43.494827,43.2518,43.063385,42.957634,42.977497,43.08206,43.24179,43.468697,43.80689,44.295372,44.865368,45.460396,45.91651,46.21868,46.413696,46.55636,46.7156,46.874577,47.014267,47.116676,47.189163,47.2538,47.290543,47.295883,47.253548,47.17708,47.14265,47.168835,47.229492,47.18564,46.697647,45.776413,44.59064,43.550766,43.015026,43.273598,44.235558,45.363525,46.499805,47.436367,48.17267,48.725777,49.00186,48.82573,48.312233,47.677933,47.223125,47.16304,47.448776,47.924183,48.329525,48.57171,48.751442,48.88787,48.930553,48.83261,48.039253,46.543945,44.741074,42.38488,41.500202,41.79099,42.613045,43.400974,43.718307,43.687027,43.456802,43.063446,42.630814,42.40777,42.292534,42.208405,42.13447,42.09786,42.118866,42.183296,42.284767,42.436775,42.670933,43.03292,43.493904,43.834373,44.12455,44.40807,44.671112,44.915604,45.146275,45.368805,45.59804,45.847435,46.117043,46.383522,46.631035,46.85505,47.083344,47.342285,47.638863,47.96694,48.30357,48.632324,48.954926,49.24231,49.460533,49.58242,49.611244,49.643753,49.740803,49.951714,50.22918,50.45182,50.573948,50.62198,50.725143,51.00051,51.433,51.956177,52.42926,52.724773,52.861637,52.94757,53.078255,53.237305,53.23269,52.869995,52.163647,51.321587,50.664955,50.3555,50.313564,50.270405,49.8868,49.107788,47.732098,46.713745,46.520226,47.15023,48.416023,49.60227,50.5774,51.24308,51.583782,51.674942,51.578484,51.39541,51.21515,51.11631,51.120193,51.177353,51.24955,51.3087,51.43754,51.48239,51.18179,51.11315,50.36199,47.241932,41.352512,36.35692,34.280132,33.76286,34.328224,37.302696,44.75289,53.05462,55.681625,55.83587,55.826202,55.682976,55.73565,55.91597,55.866398,55.68682,55.519875,55.341385,55.13449,54.874565,54.52767,54.032944,53.333015,52.43673,51.542213,50.775772,50.23851,49.961388,49.94342,50.02167,50.08986,50.31465,50.64173,50.81858,50.838932,50.821594,50.821884,50.858154,50.932617,51.03588,51.188477,51.409943,51.61785,51.81009,51.908634,51.905704,51.8536,51.768112,51.867077,52.141815,52.36433,52.308548,51.97499,51.591248,51.16163,50.880146,50.943428,51.406223,52.31784,53.068474,53.592762,54.028587,54.267624,54.231956,54.528526,55.22959,56.149292,56.84013,57.39765,57.73484,57.718536,57.541573,57.350536,57.131317,56.829468,56.435844,56.019585,55.638542,55.3826,55.28795,55.30345,55.380028,55.423626,55.33745,55.042217,54.613266,54.24346,54.06056,54.135468,54.410797,54.725456,54.943096,55.00151,54.96635,54.91988,54.905212,54.93628,54.93196,54.856228,54.713116,54.54943,54.47356,54.52845,54.66227,54.795372,54.850662
39.069912,39.18113,39.317635,39.47892,39.658203,39.837627,40.003536,40.160385,40.30697,40.462463,40.624466,40.760303,40.872097,40.950356,40.99638,41.04176,41.098793,41.165703,41.23976,41.29303,41.331276,41.379726,41.467865,41.61093,41.760857,41.88181,41.9965,42.12397,42.285576,42.486267,42.685852,42.871696,43.05413,43.22825,43.372047,43.484283,43.570328,43.641014,43.712093,43.781067,43.84259,43.89309,43.935642,43.979485,44.01739,44.024452,43.95182,43.779602,43.515713,43.25654,43.06714,42.972076,43.007847,43.124672,43.29252,43.525154,43.86664,44.355663,44.916206,45.490547,45.923096,46.204163,46.386917,46.526855,46.685127,46.84017,46.970684,47.060364,47.122997,47.18525,47.23105,47.252853,47.227295,47.16082,47.13081,47.165535,47.266136,47.29712,46.900192,46.04648,44.87141,43.808327,43.24952,43.525955,44.51851,45.70269,46.906433,47.892868,48.664314,49.23372,49.4943,49.318108,48.794243,48.17946,47.80573,47.86873,48.276855,48.849205,49.351112,49.64421,49.747345,49.88723,49.85424,49.689613,48.902138,47.122486,45.010735,42.46602,41.580093,41.975555,42.96882,43.868576,44.11898,44.089104,43.851624,43.453407,43.015022,42.796005,42.63463,42.500153,42.37993,42.309143,42.312813,42.37613,42.482872,42.633163,42.856155,43.186657,43.63147,44.0283,44.330475,44.622433,44.893707,45.14255,45.37155,45.588047,45.81079,46.05723,46.33046,46.603592,46.854492,47.072823,47.28321,47.517166,47.79368,48.11532,48.463913,48.81839,49.160084,49.451637,49.66127,49.77667,49.817066,49.868717,49.974113,50.156696,50.36624,50.51671,50.597816,50.660076,50.813175,51.135395,51.587364,52.091393,52.52545,52.79255,52.920563,53.00768,53.138138,53.290344,53.289726,52.951035,52.28698,51.488487,50.857727,50.55345,50.501633,50.433212,50.03617,49.23871,47.895554,46.82743,46.59224,47.23629,48.516533,49.73693,50.76313,51.478355,51.84648,51.942337,51.839806,51.65167,51.46719,51.357098,51.33165,51.34854,51.37681,51.349564,51.432312,51.372932,50.98204,50.909622,50.229965,47.23034,41.596306,36.69811,34.46953,33.85386,34.351418,37.34819,44.495056,52.487106,55.56355,55.727516,55.79724,55.747185,55.741512,55.889717,55.852577,55.654865,55.474686,55.261456,54.990044,54.646317,54.214897,53.648693,52.91071,52.094994,51.15272,50.336758,49.75347,49.437428,49.401855,49.575256,49.668007,49.898365,50.246674,50.46607,50.651085,50.825134,50.929,50.99697,51.082527,51.203503,51.336075,51.477146,51.71973,51.9881,52.199547,52.26895,52.251217,52.14167,52.067757,52.131927,52.30565,52.399834,52.233593,51.84443,51.364143,51.04061,51.10567,51.62252,52.37496,52.999542,53.597076,54.099274,54.419853,54.66948,54.939053,55.56317,56.25071,56.948513,57.52864,57.882927,57.96321,57.82927,57.621323,57.37456,57.0216,56.56576,56.094402,55.68577,55.419983,55.326637,55.339622,55.40235,55.437176,55.386917,55.17051,54.779358,54.40814,54.229008,54.311657,54.596893,54.89794,55.101875,55.14543,55.102097,55.06759,55.07969,55.142887,55.159325,55.08388,54.927402,54.744965,54.650837,54.684402,54.80297,54.92773,54.97618
39.155113,39.272987,39.43068,39.603355,39.782547,39.950493,40.094868,40.230278,40.361412,40.509132,40.67076,40.809204,40.924126,41.004547,41.051926,41.096954,41.15172,41.214756,41.28383,41.33424,41.369843,41.417915,41.506374,41.651585,41.808304,41.937485,42.058174,42.184917,42.33825,42.524918,42.71077,42.886658,43.064888,43.247696,43.411552,43.5486,43.653614,43.73462,43.806324,43.868996,43.921062,43.965492,44.010056,44.058746,44.097603,44.103035,44.020966,43.824814,43.526863,43.247185,43.053974,42.967766,43.017906,43.14509,43.317673,43.5522,43.893127,44.38125,44.93294,45.488075,45.905655,46.170364,46.344437,46.482246,46.63887,46.788845,46.90968,46.987297,47.040283,47.09883,47.1505,47.18532,47.17501,47.11785,47.09082,47.12924,47.257454,47.348488,47.03672,46.253494,45.101852,44.028038,43.453514,43.718834,44.712418,45.916676,47.12904,48.10267,48.842834,49.37632,49.596954,49.4536,48.98063,48.454887,48.20439,48.403202,48.9382,49.623764,50.153725,50.41131,50.609344,50.614,50.420372,50.23462,49.584064,47.585655,45.346535,42.547096,41.599052,42.057068,43.21196,44.167854,44.470528,44.43551,44.174526,43.75729,43.31037,43.11113,42.944656,42.7707,42.604233,42.496765,42.476166,42.52835,42.637817,42.79499,43.017853,43.336502,43.769592,44.22034,44.531807,44.830566,45.110096,45.363335,45.589645,45.79825,46.01252,46.25345,46.52658,46.80098,47.048794,47.254593,47.44124,47.6456,47.899174,48.2129,48.57448,48.959206,49.328194,49.63467,49.848038,49.969757,50.034203,50.117256,50.24485,50.41533,50.57567,50.66907,50.712772,50.777184,50.955376,51.295578,51.740578,52.20677,52.59265,52.831554,52.95747,53.050873,53.187515,53.34091,53.349125,53.043015,52.43018,51.68294,51.085094,50.792397,50.73341,50.63672,50.220284,49.395817,48.077095,46.96278,46.70571,47.36026,48.66639,49.913223,50.997444,51.767616,52.16086,52.236164,52.119972,51.918533,51.723053,51.60255,51.55471,51.54036,51.505028,51.423508,51.40757,51.3034,50.85197,50.774834,50.133907,47.238388,41.8639,37.042824,34.656136,33.976746,34.426445,37.494843,44.302128,51.89686,55.43412,55.67089,55.85504,55.86447,55.829315,55.905106,55.907986,55.777206,55.526005,55.201054,54.843437,54.479492,53.995647,53.357407,52.577686,51.74648,50.870903,49.945335,49.220024,48.74918,48.53919,48.60872,48.86402,49.142822,49.53853,49.737823,49.743774,49.611725,49.542397,49.498962,49.44984,49.45612,49.648434,50.159172,50.8256,51.67973,51.973854,52.21447,52.265263,52.190365,52.18376,52.205498,52.22376,52.217834,52.150238,51.922146,51.60059,51.3229,51.43134,51.805008,52.341984,53.218872,53.833138,54.201485,54.46639,54.876637,55.22695,55.699993,56.367992,56.951103,57.3527,57.719715,58.044456,58.101814,57.908913,57.6267,57.22323,56.711327,56.188263,55.757187,55.48719,55.399498,55.410854,55.4578,55.470795,55.418304,55.270226,54.949524,54.58419,54.398712,54.489365,54.778423,55.075043,55.270905,55.302013,55.25061,55.225746,55.259468,55.345615,55.37282,55.28679,55.108154,54.90114,54.789345,54.81406,54.926296,55.04313,55.079857
39.232906,39.360252,39.5327,39.717987,39.899513,40.05841,40.18351,40.298843,40.415672,40.556297,40.716873,40.855392,40.969208,41.04672,41.09044,41.130455,41.17817,41.232475,41.29303,41.33995,41.375698,41.428738,41.52203,41.669365,41.828598,41.95787,42.07579,42.194405,42.335,42.507736,42.687008,42.86696,43.05949,43.26918,43.469025,43.63441,43.759933,43.855305,43.92745,43.982056,44.021103,44.054585,44.095028,44.141678,44.17577,44.175392,44.076195,43.855743,43.52072,43.2151,43.01465,42.935192,42.998764,43.135437,43.31202,43.548203,43.88868,44.379715,44.931488,45.474045,45.881363,46.134537,46.298836,46.42904,46.57741,46.716465,46.823704,46.886147,46.925594,46.97451,47.024567,47.065895,47.06753,47.021347,47.001167,47.045967,47.196487,47.3338,47.093697,46.376534,45.254124,44.17547,43.596664,43.834442,44.792324,45.97561,47.141582,48.044136,48.698265,49.15569,49.37864,49.256638,48.89393,48.517647,48.428413,48.773666,49.421383,50.14938,50.651817,50.975388,51.118996,51.014526,50.90298,50.680916,50.01358,47.93856,45.655518,42.64337,41.598755,42.10167,43.367268,44.39202,44.75408,44.731335,44.437363,44.00351,43.559734,43.37136,43.199806,42.998062,42.7833,42.62439,42.5625,42.594383,42.711494,42.88772,43.133385,43.47671,43.895157,44.36119,44.695,44.99643,45.28109,45.53593,45.758324,45.959404,46.166367,46.402405,46.67398,46.945786,47.185295,47.37339,47.532146,47.702927,47.929634,48.23237,48.605045,49.018593,49.417274,49.746567,49.974358,50.112698,50.21007,50.33226,50.49504,50.675037,50.81214,50.86963,50.882267,50.93588,51.1118,51.438225,51.849636,52.262,52.593796,52.804554,52.93118,53.039192,53.191433,53.35572,53.3764,53.106438,52.5478,51.855072,51.29521,51.01963,50.955532,50.826813,50.38436,49.519684,48.219032,47.05076,46.774593,47.44767,48.778378,50.028595,51.18023,52.016678,52.387333,52.396984,52.254406,52.08661,51.888012,51.76049,51.7022,51.669823,51.571194,51.45388,51.35239,51.218254,50.767807,50.662167,50.031536,47.22725,42.137962,37.35367,34.8234,34.10046,34.539825,37.68469,44.262585,51.38707,55.283043,55.631607,55.940674,55.9588,55.923317,55.864258,55.807632,55.60708,55.33101,55.037384,54.698845,54.2916,53.80838,53.19091,52.416107,51.55875,50.709694,49.592766,48.548477,47.522537,46.920795,46.717434,46.787647,46.997974,47.073746,46.967873,46.676777,46.246254,45.822132,45.35388,44.802612,44.30928,44.205765,44.78663,46.118748,47.80762,49.323296,50.35095,50.83571,51.2474,51.75016,52.107742,52.159866,52.03298,51.840343,51.624382,51.454063,51.397926,51.50575,51.774643,52.433357,53.185455,53.78623,54.17366,54.363243,54.5963,55.001717,55.574272,56.22703,56.7592,57.149143,57.41539,57.70018,57.970524,58.07338,57.843193,57.385452,56.82029,56.248783,55.7979,55.526337,55.44712,55.45903,55.4905,55.484024,55.408623,55.27906,55.06005,54.73868,54.536613,54.62734,54.913902,55.20575,55.394096,55.41324,55.352917,55.33413,55.38304,55.482796,55.511585,55.408165,55.20549,54.97619,54.850452,54.868477,54.97265,55.075996,55.09437
39.308132,39.444794,39.632435,39.83197,40.019432,40.174625,40.28619,40.386734,40.49357,40.629333,40.78871,40.924057,41.03074,41.09868,41.1324,41.16182,41.197636,41.239326,41.289085,41.333,41.371666,41.43367,41.53501,41.685028,41.845184,41.97101,42.083076,42.192772,42.32241,42.48601,42.666733,42.860558,43.077904,43.323044,43.554832,43.747437,43.89605,44.00428,44.074654,44.119255,44.142128,44.161713,44.194122,44.232002,44.2659,44.2565,44.132,43.884415,43.519558,43.186687,42.979355,42.906998,42.984215,43.12979,43.309776,43.547882,43.891037,44.39408,44.959686,45.49951,45.906105,46.15364,46.308533,46.428295,46.56682,46.696026,46.793823,46.846836,46.877647,46.919937,46.968296,47.0147,47.02715,46.99229,46.980644,47.032997,47.197086,47.36167,47.164665,46.487473,45.38266,44.292145,43.718857,43.91604,44.794888,45.9331,47.024933,47.831047,48.382305,48.758507,48.95363,48.892162,48.654182,48.443634,48.520176,49.002304,49.740223,50.471752,50.935753,51.24817,51.302086,51.218147,51.16561,51.015705,50.329994,48.219963,45.768776,42.65733,41.56916,42.123474,43.48185,44.577812,45.008553,45.016678,44.706825,44.25414,43.83242,43.63777,43.46238,43.235813,42.968884,42.746582,42.627007,42.62812,42.74756,42.95028,43.25303,43.62944,44.059963,44.510742,44.84735,45.149117,45.433403,45.686302,45.90475,46.102043,46.306343,46.54059,46.810547,47.078117,47.30782,47.479046,47.61218,47.75193,47.95266,48.24269,48.62323,49.0633,49.493103,49.852837,50.10714,50.273865,50.41323,50.581516,50.78922,50.99395,51.12622,51.161026,51.14395,51.173794,51.32506,51.614456,51.974445,52.32462,52.600967,52.78385,52.911407,53.04094,53.21853,53.398354,53.43393,53.19639,52.686546,52.043167,51.51952,51.263542,51.184055,51.028168,50.550255,49.63114,48.336483,47.100235,46.799065,47.489365,48.843414,50.092743,51.316193,52.21943,52.551247,52.51319,52.343727,52.154335,51.993263,51.874897,51.82067,51.766212,51.61457,51.422554,51.30775,51.160076,50.7322,50.573463,49.979294,47.27294,42.450493,37.673386,34.974243,34.194187,34.640873,37.78608,44.34316,51.07765,55.160484,55.675797,56.127335,56.168274,56.114704,55.94999,55.75792,55.541298,55.267235,55.004128,54.654037,54.153454,53.559795,52.833454,51.928146,51.017555,50.214188,49.027092,47.275856,45.876175,44.814377,43.961426,43.52175,43.274357,43.061478,42.722748,42.29799,41.847195,41.38987,40.922302,39.869644,38.19693,37.360428,37.84446,39.620735,41.6802,44.09445,45.849365,47.08044,48.34626,49.75777,50.90016,51.395657,51.655983,51.515686,51.14331,50.86351,50.79821,50.997623,51.453617,52.155983,53.029053,53.76545,54.217087,54.383186,54.54734,54.8795,55.429214,56.120026,56.68689,57.0763,57.279205,57.350784,57.57189,57.766792,57.857788,57.51844,56.91303,56.297573,55.8315,55.562515,55.489647,55.498077,55.509834,55.483208,55.394043,55.257145,55.080482,54.853096,54.680595,54.759308,55.03683,55.322086,55.50374,55.518875,55.45611,55.44378,55.505447,55.614502,55.641396,55.519722,55.29572,55.05091,54.91915,54.936817,55.036057,55.126225,55.124947
39.37726,39.522568,39.72543,39.94138,40.139763,40.29867,40.40512,40.49913,40.602974,40.738464,40.8979,41.027153,41.120483,41.171402,41.18801,41.201065,41.220367,41.245796,41.282524,41.322258,41.363884,41.434628,41.54312,41.69441,41.854057,41.97682,42.08558,42.192055,42.318703,42.482544,42.673218,42.889656,43.14052,43.422455,43.678055,43.892372,44.05448,44.164997,44.227886,44.260582,44.266685,44.271164,44.29036,44.32345,44.354904,44.334557,44.184517,43.909462,43.514526,43.15617,42.943268,42.87904,42.96991,43.123444,43.30574,43.54692,43.898193,44.424988,45.018085,45.571236,45.994686,46.244102,46.392906,46.503727,46.63601,46.761993,46.859566,46.91282,46.943302,46.985092,47.03458,47.086403,47.108276,47.08265,47.077446,47.13411,47.301502,47.473007,47.28739,46.616844,45.509995,44.399227,43.831882,43.983154,44.76944,45.854103,46.868065,47.582756,48.043137,48.350616,48.524033,48.513832,48.38508,48.32424,48.549835,49.157715,49.95236,50.63063,51.07139,51.40592,51.41623,51.357193,51.371094,51.210808,50.413197,48.39797,45.813988,42.59732,41.48565,42.113503,43.570488,44.73358,45.24025,45.30111,44.989033,44.569077,44.18968,43.95608,43.77687,43.5254,43.196724,42.899677,42.709133,42.668633,42.785156,43.02841,43.397415,43.82956,44.284058,44.67917,45.001617,45.300404,45.577812,45.824852,46.04029,46.23877,46.44614,46.68219,46.95112,47.21457,47.43617,47.595245,47.70851,47.82367,48.00263,48.27797,48.663616,49.135307,49.59088,49.97376,50.26129,50.465267,50.65538,50.88067,51.14348,51.3817,51.518463,51.535004,51.484955,51.479378,51.590458,51.829613,52.130325,52.41681,52.638893,52.792988,52.91825,53.070885,53.279198,53.475876,53.521698,53.29993,52.829964,52.228447,51.737038,51.503468,51.41225,51.22778,50.69492,49.72165,48.42201,47.091072,46.75629,47.44661,48.820084,50.097122,51.39825,52.32953,52.655907,52.61151,52.420013,52.209145,52.060555,51.978523,51.937485,51.80683,51.614685,51.414906,51.279503,51.117783,50.73687,50.527416,49.90875,47.295902,42.839043,38.03415,35.11892,34.265644,34.70549,37.91201,44.513985,50.9439,55.043114,55.755856,56.35193,56.498627,56.462265,56.24302,55.95047,55.680107,55.393147,55.088367,54.72207,54.2339,53.52351,52.614647,51.534294,50.623734,49.38198,47.544518,45.75693,44.12715,42.260033,40.83739,40.21357,39.91337,39.70965,39.367973,38.920494,38.40056,37.89567,37.31833,36.520958,34.854538,34.01275,34.14314,35.411613,37.453903,39.268074,41.158978,43.115906,45.001526,46.748375,48.82373,50.41491,50.999073,50.977554,50.80645,50.605766,50.501945,50.60004,51.10688,51.946014,52.900764,53.66557,54.123516,54.33027,54.534065,54.877937,55.428883,56.088608,56.622795,57.004738,57.203545,57.28634,57.27098,57.34676,57.459457,57.51869,56.97221,56.32376,55.853603,55.596355,55.530468,55.531815,55.51836,55.470764,55.37204,55.22332,55.07035,54.905876,54.78669,54.8693,55.109917,55.342007,55.478416,55.537903,55.53441,55.555695,55.635868,55.757484,55.787735,55.666325,55.43341,55.181076,55.052956,55.07905,55.178635,55.255795,55.23365
39.44233,39.59437,39.810665,40.042988,40.25551,40.424477,40.534073,40.63012,40.738056,40.87835,41.04043,41.163876,41.242012,41.27349,41.27097,41.266747,41.26912,41.27836,41.30302,41.338005,41.38108,41.454567,41.562374,41.70793,41.860966,41.979218,42.08699,42.197365,42.33076,42.50636,42.7156,42.959305,43.24437,43.54786,43.821518,44.046177,44.206234,44.313732,44.367256,44.38571,44.371452,44.356735,44.36387,44.390087,44.41758,44.386673,44.21559,43.917145,43.49823,43.122665,42.908073,42.85295,42.955406,43.113083,43.294785,43.540123,43.90738,44.473892,45.10665,45.7085,46.172848,46.44099,46.595345,46.70597,46.842014,46.97681,47.08638,47.15126,47.19137,47.240807,47.29615,47.354454,47.38221,47.35946,47.351616,47.401787,47.554245,47.70419,47.487373,46.779472,45.64426,44.5104,43.899796,44.017418,44.77189,45.8171,46.780323,47.436943,47.838943,48.09921,48.25377,48.269634,48.210808,48.25689,48.5976,49.307064,50.134666,50.75328,51.185493,51.514305,51.520042,51.510735,51.56318,51.39715,50.594536,48.530853,45.78631,42.427483,41.32893,42.058746,43.66787,44.885746,45.488373,45.619576,45.33326,44.94159,44.659626,44.45141,44.259377,43.977646,43.540447,43.129944,42.85324,42.7608,42.863953,43.147697,43.583546,44.083218,44.5188,44.885353,45.19264,45.488205,45.755207,45.99416,46.207664,46.41159,46.62571,46.86387,47.128815,47.384468,47.596916,47.74771,47.84724,47.94496,48.105602,48.364235,48.754845,49.247803,49.726425,50.129066,50.438034,50.684868,50.928425,51.214058,51.53515,51.809654,51.954124,51.95086,51.86004,51.805283,51.860977,52.040947,52.281883,52.51532,52.69937,52.838943,52.97214,53.157673,53.400646,53.610832,53.656242,53.434242,52.981827,52.40803,51.942123,51.729805,51.630413,51.417095,50.825157,49.78691,48.45488,47.03653,46.664215,47.341316,48.73031,50.05951,51.43789,52.405373,52.74434,52.707455,52.500595,52.274208,52.1225,52.062016,51.978546,51.83707,51.65837,51.45862,51.299217,51.083305,50.758045,50.558926,49.851215,47.31804,43.253933,38.405113,35.254494,34.322212,34.743298,38.019817,44.718292,50.8627,54.85711,55.805412,56.518364,56.736145,56.664528,56.367805,56.061554,55.77778,55.475956,55.146206,54.719,54.141037,53.35785,52.29004,51.166203,50.29328,49.126328,46.235283,44.06427,42.226437,40.20569,38.784847,37.99504,37.537373,37.281425,37.01551,36.75122,36.509262,36.20284,35.680233,35.101025,33.96943,32.769165,32.652332,33.914024,35.956486,37.998253,39.76423,41.20711,42.83629,45.076042,47.63154,49.33506,49.8928,49.992928,50.00228,49.89799,49.873806,50.085224,50.528553,51.24653,52.18512,52.970795,53.518124,53.888325,54.146545,54.423653,55.034103,55.75576,56.360306,56.813774,57.05455,57.148453,57.148804,57.02377,57.019638,57.14238,56.9418,56.336807,55.897816,55.677006,55.62352,55.614708,55.566315,55.492844,55.384262,55.22808,55.052612,54.912556,54.827072,54.898773,55.108093,55.293613,55.434616,55.49722,55.52558,55.5914,55.68519,55.796486,55.850704,55.79268,55.620895,55.378075,55.261753,55.30109,55.39588,55.43696,55.37711
39.495415,39.6519,39.878532,40.124996,40.352234,40.534657,40.652794,40.75701,40.87412,41.02269,41.189926,41.31001,41.374023,41.387115,41.369686,41.354603,41.344524,41.341286,41.35692,41.387383,41.428802,41.49581,41.590115,41.71707,41.852673,41.96106,42.068954,42.19001,42.338898,42.53678,42.77316,43.046852,43.354317,43.670914,43.950455,44.166443,44.31779,44.41785,44.46293,44.470417,44.439056,44.404938,44.39715,44.413086,44.435406,44.39554,44.21023,43.895264,43.462265,43.081448,42.869537,42.822586,42.930458,43.083477,43.256706,43.503284,43.89128,44.51039,45.202934,45.880524,46.407505,46.701973,46.875786,47.001377,47.15458,47.30556,47.43199,47.519493,47.58242,47.64875,47.71364,47.776886,47.80678,47.781754,47.76375,47.794052,47.905884,47.995285,47.71534,46.945293,45.756607,44.597443,43.956375,44.056267,44.80567,45.84941,46.807816,47.45688,47.84591,48.0871,48.224285,48.234196,48.192657,48.290306,48.708855,49.48324,50.28849,50.911278,51.343506,51.642838,51.644382,51.698647,51.78704,51.612503,50.807343,48.598488,45.67914,42.10671,41.06575,41.93413,43.770924,45.02874,45.755524,45.968925,45.741737,45.347664,45.05626,44.868893,44.667805,44.442528,44.01236,43.47633,43.072845,42.90593,42.981194,43.29045,43.78378,44.339497,44.730164,45.077553,45.415535,45.711662,45.971413,46.204594,46.41899,46.631363,46.852493,47.089058,47.343407,47.58435,47.783993,47.92964,48.02322,48.11033,48.254528,48.489403,48.862045,49.34884,49.834026,50.256355,50.593636,50.879383,51.171955,51.510666,51.88284,52.18633,52.331337,52.30054,52.15995,52.045166,52.034485,52.15118,52.339535,52.540558,52.715157,52.869698,53.035908,53.268272,53.544395,53.763386,53.804256,53.56546,53.099716,52.542503,52.096268,51.895164,51.793648,51.552322,50.903763,49.799923,48.410423,46.933342,46.52989,47.2036,48.621994,50.0005,51.455887,52.463776,52.815727,52.782608,52.563423,52.325775,52.17344,52.09082,51.997868,51.887177,51.733063,51.545372,51.3612,51.046505,50.772884,50.62671,49.843147,47.38996,43.438892,38.598022,35.38488,34.361897,34.74245,38.084053,44.897137,50.85122,54.60322,55.804825,56.598743,56.85721,56.750122,56.449158,56.164192,55.902325,55.606125,55.25866,54.76201,54.04738,53.14064,51.934093,50.836674,49.7587,48.27004,45.709976,43.018116,40.86152,39.290405,38.119297,37.308376,36.798084,36.472088,36.14582,35.881805,35.714485,35.49817,34.98728,34.234554,33.182194,32.426903,32.47963,33.42539,35.330875,37.46411,38.99301,40.396095,41.98374,44.050713,46.207146,47.604187,48.370674,48.700684,48.854572,48.832386,48.841835,49.072453,49.55112,50.271477,51.14073,51.96318,52.60746,53.018845,53.339973,53.743614,54.369934,55.087055,55.780613,56.36743,56.686676,56.830177,56.807266,56.69944,56.546623,56.642975,56.739487,56.299454,55.956978,55.815895,55.794243,55.77662,55.68655,55.57965,55.45356,55.281757,55.08308,54.89627,54.79881,54.86182,55.04059,55.23397,55.390625,55.459248,55.485207,55.54979,55.651104,55.775204,55.8387,55.79182,55.69003,55.549103,55.44448,55.45903,55.514908,55.552086,55.500427
39.551952,39.711445,39.94554,40.202812,40.443047,40.638287,40.766098,40.879967,41.007072,41.164375,41.33786,41.456093,41.507263,41.510567,41.485508,41.46564,41.451935,41.44159,41.452393,41.479977,41.517815,41.56954,41.63786,41.733505,41.840073,41.93129,42.03638,42.169823,42.33925,42.567554,42.837387,43.140343,43.46218,43.78739,44.060608,44.26406,44.405476,44.49823,44.538033,44.53768,44.490547,44.435974,44.4093,44.41056,44.424744,44.375885,44.181564,43.85885,43.4212,43.042114,42.835075,42.793564,42.900513,43.04229,43.202106,43.450027,43.86503,44.54882,45.318497,46.093506,46.664158,46.95677,47.15886,47.310772,47.473286,47.614906,47.73326,47.846542,47.948242,48.034405,48.099663,48.15444,48.183807,48.169018,48.157017,48.165123,48.208076,48.19811,47.90024,47.123024,45.857964,44.673477,44.018585,44.126797,44.912254,45.996452,46.994606,47.67713,48.087467,48.331978,48.45582,48.43712,48.37802,48.49683,48.97769,49.805767,50.592766,51.216644,51.644,51.90423,51.891754,52.01102,52.099197,51.906708,51.104713,48.6801,45.527557,41.73558,40.792603,41.819687,43.914608,45.19848,46.06215,46.3696,46.222008,45.881607,45.58047,45.400093,45.20498,44.909363,44.58486,43.991467,43.39461,43.088154,43.117096,43.438984,43.968803,44.502693,44.904015,45.315056,45.683044,45.994576,46.25276,46.48089,46.695175,46.91469,47.141483,47.37468,47.616867,47.84236,48.0305,48.174854,48.267227,48.345757,48.47058,48.671524,49.001194,49.455387,49.92544,50.359016,50.720566,51.028923,51.35528,51.73285,52.144318,52.463596,52.60086,52.544662,52.362656,52.194702,52.12011,52.177696,52.32876,52.5269,52.728367,52.930157,53.150215,53.4329,53.7334,53.95141,53.977997,53.7074,53.21434,52.656845,52.222412,52.030632,51.928955,51.65883,50.95317,49.77985,48.310898,46.80455,46.38597,47.0682,48.525085,49.9619,51.49862,52.544724,52.87153,52.80733,52.587612,52.361435,52.19255,52.090866,52.02977,51.95926,51.844257,51.681404,51.47158,51.059715,50.82778,50.65498,49.83523,47.47795,43.595955,38.744316,35.480095,34.376293,34.67211,38.070854,44.88986,50.815697,54.257324,55.69107,56.55462,56.868225,56.796013,56.571854,56.3565,56.117767,55.7741,55.323296,54.806206,54.02546,52.893703,51.6868,50.453903,48.93734,46.967453,44.762653,42.542473,40.475746,38.809803,37.615562,36.838326,36.302887,35.90426,35.50821,35.16903,34.92576,34.631615,34.082146,33.28802,32.170197,31.339054,31.25679,32.080406,33.859276,35.835926,37.25585,38.611526,40.122505,41.90832,43.804977,45.56186,46.744484,47.395367,47.56356,47.549904,47.554146,47.77072,48.217575,48.862026,49.626957,50.28025,50.508095,50.40512,50.505013,51.35206,53.01031,54.399788,55.01236,55.535522,55.798874,56.053665,56.129906,56.066635,55.94656,56.016853,56.319427,56.133373,55.973076,55.976578,56.025673,56.01179,55.87451,55.7235,55.559616,55.365875,55.13815,54.90305,54.757244,54.797256,54.979916,55.190758,55.36869,55.447227,55.475075,55.54138,55.64959,55.785557,55.860565,55.81568,55.70494,55.57171,55.508568,55.534897,55.586403,55.626183,55.5988
39.619377,39.78037,40.01862,40.28198,40.530853,40.734676,40.869392,40.99061,41.125572,41.28941,41.46792,41.58646,41.635895,41.6399,41.614357,41.59197,41.578957,41.569138,41.581062,41.60942,41.64288,41.673008,41.705788,41.760086,41.828342,41.894466,41.9908,42.133057,42.322205,42.58275,42.88833,43.21187,43.54458,43.873993,44.13547,44.327713,44.46415,44.554817,44.594795,44.591278,44.531525,44.45858,44.41291,44.398327,44.403275,44.346024,44.146545,43.822525,43.386253,43.01169,42.809616,42.770485,42.871254,42.997597,43.141685,43.392303,43.841347,44.601166,45.464912,46.321407,46.86655,47.21359,47.440132,47.587997,47.72213,47.85869,47.992317,48.11225,48.219444,48.3115,48.380554,48.43415,48.457603,48.44609,48.426117,48.40862,48.407852,48.372513,48.085583,47.274612,45.952667,44.73736,44.0832,44.22264,45.081665,46.234657,47.31037,48.061825,48.49874,48.743782,48.85847,48.822712,48.74169,48.861923,49.376236,50.20888,51.02041,51.62445,52.100815,52.294807,52.269302,52.40216,52.39238,52.265408,51.47486,48.818703,45.218025,41.3327,40.542892,41.724705,44.069817,45.391384,46.390762,46.820183,46.76521,46.504105,46.241665,46.04146,45.868076,45.548218,45.110214,44.537037,43.789146,43.34311,43.290085,43.56682,44.10157,44.630707,45.097107,45.56634,45.987633,46.328445,46.587563,46.8061,47.016373,47.239822,47.47078,47.701035,47.933296,48.147125,48.328865,48.476562,48.570503,48.638668,48.737267,48.89752,49.182835,49.575592,50.017807,50.44899,50.805664,51.115612,51.455208,51.85485,52.28991,52.619057,52.762375,52.696865,52.48519,52.269207,52.139084,52.14691,52.279778,52.50573,52.770355,53.048943,53.33735,53.659187,53.961464,54.17589,54.181858,53.865776,53.335667,52.762993,52.336082,52.154495,52.04811,51.742016,50.972958,49.72354,48.166504,46.647644,46.238403,46.94898,48.45368,49.952217,51.57042,52.637764,52.91223,52.82634,52.591934,52.3482,52.178925,52.0958,52.069332,52.04708,51.982372,51.846092,51.570656,51.126152,50.923447,50.712082,49.859264,47.560715,43.715874,38.82544,35.514088,34.336082,34.52042,37.924988,44.661854,50.54131,53.833874,55.45302,56.394066,56.817352,56.89116,56.80079,56.636215,56.388824,56.24624,55.9265,54.91876,53.174515,50.773014,48.807137,47.37931,46.137238,44.56199,42.60674,40.53944,38.445656,36.762737,35.619717,34.81945,34.238724,33.74725,33.24972,32.810257,32.402058,31.92832,31.26918,30.39598,29.334751,28.327217,27.897583,28.648533,30.091726,31.686216,33.35438,34.575016,35.700836,37.044743,38.736755,40.50299,42.110516,43.27575,43.826103,44.010437,44.08084,44.222443,44.483395,44.863968,45.286667,45.397907,44.887917,43.810135,43.261658,43.906406,46.400658,50.40153,53.47344,54.720306,54.887283,54.992546,55.197586,55.240463,55.21277,55.33931,55.79509,55.86435,55.950188,56.15143,56.28591,56.275642,56.098118,55.8817,55.67356,55.450405,55.187298,54.90827,54.714127,54.72871,54.914696,55.149452,55.357857,55.453445,55.486908,55.554897,55.667847,55.813454,55.897797,55.85447,55.739685,55.599133,55.526825,55.5491,55.601044,55.650978,55.64531
39.697456,39.86001,40.101128,40.367535,40.62096,40.828423,40.965595,41.089676,41.228233,41.394974,41.576275,41.69748,41.751434,41.75991,41.738125,41.71765,41.705162,41.70144,41.72248,41.755722,41.78486,41.789574,41.779076,41.78589,41.81142,41.849968,41.935993,42.08574,42.29516,42.589615,42.9285,43.271286,43.61103,43.929317,44.178436,44.3619,44.4971,44.589943,44.633076,44.629097,44.558884,44.47026,44.40647,44.374733,44.366005,44.296375,44.090927,43.766685,43.33383,42.96769,42.773376,42.737217,42.833275,42.949272,43.08516,43.347496,43.840363,44.684563,45.647575,46.529655,47.1054,47.447834,47.67128,47.83342,47.991253,48.14377,48.28607,48.41227,48.52634,48.62523,48.69841,48.751556,48.76915,48.745598,48.709984,48.674034,48.644142,48.563126,48.22517,47.417336,46.069263,44.809128,44.159233,44.343285,45.295452,46.535538,47.72149,48.481544,48.866688,49.0722,49.18371,49.192955,49.158695,49.294327,49.794086,50.64853,51.47155,52.196198,52.697666,52.785217,52.70598,52.743553,52.743233,52.753487,51.843353,48.975983,44.81389,40.92086,40.302376,41.64636,44.13103,45.597046,46.72956,47.295696,47.35171,47.18288,46.974457,46.79061,46.557724,46.17866,45.60975,45.037567,44.291824,43.72177,43.562897,43.76984,44.28443,44.763435,45.285614,45.83745,46.338364,46.729073,46.998596,47.204277,47.401184,47.619072,47.851807,48.085663,48.324265,48.54929,48.748344,48.919495,49.026527,49.085724,49.15068,49.257683,49.486786,49.823273,50.20703,50.58141,50.890034,51.169136,51.493412,51.892475,52.335033,52.676613,52.832153,52.770355,52.54744,52.300076,52.12185,52.094883,52.230766,52.51281,52.86944,53.24206,53.59653,53.92782,54.19288,54.39571,54.386116,54.03975,53.473198,52.87612,52.45081,52.276493,52.15981,51.80863,50.96867,49.63587,47.98455,46.48311,46.104965,46.859184,48.412994,49.980297,51.638184,52.685204,52.95227,52.86135,52.60951,52.349,52.176804,52.10869,52.11902,52.14919,52.139732,52.028984,51.646133,51.232048,51.04036,50.786285,49.89528,47.630516,43.805435,38.870422,35.52562,34.250084,34.361687,37.583702,44.205463,49.940163,53.366173,55.10771,56.223843,56.89241,57.10122,56.99331,56.640522,56.937267,56.57643,53.881664,48.462048,42.35938,39.016655,37.428524,36.705936,36.220913,35.48225,34.372505,32.864758,31.476578,30.414476,29.800827,29.343084,28.804213,28.196198,27.542706,26.979637,26.512493,26.075634,25.552505,24.725044,23.592274,22.664639,22.243286,22.326414,23.05042,24.28114,25.480436,26.362038,27.010082,27.604828,28.347713,29.200909,29.97214,30.764029,31.495565,32.13888,32.632587,32.8894,32.984657,32.95322,32.813675,32.419155,31.89615,31.069801,30.475615,30.75948,32.756996,38.32306,47.032654,52.691837,54.223175,54.211044,54.216835,54.405712,54.427048,54.681732,55.320805,55.513134,55.8886,56.337883,56.519165,56.495037,56.33699,56.030678,55.7785,55.50323,55.185226,54.864433,54.63552,54.63101,54.824257,55.089714,55.339493,55.463913,55.512024,55.58629,55.705452,55.85994,55.952904,55.9113,55.79169,55.64198,55.55903,55.568092,55.612274,55.672333,55.70317
39.77611,39.941544,40.186455,40.45523,40.71074,40.917007,41.05133,41.172363,41.3086,41.47387,41.654205,41.776695,41.834885,41.84884,41.83047,41.810814,41.8004,41.80372,41.8374,41.878242,41.906013,41.88858,41.833824,41.79213,41.77607,41.789223,41.865784,42.022694,42.253967,42.58203,42.94844,43.30503,43.644035,43.945015,44.180176,44.3553,44.49174,44.587997,44.633923,44.628693,44.54833,44.445953,44.36476,44.313652,44.2847,44.195656,43.980076,43.652588,43.222847,42.870552,42.68872,42.658985,42.757133,42.87435,43.0167,43.30487,43.85305,44.785233,45.850677,46.712547,47.278877,47.629356,47.886345,48.069397,48.243893,48.409706,48.560036,48.690895,48.810574,48.916405,48.99509,49.050415,49.06491,49.033627,48.986446,48.93461,48.87803,48.755737,48.378296,47.5897,46.2041,44.881382,44.22982,44.462963,45.49848,46.835655,48.08097,48.689552,49.01486,49.23736,49.35733,49.35295,49.37034,49.58821,50.119328,51.000553,51.99173,52.82563,53.24127,53.152206,52.981422,53.13591,53.237114,53.25547,52.211998,49.102303,44.417717,40.554832,40.07438,41.584892,44.183773,45.76821,47.03145,47.701454,47.875034,47.838753,47.74163,47.58248,47.29825,46.816948,46.14769,45.42844,44.786987,44.185246,43.910435,44.034225,44.4683,44.878082,45.46331,46.116447,46.719196,47.178207,47.473007,47.666412,47.838512,48.039886,48.274853,48.527443,48.801903,49.07638,49.331787,49.559288,49.69776,49.752346,49.775524,49.81427,49.968636,50.22153,50.51406,50.7922,51.009857,51.219738,51.4991,51.87635,52.31627,52.666676,52.83851,52.792553,52.57418,52.310097,52.097534,52.04819,52.203598,52.561214,53.02597,53.492455,53.884018,54.184532,54.402534,54.536884,54.49932,54.19169,53.61914,52.995872,52.5636,52.3917,52.25837,51.854134,50.93662,49.51756,47.782944,46.31993,45.990993,46.789528,48.375324,50.020256,51.691032,52.704258,52.972374,52.876194,52.60737,52.331245,52.157543,52.106117,52.1556,52.24117,52.287113,52.18373,51.730247,51.33586,51.140965,50.839954,49.913383,47.67661,43.879787,38.916252,35.534164,34.16394,34.207905,37.093506,43.31461,49.120247,52.79699,54.66191,56.05311,57.024864,57.05221,56.842857,57.60942,58.05673,49.413483,37.544792,29.892712,25.402214,24.00578,23.315632,22.899647,22.604633,22.334766,22.052216,21.912994,21.872017,21.936665,21.97775,21.866974,21.553192,21.075949,20.543274,20.069439,19.755152,19.578323,19.467476,19.35353,19.183064,19.020634,18.921152,18.812073,18.730747,18.722775,18.856861,19.031105,19.175264,19.289436,19.373161,19.451786,19.547327,19.658281,19.825253,20.132126,20.472305,20.733074,20.856113,20.84233,20.752647,20.571056,20.344944,20.20765,20.256,20.557278,21.54782,25.24833,34.730522,46.860497,53.13153,53.77762,53.52588,53.662888,53.710052,54.02433,54.83861,55.14216,55.800396,56.50669,56.757767,56.69381,56.538082,56.232986,55.866135,55.521595,55.130394,54.74202,54.474937,54.47484,54.68154,54.97712,55.27317,55.437164,55.512222,55.60307,55.735634,55.90322,56.007645,55.971092,55.84816,55.68792,55.590897,55.58214,55.617073,55.691566,55.797157
39.855743,40.02322,40.270874,40.539734,40.793507,40.994198,41.121513,41.235733,41.36609,41.525677,41.698753,41.820095,41.87894,41.895123,41.877327,41.857857,41.851395,41.863663,41.90641,41.95482,41.984375,41.945915,41.851917,41.76557,41.71369,41.70761,41.77965,41.94539,42.198364,42.555794,42.941704,43.301853,43.6261,43.903778,44.121067,44.28361,44.41803,44.516422,44.563595,44.55832,44.47239,44.362823,44.270393,44.2036,44.153862,44.0446,43.82012,43.49193,43.071507,42.74156,42.577885,42.55957,42.665833,42.79256,42.95162,43.273994,43.880257,44.891838,46.03204,46.82707,47.393074,47.77533,48.05159,48.250374,48.438805,48.61596,48.773544,48.908916,49.034325,49.149494,49.23853,49.30262,49.319016,49.282593,49.226234,49.16375,49.088257,48.933746,48.519356,47.752296,46.34629,44.94909,44.288307,44.560806,45.658222,47.104733,48.211918,48.785545,49.143143,49.383224,49.51178,49.495316,49.492287,49.716087,50.311752,51.32642,52.461105,53.281918,53.447735,53.334137,53.353348,53.597195,53.702404,53.653137,52.51778,49.1844,44.143356,40.303673,39.920643,41.587944,44.2446,45.93068,47.286476,47.96228,48.246906,48.356697,48.38144,48.287354,47.99792,47.42911,46.641476,45.81357,45.10086,44.599213,44.296856,44.313858,44.563507,44.98603,45.634857,46.405846,47.137516,47.69049,48.038788,48.233826,48.384174,48.57457,48.82625,49.12081,49.463425,49.82823,50.174942,50.49044,50.67948,50.73603,50.70823,50.656067,50.70189,50.834755,50.994057,51.127132,51.205154,51.302994,51.506004,51.84234,52.272335,52.63143,52.823257,52.798927,52.59294,52.321747,52.089165,52.03515,52.22864,52.678333,53.25708,53.798576,54.193634,54.430378,54.57142,54.63285,54.610878,54.328445,53.79593,53.152878,52.69587,52.51621,52.357193,51.892357,50.893524,49.39119,47.600853,46.185997,45.91718,46.758327,48.355904,50.072792,51.741837,52.7106,52.97452,52.872437,52.590538,52.303864,52.134014,52.10417,52.197247,52.341766,52.439148,52.26023,51.815647,51.43672,51.212738,50.860645,49.895477,47.696117,43.95751,38.99388,35.57065,34.12857,34.12199,36.6389,42.189064,48.048565,52.072693,54.087082,55.786697,56.89536,56.706562,57.877937,58.431652,46.892067,28.99775,20.22043,18.99776,19.057636,19.145409,19.202156,19.071196,18.836637,18.674223,18.626053,18.611126,18.567686,18.521984,18.495934,18.48338,18.45684,18.40427,18.325191,18.217175,18.078827,17.945744,17.841833,17.78078,17.762577,17.719942,17.654713,17.587883,17.542263,17.55185,17.617962,17.71998,17.824642,17.913136,17.973457,18.010529,18.03622,18.05981,18.097265,18.155664,18.23248,18.313057,18.37873,18.416906,18.423828,18.422863,18.376574,18.32759,18.259855,18.275518,18.569048,19.382723,24.15477,37.65627,50.125893,53.734856,53.3117,53.166615,53.21876,53.44998,54.34504,54.866867,55.717216,56.644604,56.929832,56.889908,56.777065,56.584206,56.14071,55.658115,55.170254,54.697517,54.352676,54.3182,54.528328,54.838253,55.164886,55.361107,55.461464,55.569214,55.71647,55.897575,56.01384,55.98598,55.86174,55.690872,55.581818,55.560123,55.59671,55.74639,55.86081
39.935215,40.10264,40.35104,40.61669,40.864456,41.05678,41.175095,41.2826,41.40598,41.555706,41.718727,41.834473,41.888676,41.901527,41.880424,41.860397,41.85914,41.87825,41.93336,41.991524,42.0194,41.958588,41.82775,41.703888,41.625202,41.607674,41.681644,41.85927,42.13392,42.51474,42.910843,43.263187,43.565605,43.81373,44.00486,44.147797,44.274075,44.365215,44.40954,44.4132,44.324936,44.21436,44.116894,44.039307,43.971664,43.844955,43.6159,43.293762,42.89398,42.595734,42.4559,42.4552,42.57511,42.716812,42.900158,43.26269,43.92286,44.99139,46.124287,46.86029,47.463615,47.85769,48.14457,48.35118,48.54737,48.731712,48.894882,49.034744,49.167896,49.291058,49.38089,49.4459,49.468933,49.447556,49.408714,49.338455,49.250786,49.075512,48.61783,47.83229,46.453598,45.008293,44.323505,44.618057,45.76255,47.26352,48.273155,48.82937,49.210915,49.469185,49.6069,49.5785,49.56037,49.7914,50.43432,51.55609,52.7801,53.515923,53.642517,53.660034,53.729824,53.989677,54.10656,53.98457,52.79032,49.220158,44.022488,40.18181,39.877842,41.697357,44.314537,46.082943,47.51828,48.22108,48.596134,48.76467,48.811745,48.736446,48.49109,47.931625,47.03486,46.126404,45.333435,44.82128,44.56753,44.489532,44.636444,45.079857,45.793217,46.688095,47.570755,48.243828,48.663902,48.88675,49.041435,49.240997,49.52986,49.887604,50.32091,50.808628,51.28721,51.66237,51.867172,51.917694,51.865025,51.7679,51.68593,51.652122,51.63115,51.577328,51.472176,51.419163,51.518547,51.79883,52.215046,52.58508,52.80101,52.800465,52.603775,52.32811,52.08722,52.046886,52.297554,52.852524,53.547146,54.12802,54.454918,54.59339,54.677193,54.74115,54.704086,54.45235,53.984978,53.34337,52.856106,52.658836,52.462708,51.930473,50.846046,49.268356,47.458782,46.09601,45.89598,46.774727,48.35959,50.146133,51.799187,52.708717,52.96312,52.85556,52.563896,52.271053,52.109238,52.105186,52.247288,52.45662,52.598953,52.317,51.90207,51.544624,51.263607,50.85742,49.853584,47.686394,44.05056,39.121445,35.653046,34.146652,34.102287,36.377716,41.103825,46.90857,51.24418,53.438,55.3874,56.39949,57.35788,58.917725,46.836025,24.2332,17.212563,17.620537,17.615881,17.883812,18.092344,18.118988,18.00089,17.820602,17.68034,17.586624,17.551832,17.542995,17.539354,17.53986,17.542854,17.547642,17.553875,17.538458,17.493092,17.413723,17.315832,17.220901,17.144428,17.088135,17.052843,17.026876,17.015224,17.026527,17.069492,17.13836,17.212296,17.276531,17.335209,17.376791,17.405712,17.428932,17.440538,17.44346,17.451279,17.466423,17.49302,17.529213,17.576221,17.616577,17.63239,17.59283,17.535057,17.37112,17.209694,17.240755,17.681232,19.035498,28.093544,44.99822,53.49189,53.501602,52.975716,52.842033,52.97201,53.855026,54.597046,55.601547,56.69241,56.862076,56.94911,56.88964,56.764153,56.585384,56.07156,55.422928,54.82219,54.372345,54.25611,54.423203,54.717766,55.048622,55.25479,55.36482,55.47908,55.634163,55.81569,55.936996,55.920883,55.803986,55.638634,55.531975,55.51377,55.609554,55.75859,55.541706
