0.97916114,0.97912866,0.97908044,0.9790153,0.9789971,0.97900397,0.9789883,0.9789326,0.97888756,0.97892493,0.9789561,0.9789146,0.9787483,0.9786166,0.97854173,0.9785149,0.9786906,0.9791168,0.97969896,0.98034537,0.9811559,0.98220897,0.98337245,0.9845862,0.9857942,0.98686713,0.98769236,0.9883075,0.9885998,0.98872256,0.9888276,0.988886,0.9887023,0.98827505,0.98755664,0.9865229,0.98483723,0.982756,0.98012805,0.9765619,0.97222245,0.96684027,0.9611695,0.95508265,0.94941807,0.9448229,0.9416874,0.940191,0.94005704,0.9406768,0.9414544,0.94213974,0.94254005,0.9427242,0.94281304,0.9427491,0.942923,0.9433583,0.9442074,0.9453994,0.94690096,0.948756,0.9509748,0.95337856,0.95519036,0.9558208,0.95613396,0.95770997,0.9612632,0.9688473,0.98121214,1.0010524,1.0288451,1.0588081,1.0855889,1.1017759,1.1114023,1.1147431,1.1145797,1.1127613,1.110884,1.1095986,1.1086662,1.1078913,1.1071146,1.1064286,1.105864,1.1054027,1.1050296,1.1047385,1.1045151,1.104393,1.104465,1.1047337,1.1051943,1.1057322,1.106263,1.1067057,1.1070392,1.1073682,1.1077042,1.1080942,1.1085651,1.1090945,1.1094941,1.1098254,1.110136,1.110466,1.1107845,1.1111286,1.1115341,1.1120622,1.1126168,1.1131549,1.1136293,1.1140653,1.1145167,1.1149964,1.1154685,1.1158489,1.1161132,1.1162691,1.1163092,1.1162393,1.1161394,1.1161252,1.1162643,1.1164832,1.1167362,1.1169033,1.1169531,1.1170053,1.1170874,1.11725,1.117569,1.1180477,1.1186,1.1192088,1.1198659,1.1205316,1.1212132,1.1218991,1.122547,1.1231729,1.1238372,1.1245267,1.1252232,1.1258792,1.1264838,1.1270514,1.1275513,1.1278911,1.1280081,1.1279119,1.1276914,1.1274242,1.1271826,1.1269689,1.1267905,1.126617,1.1264416,1.1263177,1.1262871,1.1263605,1.1264827,1.1266024,1.1266615,1.1266475,1.1265358,1.1263461,1.1261132,1.1259011,1.125732,1.1255729,1.1253779,1.1250995,1.1247847,1.1244752,1.124202,1.1239934,1.1238456,1.1237577,1.1237413,1.1237814,1.1238462,1.1239002,1.1239343,1.1239464,1.1239679,1.1240448,1.1241959,1.1244462,1.124753,1.1250436,1.125262,1.1253648,1.1253844,1.1253594,1.1252538,1.1250215,1.124666,1.1242764,1.1239691,1.1237965,1.1237464,1.1237439,1.1237626,1.1237824,1.1237605,1.1236309,1.1234171,1.1231349,1.1228164,1.1224974,1.1221545,1.1218059,1.1215031,1.1211358,1.1206815,1.120148,1.1195363,1.1188889,1.1182613,1.1176355,1.1170228,1.1164396,1.1158955,1.1154747,1.1152401,1.1151878,1.1152885,1.1154854,1.1157277,1.115924,1.1159441,1.1157863,1.1155434,1.11541,1.1154726,1.1156266,1.1158478,1.1161637,1.1166162,1.1171818,1.1177803,1.1182963,1.118719,1.1190687,1.1193398,1.1194938,1.1194785,1.1193445,1.119198,1.1191193,1.1191974,1.119468,1.1198761,1.1203277,1.1206913,1.1207961,1.1204828,1.119555,1.1180297,1.1160494,1.1143101,1.1132659,1.1132476,1.114305,1.1161729,1.118752,1.1215837,1.1242473,1.1265242,1.128485,1.1300666,1.1313014,1.1322441,1.1329348,1.13343,1.1337557,1.1339161,1.1339142,1.1337975,1.1336577,1.1335741,1.1336036,1.1336255,1.1335557,1.1335125,1.1334898,1.1334962,1.1335392,1.1335447,1.1334436,1.1332741,1.1330967,1.1328735,1.1326356,1.1323942,1.1321938,1.131986,1.1318197,1.1316661,1.1315542,1.1314762,1.1314073
0.98717487,0.98701787,0.986799,0.9864942,0.98619115,0.98587716,0.9855093,0.98508966,0.9846783,0.98438346,0.9841125,0.98379725,0.98335445,0.98297954,0.98267615,0.98239243,0.9822792,0.98238236,0.9825898,0.98289484,0.98343635,0.98431116,0.98560154,0.98705125,0.98830414,0.98952246,0.990479,0.9910991,0.9913448,0.99139297,0.99144125,0.9914992,0.9914169,0.9912082,0.99087125,0.9904117,0.98959315,0.9883029,0.98651886,0.98401487,0.9803244,0.97533846,0.96970856,0.9635943,0.95749164,0.9510037,0.9458645,0.9425882,0.9412252,0.94144785,0.9423051,0.94322336,0.9437726,0.944062,0.94421136,0.9442502,0.94427407,0.94452477,0.9451029,0.94593424,0.9471084,0.9487251,0.9508999,0.9531953,0.95528007,0.9563638,0.95653903,0.95727515,0.95873904,0.9628856,0.9710752,0.9851471,1.007553,1.0369148,1.0670167,1.0913745,1.1063023,1.1133882,1.1156728,1.115077,1.1136588,1.1122907,1.1109757,1.1097724,1.108633,1.10765,1.106838,1.1061642,1.1056094,1.1051764,1.1048222,1.104565,1.1044908,1.1045978,1.1048925,1.1052666,1.1056547,1.1060594,1.1064582,1.1067996,1.1071477,1.1075753,1.1080383,1.1085007,1.1087809,1.1089469,1.1090678,1.1091957,1.1092968,1.1094127,1.1095989,1.1099324,1.110342,1.1107619,1.111129,1.1114695,1.1118338,1.1122352,1.1126211,1.1128954,1.11303,1.1130357,1.1129223,1.1126947,1.1124371,1.1122649,1.1122553,1.1123317,1.1124356,1.1124659,1.1123989,1.1123025,1.1122792,1.1123768,1.1126679,1.1131686,1.1138017,1.1145526,1.1154659,1.1164534,1.1174332,1.118341,1.1191037,1.1197476,1.1203681,1.1209888,1.1216393,1.1222544,1.1228095,1.1233339,1.1238037,1.124136,1.1242821,1.1242654,1.124176,1.1240809,1.124033,1.1240317,1.1240805,1.124095,1.1241057,1.1241746,1.1243583,1.1246717,1.1250503,1.1254139,1.125668,1.1257867,1.125751,1.125605,1.1254041,1.1252093,1.1250455,1.1248953,1.1247288,1.1245166,1.1242948,1.1240947,1.1239122,1.1237156,1.1235843,1.123512,1.1235076,1.1235614,1.1236513,1.1237582,1.1238749,1.1239961,1.1241152,1.1242602,1.1244457,1.1246846,1.1249342,1.1251333,1.1252332,1.1252055,1.1250892,1.1249381,1.1247549,1.1245123,1.1242073,1.1238911,1.1236396,1.123485,1.1234128,1.123359,1.123301,1.1232417,1.1231616,1.1230006,1.1227542,1.1224052,1.1220136,1.121659,1.1213577,1.1211147,1.120894,1.120615,1.1202158,1.1197445,1.1191828,1.1185532,1.1179056,1.1172419,1.1165377,1.1157733,1.114948,1.1141376,1.1134133,1.1128428,1.1124847,1.112278,1.1121602,1.1120356,1.1117942,1.111434,1.1110332,1.110713,1.1105268,1.1104305,1.1103886,1.1103804,1.1104101,1.1104672,1.1104617,1.1103685,1.1102182,1.1100416,1.1098241,1.1095207,1.1091454,1.1087217,1.1082706,1.107884,1.1076546,1.1076274,1.1077678,1.1080177,1.1082739,1.1083829,1.1081886,1.1075284,1.1063507,1.1048799,1.103657,1.1030328,1.1032372,1.1043762,1.1062846,1.1087873,1.1114682,1.1140188,1.1162467,1.1181952,1.1199703,1.1216023,1.123019,1.1241887,1.1251317,1.1258422,1.1263019,1.1266024,1.1268398,1.1270881,1.1273983,1.1277349,1.1280564,1.1283854,1.1287308,1.1290989,1.1294824,1.1297617,1.1299487,1.1300575,1.1301124,1.1301663,1.1301706,1.1301488,1.1300919,1.1300335,1.129931,1.1298251,1.1297054,1.1296058,1.1295311,1.1294645
0.99951637,0.99921465,0.9988109,0.998248,0.99763215,0.99696326,0.99620306,0.9953712,0.99454343,0.9938417,0.9931712,0.99247193,0.9916364,0.9908347,0.99005383,0.9892415,0.9885298,0.98801094,0.98762643,0.98737526,0.9873852,0.9877981,0.98864573,0.989733,0.99104345,0.9923539,0.99327344,0.99388075,0.9941535,0.994238,0.99434763,0.9944675,0.9944701,0.99434805,0.99416757,0.9939561,0.9936371,0.99309194,0.99190617,0.990337,0.98782337,0.984275,0.97924244,0.9728501,0.9664532,0.9590502,0.9519912,0.9467065,0.9437575,0.94297653,0.9437682,0.94492435,0.9455619,0.9459377,0.946103,0.94611335,0.9461289,0.94619423,0.9465469,0.947108,0.948014,0.9493829,0.9513825,0.9535235,0.9555037,0.9569397,0.95763904,0.95808053,0.95888484,0.9602135,0.9644834,0.97408426,0.98967385,1.0150955,1.045011,1.0749941,1.0968703,1.1092381,1.1149681,1.1164304,1.1159263,1.1145973,1.1128786,1.1111875,1.1096632,1.1084037,1.1073933,1.106559,1.1058862,1.1053824,1.1049919,1.1047044,1.1045809,1.1046004,1.1047621,1.104984,1.1052277,1.1055119,1.105851,1.1061453,1.1064236,1.1067896,1.1072216,1.1076481,1.1078734,1.107979,1.1079632,1.1079223,1.1078627,1.1078148,1.1078362,1.108017,1.1082995,1.1086128,1.1088822,1.1091387,1.1094519,1.1098197,1.1101552,1.1103556,1.1103878,1.1102667,1.1100502,1.1097394,1.1093853,1.1090901,1.1089249,1.1088297,1.1088104,1.1087129,1.1084967,1.1082921,1.1082172,1.1083064,1.1086118,1.1091468,1.1098683,1.1108501,1.112011,1.1132036,1.1143548,1.1153834,1.1162094,1.116805,1.1173337,1.1178737,1.118403,1.1188848,1.1192867,1.1196368,1.1200054,1.1203462,1.1206248,1.1207963,1.1209217,1.121019,1.1211365,1.1212898,1.1214677,1.1216167,1.1217593,1.1219373,1.1221871,1.1225141,1.1228787,1.1232344,1.1235285,1.123738,1.123827,1.1238203,1.123754,1.1236794,1.1236191,1.1235623,1.1234972,1.1234084,1.1233236,1.1232519,1.123191,1.1231534,1.1231375,1.1231432,1.1231768,1.1232355,1.1233125,1.123405,1.1235108,1.1236253,1.1237588,1.1239262,1.124126,1.1243683,1.1246209,1.1248429,1.1249955,1.1250428,1.1250069,1.1249253,1.1247988,1.12462,1.1243663,1.1240654,1.1238301,1.1236863,1.1236138,1.1235397,1.1234472,1.1233401,1.1232026,1.1229904,1.1226982,1.122308,1.121867,1.1214471,1.1210699,1.120753,1.120478,1.1202121,1.1199025,1.1195159,1.1190357,1.1184889,1.1179419,1.1174293,1.1169367,1.1164418,1.1159306,1.1151863,1.1144156,1.1137209,1.1131699,1.1127717,1.1124797,1.1122046,1.1118431,1.1113961,1.1109459,1.1105773,1.1103288,1.1101652,1.1100395,1.1098944,1.1096997,1.1094413,1.1090863,1.108649,1.108157,1.1076689,1.1071829,1.1066446,1.1060061,1.1052814,1.1045272,1.1037917,1.1031556,1.102712,1.102432,1.1022762,1.1021441,1.1018612,1.1013448,1.1005495,1.0995245,1.0984082,1.0975899,1.0973072,1.0976685,1.0987191,1.1003613,1.1024551,1.1046479,1.1066762,1.1084304,1.109988,1.1115124,1.113075,1.1145968,1.1159806,1.117191,1.1181691,1.1188786,1.1194507,1.1199863,1.1205313,1.1211236,1.1217356,1.1222856,1.1228156,1.1233678,1.1239734,1.1246381,1.1252822,1.1258546,1.1263201,1.1267045,1.1270648,1.1273491,1.127522,1.1276252,1.1276848,1.1276653,1.127598,1.1274924,1.1273882,1.1273062,1.1272374
1.0141243,1.0138276,1.0134356,1.0128846,1.0122576,1.0115517,1.0106366,1.0095894,1.0084207,1.0073643,1.0063124,1.0052098,1.0039368,1.0026358,1.0012766,0.9998102,0.9983584,0.99702525,0.9957839,0.99467,0.9937871,0.9933085,0.99331695,0.9936256,0.9942292,0.9950844,0.9960022,0.9966273,0.9968653,0.99707735,0.99740595,0.997743,0.99794376,0.9979602,0.9979048,0.9978136,0.9976615,0.9973961,0.99682164,0.99594045,0.99430776,0.9921793,0.9888796,0.9835315,0.97660875,0.96850574,0.9600963,0.9527729,0.94786775,0.94565123,0.945613,0.94694567,0.94783753,0.9483084,0.9485394,0.94856966,0.9484836,0.94851434,0.9486938,0.9490541,0.9497427,0.9508477,0.9525287,0.9544202,0.9562806,0.95770633,0.9590479,0.9599451,0.96037185,0.9607869,0.96188617,0.96729803,0.9777185,0.99612796,1.0227536,1.0533152,1.0830076,1.1017638,1.1123586,1.1167603,1.1177362,1.1166589,1.1146061,1.1124747,1.110657,1.1092453,1.1081554,1.1072726,1.1065854,1.1061122,1.1057968,1.1055863,1.1055129,1.1055299,1.1056274,1.1057494,1.1058766,1.1060407,1.1062539,1.106498,1.1067649,1.107014,1.1072774,1.1075222,1.107559,1.1074953,1.107404,1.1073437,1.1072683,1.1071926,1.1071641,1.1072786,1.1074443,1.107644,1.1078672,1.1080911,1.1083283,1.1085923,1.1088393,1.1089644,1.1089461,1.108804,1.1085656,1.1082234,1.1078265,1.1074548,1.107177,1.1069381,1.1067183,1.1064196,1.1060386,1.1057212,1.1055925,1.1056643,1.1059691,1.1065178,1.1073472,1.1084845,1.1098158,1.111167,1.1124308,1.1135261,1.1143315,1.1148225,1.115124,1.1153367,1.1156111,1.115879,1.1161455,1.1164452,1.1167806,1.1171137,1.1174142,1.1176759,1.1179276,1.118181,1.1184435,1.1187019,1.1189364,1.1191237,1.1192663,1.119411,1.1195979,1.1198447,1.1201475,1.120477,1.1207724,1.1210175,1.1211712,1.1212521,1.1212888,1.1213269,1.1213902,1.1214594,1.1215217,1.1215649,1.1216171,1.1216905,1.1217761,1.1218858,1.122006,1.1221266,1.122248,1.1223662,1.1224871,1.1226239,1.1227806,1.1229551,1.1231468,1.1233604,1.1235874,1.1238362,1.1240898,1.124316,1.124485,1.1245604,1.124553,1.1244991,1.124402,1.1242566,1.124063,1.1238527,1.1236753,1.1235504,1.1234682,1.1233904,1.1233025,1.1232067,1.1230886,1.1229184,1.1226928,1.1223972,1.1220514,1.121681,1.121294,1.1209104,1.120532,1.1201603,1.119766,1.1193151,1.1187942,1.1182201,1.1176517,1.1171306,1.1166457,1.1161921,1.1157498,1.1153164,1.1149133,1.1145767,1.1143225,1.1140374,1.1138062,1.1136024,1.113322,1.1129491,1.1125349,1.1121943,1.112001,1.1119287,1.111918,1.1118735,1.1117219,1.1114311,1.1109741,1.1104066,1.1097876,1.1092091,1.1086779,1.1081167,1.1074514,1.1066647,1.1057884,1.1049594,1.1042638,1.103665,1.1031473,1.1026537,1.102114,1.1014076,1.1004951,1.0993383,1.0981059,1.0969931,1.0963111,1.0960743,1.0963051,1.0970352,1.0982252,1.0997627,1.101336,1.1026835,1.1037331,1.1046066,1.1055275,1.1066425,1.1079096,1.1092017,1.1104472,1.1115334,1.1124122,1.1132126,1.1140158,1.1148238,1.1156456,1.1164291,1.1170802,1.1176667,1.1182625,1.1189317,1.1197054,1.1205655,1.1213912,1.1221042,1.1227493,1.1233759,1.1238661,1.1242628,1.1245596,1.124774,1.1248564,1.124822,1.1246881,1.1245121,1.1243358,1.1242003
1.0284561,1.028223,1.0279117,1.0274546,1.0269085,1.0262929,1.0255315,1.0246289,1.0236437,1.0226407,1.0215502,1.0203373,1.0189036,1.0173917,1.0157967,1.0140862,1.0122148,1.0101972,1.008177,1.006238,1.0044057,1.0028706,1.0016946,1.0007918,1.0002244,1.0000451,1.0001154,1.0002786,1.0005698,1.0010276,1.0015745,1.002069,1.0024561,1.0026389,1.0027332,1.0027499,1.0026946,1.0024472,1.0019765,1.0014561,1.0007313,0.9999452,0.9982197,0.9948511,0.9892111,0.9806175,0.9707713,0.96139395,0.95439756,0.9502562,0.94888484,0.94974387,0.9510156,0.95158124,0.9518974,0.9520247,0.9518933,0.9518292,0.9519763,0.9521835,0.95266986,0.95350206,0.95480037,0.9564096,0.9581734,0.9597012,0.96117675,0.96290547,0.96377206,0.9635614,0.9634596,0.9651071,0.9706569,0.98280644,1.0029223,1.0313563,1.0632106,1.0912967,1.1080043,1.1161771,1.1194134,1.1190536,1.1169326,1.1145155,1.1125386,1.1111246,1.1100988,1.109293,1.1086764,1.108284,1.1080668,1.1079423,1.10792,1.1079345,1.10797,1.1079894,1.107981,1.1079843,1.1080105,1.1080558,1.1081305,1.1082423,1.1083741,1.1084526,1.108286,1.1080637,1.1078691,1.107754,1.107708,1.1076831,1.1076994,1.1078401,1.108002,1.1081469,1.1082473,1.10832,1.1084005,1.1085119,1.1086419,1.1087103,1.1087041,1.1086233,1.1084704,1.1082318,1.1079404,1.1075574,1.1071708,1.1067591,1.1063261,1.105818,1.1052697,1.104837,1.1046423,1.1046755,1.1049553,1.1055124,1.1063147,1.1075406,1.1090367,1.1105354,1.1119162,1.1128495,1.1134541,1.1137776,1.1139134,1.114006,1.1141515,1.1143172,1.1145004,1.1147394,1.1150426,1.1153822,1.1157231,1.1160504,1.1163781,1.1167068,1.117039,1.1173606,1.1176379,1.1178436,1.1179731,1.1180744,1.1181908,1.1183422,1.1185265,1.1187284,1.1189467,1.1191709,1.1193575,1.1195076,1.1196332,1.1197639,1.1199139,1.1200556,1.1202141,1.1203982,1.1205945,1.1208138,1.1210437,1.1212921,1.1215422,1.12177,1.121973,1.1221431,1.1222979,1.122462,1.122649,1.1228604,1.1230867,1.1233246,1.1235611,1.1238016,1.1240456,1.1242694,1.1244538,1.1245613,1.1245952,1.1245878,1.124542,1.1244538,1.1243289,1.1241913,1.124082,1.1240115,1.1239662,1.123916,1.123851,1.1237817,1.1236975,1.1235731,1.1234068,1.1231782,1.1229004,1.1225793,1.1222159,1.1218245,1.1214169,1.1209997,1.1205484,1.1200217,1.1194124,1.1187451,1.1180899,1.1175041,1.1169796,1.1165249,1.1161187,1.1157508,1.1154184,1.1151397,1.114936,1.114805,1.1147232,1.1146386,1.1144872,1.1142621,1.1140012,1.1138022,1.1137391,1.113812,1.1139795,1.1141459,1.1142366,1.1142079,1.1140426,1.1137271,1.113289,1.1128473,1.1124443,1.1120372,1.1115301,1.1108973,1.1101646,1.1094142,1.1087275,1.1081297,1.1075777,1.106991,1.1062142,1.1051197,1.1036768,1.1020055,1.1003897,1.0990808,1.0982883,1.0980191,1.0980945,1.0984007,1.0989652,1.0998777,1.100781,1.1013983,1.1016645,1.1017318,1.1018708,1.102317,1.1030898,1.1040719,1.1051731,1.1062429,1.1072221,1.108217,1.109266,1.1103092,1.1113253,1.1122355,1.1129386,1.1135278,1.1141063,1.11478,1.1155939,1.1165289,1.1174543,1.1182907,1.1190771,1.1198494,1.1205422,1.1211345,1.1215926,1.1219306,1.1220869,1.122041,1.1218402,1.1216077,1.1214383,1.1213334
1.0402637,1.0402331,1.0401571,1.0399665,1.039695,1.0393641,1.0388746,1.0382452,1.0375202,1.0367377,1.0358267,1.0347412,1.0334029,1.0319462,1.0303652,1.0286095,1.0267482,1.0248468,1.0229232,1.0209672,1.0186503,1.0163774,1.0141025,1.011903,1.0099176,1.0082954,1.0069401,1.005881,1.0052698,1.0052162,1.005805,1.006536,1.006977,1.0072346,1.0074637,1.0076207,1.0077164,1.0075505,1.0071926,1.0068607,1.0066295,1.0067168,1.0063512,1.0045276,1.0006734,0.9936856,0.9833307,0.97183764,0.9623811,0.95593965,0.9527681,0.95237774,0.95347446,0.9544265,0.95489144,0.95520824,0.95516396,0.9550818,0.95512164,0.9552592,0.9555294,0.9560981,0.95709497,0.9584025,0.95996153,0.9615876,0.9634011,0.96520936,0.96693945,0.9668633,0.96630454,0.9663408,0.9680103,0.97479594,0.9882216,1.0107286,1.0409161,1.0734428,1.0989752,1.1126194,1.1189568,1.1200461,1.1183287,1.1158947,1.1139686,1.1127408,1.1119399,1.1113331,1.1108158,1.110468,1.1102526,1.1100905,1.1100063,1.1099315,1.1098495,1.1097288,1.109546,1.109338,1.1091092,1.1088877,1.108702,1.1085728,1.1084857,1.1084155,1.1081984,1.1079502,1.107848,1.1078541,1.1078727,1.107902,1.1079419,1.1080537,1.1081635,1.1082184,1.1081953,1.1081238,1.1080546,1.1080296,1.1080713,1.1081108,1.108139,1.1081429,1.1080768,1.1079079,1.1076431,1.1072712,1.106801,1.1062541,1.1056447,1.1049596,1.1042756,1.1037434,1.1034783,1.1034545,1.1036808,1.1042204,1.1050365,1.1062298,1.1078622,1.1095674,1.1110559,1.111997,1.1126037,1.1129303,1.1131117,1.1132445,1.1133313,1.1134553,1.1136041,1.1138127,1.1140945,1.1144251,1.1147722,1.1151179,1.115467,1.1158184,1.116172,1.1165158,1.1168087,1.1170197,1.1171408,1.1172218,1.1173062,1.1174142,1.1175437,1.117685,1.1178522,1.118049,1.1182437,1.1184356,1.1186292,1.11884,1.1190803,1.1193212,1.1195494,1.1197968,1.1200786,1.120382,1.1206933,1.1210206,1.1213453,1.1216378,1.1218944,1.1220965,1.1222525,1.1224091,1.1226103,1.1228559,1.123125,1.1234059,1.1236763,1.1239294,1.1241767,1.1244049,1.1246059,1.1247424,1.1248181,1.1248587,1.1248665,1.12484,1.1247854,1.1247182,1.1246715,1.1246476,1.1246322,1.1246042,1.1245573,1.1245075,1.1244469,1.1243564,1.124234,1.1240638,1.1238542,1.1235951,1.1232793,1.1229166,1.1225183,1.1220922,1.1216166,1.1210454,1.1203816,1.1196556,1.1189444,1.11831,1.1177456,1.1172713,1.1168714,1.11653,1.1162338,1.1159856,1.115799,1.1156683,1.1155713,1.1154587,1.1152673,1.1149935,1.1146797,1.1144323,1.1143391,1.1144061,1.1145915,1.1147867,1.1149106,1.1148984,1.114722,1.1144564,1.1141589,1.1139145,1.1136656,1.1133921,1.1130238,1.1125405,1.1119828,1.1114762,1.1111101,1.1108689,1.1106207,1.1102321,1.1095195,1.1083314,1.1066556,1.1047242,1.10287,1.1013758,1.1005044,1.1001856,1.1001117,1.1001415,1.1002591,1.1005532,1.1009452,1.1011021,1.1008472,1.1003234,1.0998,1.09959,1.0997995,1.1003613,1.1012099,1.102183,1.1032081,1.1043456,1.105578,1.106785,1.1079193,1.108897,1.109617,1.1101868,1.1107322,1.1113858,1.1122073,1.1131821,1.1141721,1.1151048,1.1160054,1.1168971,1.1177034,1.1183921,1.1189382,1.1193637,1.1196135,1.119658,1.1195431,1.1193959,1.1193101,1.1192896
1.0492373,1.0494823,1.0497148,1.0498621,1.0499458,1.0499823,1.0498614,1.0496182,1.0492914,1.0488966,1.0483571,1.0476273,1.0466517,1.0455687,1.0443693,1.0429922,1.041476,1.0398502,1.0381234,1.0363092,1.0343075,1.0322068,1.029677,1.0267909,1.0237927,1.0208548,1.0178311,1.0150311,1.0128286,1.0114598,1.0110714,1.0112094,1.0115621,1.0119431,1.0122261,1.0124934,1.0127878,1.0128297,1.0126798,1.0125151,1.0125782,1.0130668,1.0135305,1.0131443,1.0108223,1.0057304,0.99700135,0.9845985,0.9721756,0.96293914,0.9574689,0.9553138,0.95549953,0.9564903,0.9574701,0.95807076,0.9582453,0.9582575,0.95821524,0.95820963,0.9583577,0.9587181,0.95942473,0.9604286,0.961783,0.9634123,0.96534693,0.9672781,0.969254,0.97009987,0.96955585,0.9689937,0.9686256,0.9709898,0.97856784,0.9948778,1.019973,1.0523639,1.0842483,1.105434,1.1158112,1.1190424,1.1182474,1.1160406,1.1142579,1.1132405,1.1126738,1.1122802,1.1118402,1.1114854,1.1111836,1.1108937,1.1106813,1.110496,1.1103169,1.1101041,1.1098076,1.1094521,1.1090322,1.1086094,1.1082301,1.1079506,1.1078129,1.1077954,1.1076837,1.1075988,1.1075627,1.1075882,1.1076155,1.1076468,1.1076933,1.1077886,1.1078671,1.1078901,1.1078115,1.1076641,1.1075151,1.10742,1.1074303,1.107479,1.107557,1.1076369,1.1076218,1.1074762,1.1072013,1.1067579,1.106241,1.1056306,1.1049404,1.1041857,1.1034734,1.1029311,1.1026614,1.1026225,1.1028149,1.1033304,1.1041682,1.1053596,1.1069903,1.1088552,1.1104319,1.1115092,1.1122236,1.1126236,1.1128535,1.113039,1.1131649,1.1133049,1.1134716,1.1136878,1.1139705,1.1142979,1.114643,1.1149926,1.115349,1.1157115,1.1160802,1.1164427,1.1167583,1.1169934,1.1171417,1.1172515,1.1173662,1.1175051,1.1176544,1.117804,1.1179712,1.118172,1.1183898,1.1186254,1.1188757,1.1191435,1.1194363,1.1197257,1.120003,1.1203077,1.1206142,1.1209309,1.1212516,1.1215837,1.1219108,1.1222076,1.1224642,1.122656,1.1228101,1.1229756,1.1231813,1.1234361,1.1237177,1.1240146,1.1243002,1.1245753,1.1248436,1.1250787,1.1252882,1.1254405,1.1255417,1.1256155,1.1256624,1.1256844,1.1256839,1.1256692,1.1256654,1.1256697,1.125668,1.1256464,1.1256015,1.1255479,1.1254797,1.1253864,1.1252679,1.125117,1.1249403,1.1247194,1.1244438,1.1241136,1.1237414,1.1233315,1.1228644,1.1222943,1.1216288,1.1209017,1.1201872,1.1195397,1.1189554,1.118459,1.1180465,1.117705,1.1174146,1.1171738,1.1169846,1.1168395,1.1167068,1.1165407,1.1162802,1.1159241,1.115523,1.1151866,1.1150091,1.1150042,1.1151307,1.1152775,1.1153656,1.1153128,1.1150854,1.1147507,1.1143837,1.1140933,1.1138849,1.1136358,1.113247,1.1127124,1.1121078,1.1116163,1.1113722,1.1113553,1.1114113,1.1113163,1.1109024,1.1099432,1.1083379,1.1062326,1.1041813,1.1026504,1.1018345,1.1014884,1.1011784,1.1007903,1.1007447,1.1008885,1.1010123,1.1008854,1.1004195,1.0996158,1.0986812,1.0979714,1.0976974,1.0978688,1.0984714,1.0993457,1.1003984,1.1016493,1.1030226,1.104345,1.105551,1.1065608,1.1072843,1.1078408,1.1083641,1.1089988,1.1098139,1.110801,1.1118166,1.1127973,1.1137595,1.1147081,1.1155577,1.1162684,1.1168354,1.1172951,1.1176,1.1177127,1.1176721,1.1176093,1.1176062,1.1176585
1.0564344,1.0569509,1.0574751,1.0579206,1.0583124,1.0586537,1.0588381,1.0589166,1.0589418,1.0589161,1.0587618,1.058445,1.0579356,1.0573809,1.0567684,1.0560246,1.0551505,1.0541446,1.0529783,1.0516198,1.0499605,1.0480909,1.045957,1.043557,1.0405931,1.0367754,1.0325501,1.0282669,1.0241921,1.0207615,1.0185673,1.017266,1.016535,1.0163807,1.0167677,1.0171247,1.0175879,1.0179622,1.018182,1.0183339,1.0187061,1.0194063,1.0203519,1.0210356,1.0199914,1.0168257,1.0100086,0.9988694,0.9850906,0.9722676,0.9635905,0.95900667,0.95755345,0.95820516,0.9593185,0.96052754,0.96103114,0.96125203,0.961237,0.96115243,0.9611801,0.9613776,0.96181643,0.962572,0.96370405,0.9652157,0.9670795,0.96887815,0.9708946,0.9723723,0.9729421,0.9722854,0.9714901,0.9713409,0.9743824,0.9842868,1.0029585,1.0311849,1.0638165,1.09267,1.1093893,1.1155,1.1162145,1.1144581,1.1127627,1.1117481,1.1112232,1.1108854,1.1104033,1.1099336,1.1094522,1.1089804,1.1086422,1.1084023,1.108234,1.1080754,1.1078343,1.1075149,1.1071289,1.106773,1.1064587,1.1062498,1.1061585,1.1061664,1.1061118,1.1061207,1.1062069,1.1063452,1.1064482,1.1065361,1.1066501,1.106848,1.1069937,1.1070566,1.107067,1.1070204,1.106931,1.1068916,1.1069677,1.1070797,1.1072084,1.1073202,1.1072865,1.1070887,1.1067436,1.1062591,1.105727,1.105133,1.1044853,1.1038198,1.1032453,1.102833,1.1026675,1.102681,1.10285,1.103301,1.1040593,1.1052035,1.1066837,1.1085224,1.1101701,1.1113789,1.1122293,1.1127393,1.1130118,1.1132188,1.1134086,1.1136144,1.1138334,1.1140807,1.1143792,1.1147087,1.1150538,1.115411,1.1157846,1.1161733,1.1165738,1.1169736,1.1173347,1.1176255,1.1178427,1.118031,1.1182305,1.1184546,1.118674,1.1188753,1.1190753,1.1193001,1.1195527,1.1198373,1.1201447,1.1204611,1.1207913,1.1211045,1.1214278,1.1217421,1.1220387,1.1223278,1.12261,1.1228895,1.1231551,1.1233917,1.1235948,1.1237624,1.123915,1.1240706,1.1242516,1.1244754,1.1247351,1.1250271,1.1253223,1.1256068,1.1258719,1.126106,1.1263092,1.1264533,1.1265547,1.1266334,1.1266925,1.1267344,1.1267588,1.1267695,1.1267848,1.1267996,1.1268038,1.1267862,1.1267399,1.1266705,1.1265695,1.1264342,1.1262697,1.1260822,1.1258796,1.1256448,1.1253692,1.1250492,1.1246945,1.1243098,1.1238787,1.1233635,1.1227727,1.1221328,1.1215,1.1209124,1.1203632,1.1198847,1.1194868,1.1191678,1.1189094,1.1187079,1.118551,1.118423,1.1182816,1.1180795,1.1177664,1.1173456,1.1168754,1.116462,1.1162008,1.1161113,1.1161518,1.1162162,1.1162312,1.1161017,1.1157937,1.1153679,1.1149099,1.1145406,1.1142557,1.1139147,1.1134107,1.1127398,1.1119365,1.111269,1.1109416,1.1109487,1.1111476,1.1112866,1.1110861,1.1103976,1.1089468,1.1069291,1.1048207,1.1031225,1.1023327,1.1020672,1.1016681,1.1012405,1.1007187,1.1005769,1.100559,1.1004555,1.1000359,1.0993109,1.098356,1.0973859,1.0968025,1.0967249,1.0971766,1.0980043,1.0990905,1.1004286,1.1018972,1.1032757,1.1045125,1.1055431,1.1062858,1.10686,1.1073968,1.1080413,1.1088597,1.1098446,1.1108487,1.1118121,1.1127493,1.1136503,1.1144252,1.1150402,1.1155102,1.1158899,1.116137,1.1162188,1.1161733,1.1161273,1.1161432,1.1162071
1.0627947,1.0635216,1.0642638,1.0649173,1.0655203,1.066055,1.0664306,1.0666943,1.0669329,1.0671433,1.0672536,1.0672474,1.0671133,1.0670173,1.0669518,1.0668275,1.0666134,1.0662913,1.0657761,1.0649959,1.0639005,1.0625648,1.0609783,1.0590189,1.056511,1.0535145,1.0493488,1.0439345,1.0383946,1.0332073,1.028857,1.0255525,1.0231091,1.0216396,1.0210419,1.0214188,1.0220549,1.0227532,1.023415,1.0240021,1.0247159,1.0255699,1.0267727,1.0281084,1.0283873,1.0269701,1.0223703,1.0135853,1.0003273,0.98490655,0.97227,0.96421146,0.9605744,0.95982635,0.96106005,0.96250963,0.9636011,0.9640304,0.96411765,0.96407175,0.9639535,0.96401274,0.964265,0.9647802,0.965648,0.9669106,0.9685705,0.97029936,0.97221166,0.9739816,0.9755713,0.9761416,0.97517407,0.9740689,0.9741434,0.97893924,0.9905863,1.012337,1.0421665,1.0737655,1.0984409,1.1094792,1.1123719,1.1114833,1.1097821,1.1083387,1.1073716,1.1067884,1.1062474,1.1057664,1.105252,1.1047528,1.1044619,1.1043978,1.1045041,1.1047341,1.1048511,1.1048167,1.1046327,1.1044116,1.10421,1.104122,1.1041701,1.104317,1.1044116,1.1045886,1.1048605,1.1051364,1.1053137,1.1054512,1.1056108,1.1058686,1.1061034,1.1062573,1.106367,1.1064485,1.106518,1.106625,1.1068207,1.1070198,1.1071815,1.1072774,1.1071789,1.1068912,1.1064488,1.1058947,1.1053312,1.1047173,1.1041249,1.1036386,1.1033274,1.1031321,1.1031718,1.1033287,1.1034995,1.1038742,1.1044862,1.1054378,1.1067725,1.1084063,1.1100894,1.1113217,1.1122248,1.1128209,1.113211,1.1135155,1.1137865,1.1140599,1.1143425,1.1146376,1.1149653,1.1153047,1.1156518,1.1160161,1.1164036,1.1168145,1.1172402,1.1176708,1.1180745,1.1184208,1.1187079,1.1189775,1.1192594,1.1195661,1.1198562,1.1201105,1.1203442,1.1205914,1.1208715,1.1211934,1.1215484,1.1219099,1.1222756,1.1226147,1.1229517,1.1232618,1.1235392,1.1237918,1.1240284,1.1242498,1.1244504,1.124623,1.1247642,1.124881,1.1249914,1.1251125,1.1252649,1.125469,1.1257232,1.1260223,1.1263332,1.1266322,1.126899,1.1271237,1.127311,1.1274382,1.1275288,1.1275963,1.1276441,1.1276793,1.1277024,1.1277132,1.1277294,1.1277502,1.1277652,1.1277554,1.1277049,1.1276081,1.1274593,1.1272635,1.1270314,1.1267822,1.1265242,1.126245,1.125941,1.1256099,1.125263,1.1249073,1.1245289,1.1240997,1.1236196,1.1231024,1.1225829,1.1220796,1.1215892,1.1211486,1.1207861,1.1205084,1.120297,1.120152,1.120045,1.1199539,1.1198292,1.1196189,1.1192857,1.1188338,1.1183273,1.117865,1.1175413,1.1173809,1.1173425,1.1173267,1.1172595,1.1170354,1.1166264,1.1160964,1.1155403,1.1150887,1.1147217,1.1142805,1.1136429,1.1127797,1.1117153,1.1108173,1.1103158,1.1102343,1.1104466,1.1107733,1.1108384,1.1102997,1.1090341,1.1070521,1.1048512,1.103046,1.1022315,1.1020813,1.1016774,1.1012554,1.1006491,1.1001006,1.1000028,1.0999941,1.099809,1.0992974,1.0983689,1.0973418,1.0966249,1.0964375,1.0968416,1.0976379,1.0987525,1.1001375,1.1016383,1.1029688,1.1042128,1.105365,1.1062665,1.1069412,1.1075435,1.1082314,1.1090636,1.1100444,1.1110067,1.1118671,1.1126819,1.1134377,1.1140676,1.1145546,1.114925,1.1151953,1.1153257,1.1153264,1.1152312,1.1151528,1.1151441,1.1151787
1.0684757,1.0693012,1.0701431,1.0708969,1.0716035,1.0722281,1.0726819,1.072984,1.073277,1.0735637,1.0737791,1.0739198,1.0739845,1.0741496,1.0744188,1.0746975,1.0749449,1.0751371,1.0751486,1.0748936,1.0743717,1.0736642,1.0728432,1.0717094,1.0701432,1.0679402,1.0647116,1.0603874,1.0544529,1.0479803,1.0420178,1.0366511,1.0319483,1.0283935,1.0260578,1.0252893,1.0260135,1.026932,1.0279866,1.0290763,1.0302403,1.0313787,1.0329108,1.0348129,1.0361722,1.0361695,1.0337098,1.0272819,1.0160329,1.0003029,0.98432064,0.97213054,0.9652313,0.9625181,0.9628651,0.96426666,0.9655678,0.96648455,0.9667717,0.96682703,0.9666789,0.9666617,0.96681213,0.9671308,0.96771455,0.96863973,0.96995604,0.9714649,0.9732338,0.97507083,0.9771719,0.9787657,0.9791059,0.97754484,0.9767463,0.9781388,0.98436075,0.9991504,1.0229589,1.0534073,1.081748,1.0999252,1.1066471,1.1071887,1.1057142,1.103702,1.1015731,1.1001984,1.0995524,1.0994105,1.0993204,1.0992484,1.0994523,1.1001272,1.1009364,1.1016871,1.102262,1.1026821,1.1028855,1.1028951,1.1028459,1.1028793,1.1030347,1.1033154,1.1035347,1.1038072,1.1041477,1.1044741,1.1047183,1.10489,1.1050737,1.105339,1.1055996,1.105883,1.1061271,1.1063409,1.1065223,1.1067238,1.1069889,1.1072214,1.1073914,1.1074622,1.1073315,1.1070166,1.106537,1.1059544,1.1052952,1.1046054,1.1040248,1.1035433,1.1032715,1.103234,1.1034174,1.1037211,1.1040745,1.1045854,1.1052041,1.1059256,1.1069782,1.1083138,1.1099019,1.1111959,1.112176,1.1128461,1.1132903,1.1136299,1.1139319,1.1142485,1.1145892,1.1149402,1.1153075,1.1156604,1.1160071,1.1163671,1.1167506,1.1171584,1.1175795,1.118007,1.118418,1.1187856,1.1191067,1.1194148,1.119731,1.1200655,1.1203749,1.1206374,1.1208676,1.1211028,1.1213751,1.1217024,1.1220808,1.1224751,1.1228757,1.1232467,1.1235813,1.1238838,1.1241422,1.1243665,1.1245735,1.1247637,1.1249331,1.1250727,1.125176,1.1252537,1.125327,1.1254151,1.1255406,1.1257281,1.125978,1.1262803,1.1265967,1.1268938,1.1271486,1.1273582,1.1275337,1.1276556,1.1277448,1.1278074,1.1278443,1.127862,1.1278617,1.1278424,1.1278389,1.127882,1.1279428,1.1279764,1.1279378,1.1278278,1.1276506,1.1274208,1.1271551,1.1268729,1.1265788,1.1262639,1.1259286,1.1255739,1.1252196,1.124879,1.1245432,1.1241829,1.1237882,1.1233613,1.1229169,1.1224642,1.1220086,1.1215961,1.121269,1.1210365,1.1208743,1.1207824,1.1207185,1.1206578,1.1205531,1.1203496,1.1200192,1.119565,1.119052,1.1185727,1.1182175,1.118017,1.1179316,1.117863,1.1177292,1.1174177,1.1169082,1.1162839,1.1156578,1.1151605,1.1147584,1.1142747,1.1135802,1.112654,1.1115216,1.1105115,1.1099176,1.1097654,1.1099598,1.1103435,1.1105392,1.1101868,1.1090009,1.1069641,1.1046162,1.1026341,1.1017365,1.1016526,1.1013901,1.100962,1.1003155,1.0995784,1.0993023,1.0995408,1.0998045,1.0996531,1.0988395,1.0975854,1.0966008,1.0962343,1.0966121,1.0975282,1.0986582,1.0999458,1.1013377,1.1027501,1.1041404,1.105428,1.106492,1.107414,1.1082475,1.1090788,1.1099582,1.1108878,1.1117568,1.1125431,1.1132542,1.1138492,1.1142862,1.1145587,1.1147242,1.1149004,1.1149862,1.114953,1.1148372,1.1146965,1.1146371,1.114621
1.0729635,1.0738249,1.0746994,1.0754627,1.0761542,1.0767398,1.0771601,1.0774448,1.0777245,1.0780214,1.0782695,1.0784638,1.078615,1.078906,1.0793362,1.0798097,1.0803052,1.0808132,1.0812227,1.08146,1.081453,1.0813355,1.0812502,1.0809838,1.0805638,1.0796647,1.0778484,1.0747124,1.069994,1.0639263,1.0570691,1.0502079,1.0432231,1.036988,1.0321503,1.0295943,1.0294862,1.0306815,1.0320733,1.0337226,1.0354292,1.0369685,1.0388746,1.0411766,1.043282,1.0444524,1.0436281,1.0396593,1.0310048,1.0170593,0.99960685,0.983643,0.972825,0.96698856,0.9653107,0.96617985,0.9673061,0.9684472,0.9691812,0.9694321,0.9693776,0.96937203,0.96946996,0.9697206,0.97007656,0.9706572,0.9715376,0.9727016,0.97421896,0.97603154,0.9782582,0.98026687,0.98186135,0.9813072,0.97980756,0.9798207,0.9822706,0.9908662,1.0080607,1.034974,1.0644033,1.0879301,1.1002316,1.1034334,1.1030082,1.100992,1.0983884,1.0963465,1.0954857,1.0955057,1.0958121,1.0962329,1.0970843,1.0981059,1.099195,1.1001595,1.1008875,1.1015179,1.1019146,1.1021488,1.1023257,1.1025381,1.1028297,1.1031921,1.1034423,1.1037011,1.1040106,1.1043234,1.1045754,1.1048038,1.1050212,1.1053386,1.1056954,1.106087,1.1064489,1.1067703,1.1070364,1.1072936,1.1075833,1.1078014,1.1079404,1.1079811,1.1078405,1.1075277,1.1070155,1.1063371,1.105574,1.1047602,1.1040692,1.1035781,1.1034199,1.1035304,1.1038349,1.1041913,1.1044936,1.1048708,1.1054174,1.106038,1.1069105,1.1081247,1.1096927,1.1111042,1.1121536,1.1128516,1.113301,1.1136239,1.1139163,1.114259,1.1146569,1.1150769,1.1154964,1.1158668,1.1162064,1.1165481,1.1169078,1.1172885,1.1176786,1.1180791,1.1184771,1.11885,1.1191885,1.1195151,1.1198415,1.1201756,1.1204822,1.1207372,1.120944,1.1211424,1.1213725,1.121667,1.1220324,1.1224313,1.1228502,1.1232418,1.1235751,1.123843,1.1240584,1.1242478,1.1244375,1.1246265,1.1248076,1.1249554,1.1250544,1.125114,1.1251605,1.1252196,1.1253232,1.1255019,1.1257498,1.1260493,1.1263516,1.1266223,1.1268477,1.1270304,1.127193,1.1273243,1.1274326,1.1275071,1.1275349,1.1275045,1.1274269,1.1273806,1.1274006,1.1274735,1.1275605,1.1276145,1.1275927,1.1274848,1.1273074,1.1270847,1.1268401,1.1265749,1.1262805,1.1259499,1.1255863,1.1251917,1.1248124,1.1244859,1.1242038,1.1239105,1.1235771,1.1231987,1.1227827,1.1223433,1.1219027,1.121522,1.1212442,1.1210623,1.1209357,1.1208658,1.1208079,1.1207421,1.120634,1.1204293,1.1201031,1.1196548,1.119142,1.118652,1.1182714,1.1180375,1.1179132,1.1177979,1.1175933,1.1171858,1.1165643,1.1158514,1.1151395,1.114593,1.1141875,1.1137154,1.1130291,1.1120982,1.1109821,1.110018,1.1094484,1.1092865,1.1094623,1.1098518,1.1101234,1.1099566,1.1089716,1.1068642,1.1043707,1.1022613,1.101188,1.10108,1.1009865,1.1005541,1.0998862,1.0990605,1.0987326,1.0990763,1.0994496,1.0993866,1.0988963,1.0977838,1.0965898,1.0959442,1.0961758,1.0970467,1.0981266,1.0993443,1.1006782,1.1020994,1.103641,1.1051929,1.1066017,1.1078548,1.1088761,1.1097871,1.1106703,1.1116005,1.1124506,1.1131788,1.1138247,1.1143429,1.1146904,1.1148641,1.1149318,1.1149653,1.1149266,1.1147933,1.1146178,1.1144993,1.1144347,1.1144075
1.0760114,1.0768292,1.0776646,1.0784087,1.0790833,1.0796727,1.0801238,1.0804516,1.0807607,1.081047,1.0812778,1.0814475,1.0816011,1.0819361,1.0824338,1.0830009,1.0836363,1.0843313,1.0849786,1.0855116,1.08601,1.0864596,1.0869575,1.087392,1.0878884,1.0881704,1.0879598,1.0865526,1.08322,1.0784264,1.0725989,1.0651556,1.0563667,1.0472932,1.0393193,1.0343549,1.0328522,1.0340917,1.0358005,1.0380762,1.0404269,1.0424638,1.0447638,1.0473192,1.049832,1.0517129,1.05213,1.050039,1.0440732,1.0335476,1.0174863,0.99895304,0.98412097,0.9742301,0.9691853,0.96805334,0.96884894,0.96977425,0.97086877,0.97168434,0.97194,0.9721103,0.9722508,0.97241724,0.9725988,0.9729477,0.97344375,0.9741938,0.97528017,0.97682774,0.97893864,0.98108435,0.98299944,0.98393995,0.98331386,0.98252356,0.98328066,0.9874237,0.9982722,1.0193714,1.0481263,1.0760255,1.0937088,1.100744,1.1023834,1.1007464,1.0987878,1.0968721,1.096077,1.0963197,1.0968976,1.097547,1.0984472,1.0993173,1.1001624,1.1009247,1.1015897,1.1021922,1.1026423,1.1029495,1.103184,1.1034303,1.1037312,1.1040871,1.1043167,1.1045448,1.1048117,1.1050876,1.1053194,1.1055512,1.1057947,1.1061816,1.1066267,1.1071072,1.1075456,1.1079158,1.1081924,1.108418,1.1086388,1.1087608,1.1088185,1.1088145,1.1086967,1.1084443,1.1079222,1.1070726,1.1060604,1.1049759,1.1040919,1.1036062,1.1034905,1.1037009,1.1041176,1.1045344,1.1048064,1.1050856,1.1054691,1.1058403,1.1065701,1.1077657,1.1093135,1.1108425,1.1120565,1.112762,1.113171,1.1134428,1.1137075,1.1140878,1.1145762,1.1151049,1.1156089,1.1160116,1.1163421,1.1166484,1.116965,1.1173011,1.117646,1.1180096,1.1183894,1.1187667,1.1191239,1.1194763,1.1198273,1.1201783,1.1205041,1.1207817,1.1209788,1.1211339,1.1212945,1.1215146,1.1218201,1.1221818,1.1225836,1.1229637,1.1232727,1.1234945,1.1236458,1.1237836,1.1239287,1.124119,1.1243284,1.1245154,1.1246445,1.1247009,1.1247191,1.1247363,1.1248095,1.1249812,1.1252294,1.1255207,1.1257842,1.1259727,1.1261168,1.1262299,1.126362,1.1265182,1.1266758,1.1267873,1.1268032,1.1267409,1.1266611,1.1266265,1.1266803,1.1267903,1.1268971,1.1269473,1.1268911,1.1267395,1.126528,1.1262932,1.1260786,1.1258715,1.125633,1.1253135,1.1249238,1.124511,1.1241239,1.1238079,1.1235533,1.1233088,1.123025,1.1226547,1.1222088,1.1217427,1.1213117,1.1209979,1.120825,1.1207283,1.1206222,1.1205351,1.1204348,1.1203167,1.1201708,1.1199471,1.1196159,1.1191671,1.1186432,1.1181259,1.117701,1.1174129,1.1172322,1.1170495,1.1167467,1.1162219,1.1154222,1.1144836,1.1135228,1.1128359,1.1124473,1.1120594,1.1114438,1.1106167,1.109721,1.1089622,1.1085339,1.1084201,1.1085457,1.1088319,1.1090717,1.1091292,1.108531,1.1066694,1.1041846,1.1019208,1.1006486,1.1004872,1.1004903,1.1000681,1.0993931,1.0984886,1.0980648,1.0983915,1.0988979,1.0989873,1.0985135,1.0975287,1.0962472,1.0953839,1.0953786,1.0960262,1.0968955,1.0979509,1.0992322,1.1007175,1.1024725,1.1044369,1.1062994,1.107847,1.1091211,1.1102245,1.1112353,1.1121745,1.1128867,1.1134136,1.1139042,1.1143291,1.1146393,1.1148055,1.1148591,1.1148577,1.1147798,1.1146283,1.1144528,1.1143183,1.1142426,1.1142163
1.077686,1.0784409,1.0792282,1.079962,1.0806463,1.0812898,1.0818202,1.0822511,1.0826709,1.0830841,1.083454,1.0837762,1.0840394,1.0844195,1.0849516,1.0855535,1.0862749,1.0871037,1.0879544,1.0887626,1.0895827,1.0904058,1.0912595,1.0921055,1.093143,1.094182,1.0949724,1.0949194,1.0934796,1.0905546,1.0858333,1.078968,1.069599,1.0582132,1.0470243,1.0394164,1.0363644,1.0373718,1.0394938,1.0424111,1.0454285,1.0479553,1.0505776,1.0532106,1.0557964,1.0579193,1.059108,1.0586572,1.0551746,1.0478823,1.0351471,1.0175537,0.9990481,0.9848564,0.97575766,0.9712708,0.9704881,0.9711534,0.9721414,0.9733799,0.97420156,0.9746361,0.97493565,0.9751165,0.97515064,0.97525215,0.97541547,0.97578293,0.9764023,0.9775631,0.97931826,0.98142916,0.983632,0.98514855,0.9863687,0.9859054,0.98556066,0.9868579,0.99256396,1.0075501,1.0331007,1.0636274,1.0865144,1.098288,1.102943,1.1026164,1.1008527,1.0994633,1.0991814,1.0996788,1.1003051,1.1008357,1.1012596,1.1018527,1.1024023,1.1029499,1.1034412,1.103893,1.1042607,1.1045756,1.104847,1.10512,1.1054113,1.1057415,1.1059458,1.1061394,1.106342,1.1065547,1.1067303,1.1069337,1.107223,1.1076782,1.1082151,1.1087586,1.1092236,1.1095757,1.1097891,1.1099055,1.109985,1.1099535,1.1098906,1.1098303,1.1097549,1.109587,1.109134,1.1081636,1.1067314,1.1051731,1.1040114,1.1033883,1.1033928,1.1036572,1.1041715,1.1046534,1.1049097,1.10514,1.1052768,1.1055102,1.1062113,1.1074822,1.1091366,1.1107016,1.1120014,1.1127527,1.1130779,1.1132667,1.1134809,1.1138916,1.1144675,1.1150968,1.1156746,1.1160941,1.116399,1.116657,1.1169258,1.1172218,1.1175336,1.1178782,1.1182675,1.1186888,1.119113,1.1195527,1.120002,1.1204455,1.1208459,1.1211472,1.1213355,1.121444,1.121523,1.1216495,1.1218706,1.1221714,1.1225395,1.1228982,1.1231809,1.1233617,1.1234528,1.1235106,1.1235502,1.1236873,1.1238883,1.1241024,1.1242683,1.1243305,1.12433,1.1243166,1.1243696,1.1245385,1.1247996,1.1250975,1.1253489,1.1254756,1.1255312,1.1255796,1.1256996,1.1258726,1.1260523,1.1261573,1.126144,1.1260514,1.1259592,1.1259294,1.1260109,1.1261365,1.1262326,1.1262583,1.1261704,1.1259918,1.1257606,1.1255128,1.1253225,1.1251637,1.1249726,1.1246632,1.1242625,1.1238337,1.1234367,1.1231223,1.1228765,1.1226399,1.122374,1.1220313,1.1216009,1.1211423,1.1207185,1.1204207,1.1202564,1.1201775,1.1200603,1.1199142,1.1197251,1.1195083,1.1192812,1.1190053,1.1186433,1.1181767,1.1176319,1.1170835,1.1166171,1.1162819,1.1160526,1.1158113,1.1154374,1.1147628,1.1136556,1.1122745,1.1111531,1.1104603,1.1101186,1.1098082,1.1093597,1.1088398,1.1083312,1.107914,1.107703,1.1076411,1.1076548,1.1078613,1.1080995,1.1082573,1.1079755,1.1064541,1.1041003,1.1017272,1.1002314,1.1000131,1.1000491,1.0996215,1.0989459,1.0980121,1.0974452,1.097677,1.0982431,1.0984626,1.0980555,1.0971923,1.0958683,1.0948052,1.0945268,1.0948744,1.0954367,1.0962329,1.0973843,1.0988908,1.100872,1.1032417,1.1054329,1.1073046,1.1088305,1.1100984,1.1112063,1.1121311,1.1128318,1.1133907,1.1138332,1.1141323,1.1143649,1.114512,1.1145703,1.1145746,1.1144972,1.1143408,1.1141577,1.1140194,1.1139342,1.113909
1.0789742,1.0796825,1.0804203,1.0811307,1.0818248,1.0825373,1.0831752,1.083734,1.0842834,1.0848283,1.0853343,1.0857916,1.0861887,1.0867009,1.087353,1.0880672,1.0889084,1.0899057,1.0910392,1.0922228,1.0933816,1.0945508,1.0956753,1.0967622,1.0980568,1.0994823,1.1008177,1.1015303,1.1010756,1.0991399,1.0958796,1.0901847,1.0812694,1.0685883,1.0546252,1.0445793,1.0400956,1.040773,1.0433524,1.0468274,1.0503166,1.0532926,1.0561846,1.0587394,1.0611413,1.0631485,1.0646894,1.0654047,1.0640805,1.0599458,1.05056,1.0360029,1.0172868,0.9988185,0.9855741,0.9771861,0.9735027,0.972769,0.973547,0.97461194,0.9759151,0.9768158,0.97733426,0.97764385,0.9776362,0.9775599,0.97743845,0.9774425,0.9776095,0.9782779,0.9794611,0.98128605,0.98355484,0.9854773,0.98755157,0.98850965,0.98778474,0.98738706,0.9898337,0.99957764,1.0203161,1.050793,1.0780659,1.0952986,1.1035454,1.1053904,1.1045144,1.103287,1.1031561,1.1038244,1.1045008,1.1048036,1.1046798,1.1046612,1.1048845,1.1051784,1.1055125,1.1058896,1.1061652,1.106366,1.106575,1.106805,1.1070728,1.1073896,1.1075768,1.1077647,1.107974,1.1082051,1.1084161,1.108671,1.1090395,1.1095463,1.1100652,1.1105816,1.1110082,1.1113147,1.1114702,1.1115065,1.1114856,1.1113031,1.1110938,1.1109473,1.1109011,1.1108224,1.1104467,1.109494,1.1076627,1.1055331,1.1038567,1.1030519,1.1031115,1.1034887,1.1040552,1.1045789,1.104815,1.1049731,1.104914,1.1051147,1.1058891,1.1073637,1.109272,1.110964,1.1122807,1.1129653,1.1131797,1.1132584,1.1133866,1.1137551,1.1143279,1.1149755,1.1155657,1.1159794,1.1162682,1.1165133,1.1167645,1.1170253,1.1173203,1.1176926,1.118154,1.1186748,1.1192359,1.1198266,1.1204176,1.1209944,1.1215047,1.1218784,1.1220791,1.1221441,1.1221285,1.122137,1.1222463,1.1224625,1.1227808,1.1231134,1.1233754,1.1235244,1.1235735,1.1236022,1.1236887,1.123842,1.1240253,1.1241827,1.1242746,1.1242931,1.1242766,1.1242694,1.1243262,1.1244885,1.1247289,1.1249964,1.1252265,1.1253847,1.125488,1.1255455,1.1256461,1.1257839,1.125918,1.1259596,1.1259005,1.125781,1.1256548,1.1255705,1.1255682,1.1256227,1.1256742,1.1256595,1.125556,1.1253796,1.1251643,1.1249566,1.1247857,1.1246,1.1243564,1.124016,1.1235987,1.1231589,1.1227525,1.1224251,1.1221659,1.1219401,1.1216967,1.1213887,1.1210244,1.120632,1.1202484,1.1199572,1.1197596,1.1196126,1.1194365,1.1191862,1.1188694,1.1185167,1.1181741,1.1178151,1.1173995,1.1169037,1.1163405,1.1157783,1.1152999,1.1149366,1.1146712,1.1144042,1.1139698,1.1130575,1.111786,1.1105502,1.1096171,1.1090655,1.1087816,1.1084719,1.1080223,1.1075993,1.1073016,1.1072102,1.1072373,1.107192,1.1071639,1.1072736,1.1074266,1.1075932,1.10747,1.1061325,1.1039591,1.1016216,1.0999348,1.0995321,1.0995841,1.0991945,1.0985283,1.0976158,1.0969017,1.0969746,1.0974987,1.0977998,1.097487,1.096684,1.0954993,1.0943656,1.0938406,1.0938566,1.0940421,1.0945029,1.0954546,1.0969404,1.0991008,1.1017656,1.1043388,1.106544,1.108317,1.1097271,1.1108818,1.111835,1.1125358,1.1130687,1.113497,1.1138031,1.1139561,1.1140106,1.1140478,1.1140409,1.1139455,1.1137638,1.11355,1.1133801,1.1132703,1.1132225
1.0802908,1.0809643,1.0816686,1.0823634,1.083056,1.0838013,1.0845047,1.0851574,1.085807,1.0864562,1.0870738,1.087646,1.088158,1.0887822,1.0895338,1.0903374,1.0912875,1.092432,1.0938065,1.0953155,1.0967975,1.0982682,1.0996162,1.1008961,1.102289,1.1037825,1.1051707,1.1061747,1.1064141,1.1054976,1.103351,1.0984513,1.0904146,1.0776012,1.0615873,1.0495679,1.043949,1.0444266,1.0473812,1.0511272,1.0547683,1.0581503,1.0613556,1.0639014,1.0660763,1.0677621,1.0693579,1.0707108,1.0709834,1.0692184,1.0632645,1.0522119,1.0358711,1.0166298,0.99907285,0.98667514,0.97938997,0.97579074,0.97532547,0.9760233,0.97716546,0.9785191,0.97943234,0.9798923,0.97997797,0.97983384,0.9795202,0.97921646,0.97897804,0.9791503,0.97961783,0.9809421,0.9830228,0.98526776,0.98776364,0.989641,0.9895455,0.98781496,0.9880361,0.9934429,1.009154,1.0370035,1.0673987,1.0901014,1.1023722,1.1071823,1.1079278,1.1073282,1.1073679,1.1079304,1.1082942,1.1081973,1.1078558,1.1075554,1.1074305,1.1074133,1.107584,1.1079009,1.1081623,1.1083381,1.1084744,1.1086161,1.1088254,1.1091003,1.1092504,1.1094193,1.1096284,1.1098757,1.110124,1.110424,1.1107786,1.1112455,1.1117154,1.1121671,1.1125252,1.1127746,1.1128819,1.1128678,1.1127782,1.1125054,1.1122124,1.1119795,1.1119132,1.1118923,1.1115786,1.1106617,1.1086202,1.105977,1.1038425,1.1027377,1.1028023,1.1033096,1.1039035,1.1044338,1.1046197,1.1046019,1.104462,1.1046863,1.1056635,1.1073904,1.1094992,1.11129,1.1125785,1.1130614,1.1131389,1.1130961,1.1131154,1.1133965,1.1138953,1.1144764,1.1150068,1.1153674,1.1156139,1.1158085,1.1160123,1.1162155,1.1164745,1.1168633,1.1173971,1.1180239,1.1187108,1.119427,1.1201708,1.1209047,1.1215482,1.1220086,1.1222305,1.1222566,1.1221495,1.1220427,1.1220403,1.122174,1.1224465,1.122762,1.1230216,1.123167,1.1232133,1.1232307,1.1232882,1.1233985,1.1235266,1.1236333,1.1236914,1.1236954,1.1236804,1.1236827,1.1237562,1.1239388,1.124198,1.1244805,1.1247191,1.1248773,1.1249795,1.1250688,1.1251693,1.1252583,1.1253031,1.1252818,1.1251714,1.1249995,1.1248263,1.1247082,1.1246862,1.1247303,1.1247811,1.1247747,1.1246681,1.1244974,1.1243067,1.124119,1.1239686,1.1237941,1.1235477,1.1231897,1.122742,1.1222706,1.1218357,1.121489,1.1212206,1.1209915,1.1207533,1.1204591,1.120113,1.1197419,1.1193731,1.1190835,1.118864,1.1186621,1.1183977,1.118031,1.1175883,1.1171141,1.1166689,1.1162319,1.1157627,1.1152426,1.1146746,1.1141158,1.1136482,1.1132722,1.1129878,1.1126847,1.1121016,1.1111891,1.1100765,1.1090665,1.1084089,1.1080773,1.1079112,1.107642,1.1072116,1.1068791,1.106755,1.1068347,1.1068751,1.1067368,1.1066325,1.1066595,1.1067665,1.1068647,1.1067019,1.1056092,1.1036711,1.1015035,1.0997689,1.0991999,1.0990976,1.0987489,1.0980623,1.097141,1.0964051,1.0963215,1.0967212,1.0970323,1.0968163,1.0960714,1.0950557,1.0939813,1.0932891,1.0930125,1.0928046,1.0929177,1.0936638,1.095143,1.0974784,1.1003872,1.1033995,1.1059722,1.1080115,1.1095611,1.1107371,1.1116633,1.1123202,1.1127942,1.1131666,1.1134223,1.1135435,1.1135361,1.113518,1.1134732,1.1133323,1.1130967,1.1128247,1.1126006,1.1124446,1.1123581
1.0817018,1.0823541,1.0830302,1.083696,1.0843644,1.0850979,1.0858121,1.0864923,1.0871763,1.0878674,1.0885384,1.0891746,1.0897601,1.0904648,1.0912881,1.092154,1.0931695,1.0944002,1.0959187,1.0976231,1.0992967,1.1009426,1.1024432,1.1038553,1.1053021,1.1067894,1.1080947,1.1091533,1.1097383,1.1095154,1.1083895,1.1044097,1.0967324,1.0849953,1.067944,1.0542504,1.0478071,1.0481982,1.0514247,1.055103,1.0589179,1.062401,1.065727,1.0684791,1.0706567,1.0721192,1.073617,1.0751197,1.0761847,1.0760188,1.0725342,1.0652075,1.0527656,1.0360963,1.016961,1.0002072,0.98875713,0.9815769,0.97818977,0.977728,0.9783671,0.97955835,0.98100793,0.98178077,0.98204,0.9819876,0.98162985,0.9811188,0.980539,0.98025346,0.9800699,0.98059285,0.98207605,0.9844651,0.9873201,0.9895439,0.9903343,0.988104,0.98677826,0.9890703,0.99969053,1.0226033,1.0533323,1.0814894,1.0989299,1.107116,1.1100013,1.1104479,1.1107051,1.1109848,1.1111016,1.1109424,1.1104431,1.1099699,1.1096938,1.1096005,1.1097629,1.1100738,1.1103363,1.1105001,1.110615,1.1107302,1.1108508,1.1110175,1.1110708,1.1111667,1.1113288,1.1115551,1.1117756,1.1120116,1.1122966,1.1126742,1.1130424,1.1133912,1.1136608,1.1138608,1.1139543,1.1139448,1.1138468,1.1135371,1.1131979,1.1129544,1.112887,1.1128643,1.1125114,1.1114943,1.1094592,1.1064376,1.103977,1.1027067,1.1027184,1.1032133,1.1038392,1.1043355,1.1044016,1.1042831,1.1041262,1.1044009,1.1055213,1.1074288,1.1096671,1.1114597,1.1125765,1.1129014,1.1128683,1.1127298,1.1126437,1.1127958,1.113145,1.1135707,1.1139648,1.1142204,1.114358,1.1144252,1.1145127,1.1146432,1.1148167,1.1151092,1.1156023,1.1162933,1.1170912,1.117952,1.1188521,1.1197218,1.120492,1.121044,1.121295,1.1213002,1.1211323,1.1209438,1.1208653,1.1209478,1.1211939,1.1215062,1.1217818,1.1219558,1.1220474,1.1221085,1.1221919,1.1222923,1.1223743,1.1224289,1.1224574,1.1224666,1.122486,1.1225371,1.1226583,1.1228812,1.123174,1.1234853,1.1237564,1.123955,1.1240966,1.1242057,1.1243008,1.1243601,1.1243718,1.1243232,1.1241945,1.1240137,1.1238353,1.1237102,1.1236739,1.1236973,1.1237385,1.1237496,1.1236846,1.1235733,1.1234477,1.1233062,1.1231565,1.1229633,1.122692,1.1223118,1.1218437,1.1213479,1.1208825,1.1204978,1.1201835,1.1199119,1.1196434,1.1193392,1.1190008,1.1186385,1.1182575,1.1179204,1.1176207,1.1173131,1.1169342,1.1164542,1.1158981,1.1152971,1.114742,1.1142323,1.1137333,1.1132102,1.1126491,1.1121099,1.1116583,1.1113105,1.1110294,1.1106331,1.109983,1.1091037,1.1081557,1.1074219,1.1070964,1.1070361,1.1070371,1.1068536,1.1064775,1.1062417,1.1062169,1.1062778,1.1062573,1.1061293,1.1060014,1.1059493,1.1059704,1.1059961,1.1058037,1.1048263,1.1031126,1.1011078,1.0995138,1.0988057,1.0986154,1.0982085,1.0974759,1.0965409,1.0957968,1.0955379,1.0958011,1.0960753,1.0959272,1.0952747,1.0942895,1.0932943,1.0925333,1.0920827,1.0915489,1.0913445,1.091913,1.0933726,1.0959709,1.0991943,1.1026208,1.1056249,1.1079721,1.1096766,1.1108549,1.1117213,1.1123071,1.1126893,1.1129714,1.113148,1.113195,1.113159,1.1131065,1.1130109,1.1128125,1.1125095,1.1121645,1.1118665,1.1116529,1.1115284
1.0829184,1.0835507,1.0841999,1.0848305,1.08546,1.0861514,1.0868368,1.0874999,1.0881784,1.0888765,1.0895712,1.0902481,1.0908897,1.0916598,1.0925395,1.0934494,1.0944939,1.0957568,1.0973189,1.0990807,1.1008046,1.1024845,1.1040432,1.1055188,1.106991,1.1084605,1.1096878,1.1107554,1.1115568,1.1118431,1.1115355,1.1084807,1.1014202,1.0903578,1.0735679,1.0585957,1.0515807,1.0520102,1.0553237,1.0589375,1.062837,1.0663638,1.0697377,1.0725827,1.0748291,1.0762913,1.0776522,1.0790266,1.0803037,1.0809263,1.079465,1.0749543,1.0666208,1.0543793,1.0370085,1.0180502,1.0018501,0.9904963,0.98364776,0.98030746,0.9799049,0.9805571,0.98197067,0.9832552,0.98378205,0.9838766,0.9836135,0.98299843,0.9821602,0.98142135,0.9807809,0.9805944,0.98137075,0.9834671,0.98654485,0.9889643,0.9901924,0.98842174,0.9860326,0.9860319,0.9920121,1.0091262,1.0369953,1.0687454,1.0924971,1.10536,1.1109178,1.1125715,1.1130896,1.1131225,1.1130197,1.1127377,1.1122255,1.1117692,1.111479,1.1113914,1.1116018,1.1119902,1.1123185,1.1125048,1.112608,1.1126816,1.1127403,1.112829,1.1127951,1.1128076,1.1129017,1.1130749,1.113255,1.1134415,1.1136626,1.1139522,1.114219,1.1144797,1.1146854,1.114869,1.1149942,1.1150491,1.1150062,1.1147206,1.1143887,1.1141701,1.1141564,1.1141376,1.1136403,1.1123512,1.1100826,1.1069154,1.1042035,1.1028496,1.102808,1.1032988,1.1039505,1.104378,1.1043081,1.1041789,1.1039636,1.1042148,1.1053615,1.1072975,1.1095066,1.1111969,1.1121615,1.1123997,1.112314,1.1121439,1.112004,1.1120477,1.1122437,1.1124983,1.1127409,1.1128852,1.1128926,1.1128571,1.1128702,1.1128881,1.1129344,1.1130743,1.113395,1.1139219,1.1146824,1.1156213,1.1166527,1.1176693,1.118535,1.1191022,1.1193597,1.1193405,1.1191337,1.1189333,1.118843,1.1189079,1.1191643,1.1194851,1.1197451,1.1199179,1.1200428,1.1201591,1.1202976,1.1204317,1.1205323,1.1206148,1.120686,1.1207635,1.120872,1.1210141,1.1212213,1.1215134,1.1218419,1.122175,1.1224781,1.1227267,1.1229274,1.1230875,1.1232092,1.1232693,1.123276,1.1232314,1.123121,1.1229656,1.1227908,1.1226523,1.1226099,1.1226182,1.1226523,1.1226821,1.1226709,1.1226208,1.1225412,1.1224207,1.1222711,1.1220641,1.1217651,1.1213714,1.1208966,1.1203856,1.1198891,1.1194491,1.1190743,1.1187288,1.1183789,1.1180139,1.1176412,1.1172628,1.1168644,1.1164889,1.1161165,1.1156964,1.1151934,1.1145844,1.113907,1.1131992,1.1125807,1.1120687,1.111625,1.1111784,1.1106937,1.1102333,1.1098557,1.1095388,1.1091939,1.1086957,1.1079454,1.1070403,1.1061962,1.1056676,1.1055949,1.105746,1.1058903,1.1058095,1.1055311,1.1054008,1.1053805,1.1054227,1.1054422,1.105311,1.105147,1.1050267,1.1049261,1.1048326,1.1045742,1.1037359,1.1022604,1.100462,1.0990338,1.0982405,1.0980024,1.0975763,1.0968171,1.095873,1.0950975,1.0947266,1.0948223,1.0950391,1.0949179,1.0943305,1.0934134,1.0924172,1.0915685,1.090968,1.0901911,1.0897183,1.0900697,1.0914719,1.0943953,1.0980914,1.1018912,1.1053212,1.1079926,1.1098208,1.1109759,1.111773,1.1122411,1.1125324,1.112761,1.1128745,1.1128854,1.1128824,1.1127876,1.1126573,1.1124157,1.1120578,1.1116414,1.1112511,1.1109746,1.1108085
1.083704,1.0843115,1.084936,1.0855353,1.0861228,1.0867605,1.0873969,1.088023,1.088681,1.0893774,1.0900917,1.0908084,1.0915084,1.0923462,1.0932839,1.0942357,1.0952947,1.0965612,1.0981016,1.0998218,1.1014855,1.1030982,1.1046298,1.1060965,1.1075499,1.1090012,1.1102124,1.1113343,1.1123257,1.1129997,1.1133102,1.1110358,1.104694,1.0939913,1.0779272,1.0626614,1.0552557,1.0558739,1.0589834,1.062679,1.0666285,1.0701253,1.0734541,1.0763223,1.0786309,1.0801809,1.0814962,1.0826864,1.0838143,1.0845766,1.0843576,1.0822465,1.0773582,1.0692939,1.0559483,1.0383086,1.018939,1.003038,0.9921519,0.9854237,0.9823118,0.981821,0.9828079,0.98418033,0.98514557,0.9854487,0.9853616,0.98476017,0.9837601,0.9826739,0.98165524,0.98101467,0.9811751,0.98278785,0.9855634,0.9880758,0.9895724,0.9884466,0.9856931,0.9841151,0.9866282,0.9977523,1.0204537,1.0519543,1.0819905,1.1012251,1.1104064,1.1139839,1.1149373,1.1145583,1.1140282,1.1135399,1.1131322,1.1128727,1.1127119,1.1127083,1.1129673,1.1134096,1.1137902,1.1140087,1.1141297,1.1142018,1.1142411,1.1142883,1.1141984,1.1141425,1.1141676,1.11428,1.1144048,1.1145344,1.1146963,1.1149275,1.1151404,1.1153544,1.1155292,1.1157191,1.1159085,1.1160889,1.1161759,1.1159903,1.1156971,1.1154819,1.1154752,1.1154709,1.1149316,1.113353,1.1106263,1.1072967,1.1044052,1.1030279,1.1029248,1.1034791,1.1041653,1.104541,1.1044133,1.1042318,1.1039307,1.1041284,1.1051853,1.106955,1.1089185,1.1103992,1.111274,1.1114528,1.1113675,1.1112287,1.111099,1.1110876,1.1111778,1.1112995,1.1114188,1.1114769,1.1114521,1.111386,1.11132,1.1112232,1.1111532,1.1111267,1.1112463,1.1115279,1.1120495,1.1127911,1.1137838,1.114857,1.1157491,1.1162744,1.1164575,1.1163664,1.1161103,1.1159031,1.1158514,1.1159726,1.116296,1.1166517,1.1168861,1.1170273,1.1171548,1.1173413,1.1175909,1.1178374,1.1180375,1.1182244,1.1184204,1.1186385,1.1188906,1.1191573,1.1194701,1.1198442,1.1202261,1.1205931,1.1209295,1.1212255,1.1214895,1.1217128,1.1218818,1.1219757,1.1220145,1.1220206,1.1219826,1.1218985,1.1217679,1.1216488,1.1216109,1.1216085,1.1215982,1.1215584,1.1214968,1.1214304,1.121357,1.1212337,1.1210719,1.120854,1.1205535,1.120172,1.1197059,1.1191835,1.1186514,1.1181502,1.1176964,1.1172489,1.11679,1.1163356,1.1159089,1.1155082,1.1150876,1.1146721,1.1142284,1.1137079,1.113104,1.1124027,1.1116705,1.110996,1.1104553,1.1100376,1.109678,1.1093197,1.1089313,1.108548,1.1082413,1.1079599,1.107586,1.1069882,1.1061071,1.1051202,1.1042826,1.1038264,1.1038487,1.1040769,1.10429,1.1043046,1.1041678,1.1041727,1.1042032,1.1043053,1.104339,1.1041766,1.1039623,1.1037841,1.1035202,1.1032963,1.1030378,1.1023369,1.1010854,1.0994875,1.0981374,1.0973115,1.0969968,1.0967072,1.0959086,1.0950267,1.0942695,1.0938327,1.0938025,1.0939491,1.0938252,1.0932795,1.0924184,1.0914366,1.090517,1.0897666,1.0887544,1.0880713,1.0881394,1.0895503,1.0926535,1.0967844,1.1011064,1.1049004,1.1078646,1.1097816,1.110943,1.1116376,1.1119316,1.1121538,1.1124177,1.1125524,1.1126184,1.1126482,1.1125548,1.1124251,1.1121733,1.1117895,1.1113412,1.1109135,1.1105793,1.1103415
1.0840526,1.084643,1.0852611,1.0858572,1.0864303,1.0870371,1.0876436,1.0882537,1.088912,1.0896237,1.0903692,1.0911355,1.0919007,1.092807,1.0938001,1.0947843,1.0958467,1.0971038,1.0985932,1.1002228,1.101769,1.1032557,1.104698,1.1060984,1.1074831,1.108882,1.1100858,1.1112738,1.1124299,1.1134014,1.1141562,1.1124722,1.1067312,1.0965025,1.0811238,1.0664134,1.0587816,1.0596659,1.0624259,1.0662858,1.0702932,1.0736327,1.0767015,1.0793777,1.0816195,1.0832863,1.0846692,1.0858105,1.0867857,1.0874408,1.087837,1.0872827,1.0851657,1.080548,1.0713402,1.0573363,1.0387361,1.0200951,1.0047126,0.9937908,0.98721904,0.9839691,0.98382443,0.9848659,0.9860676,0.9867103,0.98681915,0.98633385,0.9852871,0.9839781,0.98261607,0.9817423,0.98138726,0.98244005,0.9846829,0.98709786,0.9886862,0.988207,0.9859543,0.983389,0.9835162,0.98928285,1.0057019,1.0340052,1.067023,1.0935891,1.1079154,1.1143326,1.1162312,1.1155739,1.1145144,1.1136849,1.1133598,1.1133473,1.113384,1.1134952,1.1137761,1.1142309,1.1146348,1.1148863,1.115052,1.1151645,1.1152332,1.115289,1.1151879,1.1150922,1.1150603,1.115113,1.1151817,1.1152707,1.1154051,1.1156301,1.1158502,1.1160735,1.1162593,1.1164737,1.1167312,1.1170363,1.1172621,1.1172004,1.1169833,1.1168118,1.1168327,1.116833,1.116216,1.1144522,1.1113994,1.1077743,1.1046174,1.1032664,1.1031711,1.1037552,1.1044947,1.1048958,1.1047423,1.1044033,1.1040511,1.1041396,1.1050795,1.1066289,1.108263,1.1094629,1.1102061,1.1103125,1.1102256,1.11012,1.1100116,1.1099725,1.1099986,1.110038,1.1100845,1.110089,1.11011,1.1101205,1.1100314,1.1099154,1.1098075,1.1097317,1.1097882,1.109966,1.1102865,1.1108537,1.1116843,1.1126246,1.1134238,1.1138718,1.1138887,1.1136739,1.1133893,1.1132045,1.113258,1.1135173,1.1139045,1.1142566,1.1144454,1.1145208,1.1146176,1.1148379,1.1151749,1.1155341,1.1158377,1.1161308,1.1164647,1.1168299,1.1172137,1.1175843,1.1179628,1.1183745,1.1188003,1.1192036,1.119569,1.1199012,1.1202097,1.1204824,1.1206946,1.1208184,1.1208977,1.1209722,1.1210227,1.1210282,1.1209903,1.1209364,1.1208873,1.1208346,1.1207523,1.1206387,1.1205153,1.1204014,1.120282,1.1201148,1.1198997,1.119639,1.1193419,1.1189795,1.1185374,1.1180215,1.1174695,1.1169212,1.1163735,1.1158223,1.1152823,1.1147753,1.1143234,1.1139067,1.1134411,1.1129379,1.1123853,1.1117718,1.1111115,1.1104107,1.1097246,1.1091192,1.1086371,1.108253,1.1079065,1.1075485,1.1071696,1.1068252,1.1065918,1.1063902,1.1060691,1.1054752,1.1045645,1.1035657,1.1027576,1.1023412,1.1023707,1.1025647,1.1027387,1.1027806,1.1027665,1.102932,1.1030724,1.1032171,1.1032063,1.1029869,1.1026895,1.1024239,1.1020792,1.1017796,1.1015086,1.1009057,1.0998254,1.0983789,1.0970638,1.0961454,1.095681,1.0955292,1.0948713,1.0940561,1.0933728,1.0929523,1.0928833,1.0929773,1.0928445,1.0923333,1.0915246,1.0905652,1.0895905,1.0887158,1.0875299,1.0866516,1.0864608,1.087806,1.0909591,1.0953529,1.100123,1.1043403,1.1076684,1.109781,1.1109625,1.1114805,1.1115613,1.1117246,1.112058,1.1123015,1.1124208,1.1124873,1.112414,1.1122905,1.1120336,1.1116314,1.111175,1.110765,1.1104177,1.1101458
1.0840054,1.0846062,1.0852516,1.0858893,1.0864968,1.0871216,1.0877426,1.0883803,1.0890795,1.0898345,1.0906281,1.09145,1.0922797,1.0932455,1.0942771,1.0952704,1.0963209,1.0975556,1.0989875,1.1005137,1.101927,1.1032717,1.1045988,1.1059091,1.1071906,1.1084986,1.1096549,1.1108627,1.1121309,1.1133012,1.114333,1.1130186,1.1076963,1.0978713,1.0831671,1.0695062,1.0621428,1.0631624,1.0656536,1.069649,1.0734704,1.0765288,1.0792282,1.0815678,1.0836351,1.0854139,1.0869749,1.0882859,1.0893232,1.0899657,1.0905898,1.09073,1.0902319,1.088238,1.0827544,1.0731523,1.0583409,1.0405937,1.0222958,1.0065029,0.99535227,0.98839283,0.9855802,0.9856166,0.9866601,0.98762625,0.9880707,0.9877535,0.9867916,0.9853797,0.98380804,0.9827043,0.98200977,0.9824968,0.9840969,0.9862044,0.98784924,0.9880412,0.9868078,0.98410785,0.9826149,0.9844829,0.99449456,1.0167909,1.0486075,1.0816257,1.1028668,1.1133618,1.1170299,1.1165309,1.1149685,1.1136622,1.1132903,1.1134396,1.1136465,1.1138337,1.1140699,1.1144675,1.1148429,1.1151099,1.1153324,1.1155136,1.1156509,1.115756,1.1156816,1.1155744,1.1155009,1.1155045,1.115532,1.1156139,1.1157714,1.1160567,1.1163542,1.1166489,1.1168895,1.1171432,1.1174583,1.117865,1.1182203,1.1182907,1.1181784,1.1180896,1.1181662,1.1181798,1.1174681,1.1154869,1.1121705,1.1083508,1.1049688,1.1035805,1.1035217,1.1041336,1.1049223,1.1054006,1.105187,1.1047164,1.1043274,1.1042972,1.1050692,1.1064065,1.1077838,1.1087669,1.1092429,1.1092472,1.1091185,1.1090009,1.1088827,1.1088128,1.1087976,1.1087903,1.1088085,1.108844,1.1089392,1.1090636,1.109091,1.1090863,1.1090901,1.1091244,1.1092514,1.1094904,1.1098661,1.1104449,1.1112252,1.1120749,1.1127291,1.1129642,1.1128066,1.1125221,1.1122708,1.1121936,1.1124017,1.1127428,1.1131407,1.1134317,1.1134918,1.1134264,1.113408,1.1135223,1.1137769,1.1141183,1.1144748,1.1148713,1.1153347,1.1158218,1.1163031,1.1167432,1.1171668,1.117589,1.1179976,1.118391,1.1187754,1.1191583,1.119531,1.1198452,1.1200898,1.1202288,1.1203189,1.1204083,1.120496,1.1205578,1.1205635,1.1205218,1.1204469,1.1203377,1.120189,1.1200199,1.1198621,1.1197278,1.119588,1.11939,1.1191306,1.118818,1.118474,1.1180878,1.1176432,1.1171324,1.116566,1.1159654,1.1153407,1.1147075,1.1140985,1.1135466,1.1130618,1.1126057,1.1120842,1.111505,1.1108658,1.1101763,1.1094694,1.1087656,1.108108,1.1075411,1.1070728,1.1066643,1.1062577,1.1058285,1.1054127,1.1050998,1.1049898,1.1049676,1.1048243,1.1043625,1.1035277,1.1025932,1.1018603,1.1014924,1.1014922,1.1015732,1.101599,1.1015725,1.1016223,1.1019418,1.1022444,1.102427,1.1023339,1.1020441,1.1016409,1.1012688,1.100929,1.1006018,1.1003294,1.0998027,1.0988414,1.0974944,1.09617,1.0951039,1.0944582,1.0943096,1.0939326,1.0933046,1.0927336,1.0923609,1.0922582,1.0922906,1.0921329,1.0916448,1.0908847,1.0899565,1.0889449,1.0879698,1.0866854,1.0855955,1.0852089,1.0864011,1.0894618,1.0939474,1.0990716,1.1038895,1.1077423,1.1101601,1.1113529,1.1117077,1.1115589,1.1115736,1.1119256,1.1123166,1.112504,1.1125531,1.1124873,1.1123523,1.1120733,1.1116437,1.1111674,1.1107557,1.1104198,1.110146
1.0830706,1.0837681,1.0845258,1.0852947,1.0860314,1.0867639,1.0874801,1.0882215,1.0890322,1.0898895,1.0907781,1.0916951,1.0926268,1.0936863,1.0947847,1.0958056,1.0968602,1.0980864,1.0994802,1.1009207,1.1022182,1.1034353,1.1046536,1.1058733,1.1070354,1.1082159,1.1092601,1.1104045,1.1116941,1.1129491,1.1140865,1.1129014,1.107747,1.0981663,1.0839976,1.0713708,1.0649037,1.0657907,1.068336,1.0722479,1.0758891,1.0787289,1.0811518,1.0832102,1.0851521,1.0870302,1.0887679,1.0902612,1.091332,1.0919542,1.0926466,1.09309,1.0934305,1.0929818,1.0903368,1.0846201,1.0745089,1.0606027,1.0424373,1.0235682,1.0070403,0.9955188,0.98916924,0.98689944,0.98727584,0.9883122,0.9891063,0.9890592,0.98826647,0.9868401,0.9851253,0.9837343,0.9827776,0.9827206,0.9836787,0.98539746,0.9870835,0.98793805,0.98779714,0.9857942,0.9833072,0.98275506,0.98766315,1.0029268,1.0307611,1.0655305,1.0940088,1.1100632,1.1165564,1.1170805,1.1154151,1.1137078,1.1131754,1.113329,1.1136047,1.1137934,1.1139218,1.1142002,1.1144933,1.1147401,1.1150035,1.1152503,1.1154605,1.1156226,1.1155853,1.115479,1.1153775,1.1153557,1.1153743,1.1154916,1.1157206,1.1161108,1.1165237,1.1169204,1.1172382,1.1175395,1.1179008,1.1183751,1.1188196,1.1189835,1.118953,1.1189446,1.1190875,1.1191322,1.1183492,1.1161872,1.1126332,1.1085798,1.1052023,1.1037675,1.1037238,1.1044483,1.1052713,1.1057199,1.1054373,1.1048739,1.1044528,1.1043591,1.1050129,1.1062372,1.1075375,1.1083984,1.1085818,1.1084653,1.1082377,1.1080254,1.1078193,1.1076701,1.1076053,1.10758,1.1076118,1.1077029,1.1078472,1.1080483,1.1082284,1.1084226,1.1086494,1.108892,1.1091759,1.109489,1.109907,1.1104963,1.1112406,1.1120391,1.1126132,1.1127784,1.1126077,1.1123508,1.1121643,1.112179,1.1124156,1.1127219,1.1130862,1.1133413,1.1133842,1.1133378,1.113255,1.1132804,1.1134369,1.1137052,1.1140157,1.1144307,1.1149313,1.1154236,1.1159265,1.1163819,1.1168122,1.1172451,1.1176789,1.1181183,1.1185709,1.1190386,1.1194855,1.1198301,1.1200771,1.1202052,1.1202776,1.1203539,1.1204212,1.1204872,1.1205169,1.1204929,1.1204084,1.1202688,1.1201023,1.1199303,1.1197767,1.1196511,1.1195074,1.119276,1.1189604,1.1185687,1.1181355,1.117675,1.1171777,1.1166117,1.1159866,1.1153152,1.114613,1.1139138,1.1132598,1.1126821,1.1121744,1.1116792,1.1111004,1.1104534,1.1097529,1.1090267,1.108314,1.1076381,1.1070278,1.1065042,1.1060457,1.1056055,1.1051338,1.1046426,1.1042272,1.1040086,1.1040928,1.1042945,1.1043129,1.1039085,1.1030375,1.1020722,1.1013823,1.1010848,1.1010897,1.1010534,1.1008447,1.1006126,1.1006116,1.101049,1.1015368,1.1017929,1.1016927,1.1013503,1.1008561,1.1003947,1.1000433,1.0997357,1.0994639,1.0990131,1.0981812,1.0968783,1.0955112,1.0942678,1.0934603,1.0933275,1.0931315,1.092773,1.0923125,1.0919759,1.0918125,1.091747,1.0915334,1.0910542,1.0903465,1.0894682,1.088448,1.0874064,1.0860844,1.0848665,1.0842965,1.0852648,1.0881132,1.0925972,1.0981297,1.1036487,1.1080618,1.110858,1.1121454,1.1124241,1.1121092,1.111962,1.1122546,1.1126442,1.1128485,1.1128662,1.1127434,1.1125361,1.1121907,1.1117113,1.1111897,1.1107444,1.1103978,1.1101117
1.0810697,1.0819623,1.082932,1.083933,1.0849081,1.0858488,1.0867486,1.0876722,1.0886669,1.0896906,1.0907292,1.0917953,1.0928851,1.0940979,1.0953182,1.0964129,1.0975053,1.0987544,1.1001391,1.101522,1.102729,1.1038425,1.1049746,1.1061219,1.1071751,1.1082195,1.1091101,1.1101255,1.1113573,1.112591,1.1136775,1.1123841,1.1071048,1.0975653,1.08373,1.0719192,1.0666069,1.0674311,1.0700862,1.0740058,1.077748,1.0804702,1.0826714,1.0844903,1.0862503,1.0880969,1.0898799,1.0914762,1.092665,1.09338,1.093993,1.0944684,1.0950863,1.0954596,1.0946999,1.0917622,1.0857451,1.0763636,1.0613785,1.0425205,1.022176,1.0054239,0.9949177,0.9893991,0.98811364,0.98875964,0.989906,0.99022746,0.9896376,0.98826164,0.9864274,0.9847308,0.9834255,0.98294806,0.98335326,0.9846673,0.9862891,0.9876249,0.98847914,0.9876721,0.9850601,0.9829797,0.98470235,0.9936727,1.0153918,1.0477383,1.0807941,1.1036367,1.1141884,1.116811,1.1156782,1.1138324,1.1130881,1.113089,1.1132951,1.1134022,1.1133914,1.1135199,1.1136963,1.113894,1.1141753,1.1144745,1.1147459,1.1149566,1.1149497,1.1148473,1.1147312,1.1147108,1.1147556,1.1149424,1.1152699,1.1157765,1.1163058,1.116802,1.117196,1.1175452,1.117943,1.1184547,1.118939,1.1191385,1.119144,1.1191844,1.1193848,1.1194701,1.1186502,1.1163619,1.1126232,1.1083139,1.104924,1.1035292,1.103632,1.1044502,1.105284,1.1056101,1.1052439,1.104615,1.1041515,1.1040474,1.1047074,1.105974,1.1073703,1.1080596,1.1081473,1.1079115,1.1075377,1.1071563,1.1067944,1.1065472,1.1064162,1.1063728,1.1064216,1.1065358,1.1067146,1.1069696,1.1072508,1.1075664,1.1079898,1.1084191,1.1088376,1.1092153,1.1096178,1.1101475,1.1108968,1.1117343,1.1123645,1.1126626,1.1125903,1.1123732,1.1122382,1.1123172,1.1125662,1.1128482,1.1131487,1.1133952,1.1135693,1.1137366,1.1138711,1.1139612,1.1140865,1.1142812,1.114498,1.1147876,1.1151736,1.1155788,1.116029,1.1164804,1.1169438,1.1174425,1.1179614,1.1184872,1.119014,1.1195341,1.1200083,1.1203806,1.1206269,1.1207315,1.1207659,1.120788,1.1208003,1.120817,1.1208261,1.1208081,1.1207411,1.1206349,1.1205165,1.1204042,1.1203169,1.1202189,1.120081,1.119838,1.1194851,1.1190234,1.1184893,1.1179245,1.1173348,1.1166952,1.115977,1.1152058,1.1144162,1.1136492,1.1129534,1.1123532,1.1118257,1.1112976,1.1106772,1.1099929,1.1092749,1.1085675,1.107904,1.1073029,1.1067772,1.106322,1.105901,1.105464,1.1049786,1.1045076,1.104203,1.104193,1.1045384,1.1049368,1.1049348,1.1042938,1.1030562,1.1018039,1.1010487,1.1008404,1.10096,1.1008263,1.1003011,1.0997729,1.099551,1.1000354,1.100719,1.1010898,1.1010497,1.1006894,1.1001334,1.0996073,1.0992085,1.0989017,1.0986216,1.0982046,1.0975044,1.0963062,1.0948775,1.0934459,1.0924722,1.0923599,1.0923123,1.092154,1.0917907,1.0914613,1.0912042,1.0910071,1.0907166,1.0902405,1.0895947,1.088784,1.0877821,1.086708,1.0853813,1.0841446,1.0833781,1.084069,1.0866063,1.0910587,1.09706,1.1031767,1.1081872,1.1114411,1.1128776,1.1130841,1.1126027,1.1123571,1.1126127,1.1129663,1.1131186,1.1130464,1.1127636,1.1124296,1.1120138,1.1114877,1.1109319,1.1104544,1.1100664,1.1097323
1.0790994,1.0802078,1.0814102,1.0826621,1.0838943,1.0850444,1.0861067,1.0871649,1.0882852,1.0894125,1.0905385,1.0917032,1.0929136,1.0942627,1.0956082,1.096794,1.0979469,1.0992457,1.1006547,1.1020215,1.1031837,1.1042383,1.1053237,1.106431,1.1074107,1.108346,1.109097,1.1099908,1.1111724,1.1123728,1.1133432,1.1117804,1.1061445,1.0964597,1.0827112,1.0716819,1.0673277,1.0683805,1.071239,1.0753784,1.0791684,1.0817826,1.0837157,1.0852773,1.0868309,1.0885403,1.0902239,1.0917988,1.0930791,1.0939876,1.0947256,1.0952109,1.0957803,1.0962875,1.09651,1.0954666,1.0923903,1.0865409,1.0756501,1.0597756,1.039179,1.0184462,1.0030069,0.9936768,0.9895453,0.98912835,0.99038434,0.99104,0.9907791,0.9895531,0.98768425,0.9857297,0.98408055,0.9832593,0.9832071,0.9840827,0.985489,0.9870444,0.98844504,0.9888431,0.98710704,0.9842204,0.9840454,0.9886482,1.0037271,1.0312021,1.0646048,1.0938209,1.1094675,1.1151755,1.1153083,1.1137042,1.1127579,1.1123965,1.1125698,1.1126499,1.1125828,1.1126376,1.112739,1.1129053,1.1132059,1.1135561,1.1138854,1.1141436,1.1141697,1.114087,1.1139879,1.1140084,1.1141165,1.1143862,1.1148005,1.1153837,1.1159768,1.1165216,1.1169522,1.1173271,1.1177458,1.1182728,1.1187592,1.118947,1.1189423,1.1189928,1.1192338,1.1193647,1.1185403,1.1161768,1.1123023,1.1077857,1.1043427,1.1030039,1.1032782,1.1041286,1.1049472,1.1051579,1.1046562,1.1039723,1.103465,1.1033859,1.1041372,1.1055658,1.1070403,1.1077199,1.1078465,1.1075704,1.107042,1.1064681,1.1059465,1.105588,1.1054025,1.1053579,1.1054325,1.1055737,1.1057761,1.1060586,1.1063958,1.1067634,1.1072361,1.1077769,1.108263,1.108636,1.1090217,1.1095736,1.1103749,1.1113054,1.1121407,1.1126319,1.1126845,1.1125624,1.1125014,1.1126211,1.1128926,1.1131614,1.1134431,1.1138078,1.1143,1.114893,1.1154908,1.1158757,1.1160771,1.1161848,1.1162553,1.116401,1.1166573,1.1169877,1.117391,1.1178455,1.1183589,1.118933,1.1195343,1.1201446,1.1207461,1.1213238,1.1218417,1.1222546,1.1225206,1.1226194,1.1226189,1.1225841,1.1225557,1.1225337,1.1225065,1.1224586,1.1223795,1.1222798,1.1221957,1.1221502,1.1221385,1.1221111,1.1220286,1.1218301,1.1214828,1.1209713,1.1203536,1.1196914,1.1190058,1.1183119,1.1175587,1.1167185,1.115835,1.1149931,1.1142452,1.11361,1.1130564,1.1124978,1.1118479,1.1111505,1.1104548,1.1098194,1.1092736,1.1088183,1.1084332,1.1080875,1.107742,1.1073585,1.1069391,1.1065965,1.1065288,1.1068752,1.107554,1.107961,1.1075468,1.1060827,1.103879,1.1019058,1.1008779,1.1007547,1.1009605,1.1006267,1.0999186,1.0990509,1.0985665,1.098958,1.0997975,1.1002996,1.1003554,1.1000249,1.0994421,1.0988613,1.0984061,1.098058,1.0977514,1.0973966,1.0967841,1.0957539,1.0941651,1.0925405,1.0913922,1.0912995,1.091378,1.0913991,1.0911133,1.0907681,1.0903962,1.0900536,1.0896786,1.0892067,1.088629,1.0878932,1.0869267,1.0858483,1.0845852,1.083321,1.0824413,1.0828288,1.0850056,1.0893948,1.0958416,1.1025231,1.1081494,1.1118412,1.1133997,1.1135256,1.1128556,1.1124647,1.1126769,1.1131003,1.1132487,1.1130875,1.1127031,1.1122459,1.1117158,1.1111097,1.1105212,1.1100621,1.1096694,1.1093241
1.078222,1.0795057,1.0809112,1.0823789,1.0838251,1.0851077,1.0862277,1.0872786,1.0883698,1.0894375,1.0904913,1.0916075,1.092809,1.0941892,1.095587,1.0968249,1.0980216,1.0993717,1.1008229,1.1022098,1.10337,1.10441,1.1054814,1.1065754,1.1075116,1.1083705,1.1090237,1.1098533,1.1110573,1.1122766,1.1131399,1.1112206,1.1050856,1.0950769,1.0812757,1.0709561,1.0674572,1.0689106,1.0720749,1.0763382,1.080076,1.082442,1.0841279,1.08548,1.0868919,1.0884686,1.0900044,1.0914601,1.0927167,1.0937734,1.0946844,1.0952816,1.0957923,1.0960907,1.0965588,1.0964526,1.0953763,1.092087,1.0847427,1.0729452,1.0551343,1.0337017,1.0136673,0.99965405,0.99212325,0.98962873,0.99036705,0.9915073,0.99167264,0.99069345,0.98893404,0.98681474,0.9848916,0.98370427,0.9832225,0.98363185,0.9846746,0.9862397,0.9879159,0.9890261,0.9885746,0.9861195,0.9847573,0.9866507,0.9959513,1.0168108,1.0474148,1.0800414,1.1012068,1.1114388,1.1138123,1.1129096,1.1119106,1.1111333,1.1112692,1.1115334,1.111547,1.1116673,1.1117809,1.1119666,1.1123072,1.1127161,1.1131082,1.1134229,1.113494,1.1134562,1.1134124,1.1135123,1.1137099,1.1140575,1.1145251,1.1151274,1.1157155,1.1162436,1.1166583,1.1170273,1.1174502,1.1179817,1.1184559,1.1186116,1.118572,1.1186061,1.1188704,1.1190448,1.1182358,1.115833,1.1118532,1.1071675,1.1036549,1.1023518,1.1027262,1.1035981,1.1043996,1.104538,1.1038991,1.1031168,1.1025517,1.102515,1.1034013,1.1050453,1.1066,1.1074587,1.1076926,1.1073952,1.1067398,1.1060015,1.1053252,1.104867,1.1046659,1.1046677,1.104805,1.1049879,1.1052077,1.1054916,1.1058433,1.1062541,1.1067207,1.1072537,1.1077471,1.1081536,1.1085482,1.1090747,1.1098895,1.1109967,1.1120458,1.1127341,1.1129637,1.1129951,1.1130444,1.1132226,1.1134655,1.1136749,1.1139829,1.114598,1.1156158,1.116895,1.1181619,1.1190166,1.1194153,1.1195003,1.1194367,1.1194742,1.1196363,1.1198955,1.1202612,1.1207054,1.1212357,1.121855,1.1225194,1.1232052,1.1238818,1.1245291,1.1251062,1.1255654,1.1258671,1.1259885,1.1259949,1.1259606,1.1259387,1.1259356,1.1259346,1.1259109,1.1258578,1.1257839,1.1257259,1.125705,1.1257167,1.1257262,1.1256698,1.1254878,1.1251745,1.1247063,1.124136,1.1235213,1.1228743,1.1221653,1.1214299,1.1206212,1.119756,1.1189014,1.118124,1.1174614,1.1168814,1.1162939,1.1156273,1.1149402,1.1142964,1.113766,1.1133614,1.1130606,1.1128144,1.1125603,1.1122601,1.111902,1.1115439,1.1114223,1.1117845,1.1123365,1.1127416,1.1125176,1.1111751,1.1087549,1.1052603,1.1021729,1.1007044,1.1006308,1.1007278,1.1003606,1.0996044,1.0984886,1.0976833,1.0979061,1.0988464,1.0995669,1.0997474,1.0994043,1.0987872,1.0981593,1.0976363,1.0972197,1.096942,1.0966449,1.0960733,1.0951104,1.0934374,1.0915372,1.0902092,1.0901253,1.0903435,1.0905318,1.0903134,1.0899467,1.0894643,1.0889763,1.0885365,1.0880849,1.0875762,1.086915,1.0859934,1.0849382,1.0838116,1.0825627,1.0816611,1.0817354,1.0835357,1.0878317,1.0945526,1.1018136,1.1080081,1.1120551,1.1136677,1.1137578,1.112918,1.1123791,1.1125371,1.1130042,1.1131591,1.112978,1.1125637,1.1120441,1.1114442,1.1107981,1.1101948,1.109735,1.1093547,1.1090324
1.0788846,1.0802041,1.0816746,1.0832186,1.0847373,1.0860002,1.0870163,1.0878794,1.0887535,1.0895728,1.0903673,1.0912464,1.0922458,1.0934702,1.0947672,1.0959461,1.0971209,1.0984902,1.0999949,1.1014583,1.1027013,1.1038201,1.1049583,1.1061089,1.1070673,1.1079118,1.1085347,1.109378,1.1106985,1.1120234,1.1128349,1.1105503,1.1038785,1.0933895,1.0795662,1.0699378,1.067264,1.0691569,1.0725096,1.0767751,1.0803494,1.0825002,1.0840404,1.0852622,1.0865464,1.0879914,1.0894048,1.0907292,1.0919316,1.0930424,1.093961,1.0945661,1.0949516,1.0951885,1.0956843,1.0959568,1.0959637,1.0944867,1.089944,1.0816181,1.0677675,1.0485597,1.026189,1.0075155,0.99589896,0.99063873,0.9903387,0.9916935,0.9922469,0.9915756,0.9900223,0.98783743,0.985711,0.98419785,0.9833221,0.9832581,0.9838277,0.98523784,0.98698854,0.9884752,0.9891497,0.9878768,0.9860443,0.98627853,0.99164855,1.0058148,1.0318555,1.0644649,1.0917208,1.1060243,1.1111045,1.1114677,1.1106133,1.1097194,1.1096132,1.1100137,1.1102759,1.1105969,1.1108211,1.1110852,1.1114941,1.1119764,1.1124384,1.1128144,1.1129395,1.112964,1.1129998,1.1131972,1.1134896,1.1138971,1.1143788,1.1149487,1.1154773,1.115937,1.1162915,1.1166217,1.1170291,1.1175592,1.1180286,1.1181663,1.1181016,1.1181171,1.1183891,1.1185869,1.1177864,1.1153486,1.1112716,1.1064396,1.1028404,1.1015415,1.1019789,1.1028792,1.1036835,1.1037977,1.1031047,1.1022578,1.1016252,1.1016145,1.1026212,1.104471,1.1061194,1.1071136,1.1074395,1.1071336,1.1064042,1.1055548,1.1047696,1.1042813,1.104111,1.1041892,1.1044087,1.1046455,1.1048889,1.1051748,1.1055332,1.1059651,1.1064551,1.1069427,1.1074576,1.1078959,1.1082911,1.108825,1.1097157,1.110934,1.1121194,1.1129682,1.1133678,1.1135596,1.1137342,1.1139754,1.1141801,1.1143093,1.1146243,1.1155026,1.1171024,1.1191655,1.121228,1.122638,1.1233113,1.1234522,1.1233203,1.1232724,1.1233605,1.123565,1.1238995,1.1243311,1.1248703,1.1255205,1.1262286,1.1269636,1.127686,1.1283693,1.128979,1.1294713,1.1298113,1.1299766,1.1300318,1.1300542,1.1300982,1.1301732,1.1302578,1.1303186,1.1303422,1.1303325,1.1303171,1.1303202,1.1303513,1.1303788,1.1303364,1.1301684,1.1298746,1.1294589,1.1289726,1.1284645,1.127943,1.1273776,1.1267679,1.1260812,1.1253295,1.1245527,1.1238154,1.1231585,1.1225681,1.1219783,1.1213281,1.1206758,1.120081,1.1196156,1.1192703,1.1190135,1.1187823,1.118506,1.118188,1.1178354,1.1175387,1.1175212,1.1178474,1.1182699,1.1183774,1.117528,1.115098,1.1113741,1.1064985,1.1022314,1.1003737,1.1003574,1.1004012,1.1001832,1.0993674,1.0981292,1.0969198,1.096942,1.0979378,1.0988176,1.099118,1.0987679,1.0980873,1.0973953,1.0967941,1.0963583,1.0960896,1.095801,1.0952516,1.0942866,1.0926478,1.0904069,1.0888882,1.0887649,1.0891247,1.0894662,1.0893037,1.0889214,1.0883598,1.0877268,1.0872784,1.0868943,1.0864599,1.0858738,1.0850058,1.0839999,1.0829718,1.081931,1.0810503,1.0808105,1.0822078,1.086329,1.0931522,1.100929,1.1075981,1.1118819,1.1135674,1.1136984,1.1127648,1.1121111,1.1122236,1.1126895,1.1128367,1.1126295,1.1121901,1.1116517,1.1110477,1.1104096,1.1098208,1.1093698,1.1090071,1.1087146
1.0799779,1.0812125,1.0826173,1.0841069,1.0855718,1.0867057,1.0875223,1.0881155,1.0887,1.0892029,1.0896653,1.0902175,1.0909045,1.0918416,1.0929203,1.0939481,1.095047,1.0964036,1.0979742,1.0995712,1.1009907,1.1022986,1.1036031,1.1049058,1.1059703,1.1068791,1.1075437,1.1084732,1.1099856,1.1114895,1.1123008,1.109678,1.1024952,1.0914879,1.0777304,1.0688201,1.0669322,1.0692215,1.0727477,1.0769248,1.0801885,1.0821693,1.0835888,1.0847579,1.0860041,1.0873516,1.0886252,1.0898403,1.0909781,1.0920584,1.0929136,1.0934281,1.093674,1.0939099,1.0944731,1.0949736,1.095463,1.0950779,1.0925767,1.0869784,1.0768923,1.0611665,1.039106,1.0168939,1.000879,0.99265593,0.9907246,0.99159455,0.99255353,0.9922144,0.99089706,0.98873353,0.9864749,0.9846997,0.9834977,0.9829362,0.98299086,0.98410773,0.9858527,0.9876038,0.98881197,0.98877597,0.98750496,0.9867657,0.98957694,0.9984714,1.0189732,1.0494461,1.0806484,1.0996754,1.107605,1.1096281,1.1090862,1.1080915,1.1079103,1.1082563,1.1088134,1.1094036,1.1097964,1.1101735,1.1106626,1.1112201,1.1117451,1.1121712,1.1123405,1.1124227,1.1125368,1.1128241,1.113201,1.1136508,1.1141264,1.114646,1.1151023,1.1154866,1.1157761,1.1160638,1.1164541,1.116994,1.1174834,1.1176405,1.1175828,1.1175959,1.1178696,1.1180716,1.1172643,1.1147842,1.1106093,1.1056428,1.1019394,1.1006217,1.1011062,1.1020466,1.1028837,1.1030052,1.1023142,1.1014667,1.1008164,1.1008394,1.1019311,1.1038883,1.1055562,1.1066164,1.1070001,1.1067162,1.1059744,1.1050885,1.1042594,1.1037748,1.1036732,1.1038402,1.1041439,1.1044376,1.1047127,1.1050127,1.1053876,1.1058385,1.1063395,1.1068897,1.1074754,1.1079247,1.1083249,1.1088909,1.1098373,1.1111039,1.1123706,1.113322,1.1138531,1.1141956,1.1145053,1.114814,1.1149702,1.1149912,1.1152706,1.1163617,1.1184857,1.1212871,1.1241134,1.126075,1.127033,1.1272514,1.1270837,1.1269898,1.1270437,1.1272255,1.1275516,1.1279798,1.1285276,1.1292028,1.129946,1.1307168,1.1314663,1.1321638,1.132786,1.1332972,1.1336749,1.1338972,1.1340296,1.1341499,1.1343063,1.1345055,1.1347142,1.1348858,1.1349981,1.1350495,1.1350695,1.135094,1.1351391,1.1351814,1.1351573,1.1350142,1.1347508,1.1343935,1.1340058,1.1336329,1.1332779,1.1329135,1.1324911,1.1319673,1.1313448,1.1306541,1.1299567,1.1292967,1.1286829,1.1280711,1.1274028,1.1267346,1.126124,1.1256424,1.1252718,1.1249678,1.1246564,1.1242623,1.1238213,1.1233741,1.1230361,1.1229758,1.1232431,1.1236374,1.123647,1.1223309,1.1188947,1.1136836,1.1071644,1.1018221,1.0997648,1.0998703,1.1001506,1.1001155,1.099216,1.0977641,1.0963016,1.0961175,1.0970684,1.0979817,1.0983808,1.0980858,1.0973341,1.096587,1.0959537,1.095475,1.095166,1.0948861,1.0943631,1.0933985,1.0918169,1.0892985,1.0875247,1.0873208,1.0877864,1.088263,1.0881481,1.0877608,1.087152,1.0864108,1.0859927,1.0857,1.0853374,1.0848181,1.0840001,1.0830562,1.0821114,1.0813189,1.0805969,1.0800152,1.0809801,1.0848265,1.0916348,1.099808,1.1068498,1.1112919,1.1131275,1.1132877,1.1124216,1.1117426,1.1118255,1.11222,1.1123426,1.1121067,1.1116482,1.1110995,1.1104963,1.1098645,1.1092858,1.1088512,1.1085126,1.108257
1.0779374,1.0792336,1.0807145,1.082301,1.083888,1.0851299,1.0860411,1.086704,1.0873533,1.0878893,1.088346,1.0888298,1.0893791,1.090116,1.0909953,1.0918398,1.0927842,1.0940123,1.0955276,1.0971653,1.0987115,1.1001868,1.1016672,1.1031623,1.1043943,1.1054316,1.1061995,1.1072695,1.1090097,1.1107097,1.1115108,1.1085546,1.1009333,1.089381,1.0758927,1.0678338,1.0667433,1.0693419,1.0730362,1.0769086,1.0798914,1.0816855,1.0830188,1.0842103,1.0854981,1.0868256,1.087987,1.0890386,1.0900624,1.0910391,1.0917447,1.0921167,1.0922952,1.0926074,1.0933354,1.0941012,1.0948648,1.095015,1.093782,1.0900788,1.0828385,1.0705845,1.0507044,1.0274711,1.007597,0.9959339,0.9917939,0.99165154,0.9927588,0.99264896,0.9915499,0.98947716,0.9871673,0.9852179,0.9837671,0.9828319,0.9824618,0.9831474,0.9846902,0.98663294,0.9880712,0.9889717,0.9887253,0.9877169,0.9887104,0.9940479,1.0089345,1.0358546,1.0678966,1.0927448,1.1035663,1.1075971,1.1076632,1.1065583,1.1062288,1.1064982,1.1072547,1.1080775,1.1086318,1.1091094,1.1096547,1.1102564,1.1108096,1.1112502,1.1114305,1.111531,1.1116784,1.112009,1.1124282,1.1128973,1.1133618,1.1138494,1.1142709,1.1146255,1.1148959,1.1151791,1.1155813,1.1161578,1.1167014,1.1169183,1.1169015,1.1169288,1.1171999,1.1173942,1.1165824,1.1140832,1.1098456,1.1047508,1.1009694,1.0996478,1.1002142,1.1012003,1.1020942,1.1022565,1.1016002,1.1007857,1.100173,1.1002567,1.1014202,1.1033347,1.1049895,1.1060712,1.1064821,1.1062238,1.1054991,1.1046258,1.1038108,1.1033466,1.1032722,1.1034787,1.1038339,1.1041703,1.1044775,1.1048093,1.105227,1.1057155,1.1062723,1.1069529,1.107589,1.1080723,1.1085161,1.1091287,1.1101115,1.1113968,1.1126752,1.1136547,1.1142707,1.1147487,1.1151948,1.1155632,1.1156385,1.1154912,1.115642,1.1168339,1.1192968,1.1226375,1.1260324,1.1283919,1.1295367,1.1297967,1.1296039,1.1295029,1.1295722,1.129778,1.1301377,1.1306021,1.1311977,1.1319394,1.1327567,1.1335971,1.1343977,1.1351234,1.1357603,1.1362894,1.1367025,1.1369841,1.1371996,1.1374226,1.1376951,1.1380157,1.1383394,1.138608,1.1387918,1.1388857,1.1389229,1.1389464,1.1389816,1.139015,1.1389866,1.1388481,1.1386082,1.1383045,1.1380109,1.1377666,1.1375649,1.1373641,1.1371057,1.1367359,1.1362413,1.1356313,1.1349622,1.1342865,1.133635,1.1329772,1.1322606,1.1315415,1.1308781,1.1303468,1.1299261,1.1295588,1.1291633,1.1286544,1.1280811,1.1275014,1.1270561,1.126939,1.1272565,1.1277125,1.1276565,1.1259649,1.1217303,1.1153023,1.1070166,1.1008592,1.0988315,1.09936,1.0999827,1.1001515,1.0992312,1.0975457,1.095893,1.0954089,1.0962206,1.0971286,1.097585,1.097353,1.0965827,1.0957887,1.0951105,1.0945683,1.0942283,1.0939676,1.0934782,1.0925212,1.0909903,1.0883231,1.0862641,1.0859535,1.0864631,1.0870252,1.0869522,1.0865674,1.0859251,1.0851405,1.084758,1.0845333,1.0842216,1.083745,1.0829663,1.0820872,1.0812421,1.0805416,1.080052,1.0792744,1.079779,1.083277,1.0899894,1.098391,1.1057351,1.1103265,1.1123629,1.1125791,1.1118524,1.111249,1.111274,1.1114926,1.1115515,1.1112705,1.1107864,1.1102304,1.1096287,1.1089995,1.1084199,1.1079843,1.1076536,1.1074209
1.0697623,1.0714041,1.0732844,1.0753243,1.077421,1.0792832,1.0808945,1.0822921,1.0836703,1.0848966,1.0859587,1.0869131,1.0877566,1.0886137,1.0895011,1.0902705,1.0910611,1.0920815,1.0934172,1.0949621,1.0965259,1.0980737,1.0996795,1.1013573,1.1027858,1.1039797,1.1048776,1.1060994,1.1080472,1.1098967,1.1106229,1.107318,1.0993325,1.0873468,1.0743253,1.0671759,1.0668823,1.0697335,1.073348,1.076954,1.0796564,1.0812707,1.0825493,1.083801,1.0851622,1.0865059,1.0876135,1.0885206,1.0893865,1.0902189,1.0907648,1.0909772,1.0911276,1.091589,1.09255,1.0936081,1.094523,1.0948758,1.0942492,1.0917587,1.0865245,1.0771194,1.0609355,1.0386322,1.0158803,1.0007308,0.9940284,0.99245405,0.9929279,0.99302197,0.99210584,0.9901527,0.9878654,0.9858459,0.98422027,0.9831003,0.9824279,0.9826523,0.9837459,0.9856652,0.9874505,0.9887794,0.98978025,0.98930573,0.98911655,0.9917581,1.0018497,1.0238996,1.0546958,1.0844185,1.0989438,1.105407,1.1065135,1.105496,1.1049292,1.1050382,1.1058648,1.1068275,1.1074946,1.1080314,1.1085879,1.1091902,1.1097331,1.1101565,1.1103144,1.1103919,1.1105213,1.110839,1.1112537,1.1117165,1.112165,1.1126406,1.113064,1.1134377,1.113741,1.1140649,1.1145172,1.1151621,1.1157887,1.1160955,1.116144,1.1161985,1.1164746,1.1166642,1.1158674,1.1133859,1.1091366,1.1039639,1.1001446,1.098826,1.0994699,1.1005371,1.1014943,1.1017118,1.1011074,1.1003423,1.0997947,1.0999616,1.1012045,1.1030197,1.1046443,1.1057194,1.1061374,1.1058984,1.1051974,1.1043478,1.1035622,1.1031214,1.1030574,1.1032683,1.1036079,1.1039324,1.1042702,1.1046622,1.1051564,1.1057234,1.1064513,1.1072297,1.1079199,1.1084727,1.109,1.1097026,1.1107436,1.1120375,1.1132984,1.1142764,1.114971,1.1155982,1.1162027,1.1166415,1.1166316,1.1162941,1.116277,1.1173105,1.1200726,1.1237502,1.1274837,1.1300504,1.131247,1.131475,1.131233,1.1311309,1.1312394,1.1315011,1.1319273,1.1324663,1.1331558,1.1340137,1.1349524,1.1359038,1.1367891,1.137563,1.138221,1.1387637,1.1392014,1.1395304,1.1398158,1.1401263,1.1404929,1.1409072,1.1413128,1.1416461,1.141875,1.1419938,1.1420367,1.14205,1.142066,1.1420751,1.1420246,1.1418685,1.1416268,1.1413469,1.1411088,1.1409488,1.1408517,1.1407679,1.140631,1.140382,1.139992,1.1394504,1.1388032,1.1381059,1.1374083,1.1366974,1.135923,1.1351442,1.134419,1.1338305,1.1333592,1.1329424,1.1324914,1.1319157,1.131263,1.1305907,1.130052,1.129878,1.1302141,1.1307336,1.1306942,1.1287925,1.1240109,1.1165761,1.1069531,1.1000638,1.0981823,1.0992056,1.1002676,1.1007121,1.0997227,1.0977888,1.09588,1.0950317,1.0956624,1.0965244,1.096988,1.0968192,1.0960848,1.0952038,1.0944614,1.0938845,1.0935338,1.0933015,1.0928521,1.0919093,1.0903609,1.0876944,1.085367,1.0849243,1.0854385,1.0860426,1.0860027,1.0856193,1.0849621,1.0841718,1.0838073,1.0836279,1.0833535,1.0829065,1.0821671,1.0813596,1.0806258,1.0799656,1.0794845,1.0787971,1.0788066,1.0818894,1.0884182,1.0969424,1.1045675,1.109339,1.1116064,1.1119373,1.1112816,1.1107666,1.110704,1.1108172,1.1108024,1.1104698,1.1099608,1.1094031,1.1088115,1.1081905,1.10761,1.1071689,1.1068382,1.1066206
1.0539685,1.0562372,1.0587802,1.0615952,1.0645978,1.0675015,1.0702132,1.0728788,1.0755639,1.0781301,1.0806245,1.0828292,1.0847019,1.0863616,1.0878532,1.08904,1.0900154,1.0910228,1.0922394,1.0936778,1.0951798,1.0966569,1.0982339,1.0999783,1.1015291,1.1028057,1.1037614,1.1050444,1.107074,1.1089377,1.1094671,1.1057948,1.0975711,1.0854316,1.0731039,1.0669255,1.0673331,1.0702326,1.0737708,1.0770969,1.0794744,1.0809083,1.0821419,1.083461,1.0849006,1.0862743,1.0873665,1.0882279,1.0889804,1.0896924,1.0901346,1.0902326,1.0903577,1.0909069,1.0920086,1.0932567,1.094228,1.0946386,1.0942494,1.0924251,1.0885878,1.0812919,1.0683023,1.0484369,1.0249002,1.0065833,0.9969561,0.9936917,0.9931313,0.9931525,0.99238,0.9905658,0.9883807,0.9863329,0.98468924,0.9834968,0.9826406,0.98249054,0.9830969,0.9846656,0.9865706,0.98833823,0.98997974,0.9903629,0.98970664,0.9903853,0.9969692,1.0135841,1.0418285,1.0727758,1.0928363,1.1022944,1.1050397,1.1045272,1.1038438,1.1037462,1.1045283,1.1055223,1.1062331,1.1067775,1.1073053,1.1078805,1.1084024,1.1088135,1.1089609,1.1090174,1.1091166,1.1093941,1.1097711,1.1101992,1.1106148,1.1110716,1.1115025,1.111913,1.1122775,1.1126795,1.1132231,1.113975,1.1147168,1.1151361,1.115264,1.1153517,1.1156328,1.1158135,1.1150314,1.1125792,1.1083457,1.1031363,1.0992877,1.0979533,1.0986536,1.099834,1.1008351,1.1010957,1.1005313,1.099812,1.0993042,1.0995526,1.1008881,1.1026425,1.1042334,1.1052839,1.1056873,1.1054575,1.1047838,1.1039699,1.1032217,1.1028016,1.1027361,1.1029308,1.1032548,1.1035624,1.103895,1.1043302,1.1049467,1.1057186,1.1065924,1.1074525,1.1082098,1.1088481,1.1094822,1.1103066,1.1114373,1.1127635,1.114023,1.1150138,1.1158029,1.1166005,1.1173906,1.1179341,1.1178832,1.1174078,1.1172239,1.1180615,1.1209986,1.1249127,1.1288011,1.13141,1.132539,1.132663,1.1323392,1.1322286,1.132387,1.1327262,1.1332448,1.133884,1.1346846,1.1356615,1.1367112,1.1377509,1.138686,1.139466,1.1400969,1.140597,1.141007,1.1413398,1.1416662,1.142046,1.1424935,1.1429849,1.1434548,1.1438396,1.1441101,1.1442592,1.1443164,1.144319,1.1442964,1.1442437,1.1441215,1.1438947,1.1436018,1.1433007,1.143074,1.1429553,1.1429197,1.1429131,1.1428648,1.1427127,1.1424134,1.1419411,1.1413326,1.1406472,1.1399447,1.1392186,1.1384164,1.1375947,1.1368186,1.1361873,1.13569,1.1352689,1.1348236,1.1342571,1.133593,1.1328752,1.1322532,1.131993,1.1323042,1.132865,1.1328912,1.1309261,1.1258423,1.1176398,1.1071769,1.0996208,1.0977678,1.0992765,1.1006156,1.1011926,1.1001021,1.0979311,1.0957325,1.0946019,1.0951037,1.0958774,1.0963439,1.0962023,1.0954716,1.0945191,1.0937358,1.0931485,1.0928009,1.0926021,1.0921952,1.0912716,1.0896959,1.0870633,1.0845742,1.08395,1.084437,1.0850585,1.0850443,1.0846376,1.0839598,1.0831759,1.0828128,1.0826527,1.0823994,1.0819696,1.0812647,1.0805315,1.0799122,1.0793062,1.0787743,1.0782168,1.0777528,1.0804081,1.086654,1.0951806,1.1030465,1.1080792,1.1105977,1.1110818,1.1105027,1.1100149,1.1099181,1.1099906,1.1099272,1.1095645,1.1090465,1.1084989,1.107929,1.1073287,1.1067574,1.1063111,1.1059719,1.1057521
1.027417,1.0314292,1.0360043,1.0409259,1.0456448,1.0499232,1.0541899,1.0584838,1.0629733,1.0672894,1.0711716,1.0749669,1.0784383,1.0816008,1.084411,1.0866991,1.0884233,1.0898607,1.0912645,1.0928098,1.0943618,1.095773,1.0972829,1.0990546,1.100708,1.1020246,1.1029718,1.1042069,1.1061616,1.1078761,1.1080742,1.1040285,1.0956998,1.083738,1.0722992,1.0671153,1.0680954,1.070945,1.0743707,1.0773631,1.0793872,1.0806326,1.081814,1.083183,1.0846853,1.0860963,1.0872028,1.0880785,1.0888419,1.0894891,1.0898902,1.0899692,1.0900848,1.0906434,1.0917461,1.0930306,1.0939782,1.094398,1.0940657,1.0925406,1.0895505,1.0836976,1.0732547,1.0566925,1.0338216,1.01318,1.0006874,0.9952456,0.99373025,0.99316835,0.99252546,0.99085075,0.98880607,0.9867842,0.9851922,0.98397124,0.9830068,0.98256695,0.98273903,0.9838282,0.9856111,0.9876969,0.989535,0.990649,0.98995066,0.9893882,0.9932004,1.0048952,1.0294453,1.0597551,1.085049,1.0980058,1.102928,1.1034162,1.102844,1.1026037,1.1032848,1.1042233,1.1049224,1.1054434,1.1059349,1.1064899,1.1070148,1.1074517,1.1076343,1.1077111,1.1078082,1.1080582,1.1083956,1.1087781,1.1091461,1.1095672,1.1099856,1.1104181,1.1108371,1.1113262,1.1119823,1.1128663,1.1137424,1.1142819,1.1144869,1.114604,1.114883,1.115046,1.114263,1.1118265,1.1076058,1.1023839,1.0984879,1.0971153,1.0978441,1.0991169,1.1001358,1.1004138,1.0998626,1.0991693,1.0986748,1.0990022,1.1004574,1.1021761,1.1037418,1.1047628,1.1051421,1.1049182,1.1042775,1.1035125,1.1028123,1.1024108,1.1023312,1.10249,1.102784,1.1030868,1.1034571,1.1039834,1.1047417,1.1056786,1.1066742,1.107619,1.1084418,1.109158,1.1099015,1.1108537,1.1120898,1.1134712,1.1147504,1.1157672,1.1166513,1.1176102,1.118582,1.1192522,1.1192214,1.1186979,1.1184137,1.1192131,1.1222446,1.1262391,1.1301479,1.1326842,1.1336677,1.133642,1.1332171,1.1330923,1.133302,1.1337273,1.1343453,1.135084,1.1359819,1.1370461,1.1381607,1.1392316,1.1401563,1.140883,1.1414294,1.141832,1.1421643,1.1424612,1.1428015,1.1432339,1.143749,1.144304,1.1448227,1.1452483,1.1455567,1.1457385,1.145812,1.1457956,1.1457117,1.1455617,1.1453247,1.1449888,1.1446133,1.1442695,1.1440362,1.1439415,1.1439495,1.144002,1.1440301,1.1439674,1.1437619,1.1433787,1.1428498,1.1422372,1.1416006,1.140928,1.1401529,1.1393218,1.1385167,1.1378535,1.1373489,1.136954,1.1365566,1.1360502,1.1354187,1.1346833,1.1339787,1.1336,1.1338336,1.1343899,1.1344881,1.132551,1.1273427,1.118648,1.1076615,1.0996042,1.0976663,1.0993692,1.1007934,1.1013952,1.1002128,1.0978718,1.0954614,1.0941081,1.0944918,1.0952258,1.0956767,1.0955261,1.0948026,1.0938104,1.0930171,1.0924407,1.0921022,1.0919287,1.0915532,1.0906416,1.0890362,1.0863899,1.0838337,1.0830197,1.0834665,1.0840938,1.084084,1.0836537,1.0829458,1.0821688,1.0817927,1.0816295,1.0813844,1.080965,1.080292,1.0796266,1.0791153,1.0785675,1.07799,1.0774293,1.0767193,1.0789498,1.084859,1.093314,1.1013697,1.1066649,1.109442,1.1100926,1.1096063,1.1091368,1.1090257,1.1090724,1.1089764,1.1085949,1.1080716,1.1075318,1.1069795,1.1064005,1.1058395,1.1053877,1.1050348,1.1048
0.99485,0.99911535,1.0042696,1.0102143,1.016505,1.0231245,1.0300765,1.0368929,1.0430086,1.0490332,1.0550208,1.0606866,1.0656416,1.0703677,1.0747936,1.0788977,1.0824769,1.085546,1.0882435,1.0908945,1.0933352,1.0953498,1.097272,1.0994287,1.1013963,1.1028429,1.1037263,1.1047199,1.106266,1.1074432,1.1069305,1.1022744,1.093748,1.0822781,1.0717545,1.0674081,1.068882,1.0716673,1.0749636,1.0776374,1.0793457,1.0804317,1.0815718,1.0829852,1.0845451,1.0860066,1.0871496,1.0880618,1.0888638,1.0895352,1.0899258,1.0899925,1.0900863,1.0905617,1.0915103,1.0927029,1.093665,1.0941107,1.0936576,1.092129,1.0895407,1.0846267,1.0759249,1.0619421,1.0412644,1.0202308,1.0053003,0.99761325,0.9948195,0.9935554,0.99266,0.9911317,0.98919487,0.9873186,0.98583287,0.984626,0.9835921,0.9829077,0.9826697,0.98323154,0.9846371,0.98675585,0.98876315,0.99036294,0.9899181,0.9887916,0.99056077,0.9986843,1.0185744,1.0467706,1.0751379,1.0923566,1.0998456,1.1019416,1.1018031,1.1015592,1.1021274,1.1029704,1.1036518,1.1041781,1.1046875,1.105272,1.1058451,1.1063588,1.1066359,1.1068007,1.1069638,1.1072454,1.1075861,1.1079446,1.1082675,1.1086329,1.1090019,1.1094081,1.1098378,1.1103873,1.1111504,1.1121763,1.1132007,1.113872,1.1141636,1.1143196,1.114598,1.1147275,1.1138988,1.111409,1.1071315,1.1019063,1.0978785,1.0964077,1.0971133,1.0984285,1.0994467,1.0997252,1.09917,1.0984867,1.0980061,1.0984256,1.0999895,1.1017106,1.1032637,1.1042495,1.1045909,1.1043677,1.10377,1.103073,1.1024415,1.1020687,1.1019696,1.1020715,1.1023035,1.1025782,1.1029825,1.1036115,1.1045188,1.1056089,1.1067181,1.107729,1.1085889,1.1093521,1.1101785,1.1112466,1.1125953,1.1140583,1.1153796,1.1164252,1.1173713,1.1184375,1.1195486,1.120357,1.1204374,1.1199975,1.1198444,1.1207662,1.1238072,1.1277288,1.1315548,1.1339462,1.1347537,1.1345708,1.134044,1.1338928,1.1341345,1.1346254,1.1353194,1.1361265,1.1370745,1.1381583,1.1392547,1.1402695,1.1411028,1.1417083,1.1421156,1.1423738,1.1425914,1.1428299,1.1431787,1.1436726,1.1442724,1.1449075,1.1454868,1.1459608,1.1463083,1.1465144,1.1465824,1.1465122,1.1463213,1.14603,1.1456391,1.1451705,1.144708,1.1443319,1.1441126,1.1440637,1.1441393,1.1442734,1.1444044,1.1444597,1.1443799,1.1441259,1.1437336,1.1432722,1.1427951,1.1422708,1.1415966,1.1407961,1.1399677,1.1392561,1.1387229,1.1383404,1.1379894,1.1375495,1.1369596,1.1362151,1.1354282,1.1349102,1.1350145,1.1354989,1.1356182,1.1337276,1.128499,1.1196477,1.108432,1.1000953,1.0978148,1.0993881,1.1007471,1.1012962,1.1000392,1.0976186,1.0951264,1.0936704,1.093917,1.0946183,1.0950143,1.0948318,1.0941347,1.0931561,1.0923653,1.0918083,1.0914826,1.0913241,1.090965,1.0900505,1.0884066,1.0857083,1.083107,1.082138,1.08253,1.0831814,1.0831649,1.0827118,1.0819608,1.0811741,1.0807755,1.0806077,1.0803792,1.0799775,1.0793326,1.0787222,1.0783031,1.077827,1.0772064,1.0765498,1.0758157,1.0775816,1.0831056,1.0914046,1.0995827,1.1051054,1.1081362,1.108956,1.1085596,1.1081039,1.1079711,1.107993,1.107867,1.1074648,1.1069285,1.1063837,1.1058385,1.105276,1.1047256,1.1042686,1.1038961,1.1036342
